# .PCD v.7 - Point Cloud Data file format
FIELDS x y z rgb imX imY
SIZE 4 4 4 4 4 4
TYPE F F F F F F
COUNT 1 1 1 1 1 1
WIDTH 842
HEIGHT 1
VIEWPOINT 0 0 0 1 0 0 0
POINTS 842
DATA ascii
0.069723055 0.67400002 -0.088631004 1.7139988e-38 379 315
0.070904799 0.67400002 -0.088631004 1.7233255e-38 380 315
0.072193496 0.67500001 -0.088762499 1.7325451e-38 381 315
0.073485702 0.676 -0.088893995 1.750877e-38 382 315
0.074670963 0.676 -0.088893995 1.7416573e-38 383 315
0.075856209 0.676 -0.088893995 1.7416573e-38 384 315
0.077041462 0.676 -0.088893995 1.7232183e-38 385 315
0.078458153 0.67799997 -0.089156993 1.7047789e-38 386 315
0.079646915 0.67799997 -0.089156993 1.6955594e-38 387 315
0.08083567 0.67799997 -0.089156993 1.6771204e-38 388 315
0.082266398 0.68000001 -0.089419998 1.6494618e-38 389 315
0.083458669 0.68000001 -0.089419998 1.6126559e-38 390 315
0.084899902 0.68199998 -0.089682996 1.6034363e-38 391 315
0.086095676 0.68199998 -0.089682996 1.5666658e-38 392 315
0.087291449 0.68199998 -0.089682996 1.5574463e-38 393 315
0.088616975 0.68300003 -0.089814499 1.5573738e-38 394 315
0.089814499 0.68300003 -0.089814499 1.529715e-38 395 315
0.091145277 0.68400002 -0.089946002 1.4654652e-38 396 315
0.092614569 0.68599999 -0.090209 1.4469902e-38 397 315
0.093954116 0.68699998 -0.090340495 1.3551178e-38 398 315
0.095158651 0.68699998 -0.090340495 1.3274233e-38 399 315
0.096363194 0.68699998 -0.090340495 1.1433219e-38 400 315
0.097567737 0.68699998 -0.090340495 1.0695654e-38 401 315
0.098772272 0.68699998 -0.090340495 8.3915427e-39 402 315
0.099976815 0.68699998 -0.090340495 1.0880825e-38 403 315
-0.081056595 0.69 -0.091944791 1.3459095e-38 253 316
-0.079615362 0.68800002 -0.091678292 1.3178859e-38 254 316
-0.078295097 0.68699998 -0.09154503 1.4008621e-38 255 316
-0.076978341 0.68599999 -0.091411777 1.4197309e-38 256 316
-0.075775556 0.68599999 -0.091411777 1.4934874e-38 257 316
-0.074355356 0.68400002 -0.091145277 1.6038347e-38 258 316
-0.073156074 0.68400002 -0.091145277 1.6499325e-38 259 316
-0.071851604 0.68300003 -0.091012023 1.6774467e-38 260 316
-0.070654072 0.68300003 -0.091012023 1.6866663e-38 261 316
-0.069354847 0.68199998 -0.090878762 1.7142527e-38 262 316
-0.067959204 0.68000001 -0.090612262 1.7326918e-38 263 316
-0.066766933 0.68000001 -0.090612262 1.7602782e-38 264 316
-0.065574668 0.68000001 -0.090612262 1.7787175e-38 265 316
-0.064287722 0.67900002 -0.090479009 1.8062683e-38 266 316
-0.063004278 0.67799997 -0.090345755 1.8247433e-38 267 316
-0.061815511 0.67799997 -0.090345755 1.8339628e-38 268 316
-0.060626756 0.67799997 -0.090345755 1.8339628e-38 269 316
-0.059262663 0.676 -0.090079248 1.8339981e-38 270 316
-0.058077414 0.676 -0.090079248 1.8339981e-38 271 316
-0.056808002 0.67500001 -0.089945994 1.8522938e-38 272 316
-0.0556245 0.67500001 -0.089945994 1.8522938e-38 273 316
-0.054360349 0.67400002 -0.089812748 1.8708052e-38 274 316
-0.053178601 0.67400002 -0.089812748 1.8800606e-38 275 316
-0.051996857 0.67400002 -0.089812748 1.8800604e-38 276 316
-0.050664317 0.67199999 -0.089546233 1.8892799e-38 277 316
-0.049486078 0.67199999 -0.089546233 1.8985351e-38 278 316
-0.04830784 0.67199999 -0.089546233 1.8892796e-38 279 316
-0.047129598 0.67199999 -0.089546233 1.8893505e-38 280 316
-0.045951359 0.67199999 -0.089546233 1.8893505e-38 281 316
-0.044773117 0.67199999 -0.089546233 1.8893856e-38 282 316
-0.043530006 0.671 -0.089412987 1.8893856e-38 283 316
-0.042353518 0.671 -0.089412987 1.8800938e-38 284 316
-0.041177034 0.671 -0.089412987 1.8800938e-38 285 316
-0.040000543 0.671 -0.089412987 1.8799855e-38 286 316
-0.038824059 0.671 -0.089412987 1.8799855e-38 287 316
-0.037647571 0.671 -0.089412987 1.8799858e-38 288 316
-0.036471087 0.671 -0.089412987 1.8707662e-38 289 316
-0.0352946 0.671 -0.089412987 1.8340682e-38 290 316
-0.033965573 0.66799998 -0.089013219 1.8340682e-38 291 316
-0.032794341 0.66799998 -0.089013219 1.8249205e-38 292 316
-0.031623118 0.66799998 -0.089013219 1.8249205e-38 293 316
-0.030543067 0.67000002 -0.089279734 1.8156301e-38 294 316
-0.029368332 0.67000002 -0.089279734 1.8248855e-38 295 316
-0.028193599 0.67000002 -0.089279734 1.8248151e-38 296 316
-0.027018867 0.67000002 -0.089279734 1.7971566e-38 297 316
-0.025882706 0.671 -0.089412987 1.8153815e-38 298 316
-0.0248535 0.67500001 -0.089945994 1.7969065e-38 299 316
0.037591465 0.67000002 -0.089279734 1.8338576e-38 352 316
0.038766202 0.67000002 -0.089279734 1.8430771e-38 353 316
0.039940935 0.67000002 -0.089279734 1.8522237e-38 354 316
0.041115668 0.67000002 -0.089279734 1.8430041e-38 355 316
0.043335386 0.66799998 -0.089013219 1.8339625e-38 357 316
0.044506609 0.66799998 -0.089013219 1.8522928e-38 358 316
0.045609459 0.667 -0.088879973 1.8522928e-38 359 316
0.046778932 0.667 -0.088879973 1.8430729e-38 360 316
0.047948405 0.667 -0.088879973 1.8430729e-38 361 316
0.049117878 0.667 -0.088879973 1.8614039e-38 362 316
0.050287351 0.667 -0.088879973 1.8614039e-38 363 316
0.051533967 0.66799998 -0.089013219 1.8337812e-38 364 316
0.052941896 0.671 -0.089412987 1.8337812e-38 365 316
0.054118387 0.671 -0.089412987 1.8061218e-38 366 316
0.055294871 0.671 -0.089412987 1.7600599e-38 367 316
0.056471359 0.671 -0.089412987 1.6954851e-38 368 316
0.057647847 0.671 -0.089412987 1.5387885e-38 369 316
0.058824331 0.671 -0.089412987 1.5109869e-38 370 316
0.060000818 0.671 -0.089412987 1.5202065e-38 371 316
0.061268479 0.67199999 -0.089546233 1.5660189e-38 372 316
0.062446721 0.67199999 -0.089546233 1.5936775e-38 373 316
0.063624956 0.67199999 -0.089546233 1.5386844e-38 374 316
0.064706765 0.671 -0.089412987 1.6124409e-38 375 316
0.065883249 0.671 -0.089412987 1.6954893e-38 376 316
0.06705974 0.671 -0.089412987 1.723148e-38 377 316
0.068236224 0.671 -0.089412987 1.7232902e-38 378 316
0.069309272 0.67000002 -0.089279734 1.7140707e-38 379 316
0.070483997 0.67000002 -0.089279734 1.7415849e-38 380 316
0.071765684 0.671 -0.089412987 1.7323653e-38 381 316
0.073050871 0.67199999 -0.089546233 1.7323306e-38 382 316
0.074229114 0.67199999 -0.089546233 1.7323306e-38 383 316
0.07563179 0.67400002 -0.089812748 1.7230754e-38 384 316
0.076813534 0.67400002 -0.089812748 1.7046723e-38 385 316
0.077995278 0.67400002 -0.089812748 1.686233e-38 386 316
0.079177029 0.67400002 -0.089812748 1.686233e-38 387 316
0.080477998 0.67500001 -0.089945994 1.640207e-38 388 316
0.081782483 0.676 -0.090079248 1.6309874e-38 389 316
0.082967728 0.676 -0.090079248 1.5942166e-38 390 316
0.08440195 0.67799997 -0.090345755 1.5849971e-38 391 316
0.086095676 0.68199998 -0.090878762 1.5574463e-38 392 316
0.087291449 0.68199998 -0.090878762 1.5389713e-38 393 316
0.088487223 0.68199998 -0.090878762 1.5389713e-38 394 316
0.089814499 0.68300003 -0.091012023 1.5113485e-38 395 316
0.091012023 0.68300003 -0.091012023 1.4470631e-38 396 316
0.092344552 0.68400002 -0.091145277 1.4194044e-38 397 316
0.093817353 0.68599999 -0.091411777 1.3274611e-38 398 316
0.095020145 0.68599999 -0.091411777 1.2905468e-38 399 316
0.096363194 0.68699998 -0.09154503 1.1155925e-38 400 316
0.097567737 0.68699998 -0.09154503 1.041836e-38 401 316
0.098772272 0.68699998 -0.09154503 8.8503531e-39 402 316
-0.081056595 0.69 -0.093154602 1.4380704e-38 253 317
-0.079615362 0.68800002 -0.092884585 1.3085235e-38 254 317
-0.078409068 0.68800002 -0.092884585 1.3546214e-38 255 317
-0.076978341 0.68599999 -0.092614569 1.3459385e-38 256 317
-0.075775556 0.68599999 -0.092614569 1.4104754e-38 257 317
-0.074355356 0.68400002 -0.092344552 1.5210028e-38 258 317
-0.073156074 0.68400002 -0.092344552 1.5855398e-38 259 317
-0.071851604 0.68300003 -0.092209555 1.6406051e-38 260 317
-0.070654072 0.68300003 -0.092209555 1.6498606e-38 261 317
-0.069354847 0.68199998 -0.092074543 1.6774462e-38 262 317
-0.067959204 0.68000001 -0.091804534 1.6959212e-38 263 317
-0.066766933 0.68000001 -0.091804534 1.7142524e-38 264 317
-0.065574668 0.68000001 -0.091804534 1.723472e-38 265 317
-0.064287722 0.67900002 -0.091669522 1.7419114e-38 266 317
-0.063004278 0.67799997 -0.09153451 1.7603506e-38 267 317
-0.061815511 0.67799997 -0.09153451 1.8062685e-38 268 317
-0.06044792 0.676 -0.091264501 1.8154881e-38 269 317
-0.059262663 0.676 -0.091264501 1.8522938e-38 270 317
-0.058077414 0.676 -0.091264501 1.8522938e-38 271 317
-0.056808002 0.67500001 -0.091129504 1.8339981e-38 272 317
-0.055542093 0.67400002 -0.090994492 1.8339981e-38 273 317
-0.054360349 0.67400002 -0.090994492 1.8432178e-38 274 317
-0.053020798 0.67199999 -0.090724476 1.8432178e-38 275 317
-0.051842555 0.67199999 -0.090724476 1.8616207e-38 276 317
-0.050588924 0.671 -0.090589471 1.8800957e-38 277 317
-0.049412437 0.671 -0.090589471 1.8800954e-38 278 317
-0.048235953 0.671 -0.090589471 1.8800954e-38 279 317
-0.047059465 0.671 -0.090589471 1.9076815e-38 280 317
-0.045882981 0.671 -0.090589471 1.9076815e-38 281 317
-0.044706494 0.671 -0.090589471 1.88935e-38 282 317
-0.043530006 0.671 -0.090589471 1.88935e-38 283 317
-0.042353518 0.671 -0.090589471 1.8801304e-38 284 317
-0.041177034 0.671 -0.090589471 1.8801304e-38 285 317
-0.040000543 0.671 -0.090589471 1.8983898e-38 286 317
-0.038824059 0.671 -0.090589471 1.8983898e-38 287 317
-0.037591465 0.67000002 -0.090454467 1.870839e-38 288 317
-0.036416732 0.67000002 -0.090454467 1.870839e-38 289 317
-0.035241999 0.67000002 -0.090454467 1.861691e-38 290 317
-0.033914726 0.667 -0.090049446 1.861691e-38 291 317
-0.032745253 0.667 -0.090049446 1.8617266e-38 292 317
-0.03157578 0.667 -0.090049446 1.8433234e-38 293 317
-0.030451892 0.66799998 -0.090184443 1.8432878e-38 294 317
-0.029280664 0.66799998 -0.090184443 1.8432878e-38 295 317
-0.028193599 0.67000002 -0.090454467 1.8249205e-38 296 317
-0.027018867 0.67000002 -0.090454467 1.815701e-38 297 317
-0.025882706 0.671 -0.090589471 1.8063739e-38 298 317
-0.024743039 0.67199999 -0.090724476 1.7971544e-38 299 317
-0.023564799 0.67199999 -0.090724476 1.7971193e-38 300 317
-0.022319933 0.67000002 -0.090454467 1.8155584e-38 301 317
-0.0211452 0.67000002 -0.090454467 1.8247798e-38 302 317
-0.019970467 0.67000002 -0.090454467 1.8432191e-38 303 317
-0.018823786 0.671 -0.090589471 1.8248544e-38 304 317
-0.0176473 0.671 -0.090589471 1.8340739e-38 305 317
-0.016372627 0.667 -0.090049446 1.8157443e-38 306 317
-0.015203152 0.667 -0.090049446 1.8157443e-38 307 317
0.032696161 0.66600001 -0.089914441 1.8431841e-38 348 317
0.03386388 0.66600001 -0.089914441 1.8339645e-38 349 317
0.035031598 0.66600001 -0.089914441 1.8706606e-38 350 317
0.036308024 0.66799998 -0.090184443 1.8522575e-38 351 317
0.037479252 0.66799998 -0.090184443 1.8430373e-38 352 317
0.038650475 0.66799998 -0.090184443 1.8706959e-38 353 317
0.039821707 0.66799998 -0.090184443 1.8522572e-38 354 317
0.040992931 0.66799998 -0.090184443 1.8430376e-38 355 317
0.042164158 0.66799998 -0.090184443 1.8430727e-38 356 317
0.04327051 0.667 -0.090049446 1.8430727e-38 357 317
0.044439986 0.667 -0.090049446 1.8430727e-38 358 317
0.045609459 0.667 -0.090049446 1.8430727e-38 359 317
0.046778932 0.667 -0.090049446 1.8614039e-38 360 317
0.047948405 0.667 -0.090049446 1.8614039e-38 361 317
0.049117878 0.667 -0.090049446 1.8521843e-38 362 317
0.050287351 0.667 -0.090049446 1.8521843e-38 363 317
0.051456824 0.667 -0.090049446 1.8428932e-38 364 317
0.052626297 0.667 -0.090049446 1.8336734e-38 365 317
0.05379577 0.667 -0.090049446 1.7967951e-38 366 317
0.055212468 0.67000002 -0.090454467 1.7691362e-38 367 317
0.056387197 0.67000002 -0.090454467 1.7138176e-38 368 317
0.057647847 0.671 -0.090589471 1.6400611e-38 369 317
0.058824331 0.671 -0.090589471 1.6032561e-38 370 317
0.060000818 0.671 -0.090589471 1.6125116e-38 371 317
0.061177302 0.671 -0.090589471 1.6217328e-38 372 317
0.06235379 0.671 -0.090589471 1.6586111e-38 373 317
0.063530281 0.671 -0.090589471 1.6679385e-38 374 317
0.064610332 0.67000002 -0.090454467 1.6771581e-38 375 317
0.065785065 0.67000002 -0.090454467 1.7415145e-38 376 317
0.066959806 0.67000002 -0.090454467 1.732295e-38 377 317
0.068134531 0.67000002 -0.090454467 1.7140344e-38 378 317
0.069102369 0.66799998 -0.090184443 1.7047789e-38 379 317
0.070273593 0.66799998 -0.090184443 1.7230386e-38 380 317
0.071658738 0.67000002 -0.090454467 1.713819e-38 381 317
0.072833464 0.67000002 -0.090454467 1.6954525e-38 382 317
0.074008204 0.67000002 -0.090454467 1.6862327e-38 383 317
0.075295143 0.671 -0.090589471 1.6769776e-38 384 317
0.076471634 0.671 -0.090589471 1.667758e-38 385 317
0.077648118 0.671 -0.090589471 1.6585385e-38 386 317
0.078942075 0.67199999 -0.090724476 1.6585385e-38 387 317
0.080120318 0.67199999 -0.090724476 1.6217678e-38 388 317
0.081540518 0.67400002 -0.090994492 1.594145e-38 389 317
0.082844995 0.67500001 -0.091129504 1.5481908e-38 390 317
0.084152982 0.676 -0.091264501 1.5389713e-38 391 317
0.085590713 0.67799997 -0.09153451 1.529752e-38 392 317
0.086907476 0.67900002 -0.091669522 1.529752e-38 393 317
0.088487223 0.68199998 -0.092074543 1.5020933e-38 394 317
0.089682996 0.68199998 -0.092074543 1.4928737e-38 395 317
0.091012023 0.68300003 -0.092209555 1.4376636e-38 396 317
0.092209555 0.68300003 -0.092209555 1.4008213e-38 397 317
0.093543842 0.68400002 -0.092344552 1.3272809e-38 398 317
0.094743125 0.68400002 -0.092344552 1.262744e-38 399 317
0.096222922 0.68599999 -0.092614569 1.0787865e-38 400 317
0.097567737 0.68699998 -0.092749573 1.00503e-38 401 317
0.098772272 0.68699998 -0.092749573 8.4826594e-39 402 317
-0.081056595 0.69 -0.094364397 1.5027522e-38 253 318
-0.079615362 0.68800002 -0.094090879 1.2716826e-38 254 318
-0.078409068 0.68800002 -0.094090879 1.3177804e-38 255 318
-0.076978341 0.68599999 -0.093817353 1.3181727e-38 256 318
-0.075775556 0.68599999 -0.093817353 1.3734901e-38 257 318
-0.074572764 0.68599999 -0.093817353 1.4289873e-38 258 318
-0.073156074 0.68400002 -0.093543842 1.4935242e-38 259 318
-0.071851604 0.68300003 -0.09340708 1.5946875e-38 260 318
-0.070550621 0.68199998 -0.093270317 1.5946875e-38 261 318
-0.069354847 0.68199998 -0.093270317 1.6130893e-38 262 318
-0.067859262 0.67900002 -0.092860043 1.6499676e-38 263 318
-0.066668749 0.67900002 -0.092860043 1.6774818e-38 264 318
-0.065381795 0.67799997 -0.092723273 1.6867013e-38 265 318
-0.06419304 0.67799997 -0.092723273 1.7234367e-38 266 318
-0.062818423 0.676 -0.092449754 1.7419117e-38 267 318
-0.061633173 0.676 -0.092449754 1.7602076e-38 268 318
-0.06044792 0.676 -0.092449754 1.7786468e-38 269 318
-0.059175 0.67500001 -0.092312999 1.7880092e-38 270 318
-0.057991501 0.67500001 -0.092312999 1.7880092e-38 271 318
-0.056723841 0.67400002 -0.092176244 1.7971919e-38 272 318
-0.055377278 0.67199999 -0.091902718 1.815595e-38 273 318
-0.054118387 0.671 -0.091765963 1.8247783e-38 274 318
-0.052941896 0.671 -0.091765963 1.8339979e-38 275 318
-0.051765412 0.671 -0.091765963 1.8432176e-38 276 318
-0.050588924 0.671 -0.091765963 1.8616207e-38 277 318
-0.049338799 0.67000002 -0.0916292 1.8432894e-38 278 318
-0.048164066 0.67000002 -0.0916292 1.852509e-38 279 318
-0.046989333 0.67000002 -0.0916292 1.8800957e-38 280 318
-0.0458146 0.67000002 -0.0916292 1.8800957e-38 281 318
-0.044639867 0.67000002 -0.0916292 1.8801676e-38 282 318
-0.043335386 0.66799998 -0.091355674 1.8801676e-38 283 318
-0.042164158 0.66799998 -0.091355674 1.8800954e-38 284 318
-0.041115668 0.67000002 -0.0916292 1.8800954e-38 285 318
-0.039940935 0.67000002 -0.0916292 1.8800232e-38 286 318
-0.038766202 0.67000002 -0.0916292 1.8800232e-38 287 318
-0.037479252 0.66799998 -0.091355674 1.8709111e-38 288 318
-0.036253672 0.667 -0.091218919 1.8709111e-38 289 318
-0.035031598 0.66600001 -0.091082163 1.8616913e-38 290 318
-0.03386388 0.66600001 -0.091082163 1.8616913e-38 291 318
-0.032696161 0.66600001 -0.091082163 1.8708743e-38 292 318
-0.031528439 0.66600001 -0.091082163 1.8616546e-38 293 318
-0.030360719 0.66600001 -0.091082163 1.8709093e-38 294 318
-0.029192999 0.66600001 -0.091082163 1.8616896e-38 295 318
-0.028025279 0.66600001 -0.091082163 1.8617249e-38 296 318
-0.027018867 0.67000002 -0.0916292 1.8525054e-38 297 318
-0.025882706 0.671 -0.091765963 1.85247e-38 298 318
-0.024706218 0.671 -0.091765963 1.85247e-38 299 318
-0.023494666 0.67000002 -0.0916292 1.852435e-38 300 318
-0.022253305 0.66799998 -0.091355674 1.852435e-38 301 318
-0.021082079 0.66799998 -0.091355674 1.8708037e-38 302 318
-0.019910853 0.66799998 -0.091355674 1.8523644e-38 303 318
-0.018795732 0.67000002 -0.0916292 1.8155587e-38 304 318
-0.0175421 0.667 -0.091218919 1.7970837e-38 305 318
-0.016372627 0.667 -0.091218919 1.8062673e-38 306 318
-0.015203152 0.667 -0.091218919 1.7970118e-38 307 318
-0.014033679 0.667 -0.091218919 1.7694979e-38 308 318
-0.012864206 0.667 -0.091218919 1.7787175e-38 309 318
-0.011694733 0.667 -0.091218919 1.7788622e-38 310 318
-0.010525259 0.667 -0.091218919 1.7972653e-38 311 318
-0.0046568532 0.66399997 -0.090808637 1.8617699e-38 316 318
-0.0034926396 0.66399997 -0.090808637 1.8709895e-38 317 318
-0.0023354399 0.66600001 -0.091082163 1.8524797e-38 318 318
-0.00116772 0.66600001 -0.091082163 1.8524797e-38 319 318
0 0.66600001 -0.091082163 1.8617712e-38 320 318
0.00116772 0.66600001 -0.091082163 1.8617712e-38 321 318
0.0023354399 0.66600001 -0.091082163 1.8525872e-38 322 318
0.0035031599 0.66600001 -0.091082163 1.8618068e-38 323 318
0.031386416 0.66299999 -0.090671875 1.8247783e-38 347 318
0.032548878 0.66299999 -0.090671875 1.861514e-38 348 318
0.033711337 0.66299999 -0.090671875 1.8522943e-38 349 318
0.0349264 0.66399997 -0.090808637 1.8706609e-38 350 318
0.03619932 0.66600001 -0.091082163 1.8706609e-38 351 318
0.037423145 0.667 -0.091218919 1.8706959e-38 352 318
0.038592618 0.667 -0.091218919 1.8522928e-38 353 318
0.039762091 0.667 -0.091218919 1.8522928e-38 354 318
0.040992931 0.66799998 -0.091355674 1.8522928e-38 355 318
0.042164158 0.66799998 -0.091355674 1.8522922e-38 356 318
0.04327051 0.667 -0.091218919 1.8430727e-38 357 318
0.044439986 0.667 -0.091218919 1.8431083e-38 358 318
0.045609459 0.667 -0.091218919 1.8431083e-38 359 318
0.046708796 0.66600001 -0.091082163 1.8431083e-38 360 318
0.047876518 0.66600001 -0.091082163 1.8431083e-38 361 318
0.04904424 0.66600001 -0.091082163 1.8521843e-38 362 318
0.050211959 0.66600001 -0.091082163 1.8245615e-38 363 318
0.051379681 0.66600001 -0.091082163 1.8336016e-38 364 318
0.052547399 0.66600001 -0.091082163 1.8243461e-38 365 318
0.053715117 0.66600001 -0.091082163 1.7875755e-38 366 318
0.054965243 0.667 -0.091218919 1.7691362e-38 367 318
0.056134716 0.667 -0.091218919 1.7231458e-38 368 318
0.057390101 0.66799998 -0.091355674 1.7047426e-38 369 318
0.058561329 0.66799998 -0.091355674 1.6955599e-38 370 318
0.05973256 0.66799998 -0.091355674 1.7047795e-38 371 318
0.060812607 0.667 -0.091218919 1.7047808e-38 372 318
0.06198208 0.667 -0.091218919 1.7232199e-38 373 318
0.063435599 0.67000002 -0.0916292 1.7140709e-38 374 318
0.064417459 0.66799998 -0.091355674 1.7048514e-38 375 318
0.065588683 0.66799998 -0.091355674 1.7048864e-38 376 318
0.066759922 0.66799998 -0.091355674 1.6864833e-38 377 318
0.067931145 0.66799998 -0.091355674 1.6955597e-38 378 318
0.068998925 0.667 -0.091218919 1.6771204e-38 379 318
0.070168398 0.667 -0.091218919 1.6953444e-38 380 318
0.071337871 0.667 -0.091218919 1.6677217e-38 381 318
0.072616048 0.66799998 -0.091355674 1.6402075e-38 382 318
0.073787279 0.66799998 -0.091355674 1.6402075e-38 383 318
0.074958503 0.66799998 -0.091355674 1.6309874e-38 384 318
0.076357663 0.67000002 -0.0916292 1.6125481e-38 385 318
0.077532403 0.67000002 -0.0916292 1.5758501e-38 386 318
0.078824602 0.671 -0.091765963 1.5758501e-38 387 318
0.080001086 0.671 -0.091765963 1.5390088e-38 388 318
0.08129856 0.67199999 -0.091902718 1.5205697e-38 389 318
0.082476802 0.67199999 -0.091902718 1.5113501e-38 390 318
0.084028497 0.67500001 -0.092312999 1.5021304e-38 391 318
0.085590713 0.67799997 -0.092723273 1.502023e-38 392 318
0.086779475 0.67799997 -0.092723273 1.4835838e-38 393 318
0.08796823 0.67799997 -0.092723273 1.4561044e-38 394 318
0.089419998 0.68000001 -0.092996798 1.419262e-38 395 318
0.090878762 0.68199998 -0.093270317 1.400786e-38 396 318
0.092074543 0.68199998 -0.093270317 1.3638717e-38 397 318
0.09340708 0.68300003 -0.09340708 1.2719289e-38 398 318
0.094604604 0.68300003 -0.09340708 1.2166115e-38 399 318
0.0959424 0.68400002 -0.093543842 1.0694966e-38 400 318
0.097567737 0.68699998 -0.093954116 1.0049597e-38 401 318
0.098772272 0.68699998 -0.093954116 9.7737779e-39 402 318
-0.080704175 0.68699998 -0.095158651 1.5488863e-38 253 319
-0.079499632 0.68699998 -0.095158651 1.2809027e-38 254 319
-0.078295097 0.68699998 -0.095158651 1.2993058e-38 255 319
-0.076978341 0.68599999 -0.095020145 1.3364321e-38 256 319
-0.075775556 0.68599999 -0.095020145 1.3456516e-38 257 319
-0.074355356 0.68400002 -0.094743125 1.3276441e-38 258 319
-0.073049128 0.68300003 -0.094604604 1.4014006e-38 259 319
-0.071746394 0.68199998 -0.09446609 1.5118186e-38 260 319
-0.070550621 0.68199998 -0.09446609 1.5579524e-38 261 319
-0.069151461 0.68000001 -0.094189063 1.6314193e-38 262 319
-0.067859262 0.67900002 -0.094050556 1.6406388e-38 263 319
-0.066570558 0.67799997 -0.093912028 1.6865564e-38 264 319
-0.065188929 0.676 -0.093635008 1.6865564e-38 265 319
-0.064003684 0.676 -0.093635008 1.7232555e-38 266 319
-0.062818423 0.676 -0.093635008 1.7416947e-38 267 319
-0.061633173 0.676 -0.093635008 1.769318e-38 268 319
-0.060358498 0.67500001 -0.093496501 1.7785375e-38 269 319
-0.059175 0.67500001 -0.093496501 1.7694976e-38 270 319
-0.057905588 0.67400002 -0.093357988 1.7694976e-38 271 319
-0.056555521 0.67199999 -0.093080953 1.7970837e-38 272 319
-0.055377278 0.67199999 -0.093080953 1.8063392e-38 273 319
-0.054118387 0.671 -0.092942439 1.8338534e-38 274 319
-0.052941896 0.671 -0.092942439 1.8430729e-38 275 319
-0.051688269 0.67000002 -0.092803933 1.833925e-38 276 319
-0.050513536 0.67000002 -0.092803933 1.8523641e-38 277 319
-0.049338799 0.67000002 -0.092803933 1.8340329e-38 278 319
-0.048164066 0.67000002 -0.092803933 1.8340329e-38 279 319
-0.046849065 0.66799998 -0.092526905 1.8799508e-38 280 319
-0.045677837 0.66799998 -0.092526905 1.8891705e-38 281 319
-0.044506609 0.66799998 -0.092526905 1.8708037e-38 282 319
-0.04327051 0.667 -0.092388391 1.8800232e-38 283 319
-0.042101037 0.667 -0.092388391 1.8708758e-38 284 319
-0.040992931 0.66799998 -0.092526905 1.8708758e-38 285 319
-0.039821707 0.66799998 -0.092526905 1.8708758e-38 286 319
-0.038592618 0.667 -0.092388391 1.8708758e-38 287 319
-0.037367038 0.66600001 -0.092249878 1.861656e-38 288 319
-0.03619932 0.66600001 -0.092249878 1.861656e-38 289 319
-0.035031598 0.66600001 -0.092249878 1.8708037e-38 290 319
-0.03386388 0.66600001 -0.092249878 1.8800232e-38 291 319
-0.03259797 0.66399997 -0.091972843 1.8709109e-38 292 319
-0.031433757 0.66399997 -0.091972843 1.8801304e-38 293 319
-0.030269546 0.66399997 -0.091972843 1.8709462e-38 294 319
-0.02910533 0.66399997 -0.091972843 1.8709462e-38 295 319
-0.027941117 0.66399997 -0.091972843 1.8709459e-38 296 319
-0.026857559 0.66600001 -0.092249878 1.8617263e-38 297 319
-0.02568984 0.66600001 -0.092249878 1.8616543e-38 298 319
-0.02452212 0.66600001 -0.092249878 1.8616543e-38 299 319
-0.023354398 0.66600001 -0.092249878 1.861654e-38 300 319
-0.02218668 0.66600001 -0.092249878 1.861654e-38 301 319
-0.021050518 0.667 -0.092388391 1.8433231e-38 302 319
-0.019851239 0.66600001 -0.092249878 1.8433231e-38 303 319
-0.018683519 0.66600001 -0.092249878 1.8341401e-38 304 319
-0.017515799 0.66600001 -0.092249878 1.815701e-38 305 319
-0.016348081 0.66600001 -0.092249878 1.824813e-38 306 319
-0.01518036 0.66600001 -0.092249878 1.824813e-38 307 319
-0.014012639 0.66600001 -0.092249878 1.8248133e-38 308 319
-0.01284492 0.66600001 -0.092249878 1.8248133e-38 309 319
-0.011677199 0.66600001 -0.092249878 1.8339979e-38 310 319
-0.01050948 0.66600001 -0.092249878 1.8432176e-38 311 319
-0.0092996797 0.66299999 -0.091834337 1.8522938e-38 312 319
-0.0081372196 0.66299999 -0.091834337 1.8615493e-38 313 319
-0.0069852793 0.66399997 -0.091972843 1.8339275e-38 314 319
-0.0058210664 0.66399997 -0.091972843 1.8431472e-38 315 319
-0.0046568532 0.66399997 -0.091972843 1.8707351e-38 316 319
-0.0034926396 0.66399997 -0.091972843 1.8707351e-38 317 319
-0.0023354399 0.66600001 -0.092249878 1.86148e-38 318 319
-0.00116772 0.66600001 -0.092249878 1.8338573e-38 319 319
0 0.66399997 -0.091972843 1.8247448e-38 320 319
0.0011642133 0.66399997 -0.091972843 1.8247448e-38 321 319
0.0023284266 0.66399997 -0.091972843 1.8521515e-38 322 319
0.0034926396 0.66399997 -0.091972843 1.8705905e-38 323 319
0.0046498398 0.66299999 -0.091834337 1.8246726e-38 324 319
0.0058122999 0.66299999 -0.091834337 1.8154531e-38 325 319
0.0069642398 0.662 -0.091695823 1.8338925e-38 326 319
0.0081249457 0.662 -0.091695823 1.8431122e-38 327 319
0.009285653 0.662 -0.091695823 1.8430771e-38 328 319
0.017410601 0.662 -0.091695823 1.8155237e-38 335 319
0.018571306 0.662 -0.091695823 1.824743e-38 336 319
0.019732011 0.662 -0.091695823 1.8339625e-38 337 319
0.020892721 0.662 -0.091695823 1.8430742e-38 338 319
0.022020113 0.66100001 -0.091557316 1.8430742e-38 339 319
0.023179067 0.66100001 -0.091557316 1.8155582e-38 340 319
0.030178372 0.662 -0.091695823 1.8431801e-38 346 319
0.031339079 0.662 -0.091695823 1.8431801e-38 347 319
0.032499783 0.662 -0.091695823 1.8522922e-38 348 319
0.033660494 0.662 -0.091695823 1.8522922e-38 349 319
0.034873798 0.66299999 -0.091834337 1.8522922e-38 350 319
0.036036257 0.66299999 -0.091834337 1.8522922e-38 351 319
0.037198719 0.66299999 -0.091834337 1.8523278e-38 352 319
0.03853476 0.66600001 -0.092249878 1.8523278e-38 353 319
0.039702479 0.66600001 -0.092249878 1.8522922e-38 354 319
0.040870197 0.66600001 -0.092249878 1.8522922e-38 355 319
0.042037919 0.66600001 -0.092249878 1.870659e-38 356 319
0.04327051 0.667 -0.092388391 1.870659e-38 357 319
0.04437336 0.66600001 -0.092249878 1.8431083e-38 358 319
0.045541082 0.66600001 -0.092249878 1.8523278e-38 359 319
0.046708796 0.66600001 -0.092249878 1.8431801e-38 360 319
0.047732744 0.66399997 -0.091972843 1.8155216e-38 361 319
0.048896957 0.66399997 -0.091972843 1.8337809e-38 362 319
0.05006117 0.66399997 -0.091972843 1.8245612e-38 363 319
0.051148236 0.66299999 -0.091834337 1.8336016e-38 364 319
0.052310698 0.66299999 -0.091834337 1.8243461e-38 365 319
0.053473156 0.66299999 -0.091834337 1.7968672e-38 366 319
0.054718021 0.66399997 -0.091972843 1.7876477e-38 367 319
0.056050558 0.66600001 -0.092249878 1.7233258e-38 368 319
0.057218276 0.66600001 -0.092249878 1.7141063e-38 369 319
0.058385998 0.66600001 -0.092249878 1.6864477e-38 370 319
0.059553716 0.66600001 -0.092249878 1.6772281e-38 371 319
0.060721438 0.66600001 -0.092249878 1.6864483e-38 372 319
0.061889157 0.66600001 -0.092249878 1.6864483e-38 373 319
0.063056879 0.66600001 -0.092249878 1.7047426e-38 374 319
0.064224601 0.66600001 -0.092249878 1.6955229e-38 375 319
0.065392323 0.66600001 -0.092249878 1.6955229e-38 376 319
0.066560037 0.66600001 -0.092249878 1.6863034e-38 377 319
0.067829452 0.667 -0.092388391 1.6953441e-38 378 319
0.068998925 0.667 -0.092388391 1.676941e-38 379 319
0.070168398 0.667 -0.092388391 1.6585016e-38 380 319
0.071337871 0.667 -0.092388391 1.6400623e-38 381 319
0.072507344 0.667 -0.092388391 1.6125113e-38 382 319
0.073676817 0.667 -0.092388391 1.6125113e-38 383 319
0.07484629 0.667 -0.092388391 1.5573744e-38 384 319
0.076129727 0.66799998 -0.092526905 1.548119e-38 385 319
0.077532403 0.67000002 -0.092803933 1.566486e-38 386 319
0.078707129 0.67000002 -0.092803933 1.566486e-38 387 319
0.080001086 0.671 -0.092942439 1.529752e-38 388 319
0.08129856 0.67199999 -0.093080953 1.5020933e-38 389 319
0.082476802 0.67199999 -0.093080953 1.5111699e-38 390 319
0.083904013 0.67400002 -0.093357988 1.4927668e-38 391 319
0.085338242 0.676 -0.093635008 1.474364e-38 392 319
0.086779475 0.67799997 -0.093912028 1.4651444e-38 393 319
0.08796823 0.67799997 -0.093912028 1.4099705e-38 394 319
0.089288503 0.67900002 -0.094050556 1.400751e-38 395 319
0.090612262 0.68000001 -0.094189063 1.3270658e-38 396 319
0.092074543 0.68199998 -0.09446609 1.2810039e-38 397 319
0.093270317 0.68199998 -0.09446609 1.1798775e-38 398 319
0.09446609 0.68199998 -0.09446609 1.1614382e-38 399 319
0.095802136 0.68300003 -0.094604604 1.041695e-38 400 319
0.09699966 0.68300003 -0.094604604 1.0509147e-38 401 319
-0.080704175 0.68699998 -0.096363194 1.5489589e-38 253 320
-0.079499632 0.68699998 -0.096363194 1.3087053e-38 254 320
-0.078295097 0.68699998 -0.096363194 1.2441683e-38 255 320
-0.076978341 0.68599999 -0.096222922 1.3177784e-38 256 320
-0.075775556 0.68599999 -0.096222922 1.3546567e-38 257 320
-0.074355356 0.68400002 -0.0959424 1.2998062e-38 258 320
-0.073049128 0.68300003 -0.095802136 1.3551236e-38 259 320
-0.071746394 0.68199998 -0.095661856 1.4472814e-38 260 320
-0.070343733 0.68000001 -0.095381334 1.4841956e-38 261 320
-0.069151461 0.68000001 -0.095381334 1.5670274e-38 262 320
-0.06775932 0.67799997 -0.09510079 1.5946502e-38 263 320
-0.066374183 0.676 -0.094820268 1.6130174e-38 264 320
-0.065188929 0.676 -0.094820268 1.6314205e-38 265 320
-0.064003684 0.676 -0.094820268 1.668083e-38 266 320
-0.062818423 0.676 -0.094820268 1.6957057e-38 267 320
-0.061633173 0.676 -0.094820268 1.6957059e-38 268 320
-0.060358498 0.67500001 -0.094679996 1.7049256e-38 269 320
-0.059087332 0.67400002 -0.094539732 1.7051054e-38 270 320
-0.057733759 0.67199999 -0.094259195 1.714325e-38 271 320
-0.056471359 0.671 -0.09411893 1.7786459e-38 272 320
-0.055294871 0.671 -0.09411893 1.7786459e-38 273 320
-0.054118387 0.671 -0.09411893 1.7787172e-38 274 320
-0.052941896 0.671 -0.09411893 1.7787172e-38 275 320
-0.051688269 0.67000002 -0.093978666 1.7879726e-38 276 320
-0.050513536 0.67000002 -0.093978666 1.7971922e-38 277 320
-0.04919152 0.66799998 -0.093698129 1.7880445e-38 278 320
-0.048020288 0.66799998 -0.093698129 1.7972641e-38 279 320
-0.046849065 0.66799998 -0.093698129 1.8522938e-38 280 320
-0.045677837 0.66799998 -0.093698129 1.8615493e-38 281 320
-0.044506609 0.66799998 -0.093698129 1.8339993e-38 282 320
-0.04327051 0.667 -0.093557864 1.8432547e-38 283 320
-0.042101037 0.667 -0.093557864 1.852474e-38 284 320
-0.040931564 0.667 -0.093557864 1.8432544e-38 285 320
-0.039762091 0.667 -0.093557864 1.8432894e-38 286 320
-0.038592618 0.667 -0.093557864 1.8432894e-38 287 320
-0.037367038 0.66600001 -0.093417592 1.8616563e-38 288 320
-0.036090612 0.66399997 -0.093137063 1.8616563e-38 289 320
-0.0349264 0.66399997 -0.093137063 1.8708755e-38 290 320
-0.033762183 0.66399997 -0.093137063 1.8708755e-38 291 320
-0.03259797 0.66399997 -0.093137063 1.8984972e-38 292 320
-0.031433757 0.66399997 -0.093137063 1.8984972e-38 293 320
-0.030223956 0.66299999 -0.092996798 1.9076802e-38 294 320
-0.029061496 0.66299999 -0.092996798 1.9076802e-38 295 320
-0.027899038 0.66299999 -0.092996798 1.9077155e-38 296 320
-0.026736578 0.66299999 -0.092996798 1.8984601e-38 297 320
-0.025574118 0.66299999 -0.092996798 1.8984238e-38 298 320
-0.024448479 0.66399997 -0.093137063 1.9168269e-38 299 320
-0.023284266 0.66399997 -0.093137063 1.8983882e-38 300 320
-0.022120051 0.66399997 -0.093137063 1.8983882e-38 301 320
-0.020955838 0.66399997 -0.093137063 1.8983882e-38 302 320
-0.019791625 0.66399997 -0.093137063 1.8983882e-38 303 320
-0.018627413 0.66399997 -0.093137063 1.8892405e-38 304 320
-0.0174632 0.66399997 -0.093137063 1.8800208e-38 305 320
-0.016298985 0.66399997 -0.093137063 1.8800206e-38 306 320
-0.015134773 0.66399997 -0.093137063 1.8800206e-38 307 320
-0.013970559 0.66399997 -0.093137063 1.8800211e-38 308 320
-0.012806346 0.66399997 -0.093137063 1.8800211e-38 309 320
-0.0116246 0.66299999 -0.092996798 1.8799861e-38 310 320
-0.01046214 0.66299999 -0.092996798 1.8799861e-38 311 320
-0.0092996797 0.66299999 -0.092996798 1.8799156e-38 312 320
-0.0081372196 0.66299999 -0.092996798 1.8706959e-38 313 320
-0.0069642398 0.662 -0.092856526 1.8615137e-38 314 320
-0.0058122999 0.66299999 -0.092996798 1.852294e-38 315 320
-0.0046498398 0.66299999 -0.092996798 1.8431475e-38 316 320
-0.0034873798 0.66299999 -0.092996798 1.8431475e-38 317 320
-0.0023284266 0.66399997 -0.093137063 1.8523294e-38 318 320
-0.0011642133 0.66399997 -0.093137063 1.8154512e-38 319 320
0 0.66299999 -0.092996798 1.8338513e-38 320 320
0.00116246 0.66299999 -0.092996798 1.8246316e-38 321 320
0.0023249199 0.66299999 -0.092996798 1.8429984e-38 322 320
0.0034873798 0.66299999 -0.092996798 1.8614377e-38 323 320
0.0046428265 0.662 -0.092856526 1.8339237e-38 324 320
0.0058035329 0.662 -0.092856526 1.8339237e-38 325 320
0.00695372 0.66100001 -0.092716269 1.8337828e-38 326 320
0.0081126727 0.66100001 -0.092716269 1.8522219e-38 327 320
0.0092716264 0.66100001 -0.092716269 1.8338925e-38 328 320
0.01038324 0.65799999 -0.09229546 1.8338925e-38 329 320
0.011536933 0.65799999 -0.09229546 1.8338922e-38 330 320
0.012690626 0.65799999 -0.09229546 1.8431119e-38 331 320
0.01390744 0.66100001 -0.092716269 1.8339981e-38 332 320
0.015066394 0.66100001 -0.092716269 1.8339981e-38 333 320
0.016225345 0.66100001 -0.092716269 1.8431077e-38 334 320
0.0173843 0.66100001 -0.092716269 1.8431077e-38 335 320
0.018571306 0.662 -0.092856526 1.8522922e-38 336 320
0.019732011 0.662 -0.092856526 1.8522922e-38 337 320
0.020892721 0.662 -0.092856526 1.8339976e-38 338 320
0.022020113 0.66100001 -0.092716269 1.8339976e-38 339 320
0.023179067 0.66100001 -0.092716269 1.8248484e-38 340 320
0.024374841 0.662 -0.092856526 1.8248484e-38 341 320
0.025535546 0.662 -0.092856526 1.8523982e-38 342 320
0.026696252 0.662 -0.092856526 1.8523982e-38 343 320
0.027856959 0.662 -0.092856526 1.8523631e-38 344 320
0.029017664 0.662 -0.092856526 1.8707662e-38 345 320
0.030178372 0.662 -0.092856526 1.8431083e-38 346 320
0.031339079 0.662 -0.092856526 1.8523278e-38 347 320
0.032499783 0.662 -0.092856526 1.8523994e-38 348 320
0.033660494 0.662 -0.092856526 1.8523994e-38 349 320
0.034821201 0.662 -0.092856526 1.8523631e-38 350 320
0.035981905 0.662 -0.092856526 1.8523631e-38 351 320
0.037142612 0.662 -0.092856526 1.8523275e-38 352 320
0.038361177 0.66299999 -0.092996798 1.8523275e-38 353 320
0.039523639 0.66299999 -0.092996798 1.8523275e-38 354 320
0.040686097 0.66299999 -0.092996798 1.8523275e-38 355 320
0.041911677 0.66399997 -0.093137063 1.8523278e-38 356 320
0.043205637 0.66600001 -0.093417592 1.8431083e-38 357 320
0.044240102 0.66399997 -0.093137063 1.833925e-38 358 320
0.045404319 0.66399997 -0.093137063 1.833925e-38 359 320
0.046568532 0.66399997 -0.093137063 1.8338534e-38 360 320
0.047660857 0.66299999 -0.092996798 1.8246338e-38 361 320
0.048823316 0.66299999 -0.092996798 1.8153784e-38 362 320
0.049985778 0.66299999 -0.092996798 1.8061587e-38 363 320
0.051071092 0.662 -0.092856526 1.7968672e-38 364 320
0.0522318 0.662 -0.092856526 1.7876477e-38 365 320
0.053392503 0.662 -0.092856526 1.7967953e-38 366 320
0.054635618 0.66299999 -0.092996798 1.7875758e-38 367 320
0.055798076 0.66299999 -0.092996798 1.7139988e-38 368 320
0.056960538 0.66299999 -0.092996798 1.7047792e-38 369 320
0.058122993 0.66299999 -0.092996798 1.6772281e-38 370 320
0.059285458 0.66299999 -0.092996798 1.6772281e-38 371 320
0.060539093 0.66399997 -0.093137063 1.6863051e-38 372 320
0.061703302 0.66399997 -0.093137063 1.6863051e-38 373 320
0.062867515 0.66399997 -0.093137063 1.6587185e-38 374 320
0.064031735 0.66399997 -0.093137063 1.6587185e-38 375 320
0.06519594 0.66399997 -0.093137063 1.6494634e-38 376 320
0.066560037 0.66600001 -0.093417592 1.6402438e-38 377 320
0.067727759 0.66600001 -0.093417592 1.6218407e-38 378 320
0.068895474 0.66600001 -0.093417592 1.594146e-38 379 320
0.070063196 0.66600001 -0.093417592 1.5941094e-38 380 320
0.071230918 0.66600001 -0.093417592 1.5848899e-38 381 320
0.072507344 0.667 -0.093557864 1.5389362e-38 382 320
0.073676817 0.667 -0.093557864 1.5297167e-38 383 320
0.07484629 0.667 -0.093557864 1.5113504e-38 384 320
0.076129727 0.66799998 -0.093698129 1.502095e-38 385 320
0.077532403 0.67000002 -0.093978666 1.4652895e-38 386 320
0.078707129 0.67000002 -0.093978666 1.474509e-38 387 320
0.079881869 0.67000002 -0.093978666 1.4377384e-38 388 320
0.08129856 0.67199999 -0.094259195 1.4285188e-38 389 320
0.082476802 0.67199999 -0.094259195 1.455998e-38 390 320
0.083655037 0.67199999 -0.094259195 1.437523e-38 391 320
0.085085757 0.67400002 -0.094539732 1.4191915e-38 392 320
0.086395502 0.67500001 -0.094679996 1.3915327e-38 393 320
0.087708741 0.676 -0.094820268 1.354762e-38 394 320
0.089288503 0.67900002 -0.095241062 1.3178838e-38 395 320
0.090612262 0.68000001 -0.095381334 1.2809332e-38 396 320
0.091804534 0.68000001 -0.095381334 1.2624941e-38 397 320
0.093270317 0.68199998 -0.095661856 1.1522917e-38 398 320
0.09446609 0.68199998 -0.095661856 1.1430361e-38 399 320
0.095802136 0.68300003 -0.095802136 9.4964385e-39 400 320
-0.079499632 0.68699998 -0.097567737 1.3917182e-38 254 321
-0.078295097 0.68699998 -0.097567737 1.271864e-38 255 321
-0.076978341 0.68599999 -0.097425714 1.3084141e-38 256 321
-0.075775556 0.68599999 -0.097425714 1.3268532e-38 257 321
-0.074355356 0.68400002 -0.097141676 1.2904049e-38 258 321
-0.073049128 0.68300003 -0.09699966 1.3272473e-38 259 321
-0.071746394 0.68199998 -0.09685763 1.3460094e-38 260 321
-0.070343733 0.68000001 -0.096573599 1.4105463e-38 261 321
-0.069151461 0.68000001 -0.096573599 1.465828e-38 262 321
-0.067559443 0.676 -0.096005514 1.5119618e-38 263 321
-0.066374183 0.676 -0.096005514 1.6128728e-38 264 321
-0.065188929 0.676 -0.096005514 1.6220925e-38 265 321
-0.063909002 0.67500001 -0.095863499 1.6680454e-38 266 321
-0.062725499 0.67500001 -0.095863499 1.6680454e-38 267 321
-0.061542001 0.67500001 -0.095863499 1.6863774e-38 268 321
-0.06026908 0.67400002 -0.095721483 1.7048163e-38 269 321
-0.058911994 0.67199999 -0.095437437 1.7140009e-38 270 321
-0.057647847 0.671 -0.095295422 1.7324401e-38 271 321
-0.056471359 0.671 -0.095295422 1.7325473e-38 272 321
-0.055294871 0.671 -0.095295422 1.7417669e-38 273 321
-0.054037735 0.67000002 -0.095153399 1.7510215e-38 274 321
-0.052863002 0.67000002 -0.095153399 1.7510215e-38 275 321
-0.051688269 0.67000002 -0.095153399 1.7602411e-38 276 321
-0.050362743 0.66799998 -0.094869353 1.7694606e-38 277 321
-0.049117878 0.667 -0.094727337 1.7787162e-38 278 321
-0.047948405 0.667 -0.094727337 1.7971193e-38 279 321
-0.046778932 0.667 -0.094727337 1.8521493e-38 280 321
-0.045609459 0.667 -0.094727337 1.8521493e-38 281 321
-0.044439986 0.667 -0.094727337 1.8431098e-38 282 321
-0.043205637 0.66600001 -0.094585314 1.8523294e-38 283 321
-0.042037919 0.66600001 -0.094585314 1.8339979e-38 284 321
-0.040870197 0.66600001 -0.094585314 1.8339979e-38 285 321
-0.039702479 0.66600001 -0.094585314 1.8432531e-38 286 321
-0.03853476 0.66600001 -0.094585314 1.8432531e-38 287 321
-0.037254825 0.66399997 -0.094301268 1.8432531e-38 288 321
-0.036090612 0.66399997 -0.094301268 1.8616563e-38 289 321
-0.0349264 0.66399997 -0.094301268 1.8800232e-38 290 321
-0.033762183 0.66399997 -0.094301268 1.8984622e-38 291 321
-0.03259797 0.66399997 -0.094301268 1.8893503e-38 292 321
-0.031386416 0.66299999 -0.094159253 1.8893503e-38 293 321
-0.030223956 0.66299999 -0.094159253 1.9077171e-38 294 321
-0.029017664 0.662 -0.094017237 1.9169366e-38 295 321
-0.027856959 0.662 -0.094017237 1.9077171e-38 296 321
-0.026736578 0.66299999 -0.094159253 1.9077171e-38 297 321
-0.025535546 0.662 -0.094017237 1.9076452e-38 298 321
-0.024374841 0.662 -0.094017237 1.9076452e-38 299 321
-0.023214132 0.662 -0.094017237 1.9076452e-38 300 321
-0.022053426 0.662 -0.094017237 1.9076452e-38 301 321
-0.020924279 0.66299999 -0.094159253 1.9076446e-38 302 321
-0.019791625 0.66399997 -0.094301268 1.8984251e-38 303 321
-0.018627413 0.66399997 -0.094301268 1.8800936e-38 304 321
-0.0174632 0.66399997 -0.094301268 1.8800936e-38 305 321
-0.016298985 0.66399997 -0.094301268 1.8800936e-38 306 321
-0.015134773 0.66399997 -0.094301268 1.8800936e-38 307 321
-0.013970559 0.66399997 -0.094301268 1.8984604e-38 308 321
-0.012787059 0.66299999 -0.094159253 1.8892408e-38 309 321
-0.0116246 0.66299999 -0.094159253 1.870874e-38 310 321
-0.01044636 0.662 -0.094017237 1.870874e-38 311 321
-0.009285653 0.662 -0.094017237 1.861619e-38 312 321
-0.0081249457 0.662 -0.094017237 1.861619e-38 313 321
-0.0069642398 0.662 -0.094017237 1.8799861e-38 314 321
-0.0058035329 0.662 -0.094017237 1.8707306e-38 315 321
-0.0046428265 0.662 -0.094017237 1.8707662e-38 316 321
-0.0034821199 0.662 -0.094017237 1.8707662e-38 317 321
-0.0023249199 0.66299999 -0.094159253 1.852435e-38 318 321
-0.00116246 0.66299999 -0.094159253 1.8431796e-38 319 321
0 0.66299999 -0.094159253 1.8432505e-38 320 321
0.00116246 0.66299999 -0.094159253 1.8155919e-38 321 321
0.0023214133 0.662 -0.094017237 1.85229e-38 322 321
0.0034821199 0.662 -0.094017237 1.8615095e-38 323 321
0.0046217865 0.65899998 -0.093591176 1.8432149e-38 324 321
0.0057772328 0.65899998 -0.093591176 1.8339953e-38 325 321
0.00695372 0.66100001 -0.093875214 1.8431801e-38 326 321
0.0081126727 0.66100001 -0.093875214 1.8431801e-38 327 321
0.0092435731 0.65899998 -0.093591176 1.8523641e-38 328 321
0.01038324 0.65799999 -0.09344916 1.8523641e-38 329 321
0.011536933 0.65799999 -0.09344916 1.8340685e-38 330 321
0.012690626 0.65799999 -0.09344916 1.8340685e-38 331 321
0.013865359 0.65899998 -0.093591176 1.8433234e-38 332 321
0.015066394 0.66100001 -0.093875214 1.8340679e-38 333 321
0.016225345 0.66100001 -0.093875214 1.8524345e-38 334 321
0.0173843 0.66100001 -0.093875214 1.8339953e-38 335 321
0.018543253 0.66100001 -0.093875214 1.8431433e-38 336 321
0.019702207 0.66100001 -0.093875214 1.8523628e-38 337 321
0.020892721 0.662 -0.094017237 1.8523994e-38 338 321
0.022020113 0.66100001 -0.093875214 1.8431799e-38 339 321
0.023179067 0.66100001 -0.093875214 1.8523631e-38 340 321
0.02433802 0.66100001 -0.093875214 1.8523631e-38 341 321
0.025535546 0.662 -0.094017237 1.8523628e-38 342 321
0.026696252 0.662 -0.094017237 1.8523628e-38 343 321
0.02781488 0.66100001 -0.093875214 1.8523275e-38 344 321
0.028973831 0.66100001 -0.093875214 1.8707306e-38 345 321
0.030132787 0.66100001 -0.093875214 1.8431799e-38 346 321
0.031291738 0.66100001 -0.093875214 1.8339603e-38 347 321
0.032450691 0.66100001 -0.093875214 1.8523628e-38 348 321
0.033609647 0.66100001 -0.093875214 1.8523628e-38 349 321
0.0347686 0.66100001 -0.093875214 1.8432152e-38 350 321
0.035927553 0.66100001 -0.093875214 1.8432152e-38 351 321
0.037086505 0.66100001 -0.093875214 1.870659e-38 352 321
0.038303319 0.662 -0.094017237 1.870659e-38 353 321
0.039464023 0.662 -0.094017237 1.8523278e-38 354 321
0.04062473 0.662 -0.094017237 1.8431083e-38 355 321
0.041785441 0.662 -0.094017237 1.8522199e-38 356 321
0.043011017 0.66299999 -0.094159253 1.8522199e-38 357 321
0.044173479 0.66299999 -0.094159253 1.8521846e-38 358 321
0.045335937 0.66299999 -0.094159253 1.8337815e-38 359 321
0.046498399 0.66299999 -0.094159253 1.8337459e-38 360 321
0.047588971 0.662 -0.094017237 1.8153066e-38 361 321
0.048749682 0.662 -0.094017237 1.7968669e-38 362 321
0.049985778 0.66299999 -0.094159253 1.7692443e-38 363 321
0.051071092 0.662 -0.094017237 1.7691359e-38 364 321
0.0522318 0.662 -0.094017237 1.7322937e-38 365 321
0.053392503 0.662 -0.094017237 1.73233e-38 366 321
0.054553211 0.662 -0.094017237 1.7231104e-38 367 321
0.055713918 0.662 -0.094017237 1.6954878e-38 368 321
0.056874625 0.662 -0.094017237 1.6862681e-38 369 321
0.058122993 0.66299999 -0.094159253 1.6953794e-38 370 321
0.059285458 0.66299999 -0.094159253 1.6953794e-38 371 321
0.060447913 0.66299999 -0.094159253 1.676941e-38 372 321
0.061610378 0.66299999 -0.094159253 1.676941e-38 373 321
0.062772833 0.66299999 -0.094159253 1.6585372e-38 374 321
0.064031735 0.66399997 -0.094301268 1.6493176e-38 375 321
0.06519594 0.66399997 -0.094301268 1.6125479e-38 376 321
0.066360161 0.66399997 -0.094301268 1.5941447e-38 377 321
0.067727759 0.66600001 -0.094585314 1.5848901e-38 378 321
0.068895474 0.66600001 -0.094585314 1.5664151e-38 379 321
0.070063196 0.66600001 -0.094585314 1.5388997e-38 380 321
0.071230918 0.66600001 -0.094585314 1.52968e-38 381 321
0.07239864 0.66600001 -0.094585314 1.511205e-38 382 321
0.073566355 0.66600001 -0.094585314 1.4928019e-38 383 321
0.07484629 0.667 -0.094727337 1.5018782e-38 384 321
0.076015763 0.667 -0.094727337 1.5018782e-38 385 321
0.077300951 0.66799998 -0.094869353 1.4651441e-38 386 321
0.078707129 0.67000002 -0.095153399 1.4467409e-38 387 321
0.079881869 0.67000002 -0.095153399 1.4375569e-38 388 321
0.081056595 0.67000002 -0.095153399 1.4375569e-38 389 321
0.082476802 0.67199999 -0.095437437 1.4099705e-38 390 321
0.083655037 0.67199999 -0.095437437 1.3914955e-38 391 321
0.085085757 0.67400002 -0.095721483 1.3730564e-38 392 321
0.086395502 0.67500001 -0.095863499 1.3638367e-38 393 321
0.087708741 0.676 -0.096005514 1.3178115e-38 394 321
0.089288503 0.67900002 -0.096431576 1.2901529e-38 395 321
0.090612262 0.68000001 -0.096573599 1.2348361e-38 396 321
0.091804534 0.68000001 -0.096573599 1.216361e-38 397 321
0.093270317 0.68199998 -0.09685763 1.1520774e-38 398 321
0.09446609 0.68199998 -0.09685763 1.1336743e-38 399 321
-0.079499632 0.68699998 -0.098772272 1.493206e-38 254 322
-0.078295097 0.68699998 -0.098772272 1.3364375e-38 255 322
-0.076978341 0.68599999 -0.098628499 1.2900478e-38 256 322
-0.075775556 0.68599999 -0.098628499 1.2900478e-38 257 322
-0.074355356 0.68400002 -0.098340958 1.2994447e-38 258 322
-0.073049128 0.68300003 -0.098197185 1.3086642e-38 259 322
-0.071746394 0.68199998 -0.098053411 1.3273182e-38 260 322
-0.070343733 0.68000001 -0.09776587 1.373416e-38 261 322
-0.069049768 0.67900002 -0.097622089 1.3737049e-38 262 322
-0.067559443 0.676 -0.097190768 1.4474616e-38 263 322
-0.066374183 0.676 -0.097190768 1.511782e-38 264 322
-0.065188929 0.676 -0.097190768 1.5302211e-38 265 322
-0.063909002 0.67500001 -0.097047001 1.5853217e-38 266 322
-0.062725499 0.67500001 -0.097047001 1.6037249e-38 267 322
-0.061450824 0.67400002 -0.096903227 1.631204e-38 268 322
-0.06026908 0.67400002 -0.096903227 1.6404237e-38 269 322
-0.058824331 0.671 -0.096471906 1.6496439e-38 270 322
-0.057647847 0.671 -0.096471906 1.668083e-38 271 322
-0.056387197 0.67000002 -0.096328132 1.6865217e-38 272 322
-0.055212468 0.67000002 -0.096328132 1.6865217e-38 273 322
-0.054037735 0.67000002 -0.096328132 1.6866295e-38 274 322
-0.052863002 0.67000002 -0.096328132 1.6866295e-38 275 322
-0.051456824 0.667 -0.09589681 1.7234357e-38 276 322
-0.050287351 0.667 -0.09589681 1.7326552e-38 277 322
-0.04904424 0.66600001 -0.095753036 1.760206e-38 278 322
-0.047876518 0.66600001 -0.095753036 1.7694256e-38 279 322
-0.046708796 0.66600001 -0.095753036 1.7786456e-38 280 322
-0.045541082 0.66600001 -0.095753036 1.7786456e-38 281 322
-0.04437336 0.66600001 -0.095753036 1.7787175e-38 282 322
-0.043075889 0.66399997 -0.095465489 1.7971566e-38 283 322
-0.041911677 0.66399997 -0.095465489 1.7971919e-38 284 322
-0.040747464 0.66399997 -0.095465489 1.7971919e-38 285 322
-0.039583251 0.66399997 -0.095465489 1.8248502e-38 286 322
-0.038419038 0.66399997 -0.095465489 1.8156306e-38 287 322
-0.037254825 0.66399997 -0.095465489 1.8340696e-38 288 322
-0.036036257 0.66299999 -0.095321715 1.8340696e-38 289 322
-0.034873798 0.66299999 -0.095321715 1.861656e-38 290 322
-0.033711337 0.66299999 -0.095321715 1.8708755e-38 291 322
-0.032548878 0.66299999 -0.095321715 1.8984622e-38 292 322
-0.031386416 0.66299999 -0.095321715 1.9076818e-38 293 322
-0.030178372 0.662 -0.095177941 1.9076815e-38 294 322
-0.029017664 0.662 -0.095177941 1.9076815e-38 295 322
-0.027856959 0.662 -0.095177941 1.9077171e-38 296 322
-0.026696252 0.662 -0.095177941 1.9077171e-38 297 322
-0.025496973 0.66100001 -0.095034167 1.9168648e-38 298 322
-0.02433802 0.66100001 -0.095034167 1.9168648e-38 299 322
-0.023179067 0.66100001 -0.095034167 1.9076449e-38 300 322
-0.022053426 0.662 -0.095177941 1.9076449e-38 301 322
-0.020892721 0.662 -0.095177941 1.9076802e-38 302 322
-0.019732011 0.662 -0.095177941 1.9076802e-38 303 322
-0.018599359 0.66299999 -0.095321715 1.9076799e-38 304 322
-0.017436899 0.66299999 -0.095321715 1.9076799e-38 305 322
-0.016274439 0.66299999 -0.095321715 1.9076799e-38 306 322
-0.015111978 0.66299999 -0.095321715 1.8984604e-38 307 322
-0.01392848 0.662 -0.095177941 1.9167916e-38 308 322
