# .PCD v.7 - Point Cloud Data file format
FIELDS x y z rgb imX imY
SIZE 4 4 4 4 4 4
TYPE F F F F F F
COUNT 1 1 1 1 1 1
WIDTH 872
HEIGHT 1
VIEWPOINT 0 0 0 1 0 0 0
POINTS 872
DATA ascii
-0.010248233 0.83499998 0.071737625 1.7512691e-38 313 191
-0.0088052405 0.83700001 0.071909457 1.7419779e-38 314 191
-0.0073201661 0.83499998 0.071737625 1.7511975e-38 315 191
-0.0058561331 0.83499998 0.071737625 1.7512338e-38 316 191
-0.0043920996 0.83499998 0.071737625 1.7512338e-38 317 191
-0.0029280665 0.83499998 0.071737625 1.7421224e-38 318 191
-0.0014640333 0.83499998 0.071737625 1.7421224e-38 319 191
0 0.83499998 0.071737625 1.7696738e-38 320 191
0.0014605266 0.833 0.071565807 1.7511988e-38 321 191
0.0029210532 0.833 0.071565807 1.7420874e-38 322 191
0.0043815798 0.833 0.071565807 1.7420874e-38 323 191
0.0058421064 0.833 0.071565807 1.7328678e-38 324 191
0.0072850995 0.83099997 0.071393974 1.7420874e-38 325 191
0.0087421201 0.83099997 0.071393974 1.7604183e-38 326 191
0.01019914 0.83099997 0.071393974 1.7604183e-38 327 191
0.01165616 0.83099997 0.071393974 1.7696019e-38 328 191
0.01314474 0.833 0.071565807 1.7603464e-38 329 191
0.014605266 0.833 0.071565807 1.723683e-38 330 191
0.016065793 0.833 0.071565807 1.7144634e-38 331 191
0.017526319 0.833 0.071565807 1.7143913e-38 332 191
0.019032432 0.83499998 0.071737625 1.7143913e-38 333 191
0.020496465 0.83499998 0.071737625 1.7143916e-38 334 191
0.021960499 0.83499998 0.071737625 1.7051719e-38 335 191
0.023424532 0.83499998 0.071737625 1.7050997e-38 336 191
0.024888566 0.83499998 0.071737625 1.7050997e-38 337 191
0.026352599 0.83499998 0.071737625 1.7234665e-38 338 191
0.027750006 0.833 0.071565807 1.7234665e-38 339 191
0.029210532 0.833 0.071565807 1.7327933e-38 340 191
0.030597419 0.83099997 0.071393974 1.6959152e-38 341 191
0.032054439 0.83099997 0.071393974 1.6774037e-38 342 191
0.033430804 0.829 0.071222149 1.6774037e-38 343 191
0.034884319 0.829 0.071222149 1.6589664e-38 344 191
0.036337834 0.829 0.071222149 1.6405274e-38 345 191
0.037791345 0.829 0.071222149 1.6129429e-38 346 191
0.039244857 0.829 0.071222149 1.5484059e-38 347 191
0.040698372 0.829 0.071222149 1.4931258e-38 348 191
0.042151887 0.829 0.071222149 1.4746866e-38 349 191
0.043815799 0.833 0.071565807 1.4104035e-38 350 191
-0.037882518 0.83099997 0.069936961 1.7238045e-38 294 192
-0.036425497 0.83099997 0.069936961 1.6592676e-38 295 192
-0.03496848 0.83099997 0.069936961 1.604019e-38 296 192
-0.033511456 0.83099997 0.069936961 1.5763244e-38 297 192
-0.032131586 0.833 0.070105277 1.5763202e-38 298 192
-0.030671058 0.833 0.070105277 1.5579171e-38 299 192
-0.029140398 0.83099997 0.069936961 1.6497855e-38 300 192
-0.027683379 0.83099997 0.069936961 1.6497855e-38 301 192
-0.026226358 0.83099997 0.069936961 1.6315602e-38 302 192
-0.02476934 0.83099997 0.069936961 1.6407798e-38 303 192
-0.023312319 0.83099997 0.069936961 1.6500347e-38 304 192
-0.021855298 0.83099997 0.069936961 1.6868771e-38 305 192
-0.02039828 0.83099997 0.069936961 1.6960966e-38 306 192
-0.018986847 0.833 0.070105277 1.6960966e-38 307 192
-0.017526319 0.833 0.070105277 1.7236833e-38 308 192
-0.016104365 0.83499998 0.070273593 1.7421224e-38 309 192
-0.014640332 0.83499998 0.070273593 1.7604536e-38 310 192
-0.0131763 0.83499998 0.070273593 1.7604536e-38 311 192
-0.011712266 0.83499998 0.070273593 1.7604536e-38 312 192
-0.01027278 0.83700001 0.070441924 1.7696732e-38 313 192
-0.0088052405 0.83700001 0.070441924 1.7604186e-38 314 192
-0.0073201661 0.83499998 0.070273593 1.7604186e-38 315 192
-0.0058561331 0.83499998 0.070273593 1.769531e-38 316 192
-0.0043920996 0.83499998 0.070273593 1.7787864e-38 317 192
-0.0029280665 0.83499998 0.070273593 1.7696031e-38 318 192
-0.0014640333 0.83499998 0.070273593 1.7696031e-38 319 192
0 0.833 0.070105277 1.7788231e-38 320 192
0.0014570199 0.83099997 0.069936961 1.7696034e-38 321 192
0.0029140399 0.83099997 0.069936961 1.7512719e-38 322 192
0.0043710601 0.83099997 0.069936961 1.7512719e-38 323 192
0.0058280798 0.83099997 0.069936961 1.7512716e-38 324 192
0.0072850995 0.83099997 0.069936961 1.7420521e-38 325 192
0.0087210797 0.829 0.069768637 1.7696029e-38 326 192
0.010174593 0.829 0.069768637 1.7696029e-38 327 192
0.01165616 0.83099997 0.069936961 1.7604186e-38 328 192
0.01314474 0.833 0.070105277 1.7604186e-38 329 192
0.014605266 0.833 0.070105277 1.7420871e-38 330 192
0.016065793 0.833 0.070105277 1.7328675e-38 331 192
0.017526319 0.833 0.070105277 1.7511635e-38 332 192
0.018986847 0.833 0.070105277 1.7327603e-38 333 192
0.020496465 0.83499998 0.070273593 1.732725e-38 334 192
0.021960499 0.83499998 0.070273593 1.732725e-38 335 192
0.023368426 0.833 0.070105277 1.7143934e-38 336 192
0.024828954 0.833 0.070105277 1.7143934e-38 337 192
0.02628948 0.833 0.070105277 1.7327957e-38 338 192
0.027750006 0.833 0.070105277 1.7327957e-38 339 192
0.029210532 0.833 0.070105277 1.7236477e-38 340 192
0.030597419 0.83099997 0.069936961 1.7144281e-38 341 192
0.032054439 0.83099997 0.069936961 1.7051363e-38 342 192
0.033430804 0.829 0.069768637 1.7051363e-38 343 192
0.034884319 0.829 0.069768637 1.6500347e-38 344 192
0.036337834 0.829 0.069768637 1.6407793e-38 345 192
0.037791345 0.829 0.069768637 1.6039736e-38 346 192
0.039244857 0.829 0.069768637 1.5855343e-38 347 192
0.040698372 0.829 0.069768637 1.5486568e-38 348 192
0.042151887 0.829 0.069768637 1.5394013e-38 349 192
0.043710597 0.83099997 0.069936961 1.5301467e-38 350 192
0.045167617 0.83099997 0.069936961 1.5301467e-38 351 192
0.046512425 0.829 0.069768637 1.4842325e-38 352 192
0.04796594 0.829 0.069768637 1.4657575e-38 353 192
-0.039339535 0.83099997 0.068479933 1.6684517e-38 293 193
-0.037882518 0.83099997 0.068479933 1.6224187e-38 294 193
-0.036425497 0.83099997 0.068479933 1.530223e-38 295 193
-0.03496848 0.83099997 0.068479933 1.5668062e-38 296 193
-0.033511456 0.83099997 0.068479933 1.5760258e-38 297 193
-0.032054439 0.83099997 0.068479933 1.5853896e-38 298 193
-0.030597419 0.83099997 0.068479933 1.6315234e-38 299 193
-0.029070266 0.829 0.068315126 1.6958095e-38 300 193
-0.027616752 0.829 0.068315126 1.7234681e-38 301 193
-0.026163239 0.829 0.068315126 1.7419058e-38 302 193
-0.024709726 0.829 0.068315126 1.7511253e-38 303 193
-0.023256212 0.829 0.068315126 1.7695994e-38 304 193
-0.021802699 0.829 0.068315126 1.7695994e-38 305 193
-0.020349186 0.829 0.068315126 1.7329732e-38 306 193
-0.018986847 0.833 0.068644755 1.7329732e-38 307 193
-0.017526319 0.833 0.068644755 1.7697082e-38 308 193
-0.016065793 0.833 0.068644755 1.7697082e-38 309 193
-0.014605266 0.833 0.068644755 1.7696732e-38 310 193
-0.01314474 0.833 0.068644755 1.7788929e-38 311 193
-0.011684213 0.833 0.068644755 1.7696019e-38 312 193
-0.010248233 0.83499998 0.068809561 1.7788214e-38 313 193
-0.0087841991 0.83499998 0.068809561 1.7603836e-38 314 193
-0.0073201661 0.83499998 0.068809561 1.7603836e-38 315 193
-0.0058561331 0.83499998 0.068809561 1.7603483e-38 316 193
-0.0043920996 0.83499998 0.068809561 1.7603483e-38 317 193
-0.0029280665 0.83499998 0.068809561 1.7327985e-38 318 193
-0.0014605266 0.833 0.068644755 1.742054e-38 319 193
0 0.833 0.068644755 1.7327985e-38 320 193
0.0014570199 0.83099997 0.068479933 1.7327985e-38 321 193
0.0029140399 0.83099997 0.068479933 1.7328338e-38 322 193
0.0043710601 0.83099997 0.068479933 1.7328338e-38 323 193
0.0058280798 0.83099997 0.068479933 1.7328338e-38 324 193
0.0072675664 0.829 0.068315126 1.7328338e-38 325 193
0.0087210797 0.829 0.068315126 1.7328694e-38 326 193
0.010174593 0.829 0.068315126 1.7328694e-38 327 193
0.01165616 0.83099997 0.068479933 1.751164e-38 328 193
0.013113179 0.83099997 0.068479933 1.7603836e-38 329 193
0.014570199 0.83099997 0.068479933 1.7327969e-38 330 193
0.01602722 0.83099997 0.068479933 1.7327969e-38 331 193
0.017526319 0.833 0.068644755 1.751164e-38 332 193
0.018986847 0.833 0.068644755 1.751164e-38 333 193
0.020447372 0.833 0.068644755 1.7420524e-38 334 193
0.0219079 0.833 0.068644755 1.7327969e-38 335 193
0.023312319 0.83099997 0.068479933 1.7420518e-38 336 193
0.02476934 0.83099997 0.068479933 1.7420518e-38 337 193
0.026226358 0.83099997 0.068479933 1.7328678e-38 338 193
0.027683379 0.83099997 0.068479933 1.7420874e-38 339 193
0.029140398 0.83099997 0.068479933 1.7327954e-38 340 193
0.030523779 0.829 0.068315126 1.7512344e-38 341 193
0.031977292 0.829 0.068315126 1.7419777e-38 342 193
0.033430804 0.829 0.068315126 1.7327581e-38 343 193
0.034884319 0.829 0.068315126 1.7235734e-38 344 193
0.036337834 0.829 0.068315126 1.6959508e-38 345 193
0.037791345 0.829 0.068315126 1.6592161e-38 346 193
0.039339535 0.83099997 0.068479933 1.6315933e-38 347 193
0.040796559 0.83099997 0.068479933 1.6406334e-38 348 193
0.042253576 0.83099997 0.068479933 1.6314138e-38 349 193
0.043710597 0.83099997 0.068479933 1.6221955e-38 350 193
0.045167617 0.83099997 0.068479933 1.6037924e-38 351 193
0.046512425 0.829 0.068315126 1.5760997e-38 352 193
0.04796594 0.829 0.068315126 1.5300018e-38 353 193
0.049419452 0.829 0.068315126 1.474686e-38 354 193
0.050872963 0.829 0.068315126 1.4562829e-38 355 193
0.052326478 0.829 0.068315126 1.4195886e-38 356 193
-0.039339535 0.83099997 0.067022912 1.6219884e-38 293 194
-0.037882518 0.83099997 0.067022912 1.6221641e-38 294 194
-0.036425497 0.83099997 0.067022912 1.6406391e-38 295 194
-0.03496848 0.83099997 0.067022912 1.6958451e-38 296 194
-0.033430804 0.829 0.066861607 1.6958451e-38 297 194
-0.031977292 0.829 0.066861607 1.6958798e-38 298 194
-0.030523779 0.829 0.066861607 1.7235384e-38 299 194
-0.029070266 0.829 0.066861607 1.7510903e-38 300 194
-0.027616752 0.829 0.066861607 1.7879684e-38 301 194
-0.026163239 0.829 0.066861607 1.7604183e-38 302 194
-0.024709726 0.829 0.066861607 1.7604183e-38 303 194
-0.023200106 0.82700002 0.066700302 1.7513067e-38 304 194
-0.0217501 0.82700002 0.066700302 1.7513067e-38 305 194
-0.020349186 0.829 0.066861607 1.7513793e-38 306 194
-0.018941259 0.83099997 0.067022912 1.7513793e-38 307 194
-0.01748424 0.83099997 0.067022912 1.7513072e-38 308 194
-0.01602722 0.83099997 0.067022912 1.7513072e-38 309 194
-0.014570199 0.83099997 0.067022912 1.7788582e-38 310 194
-0.013113179 0.83099997 0.067022912 1.7696385e-38 311 194
-0.011684213 0.833 0.067184225 1.7787864e-38 312 194
-0.010223686 0.833 0.067184225 1.769531e-38 313 194
-0.0087631596 0.833 0.067184225 1.7603833e-38 314 194
-0.007302633 0.833 0.067184225 1.7603833e-38 315 194
-0.0058421064 0.833 0.067184225 1.7511284e-38 316 194
-0.0043815798 0.833 0.067184225 1.7511284e-38 317 194
-0.0029210532 0.833 0.067184225 1.7510931e-38 318 194
-0.0014605266 0.833 0.067184225 1.7510931e-38 319 194
0 0.833 0.067184225 1.7602411e-38 320 194
0.0014570199 0.83099997 0.067022912 1.7602411e-38 321 194
0.0029140399 0.83099997 0.067022912 1.7510934e-38 322 194
0.0043710601 0.83099997 0.067022912 1.7510934e-38 323 194
0.0058140531 0.829 0.066861607 1.7328341e-38 324 194
0.0072675664 0.829 0.066861607 1.7328341e-38 325 194
0.0087210797 0.829 0.066861607 1.7327619e-38 326 194
0.010174593 0.829 0.066861607 1.7327619e-38 327 194
0.011628106 0.829 0.066861607 1.7327975e-38 328 194
0.013113179 0.83099997 0.067022912 1.7327975e-38 329 194
0.014535133 0.829 0.066861607 1.7327619e-38 330 194
0.015988646 0.829 0.066861607 1.7327619e-38 331 194
0.017442159 0.829 0.066861607 1.7327622e-38 332 194
0.018895673 0.829 0.066861607 1.7327622e-38 333 194
0.02039828 0.83099997 0.067022912 1.7327266e-38 334 194
0.021855298 0.83099997 0.067022912 1.741982e-38 335 194
0.023256212 0.829 0.066861607 1.7328341e-38 336 194
0.024709726 0.829 0.066861607 1.7328341e-38 337 194
0.026163239 0.829 0.066861607 1.7420535e-38 338 194
0.027616752 0.829 0.066861607 1.7420535e-38 339 194
0.029070266 0.829 0.066861607 1.7420889e-38 340 194
0.030523779 0.829 0.066861607 1.7420889e-38 341 194
0.031977292 0.829 0.066861607 1.7420524e-38 342 194
0.033430804 0.829 0.066861607 1.7327969e-38 343 194
0.034884319 0.829 0.066861607 1.6960619e-38 344 194
0.036337834 0.829 0.066861607 1.6775867e-38 345 194
0.037791345 0.829 0.066861607 1.6592558e-38 346 194
0.039244857 0.829 0.066861607 1.6315612e-38 347 194
0.040698372 0.829 0.066861607 1.6498562e-38 348 194
0.042151887 0.829 0.066861607 1.631453e-38 349 194
0.043605398 0.829 0.066861607 1.6223048e-38 350 194
0.04505891 0.829 0.066861607 1.6223048e-38 351 194
0.046512425 0.829 0.066861607 1.6130498e-38 352 194
0.04796594 0.829 0.066861607 1.6038302e-38 353 194
0.049419452 0.829 0.066861607 1.5762444e-38 354 194
0.050872963 0.829 0.066861607 1.5670248e-38 355 194
0.052326478 0.829 0.066861607 1.5576272e-38 356 194
0.053779993 0.829 0.066861607 1.5207848e-38 357 194
0.055233505 0.829 0.066861607 1.447211e-38 358 194
-0.04205019 0.82700002 0.0652503 1.5761037e-38 291 195
-0.040600184 0.82700002 0.0652503 1.6036867e-38 292 195
-0.039339535 0.83099997 0.065565899 1.6313094e-38 293 195
-0.037882518 0.83099997 0.065565899 1.6590038e-38 294 195
-0.036425497 0.83099997 0.065565899 1.6958819e-38 295 195
-0.03496848 0.83099997 0.065565899 1.7143562e-38 296 195
-0.033430804 0.829 0.065408096 1.7235758e-38 297 195
-0.031977292 0.829 0.065408096 1.7419058e-38 298 195
-0.030523779 0.829 0.065408096 1.7787839e-38 299 195
-0.029070266 0.829 0.065408096 1.7787483e-38 300 195
-0.027616752 0.829 0.065408096 1.7971874e-38 301 195
-0.026163239 0.829 0.065408096 1.7788212e-38 302 195
-0.024650112 0.82700002 0.0652503 1.7788212e-38 303 195
-0.023200106 0.82700002 0.0652503 1.7513069e-38 304 195
-0.0217501 0.82700002 0.0652503 1.7513069e-38 305 195
-0.020300092 0.82700002 0.0652503 1.7696031e-38 306 195
-0.018895673 0.829 0.065408096 1.7696031e-38 307 195
-0.017442159 0.829 0.065408096 1.7696031e-38 308 195
-0.01602722 0.83099997 0.065565899 1.7603836e-38 309 195
-0.014535133 0.829 0.065408096 1.7420168e-38 310 195
-0.01308162 0.829 0.065408096 1.7420168e-38 311 195
-0.01165616 0.83099997 0.065565899 1.7327972e-38 312 195
-0.01019914 0.83099997 0.065565899 1.7235776e-38 313 195
-0.0087421201 0.83099997 0.065565899 1.7327253e-38 314 195
-0.0072850995 0.83099997 0.065565899 1.7235057e-38 315 195
-0.0058280798 0.83099997 0.065565899 1.7143581e-38 316 195
-0.0043815798 0.833 0.065723702 1.7143581e-38 317 195
-0.0029210532 0.833 0.065723702 1.6958843e-38 318 195
-0.0014570199 0.83099997 0.065565899 1.6958843e-38 319 195
0 0.83099997 0.065565899 1.7417313e-38 320 195
0.0014570199 0.83099997 0.065565899 1.7325118e-38 321 195
0.0029070266 0.829 0.065408096 1.7141805e-38 322 195
0.0043605398 0.829 0.065408096 1.7234001e-38 323 195
0.0058140531 0.829 0.065408096 1.7051407e-38 324 195
0.0072500333 0.82700002 0.0652503 1.6959212e-38 325 195
0.0087000392 0.82700002 0.0652503 1.7142521e-38 326 195
0.010174593 0.829 0.065408096 1.7142521e-38 327 195
0.011628106 0.829 0.065408096 1.6775894e-38 328 195
0.01308162 0.829 0.065408096 1.6775894e-38 329 195
0.014535133 0.829 0.065408096 1.6959209e-38 330 195
0.015988646 0.829 0.065408096 1.6959209e-38 331 195
0.017442159 0.829 0.065408096 1.7142521e-38 332 195
0.018895673 0.829 0.065408096 1.7235076e-38 333 195
0.020349186 0.829 0.065408096 1.7235073e-38 334 195
0.021802699 0.829 0.065408096 1.7327269e-38 335 195
0.023256212 0.829 0.065408096 1.7327269e-38 336 195
0.024709726 0.829 0.065408096 1.7419464e-38 337 195
0.026163239 0.829 0.065408096 1.742054e-38 338 195
0.027616752 0.829 0.065408096 1.742054e-38 339 195
0.029070266 0.829 0.065408096 1.7420889e-38 340 195
0.030523779 0.829 0.065408096 1.7328694e-38 341 195
0.031977292 0.829 0.065408096 1.7329044e-38 342 195
0.033430804 0.829 0.065408096 1.7145013e-38 343 195
0.034884319 0.829 0.065408096 1.7143931e-38 344 195
0.036337834 0.829 0.065408096 1.69599e-38 345 195
0.037791345 0.829 0.065408096 1.6775151e-38 346 195
0.039244857 0.829 0.065408096 1.6682956e-38 347 195
0.040698372 0.829 0.065408096 1.6590754e-38 348 195
0.042151887 0.829 0.065408096 1.6590754e-38 349 195
0.043605398 0.829 0.065408096 1.668294e-38 350 195
0.04505891 0.829 0.065408096 1.668294e-38 351 195
0.046512425 0.829 0.065408096 1.6774054e-38 352 195
0.04796594 0.829 0.065408096 1.6774054e-38 353 195
0.049419452 0.829 0.065408096 1.63156e-38 354 195
0.050872963 0.829 0.065408096 1.6131207e-38 355 195
0.052326478 0.829 0.065408096 1.6220896e-38 356 195
0.053779993 0.829 0.065408096 1.5852473e-38 357 195
0.055233505 0.829 0.065408096 1.5208899e-38 358 195
0.05668702 0.829 0.065408096 1.4840115e-38 359 195
0.058140531 0.829 0.065408096 1.4011826e-38 360 195
0.059594043 0.829 0.065408096 1.4565e-38 361 195
-0.0435002 0.82700002 0.06380029 1.6589691e-38 290 196
-0.04205019 0.82700002 0.06380029 1.6865918e-38 291 196
-0.040600184 0.82700002 0.06380029 1.7050293e-38 292 196
-0.039150178 0.82700002 0.06380029 1.7234325e-38 293 196
-0.037791345 0.829 0.063954584 1.7143916e-38 294 196
-0.036337834 0.829 0.063954584 1.7328307e-38 295 196
-0.03496848 0.83099997 0.064108878 1.7604173e-38 296 196
-0.033430804 0.829 0.063954584 1.7604173e-38 297 196
-0.031977292 0.829 0.063954584 1.7604173e-38 298 196
-0.030597419 0.83099997 0.064108878 1.7696369e-38 299 196
-0.029070266 0.829 0.063954584 1.7788212e-38 300 196
-0.027616752 0.829 0.063954584 1.7788212e-38 301 196
-0.026163239 0.829 0.063954584 1.7787861e-38 302 196
-0.024650112 0.82700002 0.06380029 1.7787861e-38 303 196
-0.023200106 0.82700002 0.06380029 1.7696034e-38 304 196
-0.0217501 0.82700002 0.06380029 1.7696034e-38 305 196
-0.020300092 0.82700002 0.06380029 1.7695682e-38 306 196
-0.018895673 0.829 0.063954584 1.7510931e-38 307 196
-0.017442159 0.829 0.063954584 1.7510931e-38 308 196
-0.015988646 0.829 0.063954584 1.7510931e-38 309 196
-0.014535133 0.829 0.063954584 1.7235423e-38 310 196
-0.01308162 0.829 0.063954584 1.7235423e-38 311 196
-0.01165616 0.83099997 0.064108878 1.7143225e-38 312 196
-0.01019914 0.83099997 0.064108878 1.6959194e-38 313 196
-0.0087421201 0.83099997 0.064108878 1.7142862e-38 314 196
-0.0072850995 0.83099997 0.064108878 1.7050665e-38 315 196
-0.0058280798 0.83099997 0.064108878 1.6774798e-38 316 196
-0.0043710601 0.83099997 0.064108878 1.6682603e-38 317 196
-0.0029140399 0.83099997 0.064108878 1.6865564e-38 318 196
-0.0014570199 0.83099997 0.064108878 1.6681533e-38 319 196
0 0.83099997 0.064108878 1.7047808e-38 320 196
0.0014535133 0.829 0.063954584 1.7047808e-38 321 196
0.0029070266 0.829 0.063954584 1.6956338e-38 322 196
0.0043605398 0.829 0.063954584 1.6956338e-38 323 196
0.0058140531 0.829 0.063954584 1.6773747e-38 324 196
0.0072500333 0.82700002 0.06380029 1.6681552e-38 325 196
0.0087000392 0.82700002 0.06380029 1.6498234e-38 326 196
0.010150046 0.82700002 0.06380029 1.6498234e-38 327 196
0.011628106 0.829 0.063954584 1.6682621e-38 328 196
0.01308162 0.829 0.063954584 1.6682621e-38 329 196
0.014535133 0.829 0.063954584 1.67741e-38 330 196
0.015988646 0.829 0.063954584 1.67741e-38 331 196
0.017400078 0.82700002 0.06380029 1.7049254e-38 332 196
0.018850086 0.82700002 0.06380029 1.7141808e-38 333 196
0.020349186 0.829 0.063954584 1.686666e-38 334 196
0.021802699 0.829 0.063954584 1.6958856e-38 335 196
0.023256212 0.829 0.063954584 1.6959212e-38 336 196
0.024709726 0.829 0.063954584 1.7051407e-38 337 196
0.026163239 0.829 0.063954584 1.7052124e-38 338 196
0.027616752 0.829 0.063954584 1.7052124e-38 339 196
0.029070266 0.829 0.063954584 1.7052479e-38 340 196
0.030523779 0.829 0.063954584 1.7144675e-38 341 196
0.031900145 0.82700002 0.06380029 1.7144309e-38 342 196
0.033350151 0.82700002 0.06380029 1.7052114e-38 343 196
0.034884319 0.829 0.063954584 1.7143225e-38 344 196
0.036337834 0.829 0.063954584 1.6959194e-38 345 196
0.037791345 0.829 0.063954584 1.6866998e-38 346 196
0.039244857 0.829 0.063954584 1.6682605e-38 347 196
0.040698372 0.829 0.063954584 1.6682603e-38 348 196
0.042151887 0.829 0.063954584 1.6866994e-38 349 196
0.043605398 0.829 0.063954584 1.7050659e-38 350 196
0.04505891 0.829 0.063954584 1.7050659e-38 351 196
0.046512425 0.829 0.063954584 1.6867347e-38 352 196
0.04796594 0.829 0.063954584 1.6867347e-38 353 196
0.049419452 0.829 0.063954584 1.6682953e-38 354 196
0.050872963 0.829 0.063954584 1.6590757e-38 355 196
0.052326478 0.829 0.063954584 1.6498915e-38 356 196
0.053779993 0.829 0.063954584 1.6222328e-38 357 196
0.055233505 0.829 0.063954584 1.5854975e-38 358 196
0.05668702 0.829 0.063954584 1.5670583e-38 359 196
0.058140531 0.829 0.063954584 1.5485129e-38 360 196
0.059594043 0.829 0.063954584 1.5116706e-38 361 196
0.061047558 0.829 0.063954584 1.4747959e-38 362 196
-0.046400212 0.82700002 0.062350284 1.6220886e-38 288 197
-0.044950206 0.82700002 0.062350284 1.6681505e-38 289 197
-0.0435002 0.82700002 0.062350284 1.6866621e-38 290 197
-0.04205019 0.82700002 0.062350284 1.7051012e-38 291 197
-0.040600184 0.82700002 0.062350284 1.741907e-38 292 197
-0.039150178 0.82700002 0.062350284 1.7511625e-38 293 197
-0.037791345 0.829 0.062501073 1.7512341e-38 294 197
-0.036337834 0.829 0.062501073 1.7604536e-38 295 197
-0.034884319 0.829 0.062501073 1.7696735e-38 296 197
-0.033430804 0.829 0.062501073 1.7696735e-38 297 197
-0.031977292 0.829 0.062501073 1.7696019e-38 298 197
-0.030523779 0.829 0.062501073 1.7788214e-38 299 197
-0.029070266 0.829 0.062501073 1.7788214e-38 300 197
-0.027616752 0.829 0.062501073 1.7696019e-38 301 197
-0.02610012 0.82700002 0.062350284 1.769531e-38 302 197
-0.024650112 0.82700002 0.062350284 1.769531e-38 303 197
-0.023200106 0.82700002 0.062350284 1.7511287e-38 304 197
-0.0217501 0.82700002 0.062350284 1.7511287e-38 305 197
-0.020300092 0.82700002 0.062350284 1.7510931e-38 306 197
-0.018895673 0.829 0.062501073 1.73269e-38 307 197
-0.017442159 0.829 0.062501073 1.7234707e-38 308 197
-0.015988646 0.829 0.062501073 1.7234707e-38 309 197
-0.014535133 0.829 0.062501073 1.7142512e-38 310 197
-0.01308162 0.829 0.062501073 1.7049957e-38 311 197
-0.011628106 0.829 0.062501073 1.6958113e-38 312 197
-0.01019914 0.83099997 0.062651858 1.6865918e-38 313 197
-0.0087421201 0.83099997 0.062651858 1.6682603e-38 314 197
-0.0072850995 0.83099997 0.062651858 1.6498211e-38 315 197
-0.0058280798 0.83099997 0.062651858 1.6497855e-38 316 197
-0.0043710601 0.83099997 0.062651858 1.6313824e-38 317 197
-0.0029140399 0.83099997 0.062651858 1.6587903e-38 318 197
-0.0014570199 0.83099997 0.062651858 1.6587903e-38 319 197
0 0.829 0.062501073 1.6219842e-38 320 197
0.0014535133 0.829 0.062501073 1.6312038e-38 321 197
0.0029070266 0.829 0.062501073 1.6403517e-38 322 197
0.0043605398 0.829 0.062501073 1.658755e-38 323 197
0.0058140531 0.829 0.062501073 1.640424e-38 324 197
0.0072500333 0.82700002 0.062350284 1.640424e-38 325 197
0.0087000392 0.82700002 0.062350284 1.631204e-38 326 197
0.010150046 0.82700002 0.062350284 1.6404237e-38 327 197
0.011628106 0.829 0.062501073 1.6220925e-38 328 197
0.01308162 0.829 0.062501073 1.6220925e-38 329 197
0.014500067 0.82700002 0.062350284 1.6679751e-38 330 197
0.015950073 0.82700002 0.062350284 1.6771947e-38 331 197
0.017400078 0.82700002 0.062350284 1.668083e-38 332 197
0.018850086 0.82700002 0.062350284 1.6864861e-38 333 197
0.020349186 0.829 0.062501073 1.6406757e-38 334 197
0.0217501 0.82700002 0.062350284 1.6314561e-38 335 197
0.023200106 0.82700002 0.062350284 1.6406757e-38 336 197
0.024709726 0.829 0.062501073 1.659115e-38 337 197
0.026163239 0.829 0.062501073 1.6958493e-38 338 197
0.027616752 0.829 0.062501073 1.6958493e-38 339 197
0.029070266 0.829 0.062501073 1.6959212e-38 340 197
0.030523779 0.829 0.062501073 1.6959212e-38 341 197
0.031900145 0.82700002 0.062350284 1.6958843e-38 342 197
0.033350151 0.82700002 0.062350284 1.7142874e-38 343 197
0.034800157 0.82700002 0.062350284 1.7049957e-38 344 197
0.036250167 0.82700002 0.062350284 1.7049957e-38 345 197
0.037700173 0.82700002 0.062350284 1.6866645e-38 346 197
0.039150178 0.82700002 0.062350284 1.6866645e-38 347 197
0.040698372 0.829 0.062501073 1.6867001e-38 348 197
0.042151887 0.829 0.062501073 1.6959196e-38 349 197
0.043605398 0.829 0.062501073 1.6959194e-38 350 197
0.04505891 0.829 0.062501073 1.6959194e-38 351 197
0.046512425 0.829 0.062501073 1.6959194e-38 352 197
0.04796594 0.829 0.062501073 1.6959194e-38 353 197
0.049419452 0.829 0.062501073 1.695955e-38 354 197
0.050872963 0.829 0.062501073 1.6866994e-38 355 197
0.052326478 0.829 0.062501073 1.6775151e-38 356 197
0.053779993 0.829 0.062501073 1.6682956e-38 357 197
0.055233505 0.829 0.062501073 1.6498912e-38 358 197
0.05668702 0.829 0.062501073 1.6130488e-38 359 197
0.058140531 0.829 0.062501073 1.5854624e-38 360 197
0.059594043 0.829 0.062501073 1.5485482e-38 361 197
0.061047558 0.829 0.062501073 1.5116706e-38 362 197
0.062501073 0.829 0.062501073 1.4839759e-38 363 197
0.063954584 0.829 0.062501073 1.4379183e-38 364 197
-0.056550261 0.82700002 0.060900278 1.6686317e-38 281 198
-0.055100251 0.82700002 0.060900278 1.6223484e-38 282 198
-0.052200239 0.82700002 0.060900278 1.5391511e-38 284 198
-0.0506275 0.82499999 0.060752995 1.5760293e-38 285 198
-0.049180996 0.82499999 0.060752995 1.5944669e-38 286 198
-0.047734499 0.82499999 0.060752995 1.6405646e-38 287 198
-0.046400212 0.82700002 0.060900278 1.6773704e-38 288 198
-0.044950206 0.82700002 0.060900278 1.7050649e-38 289 198
-0.0435002 0.82700002 0.060900278 1.7235031e-38 290 198
-0.04205019 0.82700002 0.060900278 1.7419424e-38 291 198
-0.040600184 0.82700002 0.060900278 1.7603818e-38 292 198
-0.039150178 0.82700002 0.060900278 1.7788209e-38 293 198
-0.037700173 0.82700002 0.060900278 1.7696382e-38 294 198
-0.036250167 0.82700002 0.060900278 1.7696382e-38 295 198
-0.034800157 0.82700002 0.060900278 1.7512719e-38 296 198
-0.033350151 0.82700002 0.060900278 1.7420524e-38 297 198
-0.031900145 0.82700002 0.060900278 1.7327972e-38 298 198
-0.030450139 0.82700002 0.060900278 1.7327972e-38 299 198
-0.029000133 0.82700002 0.060900278 1.751164e-38 300 198
-0.027550125 0.82700002 0.060900278 1.732725e-38 301 198
-0.02610012 0.82700002 0.060900278 1.7235776e-38 302 198
-0.024650112 0.82700002 0.060900278 1.7235776e-38 303 198
-0.023200106 0.82700002 0.060900278 1.7142874e-38 304 198
-0.0217501 0.82700002 0.060900278 1.7142874e-38 305 198
-0.020300092 0.82700002 0.060900278 1.6867013e-38 306 198
-0.018895673 0.829 0.061047558 1.6867013e-38 307 198
-0.017442159 0.829 0.061047558 1.6866295e-38 308 198
-0.015988646 0.829 0.061047558 1.6774098e-38 309 198
-0.014535133 0.829 0.061047558 1.6772297e-38 310 198
-0.01308162 0.829 0.061047558 1.6772297e-38 311 198
-0.011628106 0.829 0.061047558 1.631419e-38 312 198
-0.010174593 0.829 0.061047558 1.6221994e-38 313 198
-0.0087421201 0.83099997 0.061194837 1.6221997e-38 314 198
-0.0072850995 0.83099997 0.061194837 1.6037604e-38 315 198
-0.0058280798 0.83099997 0.061194837 1.6036532e-38 316 198
-0.0043710601 0.83099997 0.061194837 1.6036532e-38 317 198
-0.0029140399 0.83099997 0.061194837 1.5943981e-38 318 198
-0.0014570199 0.83099997 0.061194837 1.5943981e-38 319 198
0 0.829 0.061047558 1.585142e-38 320 198
0.0014535133 0.829 0.061047558 1.5759224e-38 321 198
0.0029070266 0.829 0.061047558 1.5576275e-38 322 198
0.0043605398 0.829 0.061047558 1.566847e-38 323 198
0.0058140531 0.829 0.061047558 1.5668123e-38 324 198
0.0072500333 0.82700002 0.060900278 1.5668123e-38 325 198
0.0087000392 0.82700002 0.060900278 1.5851432e-38 326 198
0.010174593 0.829 0.061047558 1.5851432e-38 327 198
0.011628106 0.829 0.061047558 1.5668842e-38 328 198
0.01308162 0.829 0.061047558 1.5668842e-38 329 198
0.014500067 0.82700002 0.060900278 1.6035829e-38 330 198
0.015950073 0.82700002 0.060900278 1.6035829e-38 331 198
0.017400078 0.82700002 0.060900278 1.6036549e-38 332 198
0.018850086 0.82700002 0.060900278 1.6128745e-38 333 198
0.020349186 0.829 0.061047558 1.5853956e-38 334 198
0.0217501 0.82700002 0.060900278 1.5669566e-38 335 198
0.023200106 0.82700002 0.060900278 1.5946152e-38 336 198
0.024650112 0.82700002 0.060900278 1.6130543e-38 337 198
0.026163239 0.829 0.061047558 1.6406407e-38 338 198
0.027616752 0.829 0.061047558 1.6406407e-38 339 198
0.029070266 0.829 0.061047558 1.6315287e-38 340 198
0.030523779 0.829 0.061047558 1.6315287e-38 341 198
0.031900145 0.82700002 0.060900278 1.6498584e-38 342 198
0.033350151 0.82700002 0.060900278 1.6775171e-38 343 198
0.034800157 0.82700002 0.060900278 1.6682615e-38 344 198
0.036250167 0.82700002 0.060900278 1.6682615e-38 345 198
0.037700173 0.82700002 0.060900278 1.6591506e-38 346 198
0.039150178 0.82700002 0.060900278 1.6591506e-38 347 198
0.040698372 0.829 0.061047558 1.6958846e-38 348 198
0.042151887 0.829 0.061047558 1.6958846e-38 349 198
0.043605398 0.829 0.061047558 1.6959565e-38 350 198
0.04505891 0.829 0.061047558 1.6959565e-38 351 198
0.046512425 0.829 0.061047558 1.6959562e-38 352 198
0.04796594 0.829 0.061047558 1.7051758e-38 353 198
0.049419452 0.829 0.061047558 1.7052111e-38 354 198
0.050872963 0.829 0.061047558 1.6959915e-38 355 198
0.052326478 0.829 0.061047558 1.6959547e-38 356 198
0.053650245 0.82700002 0.060900278 1.6775154e-38 357 198
0.055100251 0.82700002 0.060900278 1.6866974e-38 358 198
0.056550261 0.82700002 0.060900278 1.6590389e-38 359 198
0.058000267 0.82700002 0.060900278 1.6498543e-38 360 198
0.059450272 0.82700002 0.060900278 1.6037924e-38 361 198
0.060900278 0.82700002 0.060900278 1.6128334e-38 362 198
0.062501073 0.829 0.061047558 1.5759911e-38 363 198
0.063954584 0.829 0.061047558 1.5390795e-38 364 198
0.065408096 0.829 0.061047558 1.5113849e-38 365 198
0.066700302 0.82700002 0.060900278 1.4195153e-38 366 198
0.068150312 0.82700002 0.060900278 1.3918927e-38 367 198
-0.058000267 0.82700002 0.059450272 1.5485934e-38 280 199
-0.056550261 0.82700002 0.059450272 1.5393739e-38 281 199
-0.055100251 0.82700002 0.059450272 1.5852867e-38 282 199
-0.053650245 0.82700002 0.059450272 1.5668117e-38 283 199
-0.052200239 0.82700002 0.059450272 1.6220901e-38 284 199
-0.0506275 0.82499999 0.059306499 1.6313097e-38 285 199
-0.049180996 0.82499999 0.059306499 1.6497843e-38 286 199
-0.047734499 0.82499999 0.059306499 1.6682234e-38 287 199
-0.046400212 0.82700002 0.059450272 1.695917e-38 288 199
-0.044950206 0.82700002 0.059450272 1.7235758e-38 289 199
-0.0435002 0.82700002 0.059450272 1.7512341e-38 290 199
-0.04205019 0.82700002 0.059450272 1.7604536e-38 291 199
-0.040600184 0.82700002 0.059450272 1.7604183e-38 292 199
-0.039150178 0.82700002 0.059450272 1.7604183e-38 293 199
-0.037700173 0.82700002 0.059450272 1.769531e-38 294 199
-0.036250167 0.82700002 0.059450272 1.7603114e-38 295 199
-0.034800157 0.82700002 0.059450272 1.7603114e-38 296 199
-0.033350151 0.82700002 0.059450272 1.7510918e-38 297 199
-0.031900145 0.82700002 0.059450272 1.75102e-38 298 199
-0.030450139 0.82700002 0.059450272 1.75102e-38 299 199
-0.029000133 0.82700002 0.059450272 1.7418001e-38 300 199
-0.027550125 0.82700002 0.059450272 1.7418001e-38 301 199
-0.02610012 0.82700002 0.059450272 1.723433e-38 302 199
-0.024650112 0.82700002 0.059450272 1.723433e-38 303 199
-0.023200106 0.82700002 0.059450272 1.7049593e-38 304 199
-0.0217501 0.82700002 0.059450272 1.7049593e-38 305 199
-0.020300092 0.82700002 0.059450272 1.704924e-38 306 199
-0.018895673 0.829 0.059594043 1.6680098e-38 307 199
-0.017442159 0.829 0.059594043 1.6404944e-38 308 199
-0.015988646 0.829 0.059594043 1.6220192e-38 309 199
-0.014535133 0.829 0.059594043 1.6219829e-38 310 199
-0.01308162 0.829 0.059594043 1.6312025e-38 311 199
-0.011628106 0.829 0.059594043 1.6036517e-38 312 199
-0.010174593 0.829 0.059594043 1.6036517e-38 313 199
-0.0087210797 0.829 0.059594043 1.5759218e-38 314 199
-0.0072675664 0.829 0.059594043 1.5759218e-38 315 199
-0.0058140531 0.829 0.059594043 1.5942533e-38 316 199
-0.0043605398 0.829 0.059594043 1.5758501e-38 317 199
-0.0029140399 0.83099997 0.059737816 1.5666658e-38 318 199
-0.0014570199 0.83099997 0.059737816 1.5574463e-38 319 199
0 0.829 0.059594043 1.5114202e-38 320 199
0.0014535133 0.829 0.059594043 1.5298952e-38 321 199
0.0029070266 0.829 0.059594043 1.5574463e-38 322 199
0.0043605398 0.829 0.059594043 1.5574463e-38 323 199
0.0058140531 0.829 0.059594043 1.5574826e-38 324 199
0.0072675664 0.829 0.059594043 1.5574826e-38 325 199
0.0087210797 0.829 0.059594043 1.5390792e-38 326 199
0.010174593 0.829 0.059594043 1.5575182e-38 327 199
0.011628106 0.829 0.059594043 1.5666302e-38 328 199
0.01308162 0.829 0.059594043 1.5666302e-38 329 199
0.014535133 0.829 0.059594043 1.5759221e-38 330 199
0.015950073 0.82700002 0.059450272 1.5759221e-38 331 199
0.017400078 0.82700002 0.059450272 1.5942889e-38 332 199
0.018850086 0.82700002 0.059450272 1.5758498e-38 333 199
0.020300092 0.82700002 0.059450272 1.5942889e-38 334 199
0.0217501 0.82700002 0.059450272 1.6035085e-38 335 199
0.023200106 0.82700002 0.059450272 1.5668821e-38 336 199
0.024650112 0.82700002 0.059450272 1.5853571e-38 337 199
0.026163239 0.829 0.059594043 1.6129078e-38 338 199
0.027550125 0.82700002 0.059450272 1.6129078e-38 339 199
0.029000133 0.82700002 0.059450272 1.6129076e-38 340 199
0.030523779 0.829 0.059594043 1.6221631e-38 341 199
0.031900145 0.82700002 0.059450272 1.6404944e-38 342 199
0.033350151 0.82700002 0.059450272 1.6589335e-38 343 199
0.034884319 0.829 0.059594043 1.668118e-38 344 199
0.036337834 0.829 0.059594043 1.668118e-38 345 199
0.037700173 0.82700002 0.059450272 1.6865214e-38 346 199
0.039150178 0.82700002 0.059450272 1.695741e-38 347 199
0.040698372 0.829 0.059594043 1.6957407e-38 348 199
0.042151887 0.829 0.059594043 1.7049963e-38 349 199
0.043605398 0.829 0.059594043 1.6958846e-38 350 199
0.04505891 0.829 0.059594043 1.6958846e-38 351 199
0.046512425 0.829 0.059594043 1.6959562e-38 352 199
0.04796594 0.829 0.059594043 1.7051758e-38 353 199
0.049419452 0.829 0.059594043 1.6960278e-38 354 199
0.050750233 0.82700002 0.059450272 1.6960278e-38 355 199
0.052200239 0.82700002 0.059450272 1.7143228e-38 356 199
0.053650245 0.82700002 0.059450272 1.6959196e-38 357 199
0.055100251 0.82700002 0.059450272 1.686807e-38 358 199
0.056550261 0.82700002 0.059450272 1.6683319e-38 359 199
0.058000267 0.82700002 0.059450272 1.7050659e-38 360 199
0.059450272 0.82700002 0.059450272 1.6590041e-38 361 199
0.060900278 0.82700002 0.059450272 1.6680802e-38 362 199
0.062350284 0.82700002 0.059450272 1.6220182e-38 363 199
0.06380029 0.82700002 0.059450272 1.5942884e-38 364 199
0.0652503 0.82700002 0.059450272 1.5666656e-38 365 199
0.066700302 0.82700002 0.059450272 1.5023451e-38 366 199
0.068150312 0.82700002 0.059450272 1.483906e-38 367 199
0.069600314 0.82700002 0.059450272 1.382747e-38 368 199
-0.059306499 0.82499999 0.057859998 1.5301891e-38 279 200
-0.057859998 0.82499999 0.057859998 1.5482615e-38 280 200
-0.056413498 0.82499999 0.057859998 1.5667006e-38 281 200
-0.054966997 0.82499999 0.057859998 1.6128332e-38 282 200
-0.053650245 0.82700002 0.058000267 1.6589308e-38 283 200
-0.052200239 0.82700002 0.058000267 1.6773353e-38 284 200
-0.050750233 0.82700002 0.058000267 1.6865549e-38 285 200
-0.049300224 0.82700002 0.058000267 1.6682587e-38 286 200
-0.047850218 0.82700002 0.058000267 1.7051368e-38 287 200
-0.046400212 0.82700002 0.058000267 1.6959897e-38 288 200
-0.044950206 0.82700002 0.058000267 1.7143928e-38 289 200
-0.0435002 0.82700002 0.058000267 1.7236127e-38 290 200
-0.04205019 0.82700002 0.058000267 1.7328322e-38 291 200
-0.040600184 0.82700002 0.058000267 1.7511637e-38 292 200
-0.039150178 0.82700002 0.058000267 1.7511637e-38 293 200
-0.037700173 0.82700002 0.058000267 1.7327256e-38 294 200
-0.036250167 0.82700002 0.058000267 1.7327256e-38 295 200
-0.034800157 0.82700002 0.058000267 1.7143228e-38 296 200
-0.033350151 0.82700002 0.058000267 1.7143228e-38 297 200
-0.031900145 0.82700002 0.058000267 1.6959196e-38 298 200
-0.030450139 0.82700002 0.058000267 1.6774445e-38 299 200
-0.029000133 0.82700002 0.058000267 1.6958116e-38 300 200
-0.027550125 0.82700002 0.058000267 1.6958116e-38 301 200
-0.02610012 0.82700002 0.058000267 1.6681533e-38 302 200
-0.024650112 0.82700002 0.058000267 1.6681533e-38 303 200
-0.023200106 0.82700002 0.058000267 1.6313487e-38 304 200
-0.021697499 0.82499999 0.057859998 1.6221291e-38 305 200
-0.020251 0.82499999 0.057859998 1.6220572e-38 306 200
-0.018850086 0.82700002 0.058000267 1.5943984e-38 307 200
-0.017442159 0.829 0.058140531 1.5944337e-38 308 200
-0.015988646 0.829 0.058140531 1.5851783e-38 309 200
-0.014535133 0.829 0.058140531 1.5575921e-38 310 200
-0.01308162 0.829 0.058140531 1.5483726e-38 311 200
-0.011628106 0.829 0.058140531 1.5483006e-38 312 200
-0.010174593 0.829 0.058140531 1.5483006e-38 313 200
-0.0087210797 0.829 0.058140531 1.539081e-38 314 200
-0.0072675664 0.829 0.058140531 1.5298614e-38 315 200
-0.0058140531 0.829 0.058140531 1.5206419e-38 316 200
-0.0043605398 0.829 0.058140531 1.5206419e-38 317 200
-0.0029070266 0.829 0.058140531 1.4930908e-38 318 200
-0.0014535133 0.829 0.058140531 1.4838712e-38 319 200
0 0.829 0.058140531 1.4837638e-38 320 200
0.0014535133 0.829 0.058140531 1.4837638e-38 321 200
0.0029070266 0.829 0.058140531 1.4561775e-38 322 200
0.0043605398 0.829 0.058140531 1.4838003e-38 323 200
0.0058140531 0.829 0.058140531 1.4563567e-38 324 200
0.0072675664 0.829 0.058140531 1.4563567e-38 325 200
0.0087210797 0.829 0.058140531 1.4563565e-38 326 200
0.010174593 0.829 0.058140531 1.4563565e-38 327 200
0.011628106 0.829 0.058140531 1.4655044e-38 328 200
0.01308162 0.829 0.058140531 1.4655044e-38 329 200
0.014535133 0.829 0.058140531 1.4654691e-38 330 200
0.015950073 0.82700002 0.058000267 1.4746887e-38 331 200
0.017400078 0.82700002 0.058000267 1.4930205e-38 332 200
0.018850086 0.82700002 0.058000267 1.50224e-38 333 200
0.020300092 0.82700002 0.058000267 1.4839085e-38 334 200
0.0217501 0.82700002 0.058000267 1.5023116e-38 335 200
0.023200106 0.82700002 0.058000267 1.5023116e-38 336 200
0.024650112 0.82700002 0.058000267 1.5207868e-38 337 200
0.02610012 0.82700002 0.058000267 1.5117817e-38 338 200
0.027550125 0.82700002 0.058000267 1.5025622e-38 339 200
0.029000133 0.82700002 0.058000267 1.6034735e-38 340 200
0.030450139 0.82700002 0.058000267 1.612693e-38 341 200
0.031900145 0.82700002 0.058000267 1.5668123e-38 342 200
0.033350151 0.82700002 0.058000267 1.6036547e-38 343 200
0.034800157 0.82700002 0.058000267 1.5945077e-38 344 200
0.036250167 0.82700002 0.058000267 1.6037631e-38 345 200
0.037700173 0.82700002 0.058000267 1.6313139e-38 346 200
0.039150178 0.82700002 0.058000267 1.6405335e-38 347 200
0.040698372 0.829 0.058140531 1.6497883e-38 348 200
0.042151887 0.829 0.058140531 1.6681915e-38 349 200
0.043605398 0.829 0.058140531 1.6499676e-38 350 200
0.044950206 0.82700002 0.058000267 1.6499676e-38 351 200
0.046400212 0.82700002 0.058000267 1.6408553e-38 352 200
0.047850218 0.82700002 0.058000267 1.6501108e-38 353 200
0.049300224 0.82700002 0.058000267 1.6501102e-38 354 200
0.050750233 0.82700002 0.058000267 1.6501102e-38 355 200
0.052200239 0.82700002 0.058000267 1.6776603e-38 356 200
0.053650245 0.82700002 0.058000267 1.6684049e-38 357 200
0.055100251 0.82700002 0.058000267 1.686735e-38 358 200
0.056550261 0.82700002 0.058000267 1.686735e-38 359 200
0.058000267 0.82700002 0.058000267 1.7051368e-38 360 200
0.059450272 0.82700002 0.058000267 1.6866618e-38 361 200
0.060900278 0.82700002 0.058000267 1.6865902e-38 362 200
0.062350284 0.82700002 0.058000267 1.6773707e-38 363 200
0.06380029 0.82700002 0.058000267 1.6496043e-38 364 200
0.0652503 0.82700002 0.058000267 1.6127262e-38 365 200
0.066700302 0.82700002 0.058000267 1.6126182e-38 366 200
0.068150312 0.82700002 0.058000267 1.5849955e-38 367 200
0.069600314 0.82700002 0.058000267 1.4746497e-38 368 200
-0.060752995 0.82499999 0.056413498 1.5760671e-38 278 201
-0.059306499 0.82499999 0.056413498 1.6129095e-38 279 201
-0.057859998 0.82499999 0.056413498 1.649749e-38 280 201
-0.056413498 0.82499999 0.056413498 1.649749e-38 281 201
-0.054966997 0.82499999 0.056413498 1.6498915e-38 282 201
-0.053520497 0.82499999 0.056413498 1.6683306e-38 283 201
-0.052200239 0.82700002 0.056550261 1.6867703e-38 284 201
-0.0506275 0.82499999 0.056413498 1.6867703e-38 285 201
-0.049180996 0.82499999 0.056413498 1.6866994e-38 286 201
-0.047850218 0.82700002 0.056550261 1.6866994e-38 287 201
-0.046400212 0.82700002 0.056550261 1.7142506e-38 288 201
-0.044950206 0.82700002 0.056550261 1.723506e-38 289 201
-0.0435002 0.82700002 0.056550261 1.7510565e-38 290 201
-0.041948497 0.82499999 0.056413498 1.7510565e-38 291 201
-0.040502001 0.82499999 0.056413498 1.7510921e-38 292 201
-0.039055496 0.82499999 0.056413498 1.7418367e-38 293 201
-0.037700173 0.82700002 0.056550261 1.7326527e-38 294 201
-0.036162499 0.82499999 0.056413498 1.723433e-38 295 201
-0.034715999 0.82499999 0.056413498 1.6958464e-38 296 201
-0.033269498 0.82499999 0.056413498 1.6866268e-38 297 201
-0.031822998 0.82499999 0.056413498 1.6865552e-38 298 201
-0.030450139 0.82700002 0.056550261 1.6773356e-38 299 201
-0.028929999 0.82499999 0.056413498 1.6772637e-38 300 201
-0.027483499 0.82499999 0.056413498 1.6680082e-38 301 201
-0.026036998 0.82499999 0.056413498 1.6587886e-38 302 201
-0.024590498 0.82499999 0.056413498 1.649569e-38 303 201
-0.023143999 0.82499999 0.056413498 1.6036164e-38 304 201
-0.021697499 0.82499999 0.056413498 1.5943968e-38 305 201
-0.020251 0.82499999 0.056413498 1.6126209e-38 306 201
-0.018850086 0.82700002 0.056550261 1.6034013e-38 307 201
-0.017400078 0.82700002 0.056550261 1.5666302e-38 308 201
-0.015988646 0.829 0.05668702 1.5574107e-38 309 201
-0.014535133 0.829 0.05668702 1.5481908e-38 310 201
-0.01308162 0.829 0.05668702 1.5389713e-38 311 201
-0.011628106 0.829 0.05668702 1.5389713e-38 312 201
-0.010174593 0.829 0.05668702 1.5297517e-38 313 201
-0.0087210797 0.829 0.05668702 1.5022002e-38 314 201
-0.0072675664 0.829 0.05668702 1.4929807e-38 315 201
-0.0058140531 0.829 0.05668702 1.4929441e-38 316 201
-0.0043605398 0.829 0.05668702 1.4929441e-38 317 201
-0.0029070266 0.829 0.05668702 1.5021639e-38 318 201
-0.0014535133 0.829 0.05668702 1.4837248e-38 319 201
0 0.829 0.05668702 1.4743975e-38 320 201
0.0014535133 0.829 0.05668702 1.4651778e-38 321 201
0.0029070266 0.829 0.05668702 1.4468468e-38 322 201
0.0043605398 0.829 0.05668702 1.4652501e-38 323 201
0.0058140531 0.829 0.05668702 1.4561028e-38 324 201
0.0072675664 0.829 0.05668702 1.4653583e-38 325 201
0.0087210797 0.829 0.05668702 1.4561747e-38 326 201
0.010174593 0.829 0.05668702 1.4561747e-38 327 201
0.011628106 0.829 0.05668702 1.4469552e-38 328 201
0.01308162 0.829 0.05668702 1.4561747e-38 329 201
0.014535133 0.829 0.05668702 1.4836542e-38 330 201
0.015988646 0.829 0.05668702 1.4928737e-38 331 201
0.017400078 0.82700002 0.056550261 1.4745425e-38 332 201
0.018850086 0.82700002 0.056550261 1.4929456e-38 333 201
0.020300092 0.82700002 0.056550261 1.4746141e-38 334 201
0.021802699 0.829 0.05668702 1.4746141e-38 335 201
0.023256212 0.829 0.05668702 1.4746144e-38 336 201
0.024709726 0.829 0.05668702 1.4930537e-38 337 201
0.02610012 0.82700002 0.056550261 1.4931256e-38 338 201
0.027550125 0.82700002 0.056550261 1.4931256e-38 339 201
0.029000133 0.82700002 0.056550261 1.5299318e-38 340 201
0.030450139 0.82700002 0.056550261 1.5299318e-38 341 201
0.031900145 0.82700002 0.056550261 1.5391516e-38 342 201
0.033350151 0.82700002 0.056550261 1.5575909e-38 343 201
0.034800157 0.82700002 0.056550261 1.5851064e-38 344 201
0.036250167 0.82700002 0.056550261 1.6035814e-38 345 201
0.037700173 0.82700002 0.056550261 1.6219848e-38 346 201
0.039150178 0.82700002 0.056550261 1.6312043e-38 347 201
0.040698372 0.829 0.05668702 1.640424e-38 348 201
0.04205019 0.82700002 0.056550261 1.6496436e-38 349 201
0.0435002 0.82700002 0.056550261 1.6314559e-38 350 201
0.044950206 0.82700002 0.056550261 1.6406754e-38 351 201
0.046400212 0.82700002 0.056550261 1.6131962e-38 352 201
0.047850218 0.82700002 0.056550261 1.6224517e-38 353 201
0.049300224 0.82700002 0.056550261 1.6592222e-38 354 201
0.050750233 0.82700002 0.056550261 1.6592222e-38 355 201
0.052200239 0.82700002 0.056550261 1.6775894e-38 356 201
0.053520497 0.82499999 0.056413498 1.6775894e-38 357 201
0.054966997 0.82499999 0.056413498 1.6959565e-38 358 201
0.056413498 0.82499999 0.056413498 1.6959565e-38 359 201
0.057859998 0.82499999 0.056413498 1.6959565e-38 360 201
0.059306499 0.82499999 0.056413498 1.6867011e-38 361 201
0.060752995 0.82499999 0.056413498 1.6775168e-38 362 201
0.062199496 0.82499999 0.056413498 1.6682971e-38 363 201
0.063645996 0.82499999 0.056413498 1.6773003e-38 364 201
0.065092497 0.82499999 0.056413498 1.6404221e-38 365 201
0.066700302 0.82700002 0.056550261 1.6127631e-38 366 201
0.068150312 0.82700002 0.056550261 1.6035435e-38 367 201
0.069431998 0.82499999 0.056413498 1.5391867e-38 368 201
0.070878498 0.82499999 0.056413498 1.5299671e-38 369 201
-0.066861607 0.829 0.055233505 1.6685925e-38 274 202
-0.0652503 0.82700002 0.055100251 1.576361e-38 275 202
-0.063645996 0.82499999 0.054966997 1.5670268e-38 276 202
-0.062199496 0.82499999 0.054966997 1.5485877e-38 277 202
-0.060752995 0.82499999 0.054966997 1.631345e-38 278 202
-0.059306499 0.82499999 0.054966997 1.6590038e-38 279 202
-0.057859998 0.82499999 0.054966997 1.6866265e-38 280 202
-0.056413498 0.82499999 0.054966997 1.6866265e-38 281 202
-0.054966997 0.82499999 0.054966997 1.6865902e-38 282 202
-0.053520497 0.82499999 0.054966997 1.6958098e-38 283 202
-0.052073997 0.82499999 0.054966997 1.6682249e-38 284 202
-0.0506275 0.82499999 0.054966997 1.6682249e-38 285 202
-0.049180996 0.82499999 0.054966997 1.6682615e-38 286 202
-0.047734499 0.82499999 0.054966997 1.6682615e-38 287 202
-0.046400212 0.82700002 0.055100251 1.7049957e-38 288 202
-0.044950206 0.82700002 0.055100251 1.7049957e-38 289 202
-0.043394998 0.82499999 0.054966997 1.7143225e-38 290 202
-0.041948497 0.82499999 0.054966997 1.6959194e-38 291 202
-0.040502001 0.82499999 0.054966997 1.7326174e-38 292 202
-0.039055496 0.82499999 0.054966997 1.7233977e-38 293 202
-0.037608996 0.82499999 0.054966997 1.6957748e-38 294 202
-0.036162499 0.82499999 0.054966997 1.6865552e-38 295 202
-0.034715999 0.82499999 0.054966997 1.6590407e-38 296 202
-0.033269498 0.82499999 0.054966997 1.631418e-38 297 202
-0.031822998 0.82499999 0.054966997 1.6680452e-38 298 202
-0.030376498 0.82499999 0.054966997 1.6404223e-38 299 202
-0.028929999 0.82499999 0.054966997 1.6220192e-38 300 202
-0.027483499 0.82499999 0.054966997 1.6036161e-38 301 202
-0.026036998 0.82499999 0.054966997 1.6219832e-38 302 202
-0.024590498 0.82499999 0.054966997 1.6035082e-38 303 202
-0.023143999 0.82499999 0.054966997 1.5942533e-38 304 202
-0.021697499 0.82499999 0.054966997 1.5758501e-38 305 202
-0.020251 0.82499999 0.054966997 1.5574475e-38 306 202
-0.018850086 0.82700002 0.055100251 1.5390444e-38 307 202
-0.017400078 0.82700002 0.055100251 1.5389362e-38 308 202
-0.015988646 0.829 0.055233505 1.5113134e-38 309 202
-0.014535133 0.829 0.055233505 1.4745422e-38 310 202
-0.01308162 0.829 0.055233505 1.4561031e-38 311 202
-0.011628106 0.829 0.055233505 1.4469554e-38 312 202
-0.010174593 0.829 0.055233505 1.4193326e-38 313 202
-0.0087210797 0.829 0.055233505 1.3825614e-38 314 202
-0.0072850995 0.83099997 0.055366758 1.3641223e-38 315 202
-0.0058280798 0.83099997 0.055366758 1.4008561e-38 316 202
-0.0043710601 0.83099997 0.055366758 1.3916365e-38 317 202
-0.0029140399 0.83099997 0.055366758 1.3823819e-38 318 202
-0.0014570199 0.83099997 0.055366758 1.3455037e-38 319 202
0 0.829 0.055233505 1.317845e-38 320 202
0.0014535133 0.829 0.055233505 1.317845e-38 321 202
0.0029070266 0.829 0.055233505 1.3178815e-38 322 202
0.0043605398 0.829 0.055233505 1.3363207e-38 323 202
0.0058140531 0.829 0.055233505 1.2996951e-38 324 202
0.0072675664 0.829 0.055233505 1.3089146e-38 325 202
0.0087210797 0.829 0.055233505 1.3455775e-38 326 202
0.010174593 0.829 0.055233505 1.3547971e-38 327 202
0.011628106 0.829 0.055233505 1.2996951e-38 328 202
0.01308162 0.829 0.055233505 1.3089146e-38 329 202
0.014535133 0.829 0.055233505 1.3640885e-38 330 202
0.015988646 0.829 0.055233505 1.3825277e-38 331 202
0.017442159 0.829 0.055233505 1.3825279e-38 332 202
0.018895673 0.829 0.055233505 1.3917476e-38 333 202
0.020349186 0.829 0.055233505 1.3734167e-38 334 202
0.021802699 0.829 0.055233505 1.3918198e-38 335 202
0.023256212 0.829 0.055233505 1.4010394e-38 336 202
0.024709726 0.829 0.055233505 1.4194785e-38 337 202
0.02610012 0.82700002 0.055100251 1.4195135e-38 338 202
0.027550125 0.82700002 0.055100251 1.4379885e-38 339 202
