# .PCD v.7 - Point Cloud Data file format
FIELDS x y z rgb imX imY
SIZE 4 4 4 4 4 4
TYPE F F F F F F
COUNT 1 1 1 1 1 1
WIDTH 831
HEIGHT 1
VIEWPOINT 0 0 0 1 0 0 0
POINTS 831
DATA ascii
-0.085019127 0.74599999 -0.044471547 1.8522922e-38 255 274
-0.08371114 0.74599999 -0.044471547 1.8616546e-38 256 274
-0.082182243 0.74400002 -0.044352323 1.898497e-38 257 274
-0.080877759 0.74400002 -0.044352323 1.916972e-38 258 274
-0.079359367 0.74199998 -0.044233091 1.9354112e-38 259 274
-0.077953197 0.741 -0.044173479 1.9447392e-38 260 274
-0.076653972 0.741 -0.044173479 1.9447392e-38 261 274
-0.075354755 0.741 -0.044173479 1.9629989e-38 262 274
-0.074055538 0.741 -0.044173479 1.9445958e-38 263 274
-0.072756313 0.741 -0.044173479 1.898677e-38 264 274
-0.071457103 0.741 -0.044173479 1.898677e-38 265 274
-0.070157878 0.741 -0.044173479 1.8894572e-38 266 274
-0.068858653 0.741 -0.044173479 1.8802376e-38 267 274
-0.067650609 0.74199998 -0.044233091 1.8984616e-38 268 274
-0.066528477 0.74400002 -0.044352323 1.8616193e-38 269 274
-0.065399326 0.74599999 -0.044471547 1.8431092e-38 270 274
-0.064091347 0.74599999 -0.044471547 1.8154866e-38 271 274
-0.062867515 0.74699998 -0.044531155 1.7785726e-38 272 274
-0.061722592 0.74900001 -0.044650383 1.7509499e-38 273 274
-0.060409348 0.74900001 -0.044650383 1.6772653e-38 274 274
-0.059175 0.75 -0.044709999 1.6219479e-38 275 274
-0.058168583 0.75400001 -0.044948451 1.5574122e-38 276 274
-0.056921966 0.755 -0.045008067 1.52057e-38 277 274
-0.055745479 0.75700003 -0.045127295 1.4562508e-38 278 274
-0.054418206 0.75700003 -0.045127295 1.4562508e-38 279 274
-0.053231198 0.759 -0.045246519 1.4193398e-38 280 274
-0.088704646 0.74400002 -0.0456568 1.9251871e-38 252 275
-0.087400153 0.74400002 -0.0456568 1.9436263e-38 253 275
-0.086327121 0.74599999 -0.045779534 1.8155216e-38 254 275
-0.084791198 0.74400002 -0.0456568 1.8523997e-38 255 275
-0.083262287 0.74199998 -0.045534063 1.8708387e-38 256 275
-0.081961311 0.74199998 -0.045534063 1.8984972e-38 257 275
-0.080660343 0.74199998 -0.045534063 1.8986051e-38 258 275
-0.079252414 0.741 -0.045472696 1.9354475e-38 259 275
-0.0777428 0.73900002 -0.045349967 1.9539225e-38 260 275
-0.076447085 0.73900002 -0.045349967 1.9539225e-38 261 275
-0.075151369 0.73900002 -0.045349967 1.9814367e-38 262 275
-0.073855661 0.73900002 -0.045349967 1.9722172e-38 263 275
-0.072559945 0.73900002 -0.045349967 1.9446661e-38 264 275
-0.07126423 0.73900002 -0.045349967 1.926191e-38 265 275
-0.069968522 0.73900002 -0.045349967 1.9169717e-38 266 275
-0.068672806 0.73900002 -0.045349967 1.9077521e-38 267 275
-0.067559443 0.741 -0.045472696 1.9167566e-38 268 275
-0.066349633 0.74199998 -0.045534063 1.8799142e-38 269 275
-0.065223999 0.74400002 -0.0456568 1.8063386e-38 270 275
-0.063919522 0.74400002 -0.0456568 1.7787159e-38 271 275
-0.062783353 0.74599999 -0.045779534 1.7693527e-38 272 275
-0.061557774 0.74699998 -0.045840897 1.7232908e-38 273 275
-0.060409348 0.74900001 -0.045963634 1.6863774e-38 274 275
-0.059096102 0.74900001 -0.045963634 1.6218404e-38 275 275
-0.058014289 0.75199997 -0.04614773 1.5573769e-38 276 275
-0.056846574 0.75400001 -0.046270464 1.5297542e-38 277 275
-0.055524562 0.75400001 -0.046270464 1.4655062e-38 278 275
-0.054274432 0.755 -0.04633183 1.4562508e-38 279 275
-0.052950665 0.755 -0.04633183 1.4194123e-38 280 275
-0.090009123 0.74400002 -0.046961278 2.0804829e-38 251 276
-0.088704646 0.74400002 -0.046961278 1.8518972e-38 252 276
-0.087165214 0.74199998 -0.046835039 1.8795919e-38 253 276
-0.085864238 0.74199998 -0.046835039 1.8339253e-38 254 276
-0.084563263 0.74199998 -0.046835039 1.861584e-38 255 276
-0.083150074 0.741 -0.046771921 1.8984253e-38 256 276
-0.081850857 0.741 -0.046771921 1.9076449e-38 257 276
-0.080551639 0.741 -0.046771921 1.9261559e-38 258 276
-0.079038516 0.73900002 -0.046645679 1.9446311e-38 259 276
-0.0777428 0.73900002 -0.046645679 1.972254e-38 260 276
-0.076447085 0.73900002 -0.046645679 1.9814736e-38 261 276
-0.075151369 0.73900002 -0.046645679 1.9814736e-38 262 276
-0.073855661 0.73900002 -0.046645679 1.972254e-38 263 276
-0.072559945 0.73900002 -0.046645679 1.9447027e-38 264 276
-0.07126423 0.73900002 -0.046645679 1.9262635e-38 265 276
-0.069873832 0.73799998 -0.046582557 1.8986402e-38 266 276
-0.068579875 0.73799998 -0.046582557 1.880201e-38 267 276
-0.06737709 0.73900002 -0.046645679 1.8983888e-38 268 276
-0.066081382 0.73900002 -0.046645679 1.8706941e-38 269 276
-0.065048665 0.74199998 -0.046835039 1.7788231e-38 270 276
-0.063747689 0.74199998 -0.046835039 1.760348e-38 271 276
-0.062615044 0.74400002 -0.046961278 1.7509499e-38 272 276
-0.06147537 0.74599999 -0.047087517 1.7140356e-38 273 276
-0.06016738 0.74599999 -0.047087517 1.631169e-38 274 276
-0.058938295 0.74699998 -0.047150634 1.5758518e-38 275 276
-0.057782855 0.74900001 -0.047276881 1.5114596e-38 276 276
-0.056695782 0.75199997 -0.047466237 1.4930205e-38 277 276
-0.055524562 0.75400001 -0.04759248 1.4562511e-38 278 276
-0.054202545 0.75400001 -0.04759248 1.4654706e-38 279 276
-0.052880533 0.75400001 -0.04759248 1.4194845e-38 280 276
-0.091068126 0.74199998 -0.048136011 1.9796422e-38 250 277
-0.089767151 0.74199998 -0.048136011 2.0441792e-38 251 277
-0.088466182 0.74199998 -0.048136011 1.7877553e-38 252 277
-0.087165214 0.74199998 -0.048136011 1.8338531e-38 253 277
-0.085748516 0.741 -0.048071139 1.8340329e-38 254 277
-0.084449299 0.741 -0.048071139 1.8709111e-38 255 277
-0.082925655 0.73900002 -0.047941394 1.8984616e-38 256 277
-0.081629939 0.73900002 -0.047941394 1.9169366e-38 257 277
-0.080225512 0.73799998 -0.047876518 1.9262282e-38 258 277
-0.078931555 0.73799998 -0.047876518 1.9446674e-38 259 277
-0.077427194 0.736 -0.047746774 1.972254e-38 260 277
-0.076136746 0.736 -0.047746774 1.972254e-38 261 277
-0.07484629 0.736 -0.047746774 1.9538869e-38 262 277
-0.073555835 0.736 -0.047746774 1.9538869e-38 263 277
-0.072265387 0.736 -0.047746774 1.9446311e-38 264 277
-0.070974931 0.736 -0.047746774 1.9261559e-38 265 277
-0.069684476 0.736 -0.047746774 1.9169717e-38 266 277
-0.06839402 0.736 -0.047746774 1.8800936e-38 267 277
-0.067103572 0.736 -0.047746774 1.8800211e-38 268 277
-0.065813117 0.736 -0.047746774 1.843143e-38 269 277
-0.064960994 0.741 -0.048071139 1.7787508e-38 270 277
-0.063661776 0.741 -0.048071139 1.7603117e-38 271 277
-0.062362559 0.741 -0.048071139 1.7509499e-38 272 277
-0.061310563 0.74400002 -0.048265759 1.6771934e-38 273 277
-0.06016738 0.74599999 -0.048395503 1.5852514e-38 274 277
-0.058938295 0.74699998 -0.048460379 1.5207145e-38 275 277
-0.057628557 0.74699998 -0.048460379 1.5022763e-38 276 277
-0.056544997 0.75 -0.048655 1.4746536e-38 277 277
-0.055229999 0.75 -0.048655 1.4378843e-38 278 277
-0.054058768 0.75199997 -0.048784744 1.4471397e-38 279 277
-0.052740261 0.75199997 -0.048784744 1.4194845e-38 280 277
-0.091068126 0.74199998 -0.049436983 1.9523426e-38 250 278
-0.089646183 0.741 -0.049370356 2.0076599e-38 251 278
-0.088346958 0.741 -0.049370356 1.7970823e-38 252 278
-0.087047733 0.741 -0.049370356 1.8339247e-38 253 278
-0.085517079 0.73900002 -0.049237106 1.8341048e-38 254 278
-0.084221363 0.73900002 -0.049237106 1.852544e-38 255 278
-0.082925655 0.73900002 -0.049237106 1.88935e-38 256 278
-0.081519477 0.73799998 -0.049170475 1.8986054e-38 257 278
-0.080225512 0.73799998 -0.049170475 1.9078967e-38 258 278
-0.078717649 0.736 -0.049037226 1.9263359e-38 259 278
-0.077427194 0.736 -0.049037226 1.9539225e-38 260 278
-0.076136746 0.736 -0.049037226 1.9539225e-38 261 278
-0.074642912 0.73400003 -0.048903972 1.9722537e-38 262 278
-0.073355958 0.73400003 -0.048903972 1.9630342e-38 263 278
-0.072265387 0.736 -0.049037226 1.9353756e-38 264 278
-0.070974931 0.736 -0.049037226 1.9169364e-38 265 278
-0.069684476 0.736 -0.049037226 1.9077165e-38 266 278
-0.06839402 0.736 -0.049037226 1.8800938e-38 267 278
-0.067103572 0.736 -0.049037226 1.8524345e-38 268 278
-0.065813117 0.736 -0.049037226 1.8339953e-38 269 278
-0.064522661 0.736 -0.049037226 1.7971174e-38 270 278
-0.063404039 0.73799998 -0.049170475 1.7694587e-38 271 278
-0.062110078 0.73799998 -0.049170475 1.750877e-38 272 278
-0.061063338 0.741 -0.049370356 1.6586814e-38 273 278
-0.060006075 0.74400002 -0.04957024 1.5668473e-38 274 278
-0.058859397 0.74599999 -0.04970349 1.5391526e-38 275 278
-0.057628557 0.74699998 -0.049770117 1.5023116e-38 276 278
-0.056318816 0.74699998 -0.049770117 1.4746889e-38 277 278
-0.055156358 0.74900001 -0.04990337 1.4378843e-38 278 278
-0.053914998 0.75 -0.049969997 1.4378843e-38 279 278
-0.052740261 0.75199997 -0.050103247 1.4011177e-38 280 278
-0.090945393 0.741 -0.050669577 1.915824e-38 250 279
-0.089646183 0.741 -0.050669577 1.9618858e-38 251 279
-0.088346958 0.741 -0.050669577 1.7971176e-38 252 279
-0.086812794 0.73900002 -0.050532822 1.8431796e-38 253 279
-0.085401356 0.73799998 -0.050464436 1.861619e-38 254 279
-0.084107392 0.73799998 -0.050464436 1.8984972e-38 255 279
-0.082813434 0.73799998 -0.050464436 1.9077171e-38 256 279
-0.08129856 0.736 -0.050327681 1.9261562e-38 257 279
-0.080008104 0.736 -0.050327681 1.9354475e-38 258 279
-0.07850375 0.73400003 -0.050190922 1.944703e-38 259 279
-0.077216797 0.73400003 -0.050190922 1.9722535e-38 260 279
-0.07592985 0.73400003 -0.050190922 1.9722535e-38 261 279
-0.074642912 0.73400003 -0.050190922 1.972254e-38 262 279
-0.073355958 0.73400003 -0.050190922 1.9353759e-38 263 279
-0.072069012 0.73400003 -0.050190922 1.9261559e-38 264 279
-0.070782073 0.73400003 -0.050190922 1.9077168e-38 265 279
-0.069495119 0.73400003 -0.050190922 1.880166e-38 266 279
-0.068208173 0.73400003 -0.050190922 1.861691e-38 267 279
-0.066921227 0.73400003 -0.050190922 1.8432878e-38 268 279
-0.06563428 0.73400003 -0.050190922 1.8156291e-38 269 279
-0.064347334 0.73400003 -0.050190922 1.7787511e-38 270 279
-0.063060381 0.73400003 -0.050190922 1.7602761e-38 271 279
-0.061941758 0.736 -0.050327681 1.7418019e-38 272 279
-0.060816113 0.73799998 -0.050464436 1.6311672e-38 273 279
-0.060006075 0.74400002 -0.050874721 1.5484805e-38 274 279
-0.058859397 0.74599999 -0.051011477 1.5300414e-38 275 279
-0.057551414 0.74599999 -0.051011477 1.4656495e-38 276 279
-0.056318816 0.74699998 -0.051079858 1.4471745e-38 277 279
-0.055009075 0.74699998 -0.051079858 1.4378845e-38 278 279
-0.053843111 0.74900001 -0.051216617 1.4194453e-38 279 279
-0.090945393 0.741 -0.051968798 1.8883814e-38 250 280
-0.089404218 0.73900002 -0.051828533 1.9160401e-38 251 280
-0.08810851 0.73900002 -0.051828533 1.8063739e-38 252 280
-0.086695313 0.73799998 -0.051758397 1.8155935e-38 253 280
-0.085169919 0.736 -0.051618133 1.861656e-38 254 280
-0.083879463 0.736 -0.051618133 1.8893505e-38 255 280
-0.082589008 0.736 -0.051618133 1.916901e-38 256 280
-0.081077635 0.73400003 -0.051477864 1.9353762e-38 257 280
-0.079681985 0.73299998 -0.051407732 1.9354475e-38 258 280
-0.07839679 0.73299998 -0.051407732 1.9539225e-38 259 280
-0.077111594 0.73299998 -0.051407732 1.9722537e-38 260 280
-0.075826399 0.73299998 -0.051407732 1.9722537e-38 261 280
-0.074541211 0.73299998 -0.051407732 1.9721816e-38 262 280
-0.073256016 0.73299998 -0.051407732 1.962962e-38 263 280
-0.071774453 0.73100001 -0.051267464 1.9445581e-38 264 280
-0.070492767 0.73100001 -0.051267464 1.9168995e-38 265 280
-0.069400437 0.73299998 -0.051407732 1.8985323e-38 266 280
-0.068115242 0.73299998 -0.051407732 1.8801292e-38 267 280
-0.066830046 0.73299998 -0.051407732 1.870766e-38 268 280
-0.065544859 0.73299998 -0.051407732 1.8431433e-38 269 280
-0.064259663 0.73299998 -0.051407732 1.7971174e-38 270 280
-0.062974468 0.73299998 -0.051407732 1.7510197e-38 271 280
-0.061689276 0.73299998 -0.051407732 1.7416573e-38 272 280
-0.060486492 0.73400003 -0.051477864 1.6494618e-38 273 280
-0.059199546 0.73400003 -0.051477864 1.5392609e-38 274 280
-0.058859397 0.74599999 -0.052319467 1.5208217e-38 275 280
-0.057551414 0.74599999 -0.052319467 1.5114596e-38 276 280
-0.056318816 0.74699998 -0.052389596 1.4838009e-38 277 280
-0.055009075 0.74699998 -0.052389596 1.3827477e-38 278 280
-0.053843111 0.74900001 -0.052529868 1.3642725e-38 279 280
-0.090699933 0.73900002 -0.053124249 1.842572e-38 250 281
-0.089041278 0.736 -0.052908584 1.8518274e-38 251 281
-0.087750822 0.736 -0.052908584 1.7970472e-38 252 281
-0.086225428 0.73400003 -0.052764814 1.8523644e-38 253 281
-0.084938474 0.73400003 -0.052764814 1.8708392e-38 254 281
-0.083537564 0.73299998 -0.052692924 1.9076815e-38 255 281
-0.082252368 0.73299998 -0.052692924 1.9260846e-38 256 281
-0.080967173 0.73299998 -0.052692924 1.9537074e-38 257 281
-0.07946457 0.73100001 -0.052549154 1.9446311e-38 258 281
-0.078182884 0.73100001 -0.052549154 1.9630342e-38 259 281
-0.076901197 0.73100001 -0.052549154 1.9539225e-38 260 281
-0.07551606 0.73000002 -0.052477267 1.9539225e-38 261 281
-0.074236132 0.73000002 -0.052477267 1.9722537e-38 262 281
-0.072956197 0.73000002 -0.052477267 1.9630342e-38 263 281
-0.071676269 0.73000002 -0.052477267 1.9078597e-38 264 281
-0.070396334 0.73000002 -0.052477267 1.8894206e-38 265 281
-0.069116399 0.73000002 -0.052477267 1.880201e-38 266 281
-0.067929395 0.73100001 -0.052549154 1.861726e-38 267 281
-0.066647708 0.73100001 -0.052549154 1.852435e-38 268 281
-0.065366022 0.73100001 -0.052549154 1.83396e-38 269 281
-0.064084329 0.73100001 -0.052549154 1.797082e-38 270 281
-0.062974468 0.73299998 -0.052692924 1.7694234e-38 271 281
-0.061689276 0.73299998 -0.052692924 1.7142506e-38 272 281
-0.060404085 0.73299998 -0.052692924 1.6036517e-38 273 281
-0.059199546 0.73400003 -0.052764814 1.5300411e-38 274 281
-0.058701597 0.74400002 -0.05348368 1.5300411e-38 275 281
-0.057551414 0.74599999 -0.053627454 1.4931649e-38 276 281
-0.056318816 0.74699998 -0.053699337 1.4655062e-38 277 281
-0.055009075 0.74699998 -0.053699337 1.3274671e-38 278 281
-0.090086266 0.73400003 -0.054051761 1.7509161e-38 250 282
-0.08879932 0.73400003 -0.054051761 1.7693553e-38 251 282
-0.087393142 0.73299998 -0.053978115 1.7970837e-38 252 282
-0.086107947 0.73299998 -0.053978115 1.8247783e-38 253 282
-0.084822752 0.73299998 -0.053978115 1.8800232e-38 254 282
-0.083309628 0.73100001 -0.053830836 1.9076818e-38 255 282
-0.081915736 0.73000002 -0.053757198 1.926049e-38 256 282
-0.080414876 0.72799999 -0.053609919 1.9536718e-38 257 282
-0.07913845 0.72799999 -0.053609919 1.9445955e-38 258 282
-0.077862024 0.72799999 -0.053609919 1.9629986e-38 259 282
-0.076585598 0.72799999 -0.053609919 1.9538869e-38 260 282
-0.075205728 0.727 -0.053536277 1.9538869e-38 261 282
-0.073931053 0.727 -0.053536277 1.9629986e-38 262 282
-0.072656378 0.727 -0.053536277 1.9445955e-38 263 282
-0.071381703 0.727 -0.053536277 1.9261912e-38 264 282
-0.070203468 0.72799999 -0.053609919 1.8985325e-38 265 282
-0.069116399 0.73000002 -0.053757198 1.8985325e-38 266 282
-0.067836471 0.73000002 -0.053757198 1.870874e-38 267 282
-0.066556528 0.73000002 -0.053757198 1.8524347e-38 268 282
-0.0652766 0.73000002 -0.053757198 1.8432152e-38 269 282
-0.063996665 0.73000002 -0.053757198 1.8247039e-38 270 282
-0.062802643 0.73100001 -0.053830836 1.7786061e-38 271 282
-0.06152096 0.73100001 -0.053830836 1.7326524e-38 272 282
-0.060404085 0.73299998 -0.053978115 1.6404927e-38 273 282
-0.059118889 0.73299998 -0.053978115 1.575994e-38 274 282
-0.058701597 0.74400002 -0.054788161 1.575994e-38 275 282
-0.057551414 0.74599999 -0.054935437 1.5207147e-38 276 282
-0.091248721 0.73299998 -0.055263311 1.6866017e-38 249 283
-0.089963526 0.73299998 -0.055263311 1.7050707e-38 250 283
-0.088678338 0.73299998 -0.055263311 1.7326935e-38 251 283
-0.087154694 0.73100001 -0.055112526 1.7787162e-38 252 283
-0.085873008 0.73100001 -0.055112526 1.824778e-38 253 283
-0.084244154 0.72799999 -0.054886345 1.8708037e-38 254 283
-0.082967728 0.72799999 -0.054886345 1.8984622e-38 255 283
-0.081579089 0.727 -0.054810952 1.9260846e-38 256 283
-0.080304414 0.727 -0.054810952 1.9444877e-38 257 283
-0.078812331 0.72500002 -0.054660168 1.9353756e-38 258 283
-0.077541165 0.72500002 -0.054660168 1.9446311e-38 259 283
-0.076269999 0.72500002 -0.054660168 1.9354478e-38 260 283
-0.074998833 0.72500002 -0.054660168 1.9354478e-38 261 283
-0.073727667 0.72500002 -0.054660168 1.9354478e-38 262 283
-0.072456501 0.72500002 -0.054660168 1.9262282e-38 263 283
-0.071185336 0.72500002 -0.054660168 1.9261915e-38 264 283
-0.070107035 0.727 -0.054810952 1.9077165e-38 265 283
-0.06883236 0.727 -0.054810952 1.898497e-38 266 283
-0.067650609 0.72799999 -0.054886345 1.8708743e-38 267 283
-0.066374183 0.72799999 -0.054886345 1.8433231e-38 268 283
-0.065097757 0.72799999 -0.054886345 1.8248839e-38 269 283
-0.063996665 0.73000002 -0.055037133 1.8155566e-38 270 283
-0.06271673 0.73000002 -0.055037133 1.7878978e-38 271 283
-0.06152096 0.73100001 -0.055112526 1.7693512e-38 272 283
-0.06023927 0.73100001 -0.055112526 1.7048142e-38 273 283
-0.059118889 0.73299998 -0.055263311 1.6404593e-38 274 283
-0.057833698 0.73299998 -0.055263311 1.5943615e-38 275 283
-0.056548502 0.73299998 -0.055263311 1.5114964e-38 276 283
-0.090999752 0.73100001 -0.056394216 1.5213333e-38 249 284
-0.089718066 0.73100001 -0.056394216 1.6958155e-38 250 284
-0.088436373 0.73100001 -0.056394216 1.7419133e-38 251 284
-0.087154694 0.73100001 -0.056394216 1.7970118e-38 252 284
-0.085873008 0.73100001 -0.056394216 1.8523291e-38 253 284
-0.084244154 0.72799999 -0.056162767 1.8708392e-38 254 284
-0.082967728 0.72799999 -0.056162767 1.8984619e-38 255 284
-0.08135467 0.72500002 -0.055931333 1.9168648e-38 256 284
-0.080083504 0.72500002 -0.055931333 1.9444874e-38 257 284
-0.078812331 0.72500002 -0.055931333 1.9354112e-38 258 284
-0.077327259 0.72299999 -0.055777039 1.9354112e-38 259 284
-0.076059602 0.72299999 -0.055777039 1.926228e-38 260 284
-0.074688487 0.722 -0.055699892 1.926228e-38 261 284
-0.073422581 0.722 -0.055699892 1.9262285e-38 262 284
-0.072256617 0.72299999 -0.055777039 1.9262285e-38 263 284
-0.070988953 0.72299999 -0.055777039 1.9169364e-38 264 284
-0.069914162 0.72500002 -0.055931333 1.9077168e-38 265 284
-0.068643004 0.72500002 -0.055931333 1.8893853e-38 266 284
-0.067371838 0.72500002 -0.055931333 1.8709462e-38 267 284
-0.06628301 0.727 -0.056085624 1.8433951e-38 268 284
-0.065097757 0.72799999 -0.056162767 1.8249558e-38 269 284
-0.063821331 0.72799999 -0.056162767 1.83396e-38 270 284
-0.06271673 0.73000002 -0.056317069 1.8063373e-38 271 284
-0.061436798 0.73000002 -0.056317069 1.7877906e-38 272 284
-0.06023927 0.73100001 -0.056394216 1.7509122e-38 273 284
-0.059118889 0.73299998 -0.056548502 1.6863776e-38 274 284
-0.057675898 0.73100001 -0.056394216 1.6402438e-38 275 284
-0.056394216 0.73100001 -0.056394216 1.5207883e-38 276 284
-0.090999752 0.73100001 -0.057675898 1.5029295e-38 249 285
-0.089718066 0.73100001 -0.057675898 1.7141823e-38 250 285
-0.088315405 0.73000002 -0.057597004 1.7418412e-38 251 285
-0.087035462 0.73000002 -0.057597004 1.797084e-38 252 285
-0.08552058 0.72799999 -0.057439197 1.8247427e-38 253 285
-0.084244154 0.72799999 -0.057439197 1.8708758e-38 254 285
-0.082853764 0.727 -0.057360299 1.8800954e-38 255 285
-0.081130236 0.72299999 -0.057044696 1.8893505e-38 256 285
-0.07986258 0.72299999 -0.057044696 1.8985701e-38 257 285
-0.078594916 0.72299999 -0.057044696 1.8986054e-38 258 285
-0.077220306 0.722 -0.056965802 1.907825e-38 259 285
-0.0759544 0.722 -0.056965802 1.907825e-38 260 285
-0.074688487 0.722 -0.056965802 1.907825e-38 261 285
-0.073219202 0.72000003 -0.056808002 1.9353762e-38 262 285
-0.071956798 0.72000003 -0.056808002 1.9261565e-38 263 285
-0.070890769 0.722 -0.056965802 1.9261196e-38 264 285
-0.069624864 0.722 -0.056965802 1.9261196e-38 265 285
-0.068358958 0.722 -0.056965802 1.8985325e-38 266 285
-0.067093052 0.722 -0.056965802 1.8985325e-38 267 285
-0.066100664 0.72500002 -0.057202499 1.8799858e-38 268 285
-0.064829499 0.72500002 -0.057202499 1.8523631e-38 269 285
-0.063821331 0.72799999 -0.057439197 1.8431077e-38 270 285
-0.062544905 0.72799999 -0.057439197 1.8338881e-38 271 285
-0.061436798 0.73000002 -0.057597004 1.8154123e-38 272 285
-0.06023927 0.73100001 -0.057675898 1.7693146e-38 273 285
-0.058957584 0.73100001 -0.057675898 1.7232908e-38 274 285
-0.057675898 0.73100001 -0.057675898 1.6587538e-38 275 285
-0.056394216 0.73100001 -0.057675898 1.5300079e-38 276 285
-0.090875268 0.73000002 -0.058876935 1.5028929e-38 249 286
-0.089349858 0.72799999 -0.058715623 1.7141818e-38 250 286
-0.088073432 0.72799999 -0.058715623 1.7418763e-38 251 286
-0.086797006 0.72799999 -0.058715623 1.8153787e-38 252 286
-0.085403107 0.727 -0.058634974 1.8522928e-38 253 286
-0.084128432 0.727 -0.058634974 1.8890982e-38 254 286
-0.082625829 0.72500002 -0.058473669 1.9167569e-38 255 286
-0.081130236 0.72299999 -0.058312356 1.9076452e-38 256 286
-0.079752117 0.722 -0.058231708 1.9168648e-38 257 286
-0.078486212 0.722 -0.058231708 1.9169364e-38 258 286
-0.077220306 0.722 -0.058231708 1.9169364e-38 259 286
-0.075743996 0.72000003 -0.058070403 1.9078247e-38 260 286
-0.074481606 0.72000003 -0.058070403 1.9078247e-38 261 286
-0.073219202 0.72000003 -0.058070403 1.9262282e-38 262 286
-0.071856856 0.71899998 -0.057989739 1.9262282e-38 263 286
-0.070596211 0.71899998 -0.057989739 1.9261562e-38 264 286
-0.069432005 0.72000003 -0.058070403 1.9169366e-38 265 286
-0.068074919 0.71899998 -0.057989739 1.9169364e-38 266 286
-0.066814266 0.71899998 -0.057989739 1.8984972e-38 267 286
-0.065644801 0.72000003 -0.058070403 1.870874e-38 268 286
-0.064561233 0.722 -0.058231708 1.8524347e-38 269 286
-0.063382991 0.72299999 -0.058312356 1.843143e-38 270 286
-0.062287167 0.72500002 -0.058473669 1.8339234e-38 271 286
-0.061016005 0.72500002 -0.058473669 1.8154491e-38 272 286
-0.059744831 0.72500002 -0.058473669 1.8061937e-38 273 286
-0.058957584 0.73100001 -0.058957584 1.7600262e-38 274 286
-0.057833698 0.73299998 -0.059118889 1.67705e-38 275 286
-0.056548502 0.73299998 -0.059118889 1.5207877e-38 276 286
-0.054810952 0.727 -0.058634974 1.4562508e-38 277 286
-0.053536277 0.727 -0.058634974 1.1155617e-38 278 286
-0.091776483 0.727 -0.059909642 1.6965753e-38 248 287
-0.090501808 0.727 -0.059909642 1.4568667e-38 249 287
-0.089227132 0.727 -0.059909642 1.7142171e-38 250 287
-0.087952457 0.727 -0.059909642 1.7419117e-38 251 287
-0.086439334 0.72500002 -0.059744831 1.7787528e-38 252 287
-0.085168168 0.72500002 -0.059744831 1.7971919e-38 253 287
-0.083665557 0.72299999 -0.059580017 1.8432178e-38 254 287
-0.082397893 0.72299999 -0.059580017 1.8708405e-38 255 287
-0.081018023 0.722 -0.059497613 1.8800951e-38 256 287
-0.079752117 0.722 -0.059497613 1.8893505e-38 257 287
-0.078486212 0.722 -0.059497613 1.9169366e-38 258 287
-0.0770064 0.72000003 -0.059332799 1.9261562e-38 259 287
-0.075638793 0.71899998 -0.059250388 1.9261559e-38 260 287
-0.074378148 0.71899998 -0.059250388 1.9446311e-38 261 287
-0.073117502 0.71899998 -0.059250388 1.9446305e-38 262 287
-0.07165698 0.71700001 -0.059085581 1.9354109e-38 263 287
-0.070399836 0.71700001 -0.059085581 1.9445225e-38 264 287
-0.069142699 0.71700001 -0.059085581 1.9445225e-38 265 287
-0.067885563 0.71700001 -0.059085581 1.9169351e-38 266 287
-0.066628419 0.71700001 -0.059085581 1.9077155e-38 267 287
-0.065371275 0.71700001 -0.059085581 1.8892035e-38 268 287
-0.064382397 0.72000003 -0.059332799 1.879984e-38 269 287
-0.06312 0.72000003 -0.059332799 1.8615095e-38 270 287
-0.062029421 0.722 -0.059497613 1.8338869e-38 271 287
-0.060763516 0.722 -0.059497613 1.815377e-38 272 287
-0.059497613 0.722 -0.059497613 1.7969378e-38 273 287
-0.058473669 0.72500002 -0.059744831 1.7509496e-38 274 287
-0.057202499 0.72500002 -0.059744831 1.6679735e-38 275 287
-0.055931333 0.72500002 -0.059744831 1.5392256e-38 276 287
-0.054810952 0.727 -0.059909642 1.4562495e-38 277 287
-0.053536277 0.727 -0.059909642 1.1431112e-38 278 287
-0.092795171 0.72500002 -0.061016005 1.9634798e-38 247 288
-0.091523997 0.72500002 -0.061016005 1.6597674e-38 248 288
-0.090252832 0.72500002 -0.061016005 1.4200586e-38 249 288
-0.088981666 0.72500002 -0.061016005 1.695776e-38 250 288
-0.0877105 0.72500002 -0.061016005 1.7326903e-38 251 288
-0.086200871 0.72299999 -0.060847677 1.7878272e-38 252 288
-0.084933214 0.72299999 -0.060847677 1.8155219e-38 253 288
-0.083549835 0.722 -0.060763516 1.8431801e-38 254 288
-0.082283929 0.722 -0.060763516 1.8616193e-38 255 288
-0.080793604 0.72000003 -0.060595199 1.8708387e-38 256 288
-0.0795312 0.72000003 -0.060595199 1.9077168e-38 257 288
-0.078160092 0.71899998 -0.060511041 1.8986051e-38 258 288
-0.076899439 0.71899998 -0.060511041 1.8986051e-38 259 288
-0.075428396 0.71700001 -0.060342718 1.9262633e-38 260 288
-0.07417126 0.71700001 -0.060342718 1.9354828e-38 261 288
-0.072914116 0.71700001 -0.060342718 1.9447024e-38 262 288
-0.071557038 0.71600002 -0.06025856 1.9447024e-38 263 288
-0.070301652 0.71600002 -0.06025856 1.9446308e-38 264 288
-0.069046266 0.71600002 -0.06025856 1.9261915e-38 265 288
-0.067790881 0.71600002 -0.06025856 1.9262266e-38 266 288
-0.066535495 0.71600002 -0.06025856 1.898532e-38 267 288
-0.06528011 0.71600002 -0.06025856 1.8892756e-38 268 288
-0.064024724 0.71600002 -0.06025856 1.8524332e-38 269 288
-0.062856995 0.71700001 -0.060342718 1.8614379e-38 270 288
-0.061599858 0.71700001 -0.060342718 1.8522184e-38 271 288
-0.060511041 0.71899998 -0.060511041 1.806194e-38 272 288
-0.059250388 0.71899998 -0.060511041 1.806194e-38 273 288
-0.057989739 0.71899998 -0.060511041 1.7233628e-38 274 288
-0.056965802 0.722 -0.060763516 1.677265e-38 275 288
-0.055699892 0.722 -0.060763516 1.5760671e-38 276 288
-0.054810952 0.727 -0.061184317 1.4930552e-38 277 288
-0.053536277 0.727 -0.061184317 1.253458e-38 278 288
-0.092411183 0.722 -0.062029421 1.9084142e-38 247 289
-0.091145277 0.722 -0.062029421 1.6596951e-38 248 289
-0.089879371 0.722 -0.062029421 1.4107669e-38 249 289
-0.088736199 0.72299999 -0.062115334 1.6682249e-38 250 289
-0.08734756 0.722 -0.062029421 1.7235423e-38 251 289
-0.086081654 0.722 -0.062029421 1.7694962e-38 252 289
-0.084815748 0.722 -0.062029421 1.797119e-38 253 289
-0.083318397 0.72000003 -0.061857603 1.8431445e-38 254 289
-0.082056001 0.72000003 -0.061857603 1.8616195e-38 255 289
-0.080793604 0.72000003 -0.061857603 1.8709109e-38 256 289
-0.079199821 0.71700001 -0.061599858 1.88935e-38 257 289
-0.077942684 0.71700001 -0.061599858 1.8986051e-38 258 289
-0.076685533 0.71700001 -0.061599858 1.9078247e-38 259 289
-0.075323202 0.71600002 -0.061513945 1.9262635e-38 260 289
-0.074067809 0.71600002 -0.061513945 1.9447027e-38 261 289
-0.072812423 0.71600002 -0.061513945 1.9539578e-38 262 289
-0.071357153 0.71399999 -0.061342116 1.9539578e-38 263 289
-0.070105277 0.71399999 -0.061342116 1.9630695e-38 264 289
-0.068853401 0.71399999 -0.061342116 1.9354109e-38 265 289
-0.067601517 0.71399999 -0.061342116 1.9262619e-38 266 289
-0.066349633 0.71399999 -0.061342116 1.8985673e-38 267 289
-0.065097757 0.71399999 -0.061342116 1.9167899e-38 268 289
-0.064024724 0.71600002 -0.061513945 1.8983508e-38 269 289
-0.062769331 0.71600002 -0.061513945 1.8706572e-38 270 289
-0.061513945 0.71600002 -0.061513945 1.8614377e-38 271 289
-0.060342718 0.71700001 -0.061599858 1.8154486e-38 272 289
-0.059003171 0.71600002 -0.061513945 1.806229e-38 273 289
-0.057747785 0.71600002 -0.061513945 1.7509849e-38 274 289
-0.056492399 0.71600002 -0.061513945 1.7232902e-38 275 289
-0.055699892 0.722 -0.062029421 1.6220572e-38 276 289
-0.054433983 0.722 -0.062029421 1.5483006e-38 277 289
-0.091145277 0.722 -0.063295327 1.6596232e-38 248 290
-0.089879371 0.722 -0.063295327 1.410695e-38 249 290
-0.088613465 0.722 -0.063295327 1.6406739e-38 250 290
-0.08734756 0.722 -0.063295327 1.6959913e-38 251 290
-0.086081654 0.722 -0.063295327 1.7510931e-38 252 290
-0.084580801 0.72000003 -0.06312 1.7787878e-38 253 290
-0.083202675 0.71899998 -0.063032329 1.8155582e-38 254 290
-0.081942029 0.71899998 -0.063032329 1.8432527e-38 255 290
-0.080456957 0.71700001 -0.062856995 1.8616916e-38 256 290
-0.079199821 0.71700001 -0.062856995 1.8801307e-38 257 290
-0.077833973 0.71600002 -0.062769331 1.916901e-38 258 290
-0.076578587 0.71600002 -0.062769331 1.9261565e-38 259 290
-0.075112797 0.71399999 -0.062593997 1.9262285e-38 260 290
-0.073860914 0.71399999 -0.062593997 1.9354481e-38 261 290
-0.072609037 0.71399999 -0.062593997 1.9447392e-38 262 290
-0.071357153 0.71399999 -0.062593997 1.9539588e-38 263 290
-0.070007093 0.713 -0.062506333 1.9722891e-38 264 290
-0.068756968 0.713 -0.062506333 1.9630695e-38 265 290
-0.067506835 0.713 -0.062506333 1.9354816e-38 266 290
-0.066256717 0.713 -0.062506333 1.9170064e-38 267 290
-0.065097757 0.71399999 -0.062593997 1.9260818e-38 268 290
-0.063845873 0.71399999 -0.062593997 1.8984591e-38 269 290
-0.062593997 0.71399999 -0.062593997 1.8983158e-38 270 290
-0.061342116 0.71399999 -0.062593997 1.8706572e-38 271 290
-0.06025856 0.71600002 -0.062769331 1.8339237e-38 272 290
-0.058838356 0.71399999 -0.062593997 1.8154486e-38 273 290
-0.057586476 0.71399999 -0.062593997 1.7602761e-38 274 290
-0.056492399 0.71600002 -0.062769331 1.741837e-38 275 290
-0.055237014 0.71600002 -0.062769331 1.6957062e-38 276 290
-0.053981625 0.71600002 -0.062769331 1.6219138e-38 277 290
-0.091145277 0.722 -0.064561233 1.6687345e-38 248 291
-0.089879371 0.722 -0.064561233 1.4105868e-38 249 291
-0.088613465 0.722 -0.064561233 1.6590407e-38 250 291
-0.087105595 0.72000003 -0.064382397 1.7143581e-38 251 291
-0.085843205 0.72000003 -0.064382397 1.7327253e-38 252 291
-0.084580801 0.72000003 -0.064382397 1.7696034e-38 253 291
-0.082971238 0.71700001 -0.064114138 1.8154863e-38 254 291
-0.08160013 0.71600002 -0.064024724 1.8523644e-38 255 291
-0.080344744 0.71600002 -0.064024724 1.8708392e-38 256 291
-0.079089358 0.71600002 -0.064024724 1.8984619e-38 257 291
-0.07761655 0.71399999 -0.063845873 1.9077168e-38 258 291
-0.076364681 0.71399999 -0.063845873 1.9169364e-38 259 291
-0.075007595 0.713 -0.063756458 1.926228e-38 260 291
-0.07375747 0.713 -0.063756458 1.9354475e-38 261 291
-0.072507344 0.713 -0.063756458 1.944703e-38 262 291
-0.071257219 0.713 -0.063756458 1.9539225e-38 263 291
-0.070007093 0.713 -0.063756458 1.9539578e-38 264 291
-0.068756968 0.713 -0.063756458 1.9539578e-38 265 291
-0.067506835 0.713 -0.063756458 1.9355179e-38 266 291
-0.066256717 0.713 -0.063756458 1.907895e-38 267 291
-0.065006584 0.713 -0.063756458 1.9077153e-38 268 291
-0.063845873 0.71399999 -0.063845873 1.8984957e-38 269 291
-0.062593997 0.71399999 -0.063845873 1.8891688e-38 270 291
-0.061342116 0.71399999 -0.063845873 1.8707297e-38 271 291
-0.060090236 0.71399999 -0.063845873 1.83396e-38 272 291
-0.058838356 0.71399999 -0.063845873 1.8155569e-38 273 291
-0.057586476 0.71399999 -0.063845873 1.7695315e-38 274 291
-0.0563346 0.71399999 -0.063845873 1.7602761e-38 275 291
-0.05508272 0.71399999 -0.063845873 1.6865941e-38 276 291
-0.053604662 0.71100003 -0.063577622 1.6312768e-38 277 291
-0.091145277 0.722 -0.065827139 1.6686273e-38 248 292
-0.089879371 0.722 -0.065827139 1.4104795e-38 249 292
-0.088367999 0.72000003 -0.065644801 1.6221994e-38 250 292
-0.087105595 0.72000003 -0.065644801 1.6959559e-38 251 292
-0.085843205 0.72000003 -0.065644801 1.73269e-38 252 292
-0.084463328 0.71899998 -0.065553628 1.7603485e-38 253 292
-0.082971238 0.71700001 -0.065371275 1.8063389e-38 254 292
-0.08160013 0.71600002 -0.06528011 1.8339976e-38 255 292
-0.080344744 0.71600002 -0.06528011 1.861656e-38 256 292
-0.078868434 0.71399999 -0.065097757 1.8800951e-38 257 292
-0.077507854 0.713 -0.065006584 1.9077168e-38 258 292
-0.076257721 0.713 -0.065006584 1.9169364e-38 259 292
-0.074797198 0.71100003 -0.064824238 1.9078247e-38 260 292
-0.073550582 0.71100003 -0.064824238 1.9078247e-38 261 292
-0.072303966 0.71100003 -0.064824238 1.9354125e-38 262 292
-0.071057342 0.71100003 -0.064824238 1.9538875e-38 263 292
-0.069810718 0.71100003 -0.064824238 1.9447392e-38 264 292
-0.068564095 0.71100003 -0.064824238 1.9447392e-38 265 292
-0.067033432 0.708 -0.06455072 1.9446661e-38 266 292
-0.065792084 0.708 -0.06455072 1.926191e-38 267 292
-0.064733058 0.70999998 -0.064733058 1.935266e-38 268 292
-0.063488193 0.70999998 -0.064733058 1.9260465e-38 269 292
-0.062506333 0.713 -0.065006584 1.916755e-38 270 292
-0.061084379 0.71100003 -0.064824238 1.9075353e-38 271 292
-0.059837762 0.71100003 -0.064824238 1.8615095e-38 272 292
-0.058755953 0.713 -0.065006584 1.8338869e-38 273 292
-0.057505824 0.713 -0.065006584 1.8154839e-38 274 292
-0.056097899 0.71100003 -0.064824238 1.7878612e-38 275 292
-0.054851279 0.71100003 -0.064824238 1.7417301e-38 276 292
-0.053604662 0.71100003 -0.064824238 1.7232908e-38 277 292
-0.090892807 0.72000003 -0.066907197 1.6411486e-38 248 293
-0.089630403 0.72000003 -0.066907197 1.3737813e-38 249 293
-0.088245258 0.71899998 -0.066814266 1.5854657e-38 250 293
-0.086984619 0.71899998 -0.066814266 1.6684417e-38 251 293
-0.085723966 0.71899998 -0.066814266 1.7417651e-38 252 293
-0.084228382 0.71700001 -0.066628419 1.7786432e-38 253 293
-0.082855515 0.71600002 -0.066535495 1.8154491e-38 254 293
-0.08160013 0.71600002 -0.066535495 1.8707306e-38 255 293
-0.080344744 0.71600002 -0.066535495 1.8800938e-38 256 293
-0.078868434 0.71399999 -0.066349633 1.8800938e-38 257 293
-0.077507854 0.713 -0.066256717 1.9077155e-38 258 293
-0.076257721 0.713 -0.066256717 1.9077155e-38 259 293
-0.074797198 0.71100003 -0.066070862 1.9168995e-38 260 293
-0.073550582 0.71100003 -0.066070862 1.9261549e-38 261 293
-0.072202265 0.70999998 -0.065977924 1.9261196e-38 262 293
-0.070957392 0.70999998 -0.065977924 1.9537424e-38 263 293
-0.069712527 0.70999998 -0.065977924 1.9630342e-38 264 293
-0.068467662 0.70999998 -0.065977924 1.9722537e-38 265 293
-0.066938758 0.70700002 -0.065699153 1.9630695e-38 266 293
-0.065699153 0.70700002 -0.065699153 1.9354109e-38 267 293
-0.064459547 0.70700002 -0.065699153 1.9262266e-38 268 293
-0.063309364 0.708 -0.065792084 1.9077874e-38 269 293
-0.062243331 0.70999998 -0.065977924 1.9168272e-38 270 293
-0.060998458 0.70999998 -0.065977924 1.8983882e-38 271 293
-0.059753593 0.70999998 -0.065977924 1.8524345e-38 272 293
-0.058508728 0.70999998 -0.065977924 1.8432149e-38 273 293
-0.057263866 0.70999998 -0.065977924 1.7788214e-38 274 293
-0.055861197 0.708 -0.065792084 1.7696019e-38 275 293
-0.054619838 0.708 -0.065792084 1.7144304e-38 276 293
-0.053378478 0.708 -0.065792084 1.6959913e-38 277 293
-0.089505911 0.71899998 -0.068074919 1.4012252e-38 249 294
-0.087999798 0.71700001 -0.067885563 1.5392606e-38 250 294
-0.086742654 0.71700001 -0.067885563 1.6314561e-38 251 294
-0.085366286 0.71600002 -0.067790881 1.6775165e-38 252 294
-0.084110901 0.71600002 -0.067790881 1.7052111e-38 253 294
-0.082624078 0.71399999 -0.067601517 1.7695327e-38 254 294
-0.081372194 0.71399999 -0.067601517 1.7972272e-38 255 294
-0.080120318 0.71399999 -0.067601517 1.8341048e-38 256 294
-0.078757972 0.713 -0.067506835 1.8433245e-38 257 294
-0.077290438 0.71100003 -0.067317478 1.8800938e-38 258 294
-0.076043822 0.71100003 -0.067317478 1.898497e-38 259 294
-0.074691996 0.70999998 -0.067222796 1.9076449e-38 260 294
-0.073447131 0.70999998 -0.067222796 1.9076449e-38 261 294
-0.071998879 0.708 -0.067033432 1.9169013e-38 262 294
-0.070757516 0.708 -0.067033432 1.9261209e-38 263 294
-0.069712527 0.70999998 -0.067222796 1.9354125e-38 264 294
-0.068274796 0.708 -0.067033432 1.944632e-38 265 294
-0.066844068 0.70599997 -0.066844068 1.9630695e-38 266 294
-0.065606222 0.70599997 -0.066844068 1.9354109e-38 267 294
-0.064368367 0.70599997 -0.066844068 1.9721073e-38 268 294
-0.063130513 0.70599997 -0.066844068 1.9536682e-38 269 294
-0.061892662 0.70599997 -0.066844068 1.9443764e-38 270 294
-0.060740728 0.70700002 -0.066938758 1.9351567e-38 271 294
-0.059501119 0.70700002 -0.066938758 1.8983861e-38 272 294
-0.058343921 0.708 -0.067033432 1.8707276e-38 273 294
-0.057102561 0.708 -0.067033432 1.8523603e-38 274 294
-0.055703394 0.70599997 -0.066844068 1.8247375e-38 275 294
-0.054311249 0.704 -0.066654719 1.7696016e-38 276 294
-0.053001512 0.70300001 -0.066560037 1.760382e-38 277 294
-0.051768921 0.70300001 -0.066560037 1.695779e-38 278 294
-0.088883474 0.71399999 -0.068853401 1.3643827e-38 249 295
-0.087631598 0.71399999 -0.068853401 1.4930905e-38 250 295
-0.086379714 0.71399999 -0.068853401 1.5576275e-38 251 295
-0.085127831 0.71399999 -0.068853401 1.6865918e-38 252 295
-0.083875954 0.71399999 -0.068853401 1.723506e-38 253 295
-0.082508355 0.713 -0.068756968 1.7786432e-38 254 295
-0.08125823 0.713 -0.068756968 1.806302e-38 255 295
-0.080008104 0.713 -0.068756968 1.8431799e-38 256 295
-0.078537062 0.71100003 -0.068564095 1.861619e-38 257 295
-0.077181734 0.70999998 -0.068467662 1.870874e-38 258 295
-0.075936861 0.70999998 -0.068467662 1.8800936e-38 259 295
-0.074691996 0.70999998 -0.068467662 1.9167563e-38 260 295
-0.073240235 0.708 -0.068274796 1.9167563e-38 261 295
-0.071998879 0.708 -0.068274796 1.9076446e-38 262 295
-0.070657574 0.70700002 -0.068178371 1.9261196e-38 263 295
-0.069417976 0.70700002 -0.068178371 1.9445227e-38 264 295
-0.06808193 0.70599997 -0.06808193 1.962962e-38 265 295
-0.066654719 0.704 -0.067889065 1.9722169e-38 266 295
-0.065420374 0.704 -0.067889065 1.9629973e-38 267 295
-0.064186029 0.704 -0.067889065 1.972072e-38 268 295
-0.062951677 0.704 -0.067889065 1.9536329e-38 269 295
-0.061717331 0.704 -0.067889065 1.9260818e-38 270 295
-0.060482983 0.704 -0.067889065 1.9168622e-38 271 295
-0.059416957 0.70599997 -0.06808193 1.8892038e-38 272 295
-0.058179103 0.70599997 -0.06808193 1.8799843e-38 273 295
-0.056779943 0.704 -0.067889065 1.843178e-38 274 295
-0.055545598 0.704 -0.067889065 1.8339585e-38 275 295
-0.054234106 0.70300001 -0.067792632 1.7788579e-38 276 295
-0.053001512 0.70300001 -0.067792632 1.7696382e-38 277 295
-0.051768921 0.70300001 -0.067792632 1.7143256e-38 278 295
-0.089630395 0.70999998 -0.069712527 1.6870318e-38 248 296
-0.08838553 0.70999998 -0.069712527 1.3827502e-38 249 296
-0.087508865 0.713 -0.070007093 1.4930555e-38 250 296
-0.086379714 0.71399999 -0.070105277 1.5022751e-38 251 296
-0.085008614 0.713 -0.070007093 1.6497505e-38 252 296
-0.083758481 0.713 -0.070007093 1.6958843e-38 253 296
-0.082508355 0.713 -0.070007093 1.7510212e-38 254 296
-0.081030294 0.71100003 -0.069810718 1.7694962e-38 255 296
-0.079783678 0.71100003 -0.069810718 1.8063739e-38 256 296
-0.078537062 0.71100003 -0.069810718 1.8340685e-38 257 296
-0.077181734 0.70999998 -0.069712527 1.8708387e-38 258 296
-0.075936861 0.70999998 -0.069712527 1.8800941e-38 259 296
-0.074691996 0.70999998 -0.069712527 1.9259761e-38 260 296
-0.073240235 0.708 -0.069516152 1.9259761e-38 261 296
-0.071897186 0.70700002 -0.069417976 1.9076449e-38 262 296
-0.070657574 0.70700002 -0.069417976 1.926084e-38 263 296
-0.069319785 0.70599997 -0.069319785 1.9444872e-38 264 296
-0.067889065 0.704 -0.06912341 1.9629623e-38 265 296
-0.066654719 0.704 -0.06912341 1.9813288e-38 266 296
-0.065327443 0.70300001 -0.069025226 1.9813288e-38 267 296
-0.064094849 0.70300001 -0.069025226 1.972072e-38 268 296
-0.062862262 0.70300001 -0.069025226 1.9628524e-38 269 296
-0.061629668 0.70300001 -0.069025226 1.9352651e-38 270 296
-0.06039707 0.70300001 -0.069025226 1.9352651e-38 271 296
-0.059164476 0.70300001 -0.069025226 1.9260102e-38 272 296
-0.057931885 0.70300001 -0.069025226 1.9075351e-38 273 296
-0.056699295 0.70300001 -0.069025226 1.8890962e-38 274 296
-0.0554667 0.70300001 -0.069025226 1.8890962e-38 275 296
-0.054079808 0.70099998 -0.068828844 1.8431786e-38 276 296
-0.052850723 0.70099998 -0.068828844 1.8154839e-38 277 296
-0.051621638 0.70099998 -0.068828844 1.7602779e-38 278 296
-0.089630395 0.70999998 -0.070957392 1.6779923e-38 248 297
-0.08838553 0.70999998 -0.070957392 1.3644911e-38 249 297
-0.087263398 0.71100003 -0.071057342 1.4838006e-38 250 297
-0.086258732 0.713 -0.071257219 1.4561778e-38 251 297
-0.084770165 0.71100003 -0.071057342 1.6037251e-38 252 297
-0.083523542 0.71100003 -0.071057342 1.6867013e-38 253 297
-0.082276918 0.71100003 -0.071057342 1.7325824e-38 254 297
-0.08091633 0.70999998 -0.070957392 1.7694606e-38 255 297
-0.079671465 0.70999998 -0.070957392 1.7788231e-38 256 297
-0.07809522 0.70700002 -0.070657574 1.8248849e-38 257 297
-0.076746903 0.70599997 -0.070557632 1.861619e-38 258 297
-0.075295143 0.704 -0.070357755 1.8800941e-38 259 297
-0.07406079 0.704 -0.070357755 1.8984972e-38 260 297
-0.07303334 0.70599997 -0.070557632 1.8984972e-38 261 297
-0.071592107 0.704 -0.070357755 1.9169001e-38 262 297
-0.070357755 0.704 -0.070357755 1.9261196e-38 263 297
-0.06912341 0.704 -0.070357755 1.9445227e-38 264 297
-0.067792632 0.70300001 -0.070257813 1.9537424e-38 265 297
-0.066370681 0.70099998 -0.070057929 1.9537424e-38 266 297
-0.065141588 0.70099998 -0.070057929 1.962962e-38 267 297
-0.063821331 0.69999999 -0.069957994 1.9629607e-38 268 297
-0.062593997 0.69999999 -0.069957994 1.953741e-38 269 297
-0.061366666 0.69999999 -0.069957994 1.9628877e-38 270 297
-0.060139328 0.69999999 -0.069957994 1.9536682e-38 271 297
-0.058911994 0.69999999 -0.069957994 1.9260102e-38 272 297
-0.057767071 0.70099998 -0.070057929 1.9167548e-38 273 297
-0.056537982 0.70099998 -0.070057929 1.9075353e-38 274 297
-0.055308893 0.70099998 -0.070057929 1.8890962e-38 275 297
-0.054002665 0.69999999 -0.069957994 1.8522897e-38 276 297
-0.052775331 0.69999999 -0.069957994 1.8338866e-38 277 297
-0.051547997 0.69999999 -0.069957994 1.8063023e-38 278 297
-0.089630395 0.70999998 -0.072202265 1.7055443e-38 248 298
-0.08838553 0.70999998 -0.072202265 1.3921152e-38 249 298
-0.087263398 0.71100003 -0.072303966 1.4285198e-38 250 298
-0.086016782 0.71100003 -0.072303966 1.4008971e-38 251 298
-0.084650926 0.70999998 -0.072202265 1.575994e-38 252 298
-0.083406061 0.70999998 -0.072202265 1.6682255e-38 253 298
-0.082161188 0.70999998 -0.072202265 1.7050313e-38 254 298
-0.08091633 0.70999998 -0.072202265 1.73269e-38 255 298
-0.079447038 0.708 -0.071998879 1.7420168e-38 256 298
-0.07798475 0.70599997 -0.071795486 1.7881146e-38 257 298
-0.076529488 0.704 -0.071592107 1.852435e-38 258 298
-0.075295143 0.704 -0.071592107 1.8616546e-38 259 298
-0.07406079 0.704 -0.071592107 1.8801657e-38 260 298
-0.072826453 0.704 -0.071592107 1.8801657e-38 261 298
-0.071490414 0.70300001 -0.071490414 1.9169001e-38 262 298
-0.070057929 0.70099998 -0.071287021 1.9261196e-38 263 298
-0.068828844 0.70099998 -0.071287021 1.9444509e-38 264 298
-0.067503333 0.69999999 -0.071185328 1.9536704e-38 265 298
-0.066275999 0.69999999 -0.071185328 1.9628901e-38 266 298
-0.065048665 0.69999999 -0.071185328 1.9628901e-38 267 298
-0.063638985 0.69800001 -0.07098195 1.9629973e-38 268 298
-0.062415157 0.69800001 -0.07098195 1.9629973e-38 269 298
-0.061191335 0.69800001 -0.07098195 1.9537775e-38 270 298
-0.059967503 0.69800001 -0.07098195 1.9445578e-38 271 298
-0.058743682 0.69800001 -0.07098195 1.9260112e-38 272 298
-0.057519849 0.69800001 -0.07098195 1.9167916e-38 273 298
-0.056296028 0.69800001 -0.07098195 1.8891685e-38 274 298
-0.055229999 0.69999999 -0.071185328 1.8799489e-38 275 298
-0.054002665 0.69999999 -0.071185328 1.8707297e-38 276 298
-0.052624546 0.69800001 -0.07098195 1.8522547e-38 277 298
-0.051400717 0.69800001 -0.07098195 1.8246335e-38 278 298
-0.050176892 0.69800001 -0.07098195 1.8338531e-38 279 298
-0.089630395 0.70999998 -0.073447131 1.7148009e-38 248 299
-0.08838553 0.70999998 -0.073447131 1.4198107e-38 249 299
-0.087140657 0.70999998 -0.073447131 1.4285204e-38 250 299
-0.085895792 0.70999998 -0.073447131 1.3824226e-38 251 299
-0.084650926 0.70999998 -0.073447131 1.5390792e-38 252 299
-0.083171122 0.708 -0.073240235 1.6312747e-38 253 299
-0.081929758 0.708 -0.073240235 1.6957748e-38 254 299
-0.080688395 0.708 -0.073240235 1.7326171e-38 255 299
-0.079222605 0.70599997 -0.07303334 1.7144304e-38 256 299
-0.077763841 0.704 -0.072826453 1.7513086e-38 257 299
-0.076420791 0.70300001 -0.072723009 1.7972625e-38 258 299
-0.07518819 0.70300001 -0.072723009 1.8341048e-38 259 299
-0.073955595 0.70300001 -0.072723009 1.8525793e-38 260 299
-0.072516106 0.70099998 -0.072516106 1.8617989e-38 261 299
-0.071287021 0.70099998 -0.072516106 1.8893856e-38 262 299
-0.069957994 0.69999999 -0.072412662 1.8893856e-38 263 299
-0.068730667 0.69999999 -0.072412662 1.926084e-38 264 299
-0.06731046 0.69800001 -0.072205767 1.9444872e-38 265 299
-0.066086642 0.69800001 -0.072205767 1.9444874e-38 266 299
-0.06486281 0.69800001 -0.072205767 1.9537071e-38 267 299
-0.06354782 0.69700003 -0.072102323 1.962962e-38 268 299
-0.062236317 0.69599998 -0.071998879 1.962962e-38 269 299
-0.061015997 0.69599998 -0.071998879 1.9629254e-38 270 299
-0.059795678 0.69599998 -0.071998879 1.9537057e-38 271 299
-0.05865952 0.69700003 -0.072102323 1.9627808e-38 272 299
-0.05743745 0.69700003 -0.072102323 1.9443058e-38 273 299
-0.056215372 0.69700003 -0.072102323 1.9351216e-38 274 299
-0.054993302 0.69700003 -0.072102323 1.9074988e-38 275 299
-0.053771228 0.69700003 -0.072102323 1.8982439e-38 276 299
-0.052549154 0.69700003 -0.072102323 1.8890243e-38 277 299
-0.051253434 0.69599998 -0.071998879 1.8614026e-38 278 299
-0.050033119 0.69599998 -0.071998879 1.8706222e-38 279 299
-0.048882935 0.69700003 -0.072102323 1.8062683e-38 280 299
-0.088136561 0.708 -0.074481599 1.4750209e-38 249 300
-0.086895198 0.708 -0.074481599 1.4377049e-38 250 300
-0.085653841 0.708 -0.074481599 1.4008268e-38 251 300
-0.084293254 0.70700002 -0.074376404 1.5481914e-38 252 300
-0.083053641 0.70700002 -0.074376404 1.6127283e-38 253 300
-0.081814043 0.70700002 -0.074376404 1.7048864e-38 254 300
-0.080460466 0.70599997 -0.074271195 1.7233255e-38 255 300
-0.078998186 0.704 -0.07406079 1.7693868e-38 256 300
-0.077653378 0.70300001 -0.073955595 1.806229e-38 257 300
-0.076420791 0.70300001 -0.073955595 1.8246688e-38 258 300
-0.07486733 0.69999999 -0.073639996 1.8707306e-38 259 300
-0.073639996 0.69999999 -0.073639996 1.8616913e-38 260 300
-0.072205767 0.69800001 -0.073429599 1.8616913e-38 261 300
-0.07098195 0.69800001 -0.073429599 1.9076446e-38 262 300
-0.069758117 0.69800001 -0.073429599 1.9169001e-38 263 300
-0.068534292 0.69800001 -0.073429599 1.9352313e-38 264 300
-0.067214034 0.69700003 -0.073324397 1.9444509e-38 265 300
-0.06599196 0.69700003 -0.073324397 1.9627821e-38 266 300
-0.064769886 0.69700003 -0.073324397 1.9812213e-38 267 300
-0.063274294 0.69400001 -0.073008798 1.9812932e-38 268 300
-0.06205748 0.69400001 -0.073008798 1.9905487e-38 269 300
-0.060752999 0.69300002 -0.072903603 1.9721819e-38 270 300
-0.05953794 0.69300002 -0.072903603 1.9629623e-38 271 300
-0.058322877 0.69300002 -0.072903603 1.9444872e-38 272 300
-0.057107817 0.69300002 -0.072903603 1.9444872e-38 273 300
-0.055892758 0.69300002 -0.072903603 1.9260117e-38 274 300
-0.054677699 0.69300002 -0.072903603 1.8983532e-38 275 300
-0.053694077 0.69599998 -0.073219195 1.8891335e-38 276 300
-0.052322973 0.69400001 -0.073008798 1.8706944e-38 277 300
-0.051106159 0.69400001 -0.073008798 1.8431796e-38 278 300
-0.049817458 0.69300002 -0.072903603 1.8155569e-38 279 300
-0.048602402 0.69300002 -0.072903603 1.7971544e-38 280 300
-0.088012077 0.70700002 -0.07561601 1.5118992e-38 249 301
-0.086772464 0.70700002 -0.07561601 1.4562158e-38 250 301
-0.085532859 0.70700002 -0.07561601 1.4008984e-38 251 301
-0.084293254 0.70700002 -0.07561601 1.4930539e-38 252 301
-0.083053641 0.70700002 -0.07561601 1.5483712e-38 253 301
-0.081814043 0.70700002 -0.07561601 1.6680452e-38 254 301
-0.080460466 0.70599997 -0.075509049 1.6957397e-38 255 301
-0.078885972 0.70300001 -0.07518819 1.7142509e-38 256 301
-0.077653378 0.70300001 -0.07518819 1.73269e-38 257 301
-0.076203369 0.70099998 -0.074974284 1.7603132e-38 258 301
-0.07486733 0.69999999 -0.07486733 1.8156306e-38 259 301
-0.073429599 0.69800001 -0.074653424 1.8339976e-38 260 301
-0.072205767 0.69800001 -0.074653424 1.8616563e-38 261 301
-0.07098195 0.69800001 -0.074653424 1.89839e-38 262 301
-0.069658175 0.69700003 -0.074546471 1.9076096e-38 263 301
-0.068436109 0.69700003 -0.074546471 1.9077168e-38 264 301
-0.067214034 0.69700003 -0.074546471 1.9077168e-38 265 301
-0.06599196 0.69700003 -0.074546471 1.9169366e-38 266 301
-0.064769886 0.69700003 -0.074546471 1.9261562e-38 267 301
-0.063274294 0.69400001 -0.074225612 1.9628548e-38 268 301
-0.061968062 0.69300002 -0.074118659 1.9628548e-38 269 301
