# .PCD v.7 - Point Cloud Data file format
FIELDS x y z rgb imX imY
SIZE 4 4 4 4 4 4
TYPE F F F F F F
COUNT 1 1 1 1 1 1
WIDTH 845
HEIGHT 1
VIEWPOINT 0 0 0 1 0 0 0
POINTS 845
DATA ascii
0.056776438 0.77100003 -0.028388219 1.6682584e-38 362 261
0.058128256 0.77100003 -0.028388219 1.6590389e-38 363 261
0.059480079 0.77100003 -0.028388219 1.6680785e-38 364 261
0.060831897 0.77100003 -0.028388219 1.6127971e-38 365 261
0.062183715 0.77100003 -0.028388219 1.5847434e-38 366 261
0.063535534 0.77100003 -0.028388219 1.5570847e-38 367 261
0.064887367 0.77100003 -0.028388219 1.5388251e-38 368 261
0.066239186 0.77100003 -0.028388219 1.5572642e-38 369 261
0.067591004 0.77100003 -0.028388219 1.5297135e-38 370 261
0.068942823 0.77100003 -0.028388219 1.5204939e-38 371 261
0.070476986 0.773 -0.028461859 1.4651412e-38 372 261
0.071832314 0.773 -0.028461859 1.4559216e-38 373 261
0.073187642 0.773 -0.028461859 1.3731254e-38 374 261
0.074639395 0.77399999 -0.028498679 1.3362112e-38 375 261
0.075996473 0.77399999 -0.028498679 1.2901137e-38 376 261
0.077353559 0.77399999 -0.028498679 1.2440159e-38 377 261
0.078710638 0.77399999 -0.028498679 1.2254342e-38 378 261
0.080067717 0.77399999 -0.028498679 1.1977754e-38 379 261
0.081424795 0.77399999 -0.028498679 1.1333146e-38 380 261
0.082781881 0.77399999 -0.028498679 1.0872169e-38 381 261
0.04885488 0.77399999 -0.029855758 1.6130174e-38 356 262
0.050211959 0.77399999 -0.029855758 1.6314205e-38 357 262
0.051502414 0.773 -0.029817186 1.6590404e-38 358 262
0.052857738 0.773 -0.029817186 1.66826e-38 359 262
0.054213066 0.773 -0.029817186 1.6958098e-38 360 262
0.055424623 0.77100003 -0.029740039 1.6958098e-38 361 262
0.056776438 0.77100003 -0.029740039 1.6682956e-38 362 262
0.058128256 0.77100003 -0.029740039 1.659076e-38 363 262
0.059325781 0.76899999 -0.02966289 1.6680802e-38 364 262
0.060674097 0.76899999 -0.02966289 1.6127987e-38 365 262
0.062183715 0.77100003 -0.029740039 1.6124391e-38 366 262
0.063535534 0.77100003 -0.029740039 1.6124391e-38 367 262
0.064887367 0.77100003 -0.029740039 1.557481e-38 368 262
0.066239186 0.77100003 -0.029740039 1.5390419e-38 369 262
0.067591004 0.77100003 -0.029740039 1.4929441e-38 370 262
0.068942823 0.77100003 -0.029740039 1.4652854e-38 371 262
0.070294641 0.77100003 -0.029740039 1.4191154e-38 372 262
0.071832314 0.773 -0.029817186 1.4006761e-38 373 262
0.073187642 0.773 -0.029817186 1.3362465e-38 374 262
0.074542962 0.773 -0.029817186 1.3085879e-38 375 262
0.075996473 0.77399999 -0.029855758 1.2716746e-38 376 262
0.077353559 0.77399999 -0.029855758 1.2255768e-38 377 262
0.078710638 0.77399999 -0.029855758 1.1977401e-38 378 262
0.080067717 0.77399999 -0.029855758 1.1608979e-38 379 262
0.081424795 0.77399999 -0.029855758 1.1056566e-38 380 262
0.082781881 0.77399999 -0.029855758 1.0779619e-38 381 262
0.047436431 0.773 -0.03117251 1.5578115e-38 355 263
0.048791755 0.773 -0.03117251 1.631419e-38 356 263
0.050147086 0.773 -0.03117251 1.6406744e-38 357 263
0.051502414 0.773 -0.03117251 1.6866265e-38 358 263
0.052720979 0.77100003 -0.031091858 1.6958819e-38 359 263
0.054072797 0.77100003 -0.031091858 1.7050649e-38 360 263
0.055424623 0.77100003 -0.031091858 1.7050649e-38 361 263
0.056629159 0.76899999 -0.031011207 1.6958819e-38 362 263
0.057977475 0.76899999 -0.031011207 1.6866265e-38 363 263
0.059325781 0.76899999 -0.031011207 1.6772281e-38 364 263
0.060674097 0.76899999 -0.031011207 1.6495693e-38 365 263
0.062022414 0.76899999 -0.031011207 1.6218029e-38 366 263
0.063370727 0.76899999 -0.031011207 1.6218029e-38 367 263
0.064719036 0.76899999 -0.031011207 1.557481e-38 368 263
0.066067353 0.76899999 -0.031011207 1.5298223e-38 369 263
0.067591004 0.77100003 -0.031091858 1.4836529e-38 370 263
0.068942823 0.77100003 -0.031091858 1.4559582e-38 371 263
0.070294641 0.77100003 -0.031091858 1.4191157e-38 372 263
0.071646459 0.77100003 -0.031091858 1.3822014e-38 373 263
0.072998285 0.77100003 -0.031091858 1.3453945e-38 374 263
0.074542962 0.773 -0.03117251 1.3084802e-38 375 263
0.075898297 0.773 -0.03117251 1.2714951e-38 376 263
0.077353559 0.77399999 -0.031212838 1.2346168e-38 377 263
0.078710638 0.77399999 -0.031212838 1.1884855e-38 378 263
0.080067717 0.77399999 -0.031212838 1.1423878e-38 379 263
0.081424795 0.77399999 -0.031212838 1.0779992e-38 380 263
0.082781881 0.77399999 -0.031212838 1.0595959e-38 381 263
0.047313701 0.77100003 -0.032443684 1.6130896e-38 355 264
0.04866552 0.77100003 -0.032443684 1.6682605e-38 356 264
0.050017338 0.77100003 -0.032443684 1.6774801e-38 357 264
0.051235907 0.76899999 -0.032359518 1.7050296e-38 358 264
0.052584216 0.76899999 -0.032359518 1.7050296e-38 359 264
0.053932533 0.76899999 -0.032359518 1.7051012e-38 360 264
0.055280842 0.76899999 -0.032359518 1.7051012e-38 361 264
0.056481879 0.76700002 -0.03227536 1.6958464e-38 362 264
0.057826683 0.76700002 -0.03227536 1.6866268e-38 363 264
0.059325781 0.76899999 -0.032359518 1.6772281e-38 364 264
0.060674097 0.76899999 -0.032359518 1.6495693e-38 365 264
0.061861109 0.76700002 -0.03227536 1.6127634e-38 366 264
0.063205913 0.76700002 -0.03227536 1.5942884e-38 367 264
0.064719036 0.76899999 -0.032359518 1.5482261e-38 368 264
0.066067353 0.76899999 -0.032359518 1.4929088e-38 369 264
0.067415662 0.76899999 -0.032359518 1.4376273e-38 370 264
0.068763971 0.76899999 -0.032359518 1.4191523e-38 371 264
0.070294641 0.77100003 -0.032443684 1.3730903e-38 372 264
0.071646459 0.77100003 -0.032443684 1.3361762e-38 373 264
0.072998285 0.77100003 -0.032443684 1.2993335e-38 374 264
0.074542962 0.773 -0.032527838 1.2532357e-38 375 264
0.075898297 0.773 -0.032527838 1.2438008e-38 376 264
0.077353559 0.77399999 -0.032569919 1.2069584e-38 377 264
0.078710638 0.77399999 -0.032569919 1.151608e-38 378 264
0.080067717 0.77399999 -0.032569919 1.1146937e-38 379 264
0.081424795 0.77399999 -0.032569919 1.0044953e-38 380 264
0.082781881 0.77399999 -0.032569919 1.0228986e-38 381 264
0.045842651 0.76899999 -0.033707831 1.6314909e-38 354 265
0.047190964 0.76899999 -0.033707831 1.6407463e-38 355 265
0.048539277 0.76899999 -0.033707831 1.6775154e-38 356 265
0.04988759 0.76899999 -0.033707831 1.6775154e-38 357 265
0.051235907 0.76899999 -0.033707831 1.7051015e-38 358 265
0.052584216 0.76899999 -0.033707831 1.7051015e-38 359 265
0.053932533 0.76899999 -0.033707831 1.6867703e-38 360 265
0.055280842 0.76899999 -0.033707831 1.6867703e-38 361 265
0.056481879 0.76700002 -0.033620168 1.6958101e-38 362 265
0.057826683 0.76700002 -0.033620168 1.6865546e-38 363 265
0.059171494 0.76700002 -0.033620168 1.6680438e-38 364 265
0.060516298 0.76700002 -0.033620168 1.6495688e-38 365 265
0.061861109 0.76700002 -0.033620168 1.6035438e-38 366 265
0.063205913 0.76700002 -0.033620168 1.5758851e-38 367 265
0.06455072 0.76700002 -0.033620168 1.5388997e-38 368 265
0.066067353 0.76899999 -0.033707831 1.4835823e-38 369 265
0.067415662 0.76899999 -0.033707831 1.4374838e-38 370 265
0.068763971 0.76899999 -0.033707831 1.3821664e-38 371 265
0.070112288 0.76899999 -0.033707831 1.3268846e-38 372 265
0.071646459 0.77100003 -0.033795502 1.3084096e-38 373 265
0.072998285 0.77100003 -0.033795502 1.2807867e-38 374 265
0.074542962 0.773 -0.033883166 1.2439083e-38 375 265
0.075898297 0.773 -0.033883166 1.2069587e-38 376 265
0.077353559 0.77399999 -0.033927001 1.1792641e-38 377 265
0.078710638 0.77399999 -0.033927001 1.1148016e-38 378 265
0.080067717 0.77399999 -0.033927001 1.0871429e-38 379 265
0.081424795 0.77399999 -0.033927001 9.9516756e-39 380 265
0.082781881 0.77399999 -0.033927001 1.0136067e-38 381 265
0.043146025 0.76899999 -0.035056144 1.576178e-38 352 266
0.044494338 0.76899999 -0.035056144 1.6222758e-38 353 266
0.045842651 0.76899999 -0.035056144 1.6498937e-38 354 266
0.047190964 0.76899999 -0.035056144 1.6682968e-38 355 266
0.048539277 0.76899999 -0.035056144 1.6775504e-38 356 266
0.04988759 0.76899999 -0.035056144 1.68677e-38 357 266
0.051235907 0.76899999 -0.035056144 1.7051015e-38 358 266
0.052447457 0.76700002 -0.034964975 1.7051015e-38 359 266
0.053792264 0.76700002 -0.034964975 1.723433e-38 360 266
0.055137072 0.76700002 -0.034964975 1.723433e-38 361 266
0.056481879 0.76700002 -0.034964975 1.714141e-38 362 266
0.057751291 0.76599997 -0.034919381 1.6865183e-38 363 266
0.059094343 0.76599997 -0.034919381 1.6771902e-38 364 266
0.060516298 0.76700002 -0.034964975 1.6403479e-38 365 266
0.061861109 0.76700002 -0.034964975 1.6310224e-38 366 266
0.063205913 0.76700002 -0.034964975 1.5664855e-38 367 266
0.06455072 0.76700002 -0.034964975 1.5203885e-38 368 266
0.065895528 0.76700002 -0.034964975 1.4558516e-38 369 266
0.067415662 0.76899999 -0.035056144 1.4005695e-38 370 266
0.068763971 0.76899999 -0.035056144 1.3544357e-38 371 266
0.070112288 0.76899999 -0.035056144 1.2715301e-38 372 266
0.071460605 0.76899999 -0.035056144 1.2438714e-38 373 266
0.072808921 0.76899999 -0.035056144 1.2256121e-38 374 266
0.074350104 0.77100003 -0.03514732 1.1887338e-38 375 266
0.075701922 0.77100003 -0.03514732 1.170189e-38 376 266
0.077353559 0.77399999 -0.03528408 1.1425303e-38 377 266
0.078710638 0.77399999 -0.03528408 1.0963284e-38 378 266
0.080067717 0.77399999 -0.03528408 1.0502666e-38 379 266
0.081424795 0.77399999 -0.03528408 9.2159322e-39 380 266
0.041797712 0.76899999 -0.036404461 1.5488105e-38 351 267
0.043146025 0.76899999 -0.036404461 1.6498251e-38 352 267
0.044494338 0.76899999 -0.036404461 1.6498251e-38 353 267
0.045723427 0.76700002 -0.036309779 1.6682971e-38 354 267
0.047068235 0.76700002 -0.036309779 1.6682971e-38 355 267
0.048539277 0.76899999 -0.036404461 1.686735e-38 356 267
0.049757849 0.76700002 -0.036309779 1.686735e-38 357 267
0.051102653 0.76700002 -0.036309779 1.705031e-38 358 267
0.052447457 0.76700002 -0.036309779 1.705031e-38 359 267
0.053792264 0.76700002 -0.036309779 1.7233623e-38 360 267
0.055065181 0.76599997 -0.036262438 1.704959e-38 361 267
0.056408234 0.76599997 -0.036262438 1.6865546e-38 362 267
0.057751291 0.76599997 -0.036262438 1.6773351e-38 363 267
0.059094343 0.76599997 -0.036262438 1.6680791e-38 364 267
0.060437392 0.76599997 -0.036262438 1.6219814e-38 365 267
0.061780453 0.76599997 -0.036262438 1.5575532e-38 366 267
0.063123502 0.76599997 -0.036262438 1.4653577e-38 367 267
0.06455072 0.76700002 -0.036309779 1.4283718e-38 368 267
0.065895528 0.76700002 -0.036309779 1.3730903e-38 369 267
0.067240335 0.76700002 -0.036309779 1.37291e-38 370 267
0.068763971 0.76899999 -0.036404461 1.3175926e-38 371 267
0.070112288 0.76899999 -0.036404461 1.2255402e-38 372 267
0.071460605 0.76899999 -0.036404461 1.2255402e-38 373 267
0.072808921 0.76899999 -0.036404461 1.2162497e-38 374 267
0.074157231 0.76899999 -0.036404461 1.1978104e-38 375 267
0.075701922 0.77100003 -0.036499143 1.1242357e-38 376 267
0.077253617 0.773 -0.036593821 1.0873574e-38 377 267
0.078608945 0.773 -0.036593821 1.0411544e-38 378 267
0.080067717 0.77399999 -0.036641158 9.7661745e-39 379 267
0.081635199 0.77600002 -0.036735836 9.3070348e-39 380 267
0.041797712 0.76899999 -0.03775277 1.5763227e-38 351 268
0.043033812 0.76700002 -0.037654586 1.6682621e-38 352 268
0.04437862 0.76700002 -0.037654586 1.6682621e-38 353 268
0.045723427 0.76700002 -0.037654586 1.6774801e-38 354 268
0.047068235 0.76700002 -0.037654586 1.6866998e-38 355 268
0.048413042 0.76700002 -0.037654586 1.6866994e-38 356 268
0.049757849 0.76700002 -0.037654586 1.6866994e-38 357 268
0.051036026 0.76599997 -0.037605491 1.705031e-38 358 268
0.052379075 0.76599997 -0.037605491 1.705031e-38 359 268
0.053722132 0.76599997 -0.037605491 1.704959e-38 360 268
0.055065181 0.76599997 -0.037605491 1.704959e-38 361 268
0.056408234 0.76599997 -0.037605491 1.6865546e-38 362 268
0.057600506 0.764 -0.037507307 1.6681155e-38 363 268
0.058940053 0.764 -0.037507307 1.6312731e-38 364 268
0.0602796 0.764 -0.037507307 1.5667362e-38 365 268
0.061619148 0.764 -0.037507307 1.5114558e-38 366 268
0.062958695 0.764 -0.037507307 1.4284437e-38 367 268
0.064466551 0.76599997 -0.037605491 1.4190804e-38 368 268
0.065895528 0.76700002 -0.037654586 1.3914216e-38 369 268
0.067240335 0.76700002 -0.037654586 1.3728381e-38 370 268
0.068585135 0.76700002 -0.037654586 1.3359597e-38 371 268
0.06992995 0.76700002 -0.037654586 1.262418e-38 372 268
0.071460605 0.76899999 -0.03775277 1.2255399e-38 373 268
0.072808921 0.76899999 -0.03775277 1.1795514e-38 374 268
0.074157231 0.76899999 -0.03775277 1.1426733e-38 375 268
0.07550554 0.76899999 -0.03775277 1.1056539e-38 376 268
0.077053741 0.77100003 -0.037850961 1.0595562e-38 377 268
0.078608945 0.773 -0.037949149 9.9509399e-39 378 268
0.080067717 0.77399999 -0.037998237 9.1211792e-39 379 268
0.081424795 0.77399999 -0.037998237 7.7429657e-39 380 268
0.0404494 0.76899999 -0.039101087 1.6314588e-38 350 269
0.041797712 0.76899999 -0.039101087 1.6314588e-38 351 269
0.043033812 0.76700002 -0.038999394 1.6774095e-38 352 269
0.04437862 0.76700002 -0.038999394 1.6774095e-38 353 269
0.045723427 0.76700002 -0.038999394 1.6867001e-38 354 269
0.047068235 0.76700002 -0.038999394 1.6774445e-38 355 269
0.048413042 0.76700002 -0.038999394 1.6866998e-38 356 269
0.04969297 0.76599997 -0.038948543 1.6866998e-38 357 269
0.051036026 0.76599997 -0.038948543 1.7233623e-38 358 269
0.052379075 0.76599997 -0.038948543 1.704959e-38 359 269
0.053722132 0.76599997 -0.038948543 1.704959e-38 360 269
0.055065181 0.76599997 -0.038948543 1.6957394e-38 361 269
0.056260962 0.764 -0.038846854 1.6590041e-38 362 269
0.057600506 0.764 -0.038846854 1.6313094e-38 363 269
0.058940053 0.764 -0.038846854 1.6036867e-38 364 269
0.0602796 0.764 -0.038846854 1.5207107e-38 365 269
0.061619148 0.764 -0.038846854 1.474685e-38 366 269
0.062958695 0.764 -0.038846854 1.4008926e-38 367 269
0.064466551 0.76599997 -0.038948543 1.4282271e-38 368 269
0.065809615 0.76599997 -0.038948543 1.3821651e-38 369 269
0.067240335 0.76700002 -0.038999394 1.3269196e-38 370 269
0.068585135 0.76700002 -0.038999394 1.280822e-38 371 269
0.06992995 0.76700002 -0.038999394 1.2531275e-38 372 269
0.07127475 0.76700002 -0.038999394 1.2070656e-38 373 269
0.072619557 0.76700002 -0.038999394 1.1610416e-38 374 269
0.074157231 0.76899999 -0.039101087 1.1241635e-38 375 269
0.07550554 0.76899999 -0.039101087 1.0688483e-38 376 269
0.076853856 0.76899999 -0.039101087 1.0227504e-38 377 269
0.078405559 0.77100003 -0.03920278 9.3988549e-39 378 269
0.079757385 0.77100003 -0.03920278 8.4769e-39 379 269
-0.087077543 0.77600002 -0.0408176 1.4471099e-38 256 270
-0.085716955 0.77600002 -0.0408176 1.3825729e-38 257 270
-0.084138952 0.77399999 -0.040712398 1.3552758e-38 258 270
0.040344197 0.76700002 -0.040344197 1.668227e-38 350 270
0.041689005 0.76700002 -0.040344197 1.6497881e-38 351 270
0.042977702 0.76599997 -0.040291596 1.6958113e-38 352 270
0.044320758 0.76599997 -0.040291596 1.6958113e-38 353 270
0.045663811 0.76599997 -0.040291596 1.7050662e-38 354 270
0.046884131 0.764 -0.040186398 1.7050662e-38 355 270
0.048223678 0.764 -0.040186398 1.7050662e-38 356 270
0.049563225 0.764 -0.040186398 1.7050662e-38 357 270
0.050902773 0.764 -0.040186398 1.695811e-38 358 270
0.052242316 0.764 -0.040186398 1.695811e-38 359 270
0.053581864 0.764 -0.040186398 1.6957392e-38 360 270
0.054777641 0.76200002 -0.040081199 1.6773e-38 361 270
0.056113683 0.76200002 -0.040081199 1.6405646e-38 362 270
0.057449725 0.76200002 -0.040081199 1.6036865e-38 363 270
0.058785759 0.76200002 -0.040081199 1.5943589e-38 364 270
0.0602796 0.764 -0.040186398 1.5021992e-38 365 270
0.061619148 0.764 -0.040186398 1.4744694e-38 366 270
0.062958695 0.764 -0.040186398 1.4284074e-38 367 270
0.064298242 0.764 -0.040186398 1.3914566e-38 368 270
0.065809615 0.76599997 -0.040291596 1.3453589e-38 369 270
0.067152664 0.76599997 -0.040291596 1.3176645e-38 370 270
0.068585135 0.76700002 -0.040344197 1.2716025e-38 371 270
0.06992995 0.76700002 -0.040344197 1.2438727e-38 372 270
0.07127475 0.76700002 -0.040344197 1.1885912e-38 373 270
0.072619557 0.76700002 -0.040344197 1.1333834e-38 374 270
0.073964365 0.76700002 -0.040344197 1.0964691e-38 375 270
0.075309172 0.76700002 -0.040344197 1.0502663e-38 376 270
0.07665398 0.76700002 -0.040344197 1.0041685e-38 377 270
0.078405559 0.77100003 -0.040554602 9.0304451e-39 378 270
-0.088893995 0.77999997 -0.042395595 1.2816634e-38 255 271
-0.087077543 0.77600002 -0.042178184 1.2257668e-38 256 271
-0.085716955 0.77600002 -0.042178184 1.1612298e-38 257 271
-0.084138952 0.77399999 -0.042069476 1.1431517e-38 258 271
-0.082781881 0.77399999 -0.042069476 1.2814451e-38 259 271
0.038999394 0.76700002 -0.041689005 1.6222391e-38 349 271
0.040344197 0.76700002 -0.041689005 1.6774451e-38 350 271
0.041689005 0.76700002 -0.041689005 1.6774451e-38 351 271
0.042977702 0.76599997 -0.041634649 1.6958466e-38 352 271
0.04420504 0.764 -0.041525945 1.6958466e-38 353 271
0.045544583 0.764 -0.041525945 1.6958464e-38 354 271
0.046884131 0.764 -0.041525945 1.6958464e-38 355 271
0.048097439 0.76200002 -0.041417241 1.7050662e-38 356 271
0.049433477 0.76200002 -0.041417241 1.6958466e-38 357 271
0.050769519 0.76200002 -0.041417241 1.695811e-38 358 271
0.052105557 0.76200002 -0.041417241 1.6865915e-38 359 271
0.053441599 0.76200002 -0.041417241 1.6865196e-38 360 271
0.054777641 0.76200002 -0.041417241 1.6680805e-38 361 271
0.056113683 0.76200002 -0.041417241 1.6312378e-38 362 271
0.057449725 0.76200002 -0.041417241 1.6035432e-38 363 271
0.058785759 0.76200002 -0.041417241 1.5391495e-38 364 271
0.0602796 0.764 -0.041525945 1.465393e-38 365 271
0.061619148 0.764 -0.041525945 1.4376267e-38 366 271
0.062958695 0.764 -0.041525945 1.409968e-38 367 271
0.064298242 0.764 -0.041525945 1.3822014e-38 368 271
0.065809615 0.76599997 -0.041634649 1.3361395e-38 369 271
0.067152664 0.76599997 -0.041634649 1.3083733e-38 370 271
0.068585135 0.76700002 -0.041689005 1.2622755e-38 371 271
0.06992995 0.76700002 -0.041689005 1.1886635e-38 372 271
0.07127475 0.76700002 -0.041689005 1.1610048e-38 373 271
0.072619557 0.76700002 -0.041689005 1.1056892e-38 374 271
0.073964365 0.76700002 -0.041689005 1.0595916e-38 375 271
0.075309172 0.76700002 -0.041689005 9.949142e-39 376 271
0.07665398 0.76700002 -0.041689005 9.672195e-39 377 271
-0.090261593 0.77999997 -0.043763198 1.2170899e-38 254 272
-0.088893995 0.77999997 -0.043763198 1.0880161e-38 255 272
-0.087077543 0.77600002 -0.043538772 1.1519018e-38 256 272
-0.085716955 0.77600002 -0.043538772 1.124279e-38 257 272
-0.084138952 0.77399999 -0.043426558 1.1244958e-38 258 272
-0.082781881 0.77399999 -0.043426558 1.225875e-38 259 272
-0.081424795 0.77399999 -0.043426558 1.2348824e-38 260 272
0.037605491 0.76599997 -0.042977702 1.668227e-38 348 272
0.038948543 0.76599997 -0.042977702 1.668227e-38 349 272
0.040291596 0.76599997 -0.042977702 1.6958116e-38 350 272
0.041634649 0.76599997 -0.042977702 1.6958116e-38 351 272
0.042753279 0.76200002 -0.042753279 1.6958466e-38 352 272
0.044089317 0.76200002 -0.042753279 1.7050662e-38 353 272
0.045425359 0.76200002 -0.042753279 1.7050659e-38 354 272
0.046761397 0.76200002 -0.042753279 1.7050659e-38 355 272
0.048097439 0.76200002 -0.042753279 1.704994e-38 356 272
0.049433477 0.76200002 -0.042753279 1.6957745e-38 357 272
0.050769519 0.76200002 -0.042753279 1.6957745e-38 358 272
0.052105557 0.76200002 -0.042753279 1.6773353e-38 359 272
0.053441599 0.76200002 -0.042753279 1.6864833e-38 360 272
0.054777641 0.76200002 -0.042753279 1.6587886e-38 361 272
0.056113683 0.76200002 -0.042753279 1.6127984e-38 362 272
0.057449725 0.76200002 -0.042753279 1.5482615e-38 363 272
0.058785759 0.76200002 -0.042753279 1.4929791e-38 364 272
0.060121801 0.76200002 -0.042753279 1.4653203e-38 365 272
0.061619148 0.764 -0.042865492 1.419151e-38 366 272
0.062958695 0.764 -0.042865492 1.4006759e-38 367 272
0.064298242 0.764 -0.042865492 1.354579e-38 368 272
0.065809615 0.76599997 -0.042977702 1.3268843e-38 369 272
0.067152664 0.76599997 -0.042977702 1.271567e-38 370 272
0.068495713 0.76599997 -0.042977702 1.2255052e-38 371 272
0.06992995 0.76700002 -0.043033812 1.179336e-38 372 272
0.07127475 0.76700002 -0.043033812 1.1424936e-38 373 272
0.072619557 0.76700002 -0.043033812 1.0780312e-38 374 272
0.073867925 0.76599997 -0.042977702 1.0042389e-38 375 272
0.075210981 0.76599997 -0.042977702 9.4885296e-39 376 272
0.076554038 0.76599997 -0.042977702 9.0279116e-39 377 272
-0.090261593 0.77999997 -0.045130797 9.2220839e-39 254 273
-0.088893995 0.77999997 -0.045130797 8.8533014e-39 255 273
-0.086853117 0.77399999 -0.044783637 1.0782535e-38 256 273
-0.085496038 0.77399999 -0.044783637 1.0690339e-38 257 273
-0.084138952 0.77399999 -0.044783637 1.0782888e-38 258 273
-0.082781881 0.77399999 -0.044783637 1.1520453e-38 259 273
-0.0813196 0.773 -0.044725779 1.2347333e-38 260 273
-0.079964265 0.773 -0.044725779 1.0042802e-38 261 273
0.036073081 0.76200002 -0.044089317 1.6037641e-38 347 273
0.037409119 0.76200002 -0.044089317 1.6774445e-38 348 273
0.038745161 0.76200002 -0.044089317 1.6774445e-38 349 273
0.040081199 0.76200002 -0.044089317 1.695811e-38 350 273
0.041417241 0.76200002 -0.044089317 1.695811e-38 351 273
0.042753279 0.76200002 -0.044089317 1.7049943e-38 352 273
0.044089317 0.76200002 -0.044089317 1.7233974e-38 353 273
0.045425359 0.76200002 -0.044089317 1.7050659e-38 354 273
0.046761397 0.76200002 -0.044089317 1.7050659e-38 355 273
0.048097439 0.76200002 -0.044089317 1.7050659e-38 356 273
0.049368605 0.76099998 -0.044031456 1.6866268e-38 357 273
0.050702889 0.76099998 -0.044031456 1.6681884e-38 358 273
0.052037176 0.76099998 -0.044031456 1.6589688e-38 359 273
0.053371463 0.76099998 -0.044031456 1.6220548e-38 360 273
0.05470575 0.76099998 -0.044031456 1.6036517e-38 361 273
0.056040037 0.76099998 -0.044031456 1.5667359e-38 362 273
0.057374325 0.76099998 -0.044031456 1.502199e-38 363 273
0.058708608 0.76099998 -0.044031456 1.4745753e-38 364 273
0.060121801 0.76200002 -0.044089317 1.4284775e-38 365 273
0.061457843 0.76200002 -0.044089317 1.4374822e-38 366 273
0.062793881 0.76200002 -0.044089317 1.3821649e-38 367 273
0.064129919 0.76200002 -0.044089317 1.3361389e-38 368 273
0.065809615 0.76599997 -0.044320758 1.2808576e-38 369 273
0.067152664 0.76599997 -0.044320758 1.2530557e-38 370 273
0.068495713 0.76599997 -0.044320758 1.2253968e-38 371 273
0.069838762 0.76599997 -0.044320758 1.151678e-38 372 273
0.07127475 0.76700002 -0.04437862 1.1147638e-38 373 273
0.072619557 0.76700002 -0.04437862 9.3077131e-39 374 273
0.073867925 0.76599997 -0.044320758 8.8467349e-39 375 273
0.075210981 0.76599997 -0.044320758 8.6605836e-39 376 273
0.076554038 0.76599997 -0.044320758 8.6605836e-39 377 273
-0.089567274 0.77399999 -0.046140719 5.3505709e-39 254 274
-0.088210195 0.77399999 -0.046140719 5.9959403e-39 255 274
-0.086853117 0.77399999 -0.046140719 9.2123323e-39 256 274
-0.085496038 0.77399999 -0.046140719 1.0042452e-38 257 274
-0.084138952 0.77399999 -0.046140719 1.0502351e-38 258 274
-0.082781881 0.77399999 -0.046140719 1.0778938e-38 259 274
-0.0813196 0.773 -0.046081103 1.1423939e-38 260 274
-0.079964265 0.773 -0.046081103 1.0594177e-38 261 274
-0.078608945 0.773 -0.046081103 9.8656358e-39 262 274
0.034691449 0.76099998 -0.045365743 1.6866663e-38 346 274
0.036025736 0.76099998 -0.045365743 1.668227e-38 347 274
0.037409119 0.76200002 -0.045425359 1.6774798e-38 348 274
0.038745161 0.76200002 -0.045425359 1.6774798e-38 349 274
0.040081199 0.76200002 -0.045425359 1.6958466e-38 350 274
0.041417241 0.76200002 -0.045425359 1.7050662e-38 351 274
0.042697169 0.76099998 -0.045365743 1.6958819e-38 352 274
0.044031456 0.76099998 -0.045365743 1.6958819e-38 353 274
0.045365743 0.76099998 -0.045365743 1.7050659e-38 354 274
0.046700031 0.76099998 -0.045365743 1.7050659e-38 355 274
0.048034318 0.76099998 -0.045365743 1.7049946e-38 356 274
0.049368605 0.76099998 -0.045365743 1.6865196e-38 357 274
0.050702889 0.76099998 -0.045365743 1.6773356e-38 358 274
0.052037176 0.76099998 -0.045365743 1.6404574e-38 359 274
0.053371463 0.76099998 -0.045365743 1.6312378e-38 360 274
0.05470575 0.76099998 -0.045365743 1.5943237e-38 361 274
0.056040037 0.76099998 -0.045365743 1.5480813e-38 362 274
0.057374325 0.76099998 -0.045365743 1.5020195e-38 363 274
0.058708608 0.76099998 -0.045365743 1.4467374e-38 364 274
0.060121801 0.76200002 -0.045425359 1.437482e-38 365 274
0.061457843 0.76200002 -0.045425359 1.3914566e-38 366 274
0.062793881 0.76200002 -0.045425359 1.3453589e-38 367 274
0.064129919 0.76200002 -0.045425359 1.3176645e-38 368 274
0.06563779 0.764 -0.045544583 1.262383e-38 369 274
0.06697733 0.764 -0.045544583 1.2346168e-38 370 274
0.068495713 0.76599997 -0.045663811 1.1792994e-38 371 274
0.069838762 0.76599997 -0.045663811 1.1148719e-38 372 274
0.071181826 0.76599997 -0.045663811 1.0318959e-38 373 274
0.072619557 0.76700002 -0.045723427 8.5669208e-39 374 274
0.073867925 0.76599997 -0.045663811 8.8438665e-39 375 274
0.075210981 0.76599997 -0.045663811 8.3843569e-39 376 274
0.076554038 0.76599997 -0.045663811 8.2921598e-39 377 274
-0.088210195 0.77399999 -0.047497798 5.9944914e-39 255 275
-0.086853117 0.77399999 -0.047497798 7.7407979e-39 256 275
-0.085496038 0.77399999 -0.047497798 8.7549499e-39 257 275
-0.084138952 0.77399999 -0.047497798 9.6761873e-39 258 275
-0.082674921 0.773 -0.047436431 1.0229361e-38 259 275
-0.0813196 0.773 -0.047436431 1.0873635e-38 260 275
-0.079964265 0.773 -0.047436431 1.0689243e-38 261 275
-0.078608945 0.773 -0.047436431 1.0046768e-38 262 275
-0.077253617 0.773 -0.047436431 1.1337507e-38 263 275
0.033269498 0.759 -0.046577301 1.6313152e-38 345 275
0.034600276 0.759 -0.046577301 1.6774451e-38 346 275
0.035931058 0.759 -0.046577301 1.6774451e-38 347 275
0.037360024 0.76099998 -0.046700031 1.6958113e-38 348 275
0.038694311 0.76099998 -0.046700031 1.6958113e-38 349 275
0.040028598 0.76099998 -0.046700031 1.6958466e-38 350 275
0.041362885 0.76099998 -0.046700031 1.7050662e-38 351 275
0.042584959 0.759 -0.046577301 1.7051015e-38 352 275
0.043915741 0.759 -0.046577301 1.6958819e-38 353 275
0.045365743 0.76099998 -0.046700031 1.723433e-38 354 275
0.046700031 0.76099998 -0.046700031 1.704994e-38 355 275
0.048034318 0.76099998 -0.046700031 1.6957392e-38 356 275
0.049368605 0.76099998 -0.046700031 1.6773e-38 357 275
0.050702889 0.76099998 -0.046700031 1.6588605e-38 358 275
0.052037176 0.76099998 -0.046700031 1.6312378e-38 359 275
0.053371463 0.76099998 -0.046700031 1.5943237e-38 360 275
0.05470575 0.76099998 -0.046700031 1.5574813e-38 361 275
0.056040037 0.76099998 -0.046700031 1.5296784e-38 362 275
0.057374325 0.76099998 -0.046700031 1.4927643e-38 363 275
0.058708608 0.76099998 -0.046700031 1.4375188e-38 364 275
0.060121801 0.76200002 -0.046761397 1.4006764e-38 365 275
0.061457843 0.76200002 -0.046761397 1.3729103e-38 366 275
0.062793881 0.76200002 -0.046761397 1.3268124e-38 367 275
0.064129919 0.76200002 -0.046761397 1.2807869e-38 368 275
0.06563779 0.764 -0.046884131 1.2254696e-38 369 275
0.06697733 0.764 -0.046884131 1.2069584e-38 370 275
0.068495713 0.76599997 -0.047006864 1.1700443e-38 371 275
0.069838762 0.76599997 -0.047006864 1.0871777e-38 372 275
0.071181826 0.76599997 -0.047006864 1.0226407e-38 373 275
0.072524875 0.76599997 -0.047006864 9.3037698e-39 374 275
0.073867925 0.76599997 -0.047006864 9.1193786e-39 375 275
0.075210981 0.76599997 -0.047006864 7.9255437e-39 376 275
-0.088210195 0.77399999 -0.04885488 6.272502e-39 255 276
-0.086853117 0.77399999 -0.04885488 7.6489554e-39 256 276
-0.085496038 0.77399999 -0.04885488 8.4787161e-39 257 276
-0.084138952 0.77399999 -0.04885488 1.0135704e-38 258 276
-0.082674921 0.773 -0.048791755 1.0781073e-38 259 276
-0.0813196 0.773 -0.048791755 1.105945e-38 260 276
-0.079964265 0.773 -0.048791755 1.1336395e-38 261 276
-0.078608945 0.773 -0.048791755 1.0967279e-38 262 276
-0.077253617 0.773 -0.048791755 1.0875084e-38 263 276
0.030527288 0.75700003 -0.04778184 1.6129503e-38 343 276
0.031854562 0.75700003 -0.04778184 1.6773747e-38 344 276
0.033181835 0.75700003 -0.04778184 1.6773747e-38 345 276
0.034509107 0.75700003 -0.04778184 1.695776e-38 346 276
0.03583638 0.75700003 -0.04778184 1.6865564e-38 347 276
0.037163652 0.75700003 -0.04778184 1.704959e-38 348 276
0.038490929 0.75700003 -0.04778184 1.7233623e-38 349 276
0.0399234 0.759 -0.047908079 1.6866998e-38 350 276
0.041254178 0.759 -0.047908079 1.6866998e-38 351 276
0.042584959 0.759 -0.047908079 1.695811e-38 352 276
0.043800019 0.75700003 -0.04778184 1.695811e-38 353 276
0.045127295 0.75700003 -0.04778184 1.6958466e-38 354 276
0.046577301 0.759 -0.047908079 1.6866271e-38 355 276
0.047908079 0.759 -0.047908079 1.6681884e-38 356 276
0.049238857 0.759 -0.047908079 1.6497492e-38 357 276
0.050702889 0.76099998 -0.048034318 1.6312741e-38 358 276
0.052037176 0.76099998 -0.048034318 1.5852123e-38 359 276
0.053371463 0.76099998 -0.048034318 1.5758123e-38 360 276
0.05470575 0.76099998 -0.048034318 1.5297503e-38 361 276
0.056040037 0.76099998 -0.048034318 1.5020195e-38 362 276
0.057374325 0.76099998 -0.048034318 1.4559216e-38 363 276
0.058708608 0.76099998 -0.048034318 1.4190077e-38 364 276
0.060121801 0.76200002 -0.048097439 1.3821295e-38 365 276
0.061457843 0.76200002 -0.048097439 1.3544354e-38 366 276
0.062793881 0.76200002 -0.048097439 1.3083377e-38 367 276
0.064129919 0.76200002 -0.048097439 1.2622405e-38 368 276
0.06563779 0.764 -0.048223678 1.2253262e-38 369 276
0.06697733 0.764 -0.048223678 1.1793007e-38 370 276
0.068495713 0.76599997 -0.048349917 1.1332388e-38 371 276
0.069838762 0.76599997 -0.048349917 1.0227857e-38 372 276
0.071181826 0.76599997 -0.048349917 9.3977381e-39 373 276
0.072524875 0.76599997 -0.048349917 8.9360761e-39 374 276
0.073867925 0.76599997 -0.048349917 8.8438805e-39 375 276
0.075210981 0.76599997 -0.048349917 7.9255493e-39 376 276
-0.088210195 0.77399999 -0.050211959 4.8917031e-39 255 277
-0.086853117 0.77399999 -0.050211959 7.0979341e-39 256 277
-0.085496038 0.77399999 -0.050211959 8.1117258e-39 257 277
-0.084138952 0.77399999 -0.050211959 9.4932184e-39 258 277
-0.082674921 0.773 -0.050147086 1.0230783e-38 259 277
-0.0813196 0.773 -0.050147086 1.1704456e-38 260 277
-0.079550482 0.76899999 -0.04988759 1.1980683e-38 261 277
-0.077998787 0.76700002 -0.049757849 1.1797383e-38 262 277
-0.07665398 0.76700002 -0.049757849 1.1521156e-38 263 277
-0.075309172 0.76700002 -0.049757849 1.1986141e-38 264 277
0.029200014 0.75700003 -0.049109112 1.6590096e-38 342 277
0.030527288 0.75700003 -0.049109112 1.6405703e-38 343 277
0.031770397 0.755 -0.048979364 1.6774098e-38 344 277
0.033094164 0.755 -0.048979364 1.6774098e-38 345 277
0.034509107 0.75700003 -0.049109112 1.7049237e-38 346 277
0.03583638 0.75700003 -0.049109112 1.7049237e-38 347 277
0.037163652 0.75700003 -0.049109112 1.6958116e-38 348 277
0.038490929 0.75700003 -0.049109112 1.7050313e-38 349 277
0.039818201 0.75700003 -0.049109112 1.6775165e-38 350 277
0.041145474 0.75700003 -0.049109112 1.686772e-38 351 277
0.042472746 0.75700003 -0.049109112 1.6867001e-38 352 277
0.043800019 0.75700003 -0.049109112 1.6867001e-38 353 277
0.045127295 0.75700003 -0.049109112 1.6865918e-38 354 277
0.046454567 0.75700003 -0.049109112 1.6681886e-38 355 277
0.047908079 0.759 -0.049238857 1.6497136e-38 356 277
0.049238857 0.759 -0.049238857 1.6220548e-38 357 277
0.050569639 0.759 -0.049238857 1.6126915e-38 358 277
0.051900417 0.759 -0.049238857 1.5849968e-38 359 277
0.053231198 0.759 -0.049238857 1.5389344e-38 360 277
0.05470575 0.76099998 -0.049368605 1.4836529e-38 361 277
0.056040037 0.76099998 -0.049368605 1.4375544e-38 362 277
0.057374325 0.76099998 -0.049368605 1.4098959e-38 363 277
0.058708608 0.76099998 -0.049368605 1.3913494e-38 364 277
0.060121801 0.76200002 -0.049433477 1.3544351e-38 365 277
0.061457843 0.76200002 -0.049433477 1.3084102e-38 366 277
0.062793881 0.76200002 -0.049433477 1.2623124e-38 367 277
0.064129919 0.76200002 -0.049433477 1.2345465e-38 368 277
0.06563779 0.764 -0.049563225 1.1976682e-38 369 277
0.06697733 0.764 -0.049563225 1.1240563e-38 370 277
0.068316877 0.764 -0.049563225 1.0871779e-38 371 277
0.069838762 0.76599997 -0.04969297 8.7541862e-39 372 277
0.071181826 0.76599997 -0.04969297 8.4779594e-39 373 277
0.072524875 0.76599997 -0.04969297 8.4772686e-39 374 277
0.073867925 0.76599997 -0.04969297 8.3850729e-39 375 277
-0.086853117 0.77399999 -0.051569037 6.9117253e-39 256 278
-0.085496038 0.77399999 -0.051569037 8.0180715e-39 257 278
-0.084138952 0.77399999 -0.051569037 8.8492811e-39 258 278
-0.082674921 0.773 -0.051502414 1.0416247e-38 259 278
-0.0813196 0.773 -0.051502414 1.2532415e-38 260 278
-0.079550482 0.76899999 -0.051235907 1.2532415e-38 261 278
-0.077998787 0.76700002 -0.051102653 1.2350539e-38 262 278
-0.076554038 0.76599997 -0.051036026 1.2442734e-38 263 278
-0.075210981 0.76599997 -0.051036026 1.1614819e-38 264 278
0.026475333 0.755 -0.050303131 1.6224556e-38 340 278
0.027799098 0.755 -0.050303131 1.5579187e-38 341 278
0.029200014 0.75700003 -0.050436385 1.6774095e-38 342 278
0.030527288 0.75700003 -0.050436385 1.6774095e-38 343 278
0.031770397 0.755 -0.050303131 1.704924e-38 344 278
0.033094164 0.755 -0.050303131 1.704924e-38 345 278
0.034417931 0.755 -0.050303131 1.7049593e-38 346 278
0.035741698 0.755 -0.050303131 1.7049593e-38 347 278
0.037065465 0.755 -0.050303131 1.7050313e-38 348 278
0.038389232 0.755 -0.050303131 1.7050313e-38 349 278
0.039712999 0.755 -0.050303131 1.6866645e-38 350 278
0.041036766 0.755 -0.050303131 1.6866645e-38 351 278
0.042360533 0.755 -0.050303131 1.6774451e-38 352 278
0.043684296 0.755 -0.050303131 1.6774451e-38 353 278
0.045008067 0.755 -0.050303131 1.6590054e-38 354 278
0.046454567 0.75700003 -0.050436385 1.6313827e-38 355 278
0.04778184 0.75700003 -0.050436385 1.6312028e-38 356 278
0.049109112 0.75700003 -0.050436385 1.6035082e-38 357 278
0.050436385 0.75700003 -0.050436385 1.5757775e-38 358 278
0.051763661 0.75700003 -0.050436385 1.548119e-38 359 278
0.053231198 0.759 -0.050569639 1.4836529e-38 360 278
0.05470575 0.76099998 -0.050702889 1.4559582e-38 361 278
0.056040037 0.76099998 -0.050702889 1.4098961e-38 362 278
0.057374325 0.76099998 -0.050702889 1.391421e-38 363 278
0.058708608 0.76099998 -0.050702889 1.3636554e-38 364 278
0.060042895 0.76099998 -0.050702889 1.3267771e-38 365 278
0.061457843 0.76200002 -0.050769519 1.2807522e-38 366 278
0.062793881 0.76200002 -0.050769519 1.2254348e-38 367 278
0.064129919 0.76200002 -0.050769519 1.1976685e-38 368 278
0.06563779 0.764 -0.050902773 1.1792294e-38 369 278
0.06697733 0.764 -0.050902773 1.0780312e-38 370 278
0.068316877 0.764 -0.050902773 1.0134943e-38 371 278
0.069838762 0.76599997 -0.051036026 8.9364292e-39 372 278
0.071181826 0.76599997 -0.051036026 8.9364292e-39 373 278
0.072524875 0.76599997 -0.051036026 7.9266185e-39 374 278
0.073867925 0.76599997 -0.051036026 7.7418671e-39 375 278
-0.085496038 0.77399999 -0.052926116 8.7552974e-39 257 279
-0.084030248 0.773 -0.052857738 8.9389516e-39 258 279
-0.082247108 0.76899999 -0.052584216 1.0874701e-38 259 279
-0.080898799 0.76899999 -0.052584216 1.2072881e-38 260 279
-0.079550482 0.76899999 -0.052584216 1.2257273e-38 261 279
-0.077998787 0.76700002 -0.052447457 1.2536008e-38 262 279
-0.076554038 0.76599997 -0.052379075 1.2628203e-38 263 279
-0.075210981 0.76599997 -0.052379075 1.2441681e-38 264 279
-0.073867925 0.76599997 -0.052379075 1.2810462e-38 265 279
0.023827799 0.755 -0.051626898 1.6776323e-38 338 279
0.025151566 0.755 -0.051626898 1.6130953e-38 339 279
0.026475333 0.755 -0.051626898 1.6682291e-38 340 279
0.027799098 0.755 -0.051626898 1.6590096e-38 341 279
0.029122867 0.755 -0.051626898 1.695741e-38 342 279
0.030446632 0.755 -0.051626898 1.695741e-38 343 279
0.031770397 0.755 -0.051626898 1.6958116e-38 344 279
0.033094164 0.755 -0.051626898 1.6958116e-38 345 279
0.034417931 0.755 -0.051626898 1.7049946e-38 346 279
0.035741698 0.755 -0.051626898 1.7049946e-38 347 279
0.037016369 0.75400001 -0.051558517 1.7049946e-38 348 279
0.038338386 0.75400001 -0.051558517 1.7233977e-38 349 279
0.039712999 0.755 -0.051626898 1.695776e-38 350 279
0.041036766 0.755 -0.051626898 1.7049957e-38 351 279
0.042360533 0.755 -0.051626898 1.6681899e-38 352 279
0.043684296 0.755 -0.051626898 1.6681899e-38 353 279
0.045008067 0.755 -0.051626898 1.6588259e-38 354 279
0.04633183 0.755 -0.051626898 1.6219476e-38 355 279
0.047655597 0.755 -0.051626898 1.6034716e-38 356 279
0.049109112 0.75700003 -0.051763661 1.5850324e-38 357 279
0.050436385 0.75700003 -0.051763661 1.5389344e-38 358 279
0.051763661 0.75700003 -0.051763661 1.5112756e-38 359 279
0.053231198 0.759 -0.051900417 1.4284427e-38 360 279
0.054561976 0.759 -0.051900417 1.4007482e-38 361 279
0.056040037 0.76099998 -0.052037176 1.3914563e-38 362 279
0.057374325 0.76099998 -0.052037176 1.3546141e-38 363 279
0.058708608 0.76099998 -0.052037176 1.3268127e-38 364 279
0.060042895 0.76099998 -0.052037176 1.2991182e-38 365 279
0.061457843 0.76200002 -0.052105557 1.2622052e-38 366 279
0.062793881 0.76200002 -0.052105557 1.2253269e-38 367 279
0.064298242 0.764 -0.052242316 1.1516427e-38 368 279
0.06563779 0.764 -0.052242316 1.1239839e-38 369 279
0.06697733 0.764 -0.052242316 1.0411173e-38 370 279
0.068316877 0.764 -0.052242316 9.8580002e-39 371 279
0.069838762 0.76599997 -0.052379075 9.2108679e-39 372 279
0.071181826 0.76599997 -0.052379075 9.1186723e-39 373 279
0.072524875 0.76599997 -0.052379075 7.9269871e-39 374 279
-0.085385576 0.773 -0.054213066 1.0966926e-38 257 280
-0.084030248 0.773 -0.054213066 9.3077383e-39 258 280
-0.082247108 0.76899999 -0.053932533 1.0506281e-38 259 280
-0.080898799 0.76899999 -0.053932533 1.0785752e-38 260 280
-0.079343595 0.76700002 -0.053792264 1.1615873e-38 261 280
-0.077998787 0.76700002 -0.053792264 1.2261216e-38 262 280
-0.076554038 0.76599997 -0.053722132 1.263e-38 263 280
-0.075210981 0.76599997 -0.053722132 1.2996264e-38 264 280
-0.073867925 0.76599997 -0.053722132 1.2535286e-38 265 280
0.022563647 0.75700003 -0.053090934 1.6224601e-38 337 280
0.023827799 0.755 -0.052950665 1.6406407e-38 338 280
0.025151566 0.755 -0.052950665 1.6129821e-38 339 280
0.026475333 0.755 -0.052950665 1.686772e-38 340 280
0.027799098 0.755 -0.052950665 1.6682968e-38 341 280
0.029122867 0.755 -0.052950665 1.6774445e-38 342 280
0.030446632 0.755 -0.052950665 1.6867001e-38 343 280
0.03172832 0.75400001 -0.052880533 1.7050665e-38 344 280
0.033050332 0.75400001 -0.052880533 1.7050665e-38 345 280
0.034372345 0.75400001 -0.052880533 1.704994e-38 346 280
0.035694357 0.75400001 -0.052880533 1.723433e-38 347 280
0.037016369 0.75400001 -0.052880533 1.695811e-38 348 280
0.038338386 0.75400001 -0.052880533 1.7050665e-38 349 280
0.039660402 0.75400001 -0.052880533 1.6957763e-38 350 280
0.040982414 0.75400001 -0.052880533 1.6865567e-38 351 280
0.042304426 0.75400001 -0.052880533 1.6865567e-38 352 280
0.043626439 0.75400001 -0.052880533 1.6404591e-38 353 280
0.044948451 0.75400001 -0.052880533 1.6403867e-38 354 280
0.046270464 0.75400001 -0.052880533 1.6035085e-38 355 280
0.047655597 0.755 -0.052950665 1.5666656e-38 356 280
0.048979364 0.755 -0.052950665 1.5390069e-38 357 280
0.050436385 0.75700003 -0.053090934 1.4837245e-38 358 280
0.051763661 0.75700003 -0.053090934 1.4468463e-38 359 280
0.053090934 0.75700003 -0.053090934 1.4008917e-38 360 280
0.054561976 0.759 -0.053231198 1.373197e-38 361 280
0.055892758 0.759 -0.053231198 1.3729456e-38 362 280
0.05722354 0.759 -0.053231198 1.3360673e-38 363 280
0.058708608 0.76099998 -0.053371463 1.308338e-38 364 280
0.060042895 0.76099998 -0.053371463 1.2530206e-38 365 280
0.061377186 0.76099998 -0.053371463 1.2436941e-38 366 280
0.062793881 0.76200002 -0.053441599 1.1975603e-38 367 280
0.064298242 0.764 -0.053581864 1.1148366e-38 368 280
0.06563779 0.764 -0.053581864 1.0595194e-38 369 280
0.06697733 0.764 -0.053581864 9.9498455e-39 370 280
0.068316877 0.764 -0.053581864 9.3966717e-39 371 280
0.069838762 0.76599997 -0.053722132 8.5701733e-39 372 280
0.071181826 0.76599997 -0.053722132 8.6623689e-39 373 280
0.072619557 0.76700002 -0.053792264 7.3748951e-39 374 280
-0.083378009 0.76700002 -0.055137072 1.096907e-38 258 281
-0.08203321 0.76700002 -0.055137072 9.4017458e-39 259 281
-0.080688395 0.76700002 -0.055137072 1.1427146e-38 260 281
-0.079343595 0.76700002 -0.055137072 1.2348742e-38 261 281
-0.077998787 0.76700002 -0.055137072 1.2262295e-38 262 281
-0.076554038 0.76599997 -0.055065181 1.2538523e-38 263 281
-0.075210981 0.76599997 -0.055065181 1.2905866e-38 264 281
-0.073867925 0.76599997 -0.055065181 1.3090258e-38 265 281
-0.072524875 0.76599997 -0.055065181 1.2170857e-38 266 281
0.018532733 0.755 -0.054274432 1.6963253e-38 334 281
0.0198565 0.755 -0.054274432 1.6041298e-38 335 281
0.021180267 0.755 -0.054274432 1.5946177e-38 336 281
0.022563647 0.75700003 -0.054418206 1.6130208e-38 337 281
0.023827799 0.755 -0.054274432 1.6774465e-38 338 281
0.025151566 0.755 -0.054274432 1.6682268e-38 339 281
0.026475333 0.755 -0.054274432 1.6774095e-38 340 281
0.027799098 0.755 -0.054274432 1.6774095e-38 341 281
0.029122867 0.755 -0.054274432 1.6774445e-38 342 281
0.030446632 0.755 -0.054274432 1.6867001e-38 343 281
0.03172832 0.75400001 -0.054202545 1.705031e-38 344 281
0.033050332 0.75400001 -0.054202545 1.705031e-38 345 281
0.034372345 0.75400001 -0.054202545 1.7050662e-38 346 281
0.035694357 0.75400001 -0.054202545 1.6958466e-38 347 281
0.037016369 0.75400001 -0.054202545 1.7049946e-38 348 281
0.038338386 0.75400001 -0.054202545 1.6957392e-38 349 281
0.039660402 0.75400001 -0.054202545 1.6865202e-38 350 281
0.040982414 0.75400001 -0.054202545 1.6865202e-38 351 281
0.042304426 0.75400001 -0.054202545 1.6679733e-38 352 281
0.043626439 0.75400001 -0.054202545 1.6587536e-38 353 281
0.044948451 0.75400001 -0.054202545 1.6126915e-38 354 281
0.046270464 0.75400001 -0.054202545 1.5849968e-38 355 281
0.04759248 0.75400001 -0.054202545 1.5665211e-38 356 281
0.048979364 0.755 -0.054274432 1.5204233e-38 357 281
0.050303131 0.755 -0.054274432 1.437662e-38 358 281
0.051626898 0.755 -0.054274432 1.4192229e-38 359 281
0.053090934 0.75700003 -0.054418206 1.4007479e-38 360 281
0.054418206 0.75700003 -0.054418206 1.354686e-38 361 281
0.055745479 0.75700003 -0.054418206 1.3453236e-38 362 281
0.057072755 0.75700003 -0.054418206 1.3176648e-38 363 281
0.058554318 0.759 -0.054561976 1.2714956e-38 364 281
0.059885096 0.759 -0.054561976 1.2345815e-38 365 281
0.061377186 0.76099998 -0.05470575 1.1885208e-38 366 281
0.06271147 0.76099998 -0.05470575 1.1424231e-38 367 281
0.064129919 0.76200002 -0.054777641 1.0778877e-38 368 281
0.06563779 0.764 -0.054921411 1.0317899e-38 369 281
0.06697733 0.764 -0.054921411 9.7640249e-39 370 281
0.068316877 0.764 -0.054921411 9.5796336e-39 371 281
0.069838762 0.76599997 -0.055065181 8.3868708e-39 372 281
0.07127475 0.76700002 -0.055137072 8.1102839e-39 373 281
-0.081926249 0.76599997 -0.056408234 1.0322994e-38 259 282
-0.080583192 0.76599997 -0.056408234 1.0784661e-38 260 282
-0.079343595 0.76700002 -0.056481879 1.1798813e-38 261 282
-0.077897087 0.76599997 -0.056408234 1.207755e-38 262 282
-0.076554038 0.76599997 -0.056408234 1.253817e-38 263 282
-0.075210981 0.76599997 -0.056408234 1.2998415e-38 264 282
-0.073867925 0.76599997 -0.056408234 1.3366839e-38 265 282
-0.072524875 0.76599997 -0.056408234 1.2814762e-38 266 282
-0.071181826 0.76599997 -0.056408234 1.2722567e-38 267 282
0.017208965 0.755 -0.055598196 1.6779955e-38 333 282
0.018532733 0.755 -0.055598196 1.6683756e-38 334 282
0.0198565 0.755 -0.055598196 1.5946191e-38 335 282
0.021180267 0.755 -0.055598196 1.6128375e-38 336 282
0.022563647 0.75700003 -0.055745479 1.6497158e-38 337 282
0.023827799 0.755 -0.055598196 1.6682615e-38 338 282
0.025151566 0.755 -0.055598196 1.6498584e-38 339 282
0.026475333 0.755 -0.055598196 1.6682971e-38 340 282
0.027799098 0.755 -0.055598196 1.6682971e-38 341 282
0.029084291 0.75400001 -0.055524562 1.6774445e-38 342 282
0.030406307 0.75400001 -0.055524562 1.6867001e-38 343 282
0.031644158 0.75199997 -0.055377278 1.705031e-38 344 282
0.032962665 0.75199997 -0.055377278 1.705031e-38 345 282
0.034281172 0.75199997 -0.055377278 1.6958113e-38 346 282
0.035599679 0.75199997 -0.055377278 1.6958113e-38 347 282
0.036918186 0.75199997 -0.055377278 1.6957394e-38 348 282
0.038236689 0.75199997 -0.055377278 1.6957394e-38 349 282
0.039555199 0.75199997 -0.055377278 1.6773e-38 350 282
0.040873703 0.75199997 -0.055377278 1.6680805e-38 351 282
0.04219221 0.75199997 -0.055377278 1.6312022e-38 352 282
0.04351072 0.75199997 -0.055377278 1.6127631e-38 353 282
0.044829223 0.75199997 -0.055377278 1.5850324e-38 354 282
0.046270464 0.75400001 -0.055524562 1.5481543e-38 355 282
0.04759248 0.75400001 -0.055524562 1.5204952e-38 356 282
0.048914492 0.75400001 -0.055524562 1.4743975e-38 357 282
0.050303131 0.755 -0.055598196 1.4376623e-38 358 282
0.051626898 0.755 -0.055598196 1.4099677e-38 359 282
0.052950665 0.755 -0.055598196 1.3456106e-38 360 282
0.054418206 0.75700003 -0.055745479 1.2995488e-38 361 282
0.055745479 0.75700003 -0.055745479 1.2901506e-38 362 282
0.057072755 0.75700003 -0.055745479 1.2532724e-38 363 282
0.058554318 0.759 -0.055892758 1.2529853e-38 364 282
0.059885096 0.759 -0.055892758 1.2069234e-38 365 282
0.061377186 0.76099998 -0.056040037 1.1516427e-38 366 282
0.06271147 0.76099998 -0.056040037 1.1147284e-38 367 282
0.064129919 0.76200002 -0.056113683 1.0501217e-38 368 282
0.06563779 0.764 -0.056260962 1.004024e-38 369 282
0.06697733 0.764 -0.056260962 9.3966871e-39 370 282
0.068495713 0.76599997 -0.056408234 9.3044915e-39 371 282
0.069838762 0.76599997 -0.056408234 8.294678e-39 372 282
-0.081926249 0.76599997 -0.057751291 1.161376e-38 259 283
-0.080583192 0.76599997 -0.057751291 1.1612649e-38 260 283
-0.079240143 0.76599997 -0.057751291 1.1888875e-38 261 283
-0.077897087 0.76599997 -0.057751291 1.2260144e-38 262 283
-0.076554038 0.76599997 -0.057751291 1.2813318e-38 263 283
-0.075014614 0.764 -0.057600506 1.2998412e-38 264 283
-0.073675066 0.764 -0.057600506 1.3182804e-38 265 283
-0.072335519 0.764 -0.057600506 1.309133e-38 266 283
-0.070995972 0.764 -0.057600506 1.309133e-38 267 283
-0.069656424 0.764 -0.057600506 1.2356678e-38 268 283
-0.068495713 0.76599997 -0.057751291 1.3278634e-38 269 283
0.014542146 0.75400001 -0.056846574 1.9172744e-38 331 283
0.01586416 0.75400001 -0.056846574 1.5856537e-38 332 283
0.017186172 0.75400001 -0.056846574 1.557995e-38 333 283
0.018508185 0.75400001 -0.056846574 1.6221294e-38 334 283
0.0198565 0.755 -0.056921966 1.6405685e-38 335 283
0.021180267 0.755 -0.056921966 1.6589338e-38 336 283
0.022504034 0.755 -0.056921966 1.6681533e-38 337 283
0.023827799 0.755 -0.056921966 1.6682252e-38 338 283
0.025151566 0.755 -0.056921966 1.6774448e-38 339 283
0.026475333 0.755 -0.056921966 1.6774445e-38 340 283
0.027762281 0.75400001 -0.056846574 1.6774445e-38 341 283
0.029084291 0.75400001 -0.056846574 1.704959e-38 342 283
0.030406307 0.75400001 -0.056846574 1.704959e-38 343 283
0.031644158 0.75199997 -0.056695782 1.6958113e-38 344 283
0.032962665 0.75199997 -0.056695782 1.6958113e-38 345 283
0.034281172 0.75199997 -0.056695782 1.6958116e-38 346 283
0.035505001 0.75 -0.056544997 1.6958116e-38 347 283
0.036819998 0.75 -0.056544997 1.6865199e-38 348 283
0.038135 0.75 -0.056544997 1.6773003e-38 349 283
0.039449997 0.75 -0.056544997 1.6588605e-38 350 283
0.040764999 0.75 -0.056544997 1.6312378e-38 351 283
0.04208 0.75 -0.056544997 1.6127987e-38 352 283
0.04351072 0.75199997 -0.056695782 1.5667009e-38 353 283
0.044829223 0.75199997 -0.056695782 1.5389344e-38 354 283
0.04614773 0.75199997 -0.056695782 1.5204952e-38 355 283
0.04759248 0.75400001 -0.056846574 1.4836526e-38 356 283
0.048914492 0.75400001 -0.056846574 1.4559579e-38 357 283
0.050236505 0.75400001 -0.056846574 1.419151e-38 358 283
0.051626898 0.755 -0.056921966 1.3914563e-38 359 283
0.052950665 0.755 -0.056921966 1.3270996e-38 360 283
0.054274432 0.755 -0.056921966 1.2901853e-38 361 283
0.055745479 0.75700003 -0.057072755 1.2716037e-38 362 283
0.057072755 0.75700003 -0.057072755 1.2347613e-38 363 283
0.058400027 0.75700003 -0.057072755 1.2069598e-38 364 283
0.059885096 0.759 -0.05722354 1.179301e-38 365 283
0.061215881 0.759 -0.05722354 1.1148366e-38 366 283
0.062546656 0.759 -0.05722354 1.0779584e-38 367 283
0.064045757 0.76099998 -0.057374325 1.0133158e-38 368 283
0.06563779 0.764 -0.057600506 9.7643752e-39 369 283
0.06697733 0.764 -0.057600506 9.121189e-39 370 283
