# .PCD v.7 - Point Cloud Data file format
FIELDS x y z rgb imX imY
SIZE 4 4 4 4 4 4
TYPE F F F F F F
COUNT 1 1 1 1 1 1
WIDTH 831
HEIGHT 1
VIEWPOINT 0 0 0 1 0 0 0
POINTS 831
DATA ascii
-0.085048936 0.70300001 -0.04437336 1.3642334e-38 251 276
-0.083577886 0.70099998 -0.044247117 1.4101844e-38 252 276
-0.081996389 0.69800001 -0.04405776 1.3917813e-38 253 276
-0.080541112 0.69599998 -0.043931518 1.4101831e-38 254 276
-0.079092868 0.69400001 -0.043805279 1.4101831e-38 255 276
-0.077539407 0.69099998 -0.043615919 1.4101478e-38 256 276
-0.076217398 0.69 -0.043552797 1.4101478e-38 257 276
-0.074790187 0.68800002 -0.043426562 1.3826333e-38 258 276
-0.073476933 0.68699998 -0.043363437 1.3734137e-38 259 276
-0.07227239 0.68699998 -0.043363437 1.4287311e-38 260 276
-0.070964411 0.68599999 -0.043300316 1.4287311e-38 261 276
-0.069456547 0.68300003 -0.043110959 1.4564254e-38 262 276
-0.068259016 0.68300003 -0.043110959 1.4840842e-38 263 276
-0.0669633 0.68199998 -0.043047838 1.5392933e-38 264 276
-0.065767527 0.68199998 -0.043047838 1.566988e-38 265 276
-0.064382397 0.68000001 -0.042921599 1.5854268e-38 266 276
-0.063097201 0.67900002 -0.042858478 1.6223051e-38 267 276
-0.061815511 0.67799997 -0.042795356 1.6590392e-38 268 276
-0.06044792 0.676 -0.042669121 1.6682587e-38 269 276
-0.059262663 0.676 -0.042669121 1.6590036e-38 270 276
-0.057991501 0.67500001 -0.042606 1.668259e-38 271 276
-0.056808002 0.67500001 -0.042606 1.6866618e-38 272 276
-0.055542093 0.67400002 -0.042542879 1.6866618e-38 273 276
-0.054360349 0.67400002 -0.042542879 1.7143209e-38 274 276
-0.053178601 0.67400002 -0.042542879 1.7143209e-38 275 276
-0.051842555 0.67199999 -0.042416636 1.7235057e-38 276 276
-0.050664317 0.67199999 -0.042416636 1.7511284e-38 277 276
-0.049486078 0.67199999 -0.042416636 1.7510934e-38 278 276
-0.04830784 0.67199999 -0.042416636 1.760313e-38 279 276
-0.047059465 0.671 -0.042353518 1.7694609e-38 280 276
-0.045882981 0.671 -0.042353518 1.7786806e-38 281 276
-0.044506609 0.66799998 -0.042164158 1.7604566e-38 282 276
-0.043335386 0.66799998 -0.042164158 1.7788597e-38 283 276
-0.042101037 0.667 -0.042101037 1.8155216e-38 284 276
-0.040931564 0.667 -0.042101037 1.8155216e-38 285 276
-0.039762091 0.667 -0.042101037 1.7973339e-38 286 276
-0.038592618 0.667 -0.042101037 1.7973339e-38 287 276
-0.037423145 0.667 -0.042101037 1.8065893e-38 288 276
-0.036253672 0.667 -0.042101037 1.8065893e-38 289 276
-0.035084199 0.667 -0.042101037 1.8341404e-38 290 276
-0.033914726 0.667 -0.042101037 1.8433601e-38 291 276
-0.032745253 0.667 -0.042101037 1.852544e-38 292 276
-0.03157578 0.667 -0.042101037 1.8433245e-38 293 276
-0.030451892 0.66799998 -0.042164158 1.8525446e-38 294 276
-0.029236831 0.667 -0.042101037 1.8617642e-38 295 276
-0.028025279 0.66600001 -0.042037919 1.8617642e-38 296 276
-0.026857559 0.66600001 -0.042037919 1.8801673e-38 297 276
-0.02568984 0.66600001 -0.042037919 1.880167e-38 298 276
-0.02452212 0.66600001 -0.042037919 1.880167e-38 299 276
-0.023354398 0.66600001 -0.042037919 1.8802026e-38 300 276
-0.02218668 0.66600001 -0.042037919 1.8802026e-38 301 276
-0.020955838 0.66399997 -0.041911677 1.880167e-38 302 276
-0.019791625 0.66399997 -0.041911677 1.880167e-38 303 276
-0.018599359 0.66299999 -0.041848559 1.8618358e-38 304 276
-0.017436899 0.66299999 -0.041848559 1.8618358e-38 305 276
-0.016274439 0.66299999 -0.041848559 1.8618358e-38 306 276
-0.015089186 0.662 -0.041785441 1.8618358e-38 307 276
-0.01392848 0.662 -0.041785441 1.861836e-38 308 276
-0.012767773 0.662 -0.041785441 1.861836e-38 309 276
-0.011607066 0.662 -0.041785441 1.8435048e-38 310 276
-0.01043058 0.66100001 -0.04172232 1.8435048e-38 311 276
-0.0092716264 0.66100001 -0.04172232 1.8618714e-38 312 276
-0.0081126727 0.66100001 -0.04172232 1.8618714e-38 313 276
-0.00695372 0.66100001 -0.04172232 1.8526515e-38 314 276
-0.0057947668 0.66100001 -0.04172232 1.8526515e-38 315 276
-0.0046358132 0.66100001 -0.04172232 1.8526159e-38 316 276
-0.00347686 0.66100001 -0.04172232 1.8526159e-38 317 276
-0.0023179066 0.66100001 -0.04172232 1.8342499e-38 318 276
-0.0011589533 0.66100001 -0.04172232 1.8342499e-38 319 276
0 0.66100001 -0.04172232 1.8250319e-38 320 276
0.0011589533 0.66100001 -0.04172232 1.8342515e-38 321 276
0.0023179066 0.66100001 -0.04172232 1.834144e-38 322 276
-0.088872954 0.704 -0.045670826 1.336688e-38 248 277
-0.087638609 0.704 -0.045670826 1.3274684e-38 249 277
-0.086404264 0.704 -0.045670826 1.3550511e-38 250 277
-0.085048936 0.70300001 -0.04560595 1.3550511e-38 251 277
-0.083577886 0.70099998 -0.045476202 1.3918181e-38 252 277
-0.081996389 0.69800001 -0.045281585 1.3825986e-38 253 277
-0.080541112 0.69599998 -0.045151837 1.41022e-38 254 277
-0.079092868 0.69400001 -0.045022093 1.391781e-38 255 277
-0.077539407 0.69099998 -0.044827472 1.3918166e-38 256 277
-0.076217398 0.69 -0.0447626 1.382597e-38 257 277
-0.074790187 0.68800002 -0.044632856 1.3734137e-38 258 277
-0.073476933 0.68699998 -0.044567976 1.3734137e-38 259 277
-0.072167195 0.68599999 -0.044503104 1.3735216e-38 260 277
-0.070757523 0.68400002 -0.04437336 1.3735216e-38 261 277
-0.069456547 0.68300003 -0.044308487 1.4103277e-38 262 277
-0.068159081 0.68199998 -0.044243611 1.4103277e-38 263 277
-0.0669633 0.68199998 -0.044243611 1.4379857e-38 264 277
-0.065574668 0.68000001 -0.044113863 1.4379857e-38 265 277
-0.064382397 0.68000001 -0.044113863 1.447169e-38 266 277
-0.063097201 0.67900002 -0.044048995 1.5117059e-38 267 277
-0.061815511 0.67799997 -0.043984115 1.5301465e-38 268 277
-0.06044792 0.676 -0.043854371 1.5762441e-38 269 277
-0.059262663 0.676 -0.043854371 1.6130149e-38 270 277
-0.057991501 0.67500001 -0.043789499 1.6222345e-38 271 277
-0.056808002 0.67500001 -0.043789499 1.6498559e-38 272 277
-0.055542093 0.67400002 -0.043724626 1.6590754e-38 273 277
-0.054199036 0.67199999 -0.043594878 1.6683309e-38 274 277
-0.053020798 0.67199999 -0.043594878 1.6775504e-38 275 277
-0.051765412 0.671 -0.043530006 1.6867347e-38 276 277
-0.050588924 0.671 -0.043530006 1.6959544e-38 277 277
-0.049412437 0.671 -0.043530006 1.695955e-38 278 277
-0.048235953 0.671 -0.043530006 1.7235776e-38 279 277
-0.046849065 0.66799998 -0.043335386 1.714323e-38 280 277
-0.045609459 0.667 -0.04327051 1.7235426e-38 281 277
-0.044439986 0.667 -0.04327051 1.7327619e-38 282 277
-0.04327051 0.667 -0.04327051 1.7327619e-38 283 277
-0.042101037 0.667 -0.04327051 1.7327975e-38 284 277
-0.040931564 0.667 -0.04327051 1.742017e-38 285 277
-0.039762091 0.667 -0.04327051 1.7604919e-38 286 277
-0.038592618 0.667 -0.04327051 1.7604919e-38 287 277
-0.037423145 0.667 -0.04327051 1.7604916e-38 288 277
-0.03619932 0.66600001 -0.043205637 1.7788947e-38 289 277
-0.035031598 0.66600001 -0.043205637 1.778895e-38 290 277
-0.03386388 0.66600001 -0.043205637 1.7881146e-38 291 277
-0.032745253 0.667 -0.04327051 1.7974063e-38 292 277
-0.03157578 0.667 -0.04327051 1.7974063e-38 293 277
-0.030406304 0.667 -0.04327051 1.806554e-38 294 277
-0.029236831 0.667 -0.04327051 1.8157735e-38 295 277
-0.028025279 0.66600001 -0.043205637 1.834105e-38 296 277
-0.026776904 0.66399997 -0.043075889 1.8433248e-38 297 277
-0.025612691 0.66399997 -0.043075889 1.8433248e-38 298 277
-0.024448479 0.66399997 -0.043075889 1.8525443e-38 299 277
-0.023284266 0.66399997 -0.043075889 1.8525443e-38 300 277
-0.022120051 0.66399997 -0.043075889 1.8525443e-38 301 277
-0.020924279 0.66299999 -0.043011017 1.8617642e-38 302 277
-0.019761819 0.66299999 -0.043011017 1.8617642e-38 303 277
-0.018599359 0.66299999 -0.043011017 1.861836e-38 304 277
-0.017436899 0.66299999 -0.043011017 1.8526165e-38 305 277
-0.016249891 0.662 -0.042946145 1.8526165e-38 306 277
-0.015066394 0.66100001 -0.042881273 1.8526165e-38 307 277
-0.01390744 0.66100001 -0.042881273 1.8525809e-38 308 277
-0.012748486 0.66100001 -0.042881273 1.8525809e-38 309 277
-0.011589534 0.66100001 -0.042881273 1.8618005e-38 310 277
-0.01043058 0.66100001 -0.042881273 1.8525809e-38 311 277
-0.0092716264 0.66100001 -0.042881273 1.8618358e-38 312 277
-0.0081126727 0.66100001 -0.042881273 1.8618358e-38 313 277
-0.00695372 0.66100001 -0.042881273 1.8618358e-38 314 277
-0.0057947668 0.66100001 -0.042881273 1.8526162e-38 315 277
-0.0046358132 0.66100001 -0.042881273 1.861836e-38 316 277
-0.0034663398 0.65899998 -0.042751525 1.861836e-38 317 277
-0.0023108933 0.65899998 -0.042751525 1.8342499e-38 318 277
-0.0011554466 0.65899998 -0.042751525 1.8342499e-38 319 277
0 0.65899998 -0.042751525 1.8066638e-38 320 277
0.0011554466 0.65899998 -0.042751525 1.825067e-38 321 277
0.0023108933 0.65899998 -0.042751525 1.8250301e-38 322 277
0.0034663398 0.65899998 -0.042751525 1.8158105e-38 323 277
-0.087514125 0.70300001 -0.046838548 1.2999186e-38 249 278
-0.086281531 0.70300001 -0.046838548 1.3275372e-38 250 278
-0.085048936 0.70300001 -0.046838548 1.3183176e-38 251 278
-0.083458662 0.69999999 -0.046638668 1.3641967e-38 252 278
-0.081996389 0.69800001 -0.046505414 1.3641967e-38 253 278
-0.080656841 0.69700003 -0.046438783 1.3825983e-38 254 278
-0.079320796 0.69599998 -0.046372157 1.3825983e-38 255 278
-0.077876054 0.69400001 -0.046238903 1.3918163e-38 256 278
-0.076217398 0.69 -0.045972396 1.3825967e-38 257 278
-0.075007595 0.69 -0.045972396 1.3825965e-38 258 278
-0.073583893 0.68800002 -0.045839146 1.3733769e-38 259 278
-0.072167195 0.68599999 -0.045705888 1.3733416e-38 260 278
-0.070757523 0.68400002 -0.045572639 1.3733416e-38 261 278
-0.069354847 0.68199998 -0.045439381 1.3643024e-38 262 278
-0.068159081 0.68199998 -0.045439381 1.3550469e-38 263 278
-0.066766933 0.68000001 -0.045306131 1.3826333e-38 264 278
-0.065478235 0.67900002 -0.045239504 1.3641942e-38 265 278
-0.064287722 0.67900002 -0.045239504 1.3090197e-38 266 278
-0.063004278 0.67799997 -0.045172878 1.3366784e-38 267 278
-0.061633173 0.676 -0.045039624 1.419656e-38 268 278
-0.06044792 0.676 -0.045039624 1.484193e-38 269 278
-0.059175 0.67500001 -0.044972997 1.5670621e-38 270 278
-0.057905588 0.67400002 -0.044906374 1.5670621e-38 271 278
-0.056723841 0.67400002 -0.044906374 1.6221978e-38 272 278
-0.055377278 0.67199999 -0.044773117 1.6314175e-38 273 278
-0.054118387 0.671 -0.044706494 1.6131937e-38 274 278
-0.052941896 0.671 -0.044706494 1.6315968e-38 275 278
-0.051765412 0.671 -0.044706494 1.6499643e-38 276 278
-0.050513536 0.67000002 -0.044639867 1.6683675e-38 277 278
-0.04919152 0.66799998 -0.044506609 1.6775517e-38 278 278
-0.048020288 0.66799998 -0.044506609 1.6775517e-38 279 278
-0.046778932 0.667 -0.044439986 1.6866645e-38 280 278
-0.045609459 0.667 -0.044439986 1.6958841e-38 281 278
-0.044439986 0.667 -0.044439986 1.6958843e-38 282 278
-0.04327051 0.667 -0.044439986 1.7142874e-38 283 278
-0.042037919 0.66600001 -0.04437336 1.6959562e-38 284 278
-0.040870197 0.66600001 -0.04437336 1.6959562e-38 285 278
-0.039702479 0.66600001 -0.04437336 1.7144309e-38 286 278
-0.03853476 0.66600001 -0.04437336 1.7144309e-38 287 278
-0.037367038 0.66600001 -0.04437336 1.7144307e-38 288 278
-0.03619932 0.66600001 -0.04437336 1.7144307e-38 289 278
-0.035031598 0.66600001 -0.04437336 1.7144309e-38 290 278
-0.03386388 0.66600001 -0.04437336 1.7328341e-38 291 278
-0.032696161 0.66600001 -0.04437336 1.7420538e-38 292 278
-0.031528439 0.66600001 -0.04437336 1.7512733e-38 293 278
-0.030360719 0.66600001 -0.04437336 1.7604563e-38 294 278
-0.029192999 0.66600001 -0.04437336 1.788079e-38 295 278
-0.027899038 0.66299999 -0.044173479 1.7697483e-38 296 278
-0.026736578 0.66299999 -0.044173479 1.797371e-38 297 278
-0.025535546 0.662 -0.044106852 1.7790042e-38 298 278
-0.024374841 0.662 -0.044106852 1.7882239e-38 299 278
-0.0232492 0.66299999 -0.044173479 1.8433248e-38 300 278
-0.02208674 0.66299999 -0.044173479 1.834105e-38 301 278
-0.020892721 0.662 -0.044106852 1.8249582e-38 302 278
-0.019732011 0.662 -0.044106852 1.8618005e-38 303 278
-0.018571306 0.662 -0.044106852 1.8526165e-38 304 278
-0.0173843 0.66100001 -0.044040225 1.8433969e-38 305 278
-0.016225345 0.66100001 -0.044040225 1.8433613e-38 306 278
-0.015020805 0.65899998 -0.043906972 1.8433613e-38 307 278
-0.013865359 0.65899998 -0.043906972 1.8433263e-38 308 278
-0.012709912 0.65899998 -0.043906972 1.8433263e-38 309 278
-0.011589534 0.66100001 -0.044040225 1.825067e-38 310 278
-0.010399019 0.65899998 -0.043906972 1.825067e-38 311 278
-0.0092435731 0.65899998 -0.043906972 1.8342146e-38 312 278
-0.0080881258 0.65899998 -0.043906972 1.8342146e-38 313 278
-0.00695372 0.66100001 -0.044040225 1.8342146e-38 314 278
-0.0057947668 0.66100001 -0.044040225 1.8342146e-38 315 278
-0.0046358132 0.66100001 -0.044040225 1.8342144e-38 316 278
-0.0034663398 0.65899998 -0.043906972 1.8434339e-38 317 278
-0.0023108933 0.65899998 -0.043906972 1.8342144e-38 318 278
-0.0011554466 0.65899998 -0.043906972 1.8249948e-38 319 278
0 0.65899998 -0.043906972 1.8157752e-38 320 278
0.0011554466 0.65899998 -0.043906972 1.8157752e-38 321 278
0.0023108933 0.65899998 -0.043906972 1.7974793e-38 322 278
0.0034663398 0.65899998 -0.043906972 1.7974793e-38 323 278
0.0046358132 0.66100001 -0.044040225 1.8158105e-38 324 278
0.0057947668 0.66100001 -0.044040225 1.7973354e-38 325 278
0.00695372 0.66100001 -0.044040225 1.7973004e-38 326 278
0.0080881258 0.65899998 -0.043906972 1.8065201e-38 327 278
0.0092716264 0.66100001 -0.044040225 1.7789344e-38 328 278
-0.086281531 0.70300001 -0.048071139 1.3367235e-38 250 279
-0.084806979 0.70099998 -0.047934376 1.3182485e-38 251 279
-0.083458662 0.69999999 -0.047865998 1.3641984e-38 252 279
-0.081996389 0.69800001 -0.047729239 1.3549787e-38 253 279
-0.080656841 0.69700003 -0.047660861 1.3917106e-38 254 279
-0.079320796 0.69599998 -0.047592476 1.4101496e-38 255 279
-0.077876054 0.69400001 -0.047455717 1.3918532e-38 256 279
-0.076217398 0.69 -0.047182199 1.3826336e-38 257 279
-0.075007595 0.69 -0.047182199 1.3825967e-38 258 279
-0.073583893 0.68800002 -0.047045439 1.3825967e-38 259 279
-0.07227239 0.68699998 -0.046977058 1.3733416e-38 260 279
-0.070757523 0.68400002 -0.046771921 1.3733416e-38 261 279
-0.069354847 0.68199998 -0.046635158 1.3640867e-38 262 279
-0.068159081 0.68199998 -0.046635158 1.3640867e-38 263 279
-0.066766933 0.68000001 -0.046498399 1.3640873e-38 264 279
-0.065381795 0.67799997 -0.046361636 1.327209e-38 265 279
-0.06419304 0.67799997 -0.046361636 1.1522884e-38 266 279
-0.063004278 0.67799997 -0.046361636 1.1246658e-38 267 279
-0.061633173 0.676 -0.046224877 1.2262254e-38 268 279
-0.06044792 0.676 -0.046224877 1.3552993e-38 269 279
-0.059175 0.67500001 -0.0461565 1.4564997e-38 270 279
-0.057905588 0.67400002 -0.046088122 1.4933778e-38 271 279
-0.056723841 0.67400002 -0.046088122 1.5485864e-38 272 279
-0.055377278 0.67199999 -0.045951359 1.5946484e-38 273 279
-0.054118387 0.671 -0.045882981 1.6221978e-38 274 279
-0.052941896 0.671 -0.045882981 1.6314175e-38 275 279
-0.051688269 0.67000002 -0.0458146 1.659111e-38 276 279
-0.050513536 0.67000002 -0.0458146 1.659111e-38 277 279
-0.04919152 0.66799998 -0.045677837 1.6866618e-38 278 279
-0.047948405 0.667 -0.045609459 1.6958814e-38 279 279
-0.046778932 0.667 -0.045609459 1.6958464e-38 280 279
-0.045609459 0.667 -0.045609459 1.6866268e-38 281 279
-0.04437336 0.66600001 -0.045541082 1.6958464e-38 282 279
-0.043205637 0.66600001 -0.045541082 1.6958464e-38 283 279
-0.042037919 0.66600001 -0.045541082 1.6958819e-38 284 279
-0.040870197 0.66600001 -0.045541082 1.6958819e-38 285 279
-0.039702479 0.66600001 -0.045541082 1.7051015e-38 286 279
-0.03853476 0.66600001 -0.045541082 1.7051015e-38 287 279
-0.037254825 0.66399997 -0.045404319 1.7143215e-38 288 279
-0.036090612 0.66399997 -0.045404319 1.7143215e-38 289 279
-0.0349264 0.66399997 -0.045404319 1.7326174e-38 290 279
-0.033762183 0.66399997 -0.045404319 1.7326174e-38 291 279
-0.03259797 0.66399997 -0.045404319 1.7235779e-38 292 279
-0.031433757 0.66399997 -0.045404319 1.7235779e-38 293 279
-0.030269546 0.66399997 -0.045404319 1.7235776e-38 294 279
-0.029017664 0.662 -0.04526756 1.7420168e-38 295 279
-0.027856959 0.662 -0.04526756 1.760348e-38 296 279
-0.026696252 0.662 -0.04526756 1.7511284e-38 297 279
-0.025535546 0.662 -0.04526756 1.7512366e-38 298 279
-0.024374841 0.662 -0.04526756 1.7512366e-38 299 279
-0.023214132 0.662 -0.04526756 1.7603483e-38 300 279
-0.022053426 0.662 -0.04526756 1.7787875e-38 301 279
-0.02086116 0.66100001 -0.045199182 1.7329421e-38 302 279
-0.019702207 0.66100001 -0.045199182 1.7605648e-38 303 279
-0.018487146 0.65899998 -0.045062415 1.7880795e-38 304 279
-0.017305398 0.65799999 -0.044994038 1.8065187e-38 305 279
-0.016151706 0.65799999 -0.044994038 1.8339979e-38 306 279
-0.015020805 0.65899998 -0.045062415 1.8432176e-38 307 279
-0.013865359 0.65899998 -0.045062415 1.8157749e-38 308 279
-0.012709912 0.65899998 -0.045062415 1.8065554e-38 309 279
-0.011554466 0.65899998 -0.045062415 1.8065554e-38 310 279
-0.010399019 0.65899998 -0.045062415 1.8065554e-38 311 279
-0.0092435731 0.65899998 -0.045062415 1.8249585e-38 312 279
-0.0080881258 0.65899998 -0.045062415 1.8249585e-38 313 279
-0.0069326796 0.65899998 -0.045062415 1.8249585e-38 314 279
-0.0057947668 0.66100001 -0.045199182 1.8525812e-38 315 279
-0.0046217865 0.65899998 -0.045062415 1.8342497e-38 316 279
-0.0034663398 0.65899998 -0.045062415 1.8250301e-38 317 279
-0.0023108933 0.65899998 -0.045062415 1.8432897e-38 318 279
-0.0011554466 0.65899998 -0.045062415 1.8340702e-38 319 279
0 0.65899998 -0.045062415 1.8157031e-38 320 279
0.0011554466 0.65899998 -0.045062415 1.8157031e-38 321 279
0.0023108933 0.65899998 -0.045062415 1.8157387e-38 322 279
0.0034663398 0.65899998 -0.045062415 1.8157387e-38 323 279
0.0046217865 0.65899998 -0.045062415 1.7973354e-38 324 279
0.0057947668 0.66100001 -0.045199182 1.7789323e-38 325 279
0.0069326796 0.65899998 -0.045062415 1.7880445e-38 326 279
0.0080881258 0.65899998 -0.045062415 1.7880445e-38 327 279
0.0092716264 0.66100001 -0.045199182 1.7604228e-38 328 279
0.01043058 0.66100001 -0.045199182 1.7604228e-38 329 279
0.011589534 0.66100001 -0.045199182 1.7329083e-38 330 279
0.012748486 0.66100001 -0.045199182 1.7329083e-38 331 279
0.013865359 0.65899998 -0.045062415 1.7236885e-38 332 279
0.015066394 0.66100001 -0.045199182 1.6960657e-38 333 279
0.016225345 0.66100001 -0.045199182 1.7236169e-38 334 279
0.017436899 0.66299999 -0.045335937 1.7236169e-38 335 279
-0.084806979 0.70099998 -0.049163464 1.3182485e-38 251 280
-0.083458662 0.69999999 -0.049093332 1.3182453e-38 252 280
-0.081996389 0.69800001 -0.048953064 1.3090258e-38 253 280
-0.080656841 0.69700003 -0.048882935 1.3550134e-38 254 280
-0.079320796 0.69599998 -0.048812799 1.3550134e-38 255 280
-0.077876054 0.69400001 -0.048672531 1.3642668e-38 256 280
-0.076327853 0.69099998 -0.04846213 1.3642668e-38 257 280
-0.075007595 0.69 -0.048391998 1.400928e-38 258 280
-0.0737978 0.69 -0.048391998 1.400928e-38 259 280
-0.0723776 0.68800002 -0.048251733 1.3733772e-38 260 280
-0.070964411 0.68599999 -0.048111461 1.3733772e-38 261 280
-0.069354847 0.68199998 -0.047830928 1.3641223e-38 262 280
-0.068159081 0.68199998 -0.047830928 1.3641223e-38 263 280
-0.066766933 0.68000001 -0.047690667 1.3272812e-38 264 280
-0.065381795 0.67799997 -0.047550395 1.3088062e-38 265 280
-0.06419304 0.67799997 -0.047550395 1.2166115e-38 266 280
-0.062818423 0.676 -0.047410134 1.142855e-38 267 280
-0.061633173 0.676 -0.047410134 1.1801291e-38 268 280
-0.060358498 0.67500001 -0.047339998 1.2631054e-38 269 280
-0.059087332 0.67400002 -0.047269866 1.3919627e-38 270 280
-0.057733759 0.67199999 -0.047129598 1.4288408e-38 271 280
-0.056555521 0.67199999 -0.047129598 1.4747943e-38 272 280
-0.055294871 0.671 -0.047059465 1.520892e-38 273 280
-0.054118387 0.671 -0.047059465 1.5394382e-38 274 280
-0.052863002 0.67000002 -0.046989333 1.5671327e-38 275 280
-0.051688269 0.67000002 -0.046989333 1.6131934e-38 276 280
-0.050362743 0.66799998 -0.046849065 1.6315965e-38 277 280
-0.04919152 0.66799998 -0.046849065 1.6315612e-38 278 280
-0.047948405 0.667 -0.046778932 1.6407808e-38 279 280
-0.046778932 0.667 -0.046778932 1.6498934e-38 280 280
-0.045541082 0.66600001 -0.046708796 1.6498934e-38 281 280
-0.04437336 0.66600001 -0.046708796 1.6682603e-38 282 280
-0.043205637 0.66600001 -0.046708796 1.6682603e-38 283 280
-0.042037919 0.66600001 -0.046708796 1.66826e-38 284 280
-0.040870197 0.66600001 -0.046708796 1.6590404e-38 285 280
-0.039583251 0.66399997 -0.046568532 1.6407814e-38 286 280
-0.038419038 0.66399997 -0.046568532 1.6407814e-38 287 280
-0.037254825 0.66399997 -0.046568532 1.6683324e-38 288 280
-0.036090612 0.66399997 -0.046568532 1.6498934e-38 289 280
-0.034873798 0.66299999 -0.046498399 1.6682255e-38 290 280
-0.033711337 0.66299999 -0.046498399 1.6774451e-38 291 280
-0.032499783 0.662 -0.046428263 1.6774465e-38 292 280
-0.031339079 0.662 -0.046428263 1.686666e-38 293 280
-0.030178372 0.662 -0.046428263 1.6866663e-38 294 280
-0.029017664 0.662 -0.046428263 1.6866663e-38 295 280
-0.027856959 0.662 -0.046428263 1.686666e-38 296 280
-0.026696252 0.662 -0.046428263 1.686666e-38 297 280
-0.025496973 0.66100001 -0.046358135 1.668407e-38 298 280
-0.02433802 0.66100001 -0.046358135 1.6591515e-38 299 280
-0.023214132 0.662 -0.046428263 1.6775909e-38 300 280
-0.022053426 0.662 -0.046428263 1.6683714e-38 301 280
-0.020798039 0.65899998 -0.046217863 1.6776628e-38 302 280
-0.019642593 0.65899998 -0.046217863 1.6776628e-38 303 280
-0.018459093 0.65799999 -0.04614773 1.7144678e-38 304 280
-0.0172791 0.65700001 -0.046077598 1.7236875e-38 305 280
-0.01612716 0.65700001 -0.046077598 1.7604566e-38 306 280
-0.014998012 0.65799999 -0.04614773 1.7788597e-38 307 280
-0.01384432 0.65799999 -0.04614773 1.7605285e-38 308 280
-0.012690626 0.65799999 -0.04614773 1.7605285e-38 309 280
-0.011554466 0.65899998 -0.046217863 1.7604932e-38 310 280
-0.010399019 0.65899998 -0.046217863 1.7604932e-38 311 280
-0.0092435731 0.65899998 -0.046217863 1.769713e-38 312 280
-0.0080881258 0.65899998 -0.046217863 1.769713e-38 313 280
-0.0069326796 0.65899998 -0.046217863 1.7972638e-38 314 280
-0.0057772328 0.65899998 -0.046217863 1.8064834e-38 315 280
-0.0046217865 0.65899998 -0.046217863 1.7974437e-38 316 280
-0.0034610799 0.65799999 -0.04614773 1.7697849e-38 317 280
-0.0023038799 0.65700001 -0.046077598 1.7788975e-38 318 280
-0.00115194 0.65700001 -0.046077598 1.7788975e-38 319 280
0 0.65700001 -0.046077598 1.7788622e-38 320 280
0.0011536933 0.65799999 -0.04614773 1.7788622e-38 321 280
0.0023108933 0.65899998 -0.046217863 1.751383e-38 322 280
0.0034663398 0.65899998 -0.046217863 1.7421635e-38 323 280
0.0046217865 0.65899998 -0.046217863 1.7329434e-38 324 280
0.0057772328 0.65899998 -0.046217863 1.7237238e-38 325 280
0.0069326796 0.65899998 -0.046217863 1.732872e-38 326 280
0.0080881258 0.65899998 -0.046217863 1.7236166e-38 327 280
0.0092435731 0.65899998 -0.046217863 1.7052506e-38 328 280
0.010399019 0.65899998 -0.046217863 1.7052506e-38 329 280
0.011554466 0.65899998 -0.046217863 1.6777358e-38 330 280
0.012709912 0.65899998 -0.046217863 1.6777358e-38 331 280
0.013865359 0.65899998 -0.046217863 1.6868831e-38 332 280
0.015066394 0.66100001 -0.046358135 1.6868831e-38 333 280
0.016225345 0.66100001 -0.046358135 1.6591518e-38 334 280
0.017436899 0.66299999 -0.046498399 1.6499323e-38 335 280
0.018599359 0.66299999 -0.046498399 1.6131615e-38 336 280
0.020955838 0.66399997 -0.046568532 1.5853956e-38 338 280
0.022120051 0.66399997 -0.046568532 1.5946152e-38 339 280
0.023354398 0.66600001 -0.046708796 1.5946152e-38 340 280
0.02452212 0.66600001 -0.046708796 1.5669566e-38 341 280
-0.083458662 0.69999999 -0.050320663 1.299917e-38 252 281
-0.081878915 0.69700003 -0.050105009 1.2630747e-38 253 281
-0.080541112 0.69599998 -0.050033119 1.33654e-38 254 281
-0.079092868 0.69400001 -0.049889345 1.3549431e-38 255 281
-0.077539407 0.69099998 -0.049673684 1.364232e-38 256 281
-0.076217398 0.69 -0.049601797 1.3734516e-38 257 281
-0.075007595 0.69 -0.049601797 1.3826336e-38 258 281
-0.073583893 0.68800002 -0.049458027 1.373414e-38 259 281
-0.07227239 0.68699998 -0.049386136 1.3734135e-38 260 281
-0.070757523 0.68400002 -0.049170479 1.3734135e-38 261 281
-0.069354847 0.68199998 -0.049026705 1.3642295e-38 262 281
-0.068159081 0.68199998 -0.049026705 1.3365709e-38 263 281
-0.066766933 0.68000001 -0.048882935 1.30902e-38 264 281
-0.065381795 0.67799997 -0.048739154 1.2721059e-38 265 281
-0.06419304 0.67799997 -0.048739154 1.1982437e-38 266 281
-0.062818423 0.676 -0.048595384 1.1614014e-38 267 281
-0.061633173 0.676 -0.048595384 1.2166847e-38 268 281
-0.060358498 0.67500001 -0.048523501 1.2904412e-38 269 281
-0.059087332 0.67400002 -0.048451614 1.3549766e-38 270 281
-0.057733759 0.67199999 -0.04830784 1.364232e-38 271 281
-0.056555521 0.67199999 -0.04830784 1.4285518e-38 272 281
-0.055294871 0.671 -0.048235953 1.4469907e-38 273 281
-0.054118387 0.671 -0.048235953 1.4196913e-38 274 281
-0.052863002 0.67000002 -0.048164066 1.4473502e-38 275 281
-0.051533967 0.66799998 -0.048020288 1.5025955e-38 276 281
-0.050287351 0.667 -0.047948405 1.5394738e-38 277 281
-0.049117878 0.667 -0.047948405 1.5854637e-38 278 281
-0.047948405 0.667 -0.047948405 1.6131584e-38 279 281
-0.046708796 0.66600001 -0.047876518 1.6590041e-38 280 281
-0.045541082 0.66600001 -0.047876518 1.6590041e-38 281 281
-0.04437336 0.66600001 -0.047876518 1.6590041e-38 282 281
-0.043205637 0.66600001 -0.047876518 1.6590041e-38 283 281
-0.042037919 0.66600001 -0.047876518 1.649784e-38 284 281
-0.040870197 0.66600001 -0.047876518 1.6590036e-38 285 281
-0.039583251 0.66399997 -0.047732744 1.6590392e-38 286 281
-0.038419038 0.66399997 -0.047732744 1.6590392e-38 287 281
-0.037198719 0.66299999 -0.047660857 1.6590041e-38 288 281
-0.036036257 0.66299999 -0.047660857 1.6590041e-38 289 281
-0.034873798 0.66299999 -0.047660857 1.6589688e-38 290 281
-0.033660494 0.662 -0.047588971 1.6589688e-38 291 281
-0.032499783 0.662 -0.047588971 1.6773e-38 292 281
-0.031291738 0.66100001 -0.047517084 1.6865196e-38 293 281
-0.030132787 0.66100001 -0.047517084 1.6681884e-38 294 281
-0.028973831 0.66100001 -0.047517084 1.6589688e-38 295 281
-0.02781488 0.66100001 -0.047517084 1.6681881e-38 296 281
-0.026655925 0.66100001 -0.047517084 1.6589685e-38 297 281
-0.025496973 0.66100001 -0.047517084 1.6497855e-38 298 281
-0.02433802 0.66100001 -0.047517084 1.6497855e-38 299 281
-0.023179067 0.66100001 -0.047517084 1.6314909e-38 300 281
-0.022020113 0.66100001 -0.047517084 1.6314909e-38 301 281
-0.02076648 0.65799999 -0.047301427 1.6223442e-38 302 281
-0.019582979 0.65700001 -0.04722954 1.6315638e-38 303 281
-0.01843104 0.65700001 -0.04722954 1.6498953e-38 304 281
-0.0172791 0.65700001 -0.04722954 1.6498953e-38 305 281
-0.01612716 0.65700001 -0.04722954 1.6499659e-38 306 281
-0.01497522 0.65700001 -0.04722954 1.6499659e-38 307 281
-0.013823279 0.65700001 -0.04722954 1.6775154e-38 308 281
-0.01267134 0.65700001 -0.04722954 1.6775154e-38 309 281
-0.011519399 0.65700001 -0.04722954 1.6684758e-38 310 281
-0.01038324 0.65799999 -0.047301427 1.6684758e-38 311 281
-0.0092295464 0.65799999 -0.047301427 1.686807e-38 312 281
-0.0080758529 0.65799999 -0.047301427 1.686807e-38 313 281
-0.0069221598 0.65799999 -0.047301427 1.7143225e-38 314 281
-0.0057684663 0.65799999 -0.047301427 1.7235779e-38 315 281
-0.0046147732 0.65799999 -0.047301427 1.7052114e-38 316 281
-0.0034452998 0.65499997 -0.047085766 1.7144309e-38 317 281
-0.0022968664 0.65499997 -0.047085766 1.760313e-38 318 281
-0.0011484332 0.65499997 -0.047085766 1.7695327e-38 319 281
0 0.65499997 -0.047085766 1.7603132e-38 320 281
0.0011484332 0.65499997 -0.047085766 1.7326906e-38 321 281
0.0023073866 0.65799999 -0.047301427 1.7052477e-38 322 281
0.0034610799 0.65799999 -0.047301427 1.6960281e-38 323 281
0.0046147732 0.65799999 -0.047301427 1.6959562e-38 324 281
0.0057684663 0.65799999 -0.047301427 1.6867367e-38 325 281
0.0069221598 0.65799999 -0.047301427 1.7051407e-38 326 281
0.0080758529 0.65799999 -0.047301427 1.6959212e-38 327 281
0.0092295464 0.65799999 -0.047301427 1.6683351e-38 328 281
0.01038324 0.65799999 -0.047301427 1.6683351e-38 329 281
0.011536933 0.65799999 -0.047301427 1.668407e-38 330 281
0.012690626 0.65799999 -0.047301427 1.668407e-38 331 281
0.01384432 0.65799999 -0.047301427 1.6683717e-38 332 281
0.015020805 0.65899998 -0.04737331 1.6499325e-38 333 281
0.016176252 0.65899998 -0.04737331 1.5946499e-38 334 281
0.0173843 0.66100001 -0.047517084 1.5393325e-38 335 281
0.018543253 0.66100001 -0.047517084 1.4563535e-38 336 281
0.019732011 0.662 -0.047588971 1.4102197e-38 337 281
0.020924279 0.66299999 -0.047660857 1.400928e-38 338 281
0.02208674 0.66299999 -0.047660857 1.4470258e-38 339 281
0.023284266 0.66399997 -0.047732744 1.4930902e-38 340 281
0.024448479 0.66399997 -0.047732744 1.5484076e-38 341 281
0.02568984 0.66600001 -0.047876518 1.4841969e-38 342 281
0.026857559 0.66600001 -0.047876518 1.4934523e-38 343 281
0.028025279 0.66600001 -0.047876518 1.5029276e-38 344 281
-0.081878915 0.69700003 -0.051327083 1.272151e-38 253 282
-0.080541112 0.69599998 -0.051253434 1.2997712e-38 254 282
-0.078978904 0.69300002 -0.051032521 1.3089907e-38 255 282
-0.077539407 0.69099998 -0.050885238 1.3090958e-38 256 282
-0.075996481 0.68800002 -0.050664321 1.3183154e-38 257 282
-0.074790187 0.68800002 -0.050664321 1.3733784e-38 258 282
-0.073583893 0.68800002 -0.050664321 1.3733784e-38 259 282
-0.071851604 0.68300003 -0.05029612 1.3550822e-38 260 282
-0.070654072 0.68300003 -0.05029612 1.3550822e-38 261 282
-0.069354847 0.68199998 -0.050222475 1.3642292e-38 262 282
-0.068159081 0.68199998 -0.050222475 1.3458261e-38 263 282
-0.066766933 0.68000001 -0.050075196 1.3273863e-38 264 282
-0.065478235 0.67900002 -0.050001562 1.3089472e-38 265 282
-0.06419304 0.67799997 -0.049927916 1.2351203e-38 266 282
-0.063004278 0.67799997 -0.049927916 1.1798029e-38 267 282
-0.061633173 0.676 -0.049780637 1.2259396e-38 268 282
-0.060358498 0.67500001 -0.049706999 1.2812569e-38 269 282
-0.059087332 0.67400002 -0.049633358 1.3273179e-38 270 282
-0.057733759 0.67199999 -0.049486078 1.345757e-38 271 282
-0.056471359 0.671 -0.049412437 1.382598e-38 272 282
-0.055294871 0.671 -0.049412437 1.3918534e-38 273 282
-0.054037735 0.67000002 -0.049338799 1.3918532e-38 274 282
-0.052863002 0.67000002 -0.049338799 1.4102924e-38 275 282
-0.051533967 0.66799998 -0.04919152 1.4563898e-38 276 282
-0.050287351 0.667 -0.049117878 1.474865e-38 277 282
-0.049117878 0.667 -0.049117878 1.4840489e-38 278 282
-0.047948405 0.667 -0.049117878 1.5301467e-38 279 282
-0.046708796 0.66600001 -0.04904424 1.5485859e-38 280 282
-0.045541082 0.66600001 -0.04904424 1.5946837e-38 281 282
-0.04437336 0.66600001 -0.04904424 1.5853921e-38 282 282
-0.043205637 0.66600001 -0.04904424 1.5853921e-38 283 282
-0.042037919 0.66600001 -0.04904424 1.6038305e-38 284 282
-0.040747464 0.66399997 -0.048896957 1.5854274e-38 285 282
-0.039583251 0.66399997 -0.048896957 1.5854271e-38 286 282
-0.038361177 0.66299999 -0.048823316 1.5854271e-38 287 282
-0.037198719 0.66299999 -0.048823316 1.6129432e-38 288 282
-0.036036257 0.66299999 -0.048823316 1.6221629e-38 289 282
-0.034821201 0.662 -0.048749682 1.6221275e-38 290 282
-0.033660494 0.662 -0.048749682 1.6221275e-38 291 282
-0.032450691 0.66100001 -0.04867604 1.6221275e-38 292 282
-0.031291738 0.66100001 -0.04867604 1.6221275e-38 293 282
-0.030132787 0.66100001 -0.04867604 1.6404588e-38 294 282
-0.028973831 0.66100001 -0.04867604 1.6404588e-38 295 282
-0.02781488 0.66100001 -0.04867604 1.6129799e-38 296 282
-0.026655925 0.66100001 -0.04867604 1.6037602e-38 297 282
-0.025419824 0.65899998 -0.048528757 1.6129802e-38 298 282
-0.024264378 0.65899998 -0.048528757 1.6129802e-38 299 282
-0.023108931 0.65899998 -0.048528757 1.6129448e-38 300 282
-0.021953486 0.65899998 -0.048528757 1.6129448e-38 301 282
-0.020734919 0.65700001 -0.048381478 1.6037976e-38 302 282
-0.019523365 0.65499997 -0.048234195 1.6037976e-38 303 282
-0.018374931 0.65499997 -0.048234195 1.6313487e-38 304 282
-0.017226499 0.65499997 -0.048234195 1.6313487e-38 305 282
-0.016078066 0.65499997 -0.048234195 1.6497508e-38 306 282
-0.014929632 0.65499997 -0.048234195 1.6497508e-38 307 282
-0.013781199 0.65499997 -0.048234195 1.6589685e-38 308 282
-0.012632766 0.65499997 -0.048234195 1.6589685e-38 309 282
-0.011519399 0.65700001 -0.048381478 1.6590757e-38 310 282
-0.01036746 0.65700001 -0.048381478 1.6590757e-38 311 282
-0.0091874655 0.65499997 -0.048234195 1.6590754e-38 312 282
-0.008039033 0.65499997 -0.048234195 1.6498559e-38 313 282
-0.0068905996 0.65499997 -0.048234195 1.6590404e-38 314 282
-0.0057421662 0.65499997 -0.048234195 1.66826e-38 315 282
-0.0045937328 0.65499997 -0.048234195 1.6315262e-38 316 282
-0.0034452998 0.65499997 -0.048234195 1.6407458e-38 317 282
-0.0022968664 0.65499997 -0.048234195 1.6407095e-38 318 282
-0.0011484332 0.65499997 -0.048234195 1.6407095e-38 319 282
0 0.65499997 -0.048234195 1.6406744e-38 320 282
0.0011484332 0.65499997 -0.048234195 1.649894e-38 321 282
0.0022968664 0.65499997 -0.048234195 1.6498584e-38 322 282
0.0034558198 0.65700001 -0.048381478 1.6498584e-38 323 282
0.0046077599 0.65700001 -0.048381478 1.649894e-38 324 282
0.0057596997 0.65700001 -0.048381478 1.6406744e-38 325 282
0.0069116396 0.65700001 -0.048381478 1.6406757e-38 326 282
0.0080635799 0.65700001 -0.048381478 1.6406757e-38 327 282
0.0092155198 0.65700001 -0.048381478 1.6222738e-38 328 282
0.01036746 0.65700001 -0.048381478 1.6222738e-38 329 282
0.011519399 0.65700001 -0.048381478 1.6314938e-38 330 282
0.01267134 0.65700001 -0.048381478 1.6498969e-38 331 282
0.013823279 0.65700001 -0.048381478 1.6314941e-38 332 282
0.01497522 0.65700001 -0.048381478 1.6314941e-38 333 282
0.016151706 0.65799999 -0.048455119 1.5946502e-38 334 282
0.0173843 0.66100001 -0.04867604 1.5485524e-38 335 282
0.018543253 0.66100001 -0.04867604 1.5024523e-38 336 282
0.019702207 0.66100001 -0.04867604 1.4563904e-38 337 282
0.020892721 0.662 -0.048749682 1.4470631e-38 338 282
0.02208674 0.66299999 -0.048823316 1.4470631e-38 339 282
0.0232492 0.66299999 -0.048823316 1.4562844e-38 340 282
0.024448479 0.66399997 -0.048896957 1.5023823e-38 341 282
0.025612691 0.66399997 -0.048896957 1.4564296e-38 342 282
0.026857559 0.66600001 -0.04904424 1.4656492e-38 343 282
0.028025279 0.66600001 -0.04904424 1.4751221e-38 344 282
0.029236831 0.667 -0.049117878 1.5304395e-38 345 282
0.030406304 0.667 -0.049117878 1.5487734e-38 346 282
0.036960267 0.68000001 -0.050075196 1.475052e-38 351 282
0.038152531 0.68000001 -0.050075196 1.4656857e-38 352 282
0.039344799 0.68000001 -0.050075196 1.4011488e-38 353 282
0.040656291 0.68199998 -0.050222475 1.3918924e-38 354 282
0.041974798 0.68400002 -0.050369758 1.3918924e-38 355 282
0.043174081 0.68400002 -0.050369758 1.3641283e-38 356 282
-0.080193959 0.69300002 -0.05224758 1.2721144e-38 254 283
-0.078978904 0.69300002 -0.05224758 1.2536753e-38 255 283
-0.077539407 0.69099998 -0.052096792 1.2813665e-38 256 283
-0.075996481 0.68800002 -0.051870614 1.2998415e-38 257 283
-0.074790187 0.68800002 -0.051870614 1.3550122e-38 258 283
-0.073476933 0.68699998 -0.051795214 1.3550122e-38 259 283
-0.071851604 0.68300003 -0.051493648 1.3367157e-38 260 283
-0.070654072 0.68300003 -0.051493648 1.3367157e-38 261 283
-0.069354847 0.68199998 -0.051418249 1.3550822e-38 262 283
-0.068159081 0.68199998 -0.051418249 1.3458627e-38 263 283
-0.066766933 0.68000001 -0.051267464 1.3366061e-38 264 283
-0.065478235 0.67900002 -0.051192071 1.318167e-38 265 283
-0.06419304 0.67799997 -0.051116679 1.2811458e-38 266 283
-0.063004278 0.67799997 -0.051116679 1.2350481e-38 267 283
-0.061633173 0.676 -0.050965894 1.2443774e-38 268 283
-0.060358498 0.67500001 -0.050890498 1.2904752e-38 269 283
-0.059087332 0.67400002 -0.050815105 1.3273532e-38 270 283
-0.057733759 0.67199999 -0.050664317 1.3457923e-38 271 283
-0.056471359 0.671 -0.050588924 1.3550825e-38 272 283
-0.055294871 0.671 -0.050588924 1.3643021e-38 273 283
-0.054037735 0.67000002 -0.050513536 1.3826686e-38 274 283
-0.052863002 0.67000002 -0.050513536 1.3826686e-38 275 283
-0.051533967 0.66799998 -0.050362743 1.4101847e-38 276 283
-0.050287351 0.667 -0.050287351 1.4286239e-38 277 283
-0.049117878 0.667 -0.050287351 1.4195844e-38 278 283
-0.047948405 0.667 -0.050287351 1.428804e-38 279 283
-0.046708796 0.66600001 -0.050211959 1.4656095e-38 280 283
-0.045541082 0.66600001 -0.050211959 1.474865e-38 281 283
-0.04437336 0.66600001 -0.050211959 1.5025229e-38 282 283
-0.043205637 0.66600001 -0.050211959 1.5025229e-38 283 283
-0.041911677 0.66399997 -0.05006117 1.5024508e-38 284 283
-0.040747464 0.66399997 -0.05006117 1.5208899e-38 285 283
-0.039523639 0.66299999 -0.049985778 1.5208905e-38 286 283
-0.038361177 0.66299999 -0.049985778 1.5485131e-38 287 283
-0.037142612 0.662 -0.049910385 1.5945038e-38 288 283
-0.035981905 0.662 -0.049910385 1.5945038e-38 289 283
-0.034821201 0.662 -0.049910385 1.5761372e-38 290 283
-0.033609647 0.66100001 -0.049834993 1.5761372e-38 291 283
-0.032450691 0.66100001 -0.049834993 1.5852492e-38 292 283
-0.031291738 0.66100001 -0.049834993 1.5944687e-38 293 283
-0.030132787 0.66100001 -0.049834993 1.5943966e-38 294 283
-0.028973831 0.66100001 -0.049834993 1.6036161e-38 295 283
-0.027730718 0.65899998 -0.049684204 1.594504e-38 296 283
-0.026575271 0.65899998 -0.049684204 1.594504e-38 297 283
-0.025381252 0.65799999 -0.049608808 1.5945035e-38 298 283
-0.02422756 0.65799999 -0.049608808 1.5852839e-38 299 283
-0.023073865 0.65799999 -0.049608808 1.5852476e-38 300 283
-0.021920172 0.65799999 -0.049608808 1.5852476e-38 301 283
-0.020734919 0.65700001 -0.049533416 1.5852842e-38 302 283
-0.019523365 0.65499997 -0.049382631 1.5945038e-38 303 283
-0.018374931 0.65499997 -0.049382631 1.5944331e-38 304 283
-0.017226499 0.65499997 -0.049382631 1.6036886e-38 305 283
-0.016078066 0.65499997 -0.049382631 1.6219842e-38 306 283
-0.014929632 0.65499997 -0.049382631 1.6219842e-38 307 283
-0.013781199 0.65499997 -0.049382631 1.6220198e-38 308 283
-0.012632766 0.65499997 -0.049382631 1.6220198e-38 309 283
-0.011484332 0.65499997 -0.049382631 1.6129081e-38 310 283
-0.010335899 0.65499997 -0.049382631 1.6129081e-38 311 283
-0.0091874655 0.65499997 -0.049382631 1.6037604e-38 312 283
-0.008039033 0.65499997 -0.049382631 1.5761019e-38 313 283
-0.0068905996 0.65499997 -0.049382631 1.5762091e-38 314 283
-0.0057421662 0.65499997 -0.049382631 1.5762091e-38 315 283
-0.0045937328 0.65499997 -0.049382631 1.5670248e-38 316 283
-0.0034400397 0.65399998 -0.049307238 1.5670248e-38 317 283
-0.00229336 0.65399998 -0.049307238 1.5669893e-38 318 283
-0.0011484332 0.65499997 -0.049382631 1.5485861e-38 319 283
0 0.65499997 -0.049382631 1.5485155e-38 320 283
0.0011484332 0.65499997 -0.049382631 1.5669545e-38 321 283
0.0022968664 0.65499997 -0.049382631 1.5669545e-38 322 283
0.0034452998 0.65499997 -0.049382631 1.5669545e-38 323 283
0.0045937328 0.65499997 -0.049382631 1.5669539e-38 324 283
0.0057596997 0.65700001 -0.049533416 1.5669539e-38 325 283
0.0068905996 0.65499997 -0.049382631 1.5853583e-38 326 283
0.008039033 0.65499997 -0.049382631 1.5853583e-38 327 283
0.0091874655 0.65499997 -0.049382631 1.5946149e-38 328 283
0.010335899 0.65499997 -0.049382631 1.5853953e-38 329 283
0.011484332 0.65499997 -0.049382631 1.5946152e-38 330 283
0.012632766 0.65499997 -0.049382631 1.6038347e-38 331 283
0.013781199 0.65499997 -0.049382631 1.6130546e-38 332 283
0.01497522 0.65700001 -0.049533416 1.6130546e-38 333 283
0.016151706 0.65799999 -0.049608808 1.5762836e-38 334 283
0.017331699 0.65899998 -0.049684204 1.5485889e-38 335 283
0.018487146 0.65899998 -0.049684204 1.5393325e-38 336 283
0.019702207 0.66100001 -0.049834993 1.5024902e-38 337 283
0.02086116 0.66100001 -0.049834993 1.5023104e-38 338 283
0.022053426 0.662 -0.049910385 1.4930908e-38 339 283
0.0232492 0.66299999 -0.049985778 1.4655047e-38 340 283
0.024411658 0.66299999 -0.049985778 1.4747243e-38 341 283
0.025612691 0.66399997 -0.05006117 1.4747608e-38 342 283
0.026776904 0.66399997 -0.05006117 1.4839804e-38 343 283
0.028025279 0.66600001 -0.050211959 1.4934533e-38 344 283
0.029192999 0.66600001 -0.050211959 1.5303676e-38 345 283
0.030360719 0.66600001 -0.050211959 1.5578833e-38 346 283
0.031765141 0.671 -0.050588924 1.5394442e-38 347 283
0.032941625 0.671 -0.050588924 1.4565755e-38 348 283
0.034168959 0.67199999 -0.050664317 1.4289167e-38 349 283
0.036905911 0.67900002 -0.051192071 1.4380999e-38 351 283
0.038096428 0.67900002 -0.051192071 1.4657581e-38 352 283
0.039344799 0.68000001 -0.051267464 1.4473548e-38 353 283
0.040656291 0.68199998 -0.051418249 1.4473195e-38 354 283
0.041913435 0.68300003 -0.051493648 1.4380999e-38 355 283
0.043174081 0.68400002 -0.051569041 1.3457262e-38 356 283
0.044503104 0.68599999 -0.051719822 1.1521154e-38 357 283
-0.073476933 0.68699998 -0.052999757 1.2906214e-38 259 284
-0.071956798 0.68400002 -0.05276832 1.3274974e-38 260 284
-0.070654072 0.68300003 -0.052691177 1.3182778e-38 261 284
-0.069354847 0.68199998 -0.052614026 1.345863e-38 262 284
-0.068159081 0.68199998 -0.052614026 1.345863e-38 263 284
-0.066766933 0.68000001 -0.052459732 1.3458258e-38 264 284
-0.065478235 0.67900002 -0.052382588 1.3273866e-38 265 284
-0.06419304 0.67799997 -0.052305438 1.2997649e-38 266 284
-0.063004278 0.67799997 -0.052305438 1.2721062e-38 267 284
-0.061633173 0.676 -0.052151144 1.2813273e-38 268 284
-0.060358498 0.67500001 -0.052074 1.2905468e-38 269 284
-0.059087332 0.67400002 -0.051996857 1.3090214e-38 270 284
-0.057733759 0.67199999 -0.051842555 1.3182769e-38 271 284
-0.056555521 0.67199999 -0.051842555 1.3274959e-38 272 284
-0.055294871 0.671 -0.051765412 1.3274959e-38 273 284
-0.054118387 0.671 -0.051765412 1.3550825e-38 274 284
-0.052863002 0.67000002 -0.051688269 1.3550825e-38 275 284
-0.051533967 0.66799998 -0.051533967 1.3733784e-38 276 284
-0.050287351 0.667 -0.051456824 1.3918534e-38 277 284
-0.049117878 0.667 -0.051456824 1.4010375e-38 278 284
-0.047948405 0.667 -0.051456824 1.4102571e-38 279 284
-0.046708796 0.66600001 -0.051379681 1.3919252e-38 280 284
-0.045541082 0.66600001 -0.051379681 1.4011447e-38 281 284
-0.04437336 0.66600001 -0.051379681 1.4011798e-38 282 284
-0.043205637 0.66600001 -0.051379681 1.4011798e-38 283 284
-0.041911677 0.66399997 -0.051225383 1.4011428e-38 284 284
-0.040686097 0.66299999 -0.051148236 1.4011428e-38 285 284
-0.039523639 0.66299999 -0.051148236 1.437986e-38 286 284
-0.038303319 0.662 -0.051071092 1.4656447e-38 287 284
-0.037142612 0.662 -0.051071092 1.4933407e-38 288 284
-0.035981905 0.662 -0.051071092 1.5025602e-38 289 284
-0.0347686 0.66100001 -0.050993945 1.5484782e-38 290 284
-0.033609647 0.66100001 -0.050993945 1.5484782e-38 291 284
-0.032450691 0.66100001 -0.050993945 1.5483709e-38 292 284
-0.031197058 0.65899998 -0.050839648 1.5575906e-38 293 284
-0.030041611 0.65899998 -0.050839648 1.5575553e-38 294 284
-0.028886165 0.65899998 -0.050839648 1.5759943e-38 295 284
-0.027730718 0.65899998 -0.050839648 1.575994e-38 296 284
-0.026534945 0.65799999 -0.050762504 1.5852136e-38 297 284
-0.025381252 0.65799999 -0.050762504 1.5669174e-38 298 284
-0.02422756 0.65799999 -0.050762504 1.5023804e-38 299 284
-0.023073865 0.65799999 -0.050762504 1.4931962e-38 300 284
-0.021920172 0.65799999 -0.050762504 1.5024157e-38 301 284
-0.020671798 0.65499997 -0.050531063 1.5391867e-38 302 284
-0.019523365 0.65499997 -0.050531063 1.5576259e-38 303 284
-0.018374931 0.65499997 -0.050531063 1.5576628e-38 304 284
-0.017226499 0.65499997 -0.050531063 1.5668823e-38 305 284
-0.016078066 0.65499997 -0.050531063 1.5943612e-38 306 284
-0.014929632 0.65499997 -0.050531063 1.5943612e-38 307 284
-0.013781199 0.65499997 -0.050531063 1.585142e-38 308 284
-0.012632766 0.65499997 -0.050531063 1.5943615e-38 309 284
-0.011484332 0.65499997 -0.050531063 1.5668826e-38 310 284
-0.010335899 0.65499997 -0.050531063 1.5668826e-38 311 284
-0.0091734398 0.65399998 -0.050453916 1.5485155e-38 312 284
-0.0080267601 0.65399998 -0.050453916 1.539296e-38 313 284
-0.0068800794 0.65399998 -0.050453916 1.5394034e-38 314 284
-0.0057421662 0.65499997 -0.050531063 1.5209284e-38 315 284
-0.0045867199 0.65399998 -0.050453916 1.5484427e-38 316 284
-0.0034400397 0.65399998 -0.050453916 1.5484427e-38 317 284
-0.00229336 0.65399998 -0.050453916 1.5484429e-38 318 284
-0.0011484332 0.65499997 -0.050531063 1.5208201e-38 319 284
0 0.65499997 -0.050531063 1.4932703e-38 320 284
0.0011484332 0.65499997 -0.050531063 1.4932703e-38 321 284
0.0022968664 0.65499997 -0.050531063 1.4933425e-38 322 284
0.0034452998 0.65499997 -0.050531063 1.5025622e-38 323 284
0.0045937328 0.65499997 -0.050531063 1.4933425e-38 324 284
0.0057421662 0.65499997 -0.050531063 1.5025622e-38 325 284
0.0068905996 0.65499997 -0.050531063 1.5393328e-38 326 284
0.008039033 0.65499997 -0.050531063 1.5393328e-38 327 284
0.0091874655 0.65499997 -0.050531063 1.5485171e-38 328 284
0.010335899 0.65499997 -0.050531063 1.5392975e-38 329 284
0.011484332 0.65499997 -0.050531063 1.5577369e-38 330 284
0.012632766 0.65499997 -0.050531063 1.5577369e-38 331 284
0.013781199 0.65499997 -0.050531063 1.5394424e-38 332 284
0.014929632 0.65499997 -0.050531063 1.5394424e-38 333 284
0.01612716 0.65700001 -0.050685361 1.5669569e-38 334 284
0.017305398 0.65799999 -0.050762504 1.5485176e-38 335 284
0.018459093 0.65799999 -0.050762504 1.5392975e-38 336 284
0.019642593 0.65899998 -0.050839648 1.5208584e-38 337 284
0.02086116 0.66100001 -0.050993945 1.502455e-38 338 284
0.022020113 0.66100001 -0.050993945 1.4932353e-38 339 284
0.023214132 0.662 -0.051071092 1.4933076e-38 340 284
0.024374841 0.662 -0.051071092 1.4933076e-38 341 284
0.025612691 0.66399997 -0.051225383 1.4842325e-38 342 284
0.026776904 0.66399997 -0.051225383 1.4842325e-38 343 284
0.028025279 0.66600001 -0.051379681 1.5118559e-38 344 284
0.029192999 0.66600001 -0.051379681 1.5395146e-38 345 284
0.030360719 0.66600001 -0.051379681 1.5486625e-38 346 284
0.0317178 0.67000002 -0.051688269 1.5394071e-38 347 284
0.032941625 0.671 -0.051765412 1.4934889e-38 348 284
0.034168959 0.67199999 -0.051842555 1.4658304e-38 349 284
0.035452399 0.67400002 -0.051996857 1.4473192e-38 350 284
0.036742851 0.676 -0.052151144 1.4473192e-38 351 284
0.038096428 0.67900002 -0.052382588 1.4473195e-38 352 284
0.039286941 0.67900002 -0.052382588 1.4380999e-38 353 284
0.040656291 0.68199998 -0.052614026 1.428845e-38 354 284
0.041913435 0.68300003 -0.052691177 1.4103701e-38 355 284
0.043110959 0.68300003 -0.052691177 1.2260159e-38 356 284
0.044503104 0.68599999 -0.05292261 9.7708772e-39 357 284
0.045772515 0.68699998 -0.052999757 6.0899086e-39 358 284
-0.074246652 0.68300003 -0.053888701 1.1708419e-38 258 285
-0.073049128 0.68300003 -0.053888701 1.2169396e-38 259 285
-0.071851604 0.68300003 -0.053888701 1.2907289e-38 260 285
-0.070654072 0.68300003 -0.053888701 1.2722899e-38 261 285
-0.069354847 0.68199998 -0.053809796 1.3366804e-38 262 285
-0.068159081 0.68199998 -0.053809796 1.3274608e-38 263 285
-0.0669633 0.68199998 -0.053809796 1.3366075e-38 264 285
-0.065574668 0.68000001 -0.053652 1.327388e-38 265 285
-0.064287722 0.67900002 -0.053573098 1.3274233e-38 266 285
-0.063004278 0.67799997 -0.053494196 1.30902e-38 267 285
-0.061633173 0.676 -0.053336397 1.3273512e-38 268 285
-0.060358498 0.67500001 -0.053257499 1.3273512e-38 269 285
-0.059087332 0.67400002 -0.053178601 1.3366431e-38 270 285
-0.057733759 0.67199999 -0.053020798 1.3458627e-38 271 285
-0.056555521 0.67199999 -0.053020798 1.3274959e-38 272 285
-0.055294871 0.671 -0.052941896 1.3367513e-38 273 285
-0.054118387 0.671 -0.052941896 1.3550469e-38 274 285
-0.052863002 0.67000002 -0.052863002 1.3550469e-38 275 285
-0.051533967 0.66799998 -0.052705199 1.3550472e-38 276 285
-0.050362743 0.66799998 -0.052705199 1.3550472e-38 277 285
-0.049117878 0.667 -0.052626297 1.3733431e-38 278 285
-0.047948405 0.667 -0.052626297 1.3825986e-38 279 285
-0.046778932 0.667 -0.052626297 1.3549771e-38 280 285
-0.045541082 0.66600001 -0.052547399 1.3734164e-38 281 285
-0.04437336 0.66600001 -0.052547399 1.355049e-38 282 285
-0.043205637 0.66600001 -0.052547399 1.3642687e-38 283 285
-0.041911677 0.66399997 -0.052389596 1.3550825e-38 284 285
-0.040686097 0.66299999 -0.052310698 1.3366075e-38 285 285
-0.039523639 0.66299999 -0.052310698 1.3643374e-38 286 285
-0.038303319 0.662 -0.0522318 1.4011798e-38 287 285
-0.037142612 0.662 -0.0522318 1.4196563e-38 288 285
