# .PCD v.7 - Point Cloud Data file format
FIELDS x y z rgb imX imY
SIZE 4 4 4 4 4 4
TYPE F F F F F F
COUNT 1 1 1 1 1 1
WIDTH 850
HEIGHT 1
VIEWPOINT 0 0 0 1 0 0 0
POINTS 850
DATA ascii
-0.042456966 0.83499998 0.062953427 1.1990066e-38 291 197
-0.040992931 0.83499998 0.062953427 1.2082917e-38 292 197
-0.039528899 0.83499998 0.062953427 1.1898526e-38 293 197
-0.038064864 0.83499998 0.062953427 1.3276381e-38 294 197
-0.036688499 0.83700001 0.06310422 1.3829555e-38 295 197
-0.03530512 0.83899999 0.063255005 1.4659668e-38 296 197
-0.033753417 0.83700001 0.06310422 1.5120647e-38 297 197
-0.032285877 0.83700001 0.06310422 1.5763145e-38 298 197
-0.030818338 0.83700001 0.06310422 1.585534e-38 299 197
-0.029350799 0.83700001 0.06310422 1.6315234e-38 300 197
-0.027816633 0.83499998 0.062953427 1.6499265e-38 301 197
-0.026352599 0.83499998 0.062953427 1.6683306e-38 302 197
-0.024828954 0.833 0.062802643 1.6775502e-38 303 197
-0.023368426 0.833 0.062802643 1.6867347e-38 304 197
-0.021855298 0.83099997 0.062651858 1.6867347e-38 305 197
-0.02039828 0.83099997 0.062651858 1.7143212e-38 306 197
-0.018941259 0.83099997 0.062651858 1.7051015e-38 307 197
-0.017526319 0.833 0.062802643 1.7233609e-38 308 197
-0.016065793 0.833 0.062802643 1.6772632e-38 309 197
-0.014605266 0.833 0.062802643 1.631058e-38 310 197
-0.013113179 0.83099997 0.062651858 1.5941798e-38 311 197
-0.01165616 0.83099997 0.062651858 1.5848526e-38 312 197
-0.010223686 0.833 0.062802643 1.5295352e-38 313 197
-0.0087631596 0.833 0.062802643 1.4741825e-38 314 197
-0.007302633 0.833 0.062802643 1.4926216e-38 315 197
-0.0058421064 0.833 0.062802643 1.4468115e-38 316 197
-0.0043710601 0.83099997 0.062651858 1.4468115e-38 317 197
-0.0029140399 0.83099997 0.062651858 1.4651427e-38 318 197
-0.0014570199 0.83099997 0.062651858 1.4743624e-38 319 197
0 0.829 0.062501073 1.5112756e-38 320 197
0.0014535133 0.829 0.062501073 1.5574094e-38 321 197
0.0029070266 0.829 0.062501073 1.6220896e-38 322 197
0.0043605398 0.829 0.062501073 1.6497843e-38 323 197
0.0058140531 0.829 0.062501073 1.668259e-38 324 197
0.0072675664 0.829 0.062501073 1.6958817e-38 325 197
0.0087210797 0.829 0.062501073 1.7234325e-38 326 197
0.010174593 0.829 0.062501073 1.7234325e-38 327 197
0.011628106 0.829 0.062501073 1.7143212e-38 328 197
0.01308162 0.829 0.062501073 1.7143212e-38 329 197
0.014535133 0.829 0.062501073 1.7327957e-38 330 197
0.015950073 0.82700002 0.062350284 1.7235761e-38 331 197
0.017400078 0.82700002 0.062350284 1.7236114e-38 332 197
0.018850086 0.82700002 0.062350284 1.714356e-38 333 197
0.020300092 0.82700002 0.062350284 1.7327225e-38 334 197
0.0217501 0.82700002 0.062350284 1.7235028e-38 335 197
0.023200106 0.82700002 0.062350284 1.7051347e-38 336 197
0.024650112 0.82700002 0.062350284 1.6866956e-38 337 197
0.02610012 0.82700002 0.062350284 1.6591448e-38 338 197
0.027616752 0.829 0.062501073 1.6591448e-38 339 197
0.029070266 0.829 0.062501073 1.695665e-38 340 197
0.030450139 0.82700002 0.062350284 1.6864453e-38 341 197
0.031900145 0.82700002 0.062350284 1.6220883e-38 342 197
0.033350151 0.82700002 0.062350284 1.6128687e-38 343 197
0.034800157 0.82700002 0.062350284 1.57617e-38 344 197
0.036250167 0.82700002 0.062350284 1.5392918e-38 345 197
0.037700173 0.82700002 0.062350284 1.5116703e-38 346 197
-0.0442366 0.84100002 0.061931241 1.0241541e-38 290 198
-0.042558659 0.83700001 0.061636675 9.2277494e-39 291 198
-0.040992931 0.83499998 0.061489396 1.1712671e-38 292 198
-0.039528899 0.83499998 0.061489396 1.2819378e-38 293 198
-0.03815604 0.83700001 0.061636675 1.4197644e-38 294 198
-0.036776166 0.83899999 0.061783955 1.4566066e-38 295 198
-0.03530512 0.83899999 0.061783955 1.4844065e-38 296 198
-0.033753417 0.83700001 0.061636675 1.5212489e-38 297 198
-0.032285877 0.83700001 0.061636675 1.5763148e-38 298 198
-0.030744698 0.83499998 0.061489396 1.5947539e-38 299 198
-0.029280664 0.83499998 0.061489396 1.6223051e-38 300 198
-0.027816633 0.83499998 0.061489396 1.6315247e-38 301 198
-0.02628948 0.833 0.061342116 1.6407095e-38 302 198
-0.024828954 0.833 0.061342116 1.6683321e-38 303 198
-0.023368426 0.833 0.061342116 1.6682615e-38 304 198
-0.021855298 0.83099997 0.061194837 1.6682615e-38 305 198
-0.02039828 0.83099997 0.061194837 1.6774801e-38 306 198
-0.018941259 0.83099997 0.061194837 1.6682605e-38 307 198
-0.017526319 0.833 0.061342116 1.6864833e-38 308 198
-0.016065793 0.833 0.061342116 1.6587886e-38 309 198
-0.014605266 0.833 0.061342116 1.6310224e-38 310 198
-0.013113179 0.83099997 0.061194837 1.5941801e-38 311 198
-0.01165616 0.83099997 0.061194837 1.5940719e-38 312 198
-0.010223686 0.833 0.061342116 1.5664492e-38 313 198
-0.0087631596 0.833 0.061342116 1.5663759e-38 314 198
-0.0072850995 0.83099997 0.061194837 1.5755955e-38 315 198
-0.0058280798 0.83099997 0.061194837 1.5297482e-38 316 198
-0.0043710601 0.83099997 0.061194837 1.5297482e-38 317 198
-0.0029140399 0.83099997 0.061194837 1.502199e-38 318 198
-0.0014570199 0.83099997 0.061194837 1.5114185e-38 319 198
0 0.829 0.061047558 1.5574457e-38 320 198
0.0014535133 0.829 0.061047558 1.6127631e-38 321 198
0.0029070266 0.829 0.061047558 1.6223054e-38 322 198
0.0043605398 0.829 0.061047558 1.6407445e-38 323 198
0.0058140531 0.829 0.061047558 1.6683672e-38 324 198
0.0072675664 0.829 0.061047558 1.6775867e-38 325 198
0.0087210797 0.829 0.061047558 1.686735e-38 326 198
0.010174593 0.829 0.061047558 1.6959547e-38 327 198
0.011628106 0.829 0.061047558 1.7143228e-38 328 198
0.01305006 0.82700002 0.060900278 1.7235423e-38 329 198
0.014500067 0.82700002 0.060900278 1.7235423e-38 330 198
0.015950073 0.82700002 0.060900278 1.7235423e-38 331 198
0.017400078 0.82700002 0.060900278 1.7327253e-38 332 198
0.018850086 0.82700002 0.060900278 1.7327253e-38 333 198
0.020300092 0.82700002 0.060900278 1.7510916e-38 334 198
0.0217501 0.82700002 0.060900278 1.741872e-38 335 198
0.023200106 0.82700002 0.060900278 1.714356e-38 336 198
0.024650112 0.82700002 0.060900278 1.7051363e-38 337 198
0.02610012 0.82700002 0.060900278 1.7051716e-38 338 198
0.027550125 0.82700002 0.060900278 1.7051716e-38 339 198
0.029000133 0.82700002 0.060900278 1.7235381e-38 340 198
0.030450139 0.82700002 0.060900278 1.6866959e-38 341 198
0.031900145 0.82700002 0.060900278 1.7049535e-38 342 198
0.033350151 0.82700002 0.060900278 1.695734e-38 343 198
0.034800157 0.82700002 0.060900278 1.6773659e-38 344 198
0.036250167 0.82700002 0.060900278 1.6589628e-38 345 198
0.037608996 0.82499999 0.060752995 1.6405252e-38 346 198
0.039055496 0.82499999 0.060752995 1.6405252e-38 347 198
0.040502001 0.82499999 0.060752995 1.6220886e-38 348 198
0.041948497 0.82499999 0.060752995 1.5759908e-38 349 198
0.043394998 0.82499999 0.060752995 1.493124e-38 350 198
0.044841498 0.82499999 0.060752995 1.4654652e-38 351 198
-0.045711152 0.84100002 0.060456682 7.0172977e-39 289 199
-0.044131398 0.83899999 0.060312908 7.7591017e-39 290 199
-0.042660352 0.83899999 0.060312908 9.1420376e-39 291 199
-0.041189305 0.83899999 0.060312908 1.2541712e-38 292 199
-0.039623581 0.83700001 0.060169142 1.300269e-38 293 199
-0.03815604 0.83700001 0.060169142 1.5118871e-38 294 199
-0.036776166 0.83899999 0.060312908 1.5118871e-38 295 199
-0.03530512 0.83899999 0.060312908 1.5395441e-38 296 199
-0.033753417 0.83700001 0.060169142 1.5487637e-38 297 199
-0.032285877 0.83700001 0.060169142 1.6221599e-38 298 199
-0.030744698 0.83499998 0.060025364 1.6221599e-38 299 199
-0.029280664 0.83499998 0.060025364 1.6498193e-38 300 199
-0.027816633 0.83499998 0.060025364 1.6405996e-38 301 199
-0.02628948 0.833 0.05988159 1.631453e-38 302 199
-0.024828954 0.833 0.05988159 1.6590757e-38 303 199
-0.023368426 0.833 0.05988159 1.6589685e-38 304 199
-0.021855298 0.83099997 0.059737816 1.6589685e-38 305 199
-0.02039828 0.83099997 0.059737816 1.6864827e-38 306 199
-0.018941259 0.83099997 0.059737816 1.6772632e-38 307 199
-0.017526319 0.833 0.05988159 1.6864103e-38 308 199
-0.016065793 0.833 0.05988159 1.6495322e-38 309 199
-0.014570199 0.83099997 0.059737816 1.6035065e-38 310 199
-0.013113179 0.83099997 0.059737816 1.594287e-38 311 199
-0.01165616 0.83099997 0.059737816 1.5759557e-38 312 199
-0.01019914 0.83099997 0.059737816 1.5667362e-38 313 199
-0.0087421201 0.83099997 0.059737816 1.548441e-38 314 199
-0.0072850995 0.83099997 0.059737816 1.548441e-38 315 199
-0.0058280798 0.83099997 0.059737816 1.5485136e-38 316 199
-0.0043710601 0.83099997 0.059737816 1.5577331e-38 317 199
-0.0029070266 0.829 0.059594043 1.5852489e-38 318 199
-0.0014535133 0.829 0.059594043 1.5852489e-38 319 199
0 0.829 0.059594043 1.6130149e-38 320 199
0.0014535133 0.829 0.059594043 1.6037952e-38 321 199
0.0029070266 0.829 0.059594043 1.6130498e-38 322 199
0.0043605398 0.829 0.059594043 1.6407445e-38 323 199
0.0058140531 0.829 0.059594043 1.6866265e-38 324 199
0.0072675664 0.829 0.059594043 1.6958819e-38 325 199
0.0087210797 0.829 0.059594043 1.7050659e-38 326 199
0.010174593 0.829 0.059594043 1.7050659e-38 327 199
0.011628106 0.829 0.059594043 1.723506e-38 328 199
0.01305006 0.82700002 0.059450272 1.723506e-38 329 199
0.014500067 0.82700002 0.059450272 1.7326903e-38 330 199
0.015950073 0.82700002 0.059450272 1.7326903e-38 331 199
0.017400078 0.82700002 0.059450272 1.7510212e-38 332 199
0.018850086 0.82700002 0.059450272 1.7418017e-38 333 199
0.020300092 0.82700002 0.059450272 1.7694234e-38 334 199
0.0217501 0.82700002 0.059450272 1.7694234e-38 335 199
0.023200106 0.82700002 0.059450272 1.7235408e-38 336 199
0.024650112 0.82700002 0.059450272 1.7235408e-38 337 199
0.02610012 0.82700002 0.059450272 1.7327603e-38 338 199
0.027550125 0.82700002 0.059450272 1.7327603e-38 339 199
0.028929999 0.82499999 0.059306499 1.7235405e-38 340 199
0.030376498 0.82499999 0.059306499 1.7143209e-38 341 199
0.031822998 0.82499999 0.059306499 1.7234678e-38 342 199
0.033269498 0.82499999 0.059306499 1.7234678e-38 343 199
0.034715999 0.82499999 0.059306499 1.6866969e-38 344 199
0.036162499 0.82499999 0.059306499 1.6590742e-38 345 199
0.037608996 0.82499999 0.059306499 1.631595e-38 346 199
0.039055496 0.82499999 0.059306499 1.6131557e-38 347 199
0.040502001 0.82499999 0.059306499 1.6314154e-38 348 199
0.041948497 0.82499999 0.059306499 1.6037568e-38 349 199
0.043394998 0.82499999 0.059306499 1.5670227e-38 350 199
0.044841498 0.82499999 0.059306499 1.5485835e-38 351 199
0.046175785 0.82300001 0.059162725 1.5577328e-38 352 199
0.04761878 0.82300001 0.059162725 1.5208905e-38 353 199
0.049061771 0.82300001 0.059162725 1.5024568e-38 354 199
0.051947758 0.82300001 0.059162725 1.4658361e-38 356 199
0.053261004 0.82099998 0.059018951 1.530373e-38 357 199
0.05470049 0.82099998 0.059018951 1.530807e-38 358 199
-0.045711152 0.84100002 0.05898213 2.6912862e-39 289 200
-0.044131398 0.83899999 0.058841862 8.0288559e-39 290 200
-0.042660352 0.83899999 0.058841862 1.0794365e-38 291 200
-0.041189305 0.83899999 0.058841862 1.2174037e-38 292 200
-0.039623581 0.83700001 0.058701597 1.2819406e-38 293 200
-0.03815604 0.83700001 0.058701597 1.447352e-38 294 200
-0.036776166 0.83899999 0.058841862 1.4750107e-38 295 200
-0.035220962 0.83700001 0.058701597 1.5302167e-38 296 200
-0.033672765 0.83499998 0.058561329 1.5302167e-38 297 200
-0.03220873 0.83499998 0.058561329 1.5577662e-38 298 200
-0.030744698 0.83499998 0.058561329 1.5762053e-38 299 200
-0.029280664 0.83499998 0.058561329 1.5945019e-38 300 200
-0.027816633 0.83499998 0.058561329 1.6037215e-38 301 200
-0.02628948 0.833 0.058421064 1.5762076e-38 302 200
-0.024828954 0.833 0.058421064 1.5854271e-38 303 200
-0.023368426 0.833 0.058421064 1.6220896e-38 304 200
-0.021855298 0.83099997 0.058280796 1.631345e-38 305 200
-0.02039828 0.83099997 0.058280796 1.6037221e-38 306 200
-0.018941259 0.83099997 0.058280796 1.5852471e-38 307 200
-0.017526319 0.833 0.058421064 1.5852473e-38 308 200
-0.016065793 0.833 0.058421064 1.5668081e-38 309 200
-0.014570199 0.83099997 0.058280796 1.5575529e-38 310 200
-0.013113179 0.83099997 0.058280796 1.5667725e-38 311 200
-0.01165616 0.83099997 0.058280796 1.539258e-38 312 200
-0.01019914 0.83099997 0.058280796 1.539258e-38 313 200
-0.0087421201 0.83099997 0.058280796 1.5485129e-38 314 200
-0.0072675664 0.829 0.058140531 1.566988e-38 315 200
-0.0058140531 0.829 0.058140531 1.5853189e-38 316 200
-0.0043605398 0.829 0.058140531 1.5945385e-38 317 200
-0.0029070266 0.829 0.058140531 1.5944669e-38 318 200
-0.0014535133 0.829 0.058140531 1.631345e-38 319 200
0 0.829 0.058140531 1.6220899e-38 320 200
0.0014535133 0.829 0.058140531 1.6313094e-38 321 200
0.0029000132 0.82700002 0.058000267 1.6222345e-38 322 200
0.0043500196 0.82700002 0.058000267 1.6407095e-38 323 200
0.0058140531 0.829 0.058140531 1.6406739e-38 324 200
0.0072500333 0.82700002 0.058000267 1.6406739e-38 325 200
0.0087000392 0.82700002 0.058000267 1.6774448e-38 326 200
0.010150046 0.82700002 0.058000267 1.6774448e-38 327 200
0.011600053 0.82700002 0.058000267 1.6774815e-38 328 200
0.01305006 0.82700002 0.058000267 1.6867011e-38 329 200
0.014500067 0.82700002 0.058000267 1.7142521e-38 330 200
0.015950073 0.82700002 0.058000267 1.695849e-38 331 200
0.017400078 0.82700002 0.058000267 1.7141802e-38 332 200
0.018850086 0.82700002 0.058000267 1.7141802e-38 333 200
0.020300092 0.82700002 0.058000267 1.7234704e-38 334 200
0.0217501 0.82700002 0.058000267 1.7234704e-38 335 200
0.023200106 0.82700002 0.058000267 1.7143578e-38 336 200
0.024590498 0.82499999 0.057859998 1.7235774e-38 337 200
0.026036998 0.82499999 0.057859998 1.7052814e-38 338 200
0.027483499 0.82499999 0.057859998 1.7052814e-38 339 200
0.028929999 0.82499999 0.057859998 1.7327959e-38 340 200
0.030376498 0.82499999 0.057859998 1.7327959e-38 341 200
0.031822998 0.82499999 0.057859998 1.7418707e-38 342 200
0.033269498 0.82499999 0.057859998 1.7418707e-38 343 200
0.034715999 0.82499999 0.057859998 1.7326861e-38 344 200
0.036162499 0.82499999 0.057859998 1.7234665e-38 345 200
0.037608996 0.82499999 0.057859998 1.7142814e-38 346 200
0.039055496 0.82499999 0.057859998 1.6866587e-38 347 200
0.040502001 0.82499999 0.057859998 1.7050606e-38 348 200
0.041846808 0.82300001 0.057719734 1.6866213e-38 349 200
0.043289799 0.82300001 0.057719734 1.6865857e-38 350 200
0.044841498 0.82499999 0.057859998 1.6773662e-38 351 200
0.046175785 0.82300001 0.057719734 1.6955201e-38 352 200
0.04761878 0.82300001 0.057719734 1.6678975e-38 353 200
0.049061771 0.82300001 0.057719734 1.5667359e-38 354 200
0.050504766 0.82300001 0.057719734 1.5298216e-38 355 200
0.051821519 0.82099998 0.057579465 1.4378801e-38 356 200
0.053261004 0.82099998 0.057579465 1.4378801e-38 357 200
0.054567236 0.81900001 0.057439201 1.4475378e-38 358 200
0.055866458 0.81699997 0.057298932 1.5673563e-38 359 200
-0.045711152 0.84100002 0.057507578 2.1384529e-39 289 201
-0.0442366 0.84100002 0.057507578 9.497142e-39 290 201
-0.042660352 0.83899999 0.057370819 1.143325e-38 291 201
-0.041189305 0.83899999 0.057370819 1.1803812e-38 292 201
-0.039623581 0.83700001 0.05723406 1.2172596e-38 293 201
-0.03815604 0.83700001 0.05723406 1.2999816e-38 294 201
-0.036688499 0.83700001 0.05723406 1.3092012e-38 295 201
-0.035220962 0.83700001 0.05723406 1.3827039e-38 296 201
-0.033672765 0.83499998 0.057097297 1.3919235e-38 297 201
-0.03220873 0.83499998 0.057097297 1.41029e-38 298 201
-0.030744698 0.83499998 0.057097297 1.41029e-38 299 201
-0.029280664 0.83499998 0.057097297 1.4285847e-38 300 201
-0.027816633 0.83499998 0.057097297 1.4378043e-38 301 201
-0.02628948 0.833 0.056960538 1.428694e-38 302 201
-0.024828954 0.833 0.056960538 1.4563886e-38 303 201
-0.023368426 0.833 0.056960538 1.4563182e-38 304 201
-0.021855298 0.83099997 0.056823779 1.4470986e-38 305 201
-0.02039828 0.83099997 0.056823779 1.4929794e-38 306 201
-0.018941259 0.83099997 0.056823779 1.4837598e-38 307 201
-0.017526319 0.833 0.056960538 1.4562088e-38 308 201
-0.016065793 0.833 0.056960538 1.4469891e-38 309 201
-0.014570199 0.83099997 0.056823779 1.4194397e-38 310 201
-0.013113179 0.83099997 0.056823779 1.4470984e-38 311 201
-0.01165616 0.83099997 0.056823779 1.529787e-38 312 201
-0.01019914 0.83099997 0.056823779 1.5390066e-38 313 201
-0.0087421201 0.83099997 0.056823779 1.5209273e-38 314 201
-0.0072675664 0.829 0.05668702 1.5485861e-38 315 201
-0.0058140531 0.829 0.05668702 1.5944319e-38 316 201
-0.0043605398 0.829 0.05668702 1.5944319e-38 317 201
-0.0029070266 0.829 0.05668702 1.5945391e-38 318 201
-0.0014535133 0.829 0.05668702 1.5945391e-38 319 201
0 0.829 0.05668702 1.5944316e-38 320 201
0.0014500066 0.82700002 0.056550261 1.6220901e-38 321 201
0.0029000132 0.82700002 0.056550261 1.6312741e-38 322 201
0.0043500196 0.82700002 0.056550261 1.6405297e-38 323 201
0.0058000265 0.82700002 0.056550261 1.6497492e-38 324 201
0.0072500333 0.82700002 0.056550261 1.6497492e-38 325 201
0.0087000392 0.82700002 0.056550261 1.6589685e-38 326 201
0.010150046 0.82700002 0.056550261 1.6589685e-38 327 201
0.011600053 0.82700002 0.056550261 1.6681886e-38 328 201
0.01305006 0.82700002 0.056550261 1.6865918e-38 329 201
0.014500067 0.82700002 0.056550261 1.6957407e-38 330 201
0.015950073 0.82700002 0.056550261 1.6957407e-38 331 201
0.017400078 0.82700002 0.056550261 1.7049237e-38 332 201
0.018850086 0.82700002 0.056550261 1.7233628e-38 333 201
0.020300092 0.82700002 0.056550261 1.7233623e-38 334 201
0.0217501 0.82700002 0.056550261 1.7326177e-38 335 201
0.023200106 0.82700002 0.056550261 1.6959194e-38 336 201
0.024590498 0.82499999 0.056413498 1.7143225e-38 337 201
0.026036998 0.82499999 0.056413498 1.6960987e-38 338 201
0.027483499 0.82499999 0.056413498 1.6960987e-38 339 201
0.028929999 0.82499999 0.056413498 1.714466e-38 340 201
0.030376498 0.82499999 0.056413498 1.714466e-38 341 201
0.031822998 0.82499999 0.056413498 1.7327975e-38 342 201
0.033269498 0.82499999 0.056413498 1.7327975e-38 343 201
0.034715999 0.82499999 0.056413498 1.7235055e-38 344 201
0.036162499 0.82499999 0.056413498 1.7142859e-38 345 201
0.037517827 0.82300001 0.056276739 1.696025e-38 346 201
0.038960818 0.82300001 0.056276739 1.6775858e-38 347 201
0.040403813 0.82300001 0.056276739 1.6776208e-38 348 201
0.041846808 0.82300001 0.056276739 1.6684012e-38 349 201
0.043289799 0.82300001 0.056276739 1.6591464e-38 350 201
0.044732794 0.82300001 0.056276739 1.6591464e-38 351 201
0.046175785 0.82300001 0.056276739 1.6681508e-38 352 201
0.04761878 0.82300001 0.056276739 1.6589311e-38 353 201
0.049061771 0.82300001 0.056276739 1.6037221e-38 354 201
0.050382029 0.82099998 0.05613998 1.5852471e-38 355 201
0.051821519 0.82099998 0.05613998 1.5759925e-38 356 201
0.053261004 0.82099998 0.05613998 1.5575532e-38 357 201
0.054567236 0.81900001 0.056003217 1.4747959e-38 358 201
0.055866458 0.81699997 0.055866458 1.4747959e-38 359 201
0.057298932 0.81699997 0.055866458 1.3462315e-38 360 201
-0.045819856 0.84299999 0.05616628 3.5148994e-39 289 202
-0.0442366 0.84100002 0.056033026 9.5846503e-39 290 202
-0.042660352 0.83899999 0.055899773 1.1336367e-38 291 202
-0.041189305 0.83899999 0.055899773 1.0971884e-38 292 202
-0.039623581 0.83700001 0.055766519 1.1156275e-38 293 202
-0.03815604 0.83700001 0.055766519 1.1800903e-38 294 202
-0.036688499 0.83700001 0.055766519 1.1800903e-38 295 202
-0.035220962 0.83700001 0.055766519 1.2535229e-38 296 202
-0.033672765 0.83499998 0.055633266 1.2903652e-38 297 202
-0.03220873 0.83499998 0.055633266 1.299657e-38 298 202
-0.030744698 0.83499998 0.055633266 1.299657e-38 299 202
-0.029280664 0.83499998 0.055633266 1.3456096e-38 300 202
-0.027816633 0.83499998 0.055633266 1.3363542e-38 301 202
-0.02628948 0.833 0.055500012 1.3456462e-38 302 202
-0.024828954 0.833 0.055500012 1.3640854e-38 303 202
-0.023368426 0.833 0.055500012 1.3823463e-38 304 202
-0.021855298 0.83099997 0.055366758 1.3823463e-38 305 202
-0.02039828 0.83099997 0.055366758 1.3824167e-38 306 202
-0.018941259 0.83099997 0.055366758 1.3639774e-38 307 202
-0.017526319 0.833 0.055500012 1.3730169e-38 308 202
-0.016065793 0.833 0.055500012 1.3730169e-38 309 202
-0.014570199 0.83099997 0.055366758 1.3271008e-38 310 202
-0.013113179 0.83099997 0.055366758 1.3455758e-38 311 202
-0.01165616 0.83099997 0.055366758 1.400786e-38 312 202
-0.01019914 0.83099997 0.055366758 1.4376282e-38 313 202
-0.0087421201 0.83099997 0.055366758 1.4378438e-38 314 202
-0.0072675664 0.829 0.055233505 1.474686e-38 315 202
-0.0058140531 0.829 0.055233505 1.5114921e-38 316 202
-0.0043605398 0.829 0.055233505 1.5207117e-38 317 202
-0.0029070266 0.829 0.055233505 1.5116719e-38 318 202
-0.0014535133 0.829 0.055233505 1.5209273e-38 319 202
0 0.829 0.055233505 1.5392585e-38 320 202
0.0014500066 0.82700002 0.055100251 1.5576978e-38 321 202
0.0029000132 0.82700002 0.055100251 1.5852492e-38 322 202
0.0043500196 0.82700002 0.055100251 1.6036883e-38 323 202
0.0058000265 0.82700002 0.055100251 1.6129081e-38 324 202
0.0072500333 0.82700002 0.055100251 1.6129081e-38 325 202
0.0087000392 0.82700002 0.055100251 1.6129432e-38 326 202
0.010150046 0.82700002 0.055100251 1.6129432e-38 327 202
0.011600053 0.82700002 0.055100251 1.6313471e-38 328 202
0.01305006 0.82700002 0.055100251 1.6497861e-38 329 202
0.014500067 0.82700002 0.055100251 1.6589706e-38 330 202
0.015950073 0.82700002 0.055100251 1.6589706e-38 331 202
0.017400078 0.82700002 0.055100251 1.6589701e-38 332 202
0.018850086 0.82700002 0.055100251 1.6682255e-38 333 202
0.020300092 0.82700002 0.055100251 1.6682255e-38 334 202
0.0217501 0.82700002 0.055100251 1.6774451e-38 335 202
0.023143999 0.82499999 0.054966997 1.6774095e-38 336 202
0.024590498 0.82499999 0.054966997 1.6958846e-38 337 202
0.026036998 0.82499999 0.054966997 1.6684054e-38 338 202
0.027416872 0.82300001 0.054833744 1.677625e-38 339 202
0.028859867 0.82300001 0.054833744 1.6960278e-38 340 202
0.03030286 0.82300001 0.054833744 1.6960278e-38 341 202
0.031745855 0.82300001 0.054833744 1.7052108e-38 342 202
0.033188846 0.82300001 0.054833744 1.7052108e-38 343 202
0.034631841 0.82300001 0.054833744 1.7510918e-38 344 202
0.036074832 0.82300001 0.054833744 1.7418723e-38 345 202
0.037517827 0.82300001 0.054833744 1.741907e-38 346 202
0.038960818 0.82300001 0.054833744 1.741907e-38 347 202
0.040403813 0.82300001 0.054833744 1.7143913e-38 348 202
0.041745111 0.82099998 0.05470049 1.7051716e-38 349 202
0.043184597 0.82099998 0.05470049 1.7235031e-38 350 202
0.044624086 0.82099998 0.05470049 1.7051e-38 351 202
0.046063572 0.82099998 0.05470049 1.7049565e-38 352 202
0.047503054 0.82099998 0.05470049 1.6865534e-38 353 202
0.048942544 0.82099998 0.05470049 1.6864453e-38 354 202
0.050382029 0.82099998 0.05470049 1.6588227e-38 355 202
0.051821519 0.82099998 0.05470049 1.6220883e-38 356 202
0.053261004 0.82099998 0.05470049 1.5944295e-38 357 202
0.054567236 0.81900001 0.054567236 1.5483671e-38 358 202
0.056003217 0.81900001 0.054567236 1.5114889e-38 359 202
0.057298932 0.81699997 0.054433983 1.4010747e-38 360 202
0.058731399 0.81699997 0.054433983 1.4656116e-38 361 202
-0.0442366 0.84100002 0.054558471 8.6637702e-39 290 203
-0.042762045 0.84100002 0.054558471 1.032329e-38 291 203
-0.041189305 0.83899999 0.054428723 1.0140348e-38 292 203
-0.039623581 0.83700001 0.054298978 1.0324739e-38 293 203
-0.03815604 0.83700001 0.054298978 1.0968657e-38 294 203
-0.036688499 0.83700001 0.054298978 1.0968657e-38 295 203
-0.035220962 0.83700001 0.054298978 1.142782e-38 296 203
-0.033672765 0.83499998 0.05416923 1.1704408e-38 297 203
-0.03220873 0.83499998 0.05416923 1.1981354e-38 298 203
-0.030744698 0.83499998 0.05416923 1.2257582e-38 299 203
-0.029280664 0.83499998 0.05416923 1.2533093e-38 300 203
-0.027816633 0.83499998 0.05416923 1.2625289e-38 301 203
-0.026352599 0.83499998 0.05416923 1.2809683e-38 302 203
-0.024828954 0.833 0.054039486 1.290188e-38 303 203
-0.023368426 0.833 0.054039486 1.3084124e-38 304 203
-0.021855298 0.83099997 0.053909738 1.3084124e-38 305 203
-0.02039828 0.83099997 0.053909738 1.2901155e-38 306 203
-0.018941259 0.83099997 0.053909738 1.262457e-38 307 203
-0.017526319 0.833 0.054039486 1.2623121e-38 308 203
-0.016065793 0.833 0.054039486 1.2807872e-38 309 203
-0.014570199 0.83099997 0.053909738 1.2624938e-38 310 203
-0.013113179 0.83099997 0.053909738 1.2717134e-38 311 203
-0.01165616 0.83099997 0.053909738 1.2901176e-38 312 203
-0.01019914 0.83099997 0.053909738 1.2993731e-38 313 203
-0.0087421201 0.83099997 0.053909738 1.3270308e-38 314 203
-0.0072675664 0.829 0.053779993 1.3454699e-38 315 203
-0.0058140531 0.829 0.053779993 1.3639803e-38 316 203
-0.0043605398 0.829 0.053779993 1.391603e-38 317 203
-0.0029070266 0.829 0.053779993 1.3917825e-38 318 203
-0.0014535133 0.829 0.053779993 1.4102577e-38 319 203
0 0.829 0.053779993 1.4470631e-38 320 203
0.0014500066 0.82700002 0.053650245 1.4839413e-38 321 203
0.0029000132 0.82700002 0.053650245 1.5298952e-38 322 203
0.0043500196 0.82700002 0.053650245 1.5667374e-38 323 203
0.0058000265 0.82700002 0.053650245 1.5942889e-38 324 203
0.0072500333 0.82700002 0.053650245 1.5942889e-38 325 203
0.0087000392 0.82700002 0.053650245 1.585177e-38 326 203
0.010150046 0.82700002 0.053650245 1.6036161e-38 327 203
0.011600053 0.82700002 0.053650245 1.6037236e-38 328 203
0.01305006 0.82700002 0.053650245 1.6037236e-38 329 203
0.014500067 0.82700002 0.053650245 1.6221275e-38 330 203
0.015950073 0.82700002 0.053650245 1.6313471e-38 331 203
0.017400078 0.82700002 0.053650245 1.6404588e-38 332 203
0.018850086 0.82700002 0.053650245 1.6497142e-38 333 203
0.020251 0.82499999 0.053520497 1.6496786e-38 334 203
0.021697499 0.82499999 0.053520497 1.6681536e-38 335 203
0.023143999 0.82499999 0.053520497 1.6681183e-38 336 203
0.024530886 0.82300001 0.053390753 1.6865214e-38 337 203
0.025973879 0.82300001 0.053390753 1.6682621e-38 338 203
0.027350245 0.82099998 0.053261004 1.6774818e-38 339 203
0.028789733 0.82099998 0.053261004 1.6684054e-38 340 203
0.030229218 0.82099998 0.053261004 1.677625e-38 341 203
0.031668708 0.82099998 0.053261004 1.6959559e-38 342 203
0.03310819 0.82099998 0.053261004 1.7052114e-38 343 203
0.034547675 0.82099998 0.053261004 1.7327256e-38 344 203
0.035987165 0.82099998 0.053261004 1.7327256e-38 345 203
0.037426651 0.82099998 0.053261004 1.7327253e-38 346 203
0.03886614 0.82099998 0.053261004 1.7327253e-38 347 203
0.040305622 0.82099998 0.053261004 1.7236129e-38 348 203
0.041745111 0.82099998 0.053261004 1.7143934e-38 349 203
0.043079399 0.81900001 0.053131256 1.7326524e-38 350 203
0.044515379 0.81900001 0.053131256 1.7326524e-38 351 203
0.045951359 0.81900001 0.053131256 1.7233962e-38 352 203
0.047387339 0.81900001 0.053131256 1.7141766e-38 353 203
0.048823319 0.81900001 0.053131256 1.7141397e-38 354 203
0.050382029 0.82099998 0.053261004 1.6956647e-38 355 203
0.051821519 0.82099998 0.053261004 1.6589646e-38 356 203
0.053261004 0.82099998 0.053261004 1.649745e-38 357 203
0.054567236 0.81900001 0.053131256 1.6496381e-38 358 203
0.056003217 0.81900001 0.053131256 1.6311631e-38 359 203
0.057298932 0.81699997 0.053001508 1.5667009e-38 360 203
0.058731399 0.81699997 0.053001508 1.5482617e-38 361 203
0.060163878 0.81699997 0.053001508 1.4194432e-38 362 203
0.061596353 0.81699997 0.053001508 1.4286986e-38 363 203
0.06302882 0.81699997 0.053001508 1.3831467e-38 364 203
-0.042762045 0.84100002 0.053083919 8.5805625e-39 291 204
-0.041287493 0.84100002 0.053083919 1.0324736e-38 292 204
-0.039718259 0.83899999 0.052957676 1.0509486e-38 293 204
-0.038247209 0.83899999 0.052957676 1.1059783e-38 294 204
-0.036776166 0.83899999 0.052957676 1.133637e-38 295 204
-0.035220962 0.83700001 0.052831437 1.1704061e-38 296 204
-0.033753417 0.83700001 0.052831437 1.1796257e-38 297 204
-0.032285877 0.83700001 0.052831437 1.1888805e-38 298 204
-0.030818338 0.83700001 0.052831437 1.2165034e-38 299 204
-0.029280664 0.83499998 0.052705199 1.2349428e-38 300 204
-0.027816633 0.83499998 0.052705199 1.2349428e-38 301 204
-0.026352599 0.83499998 0.052705199 1.2624938e-38 302 204
-0.024888566 0.83499998 0.052705199 1.2624938e-38 303 204
-0.023424532 0.83499998 0.052705199 1.289938e-38 304 204
-0.0219079 0.833 0.05257896 1.2807184e-38 305 204
-0.02039828 0.83099997 0.052452717 1.2715339e-38 306 204
-0.018941259 0.83099997 0.052452717 1.2531308e-38 307 204
-0.017526319 0.833 0.05257896 1.2530578e-38 308 204
-0.016065793 0.833 0.05257896 1.2530578e-38 309 204
-0.014570199 0.83099997 0.052452717 1.2438758e-38 310 204
-0.013113179 0.83099997 0.052452717 1.2530955e-38 311 204
-0.01165616 0.83099997 0.052452717 1.2714633e-38 312 204
-0.01019914 0.83099997 0.052452717 1.2714633e-38 313 204
-0.0087421201 0.83099997 0.052452717 1.2899377e-38 314 204
-0.0072850995 0.83099997 0.052452717 1.2899377e-38 315 204
-0.0058140531 0.829 0.052326478 1.2717137e-38 316 204
-0.0043605398 0.829 0.052326478 1.2901529e-38 317 204
-0.0029070266 0.829 0.052326478 1.2811838e-38 318 204
-0.0014535133 0.829 0.052326478 1.2995869e-38 319 204
0 0.829 0.052326478 1.3271364e-38 320 204
0.0014535133 0.829 0.052326478 1.3547951e-38 321 204
0.0029000132 0.82700002 0.052200239 1.3917813e-38 322 204
0.0043500196 0.82700002 0.052200239 1.4286236e-38 323 204
0.0058000265 0.82700002 0.052200239 1.4653592e-38 324 204
0.0072500333 0.82700002 0.052200239 1.4838342e-38 325 204
0.0087000392 0.82700002 0.052200239 1.4747593e-38 326 204
0.010150046 0.82700002 0.052200239 1.502382e-38 327 204
0.011600053 0.82700002 0.052200239 1.5024899e-38 328 204
0.01305006 0.82700002 0.052200239 1.5301486e-38 329 204
0.014500067 0.82700002 0.052200239 1.5485874e-38 330 204
0.015950073 0.82700002 0.052200239 1.5578428e-38 331 204
0.017400078 0.82700002 0.052200239 1.6036161e-38 332 204
0.018804498 0.82499999 0.052073997 1.6036161e-38 333 204
0.020251 0.82499999 0.052073997 1.6219827e-38 334 204
0.021697499 0.82499999 0.052073997 1.6404577e-38 335 204
0.023087893 0.82300001 0.051947758 1.6404944e-38 336 204
0.024530886 0.82300001 0.051947758 1.6497139e-38 337 204
0.025910759 0.82099998 0.051821519 1.6497858e-38 338 204
0.027350245 0.82099998 0.051821519 1.6497858e-38 339 204
0.028789733 0.82099998 0.051821519 1.6682605e-38 340 204
0.030229218 0.82099998 0.051821519 1.6682605e-38 341 204
0.031668708 0.82099998 0.051821519 1.7050313e-38 342 204
0.03310819 0.82099998 0.051821519 1.7142509e-38 343 204
0.034547675 0.82099998 0.051821519 1.7142509e-38 344 204
0.035987165 0.82099998 0.051821519 1.7142509e-38 345 204
0.037426651 0.82099998 0.051821519 1.7418373e-38 346 204
0.03886614 0.82099998 0.051821519 1.7510568e-38 347 204
0.040305622 0.82099998 0.051821519 1.7235779e-38 348 204
0.041745111 0.82099998 0.051821519 1.7235779e-38 349 204
0.043079399 0.81900001 0.05169528 1.7235411e-38 350 204
0.044515379 0.81900001 0.05169528 1.7143215e-38 351 204
0.045951359 0.81900001 0.05169528 1.7234681e-38 352 204
0.047387339 0.81900001 0.05169528 1.7050649e-38 353 204
0.048823319 0.81900001 0.05169528 1.7233596e-38 354 204
0.0502593 0.81900001 0.05169528 1.7141042e-38 355 204
0.05169528 0.81900001 0.05169528 1.6865884e-38 356 204
0.053131256 0.81900001 0.05169528 1.6773688e-38 357 204
0.054567236 0.81900001 0.05169528 1.6773691e-38 358 204
0.056003217 0.81900001 0.05169528 1.6496744e-38 359 204
0.057439201 0.81900001 0.05169528 1.5945375e-38 360 204
0.058731399 0.81699997 0.051569037 1.5668428e-38 361 204
0.060163878 0.81699997 0.051569037 1.5665561e-38 362 204
0.061596353 0.81699997 0.051569037 1.5481168e-38 363 204
0.06302882 0.81699997 0.051569037 1.4103688e-38 364 204
0.064619094 0.81900001 0.05169528 1.4379915e-38 365 204
0.066216379 0.82099998 0.051821519 1.3924411e-38 366 204
0.067655869 0.82099998 0.051821519 1.53999e-38 367 204
-0.04138568 0.84299999 0.051732097 1.0877518e-38 292 205
-0.039812941 0.84100002 0.051609367 1.1061909e-38 293 205
-0.038338386 0.84100002 0.051609367 1.1337771e-38 294 205
-0.036776166 0.83899999 0.05148663 1.1430326e-38 295 205
-0.03530512 0.83899999 0.05148663 1.1705483e-38 296 205
-0.033753417 0.83700001 0.051363897 1.1797679e-38 297 205
-0.032285877 0.83700001 0.051363897 1.1706206e-38 298 205
-0.030818338 0.83700001 0.051363897 1.1798761e-38 299 205
-0.029280664 0.83499998 0.051241163 1.207427e-38 300 205
-0.027816633 0.83499998 0.051241163 1.2166466e-38 301 205
-0.026352599 0.83499998 0.051241163 1.2533093e-38 302 205
-0.024888566 0.83499998 0.051241163 1.2349062e-38 303 205
-0.023424532 0.83499998 0.051241163 1.2439472e-38 304 205
-0.0219079 0.833 0.051118433 1.2347275e-38 305 205
-0.020447372 0.833 0.051118433 1.2255082e-38 306 205
-0.018986847 0.833 0.051118433 1.2255082e-38 307 205
-0.017568398 0.83499998 0.051241163 1.1979216e-38 308 205
-0.016104365 0.83499998 0.051241163 1.188702e-38 309 205
-0.014605266 0.833 0.051118433 1.2161815e-38 310 205
-0.01314474 0.833 0.051118433 1.2161815e-38 311 205
-0.01165616 0.83099997 0.050995696 1.225366e-38 312 205
-0.01019914 0.83099997 0.050995696 1.225366e-38 313 205
-0.0087421201 0.83099997 0.050995696 1.2346223e-38 314 205
-0.0072850995 0.83099997 0.050995696 1.2254026e-38 315 205
-0.0058280798 0.83099997 0.050995696 1.1979947e-38 316 205
-0.0043710601 0.83099997 0.050995696 1.2256175e-38 317 205
-0.0029070266 0.829 0.050872963 1.2165059e-38 318 205
-0.0014535133 0.829 0.050872963 1.2441644e-38 319 205
0 0.829 0.050872963 1.2441276e-38 320 205
0.0014535133 0.829 0.050872963 1.2625667e-38 321 205
0.0029070266 0.829 0.050872963 1.2903305e-38 322 205
0.0043605398 0.829 0.050872963 1.3087696e-38 323 205
0.0058000265 0.82700002 0.050750233 1.3455405e-38 324 205
0.0072500333 0.82700002 0.050750233 1.3916383e-38 325 205
0.0087000392 0.82700002 0.050750233 1.3825277e-38 326 205
0.010150046 0.82700002 0.050750233 1.4102224e-38 327 205
0.011600053 0.82700002 0.050750233 1.4287334e-38 328 205
0.01305006 0.82700002 0.050750233 1.4656116e-38 329 205
0.014500067 0.82700002 0.050750233 1.4932703e-38 330 205
0.015950073 0.82700002 0.050750233 1.5024899e-38 331 205
0.017400078 0.82700002 0.050750233 1.520857e-38 332 205
0.018804498 0.82499999 0.0506275 1.5300767e-38 333 205
0.020251 0.82499999 0.0506275 1.6035085e-38 334 205
0.0216449 0.82300001 0.050504766 1.6219476e-38 335 205
0.023087893 0.82300001 0.050504766 1.5944684e-38 336 205
0.024530886 0.82300001 0.050504766 1.603688e-38 337 205
0.025910759 0.82099998 0.050382029 1.5854289e-38 338 205
0.027350245 0.82099998 0.050382029 1.5946486e-38 339 205
0.028789733 0.82099998 0.050382029 1.6038682e-38 340 205
0.030229218 0.82099998 0.050382029 1.6038682e-38 341 205
0.031668708 0.82099998 0.050382029 1.6314559e-38 342 205
0.03310819 0.82099998 0.050382029 1.6406754e-38 343 205
0.034547675 0.82099998 0.050382029 1.6682621e-38 344 205
0.035987165 0.82099998 0.050382029 1.6774818e-38 345 205
0.037426651 0.82099998 0.050382029 1.6867013e-38 346 205
0.03886614 0.82099998 0.050382029 1.6959209e-38 347 205
0.040305622 0.82099998 0.050382029 1.6960284e-38 348 205
0.041643418 0.81900001 0.0502593 1.6960284e-38 349 205
0.043079399 0.81900001 0.0502593 1.7143581e-38 350 205
0.044515379 0.81900001 0.0502593 1.695955e-38 351 205
0.045951359 0.81900001 0.0502593 1.7143565e-38 352 205
0.047387339 0.81900001 0.0502593 1.7051368e-38 353 205
0.048823319 0.81900001 0.0502593 1.7234315e-38 354 205
0.0502593 0.81900001 0.0502593 1.7234315e-38 355 205
0.05169528 0.81900001 0.0502593 1.7142469e-38 356 205
0.053131256 0.81900001 0.0502593 1.7049915e-38 357 205
0.054567236 0.81900001 0.0502593 1.7050621e-38 358 205
0.056003217 0.81900001 0.0502593 1.6681839e-38 359 205
0.057439201 0.81900001 0.0502593 1.6590347e-38 360 205
0.058875177 0.81900001 0.0502593 1.6221924e-38 361 205
0.060311157 0.81900001 0.0502593 1.6402378e-38 362 205
0.061596353 0.81699997 0.050136562 1.6126151e-38 363 205
0.06302882 0.81699997 0.050136562 1.4839043e-38 364 205
0.064619094 0.81900001 0.0502593 1.4009282e-38 365 205
0.066216379 0.82099998 0.050382029 1.2722198e-38 366 205
0.067655869 0.82099998 0.050382029 1.4381718e-38 367 205
0.069095351 0.82099998 0.050382029 1.4938206e-38 368 205
0.070534848 0.82099998 0.050382029 1.6321142e-38 369 205
-0.039907619 0.84299999 0.050254039 1.1248869e-38 293 206
-0.038429558 0.84299999 0.050254039 1.1522914e-38 294 206
-0.03686383 0.84100002 0.050134812 1.1522914e-38 295 206
-0.03530512 0.83899999 0.050015584 1.1614376e-38 296 206
-0.03383407 0.83899999 0.050015584 1.1706932e-38 297 206
-0.032363027 0.83899999 0.050015584 1.198207e-38 298 206
-0.030891977 0.83899999 0.050015584 1.2074267e-38 299 206
-0.029350799 0.83700001 0.049896359 1.2166822e-38 300 206
-0.027816633 0.83499998 0.049777132 1.2074267e-38 301 206
-0.026352599 0.83499998 0.049777132 1.2257582e-38 302 206
-0.024888566 0.83499998 0.049777132 1.2165385e-38 303 206
-0.023424532 0.83499998 0.049777132 1.2347628e-38 304 206
-0.021960499 0.83499998 0.049777132 1.2071402e-38 305 206
-0.020447372 0.833 0.049657907 1.1979569e-38 306 206
-0.018986847 0.833 0.049657907 1.1887373e-38 307 206
-0.017568398 0.83499998 0.049777132 1.1703342e-38 308 206
-0.016104365 0.83499998 0.049777132 1.1611146e-38 309 206
-0.014605266 0.833 0.049657907 1.1885582e-38 310 206
-0.01314474 0.833 0.049657907 1.2069613e-38 311 206
-0.01165616 0.83099997 0.049538679 1.1793752e-38 312 206
-0.01019914 0.83099997 0.049538679 1.1885948e-38 313 206
-0.0087421201 0.83099997 0.049538679 1.2069263e-38 314 206
-0.0072850995 0.83099997 0.049538679 1.2069263e-38 315 206
-0.0058280798 0.83099997 0.049538679 1.2069616e-38 316 206
-0.0043710601 0.83099997 0.049538679 1.2254008e-38 317 206
-0.0029140399 0.83099997 0.049538679 1.2254361e-38 318 206
-0.0014570199 0.83099997 0.049538679 1.2438752e-38 319 206
0 0.829 0.049419452 1.27139e-38 320 206
0.0014535133 0.829 0.049419452 1.27139e-38 321 206
0.0029070266 0.829 0.049419452 1.2807169e-38 322 206
0.0043605398 0.829 0.049419452 1.2899364e-38 323 206
0.0058000265 0.82700002 0.049300224 1.2166115e-38 324 206
0.0072500333 0.82700002 0.049300224 1.2442342e-38 325 206
0.0087000392 0.82700002 0.049300224 1.2443428e-38 326 206
0.010150046 0.82700002 0.049300224 1.2719655e-38 327 206
0.011600053 0.82700002 0.049300224 1.3087711e-38 328 206
0.01305006 0.82700002 0.049300224 1.3364658e-38 329 206
0.014500067 0.82700002 0.049300224 1.382563e-38 330 206
0.015950073 0.82700002 0.049300224 1.4010381e-38 331 206
0.017400078 0.82700002 0.049300224 1.4378801e-38 332 206
0.018804498 0.82499999 0.049180996 1.4563551e-38 333 206
0.020251 0.82499999 0.049180996 1.5207119e-38 334 206
0.0216449 0.82300001 0.049061771 1.5483706e-38 335 206
0.023087893 0.82300001 0.049061771 1.5576256e-38 336 206
0.024530886 0.82300001 0.049061771 1.5576256e-38 337 206
0.025910759 0.82099998 0.048942544 1.5760997e-38 338 206
0.027350245 0.82099998 0.048942544 1.5853192e-38 339 206
0.028789733 0.82099998 0.048942544 1.5945035e-38 340 206
0.030155579 0.81900001 0.048823319 1.603723e-38 341 206
0.031591557 0.81900001 0.048823319 1.6404223e-38 342 206
0.033027537 0.81900001 0.048823319 1.6680452e-38 343 206
0.034463517 0.81900001 0.048823319 1.677265e-38 344 206
0.035899501 0.81900001 0.048823319 1.6864846e-38 345 206
0.037335481 0.81900001 0.048823319 1.6956688e-38 346 206
0.038771462 0.81900001 0.048823319 1.7233275e-38 347 206
0.040207438 0.81900001 0.048823319 1.7049963e-38 348 206
0.041643418 0.81900001 0.048823319 1.7142158e-38 349 206
0.043079399 0.81900001 0.048823319 1.7142506e-38 350 206
0.044515379 0.81900001 0.048823319 1.7142506e-38 351 206
0.045951359 0.81900001 0.048823319 1.7142859e-38 352 206
0.047387339 0.81900001 0.048823319 1.7142859e-38 353 206
0.048823319 0.81900001 0.048823319 1.7326524e-38 354 206
0.0502593 0.81900001 0.048823319 1.7234327e-38 355 206
0.05169528 0.81900001 0.048823319 1.6868423e-38 356 206
0.053131256 0.81900001 0.048823319 1.6868423e-38 357 206
0.054567236 0.81900001 0.048823319 1.6775867e-38 358 206
0.056003217 0.81900001 0.048823319 1.6499641e-38 359 206
0.057439201 0.81900001 0.048823319 1.6407793e-38 360 206
0.058875177 0.81900001 0.048823319 1.6131204e-38 361 206
0.060311157 0.81900001 0.048823319 1.6221599e-38 362 206
0.061596353 0.81699997 0.048704091 1.5853177e-38 363 206
0.06302882 0.81699997 0.048704091 1.5667712e-38 364 206
0.064776897 0.82099998 0.048942544 1.5390767e-38 365 206
0.066216379 0.82099998 0.048942544 1.4931243e-38 366 206
0.067655869 0.82099998 0.048942544 1.4654296e-38 367 206
0.069095351 0.82099998 0.048942544 1.3552332e-38 368 206
0.070534848 0.82099998 0.048942544 1.4289897e-38 369 206
0.07197433 0.82099998 0.048942544 1.4664147e-38 370 206
-0.036951501 0.84299999 0.048775978 1.1614756e-38 295 207
-0.03547344 0.84299999 0.048775978 1.1613663e-38 296 207
-0.033914726 0.84100002 0.04866026 1.1521468e-38 297 207
-0.032440174 0.84100002 0.04866026 1.0970827e-38 298 207
-0.030891977 0.83899999 0.048544537 1.1063023e-38 299 207
-0.029350799 0.83700001 0.048428819 1.1522917e-38 300 207
-0.027816633 0.83499998 0.048313096 1.1522917e-38 301 207
-0.026352599 0.83499998 0.048313096 1.1797703e-38 302 207
-0.024888566 0.83499998 0.048313096 1.161331e-38 303 207
-0.023480639 0.83700001 0.048428819 1.1795903e-38 304 207
-0.021960499 0.83499998 0.048313096 1.1703708e-38 305 207
-0.020496465 0.83499998 0.048313096 1.1611512e-38 306 207
-0.019032432 0.83499998 0.048313096 1.1519317e-38 307 207
-0.017568398 0.83499998 0.048313096 1.1426761e-38 308 207
-0.016104365 0.83499998 0.048313096 1.1426761e-38 309 207
-0.014640332 0.83499998 0.048313096 1.1243454e-38 310 207
-0.01314474 0.833 0.048197377 1.1243454e-38 311 207
-0.01165616 0.83099997 0.048081655 1.142641e-38 312 207
-0.01019914 0.83099997 0.048081655 1.142641e-38 313 207
-0.0087421201 0.83099997 0.048081655 1.142641e-38 314 207
-0.0072850995 0.83099997 0.048081655 1.142641e-38 315 207
-0.0058280798 0.83099997 0.048081655 1.1151986e-38 316 207
-0.0043710601 0.83099997 0.048081655 1.1336017e-38 317 207
-0.0029140399 0.83099997 0.048081655 1.1610806e-38 318 207
-0.0014570199 0.83099997 0.048081655 1.1703002e-38 319 207
0 0.829 0.04796594 1.1886317e-38 320 207
0.0014535133 0.829 0.04796594 1.1978512e-38 321 207
0.0029070266 0.829 0.04796594 1.1612609e-38 322 207
0.0043500196 0.82700002 0.047850218 1.1797002e-38 323 207
0.0058000265 0.82700002 0.047850218 1.1614053e-38 324 207
0.0072500333 0.82700002 0.047850218 1.1798084e-38 325 207
0.0087000392 0.82700002 0.047850218 1.1799168e-38 326 207
0.010150046 0.82700002 0.047850218 1.1799168e-38 327 207
0.011600053 0.82700002 0.047850218 1.2533121e-38 328 207
0.01305006 0.82700002 0.047850218 1.2901545e-38 329 207
0.014500067 0.82700002 0.047850218 1.2994078e-38 330 207
0.015950073 0.82700002 0.047850218 1.3270305e-38 331 207
0.017400078 0.82700002 0.047850218 1.3364656e-38 332 207
0.018804498 0.82499999 0.047734499 1.3825632e-38 333 207
0.020251 0.82499999 0.047734499 1.4285539e-38 334 207
0.0216449 0.82300001 0.04761878 1.4562125e-38 335 207
0.023087893 0.82300001 0.04761878 1.4747593e-38 336 207
0.024530886 0.82300001 0.04761878 1.502382e-38 337 207
0.025910759 0.82099998 0.047503054 1.4841224e-38 338 207
0.027350245 0.82099998 0.047503054 1.4933778e-38 339 207
0.028789733 0.82099998 0.047503054 1.520929e-38 340 207
0.030155579 0.81900001 0.047387339 1.5393681e-38 341 207
0.031591557 0.81900001 0.047387339 1.5668836e-38 342 207
0.033027537 0.81900001 0.047387339 1.5853586e-38 343 207
0.034463517 0.81900001 0.047387339 1.6036547e-38 344 207
0.035899501 0.81900001 0.047387339 1.6220938e-38 345 207
0.037335481 0.81900001 0.047387339 1.6313136e-38 346 207
0.038771462 0.81900001 0.047387339 1.6497886e-38 347 207
0.040207438 0.81900001 0.047387339 1.6497883e-38 348 207
0.041643418 0.81900001 0.047387339 1.6681915e-38 349 207
0.043079399 0.81900001 0.047387339 1.6774098e-38 350 207
0.044406671 0.81699997 0.047271617 1.6866295e-38 351 207
0.045839142 0.81699997 0.047271617 1.6775165e-38 352 207
0.047271617 0.81699997 0.047271617 1.686772e-38 353 207
0.048704091 0.81699997 0.047271617 1.6775873e-38 354 207
0.050136562 0.81699997 0.047271617 1.6960266e-38 355 207
0.051569037 0.81699997 0.047271617 1.69599e-38 356 207
0.053001508 0.81699997 0.047271617 1.69599e-38 357 207
0.054433983 0.81699997 0.047271617 1.6960253e-38 358 207
0.055866458 0.81699997 0.047271617 1.6775502e-38 359 207
0.057298932 0.81699997 0.047271617 1.6776558e-38 360 207
0.058731399 0.81699997 0.047271617 1.6499613e-38 361 207
0.060163878 0.81699997 0.047271617 1.6682548e-38 362 207
0.061596353 0.81699997 0.047271617 1.6497798e-38 363 207
0.063183114 0.81900001 0.047387339 1.6495636e-38 364 207
0.064776897 0.82099998 0.047503054 1.6310886e-38 365 207
0.066216379 0.82099998 0.047503054 1.6127223e-38 366 207
0.067655869 0.82099998 0.047503054 1.5297462e-38 367 207
0.069095351 0.82099998 0.047503054 1.3731601e-38 368 207
0.070363015 0.81900001 0.047387339 1.4008187e-38 369 207
0.071799003 0.81900001 0.047387339 1.3003842e-38 370 207
0.073234983 0.81900001 0.047387339 1.4663005e-38 371 207
-0.03547344 0.84299999 0.047297917 1.0781436e-38 296 208
-0.033995379 0.84299999 0.047297917 1.0413014e-38 297 208
-0.032517318 0.84299999 0.047297917 9.9556258e-39 298 208
-0.030965621 0.84100002 0.047185708 1.0324048e-38 299 208
-0.029350799 0.83700001 0.046961278 1.1059087e-38 300 208
-0.02788326 0.83700001 0.046961278 1.1151282e-38 301 208
-0.026415719 0.83700001 0.046961278 1.1334948e-38 302 208
-0.02494818 0.83700001 0.046961278 1.1334948e-38 303 208
-0.023480639 0.83700001 0.046961278 1.1425341e-38 304 208
-0.021960499 0.83499998 0.046849065 1.1333146e-38 305 208
-0.020496465 0.83499998 0.046849065 1.1333499e-38 306 208
-0.019032432 0.83499998 0.046849065 1.1241303e-38 307 208
-0.017610481 0.83700001 0.046961278 1.1057988e-38 308 208
-0.016142938 0.83700001 0.046961278 1.0965792e-38 309 208
-0.014640332 0.83499998 0.046849065 1.0874676e-38 310 208
-0.0131763 0.83499998 0.046849065 1.1058707e-38 311 208
-0.011684213 0.833 0.046736851 1.1058707e-38 312 208
-0.010223686 0.833 0.046736851 1.1058707e-38 313 208
-0.0087631596 0.833 0.046736851 1.1058704e-38 314 208
-0.007302633 0.833 0.046736851 1.11509e-38 315 208
-0.0058280798 0.83099997 0.046624638 1.11509e-38 316 208
-0.0043710601 0.83099997 0.046624638 1.1243454e-38 317 208
-0.0029140399 0.83099997 0.046624638 1.1518963e-38 318 208
-0.0014570199 0.83099997 0.046624638 1.1518963e-38 319 208
0 0.83099997 0.046624638 1.1794108e-38 320 208
0.0014535133 0.829 0.046512425 1.1886304e-38 321 208
0.0029070266 0.829 0.046512425 1.1703711e-38 322 208
0.0043500196 0.82700002 0.046400212 1.1795906e-38 323 208
0.0058000265 0.82700002 0.046400212 1.1796269e-38 324 208
0.0072500333 0.82700002 0.046400212 1.1796269e-38 325 208
0.0087000392 0.82700002 0.046400212 1.1887749e-38 326 208
0.010150046 0.82700002 0.046400212 1.1979944e-38 327 208
0.011600053 0.82700002 0.046400212 1.2439478e-38 328 208
0.01305006 0.82700002 0.046400212 1.2531673e-38 329 208
0.014500067 0.82700002 0.046400212 1.216468e-38 330 208
0.015950073 0.82700002 0.046400212 1.1980648e-38 331 208
0.017400078 0.82700002 0.046400212 1.2349783e-38 332 208
0.018804498 0.82499999 0.046287999 1.262637e-38 333 208
0.020251 0.82499999 0.046287999 1.2995519e-38 334 208
0.0216449 0.82300001 0.046175785 1.3364303e-38 335 208
0.023087893 0.82300001 0.046175785 1.3549766e-38 336 208
0.024530886 0.82300001 0.046175785 1.3918548e-38 337 208
0.025910759 0.82099998 0.046063572 1.4654301e-38 338 208
0.027350245 0.82099998 0.046063572 1.493089e-38 339 208
0.028789733 0.82099998 0.046063572 1.5116e-38 340 208
0.030155579 0.81900001 0.045951359 1.5208554e-38 341 208
0.031591557 0.81900001 0.045951359 1.5667024e-38 342 208
0.033027537 0.81900001 0.045951359 1.5851417e-38 343 208
0.034463517 0.81900001 0.045951359 1.5943618e-38 344 208
0.035899501 0.81900001 0.045951359 1.6219845e-38 345 208
0.037335481 0.81900001 0.045951359 1.631204e-38 346 208
0.038771462 0.81900001 0.045951359 1.6404237e-38 347 208
0.040207438 0.81900001 0.045951359 1.6404591e-38 348 208
0.041643418 0.81900001 0.045951359 1.6496786e-38 349 208
0.042974196 0.81699997 0.045839142 1.6865199e-38 350 208
0.044406671 0.81699997 0.045839142 1.6865199e-38 351 208
0.045839142 0.81699997 0.045839142 1.6774798e-38 352 208
0.047271617 0.81699997 0.045839142 1.6774798e-38 353 208
0.048704091 0.81699997 0.045839142 1.6775521e-38 354 208
0.050013833 0.815 0.045726933 1.6867717e-38 355 208
0.051442798 0.815 0.045726933 1.7143228e-38 356 208
0.053001508 0.81699997 0.045839142 1.7143228e-38 357 208
