# .PCD v.7 - Point Cloud Data file format
FIELDS x y z rgb imX imY
SIZE 4 4 4 4 4 4
TYPE F F F F F F
COUNT 1 1 1 1 1 1
WIDTH 851
HEIGHT 1
VIEWPOINT 0 0 0 1 0 0 0
POINTS 851
DATA ascii
0.097402923 0.76099998 -0.021348584 1.7881245e-38 393 256
-0.0056317062 0.80299997 -0.023934752 1.3917139e-38 316 257
-0.0042185197 0.80199999 -0.023904946 1.364091e-38 317 257
-0.0028053334 0.80000001 -0.023845334 1.4007175e-38 318 257
-0.0014026667 0.80000001 -0.023845334 1.391462e-38 319 257
0 0.79799998 -0.02378572 1.391462e-38 320 257
0.0013956534 0.796 -0.023726106 1.3822425e-38 321 257
0.0027913067 0.796 -0.023726106 1.3729508e-38 322 257
0.0041869599 0.796 -0.023726106 1.3637311e-38 323 257
0.0055826134 0.796 -0.023726106 1.3636945e-38 324 257
0.0069782664 0.796 -0.023726106 1.3083771e-38 325 257
0.0083739199 0.796 -0.023726106 1.2533474e-38 326 257
0.0097450269 0.79400003 -0.023666494 1.2809702e-38 327 257
0.011137174 0.79400003 -0.023666494 1.299374e-38 328 257
0.01252932 0.79400003 -0.023666494 1.317849e-38 329 257
0.0138864 0.792 -0.02360688 1.3179206e-38 330 257
0.015236467 0.79000002 -0.023547266 1.3087011e-38 331 257
0.016621601 0.79000002 -0.023547266 1.3363599e-38 332 257
0.017983939 0.78899997 -0.023517458 1.3824576e-38 333 257
0.019367319 0.78899997 -0.023517458 1.3731659e-38 334 257
0.0207507 0.78899997 -0.023517458 1.3731659e-38 335 257
0.022134079 0.78899997 -0.023517458 1.3457223e-38 336 257
0.023517458 0.78899997 -0.023517458 1.3457223e-38 337 257
0.024837719 0.787 -0.023457846 1.3457223e-38 338 257
0.026217593 0.787 -0.023457846 1.3549418e-38 339 257
0.027597465 0.787 -0.023457846 1.3732728e-38 340 257
0.02897734 0.787 -0.023457846 1.3640532e-38 341 257
0.030280067 0.78500003 -0.023398234 1.3640888e-38 342 257
0.031656433 0.78500003 -0.023398234 1.3733084e-38 343 257
0.032948639 0.78299999 -0.02333862 1.3825277e-38 344 257
0.034321502 0.78299999 -0.02333862 1.3917831e-38 345 257
0.035694357 0.78299999 -0.02333862 1.4101143e-38 346 257
0.036972538 0.78100002 -0.023279008 1.3917112e-38 347 257
0.038341891 0.78100002 -0.023279008 1.4100068e-38 348 257
0.039660398 0.77999997 -0.023249198 1.4192624e-38 349 257
0.041027997 0.77999997 -0.023249198 1.4100789e-38 350 257
0.042395595 0.77999997 -0.023249198 1.4193343e-38 351 257
0.043650985 0.778 -0.023189586 1.428482e-38 352 257
0.045015078 0.778 -0.023189586 1.428482e-38 353 257
0.046259947 0.77600002 -0.023129974 1.428482e-38 354 257
0.047620531 0.77600002 -0.023129974 1.4468851e-38 355 257
0.048981119 0.77600002 -0.023129974 1.4561049e-38 356 257
0.050341707 0.77600002 -0.023129974 1.4653245e-38 357 257
0.051569037 0.77399999 -0.02307036 1.4562498e-38 358 257
0.052926116 0.77399999 -0.02307036 1.4654694e-38 359 257
0.054213066 0.773 -0.023040552 1.4839438e-38 360 257
0.055568393 0.773 -0.023040552 1.4839438e-38 361 257
0.056776438 0.77100003 -0.02298094 1.5116018e-38 362 257
0.058128256 0.77100003 -0.02298094 1.5485161e-38 363 257
0.059480079 0.77100003 -0.02298094 1.6130174e-38 364 257
0.060674097 0.76899999 -0.022921326 1.6591152e-38 365 257
0.062022414 0.76899999 -0.022921326 1.723507e-38 366 257
0.063370727 0.76899999 -0.022921326 1.723507e-38 367 257
0.064719036 0.76899999 -0.022921326 1.7694959e-38 368 257
0.066067353 0.76899999 -0.022921326 1.7787155e-38 369 257
0.067240335 0.76700002 -0.022861714 1.7970837e-38 370 257
0.068585135 0.76700002 -0.022861714 1.7970837e-38 371 257
0.06992995 0.76700002 -0.022861714 1.806232e-38 372 257
0.071181826 0.76599997 -0.022831906 1.8154515e-38 373 257
0.072524875 0.76599997 -0.022831906 1.8338544e-38 374 257
0.073867925 0.76599997 -0.022831906 1.8338544e-38 375 257
0.075014614 0.764 -0.022772292 1.8339981e-38 376 257
0.076354161 0.764 -0.022772292 1.8616209e-38 377 257
0.077693708 0.764 -0.022772292 1.852509e-38 378 257
0.079033248 0.764 -0.022772292 1.8617286e-38 379 257
0.080372795 0.764 -0.022772292 1.8617639e-38 380 257
0.081498444 0.76200002 -0.02271268 1.880167e-38 381 257
0.082834482 0.76200002 -0.02271268 1.8984972e-38 382 257
0.08417052 0.76200002 -0.02271268 1.8984972e-38 383 257
0.085506558 0.76200002 -0.02271268 1.8801292e-38 384 257
0.086728632 0.76099998 -0.022682872 1.8709096e-38 385 257
0.088062912 0.76099998 -0.022682872 1.8341383e-38 386 257
0.089397199 0.76099998 -0.022682872 1.8156991e-38 387 257
0.090493038 0.759 -0.02262326 1.8064793e-38 388 257
0.091823816 0.759 -0.02262326 1.7788565e-38 389 257
0.093154602 0.759 -0.02262326 1.7878259e-38 390 257
0.09448538 0.759 -0.02262326 1.7601313e-38 391 257
0.095816158 0.759 -0.02262326 1.7048903e-38 392 257
0.096890956 0.75700003 -0.022563647 1.6956708e-38 393 257
0.097958729 0.755 -0.022504034 1.6318231e-38 394 257
0.099282496 0.755 -0.022504034 1.7701166e-38 395 257
0.10060626 0.755 -0.022504034 1.7978871e-38 396 257
-0.0028123464 0.80199999 -0.02531112 1.3363615e-38 318 258
-0.0014026667 0.80000001 -0.025248 1.3087388e-38 319 258
0 0.79799998 -0.025184877 1.3453645e-38 320 258
0.0013956534 0.796 -0.02512176 1.336145e-38 321 258
0.0027913067 0.796 -0.02512176 1.3361803e-38 322 258
0.0041974802 0.79799998 -0.025184877 1.3269607e-38 323 258
0.0055966396 0.79799998 -0.025184877 1.2809699e-38 324 258
0.0069957995 0.79799998 -0.025184877 1.1058341e-38 325 258
0.0083739199 0.796 -0.02512176 9.7704709e-39 326 258
0.0097695729 0.796 -0.02512176 8.2953394e-39 327 258
0.011137174 0.79400003 -0.02505864 9.2122636e-39 328 258
0.01252932 0.79400003 -0.02505864 9.7650787e-39 329 258
0.013921468 0.79400003 -0.02505864 9.311313e-39 330 258
0.01527504 0.792 -0.024995519 9.9566824e-39 331 258
0.016621601 0.79000002 -0.024932399 1.0969408e-38 332 258
0.018006733 0.79000002 -0.024932399 1.1891366e-38 333 258
0.019367319 0.78899997 -0.024900839 1.2536005e-38 334 258
0.0207507 0.78899997 -0.024900839 1.26282e-38 335 258
0.022134079 0.78899997 -0.024900839 1.2995891e-38 336 258
0.023517458 0.78899997 -0.024900839 1.3272478e-38 337 258
0.024837719 0.787 -0.024837719 1.354762e-38 338 258
0.026217593 0.787 -0.024837719 1.3639816e-38 339 258
0.027597465 0.787 -0.024837719 1.3732009e-38 340 258
0.02897734 0.787 -0.024837719 1.3639813e-38 341 258
0.030280067 0.78500003 -0.0247746 1.3640888e-38 342 258
0.031656433 0.78500003 -0.0247746 1.3733084e-38 343 258
0.032948639 0.78299999 -0.024711479 1.3733084e-38 344 258
0.034321502 0.78299999 -0.024711479 1.3825279e-38 345 258
0.035694357 0.78299999 -0.024711479 1.3916756e-38 346 258
0.036972538 0.78100002 -0.024648361 1.3916756e-38 347 258
0.038341891 0.78100002 -0.024648361 1.3825277e-38 348 258
0.039660398 0.77999997 -0.024616797 1.3825277e-38 349 258
0.041027997 0.77999997 -0.024616797 1.3916756e-38 350 258
0.042395595 0.77999997 -0.024616797 1.3916756e-38 351 258
0.043763198 0.77999997 -0.024616797 1.4100789e-38 352 258
0.045015078 0.778 -0.024553679 1.4193343e-38 353 258
0.046259947 0.77600002 -0.024490559 1.419334e-38 354 258
0.047620531 0.77600002 -0.024490559 1.419334e-38 355 258
0.048981119 0.77600002 -0.024490559 1.4284817e-38 356 258
0.050341707 0.77600002 -0.024490559 1.4561044e-38 357 258
0.051569037 0.77399999 -0.02442744 1.4653245e-38 358 258
0.052926116 0.77399999 -0.02442744 1.4745441e-38 359 258
0.054213066 0.773 -0.024395877 1.502095e-38 360 258
0.055568393 0.773 -0.024395877 1.502095e-38 361 258
0.056923717 0.773 -0.024395877 1.5296814e-38 362 258
0.058128256 0.77100003 -0.02433276 1.5389009e-38 363 258
0.059480079 0.77100003 -0.02433276 1.5208214e-38 364 258
0.060674097 0.76899999 -0.024269639 1.5485161e-38 365 258
0.062022414 0.76899999 -0.024269639 1.6221641e-38 366 258
0.063370727 0.76899999 -0.024269639 1.6498587e-38 367 258
0.06455072 0.76700002 -0.024206521 1.6958843e-38 368 258
0.065895528 0.76700002 -0.024206521 1.7327266e-38 369 258
0.067240335 0.76700002 -0.024206521 1.7785726e-38 370 258
0.068495713 0.76599997 -0.024174958 1.7970118e-38 371 258
0.069838762 0.76599997 -0.024174958 1.8061234e-38 372 258
0.071181826 0.76599997 -0.024174958 1.8153789e-38 373 258
0.072335519 0.764 -0.024111839 1.8245985e-38 374 258
0.073675066 0.764 -0.024111839 1.8338181e-38 375 258
0.075014614 0.764 -0.024111839 1.8431092e-38 376 258
0.076354161 0.764 -0.024111839 1.8615844e-38 377 258
0.077693708 0.764 -0.024111839 1.8432531e-38 378 258
0.07882636 0.76200002 -0.02404872 1.8708758e-38 379 258
0.080162399 0.76200002 -0.02404872 1.8708755e-38 380 258
0.081498444 0.76200002 -0.02404872 1.8800951e-38 381 258
0.082834482 0.76200002 -0.02404872 1.8893503e-38 382 258
0.084060051 0.76099998 -0.024017159 1.8893503e-38 383 258
0.085394338 0.76099998 -0.024017159 1.8801304e-38 384 258
0.086500697 0.759 -0.023954039 1.8709109e-38 385 258
0.087831482 0.759 -0.023954039 1.8250639e-38 386 258
0.08916226 0.759 -0.023954039 1.8065887e-38 387 258
0.09025459 0.75700003 -0.02389092 1.8248834e-38 388 258
0.091581859 0.75700003 -0.02389092 1.8156638e-38 389 258
0.092909135 0.75700003 -0.02389092 1.8062646e-38 390 258
0.094236404 0.75700003 -0.02389092 1.7878256e-38 391 258
0.09556368 0.75700003 -0.02389092 1.7326174e-38 392 258
0.096890956 0.75700003 -0.02389092 1.7233977e-38 393 258
0.097958729 0.755 -0.023827799 1.6590462e-38 394 258
0.099282496 0.755 -0.023827799 1.6775212e-38 395 258
0.10047301 0.75400001 -0.02379624 1.6321131e-38 396 258
0.10152501 0.75199997 -0.023733119 1.7242728e-38 397 258
0.10257 0.75 -0.023669999 1.8162183e-38 398 258
0.10374649 0.74900001 -0.02363844 1.8069988e-38 399 258
0 0.79799998 -0.026584039 1.2075049e-38 320 259
0.0013991599 0.79799998 -0.026584039 1.2075049e-38 321 259
0.0027983198 0.79799998 -0.026584039 1.2166879e-38 322 259
0.0041974802 0.79799998 -0.026584039 1.2166879e-38 323 259
0.0056106667 0.80000001 -0.026650665 1.2348727e-38 324 259
0.0069957995 0.79799998 -0.026584039 1.1518608e-38 325 259
0.0083949603 0.79799998 -0.026584039 1.0135659e-38 326 259
0.0097695729 0.796 -0.026517414 8.2917465e-39 327 259
0.011165227 0.796 -0.026517414 8.1016127e-39 328 259
0.01252932 0.79400003 -0.026450787 8.4703924e-39 329 259
0.013921468 0.79400003 -0.026450787 6.8198954e-39 330 259
0.01527504 0.792 -0.02638416 6.912091e-39 331 259
0.01666368 0.792 -0.02638416 8.019533e-39 332 259
0.018006733 0.79000002 -0.026317533 9.5868601e-39 333 259
0.019391866 0.79000002 -0.026317533 1.0876137e-38 334 259
0.0207507 0.78899997 -0.026284218 1.1429311e-38 335 259
0.022134079 0.78899997 -0.026284218 1.1798793e-38 336 259
0.023517458 0.78899997 -0.026284218 1.2444162e-38 337 259
0.024900839 0.78899997 -0.026284218 1.2995894e-38 338 259
0.026217593 0.787 -0.026217593 1.2995894e-38 339 259
0.027597465 0.787 -0.026217593 1.3363955e-38 340 259
0.02897734 0.787 -0.026217593 1.3271759e-38 341 259
0.030280067 0.78500003 -0.026150968 1.2905495e-38 342 259
0.031656433 0.78500003 -0.026150968 1.3182081e-38 343 259
0.033032801 0.78500003 -0.026150968 1.3549421e-38 344 259
0.034321502 0.78299999 -0.026084339 1.3549421e-38 345 259
0.035694357 0.78299999 -0.026084339 1.3824929e-38 346 259
0.036972538 0.78100002 -0.026017714 1.3824929e-38 347 259
0.038341891 0.78100002 -0.026017714 1.3641967e-38 348 259
0.039660398 0.77999997 -0.025984399 1.3641967e-38 349 259
0.041027997 0.77999997 -0.025984399 1.3916756e-38 350 259
0.042395595 0.77999997 -0.025984399 1.4100789e-38 351 259
0.043763198 0.77999997 -0.025984399 1.4100789e-38 352 259
0.045015078 0.778 -0.025917772 1.4100789e-38 353 259
0.046259947 0.77600002 -0.025851147 1.3917831e-38 354 259
0.047620531 0.77600002 -0.025851147 1.4010028e-38 355 259
0.048981119 0.77600002 -0.025851147 1.3918548e-38 356 259
0.050341707 0.77600002 -0.025851147 1.4010744e-38 357 259
0.051569037 0.77399999 -0.025784519 1.4286257e-38 358 259
0.052926116 0.77399999 -0.025784519 1.4286257e-38 359 259
0.054283198 0.77399999 -0.025784519 1.446958e-38 360 259
0.055568393 0.773 -0.025751207 1.446958e-38 361 259
0.056923717 0.773 -0.025751207 1.4652895e-38 362 259
0.058128256 0.77100003 -0.02568458 1.4837287e-38 363 259
0.059480079 0.77100003 -0.02568458 1.465506e-38 364 259
0.060674097 0.76899999 -0.025617953 1.4839451e-38 365 259
0.062022414 0.76899999 -0.025617953 1.5391529e-38 366 259
0.063205913 0.76700002 -0.025551327 1.5668117e-38 367 259
0.06455072 0.76700002 -0.025551327 1.5946131e-38 368 259
0.065895528 0.76700002 -0.025551327 1.65915e-38 369 259
0.067152664 0.76599997 -0.025518013 1.7234357e-38 370 259
0.068495713 0.76599997 -0.025518013 1.7510584e-38 371 259
0.069656424 0.764 -0.025451386 1.7143959e-38 372 259
0.070995972 0.764 -0.025451386 1.7143959e-38 373 259
0.072146162 0.76200002 -0.02538476 1.7693903e-38 374 259
0.073482201 0.76200002 -0.02538476 1.797049e-38 375 259
0.074818239 0.76200002 -0.02538476 1.8062685e-38 376 259
0.076154284 0.76200002 -0.02538476 1.8154881e-38 377 259
0.077490322 0.76200002 -0.02538476 1.8155603e-38 378 259
0.07882636 0.76200002 -0.02538476 1.8339995e-38 379 259
0.080162399 0.76200002 -0.02538476 1.8249232e-38 380 259
0.081391476 0.76099998 -0.025351444 1.8433263e-38 381 259
0.082725771 0.76099998 -0.025351444 1.8617286e-38 382 259
0.084060051 0.76099998 -0.025351444 1.8801676e-38 383 259
0.085169919 0.759 -0.025284819 1.8893503e-38 384 259
0.086272769 0.75700003 -0.025218192 1.8801307e-38 385 259
0.087600037 0.75700003 -0.025218192 1.8801292e-38 386 259
0.088927314 0.75700003 -0.025218192 1.8709096e-38 387 259
0.09025459 0.75700003 -0.025218192 1.870836e-38 388 259
0.091581859 0.75700003 -0.025218192 1.8524329e-38 389 259
0.092909135 0.75700003 -0.025218192 1.8522883e-38 390 259
0.093987428 0.755 -0.025151566 1.8338492e-38 391 259
0.095311195 0.755 -0.025151566 1.7878963e-38 392 259
0.096634962 0.755 -0.025151566 1.7786767e-38 393 259
0.097958729 0.755 -0.025151566 1.7416568e-38 394 259
0.099282496 0.755 -0.025151566 1.6587167e-38 395 259
0.10047301 0.75400001 -0.025118252 1.5764301e-38 396 259
0.10152501 0.75199997 -0.025051624 1.705504e-38 397 259
0.10257 0.75 -0.024984999 1.742605e-38 398 259
0.10374649 0.74900001 -0.024951685 1.7979224e-38 399 259
0.10505974 0.74900001 -0.024951685 1.8070716e-38 400 259
0.01256088 0.796 -0.027913066 1.0593793e-38 329 260
0.013956533 0.796 -0.027913066 8.8446091e-39 330 260
0.01527504 0.792 -0.027772799 8.1992397e-39 331 260
0.01666368 0.792 -0.027772799 6.7262761e-39 332 260
0.018006733 0.79000002 -0.027702667 6.5418848e-39 333 260
0.019391866 0.79000002 -0.027702667 4.9806547e-39 334 260
0.020777 0.79000002 -0.027702667 5.7182198e-39 335 260
0.022134079 0.78899997 -0.027667599 7.4681193e-39 336 260
0.023517458 0.78899997 -0.027667599 8.9432493e-39 337 260
0.024900839 0.78899997 -0.027667599 1.0784289e-38 338 260
0.026284218 0.78899997 -0.027667599 1.1522213e-38 339 260
0.027597465 0.787 -0.027597465 1.1799522e-38 340 260
0.02897734 0.787 -0.027597465 1.2167945e-38 341 260
0.03035721 0.787 -0.027597465 1.326996e-38 342 260
0.031656433 0.78500003 -0.027527334 1.3454351e-38 343 260
0.033032801 0.78500003 -0.027527334 1.3822765e-38 344 260
0.034409165 0.78500003 -0.027527334 1.4007157e-38 345 260
0.035694357 0.78299999 -0.027457198 1.4190472e-38 346 260
0.037067216 0.78299999 -0.027457198 1.4282667e-38 347 260
0.038341891 0.78100002 -0.027387068 1.3824563e-38 348 260
0.039711244 0.78100002 -0.027387068 1.3916759e-38 349 260
0.041080598 0.78100002 -0.027387068 1.4100789e-38 350 260
0.042395595 0.77999997 -0.027351998 1.3916756e-38 351 260
0.043763198 0.77999997 -0.027351998 1.4101143e-38 352 260
0.045130797 0.77999997 -0.027351998 1.4101143e-38 353 260
0.046379171 0.778 -0.027281865 1.3917831e-38 354 260
0.047743265 0.778 -0.027281865 1.4010028e-38 355 260
0.049107358 0.778 -0.027281865 1.4010028e-38 356 260
0.050341707 0.77600002 -0.027211733 1.4102224e-38 357 260
0.051569037 0.77399999 -0.027141599 1.4285533e-38 358 260
0.052926116 0.77399999 -0.027141599 1.4285533e-38 359 260
0.054283198 0.77399999 -0.027141599 1.4560678e-38 360 260
0.055568393 0.773 -0.027106533 1.4560678e-38 361 260
0.056923717 0.773 -0.027106533 1.45614e-38 362 260
0.058128256 0.77100003 -0.027036399 1.45614e-38 363 260
0.059480079 0.77100003 -0.027036399 1.492839e-38 364 260
0.060674097 0.76899999 -0.026966266 1.492839e-38 365 260
0.062022414 0.76899999 -0.026966266 1.5297167e-38 366 260
0.063205913 0.76700002 -0.026896132 1.5297167e-38 367 260
0.06455072 0.76700002 -0.026896132 1.5483356e-38 368 260
0.065809615 0.76599997 -0.026861066 1.5852138e-38 369 260
0.067152664 0.76599997 -0.026861066 1.5761022e-38 370 260
0.068316877 0.764 -0.026790932 1.6037249e-38 371 260
0.069474079 0.76200002 -0.0267208 1.649894e-38 372 260
0.070810117 0.76200002 -0.0267208 1.7052114e-38 373 260
0.072146162 0.76200002 -0.0267208 1.7785007e-38 374 260
0.07338576 0.76099998 -0.026685731 1.8061234e-38 375 260
0.074720047 0.76099998 -0.026685731 1.7786809e-38 376 260
0.076054335 0.76099998 -0.026685731 1.797084e-38 377 260
0.077490322 0.76200002 -0.0267208 1.8338183e-38 378 260
0.078722909 0.76099998 -0.026685731 1.8430379e-38 379 260
0.080057196 0.76099998 -0.026685731 1.8522928e-38 380 260
0.081391476 0.76099998 -0.026685731 1.8706959e-38 381 260
0.082508355 0.759 -0.026615599 1.8708037e-38 382 260
0.083839141 0.759 -0.026615599 1.8800232e-38 383 260
0.084945492 0.75700003 -0.026545467 1.8984622e-38 384 260
0.086044833 0.755 -0.026475333 1.9076818e-38 385 260
0.087368593 0.755 -0.026475333 1.88935e-38 386 260
0.08869236 0.755 -0.026475333 1.8801304e-38 387 260
0.090016134 0.755 -0.026475333 1.8709815e-38 388 260
0.091339901 0.755 -0.026475333 1.8433228e-38 389 260
0.092663661 0.755 -0.026475333 1.8248837e-38 390 260
0.093987428 0.755 -0.026475333 1.8156641e-38 391 260
0.095184959 0.75400001 -0.026440267 1.8063724e-38 392 260
0.096506968 0.75400001 -0.026440267 1.7787135e-38 393 260
0.097828984 0.75400001 -0.026440267 1.7693865e-38 394 260
0.099150993 0.75400001 -0.026440267 1.7509472e-38 395 260
0.10047301 0.75400001 -0.026440267 1.668083e-38 396 260
0.10152501 0.75199997 -0.02637013 1.668083e-38 397 260
0.10257 0.75 -0.0263 1.5764695e-38 398 260
0.10388499 0.75 -0.0263 1.6870683e-38 399 260
0.1052 0.75 -0.0263 1.7335299e-38 400 260
0.106515 0.75 -0.0263 1.751933e-38 401 260
0.015313613 0.79400003 -0.029235078 9.4009877e-39 331 261
0.01666368 0.792 -0.029161438 9.7658396e-39 332 261
0.018006733 0.79000002 -0.029087799 9.3052216e-39 333 261
0.019391866 0.79000002 -0.029087799 8.018461e-39 334 261
0.020777 0.79000002 -0.029087799 7.8340698e-39 335 261
0.022134079 0.78899997 -0.02905098 8.2964772e-39 336 261
0.023517458 0.78899997 -0.02905098 9.2180734e-39 337 261
0.024900839 0.78899997 -0.02905098 1.0688522e-38 338 261
0.026284218 0.78899997 -0.02905098 1.1241696e-38 339 261
0.027667599 0.78899997 -0.02905098 1.1151295e-38 340 261
0.02905098 0.78899997 -0.02905098 1.1520076e-38 341 261
0.03035721 0.787 -0.02897734 1.1705169e-38 342 261
0.031737085 0.787 -0.02897734 1.1982115e-38 343 261
0.033032801 0.78500003 -0.0289037 1.2533837e-38 344 261
0.034409165 0.78500003 -0.0289037 1.2810784e-38 345 261
0.035694357 0.78299999 -0.028830061 1.2811147e-38 346 261
0.037067216 0.78299999 -0.028830061 1.3088094e-38 347 261
0.038341891 0.78100002 -0.028756421 1.3088813e-38 348 261
0.039711244 0.78100002 -0.028756421 1.3181009e-38 349 261
0.041080598 0.78100002 -0.028756421 1.3732731e-38 350 261
0.042395595 0.77999997 -0.028719598 1.3824926e-38 351 261
0.043763198 0.77999997 -0.028719598 1.373416e-38 352 261
0.045130797 0.77999997 -0.028719598 1.373416e-38 353 261
0.046379171 0.778 -0.028645959 1.3917476e-38 354 261
0.047743265 0.778 -0.028645959 1.4009672e-38 355 261
0.049107358 0.778 -0.028645959 1.4193343e-38 356 261
0.050471451 0.778 -0.028645959 1.4193343e-38 357 261
0.051702294 0.77600002 -0.028572321 1.4285536e-38 358 261
0.052926116 0.77399999 -0.028498679 1.419334e-38 359 261
0.054283198 0.77399999 -0.028498679 1.4285533e-38 360 261
0.055568393 0.773 -0.028461859 1.4378087e-38 361 261
0.056923717 0.773 -0.028461859 1.4285539e-38 362 261
0.058128256 0.77100003 -0.028388219 1.4377734e-38 363 261
0.059325781 0.76899999 -0.028314579 1.43781e-38 364 261
0.060674097 0.76899999 -0.028314579 1.43781e-38 365 261
0.062022414 0.76899999 -0.028314579 1.4470296e-38 366 261
0.063205913 0.76700002 -0.02824094 1.4562493e-38 367 261
0.06455072 0.76700002 -0.02824094 1.4655763e-38 368 261
0.065809615 0.76599997 -0.028204117 1.4747959e-38 369 261
0.06697733 0.764 -0.028130481 1.5298243e-38 370 261
0.068138041 0.76200002 -0.028056841 1.5574828e-38 371 261
0.069474079 0.76200002 -0.028056841 1.5761019e-38 372 261
0.070810117 0.76200002 -0.028056841 1.6406388e-38 373 261
0.072146162 0.76200002 -0.028056841 1.6774818e-38 374 261
0.07338576 0.76099998 -0.028020019 1.6959209e-38 375 261
0.074720047 0.76099998 -0.028020019 1.7235076e-38 376 261
0.076054335 0.76099998 -0.028020019 1.7419467e-38 377 261
0.077388622 0.76099998 -0.028020019 1.7694979e-38 378 261
0.078722909 0.76099998 -0.028020019 1.787937e-38 379 261
0.079846799 0.759 -0.027946379 1.7971919e-38 380 261
0.080963671 0.75700003 -0.027872739 1.8248146e-38 381 261
0.082290947 0.75700003 -0.027872739 1.8616209e-38 382 261
0.083618224 0.75700003 -0.027872739 1.8708405e-38 383 261
0.084721066 0.755 -0.027799098 1.8617642e-38 384 261
0.086044833 0.755 -0.027799098 1.8801673e-38 385 261
0.087368593 0.755 -0.027799098 1.8894575e-38 386 261
0.08869236 0.755 -0.027799098 1.8617989e-38 387 261
0.089896902 0.75400001 -0.027762281 1.8801645e-38 388 261
0.091218919 0.75400001 -0.027762281 1.8801645e-38 389 261
0.092540927 0.75400001 -0.027762281 1.8800912e-38 390 261
0.093862943 0.75400001 -0.027762281 1.8524685e-38 391 261
0.095184959 0.75400001 -0.027762281 1.8522883e-38 392 261
0.096506968 0.75400001 -0.027762281 1.8430687e-38 393 261
0.097828984 0.75400001 -0.027762281 1.8245943e-38 394 261
0.098887995 0.75199997 -0.027688639 1.8061912e-38 395 261
0.10020649 0.75199997 -0.027688639 1.7784261e-38 396 261
0.101255 0.75 -0.027615 1.7231089e-38 397 261
0.10243323 0.74900001 -0.027578179 1.5945077e-38 398 261
0.10374649 0.74900001 -0.027578179 1.6590446e-38 399 261
0.10505974 0.74900001 -0.027578179 1.6320049e-38 400 261
0.10637298 0.74900001 -0.027578179 1.7334561e-38 401 261
0.023547266 0.79000002 -0.030472934 1.0416228e-38 337 262
0.024900839 0.78899997 -0.030434359 1.0875758e-38 338 262
0.026284218 0.78899997 -0.030434359 1.1060509e-38 339 262
0.027667599 0.78899997 -0.030434359 1.1334592e-38 340 262
0.02905098 0.78899997 -0.030434359 1.1058004e-38 341 262
0.030434359 0.78899997 -0.030434359 1.1059806e-38 342 262
0.031737085 0.787 -0.03035721 1.1336392e-38 343 262
0.033116959 0.787 -0.03035721 1.1610458e-38 344 262
0.034409165 0.78500003 -0.030280067 1.179485e-38 345 262
0.035694357 0.78299999 -0.03020292 1.1796652e-38 346 262
0.037067216 0.78299999 -0.03020292 1.225727e-38 347 262
0.038341891 0.78100002 -0.030125774 1.2810075e-38 348 262
0.039711244 0.78100002 -0.030125774 1.308666e-38 349 262
0.041080598 0.78100002 -0.030125774 1.36391e-38 350 262
0.042449951 0.78100002 -0.030125774 1.3823131e-38 351 262
0.043819305 0.78100002 -0.030125774 1.3733084e-38 352 262
0.045130797 0.77999997 -0.030087199 1.3825279e-38 353 262
0.046498396 0.77999997 -0.030087199 1.3917831e-38 354 262
0.047865998 0.77999997 -0.030087199 1.4010028e-38 355 262
0.049107358 0.778 -0.03001005 1.419334e-38 356 262
0.050341707 0.77600002 -0.029932907 1.419334e-38 357 262
0.051702294 0.77600002 -0.029932907 1.428517e-38 358 262
0.052926116 0.77399999 -0.029855758 1.428517e-38 359 262
0.054283198 0.77399999 -0.029855758 1.428517e-38 360 262
0.055568393 0.773 -0.029817186 1.4469201e-38 361 262
0.056923717 0.773 -0.029817186 1.4469204e-38 362 262
0.058128256 0.77100003 -0.029740039 1.4469204e-38 363 262
0.059325781 0.76899999 -0.02966289 1.4468848e-38 364 262
0.060674097 0.76899999 -0.02966289 1.4468848e-38 365 262
0.062022414 0.76899999 -0.02966289 1.4561397e-38 366 262
0.063205913 0.76700002 -0.029585747 1.4653592e-38 367 262
0.06455072 0.76700002 -0.029585747 1.4746147e-38 368 262
0.065809615 0.76599997 -0.029547172 1.4746147e-38 369 262
0.06697733 0.764 -0.029470026 1.4745425e-38 370 262
0.068138041 0.76200002 -0.029392879 1.4745425e-38 371 262
0.069474079 0.76200002 -0.029392879 1.4747946e-38 372 262
0.070810117 0.76200002 -0.029392879 1.5300761e-38 373 262
0.072051473 0.76099998 -0.029354304 1.6130881e-38 374 262
0.07338576 0.76099998 -0.029354304 1.65915e-38 375 262
0.07452368 0.759 -0.029277159 1.7142509e-38 376 262
0.075854458 0.759 -0.029277159 1.73269e-38 377 262
0.076981857 0.75700003 -0.029200014 1.7510934e-38 378 262
0.078309126 0.75700003 -0.029200014 1.7695327e-38 379 262
0.079636402 0.75700003 -0.029200014 1.760421e-38 380 262
0.080749765 0.755 -0.029122867 1.77886e-38 381 262
0.082073532 0.755 -0.029122867 1.8156306e-38 382 262
0.083397292 0.755 -0.029122867 1.8340699e-38 383 262
0.084608853 0.75400001 -0.029084291 1.8616563e-38 384 262
0.085930869 0.75400001 -0.029084291 1.8708758e-38 385 262
0.087252878 0.75400001 -0.029084291 1.8800951e-38 386 262
0.088574894 0.75400001 -0.029084291 1.8893505e-38 387 262
0.089896902 0.75400001 -0.029084291 1.8801304e-38 388 262
0.090976954 0.75199997 -0.029007144 1.8801304e-38 389 262
0.09229546 0.75199997 -0.029007144 1.8709459e-38 390 262
0.093613967 0.75199997 -0.029007144 1.8617263e-38 391 262
0.094932474 0.75199997 -0.029007144 1.8708013e-38 392 262
0.096250981 0.75199997 -0.029007144 1.8431786e-38 393 262
0.097569488 0.75199997 -0.029007144 1.8338513e-38 394 262
0.098493494 0.74900001 -0.028891427 1.815412e-38 395 262
0.099806741 0.74900001 -0.028891427 1.7969729e-38 396 262
0.10111999 0.74900001 -0.028891427 1.7693143e-38 397 262
0.10215972 0.74699998 -0.028814279 1.7233623e-38 398 262
0.10346945 0.74699998 -0.028814279 1.6588253e-38 399 262
0.10477919 0.74699998 -0.028814279 1.484272e-38 400 262
0.10608894 0.74699998 -0.028814279 1.6409686e-38 401 262
0.027702667 0.79000002 -0.031858064 1.1336746e-38 340 263
0.02905098 0.78899997 -0.031817738 1.1336746e-38 341 263
0.030434359 0.78899997 -0.031817738 1.1704451e-38 342 263
0.031737085 0.787 -0.031737085 1.1981036e-38 343 263
0.033116959 0.787 -0.031737085 1.2163276e-38 344 263
0.034496833 0.787 -0.031737085 1.2255472e-38 345 263
0.035785533 0.78500003 -0.031656433 1.2255475e-38 346 263
0.037067216 0.78299999 -0.031575777 1.234767e-38 347 263
0.038440078 0.78299999 -0.031575777 1.2991595e-38 348 263
0.039812941 0.78299999 -0.031575777 1.3175986e-38 349 263
0.0411858 0.78299999 -0.031575777 1.317849e-38 350 263
0.042449951 0.78100002 -0.031495128 1.3454719e-38 351 263
0.043819305 0.78100002 -0.031495128 1.3639819e-38 352 263
0.045188658 0.78100002 -0.031495128 1.3732014e-38 353 263
0.046498396 0.77999997 -0.031454798 1.4100071e-38 354 263
0.047865998 0.77999997 -0.031454798 1.4100071e-38 355 263
0.049107358 0.778 -0.031374145 1.419262e-38 356 263
0.050341707 0.77600002 -0.031293493 1.419262e-38 357 263
0.051702294 0.77600002 -0.031293493 1.4285173e-38 358 263
0.052926116 0.77399999 -0.031212838 1.4285173e-38 359 263
0.054283198 0.77399999 -0.031212838 1.4469204e-38 360 263
0.055568393 0.773 -0.03117251 1.4469204e-38 361 263
0.056923717 0.773 -0.03117251 1.4468848e-38 362 263
0.058128256 0.77100003 -0.031091858 1.4468848e-38 363 263
0.059480079 0.77100003 -0.031091858 1.4285539e-38 364 263
0.060674097 0.76899999 -0.031011207 1.4285539e-38 365 263
0.062022414 0.76899999 -0.031011207 1.4285536e-38 366 263
0.063205913 0.76700002 -0.030930554 1.4377731e-38 367 263
0.06455072 0.76700002 -0.030930554 1.4561046e-38 368 263
0.06563779 0.764 -0.030809574 1.4561046e-38 369 263
0.06697733 0.764 -0.030809574 1.4836191e-38 370 263
0.068138041 0.76200002 -0.030728921 1.4836191e-38 371 263
0.069474079 0.76200002 -0.030728921 1.5021657e-38 372 263
0.070810117 0.76200002 -0.030728921 1.5113855e-38 373 263
0.072051473 0.76099998 -0.030688593 1.5025255e-38 374 263
0.07338576 0.76099998 -0.030688593 1.5854657e-38 375 263
0.07452368 0.759 -0.030607941 1.6314559e-38 376 263
0.075654581 0.75700003 -0.030527288 1.6683701e-38 377 263
0.076981857 0.75700003 -0.030527288 1.6959562e-38 378 263
0.078309126 0.75700003 -0.030527288 1.7143953e-38 379 263
0.079425998 0.755 -0.030446632 1.7328338e-38 380 263
0.080749765 0.755 -0.030446632 1.7420535e-38 381 263
0.082073532 0.755 -0.030446632 1.7604932e-38 382 263
0.083397292 0.755 -0.030446632 1.7789323e-38 383 263
0.084608853 0.75400001 -0.030406307 1.8523294e-38 384 263
0.085930869 0.75400001 -0.030406307 1.8615491e-38 385 263
0.087252878 0.75400001 -0.030406307 1.8616209e-38 386 263
0.088574894 0.75400001 -0.030406307 1.8708405e-38 387 263
0.089658447 0.75199997 -0.030325651 1.8800951e-38 388 263
0.090976954 0.75199997 -0.030325651 1.8800951e-38 389 263
0.09229546 0.75199997 -0.030325651 1.8800938e-38 390 263
0.093364999 0.75 -0.030244999 1.8800938e-38 391 263
0.094679996 0.75 -0.030244999 1.861654e-38 392 263
0.095994994 0.75 -0.030244999 1.8524345e-38 393 263
0.097309999 0.75 -0.030244999 1.8431783e-38 394 263
0.098493494 0.74900001 -0.030204674 1.8247392e-38 395 263
0.099806741 0.74900001 -0.030204674 1.8062996e-38 396 263
0.10111999 0.74900001 -0.030204674 1.7786411e-38 397 263
0.10215972 0.74699998 -0.030124018 1.760202e-38 398 263
0.10346945 0.74699998 -0.030124018 1.695665e-38 399 263
0.10477919 0.74699998 -0.030124018 1.5760318e-38 400 263
0.10608894 0.74699998 -0.030124018 1.6313492e-38 401 263
0.10739867 0.74699998 -0.030124018 1.5858352e-38 402 263
0.031817738 0.78899997 -0.033201117 1.2072866e-38 343 264
0.033201117 0.78899997 -0.033201117 1.198103e-38 344 264
0.034584496 0.78899997 -0.033201117 1.216578e-38 345 264
0.035876706 0.787 -0.033116959 1.2257973e-38 346 264
0.037161902 0.78500003 -0.033032801 1.2257973e-38 347 264
0.03853827 0.78500003 -0.033032801 1.1982112e-38 348 264
0.039812941 0.78299999 -0.032948639 1.2166143e-38 349 264
0.0411858 0.78299999 -0.032948639 1.2626049e-38 350 264
0.042449951 0.78100002 -0.032864477 1.2810799e-38 351 264
0.043819305 0.78100002 -0.032864477 1.3178856e-38 352 264
0.045188658 0.78100002 -0.032864477 1.3271053e-38 353 264
0.046498396 0.77999997 -0.032822397 1.3639466e-38 354 264
0.047865998 0.77999997 -0.032822397 1.3731661e-38 355 264
0.049107358 0.778 -0.032738242 1.3916403e-38 356 264
0.050341707 0.77600002 -0.032654081 1.3916403e-38 357 264
0.051702294 0.77600002 -0.032654081 1.4100789e-38 358 264
0.052926116 0.77399999 -0.032569919 1.4193343e-38 359 264
0.054283198 0.77399999 -0.032569919 1.4192987e-38 360 264
0.055640277 0.77399999 -0.032569919 1.4192987e-38 361 264
0.056923717 0.773 -0.032527838 1.4192987e-38 362 264
0.058128256 0.77100003 -0.032443684 1.4285183e-38 363 264
0.059480079 0.77100003 -0.032443684 1.4285183e-38 364 264
0.060674097 0.76899999 -0.032359518 1.4285183e-38 365 264
0.062022414 0.76899999 -0.032359518 1.4285183e-38 366 264
0.063205913 0.76700002 -0.03227536 1.4285183e-38 367 264
0.064466551 0.76599997 -0.032233275 1.428482e-38 368 264
0.06563779 0.764 -0.032149121 1.428482e-38 369 264
0.06697733 0.764 -0.032149121 1.4651444e-38 370 264
0.068138041 0.76200002 -0.032064959 1.474364e-38 371 264
0.069474079 0.76200002 -0.032064959 1.4652523e-38 372 264
0.070810117 0.76200002 -0.032064959 1.4744719e-38 373 264
0.072051473 0.76099998 -0.032022879 1.4655397e-38 374 264
0.07338576 0.76099998 -0.032022879 1.5116015e-38 375 264
0.07452368 0.759 -0.031938717 1.5578075e-38 376 264
0.075654581 0.75700003 -0.031854562 1.6223445e-38 377 264
0.076778464 0.755 -0.031770397 1.6775897e-38 378 264
0.078102231 0.755 -0.031770397 1.6683701e-38 379 264
0.079425998 0.755 -0.031770397 1.7052833e-38 380 264
0.080642812 0.75400001 -0.03172832 1.7145028e-38 381 264
0.081964828 0.75400001 -0.03172832 1.7512383e-38 382 264
0.083286837 0.75400001 -0.03172832 1.7512383e-38 383 264
0.084384419 0.75199997 -0.031644158 1.7971566e-38 384 264
0.085702926 0.75199997 -0.031644158 1.8248151e-38 385 264
0.08702144 0.75199997 -0.031644158 1.8340348e-38 386 264
0.08833994 0.75199997 -0.031644158 1.8432544e-38 387 264
0.089419998 0.75 -0.03156 1.8708408e-38 388 264
0.090734996 0.75 -0.03156 1.8800604e-38 389 264
0.092049994 0.75 -0.03156 1.8617995e-38 390 264
0.093364999 0.75 -0.03156 1.8617995e-38 391 264
0.094553761 0.74900001 -0.031517919 1.8709459e-38 392 264
0.095867008 0.74900001 -0.031517919 1.8617263e-38 393 264
0.097309999 0.75 -0.03156 1.8525054e-38 394 264
0.098493494 0.74900001 -0.031517919 1.8340304e-38 395 264
0.099806741 0.74900001 -0.031517919 1.8339215e-38 396 264
0.10111999 0.74900001 -0.031517919 1.8062628e-38 397 264
0.10215972 0.74699998 -0.031433757 1.7878231e-38 398 264
0.10346945 0.74699998 -0.031433757 1.7509807e-38 399 264
0.10477919 0.74699998 -0.031433757 1.7049212e-38 400 264
0.10608894 0.74699998 -0.031433757 1.6680788e-38 401 264
0.10739867 0.74699998 -0.031433757 1.530117e-38 402 264
0.10870842 0.74699998 -0.031433757 1.6684106e-38 403 264
0.035876706 0.787 -0.034496833 1.0692462e-38 346 265
0.03725658 0.787 -0.034496833 1.0969408e-38 347 265
0.03853827 0.78500003 -0.034409165 1.1337464e-38 348 265
0.039914634 0.78500003 -0.034409165 1.1614053e-38 349 265
0.0411858 0.78299999 -0.034321502 1.2440572e-38 350 265
0.042449951 0.78100002 -0.034233831 1.2901192e-38 351 265
0.043819305 0.78100002 -0.034233831 1.299374e-38 352 265
0.045188658 0.78100002 -0.034233831 1.3086295e-38 353 265
0.046498396 0.77999997 -0.034189999 1.3454351e-38 354 265
0.047865998 0.77999997 -0.034189999 1.3638744e-38 355 265
0.049107358 0.778 -0.034102332 1.3823128e-38 356 265
0.050341707 0.77600002 -0.034014668 1.3915324e-38 357 265
0.051702294 0.77600002 -0.034014668 1.4007876e-38 358 265
0.053062879 0.77600002 -0.034014668 1.4192268e-38 359 265
0.054283198 0.77399999 -0.033927001 1.4192624e-38 360 265
0.055640277 0.77399999 -0.033927001 1.4192624e-38 361 265
0.056923717 0.773 -0.033883166 1.4284817e-38 362 265
0.058128256 0.77100003 -0.033795502 1.4284817e-38 363 265
0.059325781 0.76899999 -0.033707831 1.4284817e-38 364 265
0.060674097 0.76899999 -0.033707831 1.4284817e-38 365 265
0.062022414 0.76899999 -0.033707831 1.4468854e-38 366 265
0.063205913 0.76700002 -0.033620168 1.4284464e-38 367 265
0.064466551 0.76599997 -0.033576332 1.4284464e-38 368 265
0.06563779 0.764 -0.033488665 1.4284464e-38 369 265
0.06697733 0.764 -0.033488665 1.4375936e-38 370 265
0.068138041 0.76200002 -0.033401001 1.4468132e-38 371 265
0.069474079 0.76200002 -0.033401001 1.4468851e-38 372 265
0.070810117 0.76200002 -0.033401001 1.4561046e-38 373 265
0.072051473 0.76099998 -0.033357166 1.4929106e-38 374 265
0.07338576 0.76099998 -0.033357166 1.5113499e-38 375 265
0.07452368 0.759 -0.033269498 1.4839791e-38 376 265
0.075654581 0.75700003 -0.033181835 1.5392606e-38 377 265
0.076778464 0.755 -0.033094164 1.6221647e-38 378 265
0.078102231 0.755 -0.033094164 1.6774462e-38 379 265
0.079320803 0.75400001 -0.033050332 1.677625e-38 380 265
0.080642812 0.75400001 -0.033050332 1.677625e-38 381 265
0.081964828 0.75400001 -0.033050332 1.7327622e-38 382 265
0.08306592 0.75199997 -0.032962665 1.7419817e-38 383 265
0.084384419 0.75199997 -0.032962665 1.7694976e-38 384 265
0.085702926 0.75199997 -0.032962665 1.7879726e-38 385 265
0.086789995 0.75 -0.032874998 1.824743e-38 386 265
0.088105001 0.75 -0.032874998 1.8431822e-38 387 265
0.089300767 0.74900001 -0.032831166 1.8616209e-38 388 265
0.090614013 0.74900001 -0.032831166 1.8708405e-38 389 265
0.091927268 0.74900001 -0.032831166 1.880167e-38 390 265
0.093240514 0.74900001 -0.032831166 1.880167e-38 391 265
0.094301268 0.74699998 -0.032743499 1.8617989e-38 392 265
0.095611013 0.74699998 -0.032743499 1.8525793e-38 393 265
0.097180255 0.74900001 -0.032831166 1.8433231e-38 394 265
0.098230496 0.74699998 -0.032743499 1.8341035e-38 395 265
0.099540234 0.74699998 -0.032743499 1.8339588e-38 396 265
0.10084997 0.74699998 -0.032743499 1.8154836e-38 397 265
0.10215972 0.74699998 -0.032743499 1.7787483e-38 398 265
0.10346945 0.74699998 -0.032743499 1.7511256e-38 399 265
0.10477919 0.74699998 -0.032743499 1.7051716e-38 400 265
0.10608894 0.74699998 -0.032743499 1.6683293e-38 401 265
0.10739867 0.74699998 -0.032743499 1.6220575e-38 402 265
0.10870842 0.74699998 -0.032743499 1.631277e-38 403 265
0.041291002 0.78500003 -0.035785533 1.1336392e-38 350 266
0.042667367 0.78500003 -0.035785533 1.1612621e-38 351 266
0.044043735 0.78500003 -0.035785533 1.1798089e-38 352 266
0.04530438 0.78299999 -0.035694357 1.1982481e-38 353 266
0.046677239 0.78299999 -0.035694357 1.2534936e-38 354 266
0.047927368 0.78100002 -0.035603184 1.2811162e-38 355 266
0.049107358 0.778 -0.035466425 1.2903348e-38 356 266
0.050341707 0.77600002 -0.035375252 1.3087741e-38 357 266
0.051702294 0.77600002 -0.035375252 1.3455444e-38 358 266
0.053062879 0.77600002 -0.035375252 1.3639834e-38 359 266
0.054283198 0.77399999 -0.03528408 1.3548718e-38 360 266
0.055640277 0.77399999 -0.03528408 1.3640913e-38 361 266
0.056923717 0.773 -0.035238493 1.3916406e-38 362 266
0.058128256 0.77100003 -0.03514732 1.4100438e-38 363 266
0.059325781 0.76899999 -0.035056144 1.4100791e-38 364 266
0.060674097 0.76899999 -0.035056144 1.4100791e-38 365 266
0.062022414 0.76899999 -0.035056144 1.4192987e-38 366 266
0.063205913 0.76700002 -0.034964975 1.4192987e-38 367 266
0.064466551 0.76599997 -0.034919381 1.4284817e-38 368 266
0.06563779 0.764 -0.034828212 1.419262e-38 369 266
0.06697733 0.764 -0.034828212 1.4192624e-38 370 266
0.068316877 0.764 -0.034828212 1.428482e-38 371 266
0.069474079 0.76200002 -0.034737039 1.4285185e-38 372 266
0.070810117 0.76200002 -0.034737039 1.4377381e-38 373 266
0.072051473 0.76099998 -0.034691449 1.446958e-38 374 266
0.07338576 0.76099998 -0.034691449 1.4745808e-38 375 266
0.07452368 0.759 -0.034600276 1.4655047e-38 376 266
0.075654581 0.75700003 -0.034509107 1.4747243e-38 377 266
0.076778464 0.755 -0.034417931 1.5300416e-38 378 266
0.078102231 0.755 -0.034417931 1.585323e-38 379 266
0.079320803 0.75400001 -0.034372345 1.6591152e-38 380 266
0.080642812 0.75400001 -0.034372345 1.6683348e-38 381 266
0.081747405 0.75199997 -0.034281172 1.7142524e-38 382 266
0.08306592 0.75199997 -0.034281172 1.7326915e-38 383 266
0.08416 0.75 -0.034189999 1.732764e-38 384 266
0.085474998 0.75 -0.034189999 1.7512033e-38 385 266
0.08667428 0.74900001 -0.034144413 1.7696427e-38 386 266
0.087987527 0.74900001 -0.034144413 1.7788622e-38 387 266
0.089300767 0.74900001 -0.034144413 1.806485e-38 388 266
0.090372056 0.74699998 -0.034053236 1.8157046e-38 389 266
0.091681793 0.74699998 -0.034053236 1.8342144e-38 390 266
0.092991538 0.74699998 -0.034053236 1.8342144e-38 391 266
0.094301268 0.74699998 -0.034053236 1.8525796e-38 392 266
0.095611013 0.74699998 -0.034053236 1.8525796e-38 393 266
0.096920758 0.74699998 -0.034053236 1.8892052e-38 394 266
0.098230496 0.74699998 -0.034053236 1.870766e-38 395 266
0.099540234 0.74699998 -0.034053236 1.8615095e-38 396 266
0.10071497 0.74599999 -0.034007654 1.8338869e-38 397 266
0.10202295 0.74599999 -0.034007654 1.80637e-38 398 266
0.10333094 0.74599999 -0.034007654 1.7694919e-38 399 266
0.1043584 0.74400002 -0.033916477 1.741976e-38 400 266
0.10537883 0.74199998 -0.033825304 1.7235369e-38 401 266
0.1066798 0.74199998 -0.033825304 1.7049202e-38 402 266
0.10827184 0.74400002 -0.033916477 1.6311278e-38 403 266
0.10957632 0.74400002 -0.033916477 1.456576e-38 404 266
0.11058273 0.74199998 -0.033825304 1.6409314e-38 405 266
0.048050098 0.78299999 -0.037067216 1.0785387e-38 355 267
0.049233593 0.77999997 -0.036925197 1.1614056e-38 356 267
0.050471451 0.778 -0.036830518 1.2075034e-38 357 267
0.051702294 0.77600002 -0.036735836 1.354368e-38 358 267
0.053062879 0.77600002 -0.036735836 1.3912102e-38 359 267
0.054283198 0.77399999 -0.036641158 1.4005727e-38 360 267
0.055640277 0.77399999 -0.036641158 1.4005727e-38 361 267
0.056923717 0.773 -0.036593821 1.4098276e-38 362 267
0.058279041 0.773 -0.036593821 1.4098276e-38 363 267
0.059325781 0.76899999 -0.036404461 1.4007157e-38 364 267
0.060674097 0.76899999 -0.036404461 1.437558e-38 365 267
0.062022414 0.76899999 -0.036404461 1.437558e-38 366 267
0.063205913 0.76700002 -0.036309779 1.437558e-38 367 267
0.06455072 0.76700002 -0.036309779 1.4100789e-38 368 267
0.06563779 0.764 -0.036167759 1.4193343e-38 369 267
0.06697733 0.764 -0.036167759 1.419262e-38 370 267
0.068138041 0.76200002 -0.036073081 1.4284817e-38 371 267
0.069474079 0.76200002 -0.036073081 1.4284817e-38 372 267
0.070717193 0.76099998 -0.036025736 1.4468848e-38 373 267
0.072051473 0.76099998 -0.036025736 1.4560325e-38 374 267
0.07338576 0.76099998 -0.036025736 1.4745075e-38 375 267
0.07452368 0.759 -0.035931058 1.4745075e-38 376 267
0.075654581 0.75700003 -0.03583638 1.4929106e-38 377 267
0.076778464 0.755 -0.035741698 1.4655047e-38 378 267
0.078102231 0.755 -0.035741698 1.5115665e-38 379 267
0.079425998 0.755 -0.035741698 1.5394774e-38 380 267
0.080642812 0.75400001 -0.035694357 1.6040142e-38 381 267
0.081747405 0.75199997 -0.035599679 1.6866292e-38 382 267
0.082844995 0.75 -0.035505001 1.6958846e-38 383 267
0.08416 0.75 -0.035505001 1.7326906e-38 384 267
0.085361034 0.74900001 -0.03545766 1.7603132e-38 385 267
0.08667428 0.74900001 -0.03545766 1.7786806e-38 386 267
0.087752573 0.74699998 -0.035362978 1.8063392e-38 387 267
0.089062311 0.74699998 -0.035362978 1.8339253e-38 388 267
0.090372056 0.74699998 -0.035362978 1.8523644e-38 389 267
0.091681793 0.74699998 -0.035362978 1.8432527e-38 390 267
0.092991538 0.74699998 -0.035362978 1.861656e-38 391 267
0.094301268 0.74699998 -0.035362978 1.852544e-38 392 267
0.095611013 0.74699998 -0.035362978 1.8617995e-38 393 267
0.096920758 0.74699998 -0.035362978 1.8709111e-38 394 267
0.098099001 0.74599999 -0.03531564 1.8432524e-38 395 267
0.09940698 0.74599999 -0.03531564 1.8431801e-38 396 267
0.10071497 0.74599999 -0.03531564 1.8155216e-38 397 267
0.10174944 0.74400002 -0.035220962 1.7787858e-38 398 267
0.10305392 0.74400002 -0.035220962 1.7511272e-38 399 267
0.10407786 0.74199998 -0.03512628 1.7236111e-38 400 267
0.10537883 0.74199998 -0.03512628 1.7051719e-38 401 267
0.1066798 0.74199998 -0.03512628 1.695917e-38 402 267
0.10798078 0.74199998 -0.03512628 1.6590389e-38 403 267
0.10928176 0.74199998 -0.03512628 1.6403884e-38 404 267
0.11058273 0.74199998 -0.03512628 1.5943265e-38 405 267
0.11143135 0.73900002 -0.034984261 1.4847067e-38 406 267
0.054423466 0.77600002 -0.038096428 1.2626403e-38 360 268
0.055640277 0.77399999 -0.037998237 1.2718598e-38 361 268
0.056997359 0.77399999 -0.037998237 1.3178134e-38 362 268
0.058279041 0.773 -0.037949149 1.327033e-38 363 268
0.059325781 0.76899999 -0.03775277 1.3453648e-38 364 268
0.060674097 0.76899999 -0.03775277 1.3545845e-38 365 268
0.061861109 0.76700002 -0.037654586 1.327105e-38 366 268
0.063205913 0.76700002 -0.037654586 1.3639831e-38 367 268
0.064466551 0.76599997 -0.037605491 1.4100074e-38 368 268
0.06563779 0.764 -0.037507307 1.4100074e-38 369 268
0.066802002 0.76200002 -0.037409119 1.419334e-38 370 268
0.068138041 0.76200002 -0.037409119 1.419334e-38 371 268
0.069474079 0.76200002 -0.037409119 1.4468848e-38 372 268
0.070717193 0.76099998 -0.037360024 1.4468848e-38 373 268
0.072051473 0.76099998 -0.037360024 1.4285183e-38 374 268
0.07338576 0.76099998 -0.037360024 1.4377378e-38 375 268
0.074327305 0.75700003 -0.037163652 1.446958e-38 376 268
0.075654581 0.75700003 -0.037163652 1.4745808e-38 377 268
0.076778464 0.755 -0.037065465 1.4746536e-38 378 268
0.078102231 0.755 -0.037065465 1.5022763e-38 379 268
0.079320803 0.75400001 -0.037016369 1.5024199e-38 380 268
0.080428898 0.75199997 -0.036918186 1.5485176e-38 381 268
0.081529997 0.75 -0.036819998 1.6038697e-38 382 268
0.08273454 0.74900001 -0.036770906 1.6223089e-38 383 268
0.084047787 0.74900001 -0.036770906 1.6867016e-38 384 268
0.085133098 0.74699998 -0.036672719 1.7143603e-38 385 268
0.086442836 0.74699998 -0.036672719 1.7419111e-38 386 268
0.0876351 0.74599999 -0.036623627 1.7419111e-38 387 268
0.088943094 0.74599999 -0.036623627 1.7787175e-38 388 268
0.090251073 0.74599999 -0.036623627 1.787937e-38 389 268
0.091559067 0.74599999 -0.036623627 1.7972635e-38 390 268
0.092618078 0.74400002 -0.036525439 1.8157387e-38 391 268
0.093922555 0.74400002 -0.036525439 1.8249935e-38 392 268
0.09522704 0.74400002 -0.036525439 1.8433966e-38 393 268
0.096791007 0.74599999 -0.036623627 1.8433245e-38 394 268
0.097836003 0.74400002 -0.036525439 1.8341048e-38 395 268
0.098873965 0.74199998 -0.036427252 1.8431799e-38 396 268
0.10017494 0.74199998 -0.036427252 1.8155572e-38 397 268
0.10133915 0.741 -0.036378156 1.7971527e-38 398 268
0.10263838 0.741 -0.036378156 1.7787135e-38 399 268
0.1039376 0.741 -0.036378156 1.7511975e-38 400 268
0.10523681 0.741 -0.036378156 1.7419779e-38 401 268
0.10653604 0.741 -0.036378156 1.7326505e-38 402 268
0.10783526 0.741 -0.036378156 1.7142114e-38 403 268
0.10883991 0.73900002 -0.036279973 1.6773338e-38 404 268
0.11013564 0.73900002 -0.036279973 1.6035772e-38 405 268
0.11143135 0.73900002 -0.036279973 1.5026016e-38 406 268
0.058128256 0.77100003 -0.03920278 1.2993027e-38 363 269
0.059480079 0.77100003 -0.03920278 1.3084138e-38 364 269
0.060674097 0.76899999 -0.039101087 1.2899745e-38 365 269
0.061861109 0.76700002 -0.038999394 1.2258343e-38 366 269
0.063205913 0.76700002 -0.038999394 1.2811516e-38 367 269
0.064466551 0.76599997 -0.038948543 1.3546914e-38 368 269
0.065465957 0.76200002 -0.038745161 1.382386e-38 369 269
0.066802002 0.76200002 -0.038745161 1.4100791e-38 370 269
0.068138041 0.76200002 -0.038745161 1.4192987e-38 371 269
0.069474079 0.76200002 -0.038745161 1.4284464e-38 372 269
0.070717193 0.76099998 -0.038694311 1.4468854e-38 373 269
0.072051473 0.76099998 -0.038694311 1.4377381e-38 374 269
0.073192894 0.759 -0.038592618 1.4469577e-38 375 269
0.074327305 0.75700003 -0.038490929 1.4469577e-38 376 269
0.075454697 0.755 -0.038389232 1.4561772e-38 377 269
0.076778464 0.755 -0.038389232 1.4562849e-38 378 269
0.077998787 0.75400001 -0.038338386 1.474724e-38 379 269
0.079110399 0.75199997 -0.038236689 1.5023469e-38 380 269
0.080428898 0.75199997 -0.038236689 1.5115665e-38 381 269
0.081529997 0.75 -0.038135 1.5117817e-38 382 269
0.08273454 0.74900001 -0.038084153 1.5670991e-38 383 269
0.083823353 0.74699998 -0.03798246 1.6866648e-38 384 269
0.085133098 0.74699998 -0.03798246 1.7142874e-38 385 269
0.086327121 0.74599999 -0.03793161 1.7509862e-38 386 269
0.087400153 0.74400002 -0.037829921 1.7602058e-38 387 269
0.088704646 0.74400002 -0.037829921 1.7694609e-38 388 269
0.090009123 0.74400002 -0.037829921 1.7970837e-38 389 269
0.091068126 0.74199998 -0.037728224 1.7880074e-38 390 269
0.092369102 0.74199998 -0.037728224 1.8156301e-38 391 269
0.093670078 0.74199998 -0.037728224 1.8065187e-38 392 269
0.094971053 0.74199998 -0.037728224 1.8249579e-38 393 269
0.096272022 0.74199998 -0.037728224 1.8249579e-38 394 269
0.09757299 0.74199998 -0.037728224 1.8157384e-38 395 269
0.098873965 0.74199998 -0.037728224 1.8340685e-38 396 269
0.10003994 0.741 -0.037677377 1.8155935e-38 397 269
0.10106564 0.73900002 -0.037575684 1.8064445e-38 398 269
0.10236135 0.73900002 -0.037575684 1.7695663e-38 399 269
0.10365707 0.73900002 -0.037575684 1.7511988e-38 400 269
0.10495277 0.73900002 -0.037575684 1.7327957e-38 401 269
0.1062485 0.73900002 -0.037575684 1.741907e-38 402 269
0.10739867 0.73799998 -0.037524838 1.7234678e-38 403 269
0.10869263 0.73799998 -0.037524838 1.6866255e-38 404 269
0.1099866 0.73799998 -0.037524838 1.6681505e-38 405 269
0.11128055 0.73799998 -0.037524838 1.6219845e-38 406 269
0.061068594 0.77399999 -0.040712398 1.2165793e-38 365 270
0.062022414 0.76899999 -0.0404494 1.234982e-38 366 270
0.063205913 0.76700002 -0.040344197 1.2442374e-38 367 270
0.064466551 0.76599997 -0.040291596 1.3177409e-38 368 270
0.065465957 0.76200002 -0.040081199 1.3453995e-38 369 270
0.066802002 0.76200002 -0.040081199 1.3732014e-38 370 270
0.068138041 0.76200002 -0.040081199 1.382421e-38 371 270
0.069474079 0.76200002 -0.040081199 1.428303e-38 372 270
0.070717193 0.76099998 -0.040028598 1.4559977e-38 373 270
0.072051473 0.76099998 -0.040028598 1.4560693e-38 374 270
0.073192894 0.759 -0.0399234 1.4652889e-38 375 270
0.074327305 0.75700003 -0.039818201 1.43781e-38 376 270
0.075454697 0.755 -0.039712999 1.4470296e-38 377 270
0.076676771 0.75400001 -0.039660402 1.437918e-38 378 270
0.077998787 0.75400001 -0.039660402 1.4563211e-38 379 270
0.079110399 0.75199997 -0.039555199 1.4747243e-38 380 270
