# .PCD v.7 - Point Cloud Data file format
FIELDS x y z rgb imX imY
SIZE 4 4 4 4 4 4
TYPE F F F F F F
COUNT 1 1 1 1 1 1
WIDTH 840
HEIGHT 1
VIEWPOINT 0 0 0 1 0 0 0
POINTS 840
DATA ascii
0.06411238 0.778 -0.015005025 1.834105e-38 367 251
0.065476485 0.778 -0.015005025 1.8616916e-38 368 251
0.066840574 0.778 -0.015005025 1.8709111e-38 369 251
0.068204664 0.778 -0.015005025 1.8708755e-38 370 251
0.069568761 0.778 -0.015005025 1.8800951e-38 371 251
0.070750505 0.77600002 -0.014966453 1.8801307e-38 372 251
0.072111093 0.77600002 -0.014966453 1.8893503e-38 373 251
0.073471673 0.77600002 -0.014966453 1.88935e-38 374 251
0.074832268 0.77600002 -0.014966453 1.8986054e-38 375 251
0.076192856 0.77600002 -0.014966453 1.8894575e-38 376 251
0.077353559 0.77399999 -0.014927879 1.8894575e-38 377 251
0.078710638 0.77399999 -0.014927879 1.9077168e-38 378 251
0.080067717 0.77399999 -0.014927879 1.9077168e-38 379 251
0.081424795 0.77399999 -0.014927879 1.8984616e-38 380 251
0.082674921 0.773 -0.014908593 1.8984616e-38 381 251
0.084030248 0.773 -0.014908593 1.8983888e-38 382 251
0.085164659 0.77100003 -0.01487002 1.8706941e-38 383 251
0.086516477 0.77100003 -0.01487002 1.8247036e-38 384 251
0.087640367 0.76899999 -0.014831445 1.8154839e-38 385 251
0.088988677 0.76899999 -0.014831445 1.7695315e-38 386 251
0.090336986 0.76899999 -0.014831445 1.741837e-38 387 251
0.091685303 0.76899999 -0.014831445 1.7325849e-38 388 251
-0.046498396 0.77999997 -0.016411198 1.8706572e-38 286 252
-0.045015078 0.778 -0.016369121 1.8983158e-38 287 252
-0.043650985 0.778 -0.016369121 1.9260805e-38 288 252
-0.042395595 0.77999997 -0.016411198 1.9629228e-38 289 252
-0.041027997 0.77999997 -0.016411198 1.9812202e-38 290 252
-0.039660398 0.77999997 -0.016411198 1.9535257e-38 291 252
-0.038292799 0.77999997 -0.016411198 1.815017e-38 292 252
-0.036830518 0.778 -0.016369121 1.6859431e-38 293 252
-0.035466425 0.778 -0.016369121 1.6859431e-38 294 252
-0.034102332 0.778 -0.016369121 1.6859431e-38 295 252
-0.032822397 0.77999997 -0.016411198 1.6308808e-38 296 252
-0.031454798 0.77999997 -0.016411198 1.6954177e-38 297 252
-0.030087199 0.77999997 -0.016411198 1.7507717e-38 298 252
-0.028719598 0.77999997 -0.016411198 1.806053e-38 299 252
-0.027351998 0.77999997 -0.016411198 1.8614042e-38 300 252
-0.025984399 0.77999997 -0.016411198 1.8890987e-38 301 252
-0.024616797 0.77999997 -0.016411198 1.8709111e-38 302 252
-0.023249198 0.77999997 -0.016411198 1.8801307e-38 303 252
-0.021881599 0.77999997 -0.016411198 1.8800238e-38 304 252
-0.020513998 0.77999997 -0.016411198 1.8708042e-38 305 252
-0.0191464 0.77999997 -0.016411198 1.8615488e-38 306 252
-0.017847179 0.78299999 -0.01647432 1.8615488e-38 307 252
-0.01647432 0.78299999 -0.01647432 1.8798433e-38 308 252
-0.01510146 0.78299999 -0.01647432 1.8798433e-38 309 252
-0.013728599 0.78299999 -0.01647432 1.8431433e-38 310 252
-0.012355739 0.78299999 -0.01647432 1.8339237e-38 311 252
-0.010982879 0.78299999 -0.01647432 1.8246669e-38 312 252
-0.0096100196 0.78299999 -0.01647432 1.8062278e-38 313 252
-0.0082371598 0.78299999 -0.01647432 1.7602017e-38 314 252
-0.0068642995 0.78299999 -0.01647432 1.750982e-38 315 252
-0.0054914397 0.78299999 -0.01647432 1.7416905e-38 316 252
-0.0041185799 0.78299999 -0.01647432 1.7048483e-38 317 252
-0.0027457199 0.78299999 -0.01647432 1.6772258e-38 318 252
-0.0013728599 0.78299999 -0.01647432 1.6495672e-38 319 252
0 0.78299999 -0.01647432 1.6403479e-38 320 252
0.0013728599 0.78299999 -0.01647432 1.6311284e-38 321 252
0.0027457199 0.78299999 -0.01647432 1.5759555e-38 322 252
0.0041185799 0.78299999 -0.01647432 1.5575163e-38 323 252
0.0054914397 0.78299999 -0.01647432 1.5665558e-38 324 252
0.0068642995 0.78299999 -0.01647432 1.5297135e-38 325 252
0.0082371598 0.78299999 -0.01647432 1.4929794e-38 326 252
0.0096100196 0.78299999 -0.01647432 1.4837598e-38 327 252
0.011010934 0.78500003 -0.016516401 1.4561737e-38 328 252
0.0123873 0.78500003 -0.016516401 1.4469183e-38 329 252
0.013763667 0.78500003 -0.016516401 1.4468819e-38 330 252
0.015140033 0.78500003 -0.016516401 1.4468819e-38 331 252
0.016516401 0.78500003 -0.016516401 1.4468463e-38 332 252
0.017892767 0.78500003 -0.016516401 1.4468463e-38 333 252
0.019269135 0.78500003 -0.016516401 1.4561381e-38 334 252
0.0205929 0.78299999 -0.01647432 1.4469186e-38 335 252
0.021965759 0.78299999 -0.01647432 1.4559232e-38 336 252
0.023398234 0.78500003 -0.016516401 1.4651427e-38 337 252
0.0247746 0.78500003 -0.016516401 1.3917123e-38 338 252
0.026217593 0.787 -0.01655848 1.3824926e-38 339 252
0.027597465 0.787 -0.01655848 1.364052e-38 340 252
0.02897734 0.787 -0.01655848 1.3824911e-38 341 252
0.03035721 0.787 -0.01655848 1.4194397e-38 342 252
0.031737085 0.787 -0.01655848 1.4286592e-38 343 252
0.033032801 0.78500003 -0.016516401 1.4561747e-38 344 252
0.034409165 0.78500003 -0.016516401 1.4746497e-38 345 252
0.035694357 0.78299999 -0.01647432 1.4746497e-38 346 252
0.037067216 0.78299999 -0.01647432 1.493089e-38 347 252
0.038440078 0.78299999 -0.01647432 1.5207122e-38 348 252
0.039812941 0.78299999 -0.01647432 1.5391513e-38 349 252
0.0411858 0.78299999 -0.01647432 1.5484782e-38 350 252
0.042558655 0.78299999 -0.01647432 1.5484782e-38 351 252
0.043931518 0.78299999 -0.01647432 1.5852839e-38 352 252
0.04530438 0.78299999 -0.01647432 1.6129785e-38 353 252
0.046677239 0.78299999 -0.01647432 1.640529e-38 354 252
0.048050098 0.78299999 -0.01647432 1.6497846e-38 355 252
0.049296722 0.78100002 -0.016432239 1.6773e-38 356 252
0.050666075 0.78100002 -0.016432239 1.6957392e-38 357 252
0.052035429 0.78100002 -0.016432239 1.6774448e-38 358 252
0.053336397 0.77999997 -0.016411198 1.6866645e-38 359 252
0.054703996 0.77999997 -0.016411198 1.6865941e-38 360 252
0.055927824 0.778 -0.016369121 1.7142527e-38 361 252
0.057291918 0.778 -0.016369121 1.751023e-38 362 252
0.058656007 0.778 -0.016369121 1.7602426e-38 363 252
0.0600201 0.778 -0.016369121 1.7695332e-38 364 252
0.061541997 0.77999997 -0.016411198 1.7787528e-38 365 252
0.062909596 0.77999997 -0.016411198 1.7880445e-38 366 252
0.063947573 0.77600002 -0.01632704 1.7972641e-38 367 252
0.065308161 0.77600002 -0.01632704 1.8155597e-38 368 252
0.066668749 0.77600002 -0.01632704 1.8248151e-38 369 252
0.068029337 0.77600002 -0.01632704 1.8340702e-38 370 252
0.069389917 0.77600002 -0.01632704 1.8432897e-38 371 252
0.070750505 0.77600002 -0.01632704 1.8708405e-38 372 252
0.071925238 0.77399999 -0.016284959 1.8800601e-38 373 252
0.073282316 0.77399999 -0.016284959 1.8525812e-38 374 252
0.074639395 0.77399999 -0.016284959 1.8618007e-38 375 252
0.075996473 0.77399999 -0.016284959 1.8710556e-38 376 252
0.077353559 0.77399999 -0.016284959 1.8710556e-38 377 252
0.078710638 0.77399999 -0.016284959 1.8985345e-38 378 252
0.079964265 0.773 -0.016263919 1.8985345e-38 379 252
0.0813196 0.773 -0.016263919 1.9076818e-38 380 252
0.082461022 0.77100003 -0.016221842 1.9076818e-38 381 252
0.08381284 0.77100003 -0.016221842 1.8984251e-38 382 252
0.084943734 0.76899999 -0.016179759 1.8707662e-38 383 252
0.086292051 0.76899999 -0.016179759 1.843143e-38 384 252
0.087640367 0.76899999 -0.016179759 1.843143e-38 385 252
0.088988677 0.76899999 -0.016179759 1.8155216e-38 386 252
0.090336986 0.76899999 -0.016179759 1.7970823e-38 387 252
0.091685303 0.76899999 -0.016179759 1.7602063e-38 388 252
-0.049233593 0.77999997 -0.017778799 1.8249229e-38 284 253
-0.047865998 0.77999997 -0.017778799 1.861801e-38 285 253
-0.046379171 0.778 -0.017733213 1.9169704e-38 286 253
-0.045015078 0.778 -0.017733213 1.92619e-38 287 253
-0.043650985 0.778 -0.017733213 1.9445565e-38 288 253
-0.042286891 0.778 -0.017733213 1.9260815e-38 289 253
-0.040922798 0.778 -0.017733213 1.8614732e-38 290 253
-0.039558705 0.778 -0.017733213 1.7876809e-38 291 253
-0.038292799 0.77999997 -0.017778799 1.6400608e-38 292 253
-0.036830518 0.778 -0.017733213 1.6676835e-38 293 253
-0.035466425 0.778 -0.017733213 1.713819e-38 294 253
-0.034102332 0.778 -0.017733213 1.7691362e-38 295 253
-0.032738242 0.778 -0.017733213 1.8061964e-38 296 253
-0.031454798 0.77999997 -0.017778799 1.852294e-38 297 253
-0.030087199 0.77999997 -0.017778799 1.8615859e-38 298 253
-0.028719598 0.77999997 -0.017778799 1.8615859e-38 299 253
-0.027351998 0.77999997 -0.017778799 1.8523997e-38 300 253
-0.025984399 0.77999997 -0.017778799 1.8616193e-38 301 253
-0.024616797 0.77999997 -0.017778799 1.8800206e-38 302 253
-0.023249198 0.77999997 -0.017778799 1.870801e-38 303 253
-0.021881599 0.77999997 -0.017778799 1.8707294e-38 304 253
-0.020513998 0.77999997 -0.017778799 1.8615098e-38 305 253
-0.0191464 0.77999997 -0.017778799 1.9073205e-38 306 253
-0.017801592 0.78100002 -0.017801592 1.8520031e-38 307 253
-0.01647432 0.78299999 -0.017847179 1.7600952e-38 308 253
-0.01510146 0.78299999 -0.017847179 1.7416202e-38 309 253
-0.013693534 0.78100002 -0.017801592 1.7232161e-38 310 253
-0.01232418 0.78100002 -0.017801592 1.6863737e-38 311 253
-0.010954826 0.78100002 -0.017801592 1.6587142e-38 312 253
-0.0095854728 0.78100002 -0.017801592 1.6310914e-38 313 253
-0.0082371598 0.78299999 -0.017847179 1.6126154e-38 314 253
-0.0068642995 0.78299999 -0.017847179 1.5849207e-38 315 253
-0.0054914397 0.78299999 -0.017847179 1.5664463e-38 316 253
-0.0041185799 0.78299999 -0.017847179 1.5480431e-38 317 253
-0.0027457199 0.78299999 -0.017847179 1.4654649e-38 318 253
-0.0013728599 0.78299999 -0.017847179 1.4562453e-38 319 253
0 0.78299999 -0.017847179 1.4468465e-38 320 253
0.0013728599 0.78299999 -0.017847179 1.4468465e-38 321 253
0.0027457199 0.78299999 -0.017847179 1.4101478e-38 322 253
0.0041185799 0.78299999 -0.017847179 1.3917087e-38 323 253
0.0054914397 0.78299999 -0.017847179 1.4652134e-38 324 253
0.0068642995 0.78299999 -0.017847179 1.4559579e-38 325 253
0.0082371598 0.78299999 -0.017847179 1.4008932e-38 326 253
0.0096345674 0.78500003 -0.017892767 1.4101128e-38 327 253
0.011010934 0.78500003 -0.017892767 1.465143e-38 328 253
0.0123873 0.78500003 -0.017892767 1.465143e-38 329 253
0.013763667 0.78500003 -0.017892767 1.4650358e-38 330 253
0.015140033 0.78500003 -0.017892767 1.4558163e-38 331 253
0.016516401 0.78500003 -0.017892767 1.428302e-38 332 253
0.017892767 0.78500003 -0.017892767 1.4375216e-38 333 253
0.019269135 0.78500003 -0.017892767 1.4558528e-38 334 253
0.020645501 0.78500003 -0.017892767 1.4466333e-38 335 253
0.022021867 0.78500003 -0.017892767 1.4557809e-38 336 253
0.023398234 0.78500003 -0.017892767 1.4465614e-38 337 253
0.0247746 0.78500003 -0.017892767 1.4098276e-38 338 253
0.026217593 0.787 -0.017938353 1.4098276e-38 339 253
0.027597465 0.787 -0.017938353 1.3914958e-38 340 253
0.02897734 0.787 -0.017938353 1.3914958e-38 341 253
0.03035721 0.787 -0.017938353 1.3915311e-38 342 253
0.031737085 0.787 -0.017938353 1.4099703e-38 343 253
0.033032801 0.78500003 -0.017892767 1.3732718e-38 344 253
0.034409165 0.78500003 -0.017892767 1.3732718e-38 345 253
0.035785533 0.78500003 -0.017892767 1.364052e-38 346 253
0.037161902 0.78500003 -0.017892767 1.3824911e-38 347 253
0.038440078 0.78299999 -0.017847179 1.3733437e-38 348 253
0.039812941 0.78299999 -0.017847179 1.3825632e-38 349 253
0.0411858 0.78299999 -0.017847179 1.4008576e-38 350 253
0.042558655 0.78299999 -0.017847179 1.3824185e-38 351 253
0.043931518 0.78299999 -0.017847179 1.4283718e-38 352 253
0.04530438 0.78299999 -0.017847179 1.4652501e-38 353 253
0.046677239 0.78299999 -0.017847179 1.428659e-38 354 253
0.047927368 0.78100002 -0.017801592 1.447134e-38 355 253
0.049296722 0.78100002 -0.017801592 1.474865e-38 356 253
0.050666075 0.78100002 -0.017801592 1.5117072e-38 357 253
0.052035429 0.78100002 -0.017801592 1.5668823e-38 358 253
0.053336397 0.77999997 -0.017778799 1.6129802e-38 359 253
0.054703996 0.77999997 -0.017778799 1.6129095e-38 360 253
0.055927824 0.778 -0.017733213 1.6313487e-38 361 253
0.057291918 0.778 -0.017733213 1.6315287e-38 362 253
0.058505226 0.77600002 -0.017687626 1.6591515e-38 363 253
0.059865814 0.77600002 -0.017687626 1.7326906e-38 364 253
0.061384194 0.778 -0.017733213 1.7326906e-38 365 253
0.062748291 0.778 -0.017733213 1.7877921e-38 366 253
0.063947573 0.77600002 -0.017687626 1.7970118e-38 367 253
0.065308161 0.77600002 -0.017687626 1.8245985e-38 368 253
0.066668749 0.77600002 -0.017687626 1.8245985e-38 369 253
0.068029337 0.77600002 -0.017687626 1.7972272e-38 370 253
0.069389917 0.77600002 -0.017687626 1.8156303e-38 371 253
0.070568159 0.77399999 -0.01764204 1.8706959e-38 372 253
0.071925238 0.77399999 -0.01764204 1.8799156e-38 373 253
0.073282316 0.77399999 -0.01764204 1.861656e-38 374 253
0.074639395 0.77399999 -0.01764204 1.8708755e-38 375 253
0.075898297 0.773 -0.017619247 1.8984619e-38 376 253
0.077253617 0.773 -0.017619247 1.9076815e-38 377 253
0.078608945 0.773 -0.017619247 1.9169016e-38 378 253
0.079757385 0.77100003 -0.01757366 1.9076462e-38 379 253
0.081109203 0.77100003 -0.01757366 1.8985348e-38 380 253
0.082247108 0.76899999 -0.017528072 1.8985348e-38 381 253
0.083595425 0.76899999 -0.017528072 1.8800954e-38 382 253
0.084943734 0.76899999 -0.017528072 1.8432531e-38 383 253
0.086292051 0.76899999 -0.017528072 1.8245619e-38 384 253
0.087640367 0.76899999 -0.017528072 1.7968672e-38 385 253
0.088988677 0.76899999 -0.017528072 1.8060515e-38 386 253
0.090336986 0.76899999 -0.017528072 1.8153069e-38 387 253
0.091685303 0.76899999 -0.017528072 1.8061234e-38 388 253
0.092791654 0.76700002 -0.017482487 1.8061234e-38 389 253
-0.049233593 0.77999997 -0.0191464 1.8708013e-38 284 254
-0.047865998 0.77999997 -0.0191464 1.9077155e-38 285 254
-0.046379171 0.778 -0.019097306 1.944556e-38 286 254
-0.044899363 0.77600002 -0.019048214 1.9538114e-38 287 254
-0.043538772 0.77600002 -0.019048214 1.9811468e-38 288 254
-0.042286891 0.778 -0.019097306 1.9443044e-38 289 254
-0.040922798 0.778 -0.019097306 1.8705126e-38 290 254
-0.039558705 0.778 -0.019097306 1.7967561e-38 291 254
-0.038194612 0.778 -0.019097306 1.7230739e-38 292 254
-0.036830518 0.778 -0.019097306 1.7322934e-38 293 254
-0.035375252 0.77600002 -0.019048214 1.7600613e-38 294 254
-0.034014668 0.77600002 -0.019048214 1.7877558e-38 295 254
-0.032738242 0.778 -0.019097306 1.8338528e-38 296 254
-0.031454798 0.77999997 -0.0191464 1.8707309e-38 297 254
-0.03001005 0.778 -0.019097306 1.8248133e-38 298 254
-0.028645959 0.778 -0.019097306 1.8248133e-38 299 254
-0.027281865 0.778 -0.019097306 1.8248484e-38 300 254
-0.025917772 0.778 -0.019097306 1.8064092e-38 301 254
-0.024616797 0.77999997 -0.0191464 1.8247019e-38 302 254
-0.023249198 0.77999997 -0.0191464 1.8154824e-38 303 254
-0.021881599 0.77999997 -0.0191464 1.7969713e-38 304 254
-0.020513998 0.77999997 -0.0191464 1.7692766e-38 305 254
-0.0191464 0.77999997 -0.0191464 1.7141044e-38 306 254
-0.017801592 0.78100002 -0.019170946 1.7048849e-38 307 254
-0.016432239 0.78100002 -0.019170946 1.6771186e-38 308 254
-0.015062887 0.78100002 -0.019170946 1.6586794e-38 309 254
-0.013693534 0.78100002 -0.019170946 1.6219087e-38 310 254
-0.01232418 0.78100002 -0.019170946 1.6126532e-38 311 254
-0.010954826 0.78100002 -0.019170946 1.575811e-38 312 254
-0.0095854728 0.78100002 -0.019170946 1.5665914e-38 313 254
-0.0082161194 0.78100002 -0.019170946 1.5297488e-38 314 254
-0.0068467669 0.78100002 -0.019170946 1.5112738e-38 315 254
-0.0054914397 0.78299999 -0.019220039 1.4837242e-38 316 254
-0.0041185799 0.78299999 -0.019220039 1.4745047e-38 317 254
-0.0027457199 0.78299999 -0.019220039 1.4468145e-38 318 254
-0.0013728599 0.78299999 -0.019220039 1.456034e-38 319 254
0 0.78299999 -0.019220039 1.4283776e-38 320 254
0.0013728599 0.78299999 -0.019220039 1.419158e-38 321 254
0.0027457199 0.78299999 -0.019220039 1.3916423e-38 322 254
0.0041185799 0.78299999 -0.019220039 1.3916423e-38 323 254
0.0054914397 0.78299999 -0.019220039 1.3916406e-38 324 254
0.0068642995 0.78299999 -0.019220039 1.382421e-38 325 254
0.0082371598 0.78299999 -0.019220039 1.3916403e-38 326 254
0.0096345674 0.78500003 -0.019269135 1.3824207e-38 327 254
0.011010934 0.78500003 -0.019269135 1.382421e-38 328 254
0.0123873 0.78500003 -0.019269135 1.3732014e-38 329 254
0.013763667 0.78500003 -0.019269135 1.3640182e-38 330 254
0.015140033 0.78500003 -0.019269135 1.3640182e-38 331 254
0.016516401 0.78500003 -0.019269135 1.3639829e-38 332 254
0.017892767 0.78500003 -0.019269135 1.3639829e-38 333 254
0.019269135 0.78500003 -0.019269135 1.3639466e-38 334 254
0.020645501 0.78500003 -0.019269135 1.3639466e-38 335 254
0.022021867 0.78500003 -0.019269135 1.3547267e-38 336 254
0.023398234 0.78500003 -0.019269135 1.3547267e-38 337 254
0.0247746 0.78500003 -0.019269135 1.3547267e-38 338 254
0.026217593 0.787 -0.019318225 1.3455072e-38 339 254
0.027597465 0.787 -0.019318225 1.3271759e-38 340 254
0.02897734 0.787 -0.019318225 1.3271759e-38 341 254
0.030280067 0.78500003 -0.019269135 1.3272122e-38 342 254
0.031656433 0.78500003 -0.019269135 1.3364318e-38 343 254
0.033032801 0.78500003 -0.019269135 1.3364324e-38 344 254
0.034409165 0.78500003 -0.019269135 1.3364324e-38 345 254
0.035785533 0.78500003 -0.019269135 1.3455444e-38 346 254
0.037161902 0.78500003 -0.019269135 1.3455444e-38 347 254
0.038440078 0.78299999 -0.019220039 1.3272498e-38 348 254
0.039812941 0.78299999 -0.019220039 1.3365052e-38 349 254
0.0411858 0.78299999 -0.019220039 1.364056e-38 350 254
0.042558655 0.78299999 -0.019220039 1.364056e-38 351 254
0.043931518 0.78299999 -0.019220039 1.3822778e-38 352 254
0.04530438 0.78299999 -0.019220039 1.4099365e-38 353 254
0.046558015 0.78100002 -0.019170946 1.4100777e-38 354 254
0.047927368 0.78100002 -0.019170946 1.4100777e-38 355 254
0.049296722 0.78100002 -0.019170946 1.4101847e-38 356 254
0.050666075 0.78100002 -0.019170946 1.4194044e-38 357 254
0.052035429 0.78100002 -0.019170946 1.4562832e-38 358 254
0.053336397 0.77999997 -0.0191464 1.5023451e-38 359 254
0.054703996 0.77999997 -0.0191464 1.5206413e-38 360 254
0.055927824 0.778 -0.019097306 1.5575556e-38 361 254
0.057291918 0.778 -0.019097306 1.5577719e-38 362 254
0.058505226 0.77600002 -0.019048214 1.5854306e-38 363 254
0.059865814 0.77600002 -0.019048214 1.6589353e-38 364 254
0.061384194 0.778 -0.019097306 1.6865941e-38 365 254
0.062748291 0.778 -0.019097306 1.6774462e-38 366 254
0.063947573 0.77600002 -0.019048214 1.6867016e-38 367 254
0.065308161 0.77600002 -0.019048214 1.6867011e-38 368 254
0.066668749 0.77600002 -0.019048214 1.6959565e-38 369 254
0.068029337 0.77600002 -0.019048214 1.723507e-38 370 254
0.069211073 0.77399999 -0.018999118 1.741982e-38 371 254
0.070568159 0.77399999 -0.018999118 1.751203e-38 372 254
0.071925238 0.77399999 -0.018999118 1.769678e-38 373 254
0.073282316 0.77399999 -0.018999118 1.7788975e-38 374 254
0.074542962 0.773 -0.018974574 1.7973006e-38 375 254
0.075898297 0.773 -0.018974574 1.8340346e-38 376 254
0.077053741 0.77100003 -0.018925481 1.8525096e-38 377 254
0.078405559 0.77100003 -0.018925481 1.8801322e-38 378 254
0.079757385 0.77100003 -0.018925481 1.8801322e-38 379 254
0.080898799 0.76899999 -0.018876385 1.8801676e-38 380 254
0.082247108 0.76899999 -0.018876385 1.8801676e-38 381 254
0.083595425 0.76899999 -0.018876385 1.9075743e-38 382 254
0.084943734 0.76899999 -0.018876385 1.8891352e-38 383 254
0.086292051 0.76899999 -0.018876385 1.7968672e-38 384 254
0.087640367 0.76899999 -0.018876385 1.7047076e-38 385 254
0.088988677 0.76899999 -0.018876385 1.6586814e-38 386 254
0.090336986 0.76899999 -0.018876385 1.6771204e-38 387 254
0.091446854 0.76700002 -0.018827293 1.6679382e-38 388 254
0.092791654 0.76700002 -0.018827293 1.7324752e-38 389 254
0.094136469 0.76700002 -0.018827293 1.7417319e-38 390 254
0.095481269 0.76700002 -0.018827293 1.7417319e-38 391 254
-0.052035429 0.78100002 -0.020540299 1.8798803e-38 282 255
-0.050601196 0.77999997 -0.020513998 1.9075748e-38 283 255
-0.049233593 0.77999997 -0.020513998 1.9261196e-38 284 255
-0.047743265 0.778 -0.020461399 1.9261196e-38 285 255
-0.046379171 0.778 -0.020461399 1.9629605e-38 286 255
-0.044899363 0.77600002 -0.0204088 1.9537408e-38 287 255
-0.043538772 0.77600002 -0.0204088 1.9535976e-38 288 255
-0.042178184 0.77600002 -0.0204088 1.9167553e-38 289 255
-0.040922798 0.778 -0.020461399 1.8705849e-38 290 255
-0.039558705 0.778 -0.020461399 1.8337067e-38 291 255
-0.038194612 0.778 -0.020461399 1.8337785e-38 292 255
-0.036735836 0.77600002 -0.0204088 1.8614732e-38 293 255
-0.035375252 0.77600002 -0.0204088 1.833995e-38 294 255
-0.034014668 0.77600002 -0.0204088 1.8063724e-38 295 255
-0.032654081 0.77600002 -0.0204088 1.8247036e-38 296 255
-0.031293493 0.77600002 -0.0204088 1.8431786e-38 297 255
-0.03001005 0.778 -0.020461399 1.8338881e-38 298 255
-0.028572321 0.77600002 -0.0204088 1.8154489e-38 299 255
-0.027211733 0.77600002 -0.0204088 1.7510553e-38 300 255
-0.025851147 0.77600002 -0.0204088 1.7233606e-38 301 255
-0.024553679 0.778 -0.020461399 1.7139593e-38 302 255
-0.023189586 0.778 -0.020461399 1.6678975e-38 303 255
-0.021825492 0.778 -0.020461399 1.6493857e-38 304 255
-0.020513998 0.77999997 -0.020513998 1.6217271e-38 305 255
-0.0191464 0.77999997 -0.020513998 1.5574068e-38 306 255
-0.017801592 0.78100002 -0.020540299 1.5574068e-38 307 255
-0.016432239 0.78100002 -0.020540299 1.5481519e-38 308 255
-0.015062887 0.78100002 -0.020540299 1.5297488e-38 309 255
-0.013693534 0.78100002 -0.020540299 1.4929072e-38 310 255
-0.01232418 0.78100002 -0.020540299 1.4836877e-38 311 255
-0.010954826 0.78100002 -0.020540299 1.4652854e-38 312 255
-0.0095854728 0.78100002 -0.020540299 1.4376267e-38 313 255
-0.0082161194 0.78100002 -0.020540299 1.4652498e-38 314 255
-0.0068467669 0.78100002 -0.020540299 1.4284074e-38 315 255
-0.0054914397 0.78299999 -0.0205929 1.3825267e-38 316 255
-0.0041185799 0.78299999 -0.0205929 1.3917462e-38 317 255
-0.0027457199 0.78299999 -0.0205929 1.4283383e-38 318 255
-0.0013728599 0.78299999 -0.0205929 1.4283383e-38 319 255
0 0.78299999 -0.0205929 1.4283386e-38 320 255
0.0013728599 0.78299999 -0.0205929 1.4099355e-38 321 255
0.0027457199 0.78299999 -0.0205929 1.3824563e-38 322 255
0.0041185799 0.78299999 -0.0205929 1.3824563e-38 323 255
0.0054914397 0.78299999 -0.0205929 1.3732365e-38 324 255
0.0068642995 0.78299999 -0.0205929 1.382456e-38 325 255
0.0082371598 0.78299999 -0.0205929 1.3732365e-38 326 255
0.0096345674 0.78500003 -0.020645501 1.3732365e-38 327 255
0.011010934 0.78500003 -0.020645501 1.3823484e-38 328 255
0.0123873 0.78500003 -0.020645501 1.3823484e-38 329 255
0.013763667 0.78500003 -0.020645501 1.3639816e-38 330 255
0.015140033 0.78500003 -0.020645501 1.3639816e-38 331 255
0.016516401 0.78500003 -0.020645501 1.3639819e-38 332 255
0.017892767 0.78500003 -0.020645501 1.3639819e-38 333 255
0.019269135 0.78500003 -0.020645501 1.354762e-38 334 255
0.020645501 0.78500003 -0.020645501 1.354762e-38 335 255
0.022021867 0.78500003 -0.020645501 1.3547618e-38 336 255
0.023398234 0.78500003 -0.020645501 1.3455422e-38 337 255
0.0247746 0.78500003 -0.020645501 1.3271034e-38 338 255
0.026217593 0.787 -0.0206981 1.3455425e-38 339 255
0.027597465 0.787 -0.0206981 1.3271034e-38 340 255
0.02897734 0.787 -0.0206981 1.3271034e-38 341 255
0.030280067 0.78500003 -0.020645501 1.3179557e-38 342 255
0.031656433 0.78500003 -0.020645501 1.3271754e-38 343 255
0.033032801 0.78500003 -0.020645501 1.3271757e-38 344 255
0.034409165 0.78500003 -0.020645501 1.3271757e-38 345 255
0.035785533 0.78500003 -0.020645501 1.3547267e-38 346 255
0.037161902 0.78500003 -0.020645501 1.3455072e-38 347 255
0.038440078 0.78299999 -0.0205929 1.3272473e-38 348 255
0.039812941 0.78299999 -0.0205929 1.3365027e-38 349 255
0.0411858 0.78299999 -0.0205929 1.3640888e-38 350 255
0.042558655 0.78299999 -0.0205929 1.3640888e-38 351 255
0.043931518 0.78299999 -0.0205929 1.4007873e-38 352 255
0.045188658 0.78100002 -0.020540299 1.4007873e-38 353 255
0.046558015 0.78100002 -0.020540299 1.4099349e-38 354 255
0.047927368 0.78100002 -0.020540299 1.4007154e-38 355 255
0.049296722 0.78100002 -0.020540299 1.4007876e-38 356 255
0.050666075 0.78100002 -0.020540299 1.4007876e-38 357 255
0.051968798 0.77999997 -0.020513998 1.3732728e-38 358 255
0.053336397 0.77999997 -0.020513998 1.3917479e-38 359 255
0.054563731 0.778 -0.020461399 1.3917109e-38 360 255
0.055784054 0.77600002 -0.0204088 1.4285533e-38 361 255
0.057144642 0.77600002 -0.0204088 1.4562832e-38 362 255
0.058505226 0.77600002 -0.0204088 1.4931256e-38 363 255
0.059865814 0.77600002 -0.0204088 1.5392235e-38 364 255
0.061226401 0.77600002 -0.0204088 1.5761019e-38 365 255
0.062586986 0.77600002 -0.0204088 1.5670268e-38 366 255
0.063947573 0.77600002 -0.0204088 1.5854659e-38 367 255
0.065308161 0.77600002 -0.0204088 1.613053e-38 368 255
0.066668749 0.77600002 -0.0204088 1.6314561e-38 369 255
0.067854002 0.77399999 -0.020356199 1.6774098e-38 370 255
0.069211073 0.77399999 -0.020356199 1.695849e-38 371 255
0.070568159 0.77399999 -0.020356199 1.6960284e-38 372 255
0.071925238 0.77399999 -0.020356199 1.7144675e-38 373 255
0.073187642 0.773 -0.0203299 1.7787159e-38 374 255
0.074542962 0.773 -0.0203299 1.797119e-38 375 255
0.075701922 0.77100003 -0.020277301 1.8155582e-38 376 255
0.077053741 0.77100003 -0.020277301 1.8340332e-38 377 255
0.078202173 0.76899999 -0.0202247 1.8708042e-38 378 255
0.079550482 0.76899999 -0.0202247 1.8800238e-38 379 255
0.080898799 0.76899999 -0.0202247 1.8617642e-38 380 255
0.082247108 0.76899999 -0.0202247 1.8617642e-38 381 255
0.083595425 0.76899999 -0.0202247 1.8800235e-38 382 255
0.084722824 0.76700002 -0.020172099 1.8615844e-38 383 255
0.086067624 0.76700002 -0.020172099 1.7785713e-38 384 255
0.087412432 0.76700002 -0.020172099 1.658717e-38 385 255
0.088757239 0.76700002 -0.020172099 1.501839e-38 386 255
0.090336986 0.76899999 -0.0202247 1.4649967e-38 387 255
0.091446854 0.76700002 -0.020172099 1.4744343e-38 388 255
0.092791654 0.76700002 -0.020172099 1.5758854e-38 389 255
0.094136469 0.76700002 -0.020172099 1.6220941e-38 390 255
0.095481269 0.76700002 -0.020172099 1.6774114e-38 391 255
0.096826084 0.76700002 -0.020172099 1.6958137e-38 392 255
0.098170884 0.76700002 -0.020172099 1.6773744e-38 393 255
0.099515699 0.76700002 -0.020172099 1.6773747e-38 394 255
-0.053336397 0.77999997 -0.021881599 1.7879373e-38 281 256
-0.051702294 0.77600002 -0.021769386 1.8800936e-38 282 256
-0.050341707 0.77600002 -0.021769386 1.9077521e-38 283 256
-0.048981119 0.77600002 -0.021769386 1.9444859e-38 284 256
-0.047620531 0.77600002 -0.021769386 1.9444859e-38 285 256
-0.046259947 0.77600002 -0.021769386 1.9444859e-38 286 256
-0.044783637 0.77399999 -0.021713279 1.9352663e-38 287 256
-0.043426558 0.77399999 -0.021713279 1.9259746e-38 288 256
-0.042178184 0.77600002 -0.021769386 1.8983158e-38 289 256
-0.0408176 0.77600002 -0.021769386 1.8890594e-38 290 256
-0.039457016 0.77600002 -0.021769386 1.8429615e-38 291 256
-0.038096428 0.77600002 -0.021769386 1.8245937e-38 292 256
-0.036735836 0.77600002 -0.021769386 1.8245937e-38 293 256
-0.035375252 0.77600002 -0.021769386 1.824594e-38 294 256
-0.034014668 0.77600002 -0.021769386 1.7877518e-38 295 256
-0.032654081 0.77600002 -0.021769386 1.7967914e-38 296 256
-0.031293493 0.77600002 -0.021769386 1.787536e-38 297 256
-0.029932907 0.77600002 -0.021769386 1.7232148e-38 298 256
-0.028572321 0.77600002 -0.021769386 1.6955201e-38 299 256
-0.027211733 0.77600002 -0.021769386 1.6403111e-38 300 256
-0.025851147 0.77600002 -0.021769386 1.6218718e-38 301 256
-0.024490559 0.77600002 -0.021769386 1.6125448e-38 302 256
-0.023189586 0.778 -0.021825492 1.5941056e-38 303 256
-0.021825492 0.778 -0.021825492 1.5390046e-38 304 256
-0.020461399 0.778 -0.021825492 1.5297851e-38 305 256
-0.0191464 0.77999997 -0.021881599 1.5296784e-38 306 256
-0.017801592 0.78100002 -0.021909652 1.520423e-38 307 256
-0.016432239 0.78100002 -0.021909652 1.5204233e-38 308 256
-0.015062887 0.78100002 -0.021909652 1.5019841e-38 309 256
-0.013693534 0.78100002 -0.021909652 1.4652145e-38 310 256
-0.01232418 0.78100002 -0.021909652 1.4652145e-38 311 256
-0.010954826 0.78100002 -0.021909652 1.4284817e-38 312 256
-0.0095854728 0.78100002 -0.021909652 1.419262e-38 313 256
-0.0082161194 0.78100002 -0.021909652 1.3916756e-38 314 256
-0.0068467669 0.78100002 -0.021909652 1.382456e-38 315 256
-0.0054914397 0.78299999 -0.021965759 1.3824563e-38 316 256
-0.0041185799 0.78299999 -0.021965759 1.3824563e-38 317 256
-0.0027457199 0.78299999 -0.021965759 1.3915327e-38 318 256
-0.0013728599 0.78299999 -0.021965759 1.3915327e-38 319 256
0 0.78299999 -0.021965759 1.3915327e-38 320 256
0.0013728599 0.78299999 -0.021965759 1.3915327e-38 321 256
0.0027457199 0.78299999 -0.021965759 1.3732012e-38 322 256
0.0041185799 0.78299999 -0.021965759 1.3732012e-38 323 256
0.005519493 0.787 -0.022077972 1.3732012e-38 324 256
0.0068818335 0.78500003 -0.022021867 1.3732012e-38 325 256
0.0082582003 0.78500003 -0.022021867 1.3640535e-38 326 256
0.0096591124 0.787 -0.022077972 1.3456504e-38 327 256
0.011038986 0.787 -0.022077972 1.3639813e-38 328 256
0.01241886 0.787 -0.022077972 1.3639813e-38 329 256
0.013798732 0.787 -0.022077972 1.3456504e-38 330 256
0.015140033 0.78500003 -0.022021867 1.3364308e-38 331 256
0.016516401 0.78500003 -0.022021867 1.3547267e-38 332 256
0.017892767 0.78500003 -0.022021867 1.3547267e-38 333 256
0.019269135 0.78500003 -0.022021867 1.3547267e-38 334 256
0.020645501 0.78500003 -0.022021867 1.3547267e-38 335 256
0.022021867 0.78500003 -0.022021867 1.3455069e-38 336 256
0.023398234 0.78500003 -0.022021867 1.3271036e-38 337 256
0.0247746 0.78500003 -0.022021867 1.3271036e-38 338 256
0.026217593 0.787 -0.022077972 1.3178841e-38 339 256
0.027597465 0.787 -0.022077972 1.3178841e-38 340 256
0.02897734 0.787 -0.022077972 1.3271036e-38 341 256
0.03035721 0.787 -0.022077972 1.3271036e-38 342 256
0.031656433 0.78500003 -0.022021867 1.3271036e-38 343 256
0.033032801 0.78500003 -0.022021867 1.2904412e-38 344 256
0.034409165 0.78500003 -0.022021867 1.2904412e-38 345 256
0.035785533 0.78500003 -0.022021867 1.3088088e-38 346 256
0.037161902 0.78500003 -0.022021867 1.3088088e-38 347 256
0.038440078 0.78299999 -0.021965759 1.3088807e-38 348 256
0.039812941 0.78299999 -0.021965759 1.3088807e-38 349 256
0.0411858 0.78299999 -0.021965759 1.3456148e-38 350 256
0.042558655 0.78299999 -0.021965759 1.3640538e-38 351 256
0.043931518 0.78299999 -0.021965759 1.3640538e-38 352 256
0.045188658 0.78100002 -0.021909652 1.3640538e-38 353 256
0.046558015 0.78100002 -0.021909652 1.3640538e-38 354 256
0.047927368 0.78100002 -0.021909652 1.3456148e-38 355 256
0.049296722 0.78100002 -0.021909652 1.3731659e-38 356 256
0.050666075 0.78100002 -0.021909652 1.3823854e-38 357 256
0.051968798 0.77999997 -0.021881599 1.3823857e-38 358 256
0.053336397 0.77999997 -0.021881599 1.3916053e-38 359 256
0.054563731 0.778 -0.021825492 1.4100071e-38 360 256
0.055784054 0.77600002 -0.021769386 1.4007876e-38 361 256
0.057144642 0.77600002 -0.021769386 1.4284443e-38 362 256
0.058505226 0.77600002 -0.021769386 1.4376638e-38 363 256
0.059865814 0.77600002 -0.021769386 1.4286239e-38 364 256
0.061226401 0.77600002 -0.021769386 1.4470631e-38 365 256
0.062586986 0.77600002 -0.021769386 1.4563548e-38 366 256
0.063947573 0.77600002 -0.021769386 1.474794e-38 367 256
0.065308161 0.77600002 -0.021769386 1.5207848e-38 368 256
0.066496916 0.77399999 -0.021713279 1.5576272e-38 369 256
0.067854002 0.77399999 -0.021713279 1.5852864e-38 370 256
0.069211073 0.77399999 -0.021713279 1.6221647e-38 371 256
0.070568159 0.77399999 -0.021713279 1.6498587e-38 372 256
0.071925238 0.77399999 -0.021713279 1.6867011e-38 373 256
0.073187642 0.773 -0.021685226 1.6959559e-38 374 256
0.074350104 0.77100003 -0.021629119 1.7144309e-38 375 256
0.075701922 0.77100003 -0.021629119 1.7695332e-38 376 256
0.077053741 0.77100003 -0.021629119 1.7879723e-38 377 256
0.078202173 0.76899999 -0.021573013 1.8155597e-38 378 256
0.079550482 0.76899999 -0.021573013 1.8248151e-38 379 256
0.080898799 0.76899999 -0.021573013 1.8249582e-38 380 256
0.082247108 0.76899999 -0.021573013 1.8249582e-38 381 256
0.083378009 0.76700002 -0.021516906 1.8433245e-38 382 256
0.084722824 0.76700002 -0.021516906 1.8248852e-38 383 256
0.086067624 0.76700002 -0.021516906 1.8338884e-38 384 256
0.087412432 0.76700002 -0.021516906 1.7140341e-38 385 256
0.088757239 0.76700002 -0.021516906 1.5292816e-38 386 256
0.090102047 0.76700002 -0.021516906 1.4094273e-38 387 256
0.091446854 0.76700002 -0.021516906 1.3728749e-38 388 256
0.092791654 0.76700002 -0.021516906 1.4466315e-38 389 256
0.094136469 0.76700002 -0.021516906 1.4654344e-38 390 256
0.095481269 0.76700002 -0.021516906 1.6037278e-38 391 256
0.096826084 0.76700002 -0.021516906 1.7142174e-38 392 256
0.098170884 0.76700002 -0.021516906 1.6681196e-38 393 256
0.099515699 0.76700002 -0.021516906 1.67741e-38 394 256
0.1008605 0.76700002 -0.021516906 1.6681546e-38 395 256
0.10220531 0.76700002 -0.021516906 1.6680492e-38 396 256
0.10314509 0.764 -0.021432746 1.6865244e-38 397 256
0.10448463 0.764 -0.021432746 1.6773439e-38 398 256
-0.057512842 0.78100002 -0.023279008 1.7326582e-38 278 257
-0.056143485 0.78100002 -0.023279008 1.6958158e-38 279 257
-0.054703996 0.77999997 -0.023249198 1.8340685e-38 280 257
-0.053336397 0.77999997 -0.023249198 1.843288e-38 281 257
-0.051702294 0.77600002 -0.023129974 1.8984251e-38 282 257
-0.050341707 0.77600002 -0.023129974 1.9076446e-38 283 257
-0.048981119 0.77600002 -0.023129974 1.9260112e-38 284 257
-0.047497798 0.77399999 -0.02307036 1.9260112e-38 285 257
-0.046140719 0.77399999 -0.02307036 1.9076802e-38 286 257
-0.044783637 0.77399999 -0.02307036 1.8984607e-38 287 257
-0.043426558 0.77399999 -0.02307036 1.8983158e-38 288 257
-0.042069476 0.77399999 -0.02307036 1.8706572e-38 289 257
-0.040712398 0.77399999 -0.02307036 1.861473e-38 290 257
-0.039355319 0.77399999 -0.02307036 1.8430337e-38 291 257
-0.037998237 0.77399999 -0.02307036 1.7877165e-38 292 257
-0.036641158 0.77399999 -0.02307036 1.7692413e-38 293 257
-0.035375252 0.77600002 -0.023129974 1.7599852e-38 294 257
-0.034014668 0.77600002 -0.023129974 1.7138874e-38 295 257
-0.032654081 0.77600002 -0.023129974 1.6954117e-38 296 257
-0.031293493 0.77600002 -0.023129974 1.6584974e-38 297 257
-0.029932907 0.77600002 -0.023129974 1.6032519e-38 298 257
-0.028572321 0.77600002 -0.023129974 1.5664097e-38 299 257
-0.027211733 0.77600002 -0.023129974 1.5205289e-38 300 257
-0.025851147 0.77600002 -0.023129974 1.5205289e-38 301 257
-0.024490559 0.77600002 -0.023129974 1.4928725e-38 302 257
-0.023189586 0.778 -0.023189586 1.4928725e-38 303 257
-0.021825492 0.778 -0.023189586 1.4469204e-38 304 257
-0.020461399 0.778 -0.023189586 1.45614e-38 305 257
-0.0191464 0.77999997 -0.023249198 1.4743643e-38 306 257
-0.017801592 0.78100002 -0.023279008 1.4651447e-38 307 257
-0.016432239 0.78100002 -0.023279008 1.4467416e-38 308 257
-0.015062887 0.78100002 -0.023279008 1.4467416e-38 309 257
-0.013693534 0.78100002 -0.023279008 1.4007873e-38 310 257
-0.01232418 0.78100002 -0.023279008 1.4007873e-38 311 257
-0.010954826 0.78100002 -0.023279008 1.3732362e-38 312 257
-0.0095854728 0.78100002 -0.023279008 1.3732362e-38 313 257
-0.0082161194 0.78100002 -0.023279008 1.3640885e-38 314 257
-0.0068467669 0.78100002 -0.023279008 1.3640885e-38 315 257
-0.0054914397 0.78299999 -0.02333862 1.3732365e-38 316 257
-0.0041185799 0.78299999 -0.02333862 1.3547974e-38 317 257
-0.0027457199 0.78299999 -0.02333862 1.3823484e-38 318 257
-0.0013728599 0.78299999 -0.02333862 1.3823484e-38 319 257
0 0.78299999 -0.02333862 1.3639097e-38 320 257
0.0013728599 0.78299999 -0.02333862 1.3823128e-38 321 257
0.0027457199 0.78299999 -0.02333862 1.3456504e-38 322 257
0.0041291001 0.78500003 -0.023398234 1.3456504e-38 323 257
0.005519493 0.787 -0.023457846 1.3456504e-38 324 257
0.0068993662 0.787 -0.023457846 1.3364308e-38 325 257
0.0082792398 0.787 -0.023457846 1.3456501e-38 326 257
0.0096591124 0.787 -0.023457846 1.3364305e-38 327 257
0.011038986 0.787 -0.023457846 1.3364303e-38 328 257
0.01241886 0.787 -0.023457846 1.3272107e-38 329 257
0.013798732 0.787 -0.023457846 1.3271754e-38 330 257
0.015140033 0.78500003 -0.023398234 1.3364308e-38 331 257
0.016516401 0.78500003 -0.023398234 1.3455425e-38 332 257
0.017892767 0.78500003 -0.023398234 1.354762e-38 333 257
0.019269135 0.78500003 -0.023398234 1.3454351e-38 334 257
0.020645501 0.78500003 -0.023398234 1.3454351e-38 335 257
0.022021867 0.78500003 -0.023398234 1.3271039e-38 336 257
0.023398234 0.78500003 -0.023398234 1.3271039e-38 337 257
0.0247746 0.78500003 -0.023398234 1.317956e-38 338 257
0.026217593 0.787 -0.023457846 1.3087364e-38 339 257
0.027597465 0.787 -0.023457846 1.3178838e-38 340 257
0.02897734 0.787 -0.023457846 1.3178838e-38 341 257
0.03035721 0.787 -0.023457846 1.2904052e-38 342 257
0.031656433 0.78500003 -0.023398234 1.2904052e-38 343 257
0.033032801 0.78500003 -0.023398234 1.2996247e-38 344 257
0.034409165 0.78500003 -0.023398234 1.2996247e-38 345 257
0.035785533 0.78500003 -0.023398234 1.317956e-38 346 257
0.037161902 0.78500003 -0.023398234 1.317956e-38 347 257
0.038440078 0.78299999 -0.02333862 1.3271403e-38 348 257
0.039812941 0.78299999 -0.02333862 1.3363599e-38 349 257
0.0411858 0.78299999 -0.02333862 1.3363955e-38 350 257
0.042558655 0.78299999 -0.02333862 1.3363955e-38 351 257
0.043931518 0.78299999 -0.02333862 1.3456501e-38 352 257
0.04530438 0.78299999 -0.02333862 1.3456501e-38 353 257
0.046558015 0.78100002 -0.023279008 1.3456501e-38 354 257
0.047927368 0.78100002 -0.023279008 1.3456501e-38 355 257
0.049296722 0.78100002 -0.023279008 1.3639816e-38 356 257
0.050666075 0.78100002 -0.023279008 1.3732012e-38 357 257
0.052035429 0.78100002 -0.023279008 1.3732365e-38 358 257
0.053336397 0.77999997 -0.023249198 1.3732365e-38 359 257
0.054563731 0.778 -0.023189586 1.3823481e-38 360 257
0.055927824 0.778 -0.023189586 1.3915677e-38 361 257
0.057291918 0.778 -0.023189586 1.3914605e-38 362 257
0.058505226 0.77600002 -0.023129974 1.3914605e-38 363 257
0.059865814 0.77600002 -0.023129974 1.3640535e-38 364 257
0.061226401 0.77600002 -0.023129974 1.3732731e-38 365 257
0.062586986 0.77600002 -0.023129974 1.3641611e-38 366 257
0.063947573 0.77600002 -0.023129974 1.3734167e-38 367 257
0.065308161 0.77600002 -0.023129974 1.4469204e-38 368 257
0.066496916 0.77399999 -0.02307036 1.45614e-38 369 257
0.067854002 0.77399999 -0.02307036 1.4655395e-38 370 257
0.069211073 0.77399999 -0.02307036 1.5300764e-38 371 257
0.070476986 0.773 -0.023040552 1.5761388e-38 372 257
0.071832314 0.773 -0.023040552 1.6314561e-38 373 257
0.073187642 0.773 -0.023040552 1.6682618e-38 374 257
0.074350104 0.77100003 -0.02298094 1.6774815e-38 375 257
0.07550554 0.76899999 -0.022921326 1.7142524e-38 376 257
0.076853856 0.76899999 -0.022921326 1.7326915e-38 377 257
0.078202173 0.76899999 -0.022921326 1.7511314e-38 378 257
0.079550482 0.76899999 -0.022921326 1.778754e-38 379 257
0.080688395 0.76700002 -0.022861714 1.7789328e-38 380 257
0.08203321 0.76700002 -0.022861714 1.797336e-38 381 257
0.083378009 0.76700002 -0.022861714 1.8157384e-38 382 257
0.084612355 0.76599997 -0.022831906 1.8065187e-38 383 257
0.085955404 0.76599997 -0.022831906 1.8523278e-38 384 257
0.087412432 0.76700002 -0.022861714 1.7785713e-38 385 257
0.088757239 0.76700002 -0.022861714 1.6121497e-38 386 257
0.090102047 0.76700002 -0.022861714 1.4370139e-38 387 257
0.091446854 0.76700002 -0.022861714 1.3449289e-38 388 257
0.092791654 0.76700002 -0.022861714 1.363368e-38 389 257
0.094136469 0.76700002 -0.022861714 1.3453652e-38 390 257
0.095481269 0.76700002 -0.022861714 1.5205009e-38 391 257
0.096826084 0.76700002 -0.022861714 1.6404984e-38 392 257
0.098170884 0.76700002 -0.022861714 1.6681212e-38 393 257
0.099515699 0.76700002 -0.022861714 1.6866297e-38 394 257
0.10072899 0.76599997 -0.022831906 1.6681546e-38 395 257
0.10180555 0.764 -0.022772292 1.6957413e-38 396 257
0.10314509 0.764 -0.022772292 1.6865217e-38 397 257
0.10448463 0.764 -0.022772292 1.64979e-38 398 257
0.10540864 0.76099998 -0.022682872 1.6774487e-38 399 257
-0.060174398 0.77999997 -0.024616797 1.8159257e-38 276 258
-0.058806792 0.77999997 -0.024616797 1.6868518e-38 277 258
-0.057512842 0.78100002 -0.024648361 1.7693177e-38 278 258
-0.056143485 0.78100002 -0.024648361 1.7877568e-38 279 258
-0.054703996 0.77999997 -0.024616797 1.8431077e-38 280 258
-0.053336397 0.77999997 -0.024616797 1.8707662e-38 281 258
-0.051702294 0.77600002 -0.024490559 1.8891688e-38 282 258
-0.050341707 0.77600002 -0.024490559 1.8891688e-38 283 258
-0.048981119 0.77600002 -0.024490559 1.9074997e-38 284 258
-0.047497798 0.77399999 -0.02442744 1.9074997e-38 285 258
-0.046140719 0.77399999 -0.02442744 1.8891685e-38 286 258
-0.044725779 0.773 -0.024395877 1.8799489e-38 287 258
-0.043370452 0.773 -0.024395877 1.8614732e-38 288 258
-0.042069476 0.77399999 -0.02442744 1.8337785e-38 289 258
-0.040712398 0.77399999 -0.02442744 1.7876442e-38 290 258
-0.039355319 0.77399999 -0.02442744 1.7599855e-38 291 258
-0.037998237 0.77399999 -0.02442744 1.6494932e-38 292 258
-0.036641158 0.77399999 -0.02442744 1.5849563e-38 293 258
-0.03528408 0.77399999 -0.02442744 1.6033223e-38 294 258
-0.033927001 0.77399999 -0.02442744 1.5756996e-38 295 258
-0.032654081 0.77600002 -0.024490559 1.5480782e-38 296 258
-0.031293493 0.77600002 -0.024490559 1.5388586e-38 297 258
-0.029932907 0.77600002 -0.024490559 1.5203857e-38 298 258
-0.028572321 0.77600002 -0.024490559 1.5203857e-38 299 258
-0.027211733 0.77600002 -0.024490559 1.4744696e-38 300 258
-0.025851147 0.77600002 -0.024490559 1.4468468e-38 301 258
-0.024490559 0.77600002 -0.024490559 1.4743271e-38 302 258
-0.023129974 0.77600002 -0.024490559 1.4651074e-38 303 258
-0.021825492 0.778 -0.024553679 1.4375936e-38 304 258
-0.020513998 0.77999997 -0.024616797 1.4283739e-38 305 258
-0.0191464 0.77999997 -0.024616797 1.4283383e-38 306 258
-0.017801592 0.78100002 -0.024648361 1.4283383e-38 307 258
-0.016432239 0.78100002 -0.024648361 1.4099352e-38 308 258
-0.015062887 0.78100002 -0.024648361 1.4099352e-38 309 258
-0.013693534 0.78100002 -0.024648361 1.3732365e-38 310 258
-0.01232418 0.78100002 -0.024648361 1.3732365e-38 311 258
-0.010954826 0.78100002 -0.024648361 1.3640888e-38 312 258
-0.0096100196 0.78299999 -0.024711479 1.3456857e-38 313 258
-0.0082371598 0.78299999 -0.024711479 1.3547974e-38 314 258
-0.0068642995 0.78299999 -0.024711479 1.3547974e-38 315 258
-0.0054914397 0.78299999 -0.024711479 1.363945e-38 316 258
-0.0041185799 0.78299999 -0.024711479 1.363945e-38 317 258
-0.0027457199 0.78299999 -0.024711479 1.363945e-38 318 258
-0.0013728599 0.78299999 -0.024711479 1.363945e-38 319 258
0 0.78299999 -0.024711479 1.3639094e-38 320 258
0.0013763667 0.78500003 -0.0247746 1.3639094e-38 321 258
0.0027527334 0.78500003 -0.0247746 1.3547618e-38 322 258
0.0041291001 0.78500003 -0.0247746 1.3547618e-38 323 258
0.005519493 0.787 -0.024837719 1.3364305e-38 324 258
0.0068993662 0.787 -0.024837719 1.3364305e-38 325 258
0.0082792398 0.787 -0.024837719 1.3364658e-38 326 258
0.0096591124 0.787 -0.024837719 1.3272463e-38 327 258
0.011038986 0.787 -0.024837719 1.3364658e-38 328 258
0.01241886 0.787 -0.024837719 1.3272463e-38 329 258
0.013798732 0.787 -0.024837719 1.3455422e-38 330 258
0.015140033 0.78500003 -0.0247746 1.3455422e-38 331 258
0.016516401 0.78500003 -0.0247746 1.3455422e-38 332 258
0.017892767 0.78500003 -0.0247746 1.3455422e-38 333 258
0.019269135 0.78500003 -0.0247746 1.3271036e-38 334 258
0.020645501 0.78500003 -0.0247746 1.3178841e-38 335 258
0.022021867 0.78500003 -0.0247746 1.3086642e-38 336 258
0.023398234 0.78500003 -0.0247746 1.3178838e-38 337 258
0.0247746 0.78500003 -0.0247746 1.3179191e-38 338 258
0.026217593 0.787 -0.024837719 1.3179191e-38 339 258
0.027597465 0.787 -0.024837719 1.3086998e-38 340 258
0.02897734 0.787 -0.024837719 1.3086998e-38 341 258
0.03035721 0.787 -0.024837719 1.2995163e-38 342 258
0.031737085 0.787 -0.024837719 1.3087358e-38 343 258
0.033116959 0.787 -0.024837719 1.3087358e-38 344 258
0.034496833 0.787 -0.024837719 1.3087358e-38 345 258
0.035785533 0.78500003 -0.0247746 1.3271034e-38 346 258
0.037161902 0.78500003 -0.0247746 1.3455425e-38 347 258
0.038440078 0.78299999 -0.024711479 1.3271754e-38 348 258
0.039812941 0.78299999 -0.024711479 1.3271754e-38 349 258
0.0411858 0.78299999 -0.024711479 1.354762e-38 350 258
0.042558655 0.78299999 -0.024711479 1.354762e-38 351 258
0.043931518 0.78299999 -0.024711479 1.3456501e-38 352 258
0.04530438 0.78299999 -0.024711479 1.3364305e-38 353 258
0.046677239 0.78299999 -0.024711479 1.3456501e-38 354 258
0.047927368 0.78100002 -0.024648361 1.3364305e-38 355 258
0.049296722 0.78100002 -0.024648361 1.3640169e-38 356 258
0.050666075 0.78100002 -0.024648361 1.3640169e-38 357 258
0.052035429 0.78100002 -0.024648361 1.3640166e-38 358 258
0.053336397 0.77999997 -0.024616797 1.3547971e-38 359 258
0.054563731 0.778 -0.024553679 1.3547974e-38 360 258
0.055927824 0.778 -0.024553679 1.3547974e-38 361 258
0.057144642 0.77600002 -0.024490559 1.3546902e-38 362 258
0.058505226 0.77600002 -0.024490559 1.3639097e-38 363 258
0.059865814 0.77600002 -0.024490559 1.3547618e-38 364 258
0.061226401 0.77600002 -0.024490559 1.3639813e-38 365 258
0.062586986 0.77600002 -0.024490559 1.3732362e-38 366 258
0.063947573 0.77600002 -0.024490559 1.3824558e-38 367 258
0.065308161 0.77600002 -0.024490559 1.4099703e-38 368 258
0.066496916 0.77399999 -0.02442744 1.4099703e-38 369 258
0.067854002 0.77399999 -0.02442744 1.410114e-38 370 258
0.069211073 0.77399999 -0.02442744 1.4285533e-38 371 258
0.070476986 0.773 -0.024395877 1.4562125e-38 372 258
0.071832314 0.773 -0.024395877 1.5207495e-38 373 258
0.072998285 0.77100003 -0.02433276 1.5670274e-38 374 258
0.074157231 0.76899999 -0.024269639 1.6038697e-38 375 258
0.07550554 0.76899999 -0.024269639 1.6498602e-38 376 258
0.076853856 0.76899999 -0.024269639 1.6775191e-38 377 258
0.078202173 0.76899999 -0.024269639 1.7234367e-38 378 258
0.079343595 0.76700002 -0.024206521 1.7326921e-38 379 258
0.080688395 0.76700002 -0.024206521 1.7787525e-38 380 258
0.08203321 0.76700002 -0.024206521 1.7879721e-38 381 258
0.083378009 0.76700002 -0.024206521 1.8248136e-38 382 258
0.084612355 0.76599997 -0.024174958 1.8155582e-38 383 258
0.085730985 0.764 -0.024111839 1.8339976e-38 384 258
0.087070532 0.764 -0.024111839 1.8155584e-38 385 258
0.088410079 0.764 -0.024111839 1.7320772e-38 386 258
0.089749627 0.764 -0.024111839 1.5384664e-38 387 258
0.091089167 0.764 -0.024111839 1.3446049e-38 388 258
0.092428714 0.764 -0.024111839 1.316946e-38 389 258
0.093768261 0.764 -0.024111839 1.2253304e-38 390 258
0.095107809 0.764 -0.024111839 1.382099e-38 391 258
0.096447356 0.764 -0.024111839 1.5113895e-38 392 258
0.097786903 0.764 -0.024111839 1.6865253e-38 393 258
0.099126451 0.764 -0.024111839 1.7142174e-38 394 258
0.100203 0.76200002 -0.02404872 1.6681196e-38 395 258
0.10153904 0.76200002 -0.02404872 1.6682255e-38 396 258
0.10274007 0.76099998 -0.024017159 1.6682255e-38 397 258
0.10407435 0.76099998 -0.024017159 1.6589003e-38 398 258
0.10540864 0.76099998 -0.024017159 1.6865591e-38 399 258
0.1068832 0.76200002 -0.02404872 1.7512443e-38 400 258
0.10821924 0.76200002 -0.02404872 1.778903e-38 401 258
-0.061541997 0.77999997 -0.025984399 1.6876104e-38 275 259
-0.0600201 0.778 -0.025917772 1.7511682e-38 276 259
-0.058656007 0.778 -0.025917772 1.6681563e-38 277 259
-0.057439197 0.77999997 -0.025984399 1.8062293e-38 278 259
-0.056071598 0.77999997 -0.025984399 1.8338881e-38 279 259
-0.054423466 0.77600002 -0.025851147 1.8430729e-38 280 259
-0.053062879 0.77600002 -0.025851147 1.8522925e-38 281 259
-0.051569037 0.77399999 -0.025784519 1.8523997e-38 282 259
-0.050211959 0.77399999 -0.025784519 1.8523997e-38 283 259
-0.04885488 0.77399999 -0.025784519 1.8523979e-38 284 259
-0.047497798 0.77399999 -0.025784519 1.8339588e-38 285 259
-0.046081103 0.773 -0.025751207 1.8523603e-38 286 259
-0.044725779 0.773 -0.025751207 1.8339571e-38 287 259
-0.043370452 0.773 -0.025751207 1.8337417e-38 288 259
-0.042015124 0.773 -0.025751207 1.7876798e-38 289 259
-0.0406598 0.773 -0.025751207 1.7047753e-38 290 259
-0.039355319 0.77399999 -0.025784519 1.6125798e-38 291 259
-0.037998237 0.77399999 -0.025784519 1.5574052e-38 292 259
-0.036641158 0.77399999 -0.025784519 1.5020878e-38 293 259
-0.03528408 0.77399999 -0.025784519 1.5020172e-38 294 259
-0.033927001 0.77399999 -0.025784519 1.5296759e-38 295 259
-0.032569919 0.77399999 -0.025784519 1.4836892e-38 296 259
