# .PCD v.7 - Point Cloud Data file format
FIELDS x y z rgb imX imY
SIZE 4 4 4 4 4 4
TYPE F F F F F F
COUNT 1 1 1 1 1 1
WIDTH 838
HEIGHT 1
VIEWPOINT 0 0 0 1 0 0 0
POINTS 838
DATA ascii
-0.070717193 0.76099998 -0.045365743 1.6499641e-38 267 274
-0.069382899 0.76099998 -0.045365743 1.668259e-38 268 274
-0.068138041 0.76200002 -0.045425359 1.6590036e-38 269 274
-0.066802002 0.76200002 -0.045425359 1.6221978e-38 270 274
-0.06563779 0.764 -0.045544583 1.6221978e-38 271 274
-0.064298242 0.764 -0.045544583 1.6220899e-38 272 274
-0.062958695 0.764 -0.045544583 1.6220899e-38 273 274
-0.061619148 0.764 -0.045544583 1.5853924e-38 274 274
-0.0602796 0.764 -0.045544583 1.6037955e-38 275 274
-0.058785759 0.76200002 -0.045425359 1.5577736e-38 276 274
-0.057449725 0.76200002 -0.045425359 1.5854682e-38 277 274
-0.056113683 0.76200002 -0.045425359 1.5305158e-38 278 274
-0.05470575 0.76099998 -0.045365743 1.5950528e-38 279 274
-0.053371463 0.76099998 -0.045365743 1.6595936e-38 280 274
-0.10720932 0.77399999 -0.047497798 1.1429677e-38 241 275
-0.10585223 0.77399999 -0.047497798 1.1890282e-38 242 275
-0.10436015 0.773 -0.047436431 1.2259425e-38 243 275
-0.10300483 0.773 -0.047436431 1.308916e-38 244 275
-0.1011235 0.76899999 -0.047190964 1.3181356e-38 245 275
-0.09977518 0.76899999 -0.047190964 1.3366809e-38 246 275
-0.098426871 0.76899999 -0.047190964 1.3550841e-38 247 275
-0.096826084 0.76700002 -0.047068235 1.4193693e-38 248 275
-0.095481269 0.76700002 -0.047068235 1.4378085e-38 249 275
-0.094136469 0.76700002 -0.047068235 1.4746513e-38 250 275
-0.092791654 0.76700002 -0.047068235 1.5023101e-38 251 275
-0.091446854 0.76700002 -0.047068235 1.5024173e-38 252 275
-0.089984566 0.76599997 -0.047006864 1.5393315e-38 253 275
-0.088641517 0.76599997 -0.047006864 1.5762094e-38 254 275
-0.08729846 0.76599997 -0.047006864 1.5946486e-38 255 275
-0.085730985 0.764 -0.046884131 1.6221641e-38 256 275
-0.084391437 0.764 -0.046884131 1.6406391e-38 257 275
-0.082834482 0.76200002 -0.046761397 1.6407463e-38 258 275
-0.081498444 0.76200002 -0.046761397 1.6499659e-38 259 275
-0.080162399 0.76200002 -0.046761397 1.6866998e-38 260 275
-0.078722909 0.76099998 -0.046700031 1.6959194e-38 261 275
-0.077388622 0.76099998 -0.046700031 1.6960268e-38 262 275
-0.076054335 0.76099998 -0.046700031 1.6867714e-38 263 275
-0.074720047 0.76099998 -0.046700031 1.6959547e-38 264 275
-0.07338576 0.76099998 -0.046700031 1.686735e-38 265 275
-0.072051473 0.76099998 -0.046700031 1.7051368e-38 266 275
-0.070717193 0.76099998 -0.046700031 1.6958814e-38 267 275
-0.069382899 0.76099998 -0.046700031 1.6959167e-38 268 275
-0.068138041 0.76200002 -0.046761397 1.6866971e-38 269 275
-0.066802002 0.76200002 -0.046761397 1.6773701e-38 270 275
-0.065465957 0.76200002 -0.046761397 1.6681505e-38 271 275
-0.064298242 0.764 -0.046884131 1.6681511e-38 272 275
-0.062958695 0.764 -0.046884131 1.6588955e-38 273 275
-0.061457843 0.76200002 -0.046761397 1.6404927e-38 274 275
-0.060121801 0.76200002 -0.046761397 1.6404927e-38 275 275
-0.058785759 0.76200002 -0.046761397 1.5944319e-38 276 275
-0.057449725 0.76200002 -0.046761397 1.6036514e-38 277 275
-0.056113683 0.76200002 -0.046761397 1.5577742e-38 278 275
-0.05470575 0.76099998 -0.046700031 1.6130555e-38 279 275
-0.053231198 0.759 -0.046577301 1.6041654e-38 280 275
-0.051900417 0.759 -0.046577301 1.6687024e-38 281 275
-0.10720932 0.77399999 -0.04885488 1.115311e-38 241 276
-0.10585223 0.77399999 -0.04885488 1.152078e-38 242 276
-0.10449515 0.77399999 -0.04885488 1.1797368e-38 243 276
-0.10300483 0.773 -0.048791755 1.2444513e-38 244 276
-0.10164949 0.773 -0.048791755 1.27211e-38 245 276
-0.10003468 0.77100003 -0.04866552 1.3641236e-38 246 276
-0.098170884 0.76700002 -0.048413042 1.3641236e-38 247 276
-0.096826084 0.76700002 -0.048413042 1.4101128e-38 248 276
-0.095481269 0.76700002 -0.048413042 1.428552e-38 249 276
-0.094136469 0.76700002 -0.048413042 1.4653946e-38 250 276
-0.092670672 0.76599997 -0.048349917 1.4746141e-38 251 276
-0.091327623 0.76599997 -0.048349917 1.4931256e-38 252 276
-0.089984566 0.76599997 -0.048349917 1.5208201e-38 253 276
-0.088641517 0.76599997 -0.048349917 1.5576628e-38 254 276
-0.087070532 0.764 -0.048223678 1.5761019e-38 255 276
-0.085730985 0.764 -0.048223678 1.6037604e-38 256 276
-0.084391437 0.764 -0.048223678 1.6221997e-38 257 276
-0.082834482 0.76200002 -0.048097439 1.6406388e-38 258 276
-0.081498444 0.76200002 -0.048097439 1.6498584e-38 259 276
-0.080162399 0.76200002 -0.048097439 1.649894e-38 260 276
-0.078722909 0.76099998 -0.048034318 1.6682971e-38 261 276
-0.077388622 0.76099998 -0.048034318 1.6867364e-38 262 276
-0.076054335 0.76099998 -0.048034318 1.6959559e-38 263 276
-0.074720047 0.76099998 -0.048034318 1.6959915e-38 264 276
-0.07338576 0.76099998 -0.048034318 1.6959915e-38 265 276
-0.072051473 0.76099998 -0.048034318 1.6959547e-38 266 276
-0.070717193 0.76099998 -0.048034318 1.686735e-38 267 276
-0.069382899 0.76099998 -0.048034318 1.68677e-38 268 276
-0.068048611 0.76099998 -0.048034318 1.68677e-38 269 276
-0.066714332 0.76099998 -0.048034318 1.6866621e-38 270 276
-0.065465957 0.76200002 -0.048097439 1.668259e-38 271 276
-0.064129919 0.76200002 -0.048097439 1.6682234e-38 272 276
-0.062793881 0.76200002 -0.048097439 1.6590038e-38 273 276
-0.061457843 0.76200002 -0.048097439 1.6588958e-38 274 276
-0.060042895 0.76099998 -0.048034318 1.6588958e-38 275 276
-0.058708608 0.76099998 -0.048034318 1.6313097e-38 276 276
-0.057374325 0.76099998 -0.048034318 1.6405293e-38 277 276
-0.056040037 0.76099998 -0.048034318 1.6220925e-38 278 276
-0.05470575 0.76099998 -0.048034318 1.6220925e-38 279 276
-0.053231198 0.759 -0.047908079 1.5577389e-38 280 276
-0.051900417 0.759 -0.047908079 1.594653e-38 281 276
-0.10585223 0.77399999 -0.050211959 1.0967257e-38 242 277
-0.10449515 0.77399999 -0.050211959 1.1336039e-38 243 277
-0.10313807 0.77399999 -0.050211959 1.143181e-38 244 277
-0.10164949 0.773 -0.050147086 1.2077179e-38 245 277
-0.10003468 0.77100003 -0.050017338 1.3089864e-38 246 277
-0.098170884 0.76700002 -0.049757849 1.3089864e-38 247 277
-0.096826084 0.76700002 -0.049757849 1.3734137e-38 248 277
-0.095481269 0.76700002 -0.049757849 1.3826333e-38 249 277
-0.094013728 0.76599997 -0.04969297 1.4285518e-38 250 277
-0.092670672 0.76599997 -0.04969297 1.4469907e-38 251 277
-0.091327623 0.76599997 -0.04969297 1.4929456e-38 252 277
-0.089984566 0.76599997 -0.04969297 1.5206403e-38 253 277
-0.088641517 0.76599997 -0.04969297 1.5024173e-38 254 277
-0.087070532 0.764 -0.049563225 1.5300761e-38 255 277
-0.085730985 0.764 -0.049563225 1.5669539e-38 256 277
-0.08417052 0.76200002 -0.049433477 1.5762094e-38 257 277
-0.082834482 0.76200002 -0.049433477 1.6129796e-38 258 277
-0.081498444 0.76200002 -0.049433477 1.622235e-38 259 277
-0.080057196 0.76099998 -0.049368605 1.6314543e-38 260 277
-0.078722909 0.76099998 -0.049368605 1.6406739e-38 261 277
-0.077388622 0.76099998 -0.049368605 1.6774445e-38 262 277
-0.076054335 0.76099998 -0.049368605 1.6867001e-38 263 277
-0.074720047 0.76099998 -0.049368605 1.6958841e-38 264 277
-0.073192894 0.759 -0.049238857 1.714323e-38 265 277
-0.071862116 0.759 -0.049238857 1.695955e-38 266 277
-0.070531338 0.759 -0.049238857 1.7143581e-38 267 277
-0.069200553 0.759 -0.049238857 1.7143931e-38 268 277
-0.068048611 0.76099998 -0.049368605 1.69599e-38 269 277
-0.066714332 0.76099998 -0.049368605 1.7051015e-38 270 277
-0.065380037 0.76099998 -0.049368605 1.6958819e-38 271 277
-0.064045757 0.76099998 -0.049368605 1.6958101e-38 272 277
-0.06271147 0.76099998 -0.049368605 1.6958101e-38 273 277
-0.061377186 0.76099998 -0.049368605 1.6865549e-38 274 277
-0.059885096 0.759 -0.049238857 1.6773353e-38 275 277
-0.058554318 0.759 -0.049238857 1.649749e-38 276 277
-0.057374325 0.76099998 -0.049368605 1.649749e-38 277 277
-0.056040037 0.76099998 -0.049368605 1.6221629e-38 278 277
-0.054561976 0.759 -0.049238857 1.6221629e-38 279 277
-0.053231198 0.759 -0.049238857 1.585322e-38 280 277
-0.051900417 0.759 -0.049238857 1.6129448e-38 281 277
-0.050569639 0.759 -0.049238857 1.6313157e-38 282 277
-0.049238857 0.759 -0.049238857 1.649755e-38 283 277
-0.10164949 0.773 -0.051502414 1.1432175e-38 245 278
-0.09977518 0.76899999 -0.051235907 1.2537059e-38 246 278
-0.098170884 0.76700002 -0.051102653 1.272145e-38 247 278
-0.096826084 0.76700002 -0.051102653 1.3090936e-38 248 278
-0.095356777 0.76599997 -0.051036026 1.3183131e-38 249 278
-0.094013728 0.76599997 -0.051036026 1.391746e-38 250 278
-0.092670672 0.76599997 -0.051036026 1.4193688e-38 251 278
-0.091327623 0.76599997 -0.051036026 1.4561397e-38 252 278
-0.089984566 0.76599997 -0.051036026 1.4746147e-38 253 278
-0.088641517 0.76599997 -0.051036026 1.4655763e-38 254 278
-0.087070532 0.764 -0.050902773 1.493235e-38 255 278
-0.085730985 0.764 -0.050902773 1.5208937e-38 256 278
-0.08417052 0.76200002 -0.050769519 1.5393328e-38 257 278
-0.082834482 0.76200002 -0.050769519 1.5761741e-38 258 278
-0.081498444 0.76200002 -0.050769519 1.5853936e-38 259 278
-0.080057196 0.76099998 -0.050702889 1.5946131e-38 260 278
-0.078722909 0.76099998 -0.050702889 1.6038685e-38 261 278
-0.077388622 0.76099998 -0.050702889 1.6314559e-38 262 278
-0.076054335 0.76099998 -0.050702889 1.6499309e-38 263 278
-0.07452368 0.759 -0.050569639 1.6774462e-38 264 278
-0.073192894 0.759 -0.050569639 1.6867016e-38 265 278
-0.071862116 0.759 -0.050569639 1.6867367e-38 266 278
-0.070531338 0.759 -0.050569639 1.6867367e-38 267 278
-0.069200553 0.759 -0.050569639 1.7143225e-38 268 278
-0.067869775 0.759 -0.050569639 1.7143225e-38 269 278
-0.066538997 0.759 -0.050569639 1.7142859e-38 270 278
-0.065208219 0.759 -0.050569639 1.7050662e-38 271 278
-0.063877434 0.759 -0.050569639 1.7233255e-38 272 278
-0.062546656 0.759 -0.050569639 1.7325451e-38 273 278
-0.061215881 0.759 -0.050569639 1.7233255e-38 274 278
-0.059885096 0.759 -0.050569639 1.714106e-38 275 278
-0.058554318 0.759 -0.050569639 1.6865549e-38 276 278
-0.057374325 0.76099998 -0.050702889 1.6681158e-38 277 278
-0.056040037 0.76099998 -0.050702889 1.6681155e-38 278 278
-0.054561976 0.759 -0.050569639 1.6588958e-38 279 278
-0.053231198 0.759 -0.050569639 1.6404588e-38 280 278
-0.051900417 0.759 -0.050569639 1.6589338e-38 281 278
-0.050569639 0.759 -0.050569639 1.6587199e-38 282 278
-0.049238857 0.759 -0.050569639 1.6310971e-38 283 278
-0.047908079 0.759 -0.050569639 1.5668486e-38 284 278
-0.046577301 0.759 -0.050569639 1.5853237e-38 285 278
-0.045246519 0.759 -0.050569639 1.5578849e-38 286 278
-0.043915741 0.759 -0.050569639 1.6316415e-38 287 278
-0.09977518 0.76899999 -0.052584216 1.1616194e-38 246 279
-0.098170884 0.76700002 -0.052447457 1.2261563e-38 247 279
-0.096826084 0.76700002 -0.052447457 1.3089144e-38 248 279
-0.095356777 0.76599997 -0.052379075 1.3273176e-38 249 279
-0.094013728 0.76599997 -0.052379075 1.4008929e-38 250 279
-0.092670672 0.76599997 -0.052379075 1.4101125e-38 251 279
-0.091327623 0.76599997 -0.052379075 1.4652501e-38 252 279
-0.089749627 0.764 -0.052242316 1.4836892e-38 253 279
-0.088410079 0.764 -0.052242316 1.5021289e-38 254 279
-0.087070532 0.764 -0.052242316 1.5297517e-38 255 279
-0.085506558 0.76200002 -0.052105557 1.5481908e-38 256 279
-0.08417052 0.76200002 -0.052105557 1.5758854e-38 257 279
-0.082834482 0.76200002 -0.052105557 1.5576256e-38 258 279
-0.081391476 0.76099998 -0.052037176 1.5760646e-38 259 279
-0.080057196 0.76099998 -0.052037176 1.5945038e-38 260 279
-0.078722909 0.76099998 -0.052037176 1.6037233e-38 261 279
-0.077388622 0.76099998 -0.052037176 1.6404941e-38 262 279
-0.075854458 0.759 -0.051900417 1.6589691e-38 263 279
-0.07452368 0.759 -0.051900417 1.6865564e-38 264 279
-0.073192894 0.759 -0.051900417 1.695776e-38 265 279
-0.071862116 0.759 -0.051900417 1.704924e-38 266 279
-0.070531338 0.759 -0.051900417 1.7325468e-38 267 279
-0.069018215 0.75700003 -0.051763661 1.7325824e-38 268 279
-0.067690939 0.75700003 -0.051763661 1.7418019e-38 269 279
-0.06636367 0.75700003 -0.051763661 1.723506e-38 270 279
-0.065208219 0.759 -0.051900417 1.723506e-38 271 279
-0.063709125 0.75700003 -0.051763661 1.7142506e-38 272 279
-0.062381849 0.75700003 -0.051763661 1.7142506e-38 273 279
-0.061215881 0.759 -0.051900417 1.6866645e-38 274 279
-0.059727304 0.75700003 -0.051763661 1.6866645e-38 275 279
-0.058400027 0.75700003 -0.051763661 1.695776e-38 276 279
-0.05722354 0.759 -0.051900417 1.6681533e-38 277 279
-0.055892758 0.759 -0.051900417 1.659041e-38 278 279
-0.054418206 0.75700003 -0.051763661 1.6313824e-38 279 279
-0.053090934 0.75700003 -0.051763661 1.6589691e-38 280 279
-0.051763661 0.75700003 -0.051763661 1.6497136e-38 281 279
-0.050436385 0.75700003 -0.051763661 1.6497142e-38 282 279
-0.049238857 0.759 -0.051900417 1.6312391e-38 283 279
-0.047908079 0.759 -0.051900417 1.6129081e-38 284 279
-0.046577301 0.759 -0.051900417 1.6129081e-38 285 279
-0.045246519 0.759 -0.051900417 1.6036196e-38 286 279
-0.043800019 0.75700003 -0.051763661 1.6312783e-38 287 279
-0.042472746 0.75700003 -0.051763661 1.5485234e-38 288 279
-0.041145474 0.75700003 -0.051763661 1.5300484e-38 289 279
-0.09977518 0.76899999 -0.053932533 1.1061598e-38 246 280
-0.098170884 0.76700002 -0.053792264 1.1891719e-38 247 280
-0.096826084 0.76700002 -0.053792264 1.2628185e-38 248 280
-0.095356777 0.76599997 -0.053722132 1.2904412e-38 249 280
-0.094013728 0.76599997 -0.053722132 1.3365021e-38 250 280
-0.092670672 0.76599997 -0.053722132 1.3549771e-38 251 280
-0.091327623 0.76599997 -0.053722132 1.3733084e-38 252 280
-0.089749627 0.764 -0.053581864 1.4009672e-38 253 280
-0.088410079 0.764 -0.053581864 1.4285188e-38 254 280
-0.087070532 0.764 -0.053581864 1.4561775e-38 255 280
-0.085506558 0.76200002 -0.053441599 1.4654691e-38 256 280
-0.08417052 0.76200002 -0.053441599 1.4839082e-38 257 280
-0.082725771 0.76099998 -0.053371463 1.4840154e-38 258 280
-0.081391476 0.76099998 -0.053371463 1.5024904e-38 259 280
-0.079846799 0.759 -0.053231198 1.5117817e-38 260 280
-0.078516021 0.759 -0.053231198 1.5117817e-38 261 280
-0.077185236 0.759 -0.053231198 1.5760669e-38 262 280
-0.075854458 0.759 -0.053231198 1.6129092e-38 263 280
-0.07452368 0.759 -0.053231198 1.6313489e-38 264 280
-0.073000036 0.75700003 -0.053090934 1.6405685e-38 265 280
-0.07167276 0.75700003 -0.053090934 1.6497883e-38 266 280
-0.070345491 0.75700003 -0.053090934 1.6681915e-38 267 280
-0.068835862 0.755 -0.052950665 1.6867016e-38 268 280
-0.067512102 0.755 -0.052950665 1.6867016e-38 269 280
-0.066188328 0.755 -0.052950665 1.6958841e-38 270 280
-0.064864561 0.755 -0.052950665 1.6958841e-38 271 280
-0.063540794 0.755 -0.052950665 1.7325821e-38 272 280
-0.062217031 0.755 -0.052950665 1.7418017e-38 273 280
-0.061054576 0.75700003 -0.053090934 1.7326177e-38 274 280
-0.059727304 0.75700003 -0.053090934 1.7326177e-38 275 280
-0.058400027 0.75700003 -0.053090934 1.723433e-38 276 280
-0.057072755 0.75700003 -0.053090934 1.6957745e-38 277 280
-0.055745479 0.75700003 -0.053090934 1.6958098e-38 278 280
-0.054418206 0.75700003 -0.053090934 1.6865902e-38 279 280
-0.053090934 0.75700003 -0.053090934 1.6865902e-38 280 280
-0.051763661 0.75700003 -0.053090934 1.6773707e-38 281 280
-0.050436385 0.75700003 -0.053090934 1.6773353e-38 282 280
-0.049109112 0.75700003 -0.053090934 1.6681158e-38 283 280
-0.04778184 0.75700003 -0.053090934 1.6497136e-38 284 280
-0.046454567 0.75700003 -0.053090934 1.6497136e-38 285 280
-0.045127295 0.75700003 -0.053090934 1.6312391e-38 286 280
-0.043800019 0.75700003 -0.053090934 1.6312391e-38 287 280
-0.042472746 0.75700003 -0.053090934 1.6036895e-38 288 280
-0.041145474 0.75700003 -0.053090934 1.5391526e-38 289 280
-0.039818201 0.75700003 -0.053090934 1.5856146e-38 290 280
-0.035694357 0.75400001 -0.052880533 9.8638814e-39 293 280
-0.034372345 0.75400001 -0.052880533 1.9825303e-38 294 280
-0.032962665 0.75199997 -0.052740261 1.9548718e-38 295 280
-0.031644158 0.75199997 -0.052740261 1.723839e-38 296 280
-0.030325651 0.75199997 -0.052740261 1.7883759e-38 297 280
-0.029007144 0.75199997 -0.052740261 1.7608649e-38 298 280
-0.027688639 0.75199997 -0.052740261 1.7516095e-38 299 280
-0.1011235 0.76899999 -0.055280842 1.1150947e-38 245 281
-0.09977518 0.76899999 -0.055280842 1.1427506e-38 246 281
-0.098426871 0.76899999 -0.055280842 1.1704453e-38 247 281
-0.096826084 0.76700002 -0.055137072 1.2258326e-38 248 281
-0.095481269 0.76700002 -0.055137072 1.2719304e-38 249 281
-0.094013728 0.76599997 -0.055065181 1.3455055e-38 250 281
-0.092670672 0.76599997 -0.055065181 1.3547252e-38 251 281
-0.091089167 0.764 -0.054921411 1.364052e-38 252 281
-0.089749627 0.764 -0.054921411 1.3732715e-38 253 281
-0.088410079 0.764 -0.054921411 1.4283724e-38 254 281
-0.086842604 0.76200002 -0.054777641 1.4468115e-38 255 281
-0.085506558 0.76200002 -0.054777641 1.4744699e-38 256 281
-0.084060051 0.76099998 -0.05470575 1.4929091e-38 257 281
-0.082725771 0.76099998 -0.05470575 1.4563182e-38 258 281
-0.081391476 0.76099998 -0.05470575 1.4931606e-38 259 281
-0.079846799 0.759 -0.054561976 1.5024523e-38 260 281
-0.078516021 0.759 -0.054561976 1.5116719e-38 261 281
-0.077185236 0.759 -0.054561976 1.5759218e-38 262 281
-0.075654581 0.75700003 -0.054418206 1.5943968e-38 263 281
-0.074327305 0.75700003 -0.054418206 1.6220198e-38 264 281
-0.073000036 0.75700003 -0.054418206 1.6404591e-38 265 281
-0.071483396 0.755 -0.054274432 1.6771944e-38 266 281
-0.070159629 0.755 -0.054274432 1.6956694e-38 267 281
-0.068835862 0.755 -0.054274432 1.6865567e-38 268 281
-0.067512102 0.755 -0.054274432 1.6957763e-38 269 281
-0.066188328 0.755 -0.054274432 1.7050313e-38 270 281
-0.064864561 0.755 -0.054274432 1.7050313e-38 271 281
-0.063540794 0.755 -0.054274432 1.7142509e-38 272 281
-0.062217031 0.755 -0.054274432 1.7234704e-38 273 281
-0.060893264 0.755 -0.054274432 1.7142506e-38 274 281
-0.059569497 0.755 -0.054274432 1.723506e-38 275 281
-0.058245733 0.755 -0.054274432 1.695955e-38 276 281
-0.056921966 0.755 -0.054274432 1.695955e-38 277 281
-0.055598196 0.755 -0.054274432 1.6775521e-38 278 281
-0.054274432 0.755 -0.054274432 1.6683324e-38 279 281
-0.052950665 0.755 -0.054274432 1.6774798e-38 280 281
-0.051626898 0.755 -0.054274432 1.6590407e-38 281 281
-0.050303131 0.755 -0.054274432 1.6681881e-38 282 281
-0.049109112 0.75700003 -0.054418206 1.6589685e-38 283 281
-0.04778184 0.75700003 -0.054418206 1.6497492e-38 284 281
-0.046454567 0.75700003 -0.054418206 1.6497492e-38 285 281
-0.045127295 0.75700003 -0.054418206 1.6680807e-38 286 281
-0.043684296 0.755 -0.054274432 1.6680807e-38 287 281
-0.042360533 0.755 -0.054274432 1.6680454e-38 288 281
-0.041036766 0.755 -0.054274432 1.6588259e-38 289 281
-0.039712999 0.755 -0.054274432 1.6036549e-38 290 281
-0.038389232 0.755 -0.054274432 1.5852517e-38 291 281
-0.037016369 0.75400001 -0.054202545 1.5849309e-38 292 281
-0.035694357 0.75400001 -0.054202545 1.60337e-38 293 281
-0.034281172 0.75199997 -0.054058768 1.5484136e-38 294 281
-0.032962665 0.75199997 -0.054058768 1.5115354e-38 295 281
-0.031644158 0.75199997 -0.054058768 1.5759281e-38 296 281
-0.030325651 0.75199997 -0.054058768 1.6681238e-38 297 281
-0.029007144 0.75199997 -0.054058768 1.6224951e-38 298 281
-0.027688639 0.75199997 -0.054058768 1.6408982e-38 299 281
-0.02637013 0.75199997 -0.054058768 1.6502639e-38 300 281
-0.1011235 0.76899999 -0.056629159 1.1151313e-38 245 282
-0.09977518 0.76899999 -0.056629159 1.1152367e-38 246 282
-0.098426871 0.76899999 -0.056629159 1.1244563e-38 247 282
-0.096826084 0.76700002 -0.056481879 1.1522213e-38 248 282
-0.095481269 0.76700002 -0.056481879 1.1982831e-38 249 282
-0.094013728 0.76599997 -0.056408234 1.2443075e-38 250 282
-0.092670672 0.76599997 -0.056408234 1.2719302e-38 251 282
-0.091089167 0.764 -0.056260962 1.2904046e-38 252 282
-0.089749627 0.764 -0.056260962 1.3088797e-38 253 282
-0.088178635 0.76200002 -0.056113683 1.3823479e-38 254 282
-0.086842604 0.76200002 -0.056113683 1.4008229e-38 255 282
-0.085394338 0.76099998 -0.056040037 1.4192973e-38 256 282
-0.084060051 0.76099998 -0.056040037 1.4469201e-38 257 282
-0.082508355 0.759 -0.055892758 1.4561384e-38 258 282
-0.081177577 0.759 -0.055892758 1.4745775e-38 259 282
-0.079846799 0.759 -0.055892758 1.5114202e-38 260 282
-0.078309126 0.75700003 -0.055745479 1.5298952e-38 261 282
-0.076981857 0.75700003 -0.055745479 1.5391516e-38 262 282
-0.075654581 0.75700003 -0.055745479 1.5575909e-38 263 282
-0.074327305 0.75700003 -0.055745479 1.5668473e-38 264 282
-0.073000036 0.75700003 -0.055745479 1.5852864e-38 265 282
-0.071483396 0.755 -0.055598196 1.6403884e-38 266 282
-0.070159629 0.755 -0.055598196 1.6588634e-38 267 282
-0.068744689 0.75400001 -0.055524562 1.6497152e-38 268 282
-0.067422673 0.75400001 -0.055524562 1.6589706e-38 269 282
-0.066100664 0.75400001 -0.055524562 1.6774095e-38 270 282
-0.064864561 0.755 -0.055598196 1.6866292e-38 271 282
-0.063540794 0.755 -0.055598196 1.6959196e-38 272 282
-0.062217031 0.755 -0.055598196 1.6959196e-38 273 282
-0.060893264 0.755 -0.055598196 1.7142862e-38 274 282
-0.059569497 0.755 -0.055598196 1.7142862e-38 275 282
-0.058245733 0.755 -0.055598196 1.7142859e-38 276 282
-0.056921966 0.755 -0.055598196 1.7050662e-38 277 282
-0.055598196 0.755 -0.055598196 1.6959547e-38 278 282
-0.054274432 0.755 -0.055598196 1.686735e-38 279 282
-0.052950665 0.755 -0.055598196 1.704994e-38 280 282
-0.051626898 0.755 -0.055598196 1.6957745e-38 281 282
-0.050303131 0.755 -0.055598196 1.6682237e-38 282 282
-0.048979364 0.755 -0.055598196 1.6682237e-38 283 282
-0.047655597 0.755 -0.055598196 1.6773353e-38 284 282
-0.04633183 0.755 -0.055598196 1.6865549e-38 285 282
-0.045008067 0.755 -0.055598196 1.6864833e-38 286 282
-0.043626439 0.75400001 -0.055524562 1.6772637e-38 287 282
-0.042304426 0.75400001 -0.055524562 1.6680805e-38 288 282
-0.041036766 0.755 -0.055598196 1.6773e-38 289 282
-0.039660402 0.75400001 -0.055524562 1.6588609e-38 290 282
-0.038338386 0.75400001 -0.055524562 1.6680805e-38 291 282
-0.037016369 0.75400001 -0.055524562 1.6498211e-38 292 282
-0.035694357 0.75400001 -0.055524562 1.6037233e-38 293 282
-0.034281172 0.75199997 -0.055377278 1.5575529e-38 294 282
-0.032962665 0.75199997 -0.055377278 1.5575529e-38 295 282
-0.031644158 0.75199997 -0.055377278 1.5945038e-38 296 282
-0.030325651 0.75199997 -0.055377278 1.6129429e-38 297 282
-0.029007144 0.75199997 -0.055377278 1.6037631e-38 298 282
-0.027688639 0.75199997 -0.055377278 1.6498251e-38 299 282
-0.02637013 0.75199997 -0.055377278 1.6591196e-38 300 282
-0.025051624 0.75199997 -0.055377278 1.6591196e-38 301 282
-0.023733119 0.75199997 -0.055377278 1.6590857e-38 302 282
-0.022414612 0.75199997 -0.055377278 1.6775607e-38 303 282
-0.09977518 0.76899999 -0.057977475 1.1243847e-38 246 283
-0.098426871 0.76899999 -0.057977475 1.1151651e-38 247 283
-0.096826084 0.76700002 -0.057826683 1.1520061e-38 248 283
-0.095481269 0.76700002 -0.057826683 1.1704453e-38 249 283
-0.094013728 0.76599997 -0.057751291 1.1981386e-38 250 283
-0.092428714 0.764 -0.057600506 1.2073582e-38 251 283
-0.091089167 0.764 -0.057600506 1.2534538e-38 252 283
-0.089749627 0.764 -0.057600506 1.2811485e-38 253 283
-0.088178635 0.76200002 -0.057449725 1.3455039e-38 254 283
-0.086728632 0.76099998 -0.057374325 1.3823463e-38 255 283
-0.085394338 0.76099998 -0.057374325 1.3824538e-38 256 283
-0.084060051 0.76099998 -0.057374325 1.4008929e-38 257 283
-0.082508355 0.759 -0.05722354 1.4193674e-38 258 283
-0.081177577 0.759 -0.05722354 1.4285871e-38 259 283
-0.079846799 0.759 -0.05722354 1.4654649e-38 260 283
-0.078309126 0.75700003 -0.057072755 1.4746845e-38 261 283
-0.076981857 0.75700003 -0.057072755 1.5390069e-38 262 283
-0.075454697 0.755 -0.056921966 1.5666656e-38 263 283
-0.07413093 0.755 -0.056921966 1.5575556e-38 264 283
-0.07280717 0.755 -0.056921966 1.5851783e-38 265 283
-0.071388714 0.75400001 -0.056846574 1.6035458e-38 266 283
-0.070066705 0.75400001 -0.056846574 1.6312043e-38 267 283
-0.068744689 0.75400001 -0.056846574 1.6220922e-38 268 283
-0.067422673 0.75400001 -0.056846574 1.6313477e-38 269 283
-0.066100664 0.75400001 -0.056846574 1.6589701e-38 270 283
-0.064778648 0.75400001 -0.056846574 1.6682255e-38 271 283
-0.06345664 0.75400001 -0.056846574 1.6682968e-38 272 283
-0.062134624 0.75400001 -0.056846574 1.6775165e-38 273 283
-0.060812615 0.75400001 -0.056846574 1.6959547e-38 274 283
-0.059490599 0.75400001 -0.056846574 1.6959547e-38 275 283
-0.058168583 0.75400001 -0.056846574 1.7142859e-38 276 283
-0.056846574 0.75400001 -0.056846574 1.7142859e-38 277 283
-0.055524562 0.75400001 -0.056846574 1.7050662e-38 278 283
-0.054202545 0.75400001 -0.056846574 1.7050662e-38 279 283
-0.052880533 0.75400001 -0.056846574 1.7049943e-38 280 283
-0.051558517 0.75400001 -0.056846574 1.7049943e-38 281 283
-0.050236505 0.75400001 -0.056846574 1.6865915e-38 282 283
-0.048914492 0.75400001 -0.056846574 1.6865915e-38 283 283
-0.04759248 0.75400001 -0.056846574 1.6865196e-38 284 283
-0.046270464 0.75400001 -0.056846574 1.6865196e-38 285 283
-0.044948451 0.75400001 -0.056846574 1.7048508e-38 286 283
-0.043626439 0.75400001 -0.056846574 1.7048508e-38 287 283
-0.042304426 0.75400001 -0.056846574 1.6773356e-38 288 283
-0.040982414 0.75400001 -0.056846574 1.6865552e-38 289 283
-0.039660402 0.75400001 -0.056846574 1.6865549e-38 290 283
-0.038236689 0.75199997 -0.056695782 1.6865549e-38 291 283
-0.036918186 0.75199997 -0.056695782 1.6589685e-38 292 283
-0.035599679 0.75199997 -0.056695782 1.6589685e-38 293 283
-0.034281172 0.75199997 -0.056695782 1.6589688e-38 294 283
-0.032962665 0.75199997 -0.056695782 1.6497492e-38 295 283
-0.031644158 0.75199997 -0.056695782 1.6497136e-38 296 283
-0.030325651 0.75199997 -0.056695782 1.6589691e-38 297 283
-0.029007144 0.75199997 -0.056695782 1.6680454e-38 298 283
-0.027688639 0.75199997 -0.056695782 1.6680454e-38 299 283
-0.02637013 0.75199997 -0.056695782 1.6497152e-38 300 283
-0.025051624 0.75199997 -0.056695782 1.6497152e-38 301 283
-0.023733119 0.75199997 -0.056695782 1.6496083e-38 302 283
-0.022414612 0.75199997 -0.056695782 1.6588278e-38 303 283
-0.021096105 0.75199997 -0.056695782 1.6496083e-38 304 283
-0.019830201 0.75400001 -0.056846574 1.6496083e-38 305 283
-0.018508185 0.75400001 -0.056846574 1.6588281e-38 306 283
-0.017186172 0.75400001 -0.056846574 1.6588281e-38 307 283
-0.01586416 0.75400001 -0.056846574 1.6405337e-38 308 283
-0.014542146 0.75400001 -0.056846574 1.6773761e-38 309 283
-0.013220133 0.75400001 -0.056846574 1.6590464e-38 310 283
0.0039555198 0.75199997 -0.056695782 1.6407544e-38 323 283
0.0052740262 0.75199997 -0.056695782 1.6315345e-38 324 283
0.0066100666 0.75400001 -0.056846574 1.6315345e-38 325 283
0.00793208 0.75400001 -0.056846574 1.6498294e-38 326 283
0.0092540924 0.75400001 -0.056846574 1.6406098e-38 327 283
0.010576107 0.75400001 -0.056846574 1.6130232e-38 328 283
0.01189812 0.75400001 -0.056846574 1.6038036e-38 329 283
0.013220133 0.75400001 -0.056846574 1.6313544e-38 330 283
0.014542146 0.75400001 -0.056846574 1.6221348e-38 331 283
0.01586416 0.75400001 -0.056846574 1.5852925e-38 332 283
0.017186172 0.75400001 -0.056846574 1.5760729e-38 333 283
0.018508185 0.75400001 -0.056846574 1.5668177e-38 334 283
0.019830201 0.75400001 -0.056846574 1.5852569e-38 335 283
0.021152213 0.75400001 -0.056846574 1.5670348e-38 336 283
-0.096826084 0.76700002 -0.059171494 1.1151648e-38 248 284
-0.095481269 0.76700002 -0.059171494 1.1243844e-38 249 284
-0.094013728 0.76599997 -0.059094343 1.1702651e-38 250 284
-0.092428714 0.764 -0.058940053 1.151826e-38 251 284
-0.091089167 0.764 -0.058940053 1.1150537e-38 252 284
-0.089749627 0.764 -0.058940053 1.216433e-38 253 284
-0.088178635 0.76200002 -0.058785759 1.262744e-38 254 284
-0.086728632 0.76099998 -0.058708608 1.2996222e-38 255 284
-0.085394338 0.76099998 -0.058708608 1.3455037e-38 256 284
-0.084060051 0.76099998 -0.058708608 1.3731622e-38 257 284
-0.082508355 0.759 -0.058554318 1.3824535e-38 258 284
-0.080963671 0.75700003 -0.058400027 1.4008926e-38 259 284
-0.079636402 0.75700003 -0.058400027 1.4102197e-38 260 284
-0.078102231 0.755 -0.058245733 1.4378785e-38 261 284
-0.076778464 0.755 -0.058245733 1.4746497e-38 262 284
-0.075454697 0.755 -0.058245733 1.493089e-38 263 284
-0.07413093 0.755 -0.058245733 1.5298243e-38 264 284
-0.07271073 0.75400001 -0.058168583 1.5667024e-38 265 284
-0.071388714 0.75400001 -0.058168583 1.5484432e-38 266 284
-0.070066705 0.75400001 -0.058168583 1.5668823e-38 267 284
-0.068744689 0.75400001 -0.058168583 1.6220198e-38 268 284
-0.067422673 0.75400001 -0.058168583 1.6312394e-38 269 284
-0.066100664 0.75400001 -0.058168583 1.6496786e-38 270 284
-0.064778648 0.75400001 -0.058168583 1.6681536e-38 271 284
-0.06345664 0.75400001 -0.058168583 1.6498934e-38 272 284
-0.062134624 0.75400001 -0.058168583 1.6683324e-38 273 284
-0.060812615 0.75400001 -0.058168583 1.6866994e-38 274 284
-0.059490599 0.75400001 -0.058168583 1.695955e-38 275 284
-0.058168583 0.75400001 -0.058168583 1.7143581e-38 276 284
-0.056846574 0.75400001 -0.058168583 1.695955e-38 277 284
-0.055524562 0.75400001 -0.058168583 1.695955e-38 278 284
-0.054202545 0.75400001 -0.058168583 1.6866994e-38 279 284
-0.052880533 0.75400001 -0.058168583 1.7050665e-38 280 284
-0.051558517 0.75400001 -0.058168583 1.7050665e-38 281 284
-0.050236505 0.75400001 -0.058168583 1.705031e-38 282 284
-0.048914492 0.75400001 -0.058168583 1.705031e-38 283 284
-0.04759248 0.75400001 -0.058168583 1.6958113e-38 284 284
-0.04614773 0.75199997 -0.058014289 1.6865918e-38 285 284
-0.044829223 0.75199997 -0.058014289 1.6957392e-38 286 284
-0.04351072 0.75199997 -0.058014289 1.6957392e-38 287 284
-0.04219221 0.75199997 -0.058014289 1.6865915e-38 288 284
-0.040873703 0.75199997 -0.058014289 1.6865915e-38 289 284
-0.039555199 0.75199997 -0.058014289 1.6865915e-38 290 284
-0.038236689 0.75199997 -0.058014289 1.6865915e-38 291 284
-0.036918186 0.75199997 -0.058014289 1.6681886e-38 292 284
-0.035599679 0.75199997 -0.058014289 1.6681886e-38 293 284
-0.034281172 0.75199997 -0.058014289 1.6681886e-38 294 284
-0.032962665 0.75199997 -0.058014289 1.6589691e-38 295 284
-0.031644158 0.75199997 -0.058014289 1.6497855e-38 296 284
-0.030325651 0.75199997 -0.058014289 1.6313824e-38 297 284
-0.029007144 0.75199997 -0.058014289 1.6590041e-38 298 284
-0.027688639 0.75199997 -0.058014289 1.6497846e-38 299 284
-0.02637013 0.75199997 -0.058014289 1.6590041e-38 300 284
-0.025051624 0.75199997 -0.058014289 1.6590041e-38 301 284
-0.023733119 0.75199997 -0.058014289 1.6680802e-38 302 284
-0.022414612 0.75199997 -0.058014289 1.6773356e-38 303 284
-0.021096105 0.75199997 -0.058014289 1.649749e-38 304 284
-0.019830201 0.75400001 -0.058168583 1.649749e-38 305 284
-0.018508185 0.75400001 -0.058168583 1.6680802e-38 306 284
-0.017186172 0.75400001 -0.058168583 1.6680802e-38 307 284
-0.01586416 0.75400001 -0.058168583 1.6680807e-38 308 284
-0.014542146 0.75400001 -0.058168583 1.6865199e-38 309 284
-0.013220133 0.75400001 -0.058168583 1.6681183e-38 310 284
-0.01189812 0.75400001 -0.058168583 1.6681183e-38 311 284
-0.010576107 0.75400001 -0.058168583 1.6681196e-38 312 284
-0.0092540924 0.75400001 -0.058168583 1.6681196e-38 313 284
0 0.75 -0.057859998 1.6589743e-38 320 284
0.001315 0.75 -0.057859998 1.6682297e-38 321 284
0.00263 0.75 -0.057859998 1.6773414e-38 322 284
0.003945 0.75 -0.057859998 1.6680859e-38 323 284
0.00526 0.75 -0.057859998 1.640535e-38 324 284
0.006575 0.75 -0.057859998 1.640535e-38 325 284
0.0079110395 0.75199997 -0.058014289 1.6404628e-38 326 284
0.0092295464 0.75199997 -0.058014289 1.6404628e-38 327 284
0.010576107 0.75400001 -0.058168583 1.6128039e-38 328 284
0.011866559 0.75199997 -0.058014289 1.6128039e-38 329 284
0.013185065 0.75199997 -0.058014289 1.6219871e-38 330 284
0.014503572 0.75199997 -0.058014289 1.6127676e-38 331 284
0.015822079 0.75199997 -0.058014289 1.594328e-38 332 284
0.017186172 0.75400001 -0.058168583 1.5574499e-38 333 284
0.018508185 0.75400001 -0.058168583 1.5299713e-38 334 284
0.019830201 0.75400001 -0.058168583 1.5299713e-38 335 284
0.021152213 0.75400001 -0.058168583 1.5208612e-38 336 284
0.022474226 0.75400001 -0.058168583 1.5484838e-38 337 284
0.02379624 0.75400001 -0.058168583 1.5668159e-38 338 284
0.025151566 0.755 -0.058245733 1.5852549e-38 339 284
0.026440267 0.75400001 -0.058168583 1.5668528e-38 340 284
0.027762281 0.75400001 -0.058168583 1.5576332e-38 341 284
0.029084291 0.75400001 -0.058168583 1.5760739e-38 342 284
0.030406307 0.75400001 -0.058168583 1.5853293e-38 343 284
0.03172832 0.75400001 -0.058168583 1.5762912e-38 344 284
0.033050332 0.75400001 -0.058168583 1.6131696e-38 345 284
0.034372345 0.75400001 -0.058168583 1.6316456e-38 346 284
0.035599679 0.75199997 -0.058014289 1.622426e-38 347 284
0.036918186 0.75199997 -0.058014289 1.5949115e-38 348 284
0.038236689 0.75199997 -0.058014289 1.604167e-38 349 284
0.039660402 0.75400001 -0.058168583 1.585872e-38 350 284
0.040982414 0.75400001 -0.058168583 1.585872e-38 351 284
0.042304426 0.75400001 -0.058168583 1.5767252e-38 352 284
0.043684296 0.755 -0.058245733 1.6136033e-38 353 284
-0.096826084 0.76700002 -0.060516298 1.105945e-38 248 285
-0.095481269 0.76700002 -0.060516298 1.105945e-38 249 285
-0.094013728 0.76599997 -0.060437392 1.1425344e-38 250 285
-0.092670672 0.76599997 -0.060437392 1.1333148e-38 251 285
-0.091089167 0.764 -0.0602796 1.1056189e-38 252 285
-0.089749627 0.764 -0.0602796 1.1148386e-38 253 285
-0.088178635 0.76200002 -0.060121801 1.1706229e-38 254 285
-0.086842604 0.76200002 -0.060121801 1.2166847e-38 255 285
-0.085394338 0.76099998 -0.060042895 1.3177393e-38 256 285
-0.084060051 0.76099998 -0.060042895 1.3361784e-38 257 285
-0.082508355 0.759 -0.059885096 1.3179897e-38 258 285
-0.080963671 0.75700003 -0.059727304 1.3548321e-38 259 285
-0.079636402 0.75700003 -0.059727304 1.3550119e-38 260 285
-0.078102231 0.755 -0.059569497 1.3734869e-38 261 285
-0.076778464 0.755 -0.059569497 1.4286252e-38 262 285
-0.075454697 0.755 -0.059569497 1.4471002e-38 263 285
-0.074032739 0.75400001 -0.059490599 1.4563195e-38 264 285
-0.07271073 0.75400001 -0.059490599 1.4747946e-38 265 285
-0.071388714 0.75400001 -0.059490599 1.5024176e-38 266 285
-0.070066705 0.75400001 -0.059490599 1.5208567e-38 267 285
-0.068744689 0.75400001 -0.059490599 1.5851066e-38 268 285
-0.067422673 0.75400001 -0.059490599 1.5943262e-38 269 285
-0.066100664 0.75400001 -0.059490599 1.6037251e-38 270 285
-0.064606823 0.75199997 -0.059332799 1.6221644e-38 271 285
-0.063288316 0.75199997 -0.059332799 1.6130527e-38 272 285
-0.061969809 0.75199997 -0.059332799 1.6314559e-38 273 285
-0.060812615 0.75400001 -0.059490599 1.6774098e-38 274 285
-0.059490599 0.75400001 -0.059490599 1.6866295e-38 275 285
-0.058168583 0.75400001 -0.059490599 1.6683701e-38 276 285
-0.056846574 0.75400001 -0.059490599 1.6591506e-38 277 285
-0.055524562 0.75400001 -0.059490599 1.6775168e-38 278 285
-0.054202545 0.75400001 -0.059490599 1.6775168e-38 279 285
-0.052880533 0.75400001 -0.059490599 1.705031e-38 280 285
-0.051558517 0.75400001 -0.059490599 1.705031e-38 281 285
-0.050103247 0.75199997 -0.059332799 1.705031e-38 282 285
-0.048784744 0.75199997 -0.059332799 1.705031e-38 283 285
-0.047466237 0.75199997 -0.059332799 1.6958113e-38 284 285
-0.04614773 0.75199997 -0.059332799 1.6958113e-38 285 285
-0.044829223 0.75199997 -0.059332799 1.6957394e-38 286 285
-0.04351072 0.75199997 -0.059332799 1.6957394e-38 287 285
-0.04219221 0.75199997 -0.059332799 1.6958113e-38 288 285
-0.040873703 0.75199997 -0.059332799 1.6958113e-38 289 285
-0.039555199 0.75199997 -0.059332799 1.6957394e-38 290 285
-0.038236689 0.75199997 -0.059332799 1.6957394e-38 291 285
-0.036918186 0.75199997 -0.059332799 1.6958113e-38 292 285
-0.035599679 0.75199997 -0.059332799 1.6865918e-38 293 285
-0.034281172 0.75199997 -0.059332799 1.6865918e-38 294 285
-0.032962665 0.75199997 -0.059332799 1.6681886e-38 295 285
-0.031644158 0.75199997 -0.059332799 1.6681881e-38 296 285
-0.030325651 0.75199997 -0.059332799 1.6589685e-38 297 285
-0.029007144 0.75199997 -0.059332799 1.6773707e-38 298 285
-0.027688639 0.75199997 -0.059332799 1.6773707e-38 299 285
-0.02637013 0.75199997 -0.059332799 1.6773351e-38 300 285
-0.025051624 0.75199997 -0.059332799 1.6773351e-38 301 285
-0.023733119 0.75199997 -0.059332799 1.6865552e-38 302 285
-0.022414612 0.75199997 -0.059332799 1.6865552e-38 303 285
-0.021096105 0.75199997 -0.059332799 1.6865552e-38 304 285
-0.019830201 0.75400001 -0.059490599 1.6865552e-38 305 285
-0.018508185 0.75400001 -0.059490599 1.6865549e-38 306 285
-0.017186172 0.75400001 -0.059490599 1.6773353e-38 307 285
-0.01586416 0.75400001 -0.059490599 1.7048511e-38 308 285
-0.014542146 0.75400001 -0.059490599 1.7048511e-38 309 285
-0.013220133 0.75400001 -0.059490599 1.695741e-38 310 285
-0.01189812 0.75400001 -0.059490599 1.6865214e-38 311 285
-0.010576107 0.75400001 -0.059490599 1.6957413e-38 312 285
-0.0092540924 0.75400001 -0.059490599 1.6865217e-38 313 285
-0.0079110395 0.75199997 -0.059332799 1.6774098e-38 314 285
-0.0065925326 0.75199997 -0.059332799 1.6774098e-38 315 285
-0.0052740262 0.75199997 -0.059332799 1.6773747e-38 316 285
-0.0039555198 0.75199997 -0.059332799 1.6773747e-38 317 285
-0.0026370131 0.75199997 -0.059332799 1.6680848e-38 318 285
-0.0013185065 0.75199997 -0.059332799 1.6773045e-38 319 285
0 0.75 -0.059175 1.6681212e-38 320 285
0.001315 0.75 -0.059175 1.6681212e-38 321 285
0.00263 0.75 -0.059175 1.6680848e-38 322 285
0.003945 0.75 -0.059175 1.6588294e-38 323 285
0.00526 0.75 -0.059175 1.6496101e-38 324 285
0.006575 0.75 -0.059175 1.631207e-38 325 285
0.0079110395 0.75199997 -0.059332799 1.631207e-38 326 285
0.0092295464 0.75199997 -0.059332799 1.6219874e-38 327 285
0.010548052 0.75199997 -0.059332799 1.603546e-38 328 285
0.011866559 0.75199997 -0.059332799 1.5943265e-38 329 285
0.013185065 0.75199997 -0.059332799 1.6127281e-38 330 285
0.014503572 0.75199997 -0.059332799 1.6035085e-38 331 285
0.015822079 0.75199997 -0.059332799 1.5758851e-38 332 285
0.017140586 0.75199997 -0.059332799 1.557446e-38 333 285
0.018508185 0.75400001 -0.059490599 1.5208917e-38 334 285
0.019830201 0.75400001 -0.059490599 1.5024526e-38 335 285
0.021152213 0.75400001 -0.059490599 1.5391882e-38 336 285
0.022474226 0.75400001 -0.059490599 1.5391882e-38 337 285
0.02379624 0.75400001 -0.059490599 1.5391513e-38 338 285
0.025151566 0.755 -0.059569497 1.5207122e-38 339 285
0.026440267 0.75400001 -0.059490599 1.5298949e-38 340 285
0.027762281 0.75400001 -0.059490599 1.5022002e-38 341 285
0.029084291 0.75400001 -0.059490599 1.5113852e-38 342 285
0.030406307 0.75400001 -0.059490599 1.4745428e-38 343 285
0.03172832 0.75400001 -0.059490599 1.4194788e-38 344 285
0.033050332 0.75400001 -0.059490599 1.4563211e-38 345 285
0.034372345 0.75400001 -0.059490599 1.4655785e-38 346 285
0.035599679 0.75199997 -0.059332799 1.5024568e-38 347 285
0.036918186 0.75199997 -0.059332799 1.5025662e-38 348 285
0.038236689 0.75199997 -0.059332799 1.5117858e-38 349 285
0.039660402 0.75400001 -0.059490599 1.4843083e-38 350 285
0.040982414 0.75400001 -0.059490599 1.4935279e-38 351 285
0.042304426 0.75400001 -0.059490599 1.5027495e-38 352 285
0.043684296 0.755 -0.059569497 1.5119691e-38 353 285
0.045008067 0.755 -0.059569497 1.4935677e-38 354 285
0.04633183 0.755 -0.059569497 1.4935677e-38 355 285
-0.095481269 0.76700002 -0.061861109 1.0415545e-38 249 286
-0.094013728 0.76599997 -0.061780453 1.1241676e-38 250 286
-0.092670672 0.76599997 -0.061780453 1.1057285e-38 251 286
-0.091089167 0.764 -0.061619148 1.1240228e-38 252 286
-0.089749627 0.764 -0.061619148 1.1055837e-38 253 286
-0.088178635 0.76200002 -0.061457843 1.11509e-38 254 286
-0.086842604 0.76200002 -0.061457843 1.1888824e-38 255 286
-0.085394338 0.76099998 -0.061377186 1.2442695e-38 256 286
-0.084060051 0.76099998 -0.061377186 1.2534891e-38 257 286
-0.082508355 0.759 -0.061215881 1.2995132e-38 258 286
-0.080963671 0.75700003 -0.061054576 1.3271717e-38 259 286
-0.079425998 0.755 -0.060893264 1.3548657e-38 260 286
-0.078102231 0.755 -0.060893264 1.3824886e-38 261 286
-0.076778464 0.755 -0.060893264 1.4284427e-38 262 286
-0.075354755 0.75400001 -0.060812615 1.4468819e-38 263 286
-0.074032739 0.75400001 -0.060812615 1.4743975e-38 264 286
-0.07271073 0.75400001 -0.060812615 1.4928725e-38 265 286
-0.071388714 0.75400001 -0.060812615 1.4838696e-38 266 286
-0.070066705 0.75400001 -0.060812615 1.5114924e-38 267 286
-0.068744689 0.75400001 -0.060812615 1.5389716e-38 268 286
-0.067422673 0.75400001 -0.060812615 1.5666302e-38 269 286
-0.066100664 0.75400001 -0.060812615 1.5576262e-38 270 286
-0.064606823 0.75199997 -0.060651302 1.5852489e-38 271 286
-0.063288316 0.75199997 -0.060651302 1.6220545e-38 272 286
-0.061969809 0.75199997 -0.060651302 1.6220545e-38 273 286
-0.060651302 0.75199997 -0.060651302 1.6404588e-38 274 286
-0.059332799 0.75199997 -0.060651302 1.6589338e-38 275 286
-0.058014289 0.75199997 -0.060651302 1.668118e-38 276 286
-0.056695782 0.75199997 -0.060651302 1.6865211e-38 277 286
-0.055377278 0.75199997 -0.060651302 1.7140709e-38 278 286
-0.054058768 0.75199997 -0.060651302 1.7325102e-38 279 286
-0.052740261 0.75199997 -0.060651302 1.7233625e-38 280 286
-0.051421758 0.75199997 -0.060651302 1.7233625e-38 281 286
-0.050103247 0.75199997 -0.060651302 1.7142156e-38 282 286
-0.048784744 0.75199997 -0.060651302 1.7142156e-38 283 286
-0.047339998 0.75 -0.060489997 1.7049957e-38 284 286
-0.046024997 0.75 -0.060489997 1.695776e-38 285 286
-0.044709999 0.75 -0.060489997 1.6865918e-38 286 286
-0.043394998 0.75 -0.060489997 1.6865918e-38 287 286
-0.04208 0.75 -0.060489997 1.6958113e-38 288 286
-0.040764999 0.75 -0.060489997 1.6958113e-38 289 286
-0.039449997 0.75 -0.060489997 1.6958113e-38 290 286
-0.038135 0.75 -0.060489997 1.6958113e-38 291 286
-0.036819998 0.75 -0.060489997 1.6774801e-38 292 286
-0.035599679 0.75199997 -0.060651302 1.6682605e-38 293 286
-0.034281172 0.75199997 -0.060651302 1.6957392e-38 294 286
-0.032962665 0.75199997 -0.060651302 1.6957392e-38 295 286
-0.03156 0.75 -0.060489997 1.6681881e-38 296 286
-0.030244999 0.75 -0.060489997 1.6681881e-38 297 286
-0.029007144 0.75199997 -0.060651302 1.6682234e-38 298 286
-0.027688639 0.75199997 -0.060651302 1.6682234e-38 299 286
-0.0263 0.75 -0.060489997 1.6865902e-38 300 286
-0.024984999 0.75 -0.060489997 1.6865902e-38 301 286
-0.023669999 0.75 -0.060489997 1.6865546e-38 302 286
-0.022355 0.75 -0.060489997 1.6958101e-38 303 286
-0.021096105 0.75199997 -0.060651302 1.6866268e-38 304 286
-0.0197776 0.75199997 -0.060651302 1.6682237e-38 305 286
-0.018459093 0.75199997 -0.060651302 1.6682234e-38 306 286
-0.017186172 0.75400001 -0.060812615 1.6590038e-38 307 286
-0.01586416 0.75400001 -0.060812615 1.686483e-38 308 286
-0.014542146 0.75400001 -0.060812615 1.686483e-38 309 286
-0.013220133 0.75400001 -0.060812615 1.6865918e-38 310 286
-0.01189812 0.75400001 -0.060812615 1.6865918e-38 311 286
-0.010548052 0.75199997 -0.060651302 1.6865562e-38 312 286
-0.0092295464 0.75199997 -0.060651302 1.6681531e-38 313 286
-0.0079110395 0.75199997 -0.060651302 1.6681884e-38 314 286
-0.0065925326 0.75199997 -0.060651302 1.6865915e-38 315 286
-0.0052740262 0.75199997 -0.060651302 1.6865552e-38 316 286
-0.0039555198 0.75199997 -0.060651302 1.6773356e-38 317 286
-0.0026370131 0.75199997 -0.060651302 1.6498211e-38 318 286
-0.0013185065 0.75199997 -0.060651302 1.6498211e-38 319 286
0 0.75199997 -0.060651302 1.6497492e-38 320 286
0.0013185065 0.75199997 -0.060651302 1.6405297e-38 321 286
0.0026370131 0.75199997 -0.060651302 1.6588605e-38 322 286
0.0039555198 0.75199997 -0.060651302 1.6588605e-38 323 286
0.0052740262 0.75199997 -0.060651302 1.6586814e-38 324 286
0.0065925326 0.75199997 -0.060651302 1.6310227e-38 325 286
0.0079110395 0.75199997 -0.060651302 1.6217678e-38 326 286
0.0092295464 0.75199997 -0.060651302 1.6309874e-38 327 286
0.010548052 0.75199997 -0.060651302 1.5942166e-38 328 286
0.011866559 0.75199997 -0.060651302 1.5757775e-38 329 286
0.013185065 0.75199997 -0.060651302 1.5757053e-38 330 286
0.014503572 0.75199997 -0.060651302 1.5664858e-38 331 286
0.015822079 0.75199997 -0.060651302 1.5114921e-38 332 286
0.017140586 0.75199997 -0.060651302 1.4838693e-38 333 286
0.018508185 0.75400001 -0.060812615 1.5113129e-38 334 286
0.019830201 0.75400001 -0.060812615 1.529752e-38 335 286
0.021152213 0.75400001 -0.060812615 1.5481911e-38 336 286
0.022474226 0.75400001 -0.060812615 1.5758498e-38 337 286
0.02379624 0.75400001 -0.060812615 1.5667372e-38 338 286
0.025151566 0.755 -0.060893264 1.5575176e-38 339 286
0.026440267 0.75400001 -0.060812615 1.557481e-38 340 286
0.027762281 0.75400001 -0.060812615 1.5482615e-38 341 286
0.029084291 0.75400001 -0.060812615 1.529787e-38 342 286
0.030406307 0.75400001 -0.060812615 1.529787e-38 343 286
0.03172832 0.75400001 -0.060812615 1.5020933e-38 344 286
0.033050332 0.75400001 -0.060812615 1.5113129e-38 345 286
0.034372345 0.75400001 -0.060812615 1.5296447e-38 346 286
0.035694357 0.75400001 -0.060812615 1.5112055e-38 347 286
0.037016369 0.75400001 -0.060812615 1.4192987e-38 348 286
0.038338386 0.75400001 -0.060812615 1.4192987e-38 349 286
0.039712999 0.755 -0.060893264 1.3917126e-38 350 286
0.041036766 0.755 -0.060893264 1.3917126e-38 351 286
0.042360533 0.755 -0.060893264 1.3823507e-38 352 286
0.043684296 0.755 -0.060893264 1.3270333e-38 353 286
0.045008067 0.755 -0.060893264 1.225764e-38 354 286
0.04633183 0.755 -0.060893264 1.1520073e-38 355 286
0.047655597 0.755 -0.060893264 9.8584458e-39 356 286
-0.092670672 0.76599997 -0.063123502 1.0874686e-38 251 287
-0.091089167 0.764 -0.062958695 1.0873597e-38 252 287
-0.089749627 0.764 -0.062958695 1.0965792e-38 253 287
-0.088178635 0.76200002 -0.062793881 1.0782127e-38 254 287
-0.086842604 0.76200002 -0.062793881 1.1058354e-38 255 287
-0.085394338 0.76099998 -0.06271147 1.142821e-38 256 287
-0.084060051 0.76099998 -0.06271147 1.2073579e-38 257 287
-0.082508355 0.759 -0.062546656 1.2442698e-38 258 287
-0.080963671 0.75700003 -0.062381849 1.2719286e-38 259 287
-0.079425998 0.755 -0.062217031 1.2812554e-38 260 287
-0.078102231 0.755 -0.062217031 1.2996945e-38 261 287
-0.076778464 0.755 -0.062217031 1.3455771e-38 262 287
-0.075354755 0.75400001 -0.062134624 1.3640522e-38 263 287
-0.074032739 0.75400001 -0.062134624 1.3824207e-38 264 287
-0.07271073 0.75400001 -0.062134624 1.4100794e-38 265 287
-0.071388714 0.75400001 -0.062134624 1.4468147e-38 266 287
-0.070066705 0.75400001 -0.062134624 1.4652539e-38 267 287
-0.068744689 0.75400001 -0.062134624 1.502095e-38 268 287
-0.067243837 0.75199997 -0.061969809 1.52057e-38 269 287
-0.06592533 0.75199997 -0.061969809 1.5024173e-38 270 287
-0.064606823 0.75199997 -0.061969809 1.5116368e-38 271 287
-0.063288316 0.75199997 -0.061969809 1.5209287e-38 272 287
-0.061969809 0.75199997 -0.061969809 1.5209287e-38 273 287
-0.060651302 0.75199997 -0.061969809 1.5851066e-38 274 287
-0.059332799 0.75199997 -0.061969809 1.6219848e-38 275 287
-0.058014289 0.75199997 -0.061969809 1.6036547e-38 276 287
-0.056695782 0.75199997 -0.061969809 1.6220938e-38 277 287
-0.055377278 0.75199997 -0.061969809 1.631277e-38 278 287
-0.053914998 0.75 -0.061804999 1.6588997e-38 279 287
-0.0526 0.75 -0.061804999 1.6498237e-38 280 287
-0.051284999 0.75 -0.061804999 1.6682268e-38 281 287
-0.049969997 0.75 -0.061804999 1.6498953e-38 282 287
-0.048655 0.75 -0.061804999 1.659115e-38 283 287
-0.047339998 0.75 -0.061804999 1.6682618e-38 284 287
-0.046024997 0.75 -0.061804999 1.6498587e-38 285 287
-0.044709999 0.75 -0.061804999 1.6590054e-38 286 287
-0.043394998 0.75 -0.061804999 1.6682249e-38 287 287
-0.04208 0.75 -0.061804999 1.6682605e-38 288 287
-0.040764999 0.75 -0.061804999 1.6774801e-38 289 287
-0.0393974 0.74900001 -0.061722592 1.704959e-38 290 287
-0.038084153 0.74900001 -0.061722592 1.704959e-38 291 287
-0.036770906 0.74900001 -0.061722592 1.695811e-38 292 287
-0.035505001 0.75 -0.061804999 1.695811e-38 293 287
-0.034189999 0.75 -0.061804999 1.6866271e-38 294 287
-0.032874998 0.75 -0.061804999 1.6866271e-38 295 287
-0.03156 0.75 -0.061804999 1.6866265e-38 296 287
-0.030244999 0.75 -0.061804999 1.6682234e-38 297 287
-0.028929999 0.75 -0.061804999 1.668259e-38 298 287
-0.027688639 0.75199997 -0.061969809 1.668259e-38 299 287
-0.0263 0.75 -0.061804999 1.6865902e-38 300 287
-0.024984999 0.75 -0.061804999 1.6865902e-38 301 287
