# .PCD v.7 - Point Cloud Data file format
FIELDS x y z rgb imX imY
SIZE 4 4 4 4 4 4
TYPE F F F F F F
COUNT 1 1 1 1 1 1
WIDTH 858
HEIGHT 1
VIEWPOINT 0 0 0 1 0 0 0
POINTS 858
DATA ascii
0.033188846 0.82300001 0.050504766 1.493235e-38 343 205
0.034631841 0.82300001 0.050504766 1.530006e-38 344 205
0.036074832 0.82300001 0.050504766 1.5392256e-38 345 205
0.037517827 0.82300001 0.050504766 1.5484455e-38 346 205
0.038960818 0.82300001 0.050504766 1.5668486e-38 347 205
0.040403813 0.82300001 0.050504766 1.5669572e-38 348 205
0.041846808 0.82300001 0.050504766 1.5853603e-38 349 205
0.043184597 0.82099998 0.050382029 1.5579171e-38 350 205
0.044624086 0.82099998 0.050382029 1.5855398e-38 351 205
0.046063572 0.82099998 0.050382029 1.6132698e-38 352 205
0.047503054 0.82099998 0.050382029 1.6224894e-38 353 205
0.048942544 0.82099998 0.050382029 1.6684067e-38 354 205
0.050382029 0.82099998 0.050382029 1.6776263e-38 355 205
0.051821519 0.82099998 0.050382029 1.6776616e-38 356 205
0.053261004 0.82099998 0.050382029 1.6776616e-38 357 205
0.05470049 0.82099998 0.050382029 1.7052108e-38 358 205
0.05613998 0.82099998 0.050382029 1.6959913e-38 359 205
0.057579465 0.82099998 0.050382029 1.6867703e-38 360 205
0.059018951 0.82099998 0.050382029 1.6682953e-38 361 205
0.060458437 0.82099998 0.050382029 1.6773707e-38 362 205
0.061897919 0.82099998 0.050382029 1.6681511e-38 363 205
0.063337415 0.82099998 0.050382029 1.640528e-38 364 205
0.064776897 0.82099998 0.050382029 1.640528e-38 365 205
0.066216379 0.82099998 0.050382029 1.6404551e-38 366 205
0.067655869 0.82099998 0.050382029 1.6404551e-38 367 205
0.069095351 0.82099998 0.050382029 1.6219431e-38 368 205
0.070534848 0.82099998 0.050382029 1.5943205e-38 369 205
0.072149664 0.82300001 0.050504766 1.5482599e-38 370 205
0.073592655 0.82300001 0.050504766 1.5113457e-38 371 205
0.075035654 0.82300001 0.050504766 1.33654e-38 372 205
-0.070273593 0.83499998 0.049777132 1.3464818e-38 272 206
-0.068644755 0.833 0.049657907 1.2727253e-38 273 206
-0.067184225 0.833 0.049657907 1.4107596e-38 274 206
-0.065565899 0.83099997 0.049538679 1.4476018e-38 275 206
-0.064108878 0.83099997 0.049538679 1.5303243e-38 276 206
-0.062501073 0.829 0.049419452 1.5395438e-38 277 206
-0.061047558 0.829 0.049419452 1.6221249e-38 278 206
-0.059594043 0.829 0.049419452 1.6221249e-38 279 206
-0.058000267 0.82700002 0.049300224 1.6587517e-38 280 206
-0.056550261 0.82700002 0.049300224 1.6771907e-38 281 206
-0.055100251 0.82700002 0.049300224 1.6404927e-38 282 206
-0.053650245 0.82700002 0.049300224 1.6312731e-38 283 206
-0.052200239 0.82700002 0.049300224 1.622018e-38 284 206
-0.050750233 0.82700002 0.049300224 1.6312375e-38 285 206
-0.049300224 0.82700002 0.049300224 1.5944672e-38 286 206
-0.047734499 0.82499999 0.049180996 1.5944672e-38 287 206
-0.046287999 0.82499999 0.049180996 1.5758476e-38 288 206
-0.044950206 0.82700002 0.049300224 1.5113106e-38 289 206
-0.0435002 0.82700002 0.049300224 1.446809e-38 290 206
-0.04205019 0.82700002 0.049300224 1.4007112e-38 291 206
-0.040600184 0.82700002 0.049300224 1.4006749e-38 292 206
-0.039150178 0.82700002 0.049300224 1.4006749e-38 293 206
-0.037700173 0.82700002 0.049300224 1.3822723e-38 294 206
-0.036250167 0.82700002 0.049300224 1.3453942e-38 295 206
-0.034800157 0.82700002 0.049300224 1.317808e-38 296 206
-0.033350151 0.82700002 0.049300224 1.2993689e-38 297 206
-0.031900145 0.82700002 0.049300224 1.2808585e-38 298 206
-0.030450139 0.82700002 0.049300224 1.271639e-38 299 206
-0.029000133 0.82700002 0.049300224 1.2165367e-38 300 206
-0.027550125 0.82700002 0.049300224 1.188878e-38 301 206
-0.02610012 0.82700002 0.049300224 1.2163925e-38 302 206
-0.024650112 0.82700002 0.049300224 1.2163925e-38 303 206
-0.023200106 0.82700002 0.049300224 1.2162497e-38 304 206
-0.0217501 0.82700002 0.049300224 1.2162497e-38 305 206
-0.020300092 0.82700002 0.049300224 1.2071749e-38 306 206
-0.018850086 0.82700002 0.049300224 1.1979553e-38 307 206
-0.017442159 0.829 0.049419452 1.1703692e-38 308 206
-0.015988646 0.829 0.049419452 1.1703692e-38 309 206
-0.014535133 0.829 0.049419452 1.1887005e-38 310 206
-0.013113179 0.83099997 0.049538679 1.1702612e-38 311 206
-0.011628106 0.829 0.049419452 1.2162152e-38 312 206
-0.010174593 0.829 0.049419452 1.2162152e-38 313 206
-0.0087210797 0.829 0.049419452 1.2344761e-38 314 206
-0.0072675664 0.829 0.049419452 1.2252566e-38 315 206
-0.0058140531 0.829 0.049419452 1.225221e-38 316 206
-0.0043605398 0.829 0.049419452 1.225221e-38 317 206
-0.0029070266 0.829 0.049419452 1.2252563e-38 318 206
-0.0014535133 0.829 0.049419452 1.2344758e-38 319 206
0 0.829 0.049419452 1.2619906e-38 320 206
0.0014535133 0.829 0.049419452 1.2527352e-38 321 206
0.0029070266 0.829 0.049419452 1.261955e-38 322 206
0.0043605398 0.829 0.049419452 1.2803942e-38 323 206
0.0058140531 0.829 0.049419452 1.2529518e-38 324 206
0.0072500333 0.82700002 0.049300224 1.2437323e-38 325 206
0.0087000392 0.82700002 0.049300224 1.2254008e-38 326 206
0.010150046 0.82700002 0.049300224 1.2069616e-38 327 206
0.011600053 0.82700002 0.049300224 1.188702e-38 328 206
0.01305006 0.82700002 0.049300224 1.2163966e-38 329 206
0.014500067 0.82700002 0.049300224 1.2347631e-38 330 206
0.015950073 0.82700002 0.049300224 1.2255077e-38 331 206
0.017400078 0.82700002 0.049300224 1.1889158e-38 332 206
0.018850086 0.82700002 0.049300224 1.1981354e-38 333 206
0.020251 0.82499999 0.049180996 1.2165738e-38 334 206
0.021697499 0.82499999 0.049180996 1.2165738e-38 335 206
0.023143999 0.82499999 0.049180996 1.2534528e-38 336 206
0.024590498 0.82499999 0.049180996 1.3272093e-38 337 206
0.025973879 0.82300001 0.049061771 1.3457207e-38 338 206
0.027416872 0.82300001 0.049061771 1.3917825e-38 339 206
0.028859867 0.82300001 0.049061771 1.4378082e-38 340 206
0.03030286 0.82300001 0.049061771 1.4562832e-38 341 206
0.031745855 0.82300001 0.049061771 1.4838342e-38 342 206
0.033188846 0.82300001 0.049061771 1.4930539e-38 343 206
0.034631841 0.82300001 0.049061771 1.5206047e-38 344 206
0.035987165 0.82099998 0.048942544 1.5390797e-38 345 206
0.037426651 0.82099998 0.048942544 1.557411e-38 346 206
0.03886614 0.82099998 0.048942544 1.5758501e-38 347 206
0.040305622 0.82099998 0.048942544 1.5576262e-38 348 206
0.041745111 0.82099998 0.048942544 1.5576262e-38 349 206
0.043184597 0.82099998 0.048942544 1.5485859e-38 350 206
0.044624086 0.82099998 0.048942544 1.5762444e-38 351 206
0.046063572 0.82099998 0.048942544 1.5855007e-38 352 206
0.047503054 0.82099998 0.048942544 1.6131953e-38 353 206
0.048942544 0.82099998 0.048942544 1.649894e-38 354 206
0.050382029 0.82099998 0.048942544 1.6775168e-38 355 206
0.051821519 0.82099998 0.048942544 1.7142509e-38 356 206
0.053261004 0.82099998 0.048942544 1.7234704e-38 357 206
0.05470049 0.82099998 0.048942544 1.6959915e-38 358 206
0.056003217 0.81900001 0.048823319 1.6959915e-38 359 206
0.057439201 0.81900001 0.048823319 1.6867364e-38 360 206
0.058875177 0.81900001 0.048823319 1.6682971e-38 361 206
0.060311157 0.81900001 0.048823319 1.6498934e-38 362 206
0.061747137 0.81900001 0.048823319 1.6406739e-38 363 206
0.063337415 0.82099998 0.048942544 1.6314896e-38 364 206
0.064776897 0.82099998 0.048942544 1.6314896e-38 365 206
0.066216379 0.82099998 0.048942544 1.6497846e-38 366 206
0.067655869 0.82099998 0.048942544 1.6497846e-38 367 206
0.069095351 0.82099998 0.048942544 1.6221252e-38 368 206
0.070534848 0.82099998 0.048942544 1.5852471e-38 369 206
0.072149664 0.82300001 0.049061771 1.5484766e-38 370 206
0.073413812 0.82099998 0.048942544 1.5300374e-38 371 206
0.074853301 0.82099998 0.048942544 1.4563921e-38 372 206
0.07629279 0.82099998 0.048942544 1.4287334e-38 373 206
-0.071222149 0.829 0.04796594 1.3186807e-38 271 207
-0.069768637 0.829 0.04796594 1.2081475e-38 272 207
-0.068479933 0.83099997 0.048081655 1.2911236e-38 273 207
-0.067022912 0.83099997 0.048081655 1.419871e-38 274 207
-0.065565899 0.83099997 0.048081655 1.4659687e-38 275 207
-0.063954584 0.829 0.04796594 1.5119227e-38 276 207
-0.062501073 0.829 0.04796594 1.5211423e-38 277 207
-0.061047558 0.829 0.04796594 1.5945391e-38 278 207
-0.059594043 0.829 0.04796594 1.5945391e-38 279 207
-0.058000267 0.82700002 0.047850218 1.6220548e-38 280 207
-0.056550261 0.82700002 0.047850218 1.6036517e-38 281 207
-0.055100251 0.82700002 0.047850218 1.5669174e-38 282 207
-0.053650245 0.82700002 0.047850218 1.5669174e-38 283 207
-0.052200239 0.82700002 0.047850218 1.575992e-38 284 207
-0.0506275 0.82499999 0.047734499 1.5852476e-38 285 207
-0.049180996 0.82499999 0.047734499 1.5667356e-38 286 207
-0.047734499 0.82499999 0.047734499 1.5114541e-38 287 207
-0.046287999 0.82499999 0.047734499 1.5020172e-38 288 207
-0.044841498 0.82499999 0.047734499 1.4190411e-38 289 207
-0.0435002 0.82700002 0.047850218 1.3546841e-38 290 207
-0.04205019 0.82700002 0.047850218 1.3177699e-38 291 207
-0.040502001 0.82499999 0.047734499 1.2992237e-38 292 207
-0.039055496 0.82499999 0.047734499 1.2992237e-38 293 207
-0.037700173 0.82700002 0.047850218 1.2899688e-38 294 207
-0.036250167 0.82700002 0.047850218 1.2715657e-38 295 207
-0.034800157 0.82700002 0.047850218 1.2255064e-38 296 207
-0.033350151 0.82700002 0.047850218 1.2162868e-38 297 207
-0.031900145 0.82700002 0.047850218 1.1793738e-38 298 207
-0.030450139 0.82700002 0.047850218 1.1793738e-38 299 207
-0.029000133 0.82700002 0.047850218 1.1611144e-38 300 207
-0.027550125 0.82700002 0.047850218 1.1518947e-38 301 207
-0.02610012 0.82700002 0.047850218 1.1518608e-38 302 207
-0.024650112 0.82700002 0.047850218 1.1703358e-38 303 207
-0.023200106 0.82700002 0.047850218 1.1701585e-38 304 207
-0.0217501 0.82700002 0.047850218 1.1701585e-38 305 207
-0.020300092 0.82700002 0.047850218 1.151791e-38 306 207
-0.018850086 0.82700002 0.047850218 1.151791e-38 307 207
-0.017442159 0.829 0.04796594 1.1517544e-38 308 207
-0.015988646 0.829 0.04796594 1.1424988e-38 309 207
-0.014535133 0.829 0.04796594 1.1242029e-38 310 207
-0.013113179 0.83099997 0.048081655 1.1242029e-38 311 207
-0.011628106 0.829 0.04796594 1.1242026e-38 312 207
-0.010174593 0.829 0.04796594 1.1149831e-38 313 207
-0.0087210797 0.829 0.04796594 1.1242026e-38 314 207
-0.0072850995 0.83099997 0.048081655 1.1149831e-38 315 207
-0.0058140531 0.829 0.04796594 1.1242029e-38 316 207
-0.0043605398 0.829 0.04796594 1.1242029e-38 317 207
-0.0029070266 0.829 0.04796594 1.1058357e-38 318 207
-0.0014535133 0.829 0.04796594 1.1150552e-38 319 207
0 0.829 0.04796594 1.1242029e-38 320 207
0.0014535133 0.829 0.04796594 1.1242029e-38 321 207
0.0029070266 0.829 0.04796594 1.1242749e-38 322 207
0.0043605398 0.829 0.04796594 1.1334945e-38 323 207
0.0058140531 0.829 0.04796594 1.1151633e-38 324 207
0.0072500333 0.82700002 0.047850218 1.1059437e-38 325 207
0.0087000392 0.82700002 0.047850218 1.1242749e-38 326 207
0.010150046 0.82700002 0.047850218 1.1242749e-38 327 207
0.011600053 0.82700002 0.047850218 1.1610456e-38 328 207
0.01305006 0.82700002 0.047850218 1.1610456e-38 329 207
0.014535133 0.829 0.04796594 1.1610105e-38 330 207
0.015950073 0.82700002 0.047850218 1.1702301e-38 331 207
0.017400078 0.82700002 0.047850218 1.17952e-38 332 207
0.018850086 0.82700002 0.047850218 1.1518613e-38 333 207
0.020251 0.82499999 0.047734499 1.1887373e-38 334 207
0.021697499 0.82499999 0.047734499 1.1979569e-38 335 207
0.023143999 0.82499999 0.047734499 1.2071764e-38 336 207
0.024590498 0.82499999 0.047734499 1.2348712e-38 337 207
0.026036998 0.82499999 0.047734499 1.2626368e-38 338 207
0.027416872 0.82300001 0.04761878 1.299515e-38 339 207
0.028859867 0.82300001 0.04761878 1.3456124e-38 340 207
0.03030286 0.82300001 0.04761878 1.3825267e-38 341 207
0.031745855 0.82300001 0.04761878 1.3734167e-38 342 207
0.033188846 0.82300001 0.04761878 1.3918198e-38 343 207
0.034631841 0.82300001 0.04761878 1.4011125e-38 344 207
0.035987165 0.82099998 0.047503054 1.4379549e-38 345 207
0.037426651 0.82099998 0.047503054 1.4471747e-38 346 207
0.03886614 0.82099998 0.047503054 1.4563943e-38 347 207
0.040305622 0.82099998 0.047503054 1.4656842e-38 348 207
0.041745111 0.82099998 0.047503054 1.4840873e-38 349 207
0.043184597 0.82099998 0.047503054 1.5209284e-38 350 207
0.044624086 0.82099998 0.047503054 1.530148e-38 351 207
0.045951359 0.81900001 0.047387339 1.5669542e-38 352 207
0.047387339 0.81900001 0.047387339 1.5853933e-38 353 207
0.048823319 0.81900001 0.047387339 1.5946855e-38 354 207
0.0502593 0.81900001 0.047387339 1.6039051e-38 355 207
0.05169528 0.81900001 0.047387339 1.6130881e-38 356 207
0.053131256 0.81900001 0.047387339 1.6499303e-38 357 207
0.054567236 0.81900001 0.047387339 1.6684054e-38 358 207
0.056003217 0.81900001 0.047387339 1.6684054e-38 359 207
0.057439201 0.81900001 0.047387339 1.6867367e-38 360 207
0.058875177 0.81900001 0.047387339 1.6775171e-38 361 207
0.060311157 0.81900001 0.047387339 1.6683321e-38 362 207
0.061747137 0.81900001 0.047387339 1.6683321e-38 363 207
0.063183114 0.81900001 0.047387339 1.6683309e-38 364 207
0.064619094 0.81900001 0.047387339 1.6683309e-38 365 207
0.066216379 0.82099998 0.047503054 1.6866255e-38 366 207
0.067655869 0.82099998 0.047503054 1.6866255e-38 367 207
0.069095351 0.82099998 0.047503054 1.6681135e-38 368 207
0.070534848 0.82099998 0.047503054 1.6496744e-38 369 207
0.07197433 0.82099998 0.047503054 1.6127966e-38 370 207
0.073413812 0.82099998 0.047503054 1.6035769e-38 371 207
0.074853301 0.82099998 0.047503054 1.5667006e-38 372 207
0.076106943 0.81900001 0.047387339 1.5298223e-38 373 207
0.077542923 0.81900001 0.047387339 1.3734167e-38 374 207
0.078978904 0.81900001 0.047387339 1.3641611e-38 375 207
-0.072675668 0.829 0.046512425 1.2079715e-38 270 208
-0.071222149 0.829 0.046512425 1.1711292e-38 271 208
-0.069768637 0.829 0.046512425 1.2726119e-38 272 208
-0.068479933 0.83099997 0.046624638 1.3279293e-38 273 208
-0.067022912 0.83099997 0.046624638 1.3923921e-38 274 208
-0.065565899 0.83099997 0.046624638 1.4200508e-38 275 208
-0.063954584 0.829 0.046512425 1.5210337e-38 276 208
-0.062501073 0.829 0.046512425 1.5302892e-38 277 208
-0.061047558 0.829 0.046512425 1.5852473e-38 278 208
-0.059594043 0.829 0.046512425 1.5852473e-38 279 208
-0.058000267 0.82700002 0.046400212 1.6127262e-38 280 208
-0.056550261 0.82700002 0.046400212 1.6035065e-38 281 208
-0.055100251 0.82700002 0.046400212 1.5758829e-38 282 208
-0.053650245 0.82700002 0.046400212 1.5297851e-38 283 208
-0.052200239 0.82700002 0.046400212 1.4745753e-38 284 208
-0.0506275 0.82499999 0.046287999 1.4376971e-38 285 208
-0.049180996 0.82499999 0.046287999 1.4190777e-38 286 208
-0.047734499 0.82499999 0.046287999 1.3545408e-38 287 208
-0.046287999 0.82499999 0.046287999 1.3083341e-38 288 208
-0.044841498 0.82499999 0.046287999 1.2530167e-38 289 208
-0.0435002 0.82700002 0.046400212 1.1885906e-38 290 208
-0.04205019 0.82700002 0.046400212 1.2255049e-38 291 208
-0.040502001 0.82499999 0.046287999 1.216035e-38 292 208
-0.039055496 0.82499999 0.046287999 1.216035e-38 293 208
-0.037700173 0.82700002 0.046400212 1.2160701e-38 294 208
-0.036250167 0.82700002 0.046400212 1.1976309e-38 295 208
-0.034800157 0.82700002 0.046400212 1.1792657e-38 296 208
-0.033350151 0.82700002 0.046400212 1.1884852e-38 297 208
-0.031900145 0.82700002 0.046400212 1.1792309e-38 298 208
-0.030450139 0.82700002 0.046400212 1.1792309e-38 299 208
-0.029000133 0.82700002 0.046400212 1.1333852e-38 300 208
-0.027550125 0.82700002 0.046400212 1.1333852e-38 301 208
-0.02610012 0.82700002 0.046400212 1.1424973e-38 302 208
-0.024650112 0.82700002 0.046400212 1.1424973e-38 303 208
-0.023200106 0.82700002 0.046400212 1.1516089e-38 304 208
-0.0217501 0.82700002 0.046400212 1.1608644e-38 305 208
-0.020300092 0.82700002 0.046400212 1.1607919e-38 306 208
-0.018850086 0.82700002 0.046400212 1.1607919e-38 307 208
-0.017442159 0.829 0.046512425 1.1333133e-38 308 208
-0.015988646 0.829 0.046512425 1.1240579e-38 309 208
-0.014570199 0.83099997 0.046624638 1.1057266e-38 310 208
-0.013113179 0.83099997 0.046624638 1.1057266e-38 311 208
-0.01165616 0.83099997 0.046624638 1.1057617e-38 312 208
-0.01019914 0.83099997 0.046624638 1.1057617e-38 313 208
-0.0087421201 0.83099997 0.046624638 1.1057622e-38 314 208
-0.0072850995 0.83099997 0.046624638 1.1241653e-38 315 208
-0.0058280798 0.83099997 0.046624638 1.1150184e-38 316 208
-0.0043710601 0.83099997 0.046624638 1.1057988e-38 317 208
-0.0029140399 0.83099997 0.046624638 1.1241298e-38 318 208
-0.0014570199 0.83099997 0.046624638 1.1241298e-38 319 208
0 0.83099997 0.046624638 1.1058338e-38 320 208
0.0014535133 0.829 0.046512425 1.1150534e-38 321 208
0.0029070266 0.829 0.046512425 1.1150537e-38 322 208
0.0043605398 0.829 0.046512425 1.1242732e-38 323 208
0.0058140531 0.829 0.046512425 1.1242732e-38 324 208
0.0072675664 0.829 0.046512425 1.1242732e-38 325 208
0.0087210797 0.829 0.046512425 1.1333849e-38 326 208
0.010174593 0.829 0.046512425 1.1333849e-38 327 208
0.011628106 0.829 0.046512425 1.1426045e-38 328 208
0.01308162 0.829 0.046512425 1.1426045e-38 329 208
0.014535133 0.829 0.046512425 1.1426045e-38 330 208
0.015988646 0.829 0.046512425 1.151824e-38 331 208
0.017400078 0.82700002 0.046400212 1.1793388e-38 332 208
0.018850086 0.82700002 0.046400212 1.1793388e-38 333 208
0.020300092 0.82700002 0.046400212 1.1793388e-38 334 208
0.0217501 0.82700002 0.046400212 1.1885585e-38 335 208
0.023143999 0.82499999 0.046287999 1.2161096e-38 336 208
0.024590498 0.82499999 0.046287999 1.2253291e-38 337 208
0.026036998 0.82499999 0.046287999 1.2255082e-38 338 208
0.027416872 0.82300001 0.046175785 1.2347278e-38 339 208
0.028859867 0.82300001 0.046175785 1.1798409e-38 340 208
0.03030286 0.82300001 0.046175785 1.2166831e-38 341 208
0.031745855 0.82300001 0.046175785 1.2627456e-38 342 208
0.033188846 0.82300001 0.046175785 1.2904402e-38 343 208
0.034631841 0.82300001 0.046175785 1.3182075e-38 344 208
0.036074832 0.82300001 0.046175785 1.3735249e-38 345 208
0.037517827 0.82300001 0.046175785 1.401147e-38 346 208
0.03886614 0.82099998 0.046063572 1.419586e-38 347 208
0.040305622 0.82099998 0.046063572 1.4563551e-38 348 208
0.041745111 0.82099998 0.046063572 1.4655748e-38 349 208
0.043184597 0.82099998 0.046063572 1.5024155e-38 350 208
0.044515379 0.81900001 0.045951359 1.5208905e-38 351 208
0.045951359 0.81900001 0.045951359 1.5485136e-38 352 208
0.047387339 0.81900001 0.045951359 1.5577331e-38 353 208
0.048823319 0.81900001 0.045951359 1.6036886e-38 354 208
0.0502593 0.81900001 0.045951359 1.6129081e-38 355 208
0.05169528 0.81900001 0.045951359 1.6037251e-38 356 208
0.053131256 0.81900001 0.045951359 1.6221644e-38 357 208
0.054567236 0.81900001 0.045951359 1.6589703e-38 358 208
0.056003217 0.81900001 0.045951359 1.6774095e-38 359 208
0.057439201 0.81900001 0.045951359 1.6866295e-38 360 208
0.058875177 0.81900001 0.045951359 1.6866295e-38 361 208
0.060311157 0.81900001 0.045951359 1.6591506e-38 362 208
0.061747137 0.81900001 0.045951359 1.6683701e-38 363 208
0.063183114 0.81900001 0.045951359 1.6591856e-38 364 208
0.064619094 0.81900001 0.045951359 1.6591856e-38 365 208
0.066216379 0.82099998 0.046063572 1.6683324e-38 366 208
0.067655869 0.82099998 0.046063572 1.6683324e-38 367 208
0.069095351 0.82099998 0.046063572 1.6590404e-38 368 208
0.070534848 0.82099998 0.046063572 1.6498208e-38 369 208
0.07197433 0.82099998 0.046063572 1.6130854e-38 370 208
0.073413812 0.82099998 0.046063572 1.5762073e-38 371 208
0.074853301 0.82099998 0.046063572 1.6036139e-38 372 208
0.076106943 0.81900001 0.045951359 1.5575161e-38 373 208
0.077542923 0.81900001 0.045951359 1.5023807e-38 374 208
0.078978904 0.81900001 0.045951359 1.4562829e-38 375 208
0.080218501 0.81699997 0.045839142 1.3733845e-38 376 208
0.08165098 0.81699997 0.045839142 1.4195183e-38 377 208
-0.074129179 0.829 0.04505891 1.1346158e-38 269 209
-0.072675668 0.829 0.04505891 1.0146827e-38 270 209
-0.071222149 0.829 0.04505891 1.1069144e-38 271 209
-0.069768637 0.829 0.04505891 1.1992497e-38 272 209
-0.068315126 0.829 0.04505891 1.236164e-38 273 209
-0.066861607 0.829 0.04505891 1.3465094e-38 274 209
-0.065408096 0.829 0.04505891 1.3926072e-38 275 209
-0.063954584 0.829 0.04505891 1.521034e-38 276 209
-0.062501073 0.829 0.04505891 1.5026308e-38 277 209
-0.061047558 0.829 0.04505891 1.5116353e-38 278 209
-0.059594043 0.829 0.04505891 1.4931962e-38 279 209
-0.058000267 0.82700002 0.044950206 1.5021987e-38 280 209
-0.056550261 0.82700002 0.044950206 1.4469172e-38 281 209
-0.055100251 0.82700002 0.044950206 1.428296e-38 282 209
-0.053650245 0.82700002 0.044950206 1.3913819e-38 283 209
-0.052200239 0.82700002 0.044950206 1.3362083e-38 284 209
-0.050750233 0.82700002 0.044950206 1.3269529e-38 285 209
-0.049300224 0.82700002 0.044950206 1.3177351e-38 286 209
-0.047734499 0.82499999 0.044841498 1.2255755e-38 287 209
-0.046287999 0.82499999 0.044841498 1.2253615e-38 288 209
-0.044841498 0.82499999 0.044841498 1.2253615e-38 289 209
-0.0435002 0.82700002 0.044950206 1.1701906e-38 290 209
-0.04205019 0.82700002 0.044950206 1.1701906e-38 291 209
-0.040600184 0.82700002 0.044950206 1.1884152e-38 292 209
-0.039150178 0.82700002 0.044950206 1.1791956e-38 293 209
-0.037700173 0.82700002 0.044950206 1.1607922e-38 294 209
-0.036250167 0.82700002 0.044950206 1.1515726e-38 295 209
-0.034800157 0.82700002 0.044950206 1.142425e-38 296 209
-0.033350151 0.82700002 0.044950206 1.142425e-38 297 209
-0.031977292 0.829 0.04505891 1.1056913e-38 298 209
-0.030523779 0.829 0.04505891 1.0964718e-38 299 209
-0.029070266 0.829 0.04505891 1.0964723e-38 300 209
-0.027616752 0.829 0.04505891 1.0964723e-38 301 209
-0.02610012 0.82700002 0.044950206 1.0964723e-38 302 209
-0.024650112 0.82700002 0.044950206 1.1056919e-38 303 209
-0.023200106 0.82700002 0.044950206 1.096472e-38 304 209
-0.021802699 0.829 0.04505891 1.096472e-38 305 209
-0.020349186 0.829 0.04505891 1.1056913e-38 306 209
-0.018895673 0.829 0.04505891 1.0964718e-38 307 209
-0.017442159 0.829 0.04505891 1.0965074e-38 308 209
-0.01602722 0.83099997 0.045167617 1.1057269e-38 309 209
-0.014570199 0.83099997 0.045167617 1.0690282e-38 310 209
-0.01314474 0.833 0.045276325 1.0690282e-38 311 209
-0.011684213 0.833 0.045276325 1.0873591e-38 312 209
-0.010223686 0.833 0.045276325 1.0873591e-38 313 209
-0.0087631596 0.833 0.045276325 1.0965792e-38 314 209
-0.007302633 0.833 0.045276325 1.0965792e-38 315 209
-0.0058421064 0.833 0.045276325 1.0874323e-38 316 209
-0.0043815798 0.833 0.045276325 1.0782127e-38 317 209
-0.0029140399 0.83099997 0.045167617 1.096579e-38 318 209
-0.0014570199 0.83099997 0.045167617 1.1057985e-38 319 209
0 0.83099997 0.045167617 1.087467e-38 320 209
0.0014570199 0.83099997 0.045167617 1.087467e-38 321 209
0.0029140399 0.83099997 0.045167617 1.1058704e-38 322 209
0.0043605398 0.829 0.04505891 1.11509e-38 323 209
0.0058140531 0.829 0.04505891 1.1058707e-38 324 209
0.0072675664 0.829 0.04505891 1.1058707e-38 325 209
0.0087210797 0.829 0.04505891 1.1150181e-38 326 209
0.010174593 0.829 0.04505891 1.1150181e-38 327 209
0.011628106 0.829 0.04505891 1.105906e-38 328 209
0.01308162 0.829 0.04505891 1.1151256e-38 329 209
0.014535133 0.829 0.04505891 1.1333852e-38 330 209
0.015988646 0.829 0.04505891 1.1426048e-38 331 209
0.017442159 0.829 0.04505891 1.1150184e-38 332 209
0.018850086 0.82700002 0.044950206 1.1242379e-38 333 209
0.020300092 0.82700002 0.044950206 1.1425692e-38 334 209
0.0217501 0.82700002 0.044950206 1.1425692e-38 335 209
0.023200106 0.82700002 0.044950206 1.151789e-38 336 209
0.024590498 0.82499999 0.044841498 1.1610087e-38 337 209
0.026036998 0.82499999 0.044841498 1.1427491e-38 338 209
0.027483499 0.82499999 0.044841498 1.1520045e-38 339 209
0.028929999 0.82499999 0.044841498 1.1520393e-38 340 209
0.030376498 0.82499999 0.044841498 1.1796978e-38 341 209
0.031822998 0.82499999 0.044841498 1.2348356e-38 342 209
0.033269498 0.82499999 0.044841498 1.2717137e-38 343 209
0.034631841 0.82300001 0.044732794 1.2443072e-38 344 209
0.036074832 0.82300001 0.044732794 1.2811853e-38 345 209
0.037517827 0.82300001 0.044732794 1.2813653e-38 346 209
0.03886614 0.82099998 0.044624086 1.3366825e-38 347 209
0.040305622 0.82099998 0.044624086 1.355229e-38 348 209
0.041745111 0.82099998 0.044624086 1.3736681e-38 349 209
0.043184597 0.82099998 0.044624086 1.4563548e-38 350 209
0.044515379 0.81900001 0.044515379 1.4655745e-38 351 209
0.045951359 0.81900001 0.044515379 1.5024526e-38 352 209
0.047387339 0.81900001 0.044515379 1.5116722e-38 353 209
0.048823319 0.81900001 0.044515379 1.5576277e-38 354 209
0.0502593 0.81900001 0.044515379 1.5668473e-38 355 209
0.05169528 0.81900001 0.044515379 1.5668836e-38 356 209
0.053131256 0.81900001 0.044515379 1.5853586e-38 357 209
0.054567236 0.81900001 0.044515379 1.6037976e-38 358 209
0.056003217 0.81900001 0.044515379 1.6314561e-38 359 209
0.057439201 0.81900001 0.044515379 1.6589706e-38 360 209
0.058875177 0.81900001 0.044515379 1.6774098e-38 361 209
0.060311157 0.81900001 0.044515379 1.6774815e-38 362 209
0.061747137 0.81900001 0.044515379 1.6867011e-38 363 209
0.063183114 0.81900001 0.044515379 1.6775168e-38 364 209
0.064619094 0.81900001 0.044515379 1.6775168e-38 365 209
0.066055074 0.81900001 0.044515379 1.6867717e-38 366 209
0.067491055 0.81900001 0.044515379 1.6867717e-38 367 209
0.068927035 0.81900001 0.044515379 1.6775151e-38 368 209
0.070363015 0.81900001 0.044515379 1.6682956e-38 369 209
0.071799003 0.81900001 0.044515379 1.6315602e-38 370 209
0.073234983 0.81900001 0.044515379 1.6130851e-38 371 209
0.074670963 0.81900001 0.044515379 1.5946091e-38 372 209
0.076106943 0.81900001 0.044515379 1.5577668e-38 373 209
0.077542923 0.81900001 0.044515379 1.5758473e-38 374 209
0.078978904 0.81900001 0.044515379 1.5482246e-38 375 209
0.080218501 0.81699997 0.044406671 1.4470283e-38 376 209
0.08165098 0.81699997 0.044406671 1.4193337e-38 377 209
0.082880065 0.815 0.044297963 1.3093171e-38 378 209
0.084309027 0.815 0.044297963 1.4291713e-38 379 209
-0.075400345 0.82700002 0.0435002 9.1406461e-39 268 210
-0.074129179 0.829 0.043605398 7.5736805e-39 269 210
-0.072675668 0.829 0.043605398 1.0331207e-38 270 210
-0.071222149 0.829 0.043605398 1.1344999e-38 271 210
-0.069768637 0.829 0.043605398 1.1991059e-38 272 210
-0.068315126 0.829 0.043605398 1.2636429e-38 273 210
-0.066861607 0.829 0.043605398 1.4474574e-38 274 210
-0.065408096 0.829 0.043605398 1.4566769e-38 275 210
-0.063954584 0.829 0.043605398 1.5300722e-38 276 210
-0.062501073 0.829 0.043605398 1.4839744e-38 277 210
-0.061047558 0.829 0.043605398 1.4562788e-38 278 210
-0.059594043 0.829 0.043605398 1.4009615e-38 279 210
-0.058000267 0.82700002 0.0435002 1.3822702e-38 280 210
-0.056550261 0.82700002 0.0435002 1.3177333e-38 281 210
-0.055100251 0.82700002 0.0435002 1.2807474e-38 282 210
-0.053650245 0.82700002 0.0435002 1.243905e-38 283 210
-0.052200239 0.82700002 0.0435002 1.1978455e-38 284 210
-0.050750233 0.82700002 0.0435002 1.207065e-38 285 210
-0.049300224 0.82700002 0.0435002 1.2254711e-38 286 210
-0.047850218 0.82700002 0.0435002 1.1609342e-38 287 210
-0.046400212 0.82700002 0.0435002 1.1608994e-38 288 210
-0.044950206 0.82700002 0.0435002 1.1608994e-38 289 210
-0.0435002 0.82700002 0.0435002 1.133313e-38 290 210
-0.04205019 0.82700002 0.0435002 1.1240935e-38 291 210
-0.040600184 0.82700002 0.0435002 1.1423528e-38 292 210
-0.039150178 0.82700002 0.0435002 1.1423528e-38 293 210
-0.037700173 0.82700002 0.0435002 1.1331684e-38 294 210
-0.036250167 0.82700002 0.0435002 1.1331684e-38 295 210
-0.034800157 0.82700002 0.0435002 1.0964344e-38 296 210
-0.033350151 0.82700002 0.0435002 1.0964344e-38 297 210
-0.031977292 0.829 0.043605398 1.059701e-38 298 210
-0.030523779 0.829 0.043605398 1.059701e-38 299 210
-0.029140398 0.83099997 0.043710597 1.0781045e-38 300 210
-0.027683379 0.83099997 0.043710597 1.0597013e-38 301 210
-0.026163239 0.829 0.043605398 1.0781048e-38 302 210
-0.024709726 0.829 0.043605398 1.0873244e-38 303 210
-0.023312319 0.83099997 0.043710597 1.0780325e-38 304 210
-0.021855298 0.83099997 0.043710597 1.0872522e-38 305 210
-0.020349186 0.829 0.043605398 1.0872877e-38 306 210
-0.018895673 0.829 0.043605398 1.0780322e-38 307 210
-0.01748424 0.83099997 0.043710597 1.0781397e-38 308 210
-0.01602722 0.83099997 0.043710597 1.0873594e-38 309 210
-0.014605266 0.833 0.043815799 1.0598085e-38 310 210
-0.01314474 0.833 0.043815799 1.0690282e-38 311 210
-0.011684213 0.833 0.043815799 1.0690282e-38 312 210
-0.010223686 0.833 0.043815799 1.0690282e-38 313 210
-0.0087631596 0.833 0.043815799 1.0782124e-38 314 210
-0.007302633 0.833 0.043815799 1.0782124e-38 315 210
-0.0058421064 0.833 0.043815799 1.0782127e-38 316 210
-0.0043815798 0.833 0.043815799 1.0782127e-38 317 210
-0.0029210532 0.833 0.043815799 1.0965792e-38 318 210
-0.0014605266 0.833 0.043815799 1.0965792e-38 319 210
0 0.833 0.043815799 1.1058341e-38 320 210
0.0014605266 0.833 0.043815799 1.1058341e-38 321 210
0.0029210532 0.833 0.043815799 1.0783196e-38 322 210
0.0043710601 0.83099997 0.043710597 1.0783196e-38 323 210
0.0058280798 0.83099997 0.043710597 1.1057985e-38 324 210
0.0072675664 0.829 0.043605398 1.1057985e-38 325 210
0.0087210797 0.829 0.043605398 1.1058341e-38 326 210
0.010174593 0.829 0.043605398 1.1058341e-38 327 210
0.011628106 0.829 0.043605398 1.1058341e-38 328 210
0.01308162 0.829 0.043605398 1.1058341e-38 329 210
0.014535133 0.829 0.043605398 1.1333496e-38 330 210
0.015988646 0.829 0.043605398 1.1333496e-38 331 210
0.017442159 0.829 0.043605398 1.1057988e-38 332 210
0.018895673 0.829 0.043605398 1.1150184e-38 333 210
0.020300092 0.82700002 0.0435002 1.1151256e-38 334 210
0.0217501 0.82700002 0.0435002 1.105906e-38 335 210
0.023200106 0.82700002 0.0435002 1.1333849e-38 336 210
0.024650112 0.82700002 0.0435002 1.1426045e-38 337 210
0.02610012 0.82700002 0.0435002 1.1426761e-38 338 210
0.027483499 0.82499999 0.043394998 1.1519317e-38 339 210
0.028929999 0.82499999 0.043394998 1.1611512e-38 340 210
0.030376498 0.82499999 0.043394998 1.1703708e-38 341 210
0.031822998 0.82499999 0.043394998 1.1978865e-38 342 210
0.033269498 0.82499999 0.043394998 1.2163257e-38 343 210
0.034715999 0.82499999 0.043394998 1.1797005e-38 344 210
0.036074832 0.82300001 0.043289799 1.2165427e-38 345 210
0.037517827 0.82300001 0.043289799 1.1983187e-38 346 210
0.038960818 0.82300001 0.043289799 1.216758e-38 347 210
0.040305622 0.82099998 0.043184597 1.272182e-38 348 210
0.041745111 0.82099998 0.043184597 1.3183157e-38 349 210
0.043184597 0.82099998 0.043184597 1.3827432e-38 350 210
0.044515379 0.81900001 0.043079399 1.4011823e-38 351 210
0.045951359 0.81900001 0.043079399 1.4839413e-38 352 210
0.047387339 0.81900001 0.043079399 1.4931609e-38 353 210
0.048823319 0.81900001 0.043079399 1.5207848e-38 354 210
0.0502593 0.81900001 0.043079399 1.5391879e-38 355 210
0.05169528 0.81900001 0.043079399 1.5392606e-38 356 210
0.053131256 0.81900001 0.043079399 1.5669192e-38 357 210
0.054567236 0.81900001 0.043079399 1.585322e-38 358 210
0.056003217 0.81900001 0.043079399 1.6129448e-38 359 210
0.057439201 0.81900001 0.043079399 1.6221644e-38 360 210
0.058875177 0.81900001 0.043079399 1.6406035e-38 361 210
0.060311157 0.81900001 0.043079399 1.6406757e-38 362 210
0.061747137 0.81900001 0.043079399 1.659115e-38 363 210
0.063183114 0.81900001 0.043079399 1.6591506e-38 364 210
0.064619094 0.81900001 0.043079399 1.6683701e-38 365 210
0.066055074 0.81900001 0.043079399 1.6684054e-38 366 210
0.067491055 0.81900001 0.043079399 1.6684054e-38 367 210
0.068927035 0.81900001 0.043079399 1.686772e-38 368 210
0.070363015 0.81900001 0.043079399 1.6775165e-38 369 210
0.071799003 0.81900001 0.043079399 1.6683324e-38 370 210
0.073234983 0.81900001 0.043079399 1.6406739e-38 371 210
0.074670963 0.81900001 0.043079399 1.6130854e-38 372 210
0.075921081 0.81699997 0.042974196 1.5762073e-38 373 210
0.077353559 0.81699997 0.042974196 1.5759905e-38 374 210
0.078786023 0.81699997 0.042974196 1.5575514e-38 375 210
0.080218501 0.81699997 0.042974196 1.5299302e-38 376 210
0.08165098 0.81699997 0.042974196 1.493016e-38 377 210
0.082880065 0.815 0.042869002 1.373453e-38 378 210
0.084309027 0.815 0.042869002 1.3550137e-38 379 210
0.085738003 0.815 0.042869002 1.2822357e-38 380 210
-0.075217992 0.82499999 0.041948497 2.1474521e-39 268 211
-0.074129179 0.829 0.042151887 3.806972e-39 269 211
-0.072675668 0.829 0.042151887 9.778768e-39 270 211
-0.071222149 0.829 0.042151887 1.0977311e-38 271 211
-0.069768637 0.829 0.042151887 1.198928e-38 272 211
-0.068315126 0.829 0.042151887 1.2634649e-38 273 211
-0.066861607 0.829 0.042151887 1.3826689e-38 274 211
-0.065408096 0.829 0.042151887 1.3365712e-38 275 211
-0.063954584 0.829 0.042151887 1.3456797e-38 276 211
-0.062501073 0.829 0.042151887 1.2903263e-38 277 211
-0.061047558 0.829 0.042151887 1.2441919e-38 278 211
-0.059594043 0.829 0.042151887 1.2165333e-38 279 211
-0.058140531 0.829 0.042151887 1.2070991e-38 280 211
-0.056550261 0.82700002 0.04205019 1.1978795e-38 281 211
-0.055100251 0.82700002 0.04205019 1.1978107e-38 282 211
-0.053650245 0.82700002 0.04205019 1.21625e-38 283 211
-0.052200239 0.82700002 0.04205019 1.1885582e-38 284 211
-0.050750233 0.82700002 0.04205019 1.1793385e-38 285 211
-0.049300224 0.82700002 0.04205019 1.1701558e-38 286 211
-0.047850218 0.82700002 0.04205019 1.1424973e-38 287 211
-0.046400212 0.82700002 0.04205019 1.1333496e-38 288 211
-0.044950206 0.82700002 0.04205019 1.12413e-38 289 211
-0.0435002 0.82700002 0.04205019 1.1148383e-38 290 211
-0.04205019 0.82700002 0.04205019 1.1056186e-38 291 211
-0.040600184 0.82700002 0.04205019 1.1056183e-38 292 211
-0.039150178 0.82700002 0.04205019 1.1056183e-38 293 211
-0.037791345 0.829 0.042151887 1.105582e-38 294 211
-0.036337834 0.829 0.042151887 1.105582e-38 295 211
-0.034884319 0.829 0.042151887 1.068848e-38 296 211
-0.033430804 0.829 0.042151887 1.068848e-38 297 211
-0.031977292 0.829 0.042151887 1.0504817e-38 298 211
-0.030597419 0.83099997 0.042253576 1.0504817e-38 299 211
-0.029140398 0.83099997 0.042253576 1.0597013e-38 300 211
-0.027683379 0.83099997 0.042253576 1.0504817e-38 301 211
-0.026226358 0.83099997 0.042253576 1.0597013e-38 302 211
-0.02476934 0.83099997 0.042253576 1.0597013e-38 303 211
-0.023312319 0.83099997 0.042253576 1.0687773e-38 304 211
-0.0219079 0.833 0.042355273 1.0780328e-38 305 211
-0.02039828 0.83099997 0.042253576 1.0780322e-38 306 211
-0.018941259 0.83099997 0.042253576 1.0688127e-38 307 211
-0.017526319 0.833 0.042355273 1.0597363e-38 308 211
-0.016065793 0.833 0.042355273 1.0597363e-38 309 211
-0.014605266 0.833 0.042355273 1.0597363e-38 310 211
-0.01314474 0.833 0.042355273 1.0781394e-38 311 211
-0.011684213 0.833 0.042355273 1.0598085e-38 312 211
-0.010223686 0.833 0.042355273 1.0598085e-38 313 211
-0.0087631596 0.833 0.042355273 1.0873597e-38 314 211
-0.007302633 0.833 0.042355273 1.0965792e-38 315 211
-0.0058561331 0.83499998 0.042456966 1.0782124e-38 316 211
-0.0043920996 0.83499998 0.042456966 1.0689929e-38 317 211
-0.0029280665 0.83499998 0.042456966 1.0965074e-38 318 211
-0.0014640333 0.83499998 0.042456966 1.12413e-38 319 211
0 0.83499998 0.042456966 1.0965787e-38 320 211
0.0014640333 0.83499998 0.042456966 1.0965787e-38 321 211
0.0029280665 0.83499998 0.042456966 1.0782477e-38 322 211
0.0043815798 0.833 0.042355273 1.0874673e-38 323 211
0.0058280798 0.83099997 0.042253576 1.096579e-38 324 211
0.0072675664 0.829 0.042151887 1.1150181e-38 325 211
0.0087210797 0.829 0.042151887 1.1057622e-38 326 211
0.01019914 0.83099997 0.042253576 1.1241653e-38 327 211
0.011628106 0.829 0.042151887 1.1241653e-38 328 211
0.01308162 0.829 0.042151887 1.1057622e-38 329 211
0.014535133 0.829 0.042151887 1.1241298e-38 330 211
0.015988646 0.829 0.042151887 1.1241298e-38 331 211
0.017442159 0.829 0.042151887 1.1057988e-38 332 211
0.018895673 0.829 0.042151887 1.1057988e-38 333 211
0.020349186 0.829 0.042151887 1.1058704e-38 334 211
0.0217501 0.82700002 0.04205019 1.11509e-38 335 211
0.023200106 0.82700002 0.04205019 1.1150537e-38 336 211
0.024650112 0.82700002 0.04205019 1.1150537e-38 337 211
0.02610012 0.82700002 0.04205019 1.124273e-38 338 211
0.027550125 0.82700002 0.04205019 1.1426761e-38 339 211
0.029000133 0.82700002 0.04205019 1.1335648e-38 340 211
0.030450139 0.82700002 0.04205019 1.1335648e-38 341 211
0.031900145 0.82700002 0.04205019 1.1702283e-38 342 211
0.033350151 0.82700002 0.04205019 1.1978868e-38 343 211
0.034715999 0.82499999 0.041948497 1.1887396e-38 344 211
0.036162499 0.82499999 0.041948497 1.2163983e-38 345 211
0.037608996 0.82499999 0.041948497 1.2256531e-38 346 211
0.038960818 0.82300001 0.041846808 1.2348727e-38 347 211
0.040403813 0.82300001 0.041846808 1.2259401e-38 348 211
0.041846808 0.82300001 0.041846808 1.2443794e-38 349 211
0.043184597 0.82099998 0.041745111 1.2538143e-38 350 211
0.044624086 0.82099998 0.041745111 1.3090958e-38 351 211
0.045951359 0.81900001 0.041643418 1.3919277e-38 352 211
0.047387339 0.81900001 0.041643418 1.4380255e-38 353 211
0.048823319 0.81900001 0.041643418 1.483871e-38 354 211
0.0502593 0.81900001 0.041643418 1.5023101e-38 355 211
0.05169528 0.81900001 0.041643418 1.5207848e-38 356 211
0.053131256 0.81900001 0.041643418 1.5576272e-38 357 211
0.054567236 0.81900001 0.041643418 1.5852138e-38 358 211
0.056003217 0.81900001 0.041643418 1.603653e-38 359 211
0.057439201 0.81900001 0.041643418 1.6128725e-38 360 211
0.058875177 0.81900001 0.041643418 1.6220922e-38 361 211
0.060311157 0.81900001 0.041643418 1.6497508e-38 362 211
0.061747137 0.81900001 0.041643418 1.6681899e-38 363 211
0.063183114 0.81900001 0.041643418 1.6499303e-38 364 211
0.064461298 0.81699997 0.041541722 1.65915e-38 365 211
0.065893769 0.81699997 0.041541722 1.6684051e-38 366 211
0.06732624 0.81699997 0.041541722 1.6684051e-38 367 211
0.068758719 0.81699997 0.041541722 1.677625e-38 368 211
0.07019119 0.81699997 0.041541722 1.677625e-38 369 211
0.071623661 0.81699997 0.041541722 1.6591856e-38 370 211
0.073056139 0.81699997 0.041541722 1.6407463e-38 371 211
0.074488603 0.81699997 0.041541722 1.6315618e-38 372 211
0.075921081 0.81699997 0.041541722 1.5946837e-38 373 211
0.077353559 0.81699997 0.041541722 1.5854268e-38 374 211
0.078786023 0.81699997 0.041541722 1.5393289e-38 375 211
0.080022126 0.815 0.041440032 1.5300018e-38 376 211
0.081451096 0.815 0.041440032 1.4931595e-38 377 211
0.082880065 0.815 0.041440032 1.4378785e-38 378 211
0.084309027 0.815 0.041440032 1.3918166e-38 379 211
0.085738003 0.815 0.041440032 1.3001672e-38 380 211
0.087166965 0.815 0.041440032 1.4108019e-38 381 211
-0.075217992 0.82499999 0.040502001 2.3736595e-41 268 212
-0.073950343 0.82700002 0.040600184 1.778336e-39 269 212
-0.072500333 0.82700002 0.040600184 9.4996994e-39 270 212
-0.071050331 0.82700002 0.040600184 1.0422014e-38 271 212
-0.069600314 0.82700002 0.040600184 1.1893488e-38 272 212
-0.068150312 0.82700002 0.040600184 1.1985684e-38 273 212
-0.066700302 0.82700002 0.040600184 1.2811458e-38 274 212
-0.065408096 0.829 0.040698372 1.2442677e-38 275 212
-0.06380029 0.82700002 0.040600184 1.2166442e-38 276 212
-0.062350284 0.82700002 0.040600184 1.1521072e-38 277 212
-0.061047558 0.829 0.040698372 1.1243411e-38 278 212
-0.059594043 0.829 0.040698372 1.105938e-38 279 212
-0.058140531 0.829 0.040698372 1.1334553e-38 280 212
-0.056550261 0.82700002 0.040600184 1.1426748e-38 281 212
-0.055100251 0.82700002 0.040600184 1.1425694e-38 282 212
-0.053650245 0.82700002 0.040600184 1.1425694e-38 283 212
-0.052200239 0.82700002 0.040600184 1.1425692e-38 284 212
-0.050750233 0.82700002 0.040600184 1.1333496e-38 285 212
-0.049300224 0.82700002 0.040600184 1.1333852e-38 286 212
-0.047850218 0.82700002 0.040600184 1.1241298e-38 287 212
-0.046400212 0.82700002 0.040600184 1.1057269e-38 288 212
-0.044950206 0.82700002 0.040600184 1.0965074e-38 289 212
-0.0435002 0.82700002 0.040600184 1.0781045e-38 290 212
-0.04205019 0.82700002 0.040600184 1.0597013e-38 291 212
-0.040600184 0.82700002 0.040600184 1.0505533e-38 292 212
-0.039150178 0.82700002 0.040600184 1.0413338e-38 293 212
-0.037791345 0.829 0.040698372 1.0595931e-38 294 212
-0.036337834 0.829 0.040698372 1.04119e-38 295 212
-0.034884319 0.829 0.040698372 1.0136758e-38 296 212
-0.033430804 0.829 0.040698372 1.0136758e-38 297 212
-0.032054439 0.83099997 0.040796559 9.9538112e-39 298 212
-0.030671058 0.833 0.040894743 9.9538112e-39 299 212
-0.029210532 0.833 0.040894743 1.0136405e-38 300 212
-0.027750006 0.833 0.040894743 1.0136405e-38 301 212
-0.02628948 0.833 0.040894743 1.0044575e-38 302 212
-0.024828954 0.833 0.040894743 1.013677e-38 303 212
-0.023368426 0.833 0.040894743 1.0044222e-38 304 212
-0.0219079 0.833 0.040894743 1.0136417e-38 305 212
-0.020447372 0.833 0.040894743 9.8612624e-39 306 212
-0.018986847 0.833 0.040894743 9.8612624e-39 307 212
-0.017568398 0.83499998 0.040992931 9.6775942e-39 308 212
-0.016104365 0.83499998 0.040992931 9.6775942e-39 309 212
-0.014640332 0.83499998 0.040992931 9.8609093e-39 310 212
-0.0131763 0.83499998 0.040992931 9.9531049e-39 311 212
-0.011712266 0.83499998 0.040992931 9.8616281e-39 312 212
-0.010248233 0.83499998 0.040992931 9.8616281e-39 313 212
-0.0087841991 0.83499998 0.040992931 9.7705143e-39 314 212
-0.0073201661 0.83499998 0.040992931 9.6779599e-39 315 212
-0.0058561331 0.83499998 0.040992931 9.7701584e-39 316 212
-0.0043920996 0.83499998 0.040992931 9.6779627e-39 317 212
-0.0029350799 0.83700001 0.041091122 9.9534706e-39 318 212
-0.0014675399 0.83700001 0.041091122 1.0046025e-38 319 212
0 0.83700001 0.041091122 9.7705115e-39 320 212
0.0014675399 0.83700001 0.041091122 9.8627071e-39 321 212
0.0029350799 0.83700001 0.041091122 9.5879181e-39 322 212
0.0044026203 0.83700001 0.041091122 9.5879181e-39 323 212
0.0058561331 0.83499998 0.040992931 9.6801123e-39 324 212
0.0073201661 0.83499998 0.040992931 9.8641435e-39 325 212
0.0087631596 0.833 0.040894743 1.0138925e-38 326 212
0.01019914 0.83099997 0.040796559 1.0138925e-38 327 212
0.011628106 0.829 0.040698372 1.0413715e-38 328 212
0.01308162 0.829 0.040698372 1.0413715e-38 329 212
0.014535133 0.829 0.040698372 1.0504833e-38 330 212
0.015988646 0.829 0.040698372 1.059703e-38 331 212
0.017442159 0.829 0.040698372 1.0321885e-38 332 212
0.018895673 0.829 0.040698372 1.041408e-38 333 212
0.020349186 0.829 0.040698372 1.0506629e-38 334 212
0.021802699 0.829 0.040698372 1.0506629e-38 335 212
0.023256212 0.829 0.040698372 1.0782846e-38 336 212
0.024709726 0.829 0.040698372 1.0875042e-38 337 212
0.026163239 0.829 0.040698372 1.1150903e-38 338 212
0.027616752 0.829 0.040698372 1.1150903e-38 339 212
0.029000133 0.82700002 0.040600184 1.1335651e-38 340 212
0.030450139 0.82700002 0.040600184 1.1335651e-38 341 212
0.031900145 0.82700002 0.040600184 1.1427844e-38 342 212
0.033350151 0.82700002 0.040600184 1.152004e-38 343 212
0.034800157 0.82700002 0.040600184 1.1703358e-38 344 212
0.036162499 0.82499999 0.040502001 1.1887749e-38 345 212
0.037608996 0.82499999 0.040502001 1.1888115e-38 346 212
0.039055496 0.82499999 0.040502001 1.198067e-38 347 212
0.040403813 0.82300001 0.040403813 1.1889919e-38 348 212
0.041846808 0.82300001 0.040403813 1.1982115e-38 349 212
0.043184597 0.82099998 0.040305622 1.2074678e-38 350 212
0.044624086 0.82099998 0.040305622 1.262785e-38 351 212
0.046063572 0.82099998 0.040305622 1.3273204e-38 352 212
0.047387339 0.81900001 0.040207438 1.3641628e-38 353 212
0.048823319 0.81900001 0.040207438 1.4195141e-38 354 212
0.0502593 0.81900001 0.040207438 1.4379532e-38 355 212
0.05169528 0.81900001 0.040207438 1.4747961e-38 356 212
0.053131256 0.81900001 0.040207438 1.4932353e-38 357 212
0.054567236 0.81900001 0.040207438 1.5300063e-38 358 212
0.056003217 0.81900001 0.040207438 1.5392259e-38 359 212
0.057439201 0.81900001 0.040207438 1.5668839e-38 360 212
0.058875177 0.81900001 0.040207438 1.585323e-38 361 212
0.060163878 0.81699997 0.040109251 1.6037979e-38 362 212
0.061596353 0.81699997 0.040109251 1.6314205e-38 363 212
0.06302882 0.81699997 0.040109251 1.6131968e-38 364 212
0.064461298 0.81699997 0.040109251 1.6131968e-38 365 212
0.065893769 0.81699997 0.040109251 1.6316358e-38 366 212
0.06732624 0.81699997 0.040109251 1.6408553e-38 367 212
0.068758719 0.81699997 0.040109251 1.6592222e-38 368 212
0.070019364 0.815 0.040011063 1.6684417e-38 369 212
0.071448334 0.815 0.040011063 1.6775165e-38 370 212
0.072877295 0.815 0.040011063 1.6682968e-38 371 212
0.074306265 0.815 0.040011063 1.6407445e-38 372 212
0.075735234 0.815 0.040011063 1.6223054e-38 373 212
0.077164195 0.815 0.040011063 1.6313432e-38 374 212
0.078593165 0.815 0.040011063 1.6036486e-38 375 212
0.080022126 0.815 0.040011063 1.5943205e-38 376 212
0.081451096 0.815 0.040011063 1.5666618e-38 377 212
0.082880065 0.815 0.040011063 1.5297853e-38 378 212
0.084102139 0.81300002 0.039912879 1.5113103e-38 379 212
0.085527599 0.81300002 0.039912879 1.3640885e-38 380 212
0.087166965 0.815 0.040011063 1.3456854e-38 381 212
0.088595927 0.815 0.040011063 1.2821992e-38 382 212
-0.073950343 0.82700002 0.039150178 2.3232141e-39 269 213
-0.072500333 0.82700002 0.039150178 8.29971e-39 270 213
-0.071050331 0.82700002 0.039150178 9.2220265e-39 271 213
-0.069600314 0.82700002 0.039150178 1.0232894e-38 272 213
-0.068150312 0.82700002 0.039150178 1.0048501e-38 273 213
-0.066700302 0.82700002 0.039150178 1.0047388e-38 274 213
-0.065408096 0.829 0.039244857 9.9551914e-39 275 213
-0.06380029 0.82700002 0.039150178 1.1056877e-38 276 213
-0.062350284 0.82700002 0.039150178 1.1425301e-38 277 213
-0.061047558 0.829 0.039244857 1.14246e-38 278 213
-0.059594043 0.829 0.039244857 1.14246e-38 279 213
-0.058140531 0.829 0.039244857 1.151643e-38 280 213
-0.05668702 0.829 0.039244857 1.151643e-38 281 213
-0.055100251 0.82700002 0.039150178 1.1425679e-38 282 213
-0.053650245 0.82700002 0.039150178 1.160971e-38 283 213
-0.052200239 0.82700002 0.039150178 1.1242732e-38 284 213
-0.050750233 0.82700002 0.039150178 1.1242732e-38 285 213
-0.049300224 0.82700002 0.039150178 1.0965787e-38 286 213
-0.047850218 0.82700002 0.039150178 1.1058341e-38 287 213
-0.046400212 0.82700002 0.039150178 1.1056189e-38 288 213
-0.044950206 0.82700002 0.039150178 1.0963993e-38 289 213
-0.0435002 0.82700002 0.039150178 1.0688129e-38 290 213
-0.042151887 0.829 0.039244857 1.0595934e-38 291 213
-0.040698372 0.829 0.039244857 1.0412619e-38 292 213
-0.039244857 0.829 0.039244857 1.0135673e-38 293 213
-0.037791345 0.829 0.039244857 1.0410821e-38 294 213
-0.036337834 0.829 0.039244857 1.0318624e-38 295 213
-0.034884319 0.829 0.039244857 9.9516405e-39 296 213
-0.033511456 0.83099997 0.039339535 1.0135673e-38 297 213
-0.032131586 0.833 0.039434217 9.9516433e-39 298 213
-0.030671058 0.833 0.039434217 9.9516433e-39 299 213
-0.029280664 0.83499998 0.039528899 9.9512874e-39 300 213
-0.027816633 0.83499998 0.039528899 9.9512874e-39 301 213
-0.026352599 0.83499998 0.039528899 1.004241e-38 302 213
-0.024888566 0.83499998 0.039528899 1.004241e-38 303 213
-0.023424532 0.83499998 0.039528899 1.0133536e-38 304 213
-0.021960499 0.83499998 0.039528899 9.9487861e-39 305 213
-0.020496465 0.83499998 0.039528899 1.0132101e-38 306 213
-0.019032432 0.83499998 0.039528899 9.8558744e-39 307 213
-0.017610481 0.83700001 0.039623581 1.0039187e-38 308 213
-0.016142938 0.83700001 0.039623581 9.9469896e-39 309 213
-0.014675399 0.83700001 0.039623581 9.9469868e-39 310 213
-0.013207859 0.83700001 0.039623581 1.0039184e-38 311 213
-0.011740319 0.83700001 0.039623581 9.7636746e-39 312 213
-0.010248233 0.83499998 0.039528899 9.8558716e-39 313 213
-0.0087841991 0.83499998 0.039528899 9.6718419e-39 314 213
-0.0073376996 0.83700001 0.039623581 9.7643976e-39 315 213
-0.0058701597 0.83700001 0.039623581 9.8555213e-39 316 213
-0.0044026203 0.83700001 0.039623581 9.7633256e-39 317 213
-0.0029420932 0.83899999 0.039718259 8.8456811e-39 318 213
-0.0014710466 0.83899999 0.039718259 8.7534855e-39 319 213
0 0.83899999 0.039718259 8.5705236e-39 320 213
0.01165616 0.83099997 0.039339535 9.6739845e-39 328 213
0.01305006 0.82700002 0.039150178 9.5814301e-39 329 213
0.014500067 0.82700002 0.039150178 9.488517e-39 330 213
0.015950073 0.82700002 0.039150178 9.9494952e-39 331 213
0.017442159 0.829 0.039244857 1.0592709e-38 332 213
0.018941259 0.83099997 0.039339535 1.0777102e-38 333 213
0.02039828 0.83099997 0.039339535 1.0870372e-38 334 213
0.021855298 0.83099997 0.039339535 1.1054764e-38 335 213
