# .PCD v.7 - Point Cloud Data file format
FIELDS x y z rgb imX imY
SIZE 4 4 4 4 4 4
TYPE F F F F F F
COUNT 1 1 1 1 1 1
WIDTH 848
HEIGHT 1
VIEWPOINT 0 0 0 1 0 0 0
POINTS 848
DATA ascii
0.040845651 0.72799999 -0.010211413 1.8984251e-38 352 248
0.042122077 0.72799999 -0.010211413 1.9076446e-38 353 248
0.043338891 0.727 -0.010197386 1.8708387e-38 354 248
0.044613566 0.727 -0.010197386 1.8523994e-38 355 248
0.04563576 0.72299999 -0.01014128 1.8248133e-38 356 248
0.046838548 0.722 -0.010127253 1.7971546e-38 357 248
0.0479712 0.72000003 -0.010099201 1.7510961e-38 358 248
0.049165215 0.71899998 -0.010085173 1.7418763e-38 359 248
0.0502856 0.71700001 -0.01005712 1.5949809e-38 360 248
0.051542737 0.71700001 -0.01005712 1.7332743e-38 361 248
-0.03528408 0.77399999 -0.01221372 1.4562145e-38 294 249
-0.033927001 0.77399999 -0.01221372 1.4377752e-38 295 249
-0.032569919 0.77399999 -0.01221372 1.428663e-38 296 249
-0.031212838 0.77399999 -0.01221372 1.4563217e-38 297 249
-0.029855758 0.77399999 -0.01221372 1.4655041e-38 298 249
-0.028461859 0.773 -0.012197939 1.4378453e-38 299 249
-0.027106533 0.773 -0.012197939 1.4195854e-38 300 249
-0.02568458 0.77100003 -0.01216638 1.4195854e-38 301 249
-0.024269639 0.76899999 -0.012134819 1.4195156e-38 302 249
-0.022921326 0.76899999 -0.012134819 1.4287353e-38 303 249
-0.021573013 0.76899999 -0.012134819 1.4011135e-38 304 249
-0.0202247 0.76899999 -0.012134819 1.4011135e-38 305 249
-0.018827293 0.76700002 -0.01210326 1.4194806e-38 306 249
-0.017459691 0.76599997 -0.012087479 1.4194806e-38 307 249
-0.016074561 0.764 -0.01205592 1.4286283e-38 308 249
-0.01469644 0.76200002 -0.01202436 1.4286283e-38 309 249
-0.013342866 0.76099998 -0.012008579 1.4194803e-38 310 249
-0.012008579 0.76099998 -0.012008579 1.4194803e-38 311 249
-0.010674292 0.76099998 -0.012008579 1.428628e-38 312 249
-0.0093400059 0.76099998 -0.012008579 1.4378477e-38 313 249
-0.0079846792 0.759 -0.01197702 1.4378477e-38 314 249
-0.0066538998 0.759 -0.01197702 1.4378477e-38 315 249
-0.0053231199 0.759 -0.01197702 1.4378477e-38 316 249
-0.0039923396 0.759 -0.01197702 1.4562508e-38 317 249
-0.0026545466 0.75700003 -0.01194546 1.4654706e-38 318 249
-0.0013272733 0.75700003 -0.01194546 1.4654706e-38 319 249
0 0.755 -0.011913899 1.4655062e-38 320 249
0.0013220133 0.75400001 -0.01189812 1.4747258e-38 321 249
0.0026440267 0.75400001 -0.01189812 1.4747255e-38 322 249
0.0039555198 0.75199997 -0.011866559 1.4747255e-38 323 249
0.0052740262 0.75199997 -0.011866559 1.5115665e-38 324 249
0.006575 0.75 -0.011835 1.5207862e-38 325 249
0.0078794798 0.74900001 -0.01181922 1.520857e-38 326 249
0.0091681797 0.74699998 -0.011787659 1.520857e-38 327 249
0.010477919 0.74699998 -0.011787659 1.5392962e-38 328 249
0.011771879 0.74599999 -0.011771879 1.5392962e-38 329 249
0.013079867 0.74599999 -0.011771879 1.5669192e-38 330 249
0.01434928 0.74400002 -0.011740319 1.5669192e-38 331 249
0.015653761 0.74400002 -0.011740319 1.5852864e-38 332 249
0.016912652 0.74199998 -0.01170876 1.6313842e-38 333 249
0.018189078 0.741 -0.01169298 1.6406035e-38 334 249
0.019488299 0.741 -0.01169298 1.6867013e-38 335 249
0.020731414 0.73900002 -0.01166142 1.6959931e-38 336 249
0.021997318 0.73799998 -0.011645639 1.7236519e-38 337 249
0.023291279 0.73799998 -0.011645639 1.7880442e-38 338 249
0.024518613 0.736 -0.01161408 1.8064834e-38 339 249
0.025809066 0.736 -0.01161408 1.8339976e-38 340 249
0.02702588 0.73400003 -0.011582521 1.8432531e-38 341 249
0.028312827 0.73400003 -0.011582521 1.8525443e-38 342 249
0.029438468 0.73000002 -0.011519399 1.8617639e-38 343 249
0.030718399 0.73000002 -0.011519399 1.9077171e-38 344 249
0.031910665 0.72799999 -0.01148784 1.9077171e-38 345 249
0.033187091 0.72799999 -0.01148784 1.9077168e-38 346 249
0.034463517 0.72799999 -0.01148784 1.9077168e-38 347 249
0.035739943 0.72799999 -0.01148784 1.9168645e-38 348 249
0.036965527 0.727 -0.01147206 1.9168645e-38 349 249
0.038240198 0.727 -0.01147206 1.935231e-38 350 249
0.039514873 0.727 -0.01147206 1.9260115e-38 351 249
0.040789545 0.727 -0.01147206 1.9076799e-38 352 249
0.042064216 0.727 -0.01147206 1.9076799e-38 353 249
0.043338891 0.727 -0.01147206 1.8983885e-38 354 249
0.044490833 0.72500002 -0.0114405 1.8891688e-38 355 249
0.045572639 0.722 -0.01139316 1.8706941e-38 356 249
0.0467088 0.72000003 -0.011361601 1.8338518e-38 357 249
0.0479712 0.72000003 -0.011361601 1.7695315e-38 358 249
0.04902846 0.71700001 -0.01131426 1.741837e-38 359 249
0.0502856 0.71700001 -0.01131426 1.6498622e-38 360 249
0.051542737 0.71700001 -0.01131426 1.7052156e-38 361 249
0.052799881 0.71700001 -0.01131426 1.6779952e-38 362 249
-0.03528408 0.77399999 -0.013570799 1.437883e-38 294 250
-0.033927001 0.77399999 -0.013570799 1.4102242e-38 295 250
-0.032569919 0.77399999 -0.013570799 1.3733108e-38 296 250
-0.031212838 0.77399999 -0.013570799 1.364091e-38 297 250
-0.029817186 0.773 -0.013553266 1.3458318e-38 298 250
-0.028461859 0.773 -0.013553266 1.3366121e-38 299 250
-0.027106533 0.773 -0.013553266 1.3827094e-38 300 250
-0.02568458 0.77100003 -0.013518199 1.391929e-38 301 250
-0.024269639 0.76899999 -0.013483133 1.391929e-38 302 250
-0.022921326 0.76899999 -0.013483133 1.391929e-38 303 250
-0.021573013 0.76899999 -0.013483133 1.3919292e-38 304 250
-0.0202247 0.76899999 -0.013483133 1.3919292e-38 305 250
-0.018827293 0.76700002 -0.013448066 1.4010416e-38 306 250
-0.017459691 0.76599997 -0.013430533 1.4010416e-38 307 250
-0.016074561 0.764 -0.013395466 1.4010419e-38 308 250
-0.014677152 0.76099998 -0.013342866 1.4010419e-38 309 250
-0.013342866 0.76099998 -0.013342866 1.419445e-38 310 250
-0.012008579 0.76099998 -0.013342866 1.419445e-38 311 250
-0.010674292 0.76099998 -0.013342866 1.4010066e-38 312 250
-0.0093400059 0.76099998 -0.013342866 1.4194097e-38 313 250
-0.0079846792 0.759 -0.0133078 1.4194453e-38 314 250
-0.0066538998 0.759 -0.0133078 1.4194453e-38 315 250
-0.0053231199 0.759 -0.0133078 1.419445e-38 316 250
-0.0039923396 0.759 -0.0133078 1.4286647e-38 317 250
-0.0026545466 0.75700003 -0.013272733 1.437848e-38 318 250
-0.0013272733 0.75700003 -0.013272733 1.4562511e-38 319 250
0 0.755 -0.013237666 1.4654706e-38 320 250
0.0013220133 0.75400001 -0.013220133 1.4654706e-38 321 250
0.0026440267 0.75400001 -0.013220133 1.4747258e-38 322 250
0.0039555198 0.75199997 -0.013185065 1.4747258e-38 323 250
0.00526 0.75 -0.01315 1.4839807e-38 324 250
0.0065662335 0.74900001 -0.013132467 1.4932002e-38 325 250
0.0078584393 0.74699998 -0.013097399 1.5116021e-38 326 250
0.0091681797 0.74699998 -0.013097399 1.5208217e-38 327 250
0.010477919 0.74699998 -0.013097399 1.5300411e-38 328 250
0.011771879 0.74599999 -0.013079867 1.5392606e-38 329 250
0.013079867 0.74599999 -0.013079867 1.5668117e-38 330 250
0.01434928 0.74400002 -0.0130448 1.5668117e-38 331 250
0.015611678 0.74199998 -0.013009733 1.5760318e-38 332 250
0.016889861 0.741 -0.0129922 1.6128742e-38 333 250
0.018189078 0.741 -0.0129922 1.6036549e-38 334 250
0.0194357 0.73900002 -0.012957133 1.6313136e-38 335 250
0.020731414 0.73900002 -0.012957133 1.6223089e-38 336 250
0.021937706 0.736 -0.012904533 1.6591871e-38 337 250
0.023228159 0.736 -0.012904533 1.7419817e-38 338 250
0.024451986 0.73400003 -0.012869466 1.77886e-38 339 250
0.025738932 0.73400003 -0.012869466 1.8156656e-38 340 250
0.026989058 0.73299998 -0.012851933 1.8248852e-38 341 250
0.028158534 0.73000002 -0.012799333 1.8433248e-38 342 250
0.029357811 0.72799999 -0.012764266 1.8525443e-38 343 250
0.030634239 0.72799999 -0.012764266 1.8801307e-38 344 250
0.031910665 0.72799999 -0.012764266 1.8801307e-38 345 250
0.033187091 0.72799999 -0.012764266 1.8984972e-38 346 250
0.03441618 0.727 -0.012746733 1.8984972e-38 347 250
0.035690852 0.727 -0.012746733 1.9076446e-38 348 250
0.036863834 0.72500002 -0.012711667 1.9076446e-38 349 250
0.038135 0.72500002 -0.012711667 1.9077521e-38 350 250
0.039406165 0.72500002 -0.012711667 1.9077521e-38 351 250
0.040677335 0.72500002 -0.012711667 1.9077518e-38 352 250
0.041774917 0.722 -0.012659066 1.9077518e-38 353 250
0.043040827 0.722 -0.012659066 1.9076446e-38 354 250
0.044368099 0.72299999 -0.012676599 1.8984251e-38 355 250
0.045446403 0.72000003 -0.012624 1.8891335e-38 356 250
0.0467088 0.72000003 -0.012624 1.8614748e-38 357 250
0.04790457 0.71899998 -0.012606465 1.8063373e-38 358 250
0.04902846 0.71700001 -0.0125714 1.7971176e-38 359 250
0.0502856 0.71700001 -0.0125714 1.7603132e-38 360 250
0.051542737 0.71700001 -0.0125714 1.7234351e-38 361 250
0.052799881 0.71700001 -0.0125714 1.5854344e-38 362 250
0.054057021 0.71700001 -0.0125714 1.7145083e-38 363 250
-0.036593821 0.773 -0.014908593 1.3456867e-38 293 251
-0.03528408 0.77399999 -0.014927879 1.3364318e-38 294 251
-0.033927001 0.77399999 -0.014927879 1.3549068e-38 295 251
-0.032569919 0.77399999 -0.014927879 1.3640908e-38 296 251
-0.031212838 0.77399999 -0.014927879 1.3640908e-38 297 251
-0.029817186 0.773 -0.014908593 1.3458672e-38 298 251
-0.028461859 0.773 -0.014908593 1.3550867e-38 299 251
-0.027106533 0.773 -0.014908593 1.3551583e-38 300 251
-0.02568458 0.77100003 -0.01487002 1.3551583e-38 301 251
-0.02433276 0.77100003 -0.01487002 1.3827447e-38 302 251
-0.022921326 0.76899999 -0.014831445 1.3735251e-38 303 251
-0.021573013 0.76899999 -0.014831445 1.3734898e-38 304 251
-0.0202247 0.76899999 -0.014831445 1.3734898e-38 305 251
-0.018827293 0.76700002 -0.014792874 1.3826022e-38 306 251
-0.017459691 0.76599997 -0.014773586 1.3918576e-38 307 251
-0.016074561 0.764 -0.014735013 1.4101533e-38 308 251
-0.014677152 0.76099998 -0.014677152 1.4101533e-38 309 251
-0.013342866 0.76099998 -0.014677152 1.4010419e-38 310 251
-0.012008579 0.76099998 -0.014677152 1.4010419e-38 311 251
-0.010674292 0.76099998 -0.014677152 1.4101535e-38 312 251
-0.0093400059 0.76099998 -0.014677152 1.4101535e-38 313 251
-0.0079846792 0.759 -0.014638579 1.3918223e-38 314 251
-0.0066538998 0.759 -0.014638579 1.3918223e-38 315 251
-0.0053231199 0.759 -0.014638579 1.4010416e-38 316 251
-0.0039923396 0.759 -0.014638579 1.4010416e-38 317 251
-0.0026545466 0.75700003 -0.014600007 1.4377397e-38 318 251
-0.0013272733 0.75700003 -0.014600007 1.4469592e-38 319 251
0 0.755 -0.014561433 1.474546e-38 320 251
0.0013220133 0.75400001 -0.014542146 1.4837656e-38 321 251
0.0026440267 0.75400001 -0.014542146 1.4654344e-38 322 251
0.0039555198 0.75199997 -0.014503572 1.4746539e-38 323 251
0.00526 0.75 -0.014465 1.4747611e-38 324 251
0.0065662335 0.74900001 -0.014445714 1.4839807e-38 325 251
0.0078584393 0.74699998 -0.014407139 1.5023469e-38 326 251
0.0091681797 0.74699998 -0.014407139 1.5115665e-38 327 251
0.010477919 0.74699998 -0.014407139 1.5208214e-38 328 251
0.011771879 0.74599999 -0.014387853 1.5300411e-38 329 251
0.013079867 0.74599999 -0.014387853 1.5575921e-38 330 251
0.01434928 0.74400002 -0.01434928 1.5668117e-38 331 251
0.015611678 0.74199998 -0.014310705 1.5760671e-38 332 251
0.016889861 0.741 -0.01429142 1.5852867e-38 333 251
0.018189078 0.741 -0.01429142 1.6128375e-38 334 251
0.0194357 0.73900002 -0.014252847 1.6312768e-38 335 251
0.020731414 0.73900002 -0.014252847 1.6313477e-38 336 251
0.021937706 0.736 -0.014194986 1.6313477e-38 337 251
0.023165042 0.73400003 -0.014156413 1.6774801e-38 338 251
0.024451986 0.73400003 -0.014156413 1.7143225e-38 339 251
0.025703866 0.73299998 -0.014137126 1.7420889e-38 340 251
0.026915418 0.73100001 -0.014098554 1.7697478e-38 341 251
0.028081384 0.72799999 -0.014040692 1.8340329e-38 342 251
0.029357811 0.72799999 -0.014040692 1.8340329e-38 343 251
0.030592158 0.727 -0.014021406 1.8708387e-38 344 251
0.03186683 0.727 -0.014021406 1.8708387e-38 345 251
0.033141505 0.727 -0.014021406 1.8984253e-38 346 251
0.034321502 0.72500002 -0.013982833 1.8892058e-38 347 251
0.035494477 0.72299999 -0.01394426 1.8984251e-38 348 251
0.036762137 0.72299999 -0.01394426 1.8984251e-38 349 251
0.0379772 0.722 -0.013924973 1.9076449e-38 350 251
0.039243106 0.722 -0.013924973 1.9076449e-38 351 251
0.040565118 0.72299999 -0.01394426 1.9077168e-38 352 251
0.041659199 0.72000003 -0.0138864 1.9169364e-38 353 251
0.042921603 0.72000003 -0.0138864 1.9077171e-38 354 251
0.044183999 0.72000003 -0.0138864 1.8984616e-38 355 251
0.045257039 0.71700001 -0.013828539 1.8892058e-38 356 251
0.046514176 0.71700001 -0.013828539 1.8523275e-38 357 251
0.04777132 0.71700001 -0.013828539 1.8339956e-38 358 251
0.04902846 0.71700001 -0.013828539 1.8063371e-38 359 251
0.050215468 0.71600002 -0.013809253 1.7603833e-38 360 251
0.051470853 0.71600002 -0.013809253 1.7235411e-38 361 251
0.052726239 0.71600002 -0.013809253 1.6773744e-38 362 251
0.053981625 0.71600002 -0.013809253 1.6865941e-38 363 251
-0.035238493 0.773 -0.016263919 1.2537451e-38 294 252
-0.033927001 0.77399999 -0.016284959 1.2722201e-38 295 252
-0.032569919 0.77399999 -0.016284959 1.3089905e-38 296 252
-0.031212838 0.77399999 -0.016284959 1.3089905e-38 297 252
-0.029817186 0.773 -0.016263919 1.3090258e-38 298 252
-0.028461859 0.773 -0.016263919 1.3366486e-38 299 252
-0.027106533 0.773 -0.016263919 1.2908029e-38 300 252
-0.02568458 0.77100003 -0.016221842 1.2908029e-38 301 252
-0.02433276 0.77100003 -0.016221842 1.318389e-38 302 252
-0.022921326 0.76899999 -0.016179759 1.318389e-38 303 252
-0.021573013 0.76899999 -0.016179759 1.3366842e-38 304 252
-0.0202247 0.76899999 -0.016179759 1.3366842e-38 305 252
-0.018827293 0.76700002 -0.01613768 1.3550164e-38 306 252
-0.017459691 0.76599997 -0.016116638 1.3734195e-38 307 252
-0.016074561 0.764 -0.016074561 1.3734192e-38 308 252
-0.01469644 0.76200002 -0.01603248 1.3826746e-38 309 252
-0.013342866 0.76099998 -0.016011439 1.355088e-38 310 252
-0.012008579 0.76099998 -0.016011439 1.3458684e-38 311 252
-0.010674292 0.76099998 -0.016011439 1.3734195e-38 312 252
-0.0093400059 0.76099998 -0.016011439 1.3550164e-38 313 252
-0.0079846792 0.759 -0.015969358 1.3549808e-38 314 252
-0.0066538998 0.759 -0.015969358 1.3457612e-38 315 252
-0.0053231199 0.759 -0.015969358 1.3733473e-38 316 252
-0.0039923396 0.759 -0.015969358 1.3733473e-38 317 252
-0.0026545466 0.75700003 -0.015927281 1.4008618e-38 318 252
-0.0013272733 0.75700003 -0.015927281 1.4377399e-38 319 252
0 0.755 -0.015885198 1.4469239e-38 320 252
0.0013220133 0.75400001 -0.01586416 1.4377043e-38 321 252
0.0026440267 0.75400001 -0.01586416 1.428665e-38 322 252
0.0039555198 0.75199997 -0.015822079 1.4378845e-38 323 252
0.00526 0.75 -0.01578 1.4471397e-38 324 252
0.006575 0.75 -0.01578 1.4471397e-38 325 252
0.0078794798 0.74900001 -0.01575896 1.4472819e-38 326 252
0.0091681797 0.74699998 -0.015716879 1.4565015e-38 327 252
0.010477919 0.74699998 -0.015716879 1.502455e-38 328 252
0.011771879 0.74599999 -0.015695838 1.5208581e-38 329 252
0.013079867 0.74599999 -0.015695838 1.5484452e-38 330 252
0.01434928 0.74400002 -0.015653761 1.5668842e-38 331 252
0.015611678 0.74199998 -0.015611678 1.576139e-38 332 252
0.016889861 0.741 -0.01559064 1.576139e-38 333 252
0.018189078 0.741 -0.01559064 1.6037251e-38 334 252
0.0194357 0.73900002 -0.01554856 1.6129448e-38 335 252
0.020703359 0.73799998 -0.015527519 1.6036895e-38 336 252
0.021937706 0.736 -0.015485439 1.6129092e-38 337 252
0.023165042 0.73400003 -0.01544336 1.6130525e-38 338 252
0.024418673 0.73299998 -0.015422319 1.640711e-38 339 252
0.025703866 0.73299998 -0.015422319 1.6867001e-38 340 252
0.026878599 0.73000002 -0.0153592 1.7419814e-38 341 252
0.028081384 0.72799999 -0.01531712 1.7881143e-38 342 252
0.029317487 0.727 -0.015296079 1.7881143e-38 343 252
0.030592158 0.727 -0.015296079 1.8340682e-38 344 252
0.031779166 0.72500002 -0.015254001 1.8340682e-38 345 252
0.033050332 0.72500002 -0.015254001 1.8616193e-38 346 252
0.034179479 0.722 -0.015190879 1.870839e-38 347 252
0.035445385 0.722 -0.015190879 1.870839e-38 348 252
0.03671129 0.722 -0.015190879 1.870839e-38 349 252
0.037871998 0.72000003 -0.0151488 1.8800588e-38 350 252
0.039134402 0.72000003 -0.0151488 1.8984619e-38 351 252
0.040340692 0.71899998 -0.01512776 1.88935e-38 352 252
0.041485619 0.71700001 -0.015085679 1.8986054e-38 353 252
0.042742759 0.71700001 -0.015085679 1.9168645e-38 354 252
0.044122629 0.71899998 -0.01512776 1.9076449e-38 355 252
0.045257039 0.71700001 -0.015085679 1.8983885e-38 356 252
0.046514176 0.71700001 -0.015085679 1.8799492e-38 357 252
0.047704693 0.71600002 -0.01506464 1.843178e-38 358 252
0.048960082 0.71600002 -0.01506464 1.8155192e-38 359 252
0.050075196 0.71399999 -0.015022559 1.7786767e-38 360 252
0.05132708 0.71399999 -0.015022559 1.750982e-38 361 252
0.052578956 0.71399999 -0.015022559 1.732616e-38 362 252
0.053830836 0.71399999 -0.015022559 1.6865183e-38 363 252
0.05508272 0.71399999 -0.015022559 1.5301505e-38 364 252
-0.033927001 0.77399999 -0.01764204 1.2811165e-38 295 253
-0.032569919 0.77399999 -0.01764204 1.2627128e-38 296 253
-0.029817186 0.773 -0.017619247 1.2444891e-38 298 253
-0.028461859 0.773 -0.017619247 1.2537087e-38 299 253
-0.027106533 0.773 -0.017619247 1.272147e-38 300 253
-0.025751207 0.773 -0.017619247 1.2813665e-38 301 253
-0.02433276 0.77100003 -0.01757366 1.3182081e-38 302 253
-0.022921326 0.76899999 -0.017528072 1.3182081e-38 303 253
-0.021573013 0.76899999 -0.017528072 1.3273923e-38 304 253
-0.0202247 0.76899999 -0.017528072 1.3273923e-38 305 253
-0.018827293 0.76700002 -0.017482487 1.3548715e-38 306 253
-0.017459691 0.76599997 -0.017459691 1.3733108e-38 307 253
-0.016074561 0.764 -0.017414106 1.3733108e-38 308 253
-0.01469644 0.76200002 -0.01736852 1.3917139e-38 309 253
-0.013342866 0.76099998 -0.017345725 1.3458316e-38 310 253
-0.012008579 0.76099998 -0.017345725 1.3458316e-38 311 253
-0.010674292 0.76099998 -0.017345725 1.3640908e-38 312 253
-0.0093400059 0.76099998 -0.017345725 1.3548712e-38 313 253
-0.0079846792 0.759 -0.017300138 1.3456163e-38 314 253
-0.0066538998 0.759 -0.017300138 1.3363968e-38 315 253
-0.0053231199 0.759 -0.017300138 1.3361452e-38 316 253
-0.0039923396 0.759 -0.017300138 1.2992671e-38 317 253
-0.0026545466 0.75700003 -0.017254554 1.2806834e-38 318 253
-0.0013272733 0.75700003 -0.017254554 1.2991225e-38 319 253
0 0.755 -0.017208965 1.3088091e-38 320 253
0.0013220133 0.75400001 -0.017186172 1.3364318e-38 321 253
0.0026440267 0.75400001 -0.017186172 1.3640557e-38 322 253
0.0039555198 0.75199997 -0.017140586 1.400934e-38 323 253
0.00526 0.75 -0.017095 1.4193731e-38 324 253
0.006575 0.75 -0.017095 1.4562514e-38 325 253
0.0078794798 0.74900001 -0.017072206 1.4563217e-38 326 253
0.0091681797 0.74699998 -0.017026618 1.4655413e-38 327 253
0.010477919 0.74699998 -0.017026618 1.5207498e-38 328 253
0.011771879 0.74599999 -0.017003827 1.5391529e-38 329 253
0.0130448 0.74400002 -0.016958239 1.5575205e-38 330 253
0.01434928 0.74400002 -0.016958239 1.5759237e-38 331 253
0.015611678 0.74199998 -0.016912652 1.5943262e-38 332 253
0.016889861 0.741 -0.016889861 1.6035458e-38 333 253
0.018139986 0.73900002 -0.016844273 1.6035811e-38 334 253
0.0194357 0.73900002 -0.016844273 1.6219842e-38 335 253
0.020703359 0.73799998 -0.016821479 1.6129081e-38 336 253
0.021878093 0.73400003 -0.016730307 1.6129081e-38 337 253
0.023133477 0.73299998 -0.016707512 1.6404588e-38 338 253
0.024418673 0.73299998 -0.016707512 1.6589338e-38 339 253
0.025598666 0.73000002 -0.016639132 1.6681886e-38 340 253
0.026804959 0.72799999 -0.016593546 1.6865918e-38 341 253
0.028042812 0.727 -0.016570752 1.7052108e-38 342 253
0.029317487 0.727 -0.016570752 1.7420889e-38 343 253
0.030508002 0.72500002 -0.016525166 1.8338528e-38 344 253
0.031647664 0.722 -0.016456785 1.8523278e-38 345 253
0.032913569 0.722 -0.016456785 1.8707662e-38 346 253
0.034179479 0.722 -0.016456785 1.8707662e-38 347 253
0.035347197 0.72000003 -0.0164112 1.8891335e-38 348 253
0.036609601 0.72000003 -0.0164112 1.8983532e-38 349 253
0.037714198 0.71700001 -0.016342819 1.8800938e-38 350 253
0.038916986 0.71600002 -0.016320027 1.898497e-38 351 253
0.040172372 0.71600002 -0.016320027 1.9077168e-38 352 253
0.041427758 0.71600002 -0.016320027 1.9077168e-38 353 253
0.042683143 0.71600002 -0.016320027 1.9077168e-38 354 253
0.043938532 0.71600002 -0.016320027 1.8984972e-38 355 253
0.045193922 0.71600002 -0.016320027 1.8800938e-38 356 253
0.046449307 0.71600002 -0.016320027 1.8616546e-38 357 253
0.047704693 0.71600002 -0.016320027 1.8524345e-38 358 253
0.048960082 0.71600002 -0.016320027 1.8155922e-38 359 253
0.050075196 0.71399999 -0.016274439 1.8061927e-38 360 253
0.051255193 0.713 -0.016251646 1.7693146e-38 361 253
0.052358042 0.71100003 -0.01620606 1.7143215e-38 362 253
0.053604662 0.71100003 -0.01620606 1.7235411e-38 363 253
0.054851279 0.71100003 -0.01620606 1.7233272e-38 364 253
-0.021573013 0.76899999 -0.018876385 1.2630003e-38 304 254
-0.0202247 0.76899999 -0.018876385 1.2722198e-38 305 254
-0.018827293 0.76700002 -0.018827293 1.2905157e-38 306 254
-0.017459691 0.76599997 -0.018802745 1.2997712e-38 307 254
-0.016116638 0.76599997 -0.018802745 1.2997712e-38 308 254
-0.01469644 0.76200002 -0.01870456 1.3089907e-38 309 254
-0.0133604 0.76200002 -0.01870456 1.3090258e-38 310 254
-0.012008579 0.76099998 -0.018680012 1.3090258e-38 311 254
-0.010674292 0.76099998 -0.018680012 1.3181374e-38 312 254
-0.0093400059 0.76099998 -0.018680012 1.3089179e-38 313 254
-0.0080057196 0.76099998 -0.018680012 1.3089179e-38 314 254
-0.0066538998 0.759 -0.01863092 1.2812952e-38 315 254
-0.0053231199 0.759 -0.01863092 1.3085942e-38 316 254
-0.0039923396 0.759 -0.01863092 1.2808996e-38 317 254
-0.00266156 0.759 -0.01863092 1.2991242e-38 318 254
-0.0013272733 0.75700003 -0.018581826 1.3175633e-38 319 254
0 0.755 -0.018532733 1.2900494e-38 320 254
0.0013237667 0.755 -0.018532733 1.3084885e-38 321 254
0.0026440267 0.75400001 -0.018508185 1.2900128e-38 322 254
0.0039555198 0.75199997 -0.018459093 1.326855e-38 323 254
0.0052740262 0.75199997 -0.018459093 1.3181024e-38 324 254
0.006575 0.75 -0.018409999 1.3826393e-38 325 254
0.0078794798 0.74900001 -0.018385453 1.4379196e-38 326 254
0.0091681797 0.74699998 -0.018336359 1.4379196e-38 327 254
0.010477919 0.74699998 -0.018336359 1.4839807e-38 328 254
0.011771879 0.74599999 -0.018311813 1.4932002e-38 329 254
0.0130448 0.74400002 -0.01826272 1.5208231e-38 330 254
0.01434928 0.74400002 -0.01826272 1.5300426e-38 331 254
0.015611678 0.74199998 -0.018213626 1.5667767e-38 332 254
0.016889861 0.741 -0.018189078 1.5759962e-38 333 254
0.018139986 0.73900002 -0.018139986 1.5852511e-38 334 254
0.0194357 0.73900002 -0.018139986 1.5852511e-38 335 254
0.020647252 0.736 -0.018066347 1.6036895e-38 336 254
0.021878093 0.73400003 -0.018017253 1.6129092e-38 337 254
0.023133477 0.73299998 -0.017992707 1.6129446e-38 338 254
0.024318734 0.73000002 -0.017919067 1.6221641e-38 339 254
0.025598666 0.73000002 -0.017919067 1.6314914e-38 340 254
0.026804959 0.72799999 -0.017869972 1.6314914e-38 341 254
0.028042812 0.727 -0.017845426 1.6589703e-38 342 254
0.029236834 0.72500002 -0.017796334 1.7142877e-38 343 254
0.030381758 0.722 -0.017722692 1.760421e-38 344 254
0.031647664 0.722 -0.017722692 1.7972991e-38 345 254
0.0328224 0.72000003 -0.017673599 1.8248136e-38 346 254
0.03403746 0.71899998 -0.017649053 1.8340332e-38 347 254
0.035298105 0.71899998 -0.017649053 1.8432524e-38 348 254
0.036457058 0.71700001 -0.017599959 1.8432524e-38 349 254
0.037661601 0.71600002 -0.017575413 1.8800585e-38 350 254
0.038808275 0.71399999 -0.017526319 1.8984616e-38 351 254
0.040060159 0.71399999 -0.017526319 1.9077171e-38 352 254
0.041138459 0.71100003 -0.01745268 1.9077171e-38 353 254
0.042385083 0.71100003 -0.01745268 1.9077165e-38 354 254
0.043754432 0.713 -0.017501773 1.898497e-38 355 254
0.044878319 0.71100003 -0.01745268 1.8984601e-38 356 254
0.046060063 0.70999998 -0.017428132 1.8892405e-38 357 254
0.047304932 0.70999998 -0.017428132 1.8800196e-38 358 254
0.048549797 0.70999998 -0.017428132 1.8615446e-38 359 254
0.049794663 0.70999998 -0.017428132 1.8431783e-38 360 254
0.051111419 0.71100003 -0.01745268 1.8154836e-38 361 254
0.052284397 0.70999998 -0.017428132 1.7786782e-38 362 254
0.053303085 0.70700002 -0.017354494 1.7694587e-38 363 254
0.054542694 0.70700002 -0.017354494 1.7326878e-38 364 254
0.055861197 0.708 -0.017379038 1.6773704e-38 365 254
0.056699295 0.70300001 -0.017256306 1.5485524e-38 366 254
0.057931885 0.70300001 -0.017256306 1.5854306e-38 367 254
-0.017482487 0.76700002 -0.020172099 1.2721119e-38 307 255
-0.016116638 0.76599997 -0.020145798 1.2812949e-38 308 255
-0.014735013 0.764 -0.020093199 1.2905145e-38 309 255
-0.013395466 0.764 -0.020093199 1.2814018e-38 310 255
-0.012008579 0.76099998 -0.020014299 1.2814018e-38 311 255
-0.010674292 0.76099998 -0.020014299 1.2814018e-38 312 255
-0.0093400059 0.76099998 -0.020014299 1.2721823e-38 313 255
-0.0080057196 0.76099998 -0.020014299 1.2813302e-38 314 255
-0.0066714329 0.76099998 -0.020014299 1.2813302e-38 315 255
-0.0053231199 0.759 -0.0199617 1.2904412e-38 316 255
-0.0039923396 0.759 -0.0199617 1.2812216e-38 317 255
-0.00266156 0.759 -0.0199617 1.2995166e-38 318 255
-0.0013272733 0.75700003 -0.019909101 1.2811134e-38 319 255
0 0.75700003 -0.019909101 1.2904052e-38 320 255
0.0013237667 0.755 -0.0198565 1.2627106e-38 321 255
0.0026440267 0.75400001 -0.019830201 1.2991944e-38 322 255
0.0039555198 0.75199997 -0.0197776 1.2623163e-38 323 255
0.0052740262 0.75199997 -0.0197776 1.1982834e-38 324 255
0.006575 0.75 -0.019724999 1.3181377e-38 325 255
0.0078794798 0.74900001 -0.0196987 1.4011125e-38 326 255
0.0091681797 0.74699998 -0.019646099 1.4195156e-38 327 255
0.010477919 0.74699998 -0.019646099 1.4746887e-38 328 255
0.011771879 0.74599999 -0.019619798 1.5023472e-38 329 255
0.0130448 0.74400002 -0.019567199 1.5207868e-38 330 255
0.01434928 0.74400002 -0.019567199 1.5300063e-38 331 255
0.015611678 0.74199998 -0.0195146 1.5759239e-38 332 255
0.016889861 0.741 -0.019488299 1.5851435e-38 333 255
0.018139986 0.73900002 -0.0194357 1.5851788e-38 334 255
0.0194357 0.73900002 -0.0194357 1.6036179e-38 335 255
0.020647252 0.736 -0.019356798 1.6036177e-38 336 255
0.021878093 0.73400003 -0.019304199 1.6128731e-38 337 255
0.023133477 0.73299998 -0.019277899 1.6220925e-38 338 255
0.024318734 0.73000002 -0.019199001 1.6220925e-38 339 255
0.025528532 0.72799999 -0.0191464 1.6313477e-38 340 255
0.026768139 0.727 -0.019120099 1.6313477e-38 341 255
0.028042812 0.727 -0.019120099 1.6313474e-38 342 255
0.029115854 0.722 -0.0189886 1.6497505e-38 343 255
0.0302976 0.72000003 -0.018935999 1.6959194e-38 344 255
0.031516165 0.71899998 -0.018909698 1.7604563e-38 345 255
0.032685637 0.71700001 -0.018857099 1.8063376e-38 346 255
0.03389544 0.71600002 -0.0188308 1.8339603e-38 347 255
0.035150826 0.71600002 -0.0188308 1.8523994e-38 348 255
0.036406212 0.71600002 -0.0188308 1.861619e-38 349 255
0.037503798 0.713 -0.018751899 1.8892058e-38 350 255
0.038645219 0.71100003 -0.0186993 1.8984253e-38 351 255
0.039835732 0.70999998 -0.018672999 1.8984253e-38 352 255
0.041080594 0.70999998 -0.018672999 1.9076449e-38 353 255
0.042325463 0.70999998 -0.018672999 1.9076452e-38 354 255
0.043570329 0.70999998 -0.018672999 1.9076452e-38 355 255
0.044815198 0.70999998 -0.018672999 1.9077168e-38 356 255
0.045930319 0.708 -0.0186204 1.8800941e-38 357 255
0.047171678 0.708 -0.0186204 1.8801292e-38 358 255
0.048413038 0.708 -0.0186204 1.8524345e-38 359 255
0.049654398 0.708 -0.0186204 1.8708013e-38 360 255
0.050895758 0.708 -0.0186204 1.8523982e-38 361 255
0.051989835 0.70599997 -0.018567799 1.8339232e-38 362 255
0.053227689 0.70599997 -0.018567799 1.8062643e-38 363 255
0.054465543 0.70599997 -0.018567799 1.7511622e-38 364 255
0.055545598 0.704 -0.018515198 1.7419426e-38 365 255
0.056699295 0.70300001 -0.018488899 1.6866994e-38 366 255
0.057931885 0.70300001 -0.018488899 1.5945038e-38 367 255
0.059164476 0.70300001 -0.018488899 1.4569373e-38 368 255
-0.010674292 0.76099998 -0.021348584 1.2537434e-38 312 256
-0.0093400059 0.76099998 -0.021348584 1.2445239e-38 313 256
-0.0080057196 0.76099998 -0.021348584 1.2628551e-38 314 256
-0.0066714329 0.76099998 -0.021348584 1.2628551e-38 315 256
-0.0053371461 0.76099998 -0.021348584 1.272182e-38 316 256
-0.0039923396 0.759 -0.02129248 1.2537787e-38 317 256
-0.00266156 0.759 -0.02129248 1.262926e-38 318 256
-0.00133078 0.759 -0.02129248 1.2536706e-38 319 256
0 0.759 -0.02129248 1.2628907e-38 320 256
0.0013272733 0.75700003 -0.021236373 1.2628907e-38 321 256
0.0026475333 0.755 -0.021180267 1.2903699e-38 322 256
0.00396604 0.75400001 -0.021152213 1.2811503e-38 323 256
0.0052740262 0.75199997 -0.021096105 1.2627835e-38 324 256
0.006575 0.75 -0.02104 1.3181009e-38 325 256
0.0078794798 0.74900001 -0.021011947 1.3734177e-38 326 256
0.0091681797 0.74699998 -0.020955838 1.3918927e-38 327 256
0.010477919 0.74699998 -0.020955838 1.4378827e-38 328 256
0.011771879 0.74599999 -0.020927785 1.4655413e-38 329 256
0.0130448 0.74400002 -0.02087168 1.5023116e-38 330 256
0.01434928 0.74400002 -0.02087168 1.5115312e-38 331 256
0.015611678 0.74199998 -0.020815572 1.5482657e-38 332 256
0.016889861 0.741 -0.020787518 1.5758883e-38 333 256
0.018139986 0.73900002 -0.020731414 1.5759239e-38 334 256
0.019409399 0.73799998 -0.020703359 1.5943631e-38 335 256
0.020591147 0.73400003 -0.020591147 1.5943984e-38 336 256
0.021848286 0.73299998 -0.020563092 1.6036179e-38 337 256
0.023133477 0.73299998 -0.020563092 1.6220925e-38 338 256
0.024318734 0.73000002 -0.020478934 1.6220925e-38 339 256
0.025528532 0.72799999 -0.020422826 1.6220925e-38 340 256
0.026768139 0.727 -0.020394772 1.6313121e-38 341 256
0.027965667 0.72500002 -0.020338668 1.6313477e-38 342 256
0.029035201 0.72000003 -0.020198401 1.6313477e-38 343 256
0.0302976 0.72000003 -0.020198401 1.6865918e-38 344 256
0.031428497 0.71700001 -0.020114239 1.723506e-38 345 256
0.032640055 0.71600002 -0.020086186 1.7512363e-38 346 256
0.033800758 0.71399999 -0.020030079 1.7604919e-38 347 256
0.035052639 0.71399999 -0.020030079 1.8339247e-38 348 256
0.036253672 0.713 -0.020002026 1.8431801e-38 349 256
0.037398599 0.71100003 -0.01994592 1.8523994e-38 350 256
0.038590867 0.70999998 -0.019917866 1.8708387e-38 351 256
0.039723519 0.708 -0.01986176 1.8800941e-38 352 256
0.040964879 0.708 -0.01986176 1.8800941e-38 353 256
0.042206239 0.708 -0.01986176 1.89839e-38 354 256
0.043447599 0.708 -0.01986176 1.9076096e-38 355 256
0.044625837 0.70700002 -0.019833706 1.9076452e-38 356 256
0.04580057 0.70599997 -0.019805651 1.9076452e-38 357 256
0.047038425 0.70599997 -0.019805651 1.8801292e-38 358 256
0.048276275 0.70599997 -0.019805651 1.861654e-38 359 256
0.04951413 0.70599997 -0.019805651 1.870801e-38 360 256
0.050608214 0.704 -0.019749546 1.8431783e-38 361 256
0.051842559 0.704 -0.019749546 1.8339585e-38 362 256
0.053076904 0.704 -0.019749546 1.8247389e-38 363 256
0.054311249 0.704 -0.019749546 1.7879681e-38 364 256
0.0554667 0.70300001 -0.019721493 1.769529e-38 365 256
0.056699295 0.70300001 -0.019721493 1.7143209e-38 366 256
0.057931885 0.70300001 -0.019721493 1.6590036e-38 367 256
0.059164476 0.70300001 -0.019721493 1.5209678e-38 368 256
0.06039707 0.70300001 -0.019721493 1.5762852e-38 369 256
-0.00133078 0.759 -0.02262326 1.2352337e-38 319 257
0 0.759 -0.02262326 1.2352693e-38 320 257
0.0013272733 0.75700003 -0.022563647 1.2537084e-38 321 257
0.0026475333 0.755 -0.022504034 1.2813297e-38 322 257
0.00396604 0.75400001 -0.022474226 1.27211e-38 323 257
0.0052740262 0.75199997 -0.022414612 1.2996965e-38 324 257
0.0065925326 0.75199997 -0.022414612 1.3181356e-38 325 257
0.00789 0.75 -0.022355 1.3274629e-38 326 257
0.0091927266 0.74900001 -0.022325192 1.3459022e-38 327 257
0.010477919 0.74699998 -0.022265578 1.4010041e-38 328 257
0.011771879 0.74599999 -0.022235774 1.4286986e-38 329 257
0.013079867 0.74599999 -0.022235774 1.4654338e-38 330 257
0.01434928 0.74400002 -0.022176161 1.4839088e-38 331 257
0.015611678 0.74199998 -0.022116546 1.5207147e-38 332 257
0.016889861 0.741 -0.02208674 1.539118e-38 333 257
0.018115439 0.73799998 -0.021997318 1.5575208e-38 334 257
0.019356798 0.736 -0.021937706 1.5759239e-38 335 257
0.020591147 0.73400003 -0.021878093 1.5851788e-38 336 257
0.021848286 0.73299998 -0.021848286 1.6036179e-38 337 257
0.02307036 0.73100001 -0.021788673 1.6036532e-38 338 257
0.024252106 0.72799999 -0.021699252 1.6128728e-38 339 257
0.025528532 0.72799999 -0.021699252 1.6129448e-38 340 257
0.026768139 0.727 -0.021669446 1.6129448e-38 341 257
0.027849946 0.722 -0.021520413 1.6220922e-38 342 257
0.029035201 0.72000003 -0.021460801 1.6497508e-38 343 257
0.0302976 0.72000003 -0.021460801 1.6590054e-38 344 257
0.031384666 0.71600002 -0.021341572 1.6682249e-38 345 257
0.032548878 0.71399999 -0.021281958 1.732725e-38 346 257
0.033800758 0.71399999 -0.021281958 1.7603836e-38 347 257
0.035003547 0.713 -0.021252153 1.8155566e-38 348 257
0.036253672 0.713 -0.021252153 1.8339956e-38 349 257
0.037345998 0.70999998 -0.021162732 1.8524347e-38 350 257
0.038482159 0.708 -0.021103119 1.8616543e-38 351 257
0.039723519 0.708 -0.021103119 1.8892055e-38 352 257
0.040907022 0.70700002 -0.021073313 1.8892055e-38 353 257
0.042087011 0.70599997 -0.021043506 1.8891702e-38 354 257
0.043324865 0.70599997 -0.021043506 1.8983898e-38 355 257
0.044562716 0.70599997 -0.021043506 1.8800588e-38 356 257
0.045670826 0.704 -0.020983893 1.8984619e-38 357 257
0.046905171 0.704 -0.020983893 1.9077165e-38 358 257
0.048071139 0.70300001 -0.020954086 1.8800938e-38 359 257
0.049303733 0.70300001 -0.020954086 1.8616896e-38 360 257
0.050536323 0.70300001 -0.020954086 1.85247e-38 361 257
0.051768921 0.70300001 -0.020954086 1.8432505e-38 362 257
0.053001512 0.70300001 -0.020954086 1.833995e-38 363 257
0.054234106 0.70300001 -0.020954086 1.7971524e-38 364 257
0.0554667 0.70300001 -0.020954086 1.7787133e-38 365 257
0.056537982 0.70099998 -0.020894472 1.751055e-38 366 257
0.057767071 0.70099998 -0.020894472 1.7326157e-38 367 257
0.058996156 0.70099998 -0.020894472 1.6130527e-38 368 257
0.060225245 0.70099998 -0.020894472 1.5392962e-38 369 257
0.06145433 0.70099998 -0.020894472 1.5214392e-38 370 257
0.00396604 0.75400001 -0.02379624 1.2903343e-38 323 258
0.0052880533 0.75400001 -0.02379624 1.2904412e-38 324 258
0.0065925326 0.75199997 -0.023733119 1.2996968e-38 325 258
0.00789 0.75 -0.023669999 1.3181356e-38 326 258
0.0092049995 0.75 -0.023669999 1.3181356e-38 327 258
0.010477919 0.74699998 -0.023575317 1.3824926e-38 328 258
0.011771879 0.74599999 -0.023543758 1.4009678e-38 329 258
0.013079867 0.74599999 -0.023543758 1.4011841e-38 330 258
0.01434928 0.74400002 -0.023480639 1.4196234e-38 331 258
0.015611678 0.74199998 -0.023417519 1.520535e-38 332 258
0.016889861 0.741 -0.023385961 1.5573772e-38 333 258
0.018115439 0.73799998 -0.023291279 1.5574125e-38 334 258
0.019356798 0.736 -0.023228159 1.5758518e-38 335 258
0.020591147 0.73400003 -0.023165042 1.5759587e-38 336 258
0.021848286 0.73299998 -0.023133477 1.5944337e-38 337 258
0.02307036 0.73100001 -0.02307036 1.5944337e-38 338 258
0.024252106 0.72799999 -0.022975679 1.6036532e-38 339 258
0.025493465 0.727 -0.022944121 1.6128731e-38 340 258
0.026584039 0.722 -0.022786319 1.6128731e-38 341 258
0.027849946 0.722 -0.022786319 1.6220925e-38 342 258
0.029035201 0.72000003 -0.022723202 1.6313121e-38 343 258
0.030171359 0.71700001 -0.02262852 1.6497861e-38 344 258
0.031384666 0.71600002 -0.022596961 1.6682252e-38 345 258
0.032548878 0.71399999 -0.022533838 1.6866998e-38 346 258
0.033753417 0.713 -0.022502279 1.7235779e-38 347 258
0.035003547 0.713 -0.022502279 1.7972623e-38 348 258
0.036151983 0.71100003 -0.022439159 1.7972623e-38 349 258
0.0372408 0.708 -0.022344479 1.8523631e-38 350 258
0.038427804 0.70700002 -0.022312919 1.8707662e-38 351 258
0.039611302 0.70599997 -0.022281358 1.8891688e-38 352 258
0.040733438 0.704 -0.022218239 1.8799492e-38 353 258
0.041967787 0.704 -0.022218239 1.8891332e-38 354 258
0.043140765 0.70300001 -0.02218668 1.8891332e-38 355 258
0.04437336 0.70300001 -0.02218668 1.8892058e-38 356 258
0.04560595 0.70300001 -0.02218668 1.9076449e-38 357 258
0.046705291 0.70099998 -0.022123558 1.898497e-38 358 258
0.047934376 0.70099998 -0.022123558 1.8800938e-38 359 258
0.049163464 0.70099998 -0.022123558 1.870874e-38 360 258
0.050392549 0.70099998 -0.022123558 1.8524347e-38 361 258
0.051621638 0.70099998 -0.022123558 1.8523994e-38 362 258
0.052850723 0.70099998 -0.022123558 1.8523994e-38 363 258
0.054079808 0.70099998 -0.022123558 1.8155572e-38 364 258
0.055229999 0.69999999 -0.022091998 1.797082e-38 365 258
0.056457333 0.69999999 -0.022091998 1.7694234e-38 366 258
0.05768466 0.69999999 -0.022091998 1.7510202e-38 367 258
0.058911994 0.69999999 -0.022091998 1.6682255e-38 368 258
0.060139328 0.69999999 -0.022091998 1.6221278e-38 369 258
0.061191335 0.69800001 -0.02202888 1.5025662e-38 370 258
0.062415157 0.69800001 -0.02202888 1.6039456e-38 371 258
0.0079110395 0.75199997 -0.025051624 1.2446313e-38 326 259
0.0092049995 0.75 -0.024984999 1.2446313e-38 327 259
0.010505973 0.74900001 -0.024951685 1.3181009e-38 328 259
0.011787659 0.74699998 -0.024885058 1.33654e-38 329 259
0.013097399 0.74699998 -0.024885058 1.3275372e-38 330 259
0.014387853 0.74599999 -0.024851745 1.3551599e-38 331 259
0.015653761 0.74400002 -0.02478512 1.4469945e-38 332 259
0.016889861 0.741 -0.024685178 1.4654338e-38 333 259
0.018139986 0.73900002 -0.024618553 1.5022751e-38 334 259
0.019304199 0.73400003 -0.024451986 1.5391533e-38 335 259
0.020591147 0.73400003 -0.024451986 1.5575921e-38 336 259
0.021848286 0.73299998 -0.024418673 1.5668117e-38 337 259
0.023038799 0.73000002 -0.024318734 1.5668836e-38 338 259
0.024252106 0.72799999 -0.024252106 1.576139e-38 339 259
0.025493465 0.727 -0.024218792 1.5852867e-38 340 259
0.026584039 0.722 -0.024052227 1.6036898e-38 341 259
0.027772799 0.72000003 -0.0239856 1.6129448e-38 342 259
0.028914221 0.71700001 -0.02388566 1.631384e-38 343 259
0.03012928 0.71600002 -0.023852346 1.6497152e-38 344 259
0.031296998 0.71399999 -0.02378572 1.6589706e-38 345 259
0.032503292 0.713 -0.023752406 1.6681899e-38 346 259
0.033753417 0.713 -0.023752406 1.6866292e-38 347 259
0.034905359 0.71100003 -0.023685781 1.7512014e-38 348 259
0.036101133 0.70999998 -0.023652466 1.7880795e-38 349 259
0.037188202 0.70700002 -0.023552528 1.8339253e-38 350 259
0.038373452 0.70599997 -0.023519212 1.8431448e-38 351 259
0.039499093 0.704 -0.023452586 1.852435e-38 352 259
0.040675577 0.70300001 -0.023419274 1.852435e-38 353 259
0.041908171 0.70300001 -0.023419274 1.8707662e-38 354 259
0.043018032 0.70099998 -0.023352645 1.8707662e-38 355 259
0.044247117 0.70099998 -0.023352645 1.870839e-38 356 259
0.04541133 0.69999999 -0.023319334 1.8984616e-38 357 259
0.046638668 0.69999999 -0.023319334 1.8800938e-38 358 259
0.047865998 0.69999999 -0.023319334 1.8800938e-38 359 259
0.049093332 0.69999999 -0.023319334 1.9075e-38 360 259
0.050320663 0.69999999 -0.023319334 1.8982805e-38 361 259
0.051547997 0.69999999 -0.023319334 1.8707662e-38 362 259
0.052775331 0.69999999 -0.023319334 1.8523631e-38 363 259
0.053848371 0.69800001 -0.023252707 1.8155566e-38 364 259
0.0550722 0.69800001 -0.023252707 1.7971174e-38 365 259
0.056296028 0.69800001 -0.023252707 1.7878259e-38 366 259
0.05743745 0.69700003 -0.023219392 1.7693868e-38 367 259
0.05865952 0.69700003 -0.023219392 1.7233623e-38 368 259
0.059967503 0.69800001 -0.023252707 1.6865199e-38 369 259
0.061191335 0.69800001 -0.023252707 1.5299707e-38 370 259
0.062415157 0.69800001 -0.023252707 1.5207512e-38 371 259
0.063638985 0.69800001 -0.023252707 1.6504793e-38 372 259
0.01052 0.75 -0.0263 1.3087008e-38 328 260
0.01181922 0.74900001 -0.026264934 1.3179204e-38 329 260
0.013097399 0.74699998 -0.026194798 1.3181009e-38 330 260
0.014387853 0.74599999 -0.026159734 1.33654e-38 331 260
0.015653761 0.74400002 -0.026089599 1.3550517e-38 332 260
0.016889861 0.741 -0.025984399 1.3826744e-38 333 260
0.018139986 0.73900002 -0.025914267 1.4378833e-38 334 260
0.019304199 0.73400003 -0.025738932 1.4747255e-38 335 260
0.020563092 0.73299998 -0.025703866 1.5207145e-38 336 260
0.021788673 0.73100001 -0.025633732 1.5483373e-38 337 260
0.023038799 0.73000002 -0.025598666 1.5851432e-38 338 260
0.024252106 0.72799999 -0.025528532 1.6036182e-38 339 260
0.025493465 0.727 -0.025493465 1.5852864e-38 340 260
0.026584039 0.722 -0.025318133 1.6036895e-38 341 260
0.027772799 0.72000003 -0.025248 1.6220922e-38 342 260
0.028873893 0.71600002 -0.025107734 1.6313477e-38 343 260
0.030045118 0.71399999 -0.025037598 1.6496433e-38 344 260
0.031296998 0.71399999 -0.025037598 1.6588987e-38 345 260
0.032503292 0.713 -0.025002534 1.6772297e-38 346 260
0.033611398 0.70999998 -0.024897331 1.6956688e-38 347 260
0.034758076 0.708 -0.024827199 1.7143228e-38 348 260
0.03599944 0.708 -0.024827199 1.7419814e-38 349 260
0.037135597 0.70599997 -0.024757065 1.8064092e-38 350 260
0.038264744 0.704 -0.024686933 1.8064092e-38 351 260
0.039442986 0.70300001 -0.024651866 1.843143e-38 352 260
0.040559858 0.70099998 -0.024581732 1.843143e-38 353 260
0.041729331 0.69999999 -0.024546666 1.8523628e-38 354 260
0.042833932 0.69800001 -0.024476532 1.870766e-38 355 260
0.04405776 0.69800001 -0.024476532 1.8799861e-38 356 260
0.045281585 0.69800001 -0.024476532 1.8892058e-38 357 260
0.046505414 0.69800001 -0.024476532 1.8983898e-38 358 260
0.047729239 0.69800001 -0.024476532 1.8983898e-38 359 260
0.048882935 0.69700003 -0.024441468 1.8983179e-38 360 260
0.050105009 0.69700003 -0.024441468 1.8890982e-38 361 260
0.051327083 0.69700003 -0.024441468 1.843288e-38 362 260
0.052549154 0.69700003 -0.024441468 1.8340685e-38 363 260
0.053771228 0.69700003 -0.024441468 1.8155935e-38 364 260
0.054914396 0.69599998 -0.0244064 1.8063739e-38 365 260
0.056134716 0.69599998 -0.0244064 1.7786426e-38 366 260
0.057355035 0.69599998 -0.0244064 1.7694231e-38 367 260
0.058575355 0.69599998 -0.0244064 1.7326527e-38 368 260
0.059795678 0.69599998 -0.0244064 1.704994e-38 369 260
0.061015997 0.69599998 -0.0244064 1.6129446e-38 370 260
0.062236317 0.69599998 -0.0244064 1.5761022e-38 371 260
0.014407139 0.74699998 -0.027504537 1.2720396e-38 331 261
0.015695838 0.74599999 -0.027467718 1.3088472e-38 332 261
0.016912652 0.74199998 -0.027320439 1.3365419e-38 333 261
0.018139986 0.73900002 -0.027209979 1.3643081e-38 334 261
0.019304199 0.73400003 -0.02702588 1.3827472e-38 335 261
0.020563092 0.73299998 -0.026989058 1.465506e-38 336 261
0.021788673 0.73100001 -0.026915418 1.4931646e-38 337 261
0.023038799 0.73000002 -0.026878599 1.5392259e-38 338 261
0.024252106 0.72799999 -0.026804959 1.5668486e-38 339 261
0.025318133 0.722 -0.026584039 1.576139e-38 340 261
0.026510401 0.72000003 -0.026510401 1.5853586e-38 341 261
0.027657079 0.71700001 -0.02639994 1.6129448e-38 342 261
0.028873893 0.71600002 -0.026363119 1.6221644e-38 343 261
0.030045118 0.71399999 -0.026289478 1.6313121e-38 344 261
0.031253166 0.713 -0.026252659 1.6313121e-38 345 261
0.032412119 0.71100003 -0.026179021 1.6588631e-38 346 261
0.033611398 0.70999998 -0.026142199 1.6588631e-38 347 261
0.034758076 0.708 -0.026068559 1.6958113e-38 348 261
0.035948593 0.70700002 -0.02603174 1.723506e-38 349 261
0.037030395 0.704 -0.02592128 1.806444e-38 350 261
0.038210396 0.70300001 -0.025884461 1.806444e-38 351 261
0.039330769 0.70099998 -0.025810819 1.8156641e-38 352 261
0.040502001 0.69999999 -0.025773998 1.8248837e-38 353 261
0.041610107 0.69800001 -0.025700359 1.8248484e-38 354 261
0.042772565 0.69700003 -0.025663542 1.8340679e-38 355 261
0.043994639 0.69700003 -0.025663542 1.8616195e-38 356 261
0.045216713 0.69700003 -0.025663542 1.8708392e-38 357 261
0.046438783 0.69700003 -0.025663542 1.89839e-38 358 261
0.047592476 0.69599998 -0.025626717 1.89839e-38 359 261
0.048812799 0.69599998 -0.025626717 1.8983535e-38 360 261
0.050033119 0.69599998 -0.025626717 1.8983535e-38 361 261
0.051106159 0.69400001 -0.025553079 1.8799855e-38 362 261
0.052322973 0.69400001 -0.025553079 1.870766e-38 363 261
0.053694077 0.69599998 -0.025626717 1.8339956e-38 364 261
0.054756597 0.69400001 -0.025553079 1.7971174e-38 365 261
0.055973411 0.69400001 -0.025553079 1.8062643e-38 366 261
0.057190225 0.69400001 -0.025553079 1.7786417e-38 367 261
0.058407038 0.69400001 -0.025553079 1.7326154e-38 368 261
0.059623852 0.69400001 -0.025553079 1.7233959e-38 369 261
0.060840666 0.69400001 -0.025553079 1.6589688e-38 370 261
0.061968062 0.69300002 -0.02551626 1.5944319e-38 371 261
0.063274294 0.69400001 -0.025553079 1.4748717e-38 372 261
0.016958239 0.74400002 -0.02869856 1.336397e-38 333 262
0.018189078 0.741 -0.028582839 1.3090976e-38 334 262
0.019304199 0.73400003 -0.028312827 1.3275369e-38 335 262
0.020563092 0.73299998 -0.028274251 1.4194806e-38 336 262
0.021788673 0.73100001 -0.028197108 1.456359e-38 337 262
0.023038799 0.73000002 -0.028158534 1.5115668e-38 338 262
0.024252106 0.72799999 -0.028081384 1.5207865e-38 339 262
0.025318133 0.722 -0.027849946 1.5851783e-38 340 262
0.026510401 0.72000003 -0.027772799 1.5944337e-38 341 262
0.027618507 0.71600002 -0.027618507 1.6129081e-38 342 262
0.028873893 0.71600002 -0.027618507 1.6313474e-38 343 262
0.030003037 0.713 -0.027502786 1.6313474e-38 344 262
0.031165501 0.71100003 -0.027425639 1.6497505e-38 345 262
0.032366529 0.70999998 -0.027387066 1.6680098e-38 346 262
0.033516716 0.708 -0.027309919 1.6772653e-38 347 262
0.034708988 0.70700002 -0.027271347 1.6957392e-38 348 262
0.035897743 0.70599997 -0.027232772 1.741837e-38 349 262
0.036977798 0.70300001 -0.027117053 1.7787858e-38 350 262
0.038210396 0.70300001 -0.027117053 1.7787858e-38 351 262
0.039162453 0.69800001 -0.026924185 1.8155919e-38 352 262
0.040386278 0.69800001 -0.026924185 1.8155919e-38 353 262
0.041550495 0.69700003 -0.026885614 1.8523631e-38 354 262
0.042711195 0.69599998 -0.026847038 1.8523631e-38 355 262
0.043805279 0.69400001 -0.026769891 1.8707309e-38 356 262
0.045022093 0.69400001 -0.026769891 1.8799505e-38 357 262
0.046238903 0.69400001 -0.026769891 1.8983179e-38 358 262
0.047455717 0.69400001 -0.026769891 1.8983179e-38 359 262
0.048602402 0.69300002 -0.02673132 1.9167566e-38 360 262
0.049817458 0.69300002 -0.02673132 1.8983535e-38 361 262
0.051032521 0.69300002 -0.02673132 1.8799858e-38 362 262
0.05224758 0.69300002 -0.02673132 1.8707662e-38 363 262
0.053462639 0.69300002 -0.02673132 1.83396e-38 364 262
0.054677699 0.69300002 -0.02673132 1.8063373e-38 365 262
0.055892758 0.69300002 -0.02673132 1.7878978e-38 366 262
0.056942999 0.69099998 -0.026654173 1.7786782e-38 367 262
0.058154557 0.69099998 -0.026654173 1.732688e-38 368 262
0.059366114 0.69099998 -0.026654173 1.7234325e-38 369 262
0.060752999 0.69300002 -0.02673132 1.6680802e-38 370 262
0.061968062 0.69300002 -0.02673132 1.6404574e-38 371 262
0.063274294 0.69400001 -0.026769891 1.4654709e-38 372 262
0.064491108 0.69400001 -0.026769891 1.5392274e-38 373 262
0.019356798 0.736 -0.029680425 1.2905876e-38 335 263
0.020591147 0.73400003 -0.029599773 1.3457968e-38 336 263
0.021848286 0.73299998 -0.029559445 1.3918586e-38 337 263
0.023038799 0.73000002 -0.029438468 1.4378833e-38 338 263
0.024252106 0.72799999 -0.029357811 1.4747255e-38 339 263
0.025318133 0.722 -0.029115854 1.5207862e-38 340 263
0.026510401 0.72000003 -0.029035201 1.5484808e-38 341 263
0.027618507 0.71600002 -0.028873893 1.6128728e-38 342 263
0.028873893 0.71600002 -0.028873893 1.6313121e-38 343 263
0.029918881 0.71100003 -0.028672259 1.6497505e-38 344 263
0.031121666 0.70999998 -0.028631933 1.6497505e-38 345 263
0.03227536 0.708 -0.02855128 1.6681536e-38 346 263
0.033516716 0.708 -0.02855128 1.6681536e-38 347 263
0.034659892 0.70599997 -0.028470624 1.6958116e-38 348 263
0.035796054 0.704 -0.028389972 1.7050313e-38 349 263
0.036977798 0.70300001 -0.028349647 1.7603117e-38 350 263
0.038047329 0.69999999 -0.028228667 1.7695313e-38 351 263
0.039162453 0.69800001 -0.028148014 1.8063727e-38 352 263
0.040328421 0.69700003 -0.028107686 1.8063727e-38 353 263
0.041371655 0.69400001 -0.027986705 1.8338881e-38 354 263
0.042527102 0.69300002 -0.027946379 1.8431077e-38 355 263
0.043615919 0.69099998 -0.027865725 1.8614392e-38 356 263
0.044827472 0.69099998 -0.027865725 1.8799142e-38 357 263
0.04617228 0.69300002 -0.027946379 1.8891335e-38 358 263
0.047387339 0.69300002 -0.027946379 1.8891335e-38 359 263
0.04846213 0.69099998 -0.027865725 1.8891332e-38 360 263
0.049673684 0.69099998 -0.027865725 1.8891332e-38 361 263
0.050811596 0.69 -0.027825398 1.8799492e-38 362 263
0.052021399 0.69 -0.027825398 1.8707297e-38 363 263
