# .PCD v.7 - Point Cloud Data file format
FIELDS x y z rgb imX imY
SIZE 4 4 4 4 4 4
TYPE F F F F F F
COUNT 1 1 1 1 1 1
WIDTH 840
HEIGHT 1
VIEWPOINT 0 0 0 1 0 0 0
POINTS 840
DATA ascii
-0.10239466 0.80000001 0.0098186666 1.7613328e-38 247 233
-0.100992 0.80000001 0.0098186666 1.6690261e-38 248 233
-0.099838302 0.80199999 0.0098432126 1.3832198e-38 249 233
-0.098186664 0.80000001 0.0098186666 1.456394e-38 250 233
-0.096783996 0.80000001 0.0098186666 1.4932723e-38 251 233
-0.095619783 0.80199999 0.0098432126 1.6036514e-38 252 233
-0.094213605 0.80199999 0.0098432126 1.6312741e-38 253 233
-0.092575997 0.80000001 0.0098186666 1.6681884e-38 254 233
-0.091173328 0.80000001 0.0098186666 1.695811e-38 255 233
-0.089546233 0.79799998 0.0097941197 1.7142859e-38 256 233
-0.088147074 0.79799998 0.0097941197 1.732725e-38 257 233
-0.086747915 0.79799998 0.0097941197 1.7327606e-38 258 233
-0.085348755 0.79799998 0.0097941197 1.7327606e-38 259 233
-0.083739199 0.796 0.0097695729 1.741872e-38 260 233
-0.082343549 0.796 0.0097695729 1.7234327e-38 261 233
-0.080947891 0.796 0.0097695729 1.7050293e-38 262 233
-0.079552241 0.796 0.0097695729 1.6773707e-38 263 233
-0.078156583 0.796 0.0097695729 1.6588236e-38 264 233
-0.076760925 0.796 0.0097695729 1.6219814e-38 265 233
-0.075554639 0.79799998 0.0097941197 1.5668075e-38 266 233
-0.074155472 0.79799998 0.0097941197 1.5575879e-38 267 233
-0.072756313 0.79799998 0.0097941197 1.5114907e-38 268 233
-0.071535997 0.80000001 0.0098186666 1.4469539e-38 269 233
-0.070133328 0.80000001 0.0098186666 1.2996951e-38 270 233
-0.068902493 0.80199999 0.0098432126 1.2443778e-38 271 233
-0.067580476 0.80299997 0.0098554865 1.289938e-38 272 233
-0.066337362 0.80500001 0.0098800333 1.2530599e-38 273 233
-0.064925931 0.80500001 0.0098800333 1.1705158e-38 274 233
-0.063356698 0.80299997 0.0098554865 1.1520408e-38 275 233
-0.061948773 0.80299997 0.0098554865 1.0229337e-38 276 233
-0.060842417 0.80699998 0.0099045793 8.1091979e-39 277 233
-0.10239466 0.80000001 0.0084159998 1.7797722e-38 247 234
-0.100992 0.80000001 0.0084159998 1.641403e-38 248 234
-0.099838302 0.80199999 0.0084370393 1.3371215e-38 249 234
-0.098186664 0.80000001 0.0084159998 1.5023472e-38 250 234
-0.096783996 0.80000001 0.0084159998 1.5392256e-38 251 234
-0.095619783 0.80199999 0.0084370393 1.6127631e-38 252 234
-0.093978666 0.80000001 0.0084159998 1.6680805e-38 253 234
-0.092575997 0.80000001 0.0084159998 1.686483e-38 254 234
-0.090945393 0.79799998 0.0083949603 1.7233611e-38 255 234
-0.089546233 0.79799998 0.0083949603 1.7418001e-38 256 234
-0.088147074 0.79799998 0.0083949603 1.7510197e-38 257 234
-0.086747915 0.79799998 0.0083949603 1.741872e-38 258 234
-0.085134849 0.796 0.0083739199 1.741872e-38 259 234
-0.083739199 0.796 0.0083739199 1.7326527e-38 260 234
-0.082343549 0.796 0.0083739199 1.723433e-38 261 234
-0.080947891 0.796 0.0083739199 1.6958101e-38 262 234
-0.079552241 0.796 0.0083739199 1.6681155e-38 263 234
-0.078156583 0.796 0.0083739199 1.6404927e-38 264 234
-0.076760925 0.796 0.0083739199 1.6127981e-38 265 234
-0.075554639 0.79799998 0.0083949603 1.5576608e-38 266 234
-0.074155472 0.79799998 0.0083949603 1.5300021e-38 267 234
-0.072756313 0.79799998 0.0083949603 1.474794e-38 268 234
-0.071357153 0.79799998 0.0083949603 1.4010375e-38 269 234
-0.070133328 0.80000001 0.0084159998 1.2995163e-38 270 234
-0.068902493 0.80199999 0.0084370393 1.2165762e-38 271 234
-0.067580476 0.80299997 0.0084475596 1.225581e-38 272 234
-0.066337362 0.80500001 0.0084686 1.225581e-38 273 234
-0.064925931 0.80500001 0.0084686 1.1612607e-38 274 234
-0.063356698 0.80299997 0.0084475596 1.1428215e-38 275 234
-0.061948773 0.80299997 0.0084475596 9.675809e-39 276 234
-0.060842417 0.80699998 0.0084896395 7.6475051e-39 277 234
-0.10239466 0.80000001 0.007013333 1.7520779e-38 247 235
-0.100992 0.80000001 0.007013333 1.5769731e-38 248 235
-0.099838302 0.80199999 0.0070308661 1.2450688e-38 249 235
-0.098186664 0.80000001 0.007013333 1.5113864e-38 250 235
-0.096783996 0.80000001 0.007013333 1.5759234e-38 251 235
-0.095619783 0.80199999 0.0070308661 1.6036517e-38 252 235
-0.093978666 0.80000001 0.007013333 1.6497136e-38 253 235
-0.092575997 0.80000001 0.007013333 1.7048864e-38 254 235
-0.090945393 0.79799998 0.0069957995 1.7325451e-38 255 235
-0.089321814 0.796 0.0069782664 1.7418004e-38 256 235
-0.087926157 0.796 0.0069782664 1.75102e-38 257 235
-0.086530507 0.796 0.0069782664 1.7693512e-38 258 235
-0.085134849 0.796 0.0069782664 1.7693512e-38 259 235
-0.083739199 0.796 0.0069782664 1.7601313e-38 260 235
-0.082343549 0.796 0.0069782664 1.7416921e-38 261 235
-0.080947891 0.796 0.0069782664 1.7049214e-38 262 235
-0.079552241 0.796 0.0069782664 1.6680791e-38 263 235
-0.078156583 0.796 0.0069782664 1.6496041e-38 264 235
-0.076760925 0.796 0.0069782664 1.6127618e-38 265 235
-0.075365283 0.796 0.0069782664 1.5668081e-38 266 235
-0.073969625 0.796 0.0069782664 1.5391495e-38 267 235
-0.072756313 0.79799998 0.0069957995 1.483869e-38 268 235
-0.071357153 0.79799998 0.0069957995 1.4101125e-38 269 235
-0.070133328 0.80000001 0.007013333 1.2718933e-38 270 235
-0.068902493 0.80199999 0.0070308661 1.2442345e-38 271 235
-0.067580476 0.80299997 0.0070396326 1.2348724e-38 272 235
-0.066337362 0.80500001 0.0070571667 1.2164333e-38 273 235
-0.064925931 0.80500001 0.0070571667 1.1795919e-38 274 235
-0.063356698 0.80299997 0.0070396326 1.1242746e-38 275 235
-0.061948773 0.80299997 0.0070396326 8.7570854e-39 276 235
-0.060691636 0.80500001 0.0070571667 7.0050083e-39 277 235
-0.10239466 0.80000001 0.0056106667 1.7243472e-38 247 236
-0.100992 0.80000001 0.0056106667 1.5492055e-38 248 236
-0.099838302 0.80199999 0.0056246929 1.2633631e-38 249 236
-0.09794119 0.79799998 0.0055966396 1.5298246e-38 250 236
-0.096542038 0.79799998 0.0055966396 1.5943615e-38 251 236
-0.095381334 0.80000001 0.0056106667 1.6127631e-38 252 236
-0.093978666 0.80000001 0.0056106667 1.6680805e-38 253 236
-0.092344552 0.79799998 0.0055966396 1.7048864e-38 254 236
-0.090717465 0.796 0.0055826134 1.7325451e-38 255 236
-0.089321814 0.796 0.0055826134 1.7418007e-38 256 236
-0.087926157 0.796 0.0055826134 1.7510202e-38 257 236
-0.086530507 0.796 0.0055826134 1.75102e-38 258 236
-0.08492095 0.79400003 0.0055685868 1.75102e-38 259 236
-0.083528802 0.79400003 0.0055685868 1.7418001e-38 260 236
-0.082136653 0.79400003 0.0055685868 1.7141413e-38 261 236
-0.080744505 0.79400003 0.0055685868 1.7049212e-38 262 236
-0.079352364 0.79400003 0.0055685868 1.6680788e-38 263 236
-0.077960216 0.79400003 0.0055685868 1.6037221e-38 264 236
-0.076760925 0.796 0.0055826134 1.5945025e-38 265 236
-0.075365283 0.796 0.0055826134 1.5760276e-38 266 236
-0.073969625 0.796 0.0055826134 1.52993e-38 267 236
-0.072756313 0.79799998 0.0055966396 1.4838696e-38 268 236
-0.071357153 0.79799998 0.0055966396 1.4008576e-38 269 236
-0.070133328 0.80000001 0.0056106667 1.2627106e-38 270 236
-0.068902493 0.80199999 0.0056246929 1.2258682e-38 271 236
-0.067580476 0.80299997 0.0056317062 1.2348727e-38 272 236
-0.066337362 0.80500001 0.0056457333 1.2163977e-38 273 236
-0.064925931 0.80500001 0.0056457333 1.1887401e-38 274 236
-0.063514493 0.80500001 0.0056457333 1.0965086e-38 275 236
-0.062103067 0.80500001 0.0056457333 8.2046305e-39 276 236
-0.060691636 0.80500001 0.0056457333 6.9138917e-39 277 236
-0.10239466 0.80000001 0.0042079999 1.7059078e-38 247 237
-0.100992 0.80000001 0.0042079999 1.5214742e-38 248 237
-0.099589325 0.80000001 0.0042079999 1.2909492e-38 249 237
-0.09794119 0.79799998 0.0041974802 1.5574107e-38 250 237
-0.096542038 0.79799998 0.0041974802 1.6035085e-38 251 237
-0.095381334 0.80000001 0.0042079999 1.6127631e-38 252 237
-0.093978666 0.80000001 0.0042079999 1.6680805e-38 253 237
-0.092344552 0.79799998 0.0041974802 1.6865552e-38 254 237
-0.090717465 0.796 0.0041869599 1.7233974e-38 255 237
-0.089321814 0.796 0.0041869599 1.7325451e-38 256 237
-0.087926157 0.796 0.0041869599 1.7510202e-38 257 237
-0.086530507 0.796 0.0041869599 1.7326527e-38 258 237
-0.08492095 0.79400003 0.0041764397 1.7418723e-38 259 237
-0.083528802 0.79400003 0.0041764397 1.7234327e-38 260 237
-0.082136653 0.79400003 0.0041764397 1.7050296e-38 261 237
-0.080744505 0.79400003 0.0041764397 1.6773707e-38 262 237
-0.079352364 0.79400003 0.0041764397 1.6588955e-38 263 237
-0.077960216 0.79400003 0.0041764397 1.622053e-38 264 237
-0.076568067 0.79400003 0.0041764397 1.6036139e-38 265 237
-0.075175926 0.79400003 0.0041764397 1.5484763e-38 266 237
-0.073969625 0.796 0.0041869599 1.5208176e-38 267 237
-0.072573967 0.796 0.0041869599 1.4929807e-38 268 237
-0.071357153 0.79799998 0.0041974802 1.3916015e-38 269 237
-0.070133328 0.80000001 0.0042079999 1.2810055e-38 270 237
-0.068902493 0.80199999 0.0042185197 1.2533469e-38 271 237
-0.067580476 0.80299997 0.0042237798 1.2348727e-38 272 237
-0.066172548 0.80299997 0.0042237798 1.2163977e-38 273 237
-0.064925931 0.80500001 0.0042343 1.1519342e-38 274 237
-0.063514493 0.80500001 0.0042343 1.0043853e-38 275 237
-0.062103067 0.80500001 0.0042343 8.2035613e-39 276 237
-0.10239466 0.80000001 0.0028053334 1.6965808e-38 247 238
-0.100992 0.80000001 0.0028053334 1.5213661e-38 248 238
-0.099340349 0.79799998 0.0027983198 1.2909129e-38 249 238
-0.09794119 0.79799998 0.0027983198 1.5666658e-38 250 238
-0.096542038 0.79799998 0.0027983198 1.6035082e-38 251 238
-0.095142879 0.79799998 0.0027983198 1.6219829e-38 252 238
-0.093743719 0.79799998 0.0027983198 1.6588253e-38 253 238
-0.092344552 0.79799998 0.0027983198 1.6681886e-38 254 238
-0.090717465 0.796 0.0027913067 1.6958113e-38 255 238
-0.089321814 0.796 0.0027913067 1.7049946e-38 256 238
-0.087926157 0.796 0.0027913067 1.7326174e-38 257 238
-0.086530507 0.796 0.0027913067 1.7235411e-38 258 238
-0.08492095 0.79400003 0.0027842934 1.7143215e-38 259 238
-0.083528802 0.79400003 0.0027842934 1.7051015e-38 260 238
-0.082136653 0.79400003 0.0027842934 1.6866265e-38 261 238
-0.080744505 0.79400003 0.0027842934 1.6865181e-38 262 238
-0.079352364 0.79400003 0.0027842934 1.6588592e-38 263 238
-0.077960216 0.79400003 0.0027842934 1.6220886e-38 264 238
-0.076568067 0.79400003 0.0027842934 1.6036136e-38 265 238
-0.075175926 0.79400003 0.0027842934 1.5667709e-38 266 238
-0.07378377 0.79400003 0.0027842934 1.5391122e-38 267 238
-0.072573967 0.796 0.0027913067 1.4653577e-38 268 238
-0.071178317 0.796 0.0027913067 1.3823816e-38 269 238
-0.069957994 0.79799998 0.0027983198 1.280933e-38 270 238
-0.068730667 0.80000001 0.0028053334 1.2624938e-38 271 238
-0.067496315 0.80199999 0.0028123464 1.2348712e-38 272 238
-0.066172548 0.80299997 0.0028158531 1.216396e-38 273 238
-0.064925931 0.80500001 0.0028228667 1.1793405e-38 274 238
-0.063514493 0.80500001 0.0028228667 9.8572967e-39 275 238
-0.10213868 0.79799998 0.0013991599 1.6597384e-38 247 239
-0.10073951 0.79799998 0.0013991599 1.5028902e-38 248 239
-0.099091381 0.796 0.0013956534 1.3092794e-38 249 239
-0.097695731 0.796 0.0013956534 1.5849599e-38 250 239
-0.096300073 0.796 0.0013956534 1.621838e-38 251 239
-0.094904423 0.796 0.0013956534 1.6219461e-38 252 239
-0.093508773 0.796 0.0013956534 1.6680438e-38 253 239
-0.092113115 0.796 0.0013956534 1.6864833e-38 254 239
-0.090717465 0.796 0.0013956534 1.714106e-38 255 239
-0.089097388 0.79400003 0.0013921467 1.6957748e-38 256 239
-0.08770524 0.79400003 0.0013921467 1.7233974e-38 257 239
-0.086313091 0.79400003 0.0013921467 1.7143215e-38 258 239
-0.08492095 0.79400003 0.0013921467 1.7143215e-38 259 239
-0.083528802 0.79400003 0.0013921467 1.6958466e-38 260 239
-0.082136653 0.79400003 0.0013921467 1.6866271e-38 261 239
-0.080541119 0.792 0.0013886399 1.6590041e-38 262 239
-0.07915248 0.792 0.0013886399 1.640529e-38 263 239
-0.077960216 0.79400003 0.0013921467 1.6037221e-38 264 239
-0.076568067 0.79400003 0.0013921467 1.5852471e-38 265 239
-0.075175926 0.79400003 0.0013921467 1.5943586e-38 266 239
-0.07378377 0.79400003 0.0013921467 1.5482968e-38 267 239
-0.072573967 0.796 0.0013956534 1.4193326e-38 268 239
-0.071178317 0.796 0.0013956534 1.3547957e-38 269 239
-0.069957994 0.79799998 0.0013991599 1.2992647e-38 270 239
-0.068558834 0.79799998 0.0013991599 1.2716421e-38 271 239
-0.067327999 0.80000001 0.0014026667 1.2073216e-38 272 239
-0.066090144 0.80199999 0.0014061732 1.1981021e-38 273 239
-0.064683966 0.80199999 0.0014061732 1.0964739e-38 274 239
-0.1018827 0.796 -0 1.5952015e-38 247 240
-0.10048704 0.796 -0 1.5027827e-38 248 240
-0.099091381 0.796 -0 1.3460502e-38 249 240
-0.097695731 0.796 -0 1.5759204e-38 250 240
-0.096300073 0.796 -0 1.5943237e-38 251 240
-0.094904423 0.796 -0 1.5944319e-38 252 240
-0.093508773 0.796 -0 1.6312741e-38 253 240
-0.091881685 0.79400003 -0 1.6497142e-38 254 240
-0.090489529 0.79400003 -0 1.6865564e-38 255 240
-0.089097388 0.79400003 -0 1.6957763e-38 256 240
-0.08770524 0.79400003 -0 1.704996e-38 257 240
-0.086313091 0.79400003 -0 1.6866998e-38 258 240
-0.08492095 0.79400003 -0 1.6774801e-38 259 240
-0.083528802 0.79400003 -0 1.7049946e-38 260 240
-0.082136653 0.79400003 -0 1.6865196e-38 261 240
-0.080541119 0.792 -0 1.6773353e-38 262 240
-0.07915248 0.792 -0 1.6404571e-38 263 240
-0.077960216 0.79400003 -0 1.622053e-38 264 240
-0.076568067 0.79400003 -0 1.5943942e-38 265 240
-0.075175926 0.79400003 -0 1.5759182e-38 266 240
-0.07378377 0.79400003 -0 1.5390399e-38 267 240
-0.072573967 0.796 -0 1.4193676e-38 268 240
-0.071178317 0.796 -0 1.3640504e-38 269 240
-0.069957994 0.79799998 -0 1.3452185e-38 270 240
-0.068558834 0.79799998 -0 1.3083042e-38 271 240
-0.067327999 0.80000001 -0 1.253274e-38 272 240
-0.065925337 0.80000001 -0 1.1979925e-38 273 240
-0.064522661 0.80000001 -0 1.1697982e-38 274 240
-0.1018827 0.796 -0.0013956534 1.5674709e-38 247 241
-0.10048704 0.796 -0.0013956534 1.4935632e-38 248 241
-0.098842412 0.79400003 -0.0013921467 1.3184274e-38 249 241
-0.097450264 0.79400003 -0.0013921467 1.5574091e-38 250 241
-0.096058123 0.79400003 -0.0013921467 1.5942873e-38 251 241
-0.094665974 0.79400003 -0.0013921467 1.6035786e-38 252 241
-0.093273826 0.79400003 -0.0013921467 1.6312731e-38 253 241
-0.091881685 0.79400003 -0.0013921467 1.6587886e-38 254 241
-0.090489529 0.79400003 -0.0013921467 1.6772637e-38 255 241
-0.088872954 0.792 -0.0013886399 1.6865199e-38 256 241
-0.087484315 0.792 -0.0013886399 1.6957394e-38 257 241
-0.086095676 0.792 -0.0013886399 1.704959e-38 258 241
-0.084707037 0.792 -0.0013886399 1.6957394e-38 259 241
-0.083528802 0.79400003 -0.0013921467 1.6957392e-38 260 241
-0.082136653 0.79400003 -0.0013921467 1.6865196e-38 261 241
-0.080541119 0.792 -0.0013886399 1.649749e-38 262 241
-0.07915248 0.792 -0.0013886399 1.6313097e-38 263 241
-0.077960216 0.79400003 -0.0013921467 1.6036867e-38 264 241
-0.076375201 0.792 -0.0013886399 1.575992e-38 265 241
-0.074986562 0.792 -0.0013886399 1.5484412e-38 266 241
-0.07378377 0.79400003 -0.0013921467 1.5115271e-38 267 241
-0.072391629 0.79400003 -0.0013921467 1.4100056e-38 268 241
-0.070999481 0.79400003 -0.0013921467 1.3638717e-38 269 241
-0.069782659 0.796 -0.0013956534 1.2993728e-38 270 241
-0.068558834 0.79799998 -0.0013991599 1.2716781e-38 271 241
-0.067159683 0.79799998 -0.0013991599 1.2073935e-38 272 241
-0.065760516 0.79799998 -0.0013991599 1.1705153e-38 273 241
-0.064361356 0.79799998 -0.0013991599 1.0965089e-38 274 241
-0.1018827 0.796 -0.0027913067 1.539704e-38 247 242
-0.10023456 0.79400003 -0.0027842934 1.4567925e-38 248 242
-0.098842412 0.79400003 -0.0027842934 1.3092794e-38 249 242
-0.097204797 0.792 -0.0027772798 1.52993e-38 250 242
-0.095816158 0.792 -0.0027772798 1.5668081e-38 251 242
-0.094427519 0.792 -0.0027772798 1.6035788e-38 252 242
-0.093273826 0.79400003 -0.0027842934 1.622018e-38 253 242
-0.091650233 0.792 -0.0027772798 1.6312025e-38 254 242
-0.090261593 0.792 -0.0027772798 1.6588253e-38 255 242
-0.088648535 0.79000002 -0.0027702667 1.6589335e-38 256 242
-0.087263398 0.79000002 -0.0027702667 1.6681531e-38 257 242
-0.08587826 0.79000002 -0.0027702667 1.6865562e-38 258 242
-0.084493138 0.79000002 -0.0027702667 1.6681531e-38 259 242
-0.083318397 0.792 -0.0027772798 1.6865196e-38 260 242
-0.081929758 0.792 -0.0027772798 1.6773e-38 261 242
-0.080541119 0.792 -0.0027772798 1.6588961e-38 262 242
-0.07915248 0.792 -0.0027772798 1.6404571e-38 263 242
-0.077960216 0.79400003 -0.0027842934 1.6036865e-38 264 242
-0.076375201 0.792 -0.0027772798 1.5760276e-38 265 242
-0.074986562 0.792 -0.0027772798 1.5575163e-38 266 242
-0.073597915 0.792 -0.0027772798 1.5114185e-38 267 242
-0.072391629 0.79400003 -0.0027842934 1.4008213e-38 268 242
-0.070999481 0.79400003 -0.0027842934 1.3455039e-38 269 242
-0.069782659 0.796 -0.0027913067 1.3084842e-38 270 242
-0.068387017 0.796 -0.0027913067 1.2900449e-38 271 242
-0.066991359 0.796 -0.0027913067 1.2165409e-38 272 242
-0.065760516 0.79799998 -0.0027983198 1.1796625e-38 273 242
-0.064361356 0.79799998 -0.0027983198 1.0872172e-38 274 242
-0.10162671 0.79400003 -0.0041764397 1.5029339e-38 247 243
-0.10023456 0.79400003 -0.0041764397 1.4198417e-38 248 243
-0.098593436 0.792 -0.00416592 1.3460852e-38 249 243
-0.097204797 0.792 -0.00416592 1.5574807e-38 250 243
-0.095816158 0.792 -0.00416592 1.5667362e-38 251 243
-0.094427519 0.792 -0.00416592 1.5943591e-38 252 243
-0.093038872 0.792 -0.00416592 1.6127984e-38 253 243
-0.091418803 0.79000002 -0.0041554002 1.6219827e-38 254 243
-0.090033665 0.79000002 -0.0041554002 1.6404577e-38 255 243
-0.088536315 0.78899997 -0.0041501396 1.6680807e-38 256 243
-0.087152928 0.78899997 -0.0041501396 1.6773003e-38 257 243
-0.085769556 0.78899997 -0.0041501396 1.6865202e-38 258 243
-0.08438617 0.78899997 -0.0041501396 1.6772647e-38 259 243
-0.083108 0.79000002 -0.0041554002 1.6772647e-38 260 243
-0.081722863 0.79000002 -0.0041554002 1.6680452e-38 261 243
-0.080337733 0.79000002 -0.0041554002 1.6588609e-38 262 243
-0.078952603 0.79000002 -0.0041554002 1.6312022e-38 263 243
-0.077567466 0.79000002 -0.0041554002 1.6127987e-38 264 243
-0.076182336 0.79000002 -0.0041554002 1.5943237e-38 265 243
-0.074797198 0.79000002 -0.0041554002 1.5667009e-38 266 243
-0.073597915 0.792 -0.00416592 1.5113835e-38 267 243
-0.072209276 0.792 -0.00416592 1.3823832e-38 268 243
-0.070999481 0.79400003 -0.0041764397 1.3455408e-38 269 243
-0.069607332 0.79400003 -0.0041764397 1.3084842e-38 270 243
-0.068387017 0.796 -0.0041869599 1.2716418e-38 271 243
-0.066991359 0.796 -0.0041869599 1.1980665e-38 272 243
-0.065595701 0.796 -0.0041869599 1.1520045e-38 273 243
-0.10275935 0.792 -0.0055545596 1.761153e-38 246 244
-0.10137071 0.792 -0.0055545596 1.4661629e-38 247 244
-0.099982075 0.792 -0.0055545596 1.3922186e-38 248 244
-0.098593436 0.792 -0.0055545596 1.3276817e-38 249 244
-0.097204797 0.792 -0.0055545596 1.5482612e-38 250 244
-0.0955742 0.79000002 -0.0055405335 1.5574807e-38 251 244
-0.094189063 0.79000002 -0.0055405335 1.5942873e-38 252 244
-0.093038872 0.792 -0.0055545596 1.6127265e-38 253 244
-0.091418803 0.79000002 -0.0055405335 1.6127634e-38 254 244
-0.089919694 0.78899997 -0.0055335197 1.6312025e-38 255 244
-0.088536315 0.78899997 -0.0055335197 1.6588256e-38 256 244
-0.087152928 0.78899997 -0.0055335197 1.6680452e-38 257 244
-0.085552141 0.787 -0.005519493 1.6771931e-38 258 244
-0.084172271 0.787 -0.005519493 1.6679735e-38 259 244
-0.083002798 0.78899997 -0.0055335197 1.6404588e-38 260 244
-0.081619412 0.78899997 -0.0055335197 1.6312391e-38 261 244
-0.080236033 0.78899997 -0.0055335197 1.6312022e-38 262 244
-0.078852654 0.78899997 -0.0055335197 1.6219827e-38 263 244
-0.077469274 0.78899997 -0.0055335197 1.6127268e-38 264 244
-0.076182336 0.79000002 -0.0055405335 1.5942517e-38 265 244
-0.074797198 0.79000002 -0.0055405335 1.5574457e-38 266 244
-0.073412068 0.79000002 -0.0055405335 1.5021283e-38 267 244
-0.072026931 0.79000002 -0.0055405335 1.3639801e-38 268 244
-0.070820637 0.792 -0.0055545596 1.3362854e-38 269 244
-0.069607332 0.79400003 -0.0055685868 1.2902251e-38 270 244
-0.068215191 0.79400003 -0.0055685868 1.2533469e-38 271 244
-0.066991359 0.796 -0.0055826134 1.2440569e-38 272 244
-0.065595701 0.796 -0.0055826134 1.1426417e-38 273 244
-0.10249986 0.79000002 -0.0069256667 1.770336e-38 246 245
-0.10111474 0.79000002 -0.0069256667 1.4845294e-38 247 245
-0.099982075 0.792 -0.0069431998 1.4105854e-38 248 245
-0.098593436 0.792 -0.0069431998 1.3552681e-38 249 245
-0.097204797 0.792 -0.0069431998 1.5299302e-38 250 245
-0.0955742 0.79000002 -0.0069256667 1.5391498e-38 251 245
-0.094189063 0.79000002 -0.0069256667 1.5666658e-38 252 245
-0.092803933 0.79000002 -0.0069256667 1.5942887e-38 253 245
-0.091418803 0.79000002 -0.0069256667 1.5943968e-38 254 245
-0.089919694 0.78899997 -0.0069168997 1.6220195e-38 255 245
-0.088311888 0.787 -0.0068993662 1.6403867e-38 256 245
-0.086932018 0.787 -0.0068993662 1.6588259e-38 257 245
-0.085552141 0.787 -0.0068993662 1.6403517e-38 258 245
-0.084172271 0.787 -0.0068993662 1.6311322e-38 259 245
-0.082792401 0.787 -0.0068993662 1.6036532e-38 260 245
-0.081619412 0.78899997 -0.0069168997 1.6036532e-38 261 245
-0.080236033 0.78899997 -0.0069168997 1.6036161e-38 262 245
-0.078852654 0.78899997 -0.0069168997 1.585177e-38 263 245
-0.077469274 0.78899997 -0.0069168997 1.5943591e-38 264 245
-0.076182336 0.79000002 -0.0069256667 1.5667006e-38 265 245
-0.074797198 0.79000002 -0.0069256667 1.5390063e-38 266 245
-0.073412068 0.79000002 -0.0069256667 1.5021639e-38 267 245
-0.072026931 0.79000002 -0.0069256667 1.3547248e-38 268 245
-0.070820637 0.792 -0.0069431998 1.3270661e-38 269 245
-0.069607332 0.79400003 -0.0069607338 1.2810055e-38 270 245
-0.068215191 0.79400003 -0.0069607338 1.2533469e-38 271 245
-0.066991359 0.796 -0.0069782664 1.2348021e-38 272 245
-0.065595701 0.796 -0.0069782664 1.1242032e-38 273 245
-0.10237011 0.78899997 -0.0083002793 1.7796277e-38 246 246
-0.10098673 0.78899997 -0.0083002793 1.4845657e-38 247 246
-0.099982075 0.792 -0.0083318399 1.4197701e-38 248 246
-0.098593436 0.792 -0.0083318399 1.3644527e-38 249 246
-0.096959338 0.79000002 -0.0083108004 1.5481543e-38 250 246
-0.0955742 0.79000002 -0.0083108004 1.5573738e-38 251 246
-0.094189063 0.79000002 -0.0083108004 1.5665211e-38 252 246
-0.092803933 0.79000002 -0.0083108004 1.6218385e-38 253 246
-0.091303073 0.78899997 -0.0083002793 1.6127631e-38 254 246
-0.089919694 0.78899997 -0.0083002793 1.6312022e-38 255 246
-0.088311888 0.787 -0.0082792398 1.6495337e-38 256 246
-0.086932018 0.787 -0.0082792398 1.6495337e-38 257 246
-0.085552141 0.787 -0.0082792398 1.6402426e-38 258 246
-0.084172271 0.787 -0.0082792398 1.631023e-38 259 246
-0.082792401 0.787 -0.0082792398 1.6217676e-38 260 246
-0.081412524 0.787 -0.0082792398 1.6217676e-38 261 246
-0.080032654 0.787 -0.0082792398 1.6126912e-38 262 246
-0.078852654 0.78899997 -0.0083002793 1.6126912e-38 263 246
-0.077469274 0.78899997 -0.0083002793 1.5759557e-38 264 246
-0.076085895 0.78899997 -0.0083002793 1.5574807e-38 265 246
-0.074797198 0.79000002 -0.0083108004 1.5207807e-38 266 246
-0.073412068 0.79000002 -0.0083108004 1.4378045e-38 267 246
-0.072209276 0.792 -0.0083318399 1.3548307e-38 268 246
-0.070820637 0.792 -0.0083318399 1.3271361e-38 269 246
-0.069607332 0.79400003 -0.0083528794 1.2626387e-38 270 246
-0.068215191 0.79400003 -0.0083528794 1.2441995e-38 271 246
-0.066991359 0.796 -0.0083739199 1.2165077e-38 272 246
-0.065595701 0.796 -0.0083739199 1.0782142e-38 273 246
-0.10211062 0.787 -0.0096591124 1.7796996e-38 246 247
-0.10073075 0.787 -0.0096591124 1.4570149e-38 247 247
-0.099729598 0.79000002 -0.0096959332 1.4105868e-38 248 247
-0.09834446 0.79000002 -0.0096959332 1.3552695e-38 249 247
-0.096959338 0.79000002 -0.0096959332 1.52064e-38 250 247
-0.09545321 0.78899997 -0.0096836593 1.52064e-38 251 247
-0.094069831 0.78899997 -0.0096836593 1.5574457e-38 252 247
-0.092686452 0.78899997 -0.0096836593 1.594324e-38 253 247
-0.091303073 0.78899997 -0.0096836593 1.5944321e-38 254 247
-0.089691758 0.787 -0.0096591124 1.6036517e-38 255 247
-0.088311888 0.787 -0.0096591124 1.6219832e-38 256 247
-0.086932018 0.787 -0.0096591124 1.6127278e-38 257 247
-0.085552141 0.787 -0.0096591124 1.5574457e-38 258 247
-0.084172271 0.787 -0.0096591124 1.5113838e-38 259 247
-0.082792401 0.787 -0.0096591124 1.5113131e-38 260 247
-0.081412524 0.787 -0.0096591124 1.5481914e-38 261 247
-0.080032654 0.787 -0.0096591124 1.5390807e-38 262 247
-0.078652777 0.787 -0.0096591124 1.5483362e-38 263 247
-0.077272899 0.787 -0.0096591124 1.5667006e-38 264 247
-0.076085895 0.78899997 -0.0096836593 1.5482615e-38 265 247
-0.074702516 0.78899997 -0.0096836593 1.4931569e-38 266 247
-0.073412068 0.79000002 -0.0096959332 1.4378396e-38 267 247
-0.072209276 0.792 -0.0097204801 1.3180598e-38 268 247
-0.070820637 0.792 -0.0097204801 1.2996207e-38 269 247
-0.069607332 0.79400003 -0.0097450269 1.2992647e-38 270 247
-0.068215191 0.79400003 -0.0097450269 1.2716421e-38 271 247
-0.066991359 0.796 -0.0097695729 1.2255109e-38 272 247
-0.065595701 0.796 -0.0097695729 1.096437e-38 273 247
-0.10211062 0.787 -0.011038986 1.7612237e-38 246 248
-0.10073075 0.787 -0.011038986 1.4477585e-38 247 248
-0.099729598 0.79000002 -0.011081067 1.3828909e-38 248 248
-0.09834446 0.79000002 -0.011081067 1.3460485e-38 249 248
-0.096959338 0.79000002 -0.011081067 1.5390066e-38 250 248
-0.09545321 0.78899997 -0.011067039 1.5574457e-38 251 248
-0.094069831 0.78899997 -0.011067039 1.5667009e-38 252 248
-0.092686452 0.78899997 -0.011067039 1.6127987e-38 253 248
-0.091303073 0.78899997 -0.011067039 1.5944316e-38 254 248
-0.089691758 0.787 -0.011038986 1.6220901e-38 255 248
-0.088311888 0.787 -0.011038986 1.6312025e-38 256 248
-0.086932018 0.787 -0.011038986 1.5942884e-38 257 248
-0.085552141 0.787 -0.011038986 1.4930186e-38 258 248
-0.084172271 0.787 -0.011038986 1.4561044e-38 259 248
-0.082792401 0.787 -0.011038986 1.5017713e-38 260 248
-0.081412524 0.787 -0.011038986 1.5201744e-38 261 248
-0.080032654 0.787 -0.011038986 1.4838707e-38 262 248
-0.078652777 0.787 -0.011038986 1.5207848e-38 263 248
-0.077272899 0.787 -0.011038986 1.5667009e-38 264 248
-0.07589303 0.787 -0.011038986 1.5482617e-38 265 248
-0.074702516 0.78899997 -0.011067039 1.4839747e-38 266 248
-0.07331913 0.78899997 -0.011067039 1.4194377e-38 267 248
-0.071935758 0.78899997 -0.011067039 1.3272443e-38 268 248
-0.070641801 0.79000002 -0.011081067 1.2995498e-38 269 248
-0.069431998 0.792 -0.011109119 1.2625667e-38 270 248
-0.068043359 0.792 -0.011109119 1.2533471e-38 271 248
-0.066991359 0.796 -0.011165227 1.1980683e-38 272 248
-0.065760516 0.79799998 -0.011193279 1.0505913e-38 273 248
-0.10211062 0.787 -0.01241886 1.7611869e-38 246 249
-0.10073075 0.787 -0.01241886 1.4385022e-38 247 249
-0.099729598 0.79000002 -0.0124662 1.3643429e-38 248 249
-0.09834446 0.79000002 -0.0124662 1.3551233e-38 249 249
-0.096836597 0.78899997 -0.012450419 1.5206751e-38 250 249
-0.09545321 0.78899997 -0.012450419 1.5391501e-38 251 249
-0.094069831 0.78899997 -0.012450419 1.5758851e-38 252 249
-0.092686452 0.78899997 -0.012450419 1.6127634e-38 253 249
-0.091071643 0.787 -0.01241886 1.603687e-38 254 249
-0.089691758 0.787 -0.01241886 1.6220901e-38 255 249
-0.088311888 0.787 -0.01241886 1.6219827e-38 256 249
-0.086932018 0.787 -0.01241886 1.5759207e-38 257 249
-0.085552141 0.787 -0.01241886 1.5296814e-38 258 249
-0.084172271 0.787 -0.01241886 1.4835836e-38 259 249
-0.082792401 0.787 -0.01241886 1.4832617e-38 260 249
-0.081412524 0.787 -0.01241886 1.4924814e-38 261 249
-0.080032654 0.787 -0.01241886 1.4928753e-38 262 249
-0.078652777 0.787 -0.01241886 1.5297895e-38 263 249
-0.077272899 0.787 -0.01241886 1.5482617e-38 264 249
-0.07589303 0.787 -0.01241886 1.5390063e-38 265 249
-0.07451316 0.787 -0.01241886 1.4930866e-38 266 249
-0.07331913 0.78899997 -0.012450419 1.4377692e-38 267 249
-0.071935758 0.78899997 -0.012450419 1.336321e-38 268 249
-0.070641801 0.79000002 -0.0124662 1.317846e-38 269 249
-0.069256663 0.79000002 -0.0124662 1.2808626e-38 270 249
-0.068043359 0.792 -0.012497759 1.2624235e-38 271 249
-0.066654719 0.792 -0.012497759 1.2072157e-38 272 249
-0.10211062 0.787 -0.013798732 1.7520034e-38 246 250
-0.10073075 0.787 -0.013798732 1.4200991e-38 247 250
-0.099603355 0.78899997 -0.013833799 1.364415e-38 248 250
-0.098219968 0.78899997 -0.013833799 1.3367565e-38 249 250
-0.096836597 0.78899997 -0.013833799 1.5114924e-38 250 250
-0.09545321 0.78899997 -0.013833799 1.5299315e-38 251 250
-0.094069831 0.78899997 -0.013833799 1.5759218e-38 252 250
-0.092686452 0.78899997 -0.013833799 1.5943968e-38 253 250
-0.091071643 0.787 -0.013798732 1.603687e-38 254 250
-0.089691758 0.787 -0.013798732 1.6220901e-38 255 250
-0.088311888 0.787 -0.013798732 1.6403492e-38 256 250
-0.086932018 0.787 -0.013798732 1.5850318e-38 257 250
-0.085552141 0.787 -0.013798732 1.5113134e-38 258 250
-0.084172271 0.787 -0.013798732 1.4743993e-38 259 250
-0.082792401 0.787 -0.013798732 1.4831895e-38 260 250
-0.081205636 0.78500003 -0.013763667 1.5016285e-38 261 250
-0.079829268 0.78500003 -0.013763667 1.4744724e-38 262 250
-0.0784529 0.78500003 -0.013763667 1.5205344e-38 263 250
-0.077076539 0.78500003 -0.013763667 1.5298949e-38 264 250
-0.075700171 0.78500003 -0.013763667 1.5114558e-38 265 250
-0.07451316 0.787 -0.013798732 1.4929807e-38 266 250
-0.073133282 0.787 -0.013798732 1.4284437e-38 267 250
-0.071753412 0.787 -0.013798732 1.2993725e-38 268 250
-0.070552371 0.78899997 -0.013833799 1.2901529e-38 269 250
-0.069168992 0.78899997 -0.013833799 1.271643e-38 270 250
-0.068043359 0.792 -0.0138864 1.2624235e-38 271 250
-0.066654719 0.792 -0.0138864 1.2072157e-38 272 250
-0.10237011 0.78899997 -0.015217179 1.7520037e-38 246 251
-0.10098673 0.78899997 -0.015217179 1.4200994e-38 247 251
-0.099603355 0.78899997 -0.015217179 1.364415e-38 248 251
-0.098219968 0.78899997 -0.015217179 1.3275369e-38 249 251
-0.096836597 0.78899997 -0.015217179 1.4931243e-38 250 251
-0.09545321 0.78899997 -0.015217179 1.520747e-38 251 251
-0.093831383 0.787 -0.015178605 1.5667372e-38 252 251
-0.092451513 0.787 -0.015178605 1.5944319e-38 253 251
-0.091071643 0.787 -0.015178605 1.603687e-38 254 251
-0.08946383 0.78500003 -0.015140033 1.6220901e-38 255 251
-0.088087469 0.78500003 -0.015140033 1.6495688e-38 256 251
-0.086711101 0.78500003 -0.015140033 1.5942873e-38 257 251
-0.085334733 0.78500003 -0.015140033 1.5021289e-38 258 251
-0.083958365 0.78500003 -0.015140033 1.4098974e-38 259 251
-0.082792401 0.787 -0.015178605 1.4555656e-38 260 251
-0.081205636 0.78500003 -0.015140033 1.4740406e-38 261 251
-0.079829268 0.78500003 -0.015140033 1.4743996e-38 262 251
-0.0784529 0.78500003 -0.015140033 1.5112778e-38 263 251
-0.077076539 0.78500003 -0.015140033 1.5298949e-38 264 251
-0.075700171 0.78500003 -0.015140033 1.5206754e-38 265 251
-0.074323803 0.78500003 -0.015140033 1.4929091e-38 266 251
-0.073133282 0.787 -0.015178605 1.4283721e-38 267 251
-0.071753412 0.787 -0.015178605 1.2994078e-38 268 251
-0.070373543 0.787 -0.015178605 1.2901882e-38 269 251
-0.069168992 0.78899997 -0.015217179 1.2533471e-38 270 251
-0.067785613 0.78899997 -0.015217179 1.2441276e-38 271 251
-0.066402234 0.78899997 -0.015217179 1.1981036e-38 272 251
-0.10098673 0.78899997 -0.016600559 1.4384669e-38 247 252
-0.099603355 0.78899997 -0.016600559 1.3643794e-38 248 252
-0.098219968 0.78899997 -0.016600559 1.3367568e-38 249 252
-0.096836597 0.78899997 -0.016600559 1.483941e-38 250 252
-0.09521126 0.787 -0.01655848 1.4931606e-38 251 252
-0.093831383 0.787 -0.01655848 1.5483706e-38 252 252
-0.092451513 0.787 -0.01655848 1.5852489e-38 253 252
-0.090840198 0.78500003 -0.016516401 1.6219827e-38 254 252
-0.089235894 0.78299999 -0.01647432 1.6312022e-38 255 252
-0.087863036 0.78299999 -0.01647432 1.6495322e-38 256 252
-0.086490177 0.78299999 -0.01647432 1.6218734e-38 257 252
-0.08511731 0.78299999 -0.01647432 1.52975e-38 258 252
-0.083744459 0.78299999 -0.01647432 1.3914566e-38 259 252
-0.082582004 0.78500003 -0.016516401 1.4003554e-38 260 252
-0.081205636 0.78500003 -0.016516401 1.4648923e-38 261 252
-0.079829268 0.78500003 -0.016516401 1.4468854e-38 262 252
-0.0784529 0.78500003 -0.016516401 1.5113864e-38 263 252
-0.077076539 0.78500003 -0.016516401 1.5206754e-38 264 252
-0.075700171 0.78500003 -0.016516401 1.5206754e-38 265 252
-0.074323803 0.78500003 -0.016516401 1.4561028e-38 266 252
-0.073133282 0.787 -0.01655848 1.4100409e-38 267 252
-0.071753412 0.787 -0.01655848 1.3453251e-38 268 252
-0.070373543 0.787 -0.01655848 1.3177023e-38 269 252
-0.069168992 0.78899997 -0.016600559 1.2441626e-38 270 252
-0.067785613 0.78899997 -0.016600559 1.234943e-38 271 252
-0.066402234 0.78899997 -0.016600559 1.1979964e-38 272 252
-0.10098673 0.78899997 -0.017983939 1.410988e-38 247 253
-0.099603355 0.78899997 -0.017983939 1.3645233e-38 248 253
-0.098219968 0.78899997 -0.017983939 1.3276091e-38 249 253
-0.096836597 0.78899997 -0.017983939 1.5022355e-38 250 253
-0.09521126 0.787 -0.017938353 1.5207107e-38 251 253
-0.093592934 0.78500003 -0.017892767 1.5574442e-38 252 253
-0.092216566 0.78500003 -0.017892767 1.6127615e-38 253 253
-0.090840198 0.78500003 -0.017892767 1.6403479e-38 254 253
-0.089235894 0.78299999 -0.017847179 1.6495675e-38 255 253
-0.087863036 0.78299999 -0.017847179 1.6403842e-38 256 253
-0.086490177 0.78299999 -0.017847179 1.6219811e-38 257 253
-0.08511731 0.78299999 -0.017847179 1.6125813e-38 258 253
-0.083744459 0.78299999 -0.017847179 1.4374455e-38 259 253
-0.0823716 0.78299999 -0.017847179 1.3729103e-38 260 253
-0.081205636 0.78500003 -0.017892767 1.4189721e-38 261 253
-0.079625882 0.78299999 -0.017847179 1.4374485e-38 262 253
-0.078253016 0.78299999 -0.017847179 1.5204604e-38 263 253
-0.076880157 0.78299999 -0.017847179 1.5113838e-38 264 253
-0.075507298 0.78299999 -0.017847179 1.4929088e-38 265 253
-0.074134432 0.78299999 -0.017847179 1.4285871e-38 266 253
-0.072947428 0.78500003 -0.017892767 1.3824532e-38 267 253
-0.071571067 0.78500003 -0.017892767 1.3179541e-38 268 253
-0.070373543 0.787 -0.017938353 1.2626368e-38 269 253
-0.068993665 0.787 -0.017938353 1.2166128e-38 270 253
-0.067785613 0.78899997 -0.017983939 1.2073932e-38 271 253
-0.066402234 0.78899997 -0.017983939 1.1521857e-38 272 253
-0.10098673 0.78899997 -0.019367319 1.429427e-38 247 254
-0.099350877 0.787 -0.019318225 1.3830344e-38 248 254
-0.097971 0.787 -0.019318225 1.3092779e-38 249 254
-0.09659113 0.787 -0.019318225 1.483869e-38 250 254
-0.09521126 0.787 -0.019318225 1.5115277e-38 251 254
-0.093592934 0.78500003 -0.019269135 1.5300021e-38 252 254
-0.092216566 0.78500003 -0.019269135 1.5576608e-38 253 254
-0.090840198 0.78500003 -0.019269135 1.6127981e-38 254 254
-0.089235894 0.78299999 -0.019220039 1.6220177e-38 255 254
-0.087863036 0.78299999 -0.019220039 1.6404195e-38 256 254
-0.086269259 0.78100002 -0.019170946 1.6127969e-38 257 254
-0.084899902 0.78100002 -0.019170946 1.6311634e-38 258 254
-0.083530553 0.78100002 -0.019170946 1.4928698e-38 259 254
-0.082161196 0.78100002 -0.019170946 1.4188639e-38 260 254
-0.080998734 0.78299999 -0.019220039 1.437267e-38 261 254
-0.079625882 0.78299999 -0.019220039 1.4006061e-38 262 254
-0.078253016 0.78299999 -0.019220039 1.4928019e-38 263 254
-0.076880157 0.78299999 -0.019220039 1.4929807e-38 264 254
-0.075507298 0.78299999 -0.019220039 1.4929807e-38 265 254
-0.074134432 0.78299999 -0.019220039 1.4468819e-38 266 254
-0.072947428 0.78500003 -0.019269135 1.4099677e-38 267 254
-0.071571067 0.78500003 -0.019269135 1.345396e-38 268 254
-0.070194699 0.78500003 -0.019269135 1.3085178e-38 269 254
-0.068818331 0.78500003 -0.019269135 1.2441273e-38 270 254
-0.067441963 0.78500003 -0.019269135 1.2349077e-38 271 254
-0.10098673 0.78899997 -0.0207507 1.4569781e-38 247 255
-0.099350877 0.787 -0.0206981 1.3830344e-38 248 255
-0.097971 0.787 -0.0206981 1.3000583e-38 249 255
-0.09659113 0.787 -0.0206981 1.493016e-38 250 255
-0.094969295 0.78500003 -0.020645501 1.5114552e-38 251 255
-0.093354478 0.78299999 -0.0205929 1.5482612e-38 252 255
-0.091981612 0.78299999 -0.0205929 1.5759557e-38 253 255
-0.090608761 0.78299999 -0.0205929 1.6218734e-38 254 255
-0.089007966 0.78100002 -0.020540299 1.6310931e-38 255 255
-0.087638609 0.78100002 -0.020540299 1.6127262e-38 256 255
-0.086269259 0.78100002 -0.020540299 1.6219458e-38 257 255
-0.084899902 0.78100002 -0.020540299 1.6403123e-38 258 255
-0.083530553 0.78100002 -0.020540299 1.5481166e-38 259 255
-0.082161196 0.78100002 -0.020540299 1.5018024e-38 260 255
-0.080998734 0.78299999 -0.0205929 1.446485e-38 261 255
-0.079625882 0.78299999 -0.0205929 1.4281553e-38 262 255
-0.078253016 0.78299999 -0.0205929 1.501912e-38 263 255
-0.076880157 0.78299999 -0.0205929 1.465393e-38 264 255
-0.075507298 0.78299999 -0.0205929 1.465393e-38 265 255
-0.074134432 0.78299999 -0.0205929 1.4377342e-38 266 255
-0.07276158 0.78299999 -0.0205929 1.3731972e-38 267 255
-0.071571067 0.78500003 -0.020645501 1.3177743e-38 268 255
-0.070194699 0.78500003 -0.020645501 1.2901155e-38 269 255
-0.068818331 0.78500003 -0.020645501 1.2165412e-38 270 255
-0.067441963 0.78500003 -0.020645501 1.2073216e-38 271 255
-0.099350877 0.787 -0.022077972 1.4105854e-38 248 256
-0.097971 0.787 -0.022077972 1.2907311e-38 249 256
-0.09659113 0.787 -0.022077972 1.4930163e-38 250 256
-0.094727337 0.78299999 -0.021965759 1.5022358e-38 251 256
-0.093354478 0.78299999 -0.021965759 1.5390066e-38 252 256
-0.091981612 0.78299999 -0.021965759 1.5666653e-38 253 256
-0.090377316 0.78100002 -0.021909652 1.5943237e-38 254 256
-0.089007966 0.78100002 -0.021909652 1.6035432e-38 255 256
-0.087638609 0.78100002 -0.021909652 1.6035788e-38 256 256
-0.086269259 0.78100002 -0.021909652 1.6127984e-38 257 256
-0.084899902 0.78100002 -0.021909652 1.6311284e-38 258 256
-0.083530553 0.78100002 -0.021909652 1.575811e-38 259 256
-0.082161196 0.78100002 -0.021909652 1.5387883e-38 260 256
-0.080791846 0.78100002 -0.021909652 1.4742513e-38 261 256
-0.079422489 0.78100002 -0.021909652 1.4558135e-38 262 256
-0.078053139 0.78100002 -0.021909652 1.5203504e-38 263 256
-0.076683782 0.78100002 -0.021909652 1.4745047e-38 264 256
-0.075507298 0.78299999 -0.021965759 1.4745047e-38 265 256
-0.074134432 0.78299999 -0.021965759 1.4284427e-38 266 256
-0.07276158 0.78299999 -0.021965759 1.3639058e-38 267 256
-0.071571067 0.78500003 -0.022021867 1.3177023e-38 268 256
-0.070194699 0.78500003 -0.022021867 1.2992632e-38 269 256
-0.068818331 0.78500003 -0.022021867 1.2348724e-38 270 256
-0.067441963 0.78500003 -0.022021867 1.2256528e-38 271 256
-0.099350877 0.787 -0.023457846 1.4105501e-38 248 257
-0.097971 0.787 -0.023457846 1.2814762e-38 249 257
-0.096345663 0.78500003 -0.023398234 1.4654301e-38 250 257
-0.094727337 0.78299999 -0.02333862 1.4654301e-38 251 257
-0.09311603 0.78100002 -0.023279008 1.5297517e-38 252 257
-0.091746673 0.78100002 -0.023279008 1.5481908e-38 253 257
-0.090377316 0.78100002 -0.023279008 1.5575179e-38 254 257
-0.089007966 0.78100002 -0.023279008 1.5851767e-38 255 257
-0.087638609 0.78100002 -0.023279008 1.5944319e-38 256 257
-0.086269259 0.78100002 -0.023279008 1.5944319e-38 257 257
-0.084899902 0.78100002 -0.023279008 1.6128334e-38 258 257
-0.083530553 0.78100002 -0.023279008 1.5667356e-38 259 257
-0.082161196 0.78100002 -0.023279008 1.5848494e-38 260 257
-0.080791846 0.78100002 -0.023279008 1.5479352e-38 261 257
-0.079422489 0.78100002 -0.023279008 1.520349e-38 262 257
-0.078053139 0.78100002 -0.023279008 1.5295687e-38 263 257
-0.076683782 0.78100002 -0.023279008 1.4928342e-38 264 257
-0.075507298 0.78299999 -0.02333862 1.4836147e-38 265 257
-0.074134432 0.78299999 -0.02333862 1.4099677e-38 266 257
-0.07276158 0.78299999 -0.02333862 1.3454308e-38 267 257
-0.071571067 0.78500003 -0.023398234 1.3176674e-38 268 257
-0.070373543 0.787 -0.023457846 1.2992282e-38 269 257
-0.068993665 0.787 -0.023457846 1.2165062e-38 270 257
-0.067613788 0.787 -0.023457846 1.2072866e-38 271 257
-0.066233918 0.787 -0.023457846 1.1796314e-38 272 257
-0.10073075 0.787 -0.024837719 1.4938936e-38 247 258
-0.099350877 0.787 -0.024837719 1.4105868e-38 248 258
-0.097722031 0.78500003 -0.0247746 1.2446706e-38 249 258
-0.096345663 0.78500003 -0.0247746 1.4561031e-38 250 258
-0.094727337 0.78299999 -0.024711479 1.4653227e-38 251 258
-0.09311603 0.78100002 -0.024648361 1.5113838e-38 252 258
-0.091746673 0.78100002 -0.024648361 1.5390066e-38 253 258
-0.090377316 0.78100002 -0.024648361 1.5391501e-38 254 258
-0.089007966 0.78100002 -0.024648361 1.5667728e-38 255 258
-0.087638609 0.78100002 -0.024648361 1.6035432e-38 256 258
-0.086158797 0.77999997 -0.024616797 1.6035432e-38 257 258
-0.084791191 0.77999997 -0.024616797 1.6035786e-38 258 258
-0.083423592 0.77999997 -0.024616797 1.5759557e-38 259 258
-0.082161196 0.78100002 -0.024648361 1.5941425e-38 260 258
-0.080791846 0.78100002 -0.024648361 1.5664838e-38 261 258
-0.079422489 0.78100002 -0.024648361 1.5297135e-38 262 258
-0.078053139 0.78100002 -0.024648361 1.5204939e-38 263 258
-0.076683782 0.78100002 -0.024648361 1.4837951e-38 264 258
-0.075314432 0.78100002 -0.024648361 1.4745397e-38 265 258
-0.073945075 0.78100002 -0.024648361 1.4282274e-38 266 258
-0.07276158 0.78299999 -0.024711479 1.37291e-38 267 258
-0.071571067 0.78500003 -0.0247746 1.3085198e-38 268 258
-0.070373543 0.787 -0.024837719 1.2716415e-38 269 258
-0.068993665 0.787 -0.024837719 1.2073582e-38 270 258
-0.067613788 0.787 -0.024837719 1.1981386e-38 271 258
-0.10073075 0.787 -0.026217593 1.5583578e-38 247 259
-0.099350877 0.787 -0.026217593 1.410695e-38 248 259
-0.097473055 0.78299999 -0.026084339 1.2170842e-38 249 259
-0.096100196 0.78299999 -0.026084339 1.4101143e-38 250 259
-0.09448538 0.78100002 -0.026017714 1.4377731e-38 251 259
-0.09311603 0.78100002 -0.026017714 1.4745791e-38 252 259
-0.091746673 0.78100002 -0.026017714 1.4930184e-38 253 259
-0.090377316 0.78100002 -0.026017714 1.5299318e-38 254 259
-0.089007966 0.78100002 -0.026017714 1.5483709e-38 255 259
-0.087526396 0.77999997 -0.025984399 1.5759927e-38 256 259
-0.086158797 0.77999997 -0.025984399 1.5852123e-38 257 259
-0.084791191 0.77999997 -0.025984399 1.5852826e-38 258 259
-0.083423592 0.77999997 -0.025984399 1.5760629e-38 259 259
-0.082055993 0.77999997 -0.025984399 1.6126167e-38 260 259
-0.080688395 0.77999997 -0.025984399 1.5941775e-38 261 259
-0.079320796 0.77999997 -0.025984399 1.5573712e-38 262 259
-0.077953197 0.77999997 -0.025984399 1.5297485e-38 263 259
-0.076585598 0.77999997 -0.025984399 1.5113807e-38 264 259
-0.075314432 0.78100002 -0.026017714 1.483758e-38 265 259
-0.073945075 0.78100002 -0.026017714 1.4374825e-38 266 259
-0.072575726 0.78100002 -0.026017714 1.3821651e-38 267 259
-0.071388714 0.78299999 -0.026084339 1.3359987e-38 268 259
-0.070015855 0.78299999 -0.026084339 1.3175594e-38 269 259
-0.068643004 0.78299999 -0.026084339 1.2348374e-38 270 259
-0.067270137 0.78299999 -0.026084339 1.2163983e-38 271 259
-0.098845914 0.78299999 -0.027457198 1.4199511e-38 248 260
-0.097473055 0.78299999 -0.027457198 1.1986816e-38 249 260
-0.096100196 0.78299999 -0.027457198 1.3825277e-38 250 260
-0.09448538 0.78100002 -0.027387068 1.4102224e-38 251 260
-0.09311603 0.78100002 -0.027387068 1.4836895e-38 252 260
-0.091746673 0.78100002 -0.027387068 1.5297514e-38 253 260
-0.090261593 0.77999997 -0.027351998 1.5481896e-38 254 260
-0.088893995 0.77999997 -0.027351998 1.5758123e-38 255 260
-0.087526396 0.77999997 -0.027351998 1.5942867e-38 256 260
-0.086158797 0.77999997 -0.027351998 1.6035421e-38 257 260
-0.084791191 0.77999997 -0.027351998 1.5943942e-38 258 260
-0.083423592 0.77999997 -0.027351998 1.5943942e-38 259 260
-0.082055993 0.77999997 -0.027351998 1.5759555e-38 260 260
-0.080688395 0.77999997 -0.027351998 1.5667359e-38 261 260
-0.079320796 0.77999997 -0.027351998 1.5207823e-38 262 260
-0.077953197 0.77999997 -0.027351998 1.5115627e-38 263 260
-0.076585598 0.77999997 -0.027351998 1.493051e-38 264 260
-0.075314432 0.78100002 -0.027387068 1.4562088e-38 265 260
-0.073945075 0.78100002 -0.027387068 1.4375538e-38 266 260
-0.072575726 0.78100002 -0.027387068 1.3730169e-38 267 260
-0.071206369 0.78100002 -0.027387068 1.2902234e-38 268 260
-0.070015855 0.78299999 -0.027457198 1.2533093e-38 269 260
-0.068643004 0.78299999 -0.027457198 1.1981386e-38 270 260
-0.067270137 0.78299999 -0.027457198 1.1705158e-38 271 260
-0.098845914 0.78299999 -0.028830061 1.4476824e-38 248 261
-0.097473055 0.78299999 -0.028830061 1.2264128e-38 249 261
-0.096100196 0.78299999 -0.028830061 1.3549418e-38 250 261
-0.09448538 0.78100002 -0.028756421 1.4010396e-38 251 261
-0.09311603 0.78100002 -0.028756421 1.4470283e-38 252 261
-0.091746673 0.78100002 -0.028756421 1.4562479e-38 253 261
-0.090261593 0.77999997 -0.028719598 1.529752e-38 254 261
-0.088893995 0.77999997 -0.028719598 1.5481911e-38 255 261
-0.087526396 0.77999997 -0.028719598 1.5574457e-38 256 261
-0.086158797 0.77999997 -0.028719598 1.5666653e-38 257 261
-0.084791191 0.77999997 -0.028719598 1.5668081e-38 258 261
-0.083423592 0.77999997 -0.028719598 1.5760276e-38 259 261
-0.082055993 0.77999997 -0.028719598 1.5759555e-38 260 261
-0.080688395 0.77999997 -0.028719598 1.5667359e-38 261 261
-0.079320796 0.77999997 -0.028719598 1.5482612e-38 262 261
-0.077953197 0.77999997 -0.028719598 1.5298219e-38 263 261
-0.076585598 0.77999997 -0.028719598 1.5022343e-38 264 261
-0.075217992 0.77999997 -0.028719598 1.4745397e-38 265 261
-0.073945075 0.78100002 -0.028756421 1.4101813e-38 266 261
-0.072575726 0.78100002 -0.028756421 1.3456444e-38 267 261
-0.071206369 0.78100002 -0.028756421 1.3177724e-38 268 261
-0.069837019 0.78100002 -0.028756421 1.2901137e-38 269 261
-0.068643004 0.78299999 -0.028830061 1.2072863e-38 270 261
-0.067270137 0.78299999 -0.028830061 1.188847e-38 271 261
-0.065897278 0.78299999 -0.028830061 1.1243506e-38 272 261
-0.097473055 0.78299999 -0.03020292 1.2631485e-38 249 262
-0.096100196 0.78299999 -0.03020292 1.3641984e-38 250 262
-0.09448538 0.78100002 -0.030125774 1.3734179e-38 251 262
-0.09311603 0.78100002 -0.030125774 1.4560325e-38 252 262
-0.091629192 0.77999997 -0.030087199 1.4745075e-38 253 262
-0.090261593 0.77999997 -0.030087199 1.5204601e-38 254 262
-0.088893995 0.77999997 -0.030087199 1.5388994e-38 255 262
-0.087526396 0.77999997 -0.030087199 1.5481899e-38 256 262
-0.08593788 0.778 -0.03001005 1.5758125e-38 257 262
-0.084573783 0.778 -0.03001005 1.557481e-38 258 262
-0.083209693 0.778 -0.03001005 1.5667006e-38 259 262
-0.081845596 0.778 -0.03001005 1.5667009e-38 260 262
-0.080481507 0.778 -0.03001005 1.5482617e-38 261 262
-0.07911741 0.778 -0.03001005 1.5390066e-38 262 262
-0.07775332 0.778 -0.03001005 1.5113838e-38 263 262
-0.076389223 0.778 -0.03001005 1.4746126e-38 264 262
-0.075025134 0.778 -0.03001005 1.4561735e-38 265 262
-0.073850393 0.77999997 -0.030087199 1.4101828e-38 266 262
-0.072575726 0.78100002 -0.030125774 1.3364263e-38 267 262
-0.071206369 0.78100002 -0.030125774 1.2810752e-38 268 262
-0.069837019 0.78100002 -0.030125774 1.2442329e-38 269 262
-0.068467662 0.78100002 -0.030125774 1.1798074e-38 270 262
-0.067270137 0.78299999 -0.03020292 1.1521127e-38 271 262
-0.065897278 0.78299999 -0.03020292 1.1243859e-38 272 262
-0.097473055 0.78299999 -0.031575777 1.2540378e-38 249 263
-0.095854737 0.78100002 -0.031495128 1.3549068e-38 250 263
-0.09448538 0.78100002 -0.031495128 1.3641264e-38 251 263
-0.092996791 0.77999997 -0.031454798 1.446848e-38 252 263
-0.091629192 0.77999997 -0.031454798 1.4561034e-38 253 263
-0.090261593 0.77999997 -0.031454798 1.5112406e-38 254 263
-0.088666067 0.778 -0.031374145 1.5204601e-38 255 263
-0.08730197 0.778 -0.031374145 1.5297147e-38 256 263
-0.08593788 0.778 -0.031374145 1.5481899e-38 257 263
-0.084573783 0.778 -0.031374145 1.5390419e-38 258 263
-0.083209693 0.778 -0.031374145 1.5482615e-38 259 263
-0.081845596 0.778 -0.031374145 1.5482617e-38 260 263
-0.080481507 0.778 -0.031374145 1.5390063e-38 261 263
-0.07911741 0.778 -0.031374145 1.5022358e-38 262 263
-0.07775332 0.778 -0.031374145 1.4930163e-38 263 263
-0.076389223 0.778 -0.031374145 1.4654286e-38 264 263
-0.075025134 0.778 -0.031374145 1.4469535e-38 265 263
-0.073850393 0.77999997 -0.031454798 1.382632e-38 266 263
-0.072482795 0.77999997 -0.031454798 1.3180951e-38 267 263
-0.071115196 0.77999997 -0.031454798 1.2810033e-38 268 263
-0.069837019 0.78100002 -0.031495128 1.2533446e-38 269 263
-0.068467662 0.78100002 -0.031495128 1.1705523e-38 270 263
-0.067098312 0.78100002 -0.031495128 1.152113e-38 271 263
