# .PCD v.7 - Point Cloud Data file format
FIELDS x y z rgb imX imY
SIZE 4 4 4 4 4 4
TYPE F F F F F F
COUNT 1 1 1 1 1 1
WIDTH 842
HEIGHT 1
VIEWPOINT 0 0 0 1 0 0 0
POINTS 842
DATA ascii
0.07775332 0.778 -0.020461399 1.6683321e-38 377 255
0.078914031 0.77600002 -0.0204088 1.6775165e-38 378 255
0.080274612 0.77600002 -0.0204088 1.6775165e-38 379 255
0.081635199 0.77600002 -0.0204088 1.6591503e-38 380 255
0.082781881 0.77399999 -0.020356199 1.640711e-38 381 255
0.084138952 0.77399999 -0.020356199 1.6313474e-38 382 255
0.085496038 0.77399999 -0.020356199 1.6036886e-38 383 255
0.086853117 0.77399999 -0.020356199 1.5759571e-38 384 255
0.088210195 0.77399999 -0.020356199 1.5206398e-38 385 255
0.089567274 0.77399999 -0.020356199 1.4563179e-38 386 255
0.091159306 0.77600002 -0.0204088 1.41022e-38 387 255
0.092758343 0.778 -0.020461399 1.3916734e-38 388 255
0.094364397 0.77999997 -0.020513998 1.3455756e-38 389 255
0.095731996 0.77999997 -0.020513998 1.3270295e-38 390 255
0.097099595 0.77999997 -0.020513998 1.2993348e-38 391 255
0.098593444 0.78100002 -0.020540299 1.1981765e-38 392 255
0.065101266 0.79000002 -0.022162134 1.382569e-38 367 256
0.066402234 0.78899997 -0.022134079 1.3736346e-38 368 256
0.067613788 0.787 -0.022077972 1.3828543e-38 369 256
0.068818331 0.78500003 -0.022021867 1.4655413e-38 370 256
0.070015855 0.78299999 -0.021965759 1.4932e-38 371 256
0.071206369 0.78100002 -0.021909652 1.5301135e-38 372 256
0.072482795 0.77999997 -0.021881599 1.5669918e-38 373 256
0.073850393 0.77999997 -0.021881599 1.6038329e-38 374 256
0.075025134 0.778 -0.021825492 1.6314914e-38 375 256
0.076389223 0.778 -0.021825492 1.6682252e-38 376 256
0.077553444 0.77600002 -0.021769386 1.6774448e-38 377 256
0.078914031 0.77600002 -0.021769386 1.6866645e-38 378 256
0.080274612 0.77600002 -0.021769386 1.6958841e-38 379 256
0.081424795 0.77399999 -0.021713279 1.6682615e-38 380 256
0.082781881 0.77399999 -0.021713279 1.6498584e-38 381 256
0.084138952 0.77399999 -0.021713279 1.6497142e-38 382 256
0.085496038 0.77399999 -0.021713279 1.6220195e-38 383 256
0.086853117 0.77399999 -0.021713279 1.5667372e-38 384 256
0.088210195 0.77399999 -0.021713279 1.5206754e-38 385 256
0.089567274 0.77399999 -0.021713279 1.4562103e-38 386 256
0.091159306 0.77600002 -0.021769386 1.4101125e-38 387 256
0.092758343 0.778 -0.021825492 1.3916378e-38 388 256
0.094122432 0.778 -0.021825492 1.3455758e-38 389 256
0.095731996 0.77999997 -0.021881599 1.3270295e-38 390 256
0.097099595 0.77999997 -0.021881599 1.2993348e-38 391 256
0.098593444 0.78100002 -0.021909652 1.2257979e-38 392 256
0.099962793 0.78100002 -0.021909652 1.2442371e-38 393 256
0.065101266 0.79000002 -0.023547266 1.3459431e-38 367 257
0.066402234 0.78899997 -0.023517458 1.3552678e-38 368 257
0.067613788 0.787 -0.023457846 1.3645233e-38 369 257
0.068643004 0.78299999 -0.02333862 1.4747608e-38 370 257
0.070015855 0.78299999 -0.02333862 1.4932e-38 371 257
0.071206369 0.78100002 -0.023279008 1.5301135e-38 372 257
0.072482795 0.77999997 -0.023249198 1.5669918e-38 373 257
0.073471673 0.77600002 -0.023129974 1.6130527e-38 374 257
0.074832268 0.77600002 -0.023129974 1.6314559e-38 375 257
0.075996473 0.77399999 -0.02307036 1.6498584e-38 376 257
0.077353559 0.77399999 -0.02307036 1.6682615e-38 377 257
0.078710638 0.77399999 -0.02307036 1.6775168e-38 378 257
0.080067717 0.77399999 -0.02307036 1.6867364e-38 379 257
0.081424795 0.77399999 -0.02307036 1.6866645e-38 380 257
0.082781881 0.77399999 -0.02307036 1.6682252e-38 381 257
0.084138952 0.77399999 -0.02307036 1.6497136e-38 382 257
0.085496038 0.77399999 -0.02307036 1.6220548e-38 383 257
0.086853117 0.77399999 -0.02307036 1.5575532e-38 384 257
0.088210195 0.77399999 -0.02307036 1.5114555e-38 385 257
0.089798726 0.77600002 -0.023129974 1.465358e-38 386 257
0.091159306 0.77600002 -0.023129974 1.4284437e-38 387 257
0.092519894 0.77600002 -0.023129974 1.3824538e-38 388 257
0.094122432 0.778 -0.023189586 1.3455756e-38 389 257
0.095731996 0.77999997 -0.023249198 1.3178099e-38 390 257
0.097099595 0.77999997 -0.023249198 1.2993348e-38 391 257
0.098467186 0.77999997 -0.023249198 1.2257976e-38 392 257
0.099962793 0.78100002 -0.023279008 1.2073585e-38 393 257
0.065897278 0.78299999 -0.024711479 1.382747e-38 368 258
0.067098312 0.78100002 -0.024648361 1.4011861e-38 369 258
0.068467662 0.78100002 -0.024648361 1.465541e-38 370 258
0.069747597 0.77999997 -0.024616797 1.5024553e-38 371 258
0.07093285 0.778 -0.024553679 1.5393325e-38 372 258
0.072111093 0.77600002 -0.024490559 1.5670271e-38 373 258
0.073471673 0.77600002 -0.024490559 1.6221997e-38 374 258
0.074639395 0.77399999 -0.02442744 1.6406388e-38 375 258
0.075996473 0.77399999 -0.02442744 1.6498584e-38 376 258
0.077353559 0.77399999 -0.02442744 1.6682615e-38 377 258
0.078710638 0.77399999 -0.02442744 1.6775171e-38 378 258
0.080067717 0.77399999 -0.02442744 1.6775171e-38 379 258
0.081424795 0.77399999 -0.02442744 1.6774448e-38 380 258
0.082781881 0.77399999 -0.02442744 1.6682252e-38 381 258
0.084138952 0.77399999 -0.02442744 1.6497136e-38 382 258
0.085496038 0.77399999 -0.02442744 1.6036517e-38 383 258
0.086853117 0.77399999 -0.02442744 1.5484059e-38 384 258
0.088210195 0.77399999 -0.02442744 1.483869e-38 385 258
0.089567274 0.77399999 -0.02442744 1.4562103e-38 386 258
0.091159306 0.77600002 -0.024490559 1.4008929e-38 387 258
0.092519894 0.77600002 -0.024490559 1.3824538e-38 388 258
0.093880482 0.77600002 -0.024490559 1.3455756e-38 389 258
0.095241062 0.77600002 -0.024490559 1.3177743e-38 390 258
0.09660165 0.77600002 -0.024490559 1.2901155e-38 391 258
0.097962238 0.77600002 -0.024490559 1.2348742e-38 392 258
0.099322826 0.77600002 -0.024490559 1.2164711e-38 393 258
0.065897278 0.78299999 -0.026084339 1.3552681e-38 368 259
0.067098312 0.78100002 -0.026017714 1.3828909e-38 369 259
0.068467662 0.78100002 -0.026017714 1.4472463e-38 370 259
0.069568761 0.778 -0.025917772 1.4656855e-38 371 259
0.070750505 0.77600002 -0.025851147 1.5302211e-38 372 259
0.072111093 0.77600002 -0.025851147 1.5578438e-38 373 259
0.073282316 0.77399999 -0.025784519 1.5946136e-38 374 259
0.074639395 0.77399999 -0.025784519 1.6130527e-38 375 259
0.075996473 0.77399999 -0.025784519 1.6314561e-38 376 259
0.077353559 0.77399999 -0.025784519 1.6498953e-38 377 259
0.078710638 0.77399999 -0.025784519 1.6500026e-38 378 259
0.080067717 0.77399999 -0.025784519 1.6500026e-38 379 259
0.081424795 0.77399999 -0.025784519 1.6774445e-38 380 259
0.082781881 0.77399999 -0.025784519 1.6590054e-38 381 259
0.084138952 0.77399999 -0.025784519 1.6588605e-38 382 259
0.085385576 0.773 -0.025751207 1.6127987e-38 383 259
0.086740904 0.773 -0.025751207 1.5574807e-38 384 259
0.088210195 0.77399999 -0.025784519 1.5114188e-38 385 259
0.089567274 0.77399999 -0.025784519 1.4652847e-38 386 259
0.090924352 0.77399999 -0.025784519 1.437662e-38 387 259
0.092281438 0.77399999 -0.025784519 1.4098961e-38 388 259
0.093880482 0.77600002 -0.025851147 1.3822014e-38 389 259
0.095241062 0.77600002 -0.025851147 1.336034e-38 390 259
0.09660165 0.77600002 -0.025851147 1.3175947e-38 391 259
0.097962238 0.77600002 -0.025851147 1.2072876e-38 392 259
0.099066831 0.77399999 -0.025784519 1.1704453e-38 393 259
0.10042392 0.77399999 -0.025784519 1.2540378e-38 394 259
0.065728955 0.78100002 -0.027387068 1.3920388e-38 368 260
0.067012392 0.77999997 -0.027351998 1.3920388e-38 369 260
0.068379998 0.77999997 -0.027351998 1.4747606e-38 370 260
0.069568761 0.778 -0.027281865 1.5024553e-38 371 260
0.070750505 0.77600002 -0.027211733 1.5485158e-38 372 260
0.071925238 0.77399999 -0.027141599 1.5946136e-38 373 260
0.073282316 0.77399999 -0.027141599 1.6129802e-38 374 260
0.074639395 0.77399999 -0.027141599 1.6314193e-38 375 260
0.075898297 0.773 -0.027106533 1.6406388e-38 376 260
0.077253617 0.773 -0.027106533 1.6498584e-38 377 260
0.078608945 0.773 -0.027106533 1.6682615e-38 378 260
0.079964265 0.773 -0.027106533 1.6682615e-38 379 260
0.0813196 0.773 -0.027106533 1.6681899e-38 380 260
0.082674921 0.773 -0.027106533 1.6589703e-38 381 260
0.084030248 0.773 -0.027106533 1.6312394e-38 382 260
0.085385576 0.773 -0.027106533 1.5851417e-38 383 260
0.086740904 0.773 -0.027106533 1.529787e-38 384 260
0.088096231 0.773 -0.027106533 1.4836892e-38 385 260
0.089567274 0.77399999 -0.027141599 1.4470255e-38 386 260
0.090924352 0.77399999 -0.027141599 1.3917081e-38 387 260
0.092281438 0.77399999 -0.027141599 1.4007485e-38 388 260
0.093638517 0.77399999 -0.027141599 1.3638702e-38 389 260
0.095241062 0.77600002 -0.027211733 1.3085546e-38 390 260
0.09660165 0.77600002 -0.027211733 1.2716765e-38 391 260
0.097962238 0.77600002 -0.027211733 1.2255825e-38 392 260
0.099066831 0.77399999 -0.027141599 1.1794847e-38 393 260
0.10042392 0.77399999 -0.027141599 1.2722977e-38 394 260
0.065476485 0.778 -0.028645959 1.4195886e-38 368 261
0.066840574 0.778 -0.028645959 1.4379917e-38 369 261
0.068204664 0.778 -0.028645959 1.4656495e-38 370 261
0.069389917 0.77600002 -0.028572321 1.5024918e-38 371 261
0.070568159 0.77399999 -0.028498679 1.5668836e-38 372 261
0.071925238 0.77399999 -0.028498679 1.5853586e-38 373 261
0.073187642 0.773 -0.028461859 1.5946855e-38 374 261
0.074542962 0.773 -0.028461859 1.6039051e-38 375 261
0.075898297 0.773 -0.028461859 1.6131246e-38 376 261
0.077053741 0.77100003 -0.028388219 1.6223442e-38 377 261
0.078405559 0.77100003 -0.028388219 1.6314561e-38 378 261
0.079964265 0.773 -0.028461859 1.6314561e-38 379 261
0.0813196 0.773 -0.028461859 1.6313487e-38 380 261
0.082674921 0.773 -0.028461859 1.6221291e-38 381 261
0.084030248 0.773 -0.028461859 1.6311677e-38 382 261
0.085164659 0.77100003 -0.028388219 1.5758504e-38 383 261
0.086516477 0.77100003 -0.028388219 1.5389696e-38 384 261
0.088096231 0.773 -0.028461859 1.4929078e-38 385 261
0.089451559 0.773 -0.028461859 1.4377689e-38 386 261
0.090924352 0.77399999 -0.028498679 1.4009267e-38 387 261
0.092281438 0.77399999 -0.028498679 1.3639774e-38 388 261
0.093638517 0.77399999 -0.028498679 1.3270993e-38 389 261
0.094995596 0.77399999 -0.028498679 1.2993348e-38 390 261
0.09660165 0.77600002 -0.028572321 1.2717121e-38 391 261
0.097962238 0.77600002 -0.028572321 1.2165427e-38 392 261
0.099066831 0.77399999 -0.028498679 1.1520058e-38 393 261
0.10042392 0.77399999 -0.028498679 1.2354552e-38 394 261
0.065308161 0.77600002 -0.029932907 1.4471747e-38 368 262
0.066668749 0.77600002 -0.029932907 1.4563943e-38 369 262
0.068029337 0.77600002 -0.029932907 1.5115668e-38 370 262
0.069211073 0.77399999 -0.029855758 1.5392256e-38 371 262
0.070568159 0.77399999 -0.029855758 1.5944337e-38 372 262
0.071832314 0.773 -0.029817186 1.6313121e-38 373 262
0.073187642 0.773 -0.029817186 1.6221641e-38 374 262
0.074350104 0.77100003 -0.029740039 1.6406391e-38 375 262
0.075701922 0.77100003 -0.029740039 1.649859e-38 376 262
0.077053741 0.77100003 -0.029740039 1.631384e-38 377 262
0.078405559 0.77100003 -0.029740039 1.6497155e-38 378 262
0.079757385 0.77100003 -0.029740039 1.6220928e-38 379 262
0.081109203 0.77100003 -0.029740039 1.6036179e-38 380 262
0.082461022 0.77100003 -0.029740039 1.6036179e-38 381 262
0.08381284 0.77100003 -0.029740039 1.5851785e-38 382 262
0.085164659 0.77100003 -0.029740039 1.5483362e-38 383 262
0.086516477 0.77100003 -0.029740039 1.5298952e-38 384 262
0.087868303 0.77100003 -0.029740039 1.4745778e-38 385 262
0.089451559 0.773 -0.029817186 1.4285871e-38 386 262
0.090806887 0.773 -0.029817186 1.3917087e-38 387 262
0.092162207 0.773 -0.029817186 1.3639421e-38 388 262
0.093638517 0.77399999 -0.029855758 1.3270999e-38 389 262
0.094995596 0.77399999 -0.029855758 1.2810033e-38 390 262
0.096352674 0.77399999 -0.029855758 1.2533446e-38 391 262
0.09770976 0.77399999 -0.029855758 1.2073935e-38 392 262
0.099066831 0.77399999 -0.029855758 1.1428566e-38 393 262
0.10042392 0.77399999 -0.029855758 1.1987195e-38 394 262
0.065308161 0.77600002 -0.031293493 1.4747255e-38 368 263
0.066668749 0.77600002 -0.031293493 1.4839451e-38 369 263
0.068029337 0.77600002 -0.031293493 1.5300416e-38 370 263
0.069211073 0.77399999 -0.031212838 1.5484808e-38 371 263
0.070568159 0.77399999 -0.031212838 1.6036532e-38 372 263
0.071832314 0.773 -0.03117251 1.6313121e-38 373 263
0.073187642 0.773 -0.03117251 1.6497152e-38 374 263
0.074350104 0.77100003 -0.031091858 1.6589706e-38 375 263
0.075701922 0.77100003 -0.031091858 1.6497155e-38 376 263
0.077053741 0.77100003 -0.031091858 1.6220928e-38 377 263
0.078405559 0.77100003 -0.031091858 1.6036167e-38 378 263
0.079757385 0.77100003 -0.031091858 1.5298243e-38 379 263
0.081109203 0.77100003 -0.031091858 1.4840505e-38 380 263
0.082461022 0.77100003 -0.031091858 1.5393678e-38 381 263
0.08381284 0.77100003 -0.031091858 1.5300767e-38 382 263
0.084943734 0.76899999 -0.031011207 1.5116015e-38 383 263
0.086292051 0.76899999 -0.031011207 1.5206754e-38 384 263
0.087868303 0.77100003 -0.031091858 1.4745775e-38 385 263
0.089220122 0.77100003 -0.031091858 1.4469186e-38 386 263
0.090806887 0.773 -0.03117251 1.3916012e-38 387 263
0.092162207 0.773 -0.03117251 1.3455037e-38 388 263
0.093517542 0.773 -0.03117251 1.317845e-38 389 263
0.094995596 0.77399999 -0.031212838 1.2810039e-38 390 263
0.096352674 0.77399999 -0.031212838 1.2625289e-38 391 263
0.09770976 0.77399999 -0.031212838 1.2072863e-38 392 263
0.099066831 0.77399999 -0.031212838 1.1427494e-38 393 263
0.10042392 0.77399999 -0.031212838 1.2077958e-38 394 263
0.065308161 0.77600002 -0.032654081 1.4839819e-38 368 264
0.066668749 0.77600002 -0.032654081 1.4839819e-38 369 264
0.068029337 0.77600002 -0.032654081 1.5300779e-38 370 264
0.069211073 0.77399999 -0.032569919 1.5485171e-38 371 264
0.070568159 0.77399999 -0.032569919 1.6036895e-38 372 264
0.071832314 0.773 -0.032527838 1.6221647e-38 373 264
0.073187642 0.773 -0.032527838 1.6221291e-38 374 264
0.074350104 0.77100003 -0.032443684 1.6313487e-38 375 264
0.075701922 0.77100003 -0.032443684 1.6403884e-38 376 264
0.076853856 0.76899999 -0.032359518 1.5943265e-38 377 264
0.078202173 0.76899999 -0.032359518 1.5481192e-38 378 264
0.079550482 0.76899999 -0.032359518 1.4559235e-38 379 264
0.080898799 0.76899999 -0.032359518 1.4010381e-38 380 264
0.082247108 0.76899999 -0.032359518 1.5116368e-38 381 264
0.083595425 0.76899999 -0.032359518 1.5391882e-38 382 264
0.084943734 0.76899999 -0.032359518 1.5023101e-38 383 264
0.086292051 0.76899999 -0.032359518 1.4838696e-38 384 264
0.087640367 0.76899999 -0.032359518 1.456175e-38 385 264
0.088988677 0.76899999 -0.032359518 1.4376636e-38 386 264
0.09057194 0.77100003 -0.032443684 1.3823463e-38 387 264
0.091923758 0.77100003 -0.032443684 1.3454684e-38 388 264
0.093517542 0.773 -0.032527838 1.3178097e-38 389 264
0.094872862 0.773 -0.032527838 1.2717134e-38 390 264
0.096352674 0.77399999 -0.032569919 1.2532743e-38 391 264
0.09770976 0.77399999 -0.032569919 1.1979964e-38 392 264
0.099066831 0.77399999 -0.032569919 1.1334595e-38 393 264
0.10042392 0.77399999 -0.032569919 1.1985409e-38 394 264
0.065308161 0.77600002 -0.034014668 1.4839817e-38 368 265
0.066668749 0.77600002 -0.034014668 1.4932372e-38 369 265
0.067854002 0.77399999 -0.033927001 1.5392612e-38 370 265
0.069121659 0.773 -0.033883166 1.5668839e-38 371 265
0.070294641 0.77100003 -0.033795502 1.5852864e-38 372 265
0.071646459 0.77100003 -0.033795502 1.6221647e-38 373 265
0.072998285 0.77100003 -0.033795502 1.6312768e-38 374 265
0.074157231 0.76899999 -0.033707831 1.6220572e-38 375 265
0.07550554 0.76899999 -0.033707831 1.6219492e-38 376 265
0.076853856 0.76899999 -0.033707831 1.502095e-38 377 265
0.078202173 0.76899999 -0.033707831 1.4373415e-38 378 265
0.079550482 0.76899999 -0.033707831 1.3820242e-38 379 265
0.080898799 0.76899999 -0.033707831 1.3823479e-38 380 265
0.082247108 0.76899999 -0.033707831 1.4837989e-38 381 265
0.083595425 0.76899999 -0.033707831 1.5114573e-38 382 265
0.084943734 0.76899999 -0.033707831 1.5114573e-38 383 265
0.086292051 0.76899999 -0.033707831 1.4746141e-38 384 265
0.087640367 0.76899999 -0.033707831 1.4469554e-38 385 265
0.088988677 0.76899999 -0.033707831 1.4193326e-38 386 265
0.090336986 0.76899999 -0.033707831 1.3547957e-38 387 265
0.091923758 0.77100003 -0.033795502 1.336321e-38 388 265
0.093275577 0.77100003 -0.033795502 1.2994428e-38 389 265
0.094872862 0.773 -0.033883166 1.2624938e-38 390 265
0.096352674 0.77399999 -0.033927001 1.2348712e-38 391 265
0.09770976 0.77399999 -0.033927001 1.1888119e-38 392 265
0.099066831 0.77399999 -0.033927001 1.1427141e-38 393 265
0.10042392 0.77399999 -0.033927001 1.1158523e-38 394 265
0.066496916 0.77399999 -0.03528408 1.4749054e-38 369 266
0.067766331 0.773 -0.035238493 1.5117464e-38 370 266
0.068942823 0.77100003 -0.03514732 1.5302214e-38 371 266
0.070294641 0.77100003 -0.03514732 1.5853586e-38 372 266
0.071646459 0.77100003 -0.03514732 1.6037979e-38 373 266
0.072998285 0.77100003 -0.03514732 1.5945786e-38 374 266
0.074157231 0.76899999 -0.035056144 1.5668839e-38 375 266
0.07550554 0.76899999 -0.035056144 1.529754e-38 376 266
0.076853856 0.76899999 -0.035056144 1.4099355e-38 377 266
0.078202173 0.76899999 -0.035056144 1.3173821e-38 378 266
0.079550482 0.76899999 -0.035056144 1.3542245e-38 379 266
0.080898799 0.76899999 -0.035056144 1.3268532e-38 380 266
0.082247108 0.76899999 -0.035056144 1.4559271e-38 381 266
0.083595425 0.76899999 -0.035056144 1.4469927e-38 382 266
0.084943734 0.76899999 -0.035056144 1.4746513e-38 383 266
0.086292051 0.76899999 -0.035056144 1.4653946e-38 384 266
0.087640367 0.76899999 -0.035056144 1.4285523e-38 385 266
0.088988677 0.76899999 -0.035056144 1.4008208e-38 386 266
0.090336986 0.76899999 -0.035056144 1.3731619e-38 387 266
0.091685303 0.76899999 -0.035056144 1.3453958e-38 388 266
0.093275577 0.77100003 -0.03514732 1.3085534e-38 389 266
0.094627403 0.77100003 -0.03514732 1.2807532e-38 390 266
0.09622819 0.773 -0.035238493 1.2531305e-38 391 266
0.09758351 0.773 -0.035238493 1.1704103e-38 392 266
0.099066831 0.77399999 -0.03528408 1.133496e-38 393 266
0.10042392 0.77399999 -0.03528408 1.152588e-38 394 266
0.064887367 0.77100003 -0.036499143 1.4932356e-38 368 267
0.066239186 0.77100003 -0.036499143 1.5208584e-38 369 267
0.067591004 0.77100003 -0.036499143 1.5575921e-38 370 267
0.068763971 0.76899999 -0.036404461 1.5760671e-38 371 267
0.070112288 0.76899999 -0.036404461 1.6036895e-38 372 267
0.071460605 0.76899999 -0.036404461 1.6129092e-38 373 267
0.072808921 0.76899999 -0.036404461 1.5945783e-38 374 267
0.074157231 0.76899999 -0.036404461 1.474724e-38 375 267
0.07550554 0.76899999 -0.036404461 1.3637298e-38 376 267
0.076853856 0.76899999 -0.036404461 1.2530952e-38 377 267
0.077998787 0.76700002 -0.036309779 1.3079455e-38 378 267
0.079343595 0.76700002 -0.036309779 1.3448238e-38 379 267
0.080688395 0.76700002 -0.036309779 1.2901179e-38 380 267
0.08203321 0.76700002 -0.036309779 1.4284113e-38 381 267
0.083378009 0.76700002 -0.036309779 1.4469927e-38 382 267
0.084722824 0.76700002 -0.036309779 1.4469927e-38 383 267
0.086067624 0.76700002 -0.036309779 1.4561753e-38 384 267
0.087412432 0.76700002 -0.036309779 1.419297e-38 385 267
0.088988677 0.76899999 -0.036404461 1.4008929e-38 386 267
0.090336986 0.76899999 -0.036404461 1.336356e-38 387 267
0.091685303 0.76899999 -0.036404461 1.3270289e-38 388 267
0.093033619 0.76899999 -0.036404461 1.2993701e-38 389 267
0.094627403 0.77100003 -0.036499143 1.2348709e-38 390 267
0.095979221 0.77100003 -0.036499143 1.207212e-38 391 267
0.09733104 0.77100003 -0.036499143 1.1702651e-38 392 267
0.099066831 0.77399999 -0.036641158 1.151826e-38 393 267
0.10042392 0.77399999 -0.036641158 1.1526231e-38 394 267
0.063782752 0.77399999 -0.037998237 1.4472137e-38 367 268
0.064887367 0.77100003 -0.037850961 1.502455e-38 368 268
0.066239186 0.77100003 -0.037850961 1.5208581e-38 369 268
0.067591004 0.77100003 -0.037850961 1.5484805e-38 370 268
0.068763971 0.76899999 -0.03775277 1.576139e-38 371 268
0.070112288 0.76899999 -0.03775277 1.6036898e-38 372 268
0.071460605 0.76899999 -0.03775277 1.6221291e-38 373 268
0.072808921 0.76899999 -0.03775277 1.5298258e-38 374 268
0.074157231 0.76899999 -0.03775277 1.400752e-38 375 268
0.07550554 0.76899999 -0.03775277 1.2254008e-38 376 268
0.076853856 0.76899999 -0.03775277 1.2069616e-38 377 268
0.077998787 0.76700002 -0.037654586 1.1977793e-38 378 268
0.079343595 0.76700002 -0.037654586 1.2438772e-38 379 268
0.080688395 0.76700002 -0.037654586 1.2994459e-38 380 268
0.08203321 0.76700002 -0.037654586 1.4101167e-38 381 268
0.083378009 0.76700002 -0.037654586 1.4102589e-38 382 268
0.084722824 0.76700002 -0.037654586 1.4102589e-38 383 268
0.086067624 0.76700002 -0.037654586 1.4285173e-38 384 268
0.087412432 0.76700002 -0.037654586 1.4008226e-38 385 268
0.088757239 0.76700002 -0.037654586 1.3823819e-38 386 268
0.090102047 0.76700002 -0.037654586 1.3270645e-38 387 268
0.091446854 0.76700002 -0.037654586 1.3177729e-38 388 268
0.093033619 0.76899999 -0.03775277 1.2900784e-38 389 268
0.094381928 0.76899999 -0.03775277 1.2256513e-38 390 268
0.095730245 0.76899999 -0.03775277 1.188737e-38 391 268
0.097078554 0.76899999 -0.03775277 1.0783954e-38 392 268
0.099066831 0.77399999 -0.037998237 1.1153096e-38 393 268
0.063700356 0.773 -0.039304473 1.4933464e-38 367 269
0.064719036 0.76899999 -0.039101087 1.5208937e-38 368 269
0.066067353 0.76899999 -0.039101087 1.5208937e-38 369 269
0.067415662 0.76899999 -0.039101087 1.5668473e-38 370 269
0.068585135 0.76700002 -0.038999394 1.5760669e-38 371 269
0.06992995 0.76700002 -0.038999394 1.6128745e-38 372 269
0.07127475 0.76700002 -0.038999394 1.6036549e-38 373 269
0.072619557 0.76700002 -0.038999394 1.4097923e-38 374 269
0.073964365 0.76700002 -0.038999394 1.2714989e-38 375 269
0.07550554 0.76899999 -0.039101087 1.0871076e-38 376 269
0.076853856 0.76899999 -0.039101087 1.1516445e-38 377 269
0.078202173 0.76899999 -0.039101087 1.1702283e-38 378 269
0.079343595 0.76700002 -0.038999394 1.2347652e-38 379 269
0.080688395 0.76700002 -0.038999394 1.372914e-38 380 269
0.08203321 0.76700002 -0.038999394 1.4743292e-38 381 269
0.083378009 0.76700002 -0.038999394 1.4010396e-38 382 269
0.084722824 0.76700002 -0.038999394 1.4010396e-38 383 269
0.086067624 0.76700002 -0.038999394 1.419262e-38 384 269
0.087412432 0.76700002 -0.038999394 1.3915674e-38 385 269
0.088641517 0.76599997 -0.038948543 1.3547957e-38 386 269
0.089984566 0.76599997 -0.038948543 1.2994784e-38 387 269
0.091446854 0.76700002 -0.038999394 1.2810389e-38 388 269
0.093033619 0.76899999 -0.039101087 1.2533443e-38 389 269
0.094136469 0.76700002 -0.038999394 1.1888449e-38 390 269
0.095481269 0.76700002 -0.038999394 1.1243439e-38 391 269
0.096826084 0.76700002 -0.038999394 9.4957365e-39 392 269
0.099066831 0.77399999 -0.039355319 1.0970867e-38 393 269
0.063535534 0.77100003 -0.040554602 1.5299726e-38 367 270
0.064719036 0.76899999 -0.0404494 1.5300779e-38 368 270
0.066067353 0.76899999 -0.0404494 1.5300779e-38 369 270
0.067415662 0.76899999 -0.0404494 1.566812e-38 370 270
0.068585135 0.76700002 -0.040344197 1.6036901e-38 371 270
0.06992995 0.76700002 -0.040344197 1.5850729e-38 372 270
0.07127475 0.76700002 -0.040344197 1.5482306e-38 373 270
0.072524875 0.76599997 -0.040291596 1.2714282e-38 374 270
0.073867925 0.76599997 -0.040291596 1.1147317e-38 375 270
0.075309172 0.76700002 -0.040344197 1.0867852e-38 376 270
0.07665398 0.76700002 -0.040344197 1.1605418e-38 377 270
0.077998787 0.76700002 -0.040344197 1.2252585e-38 378 270
0.079343595 0.76700002 -0.040344197 1.3912105e-38 379 270
0.080688395 0.76700002 -0.040344197 1.437523e-38 380 270
0.08203321 0.76700002 -0.040344197 1.4744371e-38 381 270
0.083378009 0.76700002 -0.040344197 1.4101873e-38 382 270
0.084722824 0.76700002 -0.040344197 1.4009678e-38 383 270
0.085955404 0.76599997 -0.040291596 1.3824914e-38 384 270
0.08729846 0.76599997 -0.040291596 1.3640522e-38 385 270
0.088641517 0.76599997 -0.040291596 1.3455402e-38 386 270
0.089984566 0.76599997 -0.040291596 1.2994784e-38 387 270
0.091446854 0.76700002 -0.040344197 1.2810036e-38 388 270
0.092791654 0.76700002 -0.040344197 1.2349059e-38 389 270
0.094136469 0.76700002 -0.040344197 1.207177e-38 390 270
0.095481269 0.76700002 -0.040344197 1.0688477e-38 391 270
0.096826084 0.76700002 -0.040344197 8.6659786e-39 392 270
0.062022414 0.76899999 -0.041797712 1.5300079e-38 366 271
0.063370727 0.76899999 -0.041797712 1.5300079e-38 367 271
0.064719036 0.76899999 -0.041797712 1.5300782e-38 368 271
0.066067353 0.76899999 -0.041797712 1.5392978e-38 369 271
0.067240335 0.76700002 -0.041689005 1.5761037e-38 370 271
0.068585135 0.76700002 -0.041689005 1.594543e-38 371 271
0.06992995 0.76700002 -0.041689005 1.4746186e-38 372 271
0.071181826 0.76599997 -0.041634649 1.4100817e-38 373 271
0.072524875 0.76599997 -0.041634649 1.1422124e-38 374 271
0.073867925 0.76599997 -0.041634649 1.0499807e-38 375 271
0.075309172 0.76700002 -0.041689005 1.1142646e-38 376 271
0.07665398 0.76700002 -0.041689005 1.2248635e-38 377 271
0.077998787 0.76700002 -0.041689005 1.3171651e-38 378 271
0.079343595 0.76700002 -0.041689005 1.5199956e-38 379 271
0.080688395 0.76700002 -0.041689005 1.4929833e-38 380 271
0.08203321 0.76700002 -0.041689005 1.4745441e-38 381 271
0.083378009 0.76700002 -0.041689005 1.4285536e-38 382 271
0.084612355 0.76599997 -0.041634649 1.4101143e-38 383 271
0.085955404 0.76599997 -0.041634649 1.3916027e-38 384 271
0.08729846 0.76599997 -0.041634649 1.3547604e-38 385 271
0.088641517 0.76599997 -0.041634649 1.3271014e-38 386 271
0.089984566 0.76599997 -0.041634649 1.2902231e-38 387 271
0.091446854 0.76700002 -0.041689005 1.2717487e-38 388 271
0.092791654 0.76700002 -0.041689005 1.225651e-38 389 271
0.094136469 0.76700002 -0.041689005 1.1702283e-38 390 271
0.095356777 0.76599997 -0.041634649 1.0227153e-38 391 271
0.096699834 0.76599997 -0.041634649 8.6649052e-39 392 271
0.062022414 0.76899999 -0.043146025 1.5300079e-38 366 272
0.063370727 0.76899999 -0.043146025 1.5300079e-38 367 272
0.06455072 0.76700002 -0.043033812 1.5575574e-38 368 272
0.065895528 0.76700002 -0.043033812 1.566777e-38 369 272
0.067240335 0.76700002 -0.043033812 1.5669569e-38 370 272
0.068495713 0.76599997 -0.042977702 1.58536e-38 371 272
0.069838762 0.76599997 -0.042977702 1.3916072e-38 372 272
0.071181826 0.76599997 -0.042977702 1.2717529e-38 373 272
0.072335519 0.764 -0.042865492 1.0314344e-38 374 272
0.073675066 0.764 -0.042865492 1.0314344e-38 375 272
0.075014614 0.764 -0.042865492 1.132524e-38 376 272
0.07665398 0.76700002 -0.043033812 1.3076957e-38 377 272
0.077998787 0.76700002 -0.043033812 1.3544028e-38 378 272
0.079343595 0.76700002 -0.043033812 1.5203547e-38 379 272
0.080583192 0.76599997 -0.042977702 1.4196584e-38 380 272
0.081926249 0.76599997 -0.042977702 1.3919996e-38 381 272
0.083269298 0.76599997 -0.042977702 1.4010028e-38 382 272
0.084612355 0.76599997 -0.042977702 1.3825277e-38 383 272
0.085955404 0.76599997 -0.042977702 1.3639803e-38 384 272
0.087070532 0.764 -0.042865492 1.3362856e-38 385 272
0.088410079 0.764 -0.042865492 1.2995516e-38 386 272
0.089984566 0.76599997 -0.042977702 1.2534538e-38 387 272
0.091446854 0.76700002 -0.043033812 1.2349074e-38 388 272
0.092791654 0.76700002 -0.043033812 1.1888455e-38 389 272
0.094013728 0.76599997 -0.042977702 1.1242026e-38 390 272
0.095356777 0.76599997 -0.042977702 1.032007e-38 391 272
0.096699834 0.76599997 -0.042977702 8.3894043e-39 392 272
0.062022414 0.76899999 -0.044494338 1.5116764e-38 366 273
0.063370727 0.76899999 -0.044494338 1.5116764e-38 367 273
0.06455072 0.76700002 -0.04437862 1.5300782e-38 368 273
0.065895528 0.76700002 -0.04437862 1.5485173e-38 369 273
0.067152664 0.76599997 -0.044320758 1.5669216e-38 370 273
0.068495713 0.76599997 -0.044320758 1.5484823e-38 371 273
0.069838762 0.76599997 -0.044320758 1.2441671e-38 372 273
0.070995972 0.764 -0.04420504 1.0689594e-38 373 273
0.072335519 0.764 -0.04420504 1.1235209e-38 374 273
0.073675066 0.764 -0.04420504 1.1143013e-38 375 273
0.075014614 0.764 -0.04420504 1.1328108e-38 376 273
0.076354161 0.764 -0.04420504 1.3264216e-38 377 273
0.077998787 0.76700002 -0.04437862 1.4099349e-38 378 273
0.079240143 0.76599997 -0.044320758 1.4744719e-38 379 273
0.080372795 0.764 -0.04420504 1.4563197e-38 380 273
0.081712343 0.764 -0.04420504 1.4378806e-38 381 273
0.08305189 0.764 -0.04420504 1.4285173e-38 382 273
0.084612355 0.76599997 -0.044320758 1.391603e-38 383 273
0.085955404 0.76599997 -0.044320758 1.3455771e-38 384 273
0.087070532 0.764 -0.04420504 1.3179544e-38 385 273
0.088410079 0.764 -0.04420504 1.2627091e-38 386 273
0.089984566 0.76599997 -0.044320758 1.2442698e-38 387 273
0.091446854 0.76700002 -0.04437862 1.1981368e-38 388 273
0.092791654 0.76700002 -0.04437862 1.1335999e-38 389 273
0.094013728 0.76599997 -0.044320758 1.0138923e-38 390 273
0.095356777 0.76599997 -0.044320758 9.216965e-39 391 273
0.060516298 0.76700002 -0.045723427 1.4197714e-38 365 274
0.061861109 0.76700002 -0.045723427 1.5208233e-38 366 274
0.063205913 0.76700002 -0.045723427 1.5208233e-38 367 274
0.06455072 0.76700002 -0.045723427 1.5484808e-38 368 274
0.065895528 0.76700002 -0.045723427 1.5484808e-38 369 274
0.067152664 0.76599997 -0.045663811 1.5208587e-38 370 274
0.068495713 0.76599997 -0.045663811 1.4563217e-38 371 274
0.069656424 0.764 -0.045544583 1.0780692e-38 372 274
0.070995972 0.764 -0.045544583 9.3059208e-39 373 274
0.072146162 0.76200002 -0.045425359 1.1327758e-38 374 274
0.073482201 0.76200002 -0.045425359 1.1880931e-38 375 274
0.074818239 0.76200002 -0.045425359 1.2528815e-38 376 274
0.076154284 0.76200002 -0.045425359 1.4557119e-38 377 274
0.077693708 0.764 -0.045544583 1.5022397e-38 378 274
0.079033248 0.764 -0.045544583 1.474581e-38 379 274
0.080372795 0.764 -0.045544583 1.4563565e-38 380 274
0.081712343 0.764 -0.045544583 1.4102586e-38 381 274
0.08305189 0.764 -0.045544583 1.3916759e-38 382 274
0.084391437 0.764 -0.045544583 1.3639813e-38 383 274
0.085730985 0.764 -0.045544583 1.317991e-38 384 274
0.087070532 0.764 -0.045544583 1.2995519e-38 385 274
0.088410079 0.764 -0.045544583 1.2719289e-38 386 274
0.089984566 0.76599997 -0.045663811 1.2166115e-38 387 274
0.091446854 0.76700002 -0.045723427 1.1613313e-38 388 274
0.092791654 0.76700002 -0.045723427 1.0690998e-38 389 274
0.094013728 0.76599997 -0.045663811 1.0136054e-38 390 274
0.095356777 0.76599997 -0.045663811 9.4906848e-39 391 274
0.055598196 0.755 -0.04633183 1.6412247e-38 362 275
0.057374325 0.76099998 -0.046700031 1.4660532e-38 363 275
0.059094343 0.76599997 -0.047006864 1.4379943e-38 364 275
0.060437392 0.76599997 -0.047006864 1.4656171e-38 365 275
0.061861109 0.76700002 -0.047068235 1.5024202e-38 366 275
0.063205913 0.76700002 -0.047068235 1.5208233e-38 367 275
0.06455072 0.76700002 -0.047068235 1.5392609e-38 368 275
0.065809615 0.76599997 -0.047006864 1.5392609e-38 369 275
0.067152664 0.76599997 -0.047006864 1.5115299e-38 370 275
0.068316877 0.764 -0.046884131 1.3916756e-38 371 275
0.069656424 0.764 -0.046884131 1.0503364e-38 372 275
0.070995972 0.764 -0.046884131 9.3051795e-39 373 275
0.072146162 0.76200002 -0.046761397 1.1055467e-38 374 275
0.073482201 0.76200002 -0.046761397 1.225401e-38 375 275
0.074818239 0.76200002 -0.046761397 1.372951e-38 376 275
0.076154284 0.76200002 -0.046761397 1.4651825e-38 377 275
0.077490322 0.76200002 -0.046761397 1.4838732e-38 378 275
0.079033248 0.764 -0.046884131 1.4654341e-38 379 275
0.080372795 0.764 -0.046884131 1.4652892e-38 380 275
0.081712343 0.764 -0.046884131 1.4468501e-38 381 275
0.08305189 0.764 -0.046884131 1.4007157e-38 382 275
0.084391437 0.764 -0.046884131 1.3730211e-38 383 275
0.085730985 0.764 -0.046884131 1.3086993e-38 384 275
0.087070532 0.764 -0.046884131 1.2810406e-38 385 275
0.088410079 0.764 -0.046884131 1.2442342e-38 386 275
0.089984566 0.76599997 -0.047006864 1.1981724e-38 387 275
0.091327623 0.76599997 -0.047006864 1.1335651e-38 388 275
0.092791654 0.76700002 -0.047068235 1.0598085e-38 389 275
0.094136469 0.76700002 -0.047068235 9.950235e-39 390 275
0.054274432 0.755 -0.047655597 1.6412274e-38 361 276
0.055598196 0.755 -0.047655597 1.5583916e-38 362 276
0.057374325 0.76099998 -0.048034318 1.4108427e-38 363 276
0.058785759 0.76200002 -0.048097439 1.4655438e-38 364 276
0.060437392 0.76599997 -0.048349917 1.4931666e-38 365 276
0.061780453 0.76599997 -0.048349917 1.5024199e-38 366 276
0.063205913 0.76700002 -0.048413042 1.5024199e-38 367 276
0.064466551 0.76599997 -0.048349917 1.5392612e-38 368 276
0.065809615 0.76599997 -0.048349917 1.5392612e-38 369 276
0.06697733 0.764 -0.048223678 1.5115652e-38 370 276
0.068316877 0.764 -0.048223678 1.3824914e-38 371 276
0.069474079 0.76200002 -0.048097439 1.1056536e-38 372 276
0.070810117 0.76200002 -0.048097439 1.013494e-38 373 276
0.072146162 0.76200002 -0.048097439 1.1333496e-38 374 276
0.073482201 0.76200002 -0.048097439 1.2808626e-38 375 276
0.074818239 0.76200002 -0.048097439 1.4560696e-38 376 276
0.076154284 0.76200002 -0.048097439 1.511387e-38 377 276
0.077490322 0.76200002 -0.048097439 1.4655413e-38 378 276
0.079033248 0.764 -0.048223678 1.428663e-38 379 276
0.080162399 0.76200002 -0.048097439 1.4652176e-38 380 276
0.081498444 0.76200002 -0.048097439 1.437523e-38 381 276
0.082834482 0.76200002 -0.048097439 1.3914961e-38 382 276
0.084391437 0.764 -0.048223678 1.3453983e-38 383 276
0.085730985 0.764 -0.048223678 1.2994078e-38 384 276
0.087070532 0.764 -0.048223678 1.2809685e-38 385 276
0.088410079 0.764 -0.048223678 1.2166113e-38 386 276
0.089984566 0.76599997 -0.048349917 1.1520743e-38 387 276
0.091327623 0.76599997 -0.048349917 1.0782121e-38 388 276
0.092791654 0.76700002 -0.048413042 9.9523608e-39 389 276
0.053090934 0.75700003 -0.049109112 1.6781052e-38 360 277
0.054418206 0.75700003 -0.049109112 1.6320074e-38 361 277
0.055892758 0.759 -0.049238857 1.4938897e-38 362 277
0.057374325 0.76099998 -0.049368605 1.3740354e-38 363 277
0.058785759 0.76200002 -0.049433477 1.4563593e-38 364 277
0.060121801 0.76200002 -0.049433477 1.4655788e-38 365 277
0.061619148 0.764 -0.049563225 1.4932356e-38 366 277
0.062958695 0.764 -0.049563225 1.4932356e-38 367 277
0.064298242 0.764 -0.049563225 1.5208937e-38 368 277
0.065465957 0.76200002 -0.049433477 1.5208937e-38 369 277
0.066802002 0.76200002 -0.049433477 1.4839786e-38 370 277
0.068138041 0.76200002 -0.049433477 1.4010025e-38 371 277
0.069474079 0.76200002 -0.049433477 1.3178841e-38 372 277
0.070810117 0.76200002 -0.049433477 1.2533471e-38 373 277
0.072146162 0.76200002 -0.049433477 1.2994459e-38 374 277
0.073482201 0.76200002 -0.049433477 1.3639829e-38 375 277
0.074818239 0.76200002 -0.049433477 1.4561772e-38 376 277
0.076154284 0.76200002 -0.049433477 1.4838359e-38 377 277
0.077490322 0.76200002 -0.049433477 1.4562498e-38 378 277
0.07882636 0.76200002 -0.049433477 1.4469942e-38 379 277
0.080162399 0.76200002 -0.049433477 1.4467426e-38 380 277
0.081498444 0.76200002 -0.049433477 1.4099002e-38 381 277
0.082834482 0.76200002 -0.049433477 1.3730567e-38 382 277
0.084391437 0.764 -0.049563225 1.3361784e-38 383 277
0.085730985 0.764 -0.049563225 1.2810403e-38 384 277
0.087070532 0.764 -0.049563225 1.2441979e-38 385 277
0.088410079 0.764 -0.049563225 1.1798059e-38 386 277
0.089984566 0.76599997 -0.04969297 1.1060492e-38 387 277
0.091327623 0.76599997 -0.04969297 9.9516574e-39 388 277
0.092791654 0.76700002 -0.049757849 9.3984836e-39 389 277
0.053231198 0.759 -0.050569639 1.6781049e-38 360 278
0.054561976 0.759 -0.050569639 1.613568e-38 361 278
0.056040037 0.76099998 -0.050702889 1.4569391e-38 362 278
0.057374325 0.76099998 -0.050702889 1.3555241e-38 363 278
0.058785759 0.76200002 -0.050769519 1.4471397e-38 364 278
0.060121801 0.76200002 -0.050769519 1.4655788e-38 365 278
0.061619148 0.764 -0.050902773 1.4564659e-38 366 278
0.062793881 0.76200002 -0.050769519 1.474941e-38 367 278
0.064129919 0.76200002 -0.050769519 1.4933073e-38 368 278
0.065465957 0.76200002 -0.050769519 1.4933073e-38 369 278
0.066802002 0.76200002 -0.050769519 1.5023823e-38 370 278
0.068138041 0.76200002 -0.050769519 1.4655041e-38 371 278
0.069474079 0.76200002 -0.050769519 1.437918e-38 372 278
0.070717193 0.76099998 -0.050702889 1.4194788e-38 373 278
0.072051473 0.76099998 -0.050702889 1.4192637e-38 374 278
0.073482201 0.76200002 -0.050769519 1.4377028e-38 375 278
0.074720047 0.76099998 -0.050702889 1.4562498e-38 376 278
0.076054335 0.76099998 -0.050702889 1.4562498e-38 377 278
0.077490322 0.76200002 -0.050769519 1.4286277e-38 378 278
0.07882636 0.76200002 -0.050769519 1.4101886e-38 379 278
0.080162399 0.76200002 -0.050769519 1.4099365e-38 380 278
0.081498444 0.76200002 -0.050769519 1.3638747e-38 381 278
0.082834482 0.76200002 -0.050769519 1.3362506e-38 382 278
0.08417052 0.76200002 -0.050769519 1.2993725e-38 383 278
0.085506558 0.76200002 -0.050769519 1.2533822e-38 384 278
0.087070532 0.764 -0.050902773 1.2257235e-38 385 278
0.088410079 0.764 -0.050902773 1.1428213e-38 386 278
0.089984566 0.76599997 -0.051036026 1.0506616e-38 387 278
0.091327623 0.76599997 -0.051036026 8.8471301e-39 388 278
0.051900417 0.759 -0.051900417 1.6320438e-38 359 279
0.053231198 0.759 -0.051900417 1.6598809e-38 360 279
0.05470575 0.76099998 -0.052037176 1.5400266e-38 361 279
0.056040037 0.76099998 -0.052037176 1.3739259e-38 362 279
0.057449725 0.76200002 -0.052105557 1.3278281e-38 363 279
0.058785759 0.76200002 -0.052105557 1.4287353e-38 364 279
0.060121801 0.76200002 -0.052105557 1.4471745e-38 365 279
0.061457843 0.76200002 -0.052105557 1.4656492e-38 366 279
0.062793881 0.76200002 -0.052105557 1.4840523e-38 367 279
0.064129919 0.76200002 -0.052105557 1.4933073e-38 368 279
0.065465957 0.76200002 -0.052105557 1.5025269e-38 369 279
0.066802002 0.76200002 -0.052105557 1.4841229e-38 370 279
0.068048611 0.76099998 -0.052037176 1.4656839e-38 371 279
0.069382899 0.76099998 -0.052037176 1.4197303e-38 372 279
0.070717193 0.76099998 -0.052037176 1.4105107e-38 373 279
0.072051473 0.76099998 -0.052037176 1.4287704e-38 374 279
0.07338576 0.76099998 -0.052037176 1.4287704e-38 375 279
0.074720047 0.76099998 -0.052037176 1.4470296e-38 376 279
0.076054335 0.76099998 -0.052037176 1.4285904e-38 377 279
0.077388622 0.76099998 -0.052037176 1.4284116e-38 378 279
0.078722909 0.76099998 -0.052037176 1.4099365e-38 379 279
0.080057196 0.76099998 -0.052037176 1.3822778e-38 380 279
0.081391476 0.76099998 -0.052037176 1.3453995e-38 381 279
0.082725771 0.76099998 -0.052037176 1.3177759e-38 382 279
0.08417052 0.76200002 -0.052105557 1.2809335e-38 383 279
0.085506558 0.76200002 -0.052105557 1.2256882e-38 384 279
0.087070532 0.764 -0.052242316 1.1795903e-38 385 279
0.088410079 0.764 -0.052242316 1.0412982e-38 386 279
0.089749627 0.764 -0.052242316 9.8601666e-39 387 279
0.051900417 0.759 -0.053231198 1.6505188e-38 359 280
0.053231198 0.759 -0.053231198 1.6412972e-38 360 280
0.05470575 0.76099998 -0.053371463 1.493784e-38 361 280
0.056113683 0.76200002 -0.053441599 1.35527e-38 362 280
0.057449725 0.76200002 -0.053441599 1.35527e-38 363 280
0.058785759 0.76200002 -0.053441599 1.4104051e-38 364 280
0.060121801 0.76200002 -0.053441599 1.4104051e-38 365 280
0.061457843 0.76200002 -0.053441599 1.4105486e-38 366 280
0.062793881 0.76200002 -0.053441599 1.4381713e-38 367 280
0.064045757 0.76099998 -0.053371463 1.4656855e-38 368 280
0.065380037 0.76099998 -0.053371463 1.4656855e-38 369 280
0.066714332 0.76099998 -0.053371463 1.447317e-38 370 280
0.068048611 0.76099998 -0.053371463 1.4380974e-38 371 280
0.069382899 0.76099998 -0.053371463 1.4104743e-38 372 280
0.070717193 0.76099998 -0.053371463 1.3919993e-38 373 280
0.072051473 0.76099998 -0.053371463 1.4011841e-38 374 280
0.07338576 0.76099998 -0.053371463 1.382745e-38 375 280
0.074720047 0.76099998 -0.053371463 1.4100814e-38 376 280
0.076054335 0.76099998 -0.053371463 1.3824226e-38 377 280
0.077388622 0.76099998 -0.053371463 1.3639831e-38 378 280
0.078722909 0.76099998 -0.053371463 1.3363605e-38 379 280
0.080057196 0.76099998 -0.053371463 1.3270683e-38 380 280
0.081391476 0.76099998 -0.053371463 1.2994096e-38 381 280
0.082725771 0.76099998 -0.053371463 1.262567e-38 382 280
0.08417052 0.76200002 -0.053441599 1.2348724e-38 383 280
0.085506558 0.76200002 -0.053441599 1.1703355e-38 384 280
0.086842604 0.76200002 -0.053441599 1.1242735e-38 385 280
0.088410079 0.764 -0.053581864 9.4006346e-39 386 280
0.052037176 0.76099998 -0.05470575 1.6505188e-38 359 281
0.053371463 0.76099998 -0.05470575 1.5675758e-38 360 281
0.05470575 0.76099998 -0.05470575 1.4200628e-38 361 281
0.056113683 0.76200002 -0.054777641 1.3550176e-38 362 281
0.057449725 0.76200002 -0.054777641 1.3827123e-38 363 281
0.058785759 0.76200002 -0.054777641 1.41948e-38 364 281
0.060121801 0.76200002 -0.054777641 1.41948e-38 365 281
0.061457843 0.76200002 -0.054777641 1.4196237e-38 366 281
0.062793881 0.76200002 -0.054777641 1.4380268e-38 367 281
0.064045757 0.76099998 -0.05470575 1.4747611e-38 368 281
0.065380037 0.76099998 -0.05470575 1.4655057e-38 369 281
0.066714332 0.76099998 -0.05470575 1.4563217e-38 370 281
0.068048611 0.76099998 -0.05470575 1.428663e-38 371 281
0.069382899 0.76099998 -0.05470575 1.4102592e-38 372 281
0.070717193 0.76099998 -0.05470575 1.3549418e-38 373 281
0.072051473 0.76099998 -0.05470575 1.3456148e-38 374 281
0.07338576 0.76099998 -0.05470575 1.3732733e-38 375 281
0.074720047 0.76099998 -0.05470575 1.4006806e-38 376 281
0.076054335 0.76099998 -0.05470575 1.3729861e-38 377 281
0.077388622 0.76099998 -0.05470575 1.3637661e-38 378 281
0.078722909 0.76099998 -0.05470575 1.3361434e-38 379 281
0.080057196 0.76099998 -0.05470575 1.2902251e-38 380 281
0.081391476 0.76099998 -0.05470575 1.2625664e-38 381 281
0.082725771 0.76099998 -0.05470575 1.2256163e-38 382 281
0.084060051 0.76099998 -0.05470575 1.188702e-38 383 281
0.085394338 0.76099998 -0.05470575 1.0598082e-38 384 281
0.086842604 0.76200002 -0.054777641 1.004491e-38 385 281
0.052037176 0.76099998 -0.056040037 1.6412271e-38 359 282
0.053371463 0.76099998 -0.056040037 1.4844547e-38 360 282
0.05470575 0.76099998 -0.056040037 1.3646004e-38 361 282
0.056040037 0.76099998 -0.056040037 1.3182823e-38 362 282
0.057449725 0.76200002 -0.056113683 1.3367214e-38 363 282
0.058785759 0.76200002 -0.056113683 1.3643429e-38 364 282
0.060121801 0.76200002 -0.056113683 1.3643429e-38 365 282
0.061377186 0.76099998 -0.056040037 1.3644147e-38 366 282
0.06271147 0.76099998 -0.056040037 1.3828899e-38 367 282
0.064045757 0.76099998 -0.056040037 1.4103688e-38 368 282
0.065380037 0.76099998 -0.056040037 1.4011491e-38 369 282
0.066714332 0.76099998 -0.056040037 1.4194084e-38 370 282
0.068048611 0.76099998 -0.056040037 1.4009693e-38 371 282
0.069382899 0.76099998 -0.056040037 1.3733814e-38 372 282
0.070717193 0.76099998 -0.056040037 1.3088444e-38 373 282
0.072051473 0.76099998 -0.056040037 1.3271757e-38 374 282
0.07338576 0.76099998 -0.056040037 1.3363952e-38 375 282
0.074720047 0.76099998 -0.056040037 1.3453995e-38 376 282
0.076054335 0.76099998 -0.056040037 1.3269604e-38 377 282
0.077388622 0.76099998 -0.056040037 1.3177762e-38 378 282
0.078722909 0.76099998 -0.056040037 1.2901176e-38 379 282
0.080057196 0.76099998 -0.056040037 1.2533474e-38 380 282
0.081391476 0.76099998 -0.056040037 1.2164333e-38 381 282
0.082725771 0.76099998 -0.056040037 1.1426764e-38 382 282
0.084060051 0.76099998 -0.056040037 1.0781394e-38 383 282
0.085394338 0.76099998 -0.056040037 9.860161e-39 384 282
0.050569639 0.759 -0.05722354 1.6779602e-38 358 283
0.051900417 0.759 -0.05722354 1.5858004e-38 359 283
0.053371463 0.76099998 -0.057374325 1.3645262e-38 360 283
0.05470575 0.76099998 -0.057374325 1.2999892e-38 361 283
0.056040037 0.76099998 -0.057374325 1.2998778e-38 362 283
0.057374325 0.76099998 -0.057374325 1.3090974e-38 363 283
0.058708608 0.76099998 -0.057374325 1.3366839e-38 364 283
0.060121801 0.76200002 -0.057449725 1.3366839e-38 365 283
0.061377186 0.76099998 -0.057374325 1.3368271e-38 366 283
0.06271147 0.76099998 -0.057374325 1.3368271e-38 367 283
0.064045757 0.76099998 -0.057374325 1.3734898e-38 368 283
0.065380037 0.76099998 -0.057374325 1.3734898e-38 369 283
0.066714332 0.76099998 -0.057374325 1.3734182e-38 370 283
0.068048611 0.76099998 -0.057374325 1.3549431e-38 371 283
0.069382899 0.76099998 -0.057374325 1.3549421e-38 372 283
0.070717193 0.76099998 -0.057374325 1.3272475e-38 373 283
0.072051473 0.76099998 -0.057374325 1.3088797e-38 374 283
0.07338576 0.76099998 -0.057374325 1.2904046e-38 375 283
0.074720047 0.76099998 -0.057374325 1.2995163e-38 376 283
0.076054335 0.76099998 -0.057374325 1.2718936e-38 377 283
0.077388622 0.76099998 -0.057374325 1.2901529e-38 378 283
0.078722909 0.76099998 -0.057374325 1.2624941e-38 379 283
0.080057196 0.76099998 -0.057374325 1.1889174e-38 380 283
0.081391476 0.76099998 -0.057374325 1.1336002e-38 381 283
0.082725771 0.76099998 -0.057374325 1.0413688e-38 382 283
0.084060051 0.76099998 -0.057374325 9.4920917e-39 383 283
0.050569639 0.759 -0.058554318 1.6130253e-38 358 284
0.051900417 0.759 -0.058554318 1.493171e-38 359 284
0.053371463 0.76099998 -0.058708608 1.2997712e-38 360 284
0.05470575 0.76099998 -0.058708608 1.3089907e-38 361 284
0.056040037 0.76099998 -0.058708608 1.2722904e-38 362 284
0.057374325 0.76099998 -0.058708608 1.2722904e-38 363 284
0.058708608 0.76099998 -0.058708608 1.290658e-38 364 284
0.060042895 0.76099998 -0.058708608 1.290658e-38 365 284
0.061377186 0.76099998 -0.058708608 1.2999128e-38 366 284
0.062546656 0.759 -0.058554318 1.3091683e-38 367 284
0.063877434 0.759 -0.058554318 1.3274276e-38 368 284
0.065208219 0.759 -0.058554318 1.3274276e-38 369 284
0.066538997 0.759 -0.058554318 1.3456872e-38 370 284
0.067869775 0.759 -0.058554318 1.3364318e-38 371 284
0.069200553 0.759 -0.058554318 1.3272473e-38 372 284
0.070717193 0.76099998 -0.058708608 1.2996245e-38 373 284
0.072051473 0.76099998 -0.058708608 1.2812206e-38 374 284
0.07338576 0.76099998 -0.058708608 1.2627456e-38 375 284
0.074720047 0.76099998 -0.058708608 1.2443425e-38 376 284
0.076054335 0.76099998 -0.058708608 1.2074283e-38 377 284
0.077388622 0.76099998 -0.058708608 1.1889171e-38 378 284
0.078722909 0.76099998 -0.058708608 1.1243802e-38 379 284
0.080057196 0.76099998 -0.058708608 1.0415843e-38 380 284
0.081391476 0.76099998 -0.058708608 9.7704737e-39 381 284
0.082725771 0.76099998 -0.058708608 9.399543e-39 382 284
0.049109112 0.75700003 -0.059727304 1.5488143e-38 357 285
0.050436385 0.75700003 -0.059727304 1.4287747e-38 358 285
0.051900417 0.759 -0.059885096 1.3365432e-38 359 285
0.053231198 0.759 -0.059885096 1.2722176e-38 360 285
0.05470575 0.76099998 -0.060042895 1.2814371e-38 361 285
0.056040037 0.76099998 -0.060042895 1.2355198e-38 362 285
0.057374325 0.76099998 -0.060042895 1.2355198e-38 363 285
0.058708608 0.76099998 -0.060042895 1.2263012e-38 364 285
0.060042895 0.76099998 -0.060042895 1.2263012e-38 365 285
0.061377186 0.76099998 -0.060042895 1.2538876e-38 366 285
0.062546656 0.759 -0.059885096 1.2538876e-38 367 285
0.063877434 0.759 -0.059885096 1.2630353e-38 368 285
0.065208219 0.759 -0.059885096 1.2538157e-38 369 285
0.066538997 0.759 -0.059885096 1.2537804e-38 370 285
0.067869775 0.759 -0.059885096 1.2445607e-38 371 285
0.069200553 0.759 -0.059885096 1.2628907e-38 372 285
0.070717193 0.76099998 -0.060042895 1.2444157e-38 373 285
0.072051473 0.76099998 -0.060042895 1.1801294e-38 374 285
0.07338576 0.76099998 -0.060042895 1.1709099e-38 375 285
0.074720047 0.76099998 -0.060042895 1.1798056e-38 376 285
0.076054335 0.76099998 -0.060042895 1.1521468e-38 377 285
0.077388622 0.76099998 -0.060042895 1.115304e-38 378 285
0.078722909 0.76099998 -0.060042895 1.0323278e-38 379 285
0.080057196 0.76099998 -0.060042895 9.6772187e-39 380 285
0.081391476 0.76099998 -0.060042895 9.0318492e-39 381 285
0.082725771 0.76099998 -0.060042895 8.660934e-39 382 285
0.048979364 0.755 -0.060893264 1.3550927e-38 357 286
0.050303131 0.755 -0.060893264 1.3182456e-38 358 286
0.051900417 0.759 -0.061215881 1.309026e-38 359 286
0.053231198 0.759 -0.061215881 1.2355546e-38 360 286
0.054561976 0.759 -0.061215881 1.2355546e-38 361 286
0.056040037 0.76099998 -0.061377186 1.2262995e-38 362 286
0.057374325 0.76099998 -0.061377186 1.21708e-38 363 286
0.058708608 0.76099998 -0.061377186 1.2261919e-38 364 286
0.060042895 0.76099998 -0.061377186 1.2354115e-38 365 286
0.061215881 0.759 -0.061215881 1.2353393e-38 366 286
0.062546656 0.759 -0.061215881 1.2445589e-38 367 286
0.063877434 0.759 -0.061215881 1.2260479e-38 368 286
0.065208219 0.759 -0.061215881 1.2260479e-38 369 286
