# .PCD v.7 - Point Cloud Data file format
FIELDS x y z rgb imX imY
SIZE 4 4 4 4 4 4
TYPE F F F F F F
COUNT 1 1 1 1 1 1
WIDTH 840
HEIGHT 1
VIEWPOINT 0 0 0 1 0 0 0
POINTS 840
DATA ascii
-0.093743719 0.79799998 0.0041974802 1.6035786e-38 253 237
-0.092575997 0.80000001 0.0042079999 1.5484763e-38 254 237
-0.091173328 0.80000001 0.0042079999 1.5208176e-38 255 237
-0.089995086 0.80199999 0.0042185197 1.4839046e-38 256 237
-0.088588916 0.80199999 0.0042185197 1.4008926e-38 257 237
-0.087291449 0.80299997 0.0042237798 1.3362503e-38 258 237
-0.086097427 0.80500001 0.0042343 1.2901885e-38 259 237
-0.084685996 0.80500001 0.0042343 1.2164706e-38 260 237
-0.083274566 0.80500001 0.0042343 1.1980314e-38 261 237
-0.11811855 0.80199999 0.0028123464 1.5028178e-38 236 238
-0.11642133 0.80000001 0.0028053334 1.4382808e-38 237 238
-0.11501866 0.80000001 0.0028053334 1.5853571e-38 238 238
-0.11333196 0.79799998 0.0027983198 1.6221994e-38 239 238
-0.11165226 0.796 0.0027913067 1.6589703e-38 240 238
-0.1102566 0.796 0.0027913067 1.6866292e-38 241 238
-0.10886096 0.796 0.0027913067 1.7142521e-38 242 238
-0.1074653 0.796 0.0027913067 1.7235076e-38 243 238
-0.10606965 0.796 0.0027913067 1.7143956e-38 244 238
-0.104411 0.79400003 0.0027842934 1.7327987e-38 245 238
-0.10301885 0.79400003 0.0027842934 1.7328338e-38 246 238
-0.10162671 0.79400003 0.0027842934 1.7328338e-38 247 238
-0.10023456 0.79400003 0.0027842934 1.7327972e-38 248 238
-0.098842412 0.79400003 0.0027842934 1.7235776e-38 249 238
-0.097450264 0.79400003 0.0027842934 1.7050659e-38 250 238
-0.096300073 0.796 0.0027913067 1.6958464e-38 251 238
-0.094904423 0.796 0.0027913067 1.6589664e-38 252 238
-0.093743719 0.79799998 0.0027983198 1.6220883e-38 253 238
-0.092344552 0.79799998 0.0027983198 1.5760614e-38 254 238
-0.090945393 0.79799998 0.0027983198 1.5483668e-38 255 238
-0.089770667 0.80000001 0.0028053334 1.4839043e-38 256 238
-0.088588916 0.80199999 0.0028123464 1.4009282e-38 257 238
-0.087291449 0.80299997 0.0028158531 1.3455055e-38 258 238
-0.086097427 0.80500001 0.0028228667 1.2994078e-38 259 238
-0.084685996 0.80500001 0.0028228667 1.2440569e-38 260 238
-0.083274566 0.80500001 0.0028228667 1.2256178e-38 261 238
-0.081863128 0.80500001 0.0028228667 1.1151663e-38 262 238
-0.117824 0.80000001 0.0014026667 1.521113e-38 236 239
-0.11642133 0.80000001 0.0014026667 1.4750152e-38 237 239
-0.11473111 0.79799998 0.0013991599 1.6220548e-38 238 239
-0.11333196 0.79799998 0.0013991599 1.6497136e-38 239 239
-0.11165226 0.796 0.0013956534 1.6773e-38 240 239
-0.10997958 0.79400003 0.0013921467 1.7233977e-38 241 239
-0.10858744 0.79400003 0.0013921467 1.7233628e-38 242 239
-0.10719529 0.79400003 0.0013921467 1.7418019e-38 243 239
-0.10580315 0.79400003 0.0013921467 1.7235073e-38 244 239
-0.104411 0.79400003 0.0013921467 1.7327269e-38 245 239
-0.10301885 0.79400003 0.0013921467 1.741982e-38 246 239
-0.10137071 0.792 0.0013886399 1.741982e-38 247 239
-0.099982075 0.792 0.0013886399 1.7603132e-38 248 239
-0.098842412 0.79400003 0.0013921467 1.7326906e-38 249 239
-0.097450264 0.79400003 0.0013921467 1.7143225e-38 250 239
-0.096058123 0.79400003 0.0013921467 1.6682605e-38 251 239
-0.094665974 0.79400003 0.0013921467 1.6498559e-38 252 239
-0.093508773 0.796 0.0013956534 1.5853189e-38 253 239
-0.092113115 0.796 0.0013956534 1.5576961e-38 254 239
-0.090717465 0.796 0.0013956534 1.520782e-38 255 239
-0.089546233 0.79799998 0.0013991599 1.474685e-38 256 239
-0.088367999 0.80000001 0.0014026667 1.4101481e-38 257 239
-0.087182745 0.80199999 0.0014061732 1.3638367e-38 258 239
-0.086097427 0.80500001 0.0014114333 1.336214e-38 259 239
-0.084685996 0.80500001 0.0014114333 1.2166146e-38 260 239
-0.083274566 0.80500001 0.0014114333 1.1797724e-38 261 239
-0.081863128 0.80500001 0.0014114333 1.124314e-38 262 239
-0.1189286 0.79799998 -0 1.5398465e-38 235 240
-0.11752943 0.79799998 -0 1.5302246e-38 236 240
-0.11642133 0.80000001 -0 1.4933464e-38 237 240
-0.11444358 0.796 -0 1.6037604e-38 238 240
-0.11304791 0.796 -0 1.6129802e-38 239 240
-0.11165226 0.796 -0 1.6406391e-38 240 240
-0.10997958 0.79400003 -0 1.6682618e-38 241 240
-0.10858744 0.79400003 -0 1.7049963e-38 242 240
-0.10692528 0.792 -0 1.7234354e-38 243 240
-0.10553664 0.792 -0 1.7327269e-38 244 240
-0.104148 0.792 -0 1.7419464e-38 245 240
-0.10249986 0.79000002 -0 1.741982e-38 246 240
-0.10111474 0.79000002 -0 1.741982e-38 247 240
-0.099729598 0.79000002 -0 1.7510934e-38 248 240
-0.098593436 0.792 -0 1.7326903e-38 249 240
-0.097204797 0.792 -0 1.7050662e-38 250 240
-0.095816158 0.792 -0 1.6866271e-38 251 240
-0.094427519 0.792 -0 1.6405993e-38 252 240
-0.093273826 0.79400003 -0 1.6037571e-38 253 240
-0.091881685 0.79400003 -0 1.5760258e-38 254 240
-0.090489529 0.79400003 -0 1.5483671e-38 255 240
-0.089321814 0.796 -0 1.5297485e-38 256 240
-0.087926157 0.796 -0 1.4836147e-38 257 240
-0.087182745 0.80199999 -0 1.4374116e-38 258 240
-0.085883521 0.80299997 -0 1.3821301e-38 259 240
-0.084685996 0.80500001 -0 1.3175974e-38 260 240
-0.083481453 0.80699998 -0 1.2899027e-38 261 240
-0.11863054 0.796 -0.0013956534 1.5305914e-38 235 241
-0.11723487 0.796 -0.0013956534 1.5026378e-38 236 241
-0.11613028 0.79799998 -0.0013991599 1.4657956e-38 237 241
-0.11444358 0.796 -0.0013956534 1.6036167e-38 238 241
-0.11304791 0.796 -0.0013956534 1.6404591e-38 239 241
-0.11165226 0.796 -0.0013956534 1.6680098e-38 240 241
-0.10997958 0.79400003 -0.0013921467 1.704924e-38 241 241
-0.10831392 0.792 -0.0013886399 1.6866645e-38 242 241
-0.10692528 0.792 -0.0013886399 1.714323e-38 243 241
-0.10553664 0.792 -0.0013886399 1.7052114e-38 244 241
-0.10388499 0.79000002 -0.0013851334 1.7144309e-38 245 241
-0.10249986 0.79000002 -0.0013851334 1.7327622e-38 246 241
-0.10111474 0.79000002 -0.0013851334 1.7327622e-38 247 241
-0.099729598 0.79000002 -0.0013851334 1.7144309e-38 248 241
-0.09834446 0.79000002 -0.0013851334 1.7052114e-38 249 241
-0.096959338 0.79000002 -0.0013851334 1.6867717e-38 250 241
-0.0955742 0.79000002 -0.0013851334 1.6498934e-38 251 241
-0.094189063 0.79000002 -0.0013851334 1.6315247e-38 252 241
-0.092803933 0.79000002 -0.0013851334 1.5762073e-38 253 241
-0.091650233 0.792 -0.0013886399 1.5761344e-38 254 241
-0.090261593 0.792 -0.0013886399 1.5300725e-38 255 241
-0.088872954 0.792 -0.0013886399 1.5022708e-38 256 241
-0.087484315 0.792 -0.0013886399 1.4561732e-38 257 241
-0.086747915 0.79799998 -0.0013991599 1.3823832e-38 258 241
-0.085776575 0.80199999 -0.0014061732 1.3455408e-38 259 241
-0.084370397 0.80199999 -0.0014061732 1.2809352e-38 260 241
-0.11833248 0.79400003 -0.0027842934 1.4938209e-38 235 242
-0.11694031 0.79400003 -0.0027842934 1.4934539e-38 236 242
-0.11583922 0.796 -0.0027913067 1.4565758e-38 237 242
-0.11444358 0.796 -0.0027913067 1.5944334e-38 238 242
-0.11276388 0.79400003 -0.0027842934 1.6128725e-38 239 242
-0.11137174 0.79400003 -0.0027842934 1.6496436e-38 240 242
-0.10997958 0.79400003 -0.0027842934 1.6865217e-38 241 242
-0.10831392 0.792 -0.0027772798 1.6958846e-38 242 242
-0.10692528 0.792 -0.0027772798 1.7235073e-38 243 242
-0.10527013 0.79000002 -0.0027702667 1.7052114e-38 244 242
-0.10388499 0.79000002 -0.0027702667 1.7144309e-38 245 242
-0.10249986 0.79000002 -0.0027702667 1.7603485e-38 246 242
-0.10111474 0.79000002 -0.0027702667 1.7603485e-38 247 242
-0.099729598 0.79000002 -0.0027702667 1.7419814e-38 248 242
-0.09834446 0.79000002 -0.0027702667 1.7327619e-38 249 242
-0.096959338 0.79000002 -0.0027702667 1.6959547e-38 250 242
-0.09545321 0.78899997 -0.0027667598 1.6775154e-38 251 242
-0.094069831 0.78899997 -0.0027667598 1.6498909e-38 252 242
-0.092803933 0.79000002 -0.0027702667 1.603829e-38 253 242
-0.091418803 0.79000002 -0.0027702667 1.576205e-38 254 242
-0.090033665 0.79000002 -0.0027702667 1.5301072e-38 255 242
-0.088648535 0.79000002 -0.0027702667 1.5298923e-38 256 242
-0.087263398 0.79000002 -0.0027702667 1.4837946e-38 257 242
-0.086095676 0.792 -0.0027772798 1.3916731e-38 258 242
-0.084707037 0.792 -0.0027772798 1.3548307e-38 259 242
-0.083318397 0.792 -0.0027772798 1.3269241e-38 260 242
-0.11833248 0.79400003 -0.0041764397 1.4662345e-38 235 243
-0.11694031 0.79400003 -0.0041764397 1.4750152e-38 236 243
-0.11583922 0.796 -0.0041869599 1.4473565e-38 237 243
-0.11444358 0.796 -0.0041869599 1.5943615e-38 238 243
-0.11276388 0.79400003 -0.0041764397 1.6219842e-38 239 243
-0.11137174 0.79400003 -0.0041764397 1.6679751e-38 240 243
-0.10970256 0.792 -0.00416592 1.6956338e-38 241 243
-0.1080404 0.79000002 -0.0041554002 1.6866295e-38 242 243
-0.10665527 0.79000002 -0.0041554002 1.7142521e-38 243 243
-0.10527013 0.79000002 -0.0041554002 1.723507e-38 244 243
-0.10388499 0.79000002 -0.0041554002 1.7327266e-38 245 243
-0.10249986 0.79000002 -0.0041554002 1.760313e-38 246 243
-0.10098673 0.78899997 -0.0041501396 1.7510934e-38 247 243
-0.099603355 0.78899997 -0.0041501396 1.7603485e-38 248 243
-0.098219968 0.78899997 -0.0041501396 1.7510931e-38 249 243
-0.096836597 0.78899997 -0.0041501396 1.7143578e-38 250 243
-0.09545321 0.78899997 -0.0041501396 1.6775154e-38 251 243
-0.094069831 0.78899997 -0.0041501396 1.659111e-38 252 243
-0.092686452 0.78899997 -0.0041501396 1.6130132e-38 253 243
-0.091418803 0.79000002 -0.0041554002 1.5853896e-38 254 243
-0.090033665 0.79000002 -0.0041554002 1.5392918e-38 255 243
-0.088648535 0.79000002 -0.0041554002 1.5115975e-38 256 243
-0.087263398 0.79000002 -0.0041554002 1.4655355e-38 257 243
-0.08587826 0.79000002 -0.0041554002 1.4193676e-38 258 243
-0.084493138 0.79000002 -0.0041554002 1.3916731e-38 259 243
-0.083108 0.79000002 -0.0041554002 1.3637664e-38 260 243
-0.11803439 0.792 -0.0055545596 1.4570149e-38 235 244
-0.11664575 0.792 -0.0055545596 1.4473565e-38 236 244
-0.11554817 0.79400003 -0.0055685868 1.4381009e-38 237 244
-0.11415602 0.79400003 -0.0055685868 1.5851773e-38 238 244
-0.11247984 0.792 -0.0055545596 1.6036164e-38 239 244
-0.1110912 0.792 -0.0055545596 1.6587906e-38 240 244
-0.10942553 0.79000002 -0.0055405335 1.6864492e-38 241 244
-0.1080404 0.79000002 -0.0055405335 1.6774448e-38 242 244
-0.10665527 0.79000002 -0.0055405335 1.6958841e-38 243 244
-0.10513687 0.78899997 -0.0055335197 1.7235426e-38 244 244
-0.10375349 0.78899997 -0.0055335197 1.7327622e-38 245 244
-0.10237011 0.78899997 -0.0055335197 1.7419817e-38 246 244
-0.10098673 0.78899997 -0.0055335197 1.7419817e-38 247 244
-0.099603355 0.78899997 -0.0055335197 1.7327975e-38 248 244
-0.098219968 0.78899997 -0.0055335197 1.7235779e-38 249 244
-0.096836597 0.78899997 -0.0055335197 1.7143578e-38 250 244
-0.09545321 0.78899997 -0.0055335197 1.6775154e-38 251 244
-0.094069831 0.78899997 -0.0055335197 1.6590754e-38 252 244
-0.092686452 0.78899997 -0.0055335197 1.6130135e-38 253 244
-0.091303073 0.78899997 -0.0055335197 1.5946094e-38 254 244
-0.089919694 0.78899997 -0.0055335197 1.5577312e-38 255 244
-0.088536315 0.78899997 -0.0055335197 1.5300725e-38 256 244
-0.087152928 0.78899997 -0.0055335197 1.4931942e-38 257 244
-0.085769556 0.78899997 -0.0055335197 1.4653933e-38 258 244
-0.08438617 0.78899997 -0.0055335197 1.4100759e-38 259 244
-0.083528802 0.79400003 -0.0055685868 1.36391e-38 260 244
-0.082136653 0.79400003 -0.0055685868 1.3454349e-38 261 244
-0.11803439 0.792 -0.0069431998 1.429392e-38 235 245
-0.11664575 0.792 -0.0069431998 1.4105501e-38 236 245
-0.11525711 0.792 -0.0069431998 1.4105501e-38 237 245
-0.11386847 0.792 -0.0069431998 1.5575909e-38 238 245
-0.11247984 0.792 -0.0069431998 1.5852136e-38 239 245
-0.11081067 0.79000002 -0.0069256667 1.6128731e-38 240 245
-0.10942553 0.79000002 -0.0069256667 1.6497155e-38 241 245
-0.10790364 0.78899997 -0.0069168997 1.6682618e-38 242 245
-0.10652025 0.78899997 -0.0069168997 1.6867011e-38 243 245
-0.10513687 0.78899997 -0.0069168997 1.7051758e-38 244 245
-0.10375349 0.78899997 -0.0069168997 1.7143953e-38 245 245
-0.10237011 0.78899997 -0.0069168997 1.7143953e-38 246 245
-0.10098673 0.78899997 -0.0069168997 1.7143953e-38 247 245
-0.099603355 0.78899997 -0.0069168997 1.7511287e-38 248 245
-0.098219968 0.78899997 -0.0069168997 1.7327256e-38 249 245
-0.096836597 0.78899997 -0.0069168997 1.69599e-38 250 245
-0.09545321 0.78899997 -0.0069168997 1.6775149e-38 251 245
-0.094069831 0.78899997 -0.0069168997 1.659111e-38 252 245
-0.092686452 0.78899997 -0.0069168997 1.6222328e-38 253 245
-0.091303073 0.78899997 -0.0069168997 1.6221599e-38 254 245
-0.089919694 0.78899997 -0.0069168997 1.5853177e-38 255 245
-0.088536315 0.78899997 -0.0069168997 1.5576586e-38 256 245
-0.087152928 0.78899997 -0.0069168997 1.5207805e-38 257 245
-0.085769556 0.78899997 -0.0069168997 1.511526e-38 258 245
-0.08438617 0.78899997 -0.0069168997 1.4469891e-38 259 245
-0.083002798 0.78899997 -0.0069168997 1.391568e-38 260 245
-0.081722863 0.79000002 -0.0069256667 1.3362506e-38 261 245
-0.11773633 0.79000002 -0.0083108004 1.4477951e-38 235 246
-0.11635119 0.79000002 -0.0083108004 1.4289894e-38 236 246
-0.11496606 0.79000002 -0.0083108004 1.4013306e-38 237 246
-0.11386847 0.792 -0.0083318399 1.5666658e-38 238 246
-0.1121958 0.79000002 -0.0083108004 1.6035082e-38 239 246
-0.11081067 0.79000002 -0.0083108004 1.6403142e-38 240 246
-0.10942553 0.79000002 -0.0083108004 1.6772284e-38 241 246
-0.10790364 0.78899997 -0.0083002793 1.6865202e-38 242 246
-0.10652025 0.78899997 -0.0083002793 1.7233625e-38 243 246
-0.10513687 0.78899997 -0.0083002793 1.7143228e-38 244 246
-0.10375349 0.78899997 -0.0083002793 1.7327619e-38 245 246
-0.10237011 0.78899997 -0.0083002793 1.7235423e-38 246 246
-0.10098673 0.78899997 -0.0083002793 1.7327619e-38 247 246
-0.099350877 0.787 -0.0082792398 1.7327256e-38 248 246
-0.097971 0.787 -0.0082792398 1.7327256e-38 249 246
-0.09659113 0.787 -0.0082792398 1.6960268e-38 250 246
-0.09521126 0.787 -0.0082792398 1.6775517e-38 251 246
-0.093831383 0.787 -0.0082792398 1.6499287e-38 252 246
-0.092451513 0.787 -0.0082792398 1.6222701e-38 253 246
-0.091071643 0.787 -0.0082792398 1.6130498e-38 254 246
-0.089691758 0.787 -0.0082792398 1.5762076e-38 255 246
-0.088536315 0.78899997 -0.0083002793 1.5577328e-38 256 246
-0.087152928 0.78899997 -0.0083002793 1.5208905e-38 257 246
-0.085769556 0.78899997 -0.0083002793 1.4931959e-38 258 246
-0.08438617 0.78899997 -0.0083002793 1.447134e-38 259 246
-0.083002798 0.78899997 -0.0083002793 1.4008226e-38 260 246
-0.081722863 0.79000002 -0.0083108004 1.3362856e-38 261 246
-0.11773633 0.79000002 -0.0096959332 1.4845294e-38 235 247
-0.11635119 0.79000002 -0.0096959332 1.4474284e-38 236 247
-0.11496606 0.79000002 -0.0096959332 1.4013306e-38 237 247
-0.11386847 0.792 -0.0097204801 1.4933053e-38 238 247
-0.1121958 0.79000002 -0.0096959332 1.520964e-38 239 247
-0.11081067 0.79000002 -0.0096959332 1.5760666e-38 240 247
-0.10928701 0.78899997 -0.0096836593 1.6129448e-38 241 247
-0.10790364 0.78899997 -0.0096836593 1.6406038e-38 242 247
-0.10652025 0.78899997 -0.0096836593 1.6774462e-38 243 247
-0.10513687 0.78899997 -0.0096836593 1.6959565e-38 244 247
-0.10375349 0.78899997 -0.0096836593 1.7051761e-38 245 247
-0.10211062 0.787 -0.0096591124 1.7326906e-38 246 247
-0.10073075 0.787 -0.0096591124 1.7326906e-38 247 247
-0.099350877 0.787 -0.0096591124 1.7235426e-38 248 247
-0.097971 0.787 -0.0096591124 1.714323e-38 249 247
-0.09659113 0.787 -0.0096591124 1.6959194e-38 250 247
-0.09521126 0.787 -0.0096591124 1.6866998e-38 251 247
-0.093831383 0.787 -0.0096591124 1.6866265e-38 252 247
-0.092451513 0.787 -0.0096591124 1.6590038e-38 253 247
-0.091071643 0.787 -0.0096591124 1.6589664e-38 254 247
-0.089691758 0.787 -0.0096591124 1.6220883e-38 255 247
-0.088311888 0.787 -0.0096591124 1.585318e-38 256 247
-0.086932018 0.787 -0.0096591124 1.5668428e-38 257 247
-0.085769556 0.78899997 -0.0096836593 1.5574798e-38 258 247
-0.08438617 0.78899997 -0.0096836593 1.5297851e-38 259 247
-0.083002798 0.78899997 -0.0096836593 1.492694e-38 260 247
-0.081619412 0.78899997 -0.0096836593 1.4558516e-38 261 247
-0.080236033 0.78899997 -0.0096836593 1.3547305e-38 262 247
-0.11773633 0.79000002 -0.011081067 1.4937493e-38 235 248
-0.11635119 0.79000002 -0.011081067 1.4198064e-38 236 248
-0.11525711 0.792 -0.011109119 1.3645249e-38 237 248
-0.11358093 0.79000002 -0.011081067 1.5116003e-38 238 248
-0.1121958 0.79000002 -0.011081067 1.5392229e-38 239 248
-0.11081067 0.79000002 -0.011081067 1.5576256e-38 240 248
-0.10928701 0.78899997 -0.011067039 1.6037233e-38 241 248
-0.10790364 0.78899997 -0.011067039 1.6497492e-38 242 248
-0.10652025 0.78899997 -0.011067039 1.6865915e-38 243 248
-0.10487037 0.787 -0.011038986 1.6866998e-38 244 248
-0.1034905 0.787 -0.011038986 1.6959194e-38 245 248
-0.10211062 0.787 -0.011038986 1.7142506e-38 246 248
-0.10073075 0.787 -0.011038986 1.7142506e-38 247 248
-0.099350877 0.787 -0.011038986 1.6959194e-38 248 248
-0.097971 0.787 -0.011038986 1.6959194e-38 249 248
-0.09659113 0.787 -0.011038986 1.6959194e-38 250 248
-0.09521126 0.787 -0.011038986 1.6866998e-38 251 248
-0.093831383 0.787 -0.011038986 1.7050662e-38 252 248
-0.092451513 0.787 -0.011038986 1.6681881e-38 253 248
-0.091071643 0.787 -0.011038986 1.6498559e-38 254 248
-0.089691758 0.787 -0.011038986 1.6037939e-38 255 248
-0.088311888 0.787 -0.011038986 1.5945388e-38 256 248
-0.086932018 0.787 -0.011038986 1.5576964e-38 257 248
-0.085769556 0.78899997 -0.011067039 1.5391864e-38 258 248
-0.08438617 0.78899997 -0.011067039 1.5115277e-38 259 248
-0.083002798 0.78899997 -0.011067039 1.4561044e-38 260 248
-0.081619412 0.78899997 -0.011067039 1.419262e-38 261 248
-0.080236033 0.78899997 -0.011067039 1.3455094e-38 262 248
-0.11635119 0.79000002 -0.0124662 1.3922559e-38 236 249
-0.11482053 0.78899997 -0.012450419 1.3277189e-38 237 249
-0.11343715 0.78899997 -0.012450419 1.4840142e-38 238 249
-0.11205377 0.78899997 -0.012450419 1.5116368e-38 239 249
-0.1106704 0.78899997 -0.012450419 1.5575906e-38 240 249
-0.10928701 0.78899997 -0.012450419 1.5944687e-38 241 249
-0.10763012 0.787 -0.01241886 1.6221631e-38 242 249
-0.10625024 0.787 -0.01241886 1.6590054e-38 243 249
-0.10487037 0.787 -0.01241886 1.6683324e-38 244 249
-0.1034905 0.787 -0.01241886 1.6867717e-38 245 249
-0.10211062 0.787 -0.01241886 1.7142509e-38 246 249
-0.10073075 0.787 -0.01241886 1.7050313e-38 247 249
-0.099350877 0.787 -0.01241886 1.6866645e-38 248 249
-0.097971 0.787 -0.01241886 1.6958841e-38 249 249
-0.09659113 0.787 -0.01241886 1.6774445e-38 250 249
-0.09521126 0.787 -0.01241886 1.6774445e-38 251 249
-0.093831383 0.787 -0.01241886 1.704994e-38 252 249
-0.092451513 0.787 -0.01241886 1.6865549e-38 253 249
-0.090840198 0.78500003 -0.0123873 1.6590389e-38 254 249
-0.08946383 0.78500003 -0.0123873 1.63138e-38 255 249
-0.088087469 0.78500003 -0.0123873 1.622053e-38 256 249
-0.086932018 0.787 -0.01241886 1.5943942e-38 257 249
-0.085552141 0.787 -0.01241886 1.5575526e-38 258 249
-0.084172271 0.787 -0.01241886 1.52993e-38 259 249
-0.082792401 0.787 -0.01241886 1.4928737e-38 260 249
-0.081619412 0.78899997 -0.012450419 1.4744346e-38 261 249
-0.080236033 0.78899997 -0.012450419 1.3730958e-38 262 249
-0.078852654 0.78899997 -0.012450419 1.3730958e-38 263 249
-0.11620392 0.78899997 -0.013833799 1.3830003e-38 236 250
-0.11482053 0.78899997 -0.013833799 1.3092438e-38 237 250
-0.11343715 0.78899997 -0.013833799 1.4747593e-38 238 250
-0.11205377 0.78899997 -0.013833799 1.502382e-38 239 250
-0.1106704 0.78899997 -0.013833799 1.5667024e-38 240 250
-0.10900999 0.787 -0.013798732 1.5943612e-38 241 250
-0.10763012 0.787 -0.013798732 1.6129432e-38 242 250
-0.10625024 0.787 -0.013798732 1.6497855e-38 243 250
-0.10460387 0.78500003 -0.013763667 1.6683324e-38 244 250
-0.1032275 0.78500003 -0.013763667 1.6775521e-38 245 250
-0.10185113 0.78500003 -0.013763667 1.6959194e-38 246 250
-0.10047477 0.78500003 -0.013763667 1.6866998e-38 247 250
-0.099098399 0.78500003 -0.013763667 1.6958113e-38 248 250
-0.097722031 0.78500003 -0.013763667 1.705031e-38 249 250
-0.096345663 0.78500003 -0.013763667 1.705031e-38 250 250
-0.094969295 0.78500003 -0.013763667 1.705031e-38 251 250
-0.093592934 0.78500003 -0.013763667 1.704994e-38 252 250
-0.092216566 0.78500003 -0.013763667 1.6957745e-38 253 250
-0.090840198 0.78500003 -0.013763667 1.6773704e-38 254 250
-0.08946383 0.78500003 -0.013763667 1.6589311e-38 255 250
-0.088087469 0.78500003 -0.013763667 1.6404198e-38 256 250
-0.086711101 0.78500003 -0.013763667 1.6127971e-38 257 250
-0.085334733 0.78500003 -0.013763667 1.5759911e-38 258 250
-0.084172271 0.787 -0.013798732 1.5482965e-38 259 250
-0.082792401 0.787 -0.013798732 1.5114202e-38 260 250
-0.081412524 0.787 -0.013798732 1.4653583e-38 261 250
-0.080032654 0.787 -0.013798732 1.4007175e-38 262 250
-0.078852654 0.78899997 -0.013833799 1.391462e-38 263 250
-0.11620392 0.78899997 -0.015217179 1.3921483e-38 236 251
-0.11482053 0.78899997 -0.015217179 1.3091722e-38 237 251
-0.11343715 0.78899997 -0.015217179 1.4930539e-38 238 251
-0.11176974 0.787 -0.015178605 1.5206766e-38 239 251
-0.11038986 0.787 -0.015178605 1.5666653e-38 240 251
-0.10900999 0.787 -0.015178605 1.6035435e-38 241 251
-0.1073566 0.78500003 -0.015140033 1.6312375e-38 242 251
-0.10571022 0.78299999 -0.01510146 1.6681158e-38 243 251
-0.10433736 0.78299999 -0.01510146 1.66826e-38 244 251
-0.10296449 0.78299999 -0.01510146 1.6775154e-38 245 251
-0.10159164 0.78299999 -0.01510146 1.686735e-38 246 251
-0.10021878 0.78299999 -0.01510146 1.686735e-38 247 251
-0.098845914 0.78299999 -0.01510146 1.686735e-38 248 251
-0.097473055 0.78299999 -0.01510146 1.686735e-38 249 251
-0.096345663 0.78500003 -0.015140033 1.686735e-38 250 251
-0.094727337 0.78299999 -0.01510146 1.6959547e-38 251 251
-0.093354478 0.78299999 -0.01510146 1.7050662e-38 252 251
-0.091981612 0.78299999 -0.01510146 1.6958466e-38 253 251
-0.090608761 0.78299999 -0.01510146 1.668259e-38 254 251
-0.089235894 0.78299999 -0.01510146 1.649784e-38 255 251
-0.087863036 0.78299999 -0.01510146 1.6496391e-38 256 251
-0.086490177 0.78299999 -0.01510146 1.6127969e-38 257 251
-0.085334733 0.78500003 -0.015140033 1.594322e-38 258 251
-0.083958365 0.78500003 -0.015140033 1.5758829e-38 259 251
-0.082582004 0.78500003 -0.015140033 1.5114552e-38 260 251
-0.081412524 0.787 -0.015178605 1.4746129e-38 261 251
-0.080032654 0.787 -0.015178605 1.419299e-38 262 251
-0.078852654 0.78899997 -0.015217179 1.3732012e-38 263 251
-0.11452948 0.787 -0.01655848 1.2814782e-38 237 252
-0.11286207 0.78500003 -0.016516401 1.4562832e-38 238 252
-0.1114857 0.78500003 -0.016516401 1.5023451e-38 239 252
-0.11010934 0.78500003 -0.016516401 1.5574813e-38 240 252
-0.10873297 0.78500003 -0.016516401 1.5943237e-38 241 252
-0.10708307 0.78299999 -0.01647432 1.5761372e-38 242 252
-0.10571022 0.78299999 -0.01647432 1.6129796e-38 243 252
-0.10433736 0.78299999 -0.01647432 1.659041e-38 244 252
-0.10296449 0.78299999 -0.01647432 1.6866998e-38 245 252
-0.10159164 0.78299999 -0.01647432 1.6959544e-38 246 252
-0.10021878 0.78299999 -0.01647432 1.6959544e-38 247 252
-0.098845914 0.78299999 -0.01647432 1.6959544e-38 248 252
-0.097473055 0.78299999 -0.01647432 1.6959544e-38 249 252
-0.096100196 0.78299999 -0.01647432 1.7235405e-38 250 252
-0.094727337 0.78299999 -0.01647432 1.7235405e-38 251 252
-0.09311603 0.78100002 -0.016432239 1.7326878e-38 252 252
-0.091746673 0.78100002 -0.016432239 1.7234681e-38 253 252
-0.090377316 0.78100002 -0.016432239 1.6958451e-38 254 252
-0.089007966 0.78100002 -0.016432239 1.6681505e-38 255 252
-0.087638609 0.78100002 -0.016432239 1.6588577e-38 256 252
-0.086269259 0.78100002 -0.016432239 1.6311631e-38 257 252
-0.08511731 0.78299999 -0.01647432 1.6127236e-38 258 252
-0.083744459 0.78299999 -0.01647432 1.5758813e-38 259 252
-0.082582004 0.78500003 -0.016516401 1.5482596e-38 260 252
-0.081412524 0.787 -0.01655848 1.5390399e-38 261 252
-0.080032654 0.787 -0.01655848 1.492874e-38 262 252
-0.078852654 0.78899997 -0.016600559 1.4375566e-38 263 252
-0.077469274 0.78899997 -0.016600559 1.3551275e-38 264 252
-0.11452948 0.787 -0.017938353 1.217121e-38 237 253
-0.11286207 0.78500003 -0.017892767 1.4012179e-38 238 253
-0.1114857 0.78500003 -0.017892767 1.4380603e-38 239 253
-0.11010934 0.78500003 -0.017892767 1.5482249e-38 240 253
-0.10873297 0.78500003 -0.017892767 1.5850671e-38 241 253
-0.10708307 0.78299999 -0.017847179 1.6035788e-38 242 253
-0.10571022 0.78299999 -0.017847179 1.6404571e-38 243 253
-0.10433736 0.78299999 -0.017847179 1.6498211e-38 244 253
-0.10296449 0.78299999 -0.017847179 1.6682603e-38 245 253
-0.10159164 0.78299999 -0.017847179 1.6959544e-38 246 253
-0.10021878 0.78299999 -0.017847179 1.6959544e-38 247 253
-0.098593444 0.78100002 -0.017801592 1.7143578e-38 248 253
-0.097224087 0.78100002 -0.017801592 1.7143578e-38 249 253
-0.095854737 0.78100002 -0.017801592 1.732725e-38 250 253
-0.09448538 0.78100002 -0.017801592 1.732725e-38 251 253
-0.09311603 0.78100002 -0.017801592 1.6960263e-38 252 253
-0.091746673 0.78100002 -0.017801592 1.6868067e-38 253 253
-0.090377316 0.78100002 -0.017801592 1.6776223e-38 254 253
-0.089007966 0.78100002 -0.017801592 1.6407442e-38 255 253
-0.087638609 0.78100002 -0.017801592 1.6405999e-38 256 253
-0.086269259 0.78100002 -0.017801592 1.6037218e-38 257 253
-0.084899902 0.78100002 -0.017801592 1.5852471e-38 258 253
-0.083530553 0.78100002 -0.017801592 1.5668078e-38 259 253
-0.0823716 0.78299999 -0.017847179 1.5574807e-38 260 253
-0.081205636 0.78500003 -0.017892767 1.5482612e-38 261 253
-0.079829268 0.78500003 -0.017892767 1.5297164e-38 262 253
-0.078852654 0.78899997 -0.017983939 1.4836545e-38 263 253
-0.077469274 0.78899997 -0.017983939 1.3089924e-38 264 253
-0.11452948 0.787 -0.019318225 1.198646e-38 237 254
-0.11257452 0.78299999 -0.019220039 1.3827432e-38 238 254
-0.11120166 0.78299999 -0.019220039 1.4380605e-38 239 254
-0.10982879 0.78299999 -0.019220039 1.5024157e-38 240 254
-0.10845593 0.78299999 -0.019220039 1.5208549e-38 241 254
-0.10708307 0.78299999 -0.019220039 1.5484782e-38 242 254
-0.10544021 0.78100002 -0.019170946 1.5853924e-38 243 254
-0.10407086 0.78100002 -0.019170946 1.6129796e-38 244 254
-0.1027015 0.78100002 -0.019170946 1.6498937e-38 245 254
-0.10133215 0.78100002 -0.019170946 1.6592209e-38 246 254
-0.099962793 0.78100002 -0.019170946 1.6684405e-38 247 254
-0.098593444 0.78100002 -0.019170946 1.6959194e-38 248 254
-0.097224087 0.78100002 -0.019170946 1.7143225e-38 249 254
-0.095854737 0.78100002 -0.019170946 1.732725e-38 250 254
-0.094364397 0.77999997 -0.0191464 1.732725e-38 251 254
-0.092996791 0.77999997 -0.0191464 1.7511269e-38 252 254
-0.091629192 0.77999997 -0.0191464 1.7419073e-38 253 254
-0.090261593 0.77999997 -0.0191464 1.7051716e-38 254 254
-0.088893995 0.77999997 -0.0191464 1.6867325e-38 255 254
-0.087526396 0.77999997 -0.0191464 1.6865887e-38 256 254
-0.086158797 0.77999997 -0.0191464 1.658894e-38 257 254
-0.084791191 0.77999997 -0.0191464 1.6220883e-38 258 254
-0.083530553 0.78100002 -0.019170946 1.6036492e-38 259 254
-0.082161196 0.78100002 -0.019170946 1.5851022e-38 260 254
-0.080998734 0.78299999 -0.019220039 1.5574795e-38 261 254
-0.079625882 0.78299999 -0.019220039 1.5298219e-38 262 254
-0.078852654 0.78899997 -0.019367319 1.4929797e-38 263 254
-0.077469274 0.78899997 -0.019367319 1.3732027e-38 264 254
-0.11257452 0.78299999 -0.0205929 1.3735251e-38 238 255
-0.11120166 0.78299999 -0.0205929 1.4011838e-38 239 255
-0.10982879 0.78299999 -0.0205929 1.4931243e-38 240 255
-0.10845593 0.78299999 -0.0205929 1.5299665e-38 241 255
-0.10708307 0.78299999 -0.0205929 1.5575529e-38 242 255
-0.10544021 0.78100002 -0.020540299 1.5944672e-38 243 255
-0.10407086 0.78100002 -0.020540299 1.6129785e-38 244 255
-0.1027015 0.78100002 -0.020540299 1.6498208e-38 245 255
-0.10133215 0.78100002 -0.020540299 1.6775517e-38 246 255
-0.099962793 0.78100002 -0.020540299 1.6775517e-38 247 255
-0.098467186 0.77999997 -0.020513998 1.7143225e-38 248 255
-0.097099595 0.77999997 -0.020513998 1.7143225e-38 249 255
-0.095731996 0.77999997 -0.020513998 1.7327253e-38 250 255
-0.094364397 0.77999997 -0.020513998 1.7511284e-38 251 255
-0.092758343 0.778 -0.020461399 1.7511637e-38 252 255
-0.091394253 0.778 -0.020461399 1.7327606e-38 253 255
-0.090030156 0.778 -0.020461399 1.7144284e-38 254 255
-0.088666067 0.778 -0.020461399 1.6867697e-38 255 255
-0.08730197 0.778 -0.020461399 1.6866974e-38 256 255
-0.08593788 0.778 -0.020461399 1.6590389e-38 257 255
-0.084791191 0.77999997 -0.020513998 1.6588236e-38 258 255
-0.083423592 0.77999997 -0.020513998 1.6403845e-38 259 255
-0.082055993 0.77999997 -0.020513998 1.5943586e-38 260 255
-0.080791846 0.78100002 -0.020540299 1.5667359e-38 261 255
-0.079422489 0.78100002 -0.020540299 1.5299302e-38 262 255
-0.078053139 0.78100002 -0.020540299 1.5114552e-38 263 255
-0.076585598 0.77999997 -0.020513998 1.4285907e-38 264 255
-0.11257452 0.78299999 -0.021965759 1.3365766e-38 238 256
-0.11120166 0.78299999 -0.021965759 1.3918939e-38 239 256
-0.10982879 0.78299999 -0.021965759 1.4746866e-38 240 256
-0.10845593 0.78299999 -0.021965759 1.5023454e-38 241 256
-0.10680956 0.78100002 -0.021909652 1.5208554e-38 242 256
-0.10544021 0.78100002 -0.021909652 1.5576978e-38 243 256
-0.10407086 0.78100002 -0.021909652 1.5853921e-38 244 256
-0.10256999 0.77999997 -0.021881599 1.6222345e-38 245 256
-0.10120239 0.77999997 -0.021881599 1.6498934e-38 246 256
-0.099834792 0.77999997 -0.021881599 1.6775521e-38 247 256
-0.098467186 0.77999997 -0.021881599 1.6959196e-38 248 256
-0.097099595 0.77999997 -0.021881599 1.7143228e-38 249 256
-0.095486529 0.778 -0.021825492 1.73269e-38 250 256
-0.094122432 0.778 -0.021825492 1.7510931e-38 251 256
-0.092758343 0.778 -0.021825492 1.732725e-38 252 256
-0.091394253 0.778 -0.021825492 1.732725e-38 253 256
-0.090030156 0.778 -0.021825492 1.7327957e-38 254 256
-0.088666067 0.778 -0.021825492 1.7143565e-38 255 256
-0.08730197 0.778 -0.021825492 1.7050647e-38 256 256
-0.08593788 0.778 -0.021825492 1.6866255e-38 257 256
-0.084573783 0.778 -0.021825492 1.6772985e-38 258 256
-0.083423592 0.77999997 -0.021881599 1.6496397e-38 259 256
-0.082055993 0.77999997 -0.021881599 1.6219814e-38 260 256
-0.080688395 0.77999997 -0.021881599 1.6035421e-38 261 256
-0.079320796 0.77999997 -0.021881599 1.5667359e-38 262 256
-0.077953197 0.77999997 -0.021881599 1.5575163e-38 263 256
-0.076585598 0.77999997 -0.021881599 1.483871e-38 264 256
-0.074832268 0.77600002 -0.021769386 1.4469927e-38 265 256
-0.11257452 0.78299999 -0.02333862 1.3273222e-38 238 257
-0.11120166 0.78299999 -0.02333862 1.3733842e-38 239 257
-0.10982879 0.78299999 -0.02333862 1.4470649e-38 240 257
-0.10817891 0.78100002 -0.023279008 1.4655041e-38 241 257
-0.10680956 0.78100002 -0.023279008 1.5116006e-38 242 257
-0.10544021 0.78100002 -0.023279008 1.5484429e-38 243 257
-0.10407086 0.78100002 -0.023279008 1.5669174e-38 244 257
-0.10256999 0.77999997 -0.023249198 1.6037955e-38 245 257
-0.10120239 0.77999997 -0.023249198 1.6406744e-38 246 257
-0.099834792 0.77999997 -0.023249198 1.6682971e-38 247 257
-0.098467186 0.77999997 -0.023249198 1.6866648e-38 248 257
-0.096850619 0.778 -0.023189586 1.6958843e-38 249 257
-0.095486529 0.778 -0.023189586 1.7142874e-38 250 257
-0.093880482 0.77600002 -0.023129974 1.723507e-38 251 257
-0.092519894 0.77600002 -0.023129974 1.7235779e-38 252 257
-0.091159306 0.77600002 -0.023129974 1.7235779e-38 253 257
-0.089798726 0.77600002 -0.023129974 1.7327606e-38 254 257
-0.088438138 0.77600002 -0.023129974 1.7235411e-38 255 257
-0.087077543 0.77600002 -0.023129974 1.732688e-38 256 257
-0.085716955 0.77600002 -0.023129974 1.7050293e-38 257 257
-0.084356368 0.77600002 -0.023129974 1.6865899e-38 258 257
-0.083209693 0.778 -0.023189586 1.640528e-38 259 257
-0.081845596 0.778 -0.023189586 1.6496394e-38 260 257
-0.080688395 0.77999997 -0.023249198 1.6220167e-38 261 257
-0.079320796 0.77999997 -0.023249198 1.5944295e-38 262 257
-0.077953197 0.77999997 -0.023249198 1.5759905e-38 263 257
-0.076192856 0.77600002 -0.023129974 1.5299668e-38 264 257
-0.074832268 0.77600002 -0.023129974 1.5207472e-38 265 257
-0.073471673 0.77600002 -0.023129974 1.400828e-38 266 257
-0.11228697 0.78100002 -0.024648361 1.2721851e-38 238 258
-0.11091762 0.78100002 -0.024648361 1.318247e-38 239 258
-0.10954827 0.78100002 -0.024648361 1.4378087e-38 240 258
-0.10817891 0.78100002 -0.024648361 1.474651e-38 241 258
-0.10680956 0.78100002 -0.024648361 1.5206754e-38 242 258
-0.10544021 0.78100002 -0.024648361 1.5575176e-38 243 258
-0.1039376 0.77999997 -0.024616797 1.585212e-38 244 258
-0.10256999 0.77999997 -0.024616797 1.603687e-38 245 258
-0.10120239 0.77999997 -0.024616797 1.6497136e-38 246 258
-0.099834792 0.77999997 -0.024616797 1.6681886e-38 247 258
-0.098214716 0.778 -0.024553679 1.6774448e-38 248 258
-0.096850619 0.778 -0.024553679 1.6866645e-38 249 258
-0.095486529 0.778 -0.024553679 1.7142512e-38 250 258
-0.093880482 0.77600002 -0.024490559 1.7234707e-38 251 258
-0.092519894 0.77600002 -0.024490559 1.7418017e-38 252 258
-0.091159306 0.77600002 -0.024490559 1.7510212e-38 253 258
-0.089798726 0.77600002 -0.024490559 1.7510565e-38 254 258
-0.088438138 0.77600002 -0.024490559 1.7510565e-38 255 258
-0.087077543 0.77600002 -0.024490559 1.7235411e-38 256 258
-0.085716955 0.77600002 -0.024490559 1.7143215e-38 257 258
-0.084356368 0.77600002 -0.024490559 1.6866621e-38 258 258
-0.082995787 0.77600002 -0.024490559 1.649784e-38 259 258
-0.081635199 0.77600002 -0.024490559 1.6588589e-38 260 258
-0.080481507 0.778 -0.024553679 1.6496394e-38 261 258
-0.07911741 0.778 -0.024553679 1.5852824e-38 262 258
-0.07775332 0.778 -0.024553679 1.5760627e-38 263 258
-0.076192856 0.77600002 -0.024490559 1.5208905e-38 264 258
-0.074832268 0.77600002 -0.024490559 1.5116709e-38 265 258
-0.073471673 0.77600002 -0.024490559 1.4194806e-38 266 258
-0.11228697 0.78100002 -0.026017714 1.2630018e-38 238 259
-0.11091762 0.78100002 -0.026017714 1.2722214e-38 239 259
-0.10954827 0.78100002 -0.026017714 1.3641964e-38 240 259
-0.10817891 0.78100002 -0.026017714 1.4195138e-38 241 259
-0.10680956 0.78100002 -0.026017714 1.4563195e-38 242 259
-0.10544021 0.78100002 -0.026017714 1.4840142e-38 243 259
-0.1039376 0.77999997 -0.025984399 1.5116371e-38 244 259
-0.10256999 0.77999997 -0.025984399 1.5485155e-38 245 259
-0.1009429 0.778 -0.025917772 1.6037251e-38 246 259
-0.099578805 0.778 -0.025917772 1.631384e-38 247 259
-0.098214716 0.778 -0.025917772 1.6406391e-38 248 259
-0.09660165 0.77600002 -0.025851147 1.6498587e-38 249 259
-0.095241062 0.77600002 -0.025851147 1.6866292e-38 250 259
-0.093880482 0.77600002 -0.025851147 1.6866292e-38 251 259
-0.092281438 0.77399999 -0.025784519 1.7142158e-38 252 259
-0.090924352 0.77399999 -0.025784519 1.732655e-38 253 259
-0.089567274 0.77399999 -0.025784519 1.7510215e-38 254 259
-0.088210195 0.77399999 -0.025784519 1.7602411e-38 255 259
-0.086853117 0.77399999 -0.025784519 1.7327959e-38 256 259
-0.085496038 0.77399999 -0.025784519 1.7143209e-38 257 259
-0.084138952 0.77399999 -0.025784519 1.7051353e-38 258 259
-0.082781881 0.77399999 -0.025784519 1.6774407e-38 259 259
-0.081635199 0.77600002 -0.025851147 1.6956636e-38 260 259
-0.080274612 0.77600002 -0.025851147 1.6771886e-38 261 259
-0.078914031 0.77600002 -0.025851147 1.6404546e-38 262 259
-0.077553444 0.77600002 -0.025851147 1.6128319e-38 263 259
-0.076192856 0.77600002 -0.025851147 1.5944295e-38 264 259
-0.074832268 0.77600002 -0.025851147 1.5667709e-38 265 259
-0.073471673 0.77600002 -0.025851147 1.511565e-38 266 259
-0.071925238 0.77399999 -0.025784519 1.4839063e-38 267 259
-0.11091762 0.78100002 -0.027387068 1.1616592e-38 239 260
-0.10954827 0.78100002 -0.027387068 1.1983522e-38 240 260
-0.10817891 0.78100002 -0.027387068 1.3182065e-38 241 260
-0.10680956 0.78100002 -0.027387068 1.4012529e-38 242 260
-0.10544021 0.78100002 -0.027387068 1.4288756e-38 243 260
-0.1039376 0.77999997 -0.027351998 1.5391501e-38 244 260
-0.10256999 0.77999997 -0.027351998 1.5667728e-38 245 260
-0.1009429 0.778 -0.027281865 1.5945391e-38 246 260
-0.099578805 0.778 -0.027281865 1.6037586e-38 247 260
-0.098214716 0.778 -0.027281865 1.649749e-38 248 260
-0.09660165 0.77600002 -0.027211733 1.649749e-38 249 260
-0.095241062 0.77600002 -0.027211733 1.6865552e-38 250 260
-0.093880482 0.77600002 -0.027211733 1.6957748e-38 251 260
-0.092281438 0.77399999 -0.027141599 1.7325451e-38 252 260
-0.090924352 0.77399999 -0.027141599 1.7510202e-38 253 260
-0.089567274 0.77399999 -0.027141599 1.741837e-38 254 260
-0.088210195 0.77399999 -0.027141599 1.7510565e-38 255 260
-0.086853117 0.77399999 -0.027141599 1.7327253e-38 256 260
-0.085496038 0.77399999 -0.027141599 1.7235057e-38 257 260
-0.084138952 0.77399999 -0.027141599 1.6959544e-38 258 260
-0.082781881 0.77399999 -0.027141599 1.6867347e-38 259 260
-0.081424795 0.77399999 -0.027141599 1.6590036e-38 260 260
-0.080274612 0.77600002 -0.027211733 1.649784e-38 261 260
-0.078914031 0.77600002 -0.027211733 1.63138e-38 262 260
-0.077553444 0.77600002 -0.027211733 1.6037215e-38 263 260
-0.076192856 0.77600002 -0.027211733 1.5945019e-38 264 260
-0.074639395 0.77399999 -0.027141599 1.5760627e-38 265 260
-0.073282316 0.77399999 -0.027141599 1.5209273e-38 266 260
-0.071925238 0.77399999 -0.027141599 1.5024523e-38 267 260
-0.11120166 0.78299999 -0.028830061 1.180063e-38 239 261
-0.10954827 0.78100002 -0.028756421 1.2442345e-38 240 261
-0.10817891 0.78100002 -0.028756421 1.2718933e-38 241 261
-0.10680956 0.78100002 -0.028756421 1.401145e-38 242 261
-0.10544021 0.78100002 -0.028756421 1.4288037e-38 243 261
-0.1039376 0.77999997 -0.028719598 1.4564265e-38 244 261
-0.10256999 0.77999997 -0.028719598 1.4841211e-38 245 261
-0.1009429 0.778 -0.028645959 1.5302189e-38 246 261
-0.099578805 0.778 -0.028645959 1.548658e-38 247 261
-0.097962238 0.77600002 -0.028572321 1.6130149e-38 248 261
-0.09660165 0.77600002 -0.028572321 1.6222345e-38 249 261
-0.094995596 0.77399999 -0.028498679 1.6681884e-38 250 261
-0.093638517 0.77399999 -0.028498679 1.6865915e-38 251 261
-0.092281438 0.77399999 -0.028498679 1.7233623e-38 252 261
-0.090924352 0.77399999 -0.028498679 1.7326177e-38 253 261
-0.089567274 0.77399999 -0.028498679 1.7142512e-38 254 261
-0.088210195 0.77399999 -0.028498679 1.7326903e-38 255 261
-0.086853117 0.77399999 -0.028498679 1.7327253e-38 256 261
-0.085496038 0.77399999 -0.028498679 1.7235057e-38 257 261
-0.084138952 0.77399999 -0.028498679 1.7418001e-38 258 261
-0.082781881 0.77399999 -0.028498679 1.7325804e-38 259 261
-0.081424795 0.77399999 -0.028498679 1.7324713e-38 260 261
-0.080067717 0.77399999 -0.028498679 1.7232158e-38 261 261
-0.078710638 0.77399999 -0.028498679 1.695628e-38 262 261
-0.077353559 0.77399999 -0.028498679 1.6771889e-38 263 261
-0.075996473 0.77399999 -0.028498679 1.6587498e-38 264 261
-0.074639395 0.77399999 -0.028498679 1.6403108e-38 265 261
-0.073187642 0.773 -0.028461859 1.5760276e-38 266 261
-0.071832314 0.773 -0.028461859 1.5668081e-38 267 261
-0.070476986 0.773 -0.028461859 1.4839804e-38 268 261
-0.11120166 0.78299999 -0.03020292 1.1985397e-38 239 262
-0.10954827 0.78100002 -0.030125774 1.1796999e-38 240 262
-0.10817891 0.78100002 -0.030125774 1.2442369e-38 241 262
-0.10680956 0.78100002 -0.030125774 1.3825983e-38 242 262
-0.10530519 0.77999997 -0.030087199 1.4102571e-38 243 262
-0.1039376 0.77999997 -0.030087199 1.4746847e-38 244 262
-0.10256999 0.77999997 -0.030087199 1.5115271e-38 245 262
-0.1009429 0.778 -0.03001005 1.5209623e-38 246 262
-0.099322826 0.77600002 -0.029932907 1.5394016e-38 247 262
-0.097962238 0.77600002 -0.029932907 1.6037586e-38 248 262
-0.096352674 0.77399999 -0.029855758 1.6221978e-38 249 262
-0.094995596 0.77399999 -0.029855758 1.6590041e-38 250 262
-0.093638517 0.77399999 -0.029855758 1.6682237e-38 251 262
-0.092281438 0.77399999 -0.029855758 1.7049946e-38 252 262
-0.090924352 0.77399999 -0.029855758 1.7326174e-38 253 262
-0.089451559 0.773 -0.029817186 1.7233623e-38 254 262
-0.088096231 0.773 -0.029817186 1.7418373e-38 255 262
-0.086740904 0.773 -0.029817186 1.7418017e-38 256 262
-0.085385576 0.773 -0.029817186 1.7510212e-38 257 262
-0.084030248 0.773 -0.029817186 1.7234704e-38 258 262
-0.082674921 0.773 -0.029817186 1.7234704e-38 259 262
-0.0813196 0.773 -0.029817186 1.7233255e-38 260 262
-0.079964265 0.773 -0.029817186 1.714106e-38 261 262
-0.078608945 0.773 -0.029817186 1.7048849e-38 262 262
-0.077253617 0.773 -0.029817186 1.6771902e-38 263 262
-0.075898297 0.773 -0.029817186 1.6496028e-38 264 262
-0.074542962 0.773 -0.029817186 1.6403832e-38 265 262
-0.073187642 0.773 -0.029817186 1.576135e-38 266 262
-0.071832314 0.773 -0.029817186 1.5576958e-38 267 262
-0.070476986 0.773 -0.029817186 1.5208564e-38 268 262
-0.069121659 0.773 -0.029817186 1.5116368e-38 269 262
-0.11120166 0.78299999 -0.031575777 1.1894293e-38 239 263
-0.10954827 0.78100002 -0.031495128 1.2072879e-38 240 263
-0.10817891 0.78100002 -0.031495128 1.2442021e-38 241 263
-0.10680956 0.78100002 -0.031495128 1.3455771e-38 242 263
-0.10530519 0.77999997 -0.031454798 1.410114e-38 243 263
-0.1039376 0.77999997 -0.031454798 1.4378791e-38 244 263
-0.10256999 0.77999997 -0.031454798 1.4747213e-38 245 263
-0.1009429 0.778 -0.031374145 1.5299671e-38 246 263
-0.099322826 0.77600002 -0.031293493 1.5576259e-38 247 263
-0.097962238 0.77600002 -0.031293493 1.5945038e-38 248 263
-0.096352674 0.77399999 -0.031212838 1.6129429e-38 249 263
-0.094995596 0.77399999 -0.031212838 1.6773356e-38 250 263
-0.093638517 0.77399999 -0.031212838 1.6865552e-38 251 263
-0.092281438 0.77399999 -0.031212838 1.7049946e-38 252 263
-0.090924352 0.77399999 -0.031212838 1.7233977e-38 253 263
-0.089451559 0.773 -0.03117251 1.705031e-38 254 263
-0.088096231 0.773 -0.03117251 1.7142506e-38 255 263
-0.086740904 0.773 -0.03117251 1.7418373e-38 256 263
-0.085385576 0.773 -0.03117251 1.7418373e-38 257 263
-0.084030248 0.773 -0.03117251 1.741837e-38 258 263
-0.082674921 0.773 -0.03117251 1.7326174e-38 259 263
-0.0813196 0.773 -0.03117251 1.7325804e-38 260 263
-0.079757385 0.77100003 -0.031091858 1.7233609e-38 261 263
-0.078405559 0.77100003 -0.031091858 1.7324713e-38 262 263
-0.077053741 0.77100003 -0.031091858 1.7048127e-38 263 263
-0.075701922 0.77100003 -0.031091858 1.6772611e-38 264 263
-0.074350104 0.77100003 -0.031091858 1.6588221e-38 265 263
-0.072808921 0.76899999 -0.031011207 1.5945019e-38 266 263
-0.071460605 0.76899999 -0.031011207 1.5945019e-38 267 263
-0.070112288 0.76899999 -0.031011207 1.576029e-38 268 263
-0.068763971 0.76899999 -0.031011207 1.5576259e-38 269 263
-0.10954827 0.78100002 -0.032864477 1.1889566e-38 240 264
-0.10817891 0.78100002 -0.032864477 1.2350544e-38 241 264
-0.10680956 0.78100002 -0.032864477 1.2995153e-38 242 264
-0.10530519 0.77999997 -0.032822397 1.3640522e-38 243 264
-0.1039376 0.77999997 -0.032822397 1.4194397e-38 244 264
-0.10256999 0.77999997 -0.032822397 1.4378788e-38 245 264
-0.10068341 0.77600002 -0.032654081 1.4930887e-38 246 264
-0.099322826 0.77600002 -0.032654081 1.5299668e-38 247 264
-0.09770976 0.77399999 -0.032569919 1.575994e-38 248 264
-0.096352674 0.77399999 -0.032569919 1.6036886e-38 249 264
-0.094872862 0.773 -0.032527838 1.6313474e-38 250 264
-0.093517542 0.773 -0.032527838 1.6589701e-38 251 264
-0.092162207 0.773 -0.032527838 1.6682249e-38 252 264
-0.090806887 0.773 -0.032527838 1.6774445e-38 253 264
-0.089451559 0.773 -0.032527838 1.6866998e-38 254 264
-0.087868303 0.77100003 -0.032443684 1.6866998e-38 255 264
-0.086516477 0.77100003 -0.032443684 1.7142506e-38 256 264
-0.085164659 0.77100003 -0.032443684 1.723506e-38 257 264
-0.08381284 0.77100003 -0.032443684 1.7143578e-38 258 264
-0.082461022 0.77100003 -0.032443684 1.7143578e-38 259 264
-0.081109203 0.77100003 -0.032443684 1.7326878e-38 260 264
-0.079757385 0.77100003 -0.032443684 1.7234681e-38 261 264
-0.078202173 0.76899999 -0.032359518 1.723359e-38 262 264
-0.076853856 0.76899999 -0.032359518 1.7049199e-38 263 264
-0.075701922 0.77100003 -0.032443684 1.6681491e-38 264 264
-0.074157231 0.76899999 -0.032359518 1.64971e-38 265 264
-0.072808921 0.76899999 -0.032359518 1.6313079e-38 266 264
-0.071460605 0.76899999 -0.032359518 1.6220883e-38 267 264
-0.070112288 0.76899999 -0.032359518 1.6127984e-38 268 264
-0.068585135 0.76700002 -0.03227536 1.6035788e-38 269 264
-0.067240335 0.76700002 -0.03227536 1.5484079e-38 270 264
-0.10954827 0.78100002 -0.034233831 1.2349835e-38 240 265
-0.10817891 0.78100002 -0.034233831 1.2349835e-38 241 265
-0.10667279 0.77999997 -0.034189999 1.317704e-38 242 265
-0.10530519 0.77999997 -0.034189999 1.3638017e-38 243 265
-0.1039376 0.77999997 -0.034189999 1.3733431e-38 244 265
-0.10230699 0.778 -0.034102332 1.4102574e-38 245 265
-0.10068341 0.77600002 -0.034014668 1.4746494e-38 246 265
-0.099322826 0.77600002 -0.034014668 1.5115277e-38 247 265
-0.09770976 0.77399999 -0.033927001 1.5575532e-38 248 265
-0.096352674 0.77399999 -0.033927001 1.585212e-38 249 265
-0.094872862 0.773 -0.033883166 1.6312025e-38 250 265
-0.093517542 0.773 -0.033883166 1.6773003e-38 251 265
-0.092162207 0.773 -0.033883166 1.6865196e-38 252 265
-0.090806887 0.773 -0.033883166 1.6957392e-38 253 265
-0.089451559 0.773 -0.033883166 1.6958466e-38 254 265
-0.087868303 0.77100003 -0.033795502 1.6958466e-38 255 265
-0.086516477 0.77100003 -0.033795502 1.723433e-38 256 265
-0.084943734 0.76899999 -0.033707831 1.7326527e-38 257 265
-0.083595425 0.76899999 -0.033707831 1.7235411e-38 258 265
-0.082247108 0.76899999 -0.033707831 1.7235411e-38 259 265
-0.080898799 0.76899999 -0.033707831 1.7235405e-38 260 265
-0.079550482 0.76899999 -0.033707831 1.7143209e-38 261 265
-0.077998787 0.76700002 -0.033620168 1.7233959e-38 262 265
-0.07665398 0.76700002 -0.033620168 1.7141763e-38 263 265
-0.075309172 0.76700002 -0.033620168 1.6774057e-38 264 265
-0.073964365 0.76700002 -0.033620168 1.6405274e-38 265 265
-0.072619557 0.76700002 -0.033620168 1.6313444e-38 266 265
-0.07127475 0.76700002 -0.033620168 1.6221249e-38 267 265
-0.06992995 0.76700002 -0.033620168 1.5944669e-38 268 265
-0.068585135 0.76700002 -0.033620168 1.5852473e-38 269 265
-0.067240335 0.76700002 -0.033620168 1.5484782e-38 270 265
-0.065895528 0.76700002 -0.033620168 1.5116e-38 271 265
-0.06455072 0.76700002 -0.033620168 1.4655788e-38 272 265
-0.10817891 0.78100002 -0.035603184 1.2075049e-38 241 266
-0.10667279 0.77999997 -0.035557598 1.2533834e-38 242 266
-0.10530519 0.77999997 -0.035557598 1.2994812e-38 243 266
-0.10367109 0.778 -0.035466425 1.3365021e-38 244 266
-0.10230699 0.778 -0.035466425 1.3734164e-38 245 266
-0.10068341 0.77600002 -0.035375252 1.3828504e-38 246 266
-0.099322826 0.77600002 -0.035375252 1.4105091e-38 247 266
-0.09770976 0.77399999 -0.03528408 1.4839786e-38 248 266
-0.096352674 0.77399999 -0.03528408 1.5208567e-38 249 266
-0.094872862 0.773 -0.035238493 1.5668117e-38 250 266
-0.093517542 0.773 -0.035238493 1.5852867e-38 251 266
-0.092162207 0.773 -0.035238493 1.6221291e-38 252 266
-0.09057194 0.77100003 -0.03514732 1.6313487e-38 253 266
-0.089220122 0.77100003 -0.03514732 1.6498584e-38 254 266
-0.087868303 0.77100003 -0.03514732 1.6682615e-38 255 266
-0.086292051 0.76899999 -0.035056144 1.705031e-38 256 266
-0.084943734 0.76899999 -0.035056144 1.7142506e-38 257 266
-0.083595425 0.76899999 -0.035056144 1.6959913e-38 258 266
-0.082247108 0.76899999 -0.035056144 1.6959913e-38 259 266
-0.080688395 0.76700002 -0.034964975 1.7235408e-38 260 266
-0.079343595 0.76700002 -0.034964975 1.7143212e-38 261 266
-0.077998787 0.76700002 -0.034964975 1.7509823e-38 262 266
-0.07665398 0.76700002 -0.034964975 1.7417627e-38 263 266
-0.075309172 0.76700002 -0.034964975 1.7324707e-38 264 266
-0.073964365 0.76700002 -0.034964975 1.704848e-38 265 266
-0.072619557 0.76700002 -0.034964975 1.686445e-38 266 266
-0.07127475 0.76700002 -0.034964975 1.6588224e-38 267 266
-0.06992995 0.76700002 -0.034964975 1.6495672e-38 268 266
-0.068585135 0.76700002 -0.034964975 1.6311281e-38 269 266
-0.067240335 0.76700002 -0.034964975 1.6218734e-38 270 266
-0.065895528 0.76700002 -0.034964975 1.6126538e-38 271 266
-0.06455072 0.76700002 -0.034964975 1.5666656e-38 272 266
-0.063205913 0.76700002 -0.034964975 1.5113482e-38 273 266
-0.10804039 0.77999997 -0.036925197 1.1891399e-38 241 267
-0.10667279 0.77999997 -0.036925197 1.2533487e-38 242 267
-0.10503518 0.778 -0.036830518 1.2625684e-38 243 267
-0.10367109 0.778 -0.036830518 1.318026e-38 244 267
-0.102044 0.77600002 -0.036735836 1.3457207e-38 245 267
-0.10068341 0.77600002 -0.036735836 1.4285871e-38 246 267
