# .PCD v.7 - Point Cloud Data file format
FIELDS x y z rgb imX imY
SIZE 4 4 4 4 4 4
TYPE F F F F F F
COUNT 1 1 1 1 1 1
WIDTH 826
HEIGHT 1
VIEWPOINT 0 0 0 1 0 0 0
POINTS 826
DATA ascii
-0.059416957 0.70599997 -0.06808193 1.9352666e-38 272 295
-0.058179103 0.70599997 -0.06808193 1.9352666e-38 273 295
-0.057021905 0.70700002 -0.068178371 1.9443064e-38 274 295
-0.055782299 0.70700002 -0.068178371 1.9443064e-38 275 295
-0.054542694 0.70700002 -0.068178371 1.8892052e-38 276 295
-0.053227689 0.70599997 -0.06808193 1.870766e-38 277 295
-0.051989835 0.70599997 -0.06808193 1.8523979e-38 278 295
-0.050751984 0.70599997 -0.06808193 1.8247392e-38 279 295
-0.04951413 0.70599997 -0.06808193 1.8337438e-38 280 295
-0.048139516 0.704 -0.067889065 1.8060852e-38 281 295
-0.046905171 0.704 -0.067889065 1.6682268e-38 282 295
-0.045670826 0.704 -0.067889065 1.6221291e-38 283 295
-0.082971238 0.71700001 -0.070399836 1.4289894e-38 254 296
-0.081714094 0.71700001 -0.070399836 1.3644524e-38 255 296
-0.080344744 0.71600002 -0.070301652 1.5576975e-38 256 296
-0.079089358 0.71600002 -0.070301652 1.6037952e-38 257 296
-0.07761655 0.71399999 -0.070105277 1.6865899e-38 258 296
-0.076364681 0.71399999 -0.070105277 1.7050649e-38 259 296
-0.075112797 0.71399999 -0.070105277 1.7694218e-38 260 296
-0.073550582 0.71100003 -0.069810718 1.7878609e-38 261 296
-0.072202265 0.70999998 -0.069712527 1.8338518e-38 262 296
-0.070757516 0.708 -0.069516152 1.8706941e-38 263 296
-0.069516152 0.708 -0.069516152 1.8890982e-38 264 296
-0.068178371 0.70700002 -0.069417976 1.9259764e-38 265 296
-0.066844068 0.70599997 -0.069319785 1.9259764e-38 266 296
-0.065420374 0.704 -0.06912341 1.935196e-38 267 296
-0.064186029 0.704 -0.06912341 1.9535628e-38 268 296
-0.062951677 0.704 -0.06912341 1.9627824e-38 269 296
-0.061717331 0.704 -0.06912341 1.9444506e-38 270 296
-0.060482983 0.704 -0.06912341 1.9444506e-38 271 296
-0.059248637 0.704 -0.06912341 1.9352666e-38 272 296
-0.058014292 0.704 -0.06912341 1.9260112e-38 273 296
-0.056941248 0.70599997 -0.069319785 1.9351947e-38 274 296
-0.055703394 0.70599997 -0.069319785 1.9259393e-38 275 296
-0.054465543 0.70599997 -0.069319785 1.8983885e-38 276 296
-0.053076904 0.704 -0.06912341 1.8799492e-38 277 296
-0.051842559 0.704 -0.06912341 1.8707647e-38 278 296
-0.050608214 0.704 -0.06912341 1.8615451e-38 279 296
-0.049373865 0.704 -0.06912341 1.8338518e-38 280 296
-0.048139516 0.704 -0.06912341 1.8245963e-38 281 296
-0.046905171 0.704 -0.06912341 1.6864861e-38 282 296
-0.045670826 0.704 -0.06912341 1.6496439e-38 283 296
-0.082508355 0.713 -0.071257219 1.4750871e-38 254 297
-0.081030294 0.71100003 -0.071057342 1.3644524e-38 255 297
-0.079783678 0.71100003 -0.071057342 1.5575529e-38 256 297
-0.078868434 0.71399999 -0.071357153 1.6220899e-38 257 297
-0.07761655 0.71399999 -0.071357153 1.6956653e-38 258 297
-0.076257721 0.713 -0.071257219 1.723324e-38 259 297
-0.074691996 0.70999998 -0.070957392 1.750947e-38 260 297
-0.073447131 0.70999998 -0.070957392 1.7693862e-38 261 297
-0.071998879 0.708 -0.070757516 1.8337438e-38 262 297
-0.070757516 0.708 -0.070757516 1.8890253e-38 263 297
-0.069417976 0.70700002 -0.070657574 1.8892058e-38 264 297
-0.06808193 0.70599997 -0.070557632 1.8984253e-38 265 297
-0.066654719 0.704 -0.070357755 1.9167566e-38 266 297
-0.065420374 0.704 -0.070357755 1.9259761e-38 267 297
-0.064186029 0.704 -0.070357755 1.9352313e-38 268 297
-0.062862262 0.70300001 -0.070257813 1.9444509e-38 269 297
-0.061629668 0.70300001 -0.070257813 1.9261194e-38 270 297
-0.06039707 0.70300001 -0.070257813 1.9261194e-38 271 297
-0.059164476 0.70300001 -0.070257813 1.9168998e-38 272 297
-0.057931885 0.70300001 -0.070257813 1.9076802e-38 273 297
-0.056699295 0.70300001 -0.070257813 1.9259393e-38 274 297
-0.055545598 0.704 -0.070357755 1.9259393e-38 275 297
-0.054234106 0.70300001 -0.070257813 1.8984238e-38 276 297
-0.053001512 0.70300001 -0.070257813 1.8799487e-38 277 297
-0.051768921 0.70300001 -0.070257813 1.8708366e-38 278 297
-0.050536323 0.70300001 -0.070257813 1.8524335e-38 279 297
-0.049303733 0.70300001 -0.070257813 1.8431433e-38 280 297
-0.047934376 0.70099998 -0.070057929 1.8431433e-38 281 297
-0.046705291 0.70099998 -0.070057929 1.7324755e-38 282 297
-0.04560595 0.70300001 -0.070257813 1.7047808e-38 283 297
-0.082508355 0.713 -0.072507344 1.5211496e-38 254 298
-0.081030294 0.71100003 -0.072303966 1.3828561e-38 255 298
-0.079783678 0.71100003 -0.072303966 1.5114924e-38 256 298
-0.078868434 0.71399999 -0.072609037 1.5944684e-38 257 298
-0.077290438 0.71100003 -0.072303966 1.6589311e-38 258 298
-0.075936861 0.70999998 -0.072202265 1.6773704e-38 259 298
-0.074691996 0.70999998 -0.072202265 1.7233596e-38 260 298
-0.073447131 0.70999998 -0.072202265 1.7509823e-38 261 298
-0.071998879 0.708 -0.071998879 1.8154123e-38 262 298
-0.070657574 0.70700002 -0.071897186 1.8707297e-38 263 298
-0.06912341 0.704 -0.071592107 1.8799142e-38 264 298
-0.067889065 0.704 -0.071592107 1.8891338e-38 265 298
-0.066560037 0.70300001 -0.071490414 1.9166844e-38 266 298
-0.065327443 0.70300001 -0.071490414 1.9259398e-38 267 298
-0.063912503 0.70099998 -0.071287021 1.9260115e-38 268 298
-0.062683418 0.70099998 -0.071287021 1.9260115e-38 269 298
-0.061366666 0.69999999 -0.071185328 1.9444862e-38 270 298
-0.059967503 0.69800001 -0.07098195 1.9537057e-38 271 298
-0.058743682 0.69800001 -0.07098195 1.9444506e-38 272 298
-0.05768466 0.69999999 -0.071185328 1.935231e-38 273 298
-0.056537982 0.70099998 -0.071287021 1.9167919e-38 274 298
-0.055308893 0.70099998 -0.071287021 1.9167919e-38 275 298
-0.054079808 0.70099998 -0.071287021 1.8983882e-38 276 298
-0.052850723 0.70099998 -0.071287021 1.8891685e-38 277 298
-0.051621638 0.70099998 -0.071287021 1.8799489e-38 278 298
-0.050392549 0.70099998 -0.071287021 1.8707294e-38 279 298
-0.049163464 0.70099998 -0.071287021 1.8708013e-38 280 298
-0.047865998 0.69999999 -0.071185328 1.8339232e-38 281 298
-0.046638668 0.69999999 -0.071185328 1.778536e-38 282 298
-0.045476202 0.70099998 -0.071287021 1.7416217e-38 283 298
-0.082276918 0.71100003 -0.073550582 1.576361e-38 254 299
-0.081030294 0.71100003 -0.073550582 1.4104447e-38 255 299
-0.079783678 0.71100003 -0.073550582 1.4562128e-38 256 299
-0.078757972 0.713 -0.07375747 1.5391529e-38 257 299
-0.077181734 0.70999998 -0.073447131 1.6312731e-38 258 299
-0.075722955 0.708 -0.073240235 1.6681155e-38 259 299
-0.074481599 0.708 -0.073240235 1.6865546e-38 260 299
-0.073240235 0.708 -0.073240235 1.7234327e-38 261 299
-0.071795486 0.70599997 -0.07303334 1.7510568e-38 262 299
-0.070357755 0.704 -0.072826453 1.7971546e-38 263 299
-0.06912341 0.704 -0.072826453 1.8154866e-38 264 299
-0.067792632 0.70300001 -0.072723009 1.8431092e-38 265 299
-0.066370681 0.70099998 -0.072516106 1.8798789e-38 266 299
-0.065048665 0.69999999 -0.072412662 1.8890984e-38 267 299
-0.063638985 0.69800001 -0.072205767 1.8708387e-38 268 299
-0.062415157 0.69800001 -0.072205767 1.8984972e-38 269 299
-0.061103668 0.69700003 -0.072102323 1.9444511e-38 270 299
-0.05988159 0.69700003 -0.072102323 1.9351957e-38 271 299
-0.05865952 0.69700003 -0.072102323 1.9352313e-38 272 299
-0.05743745 0.69700003 -0.072102323 1.9260117e-38 273 299
-0.056215372 0.69700003 -0.072102323 1.9167916e-38 274 299
-0.0550722 0.69800001 -0.072205767 1.9167916e-38 275 299
-0.053848371 0.69800001 -0.072205767 1.8984238e-38 276 299
-0.052624546 0.69800001 -0.072205767 1.8892041e-38 277 299
-0.051400717 0.69800001 -0.072205767 1.8799487e-38 278 299
-0.050320663 0.69999999 -0.072412662 1.8707291e-38 279 299
-0.049093332 0.69999999 -0.072412662 1.8432499e-38 280 299
-0.047865998 0.69999999 -0.072412662 1.8064077e-38 281 299
-0.046638668 0.69999999 -0.072412662 1.8336719e-38 282 299
-0.045281585 0.69800001 -0.072205767 1.8059773e-38 283 299
-0.04405776 0.69800001 -0.072205767 1.6404631e-38 284 299
-0.082276918 0.71100003 -0.074797198 1.6223871e-38 254 300
-0.081030294 0.71100003 -0.074797198 1.4472155e-38 255 300
-0.079671465 0.70999998 -0.074691996 1.3917126e-38 256 300
-0.078205675 0.708 -0.074481599 1.5023472e-38 257 300
-0.076964319 0.708 -0.074481599 1.6127981e-38 258 300
-0.07561601 0.70700002 -0.074376404 1.6220177e-38 259 300
-0.074376404 0.70700002 -0.074376404 1.6957003e-38 260 300
-0.07303334 0.70599997 -0.074271195 1.7141395e-38 261 300
-0.071592107 0.704 -0.07406079 1.7509467e-38 262 300
-0.070257813 0.70300001 -0.073955595 1.7878609e-38 263 300
-0.069025226 0.70300001 -0.073955595 1.8063371e-38 264 300
-0.067599766 0.70099998 -0.073745191 1.8339956e-38 265 300
-0.066275999 0.69999999 -0.073639996 1.8706222e-38 266 300
-0.06486281 0.69800001 -0.073429599 1.8890253e-38 267 300
-0.06354782 0.69700003 -0.073324397 1.8982807e-38 268 300
-0.062236317 0.69599998 -0.073219195 1.9075003e-38 269 300
-0.060840666 0.69400001 -0.073008798 1.8892055e-38 270 300
-0.059623852 0.69400001 -0.073008798 1.9076446e-38 271 300
-0.058407038 0.69400001 -0.073008798 1.9260117e-38 272 300
-0.057190225 0.69400001 -0.073008798 1.9167563e-38 273 300
-0.055973411 0.69400001 -0.073008798 1.9166844e-38 274 300
-0.054914396 0.69599998 -0.073219195 1.9166844e-38 275 300
-0.053694077 0.69599998 -0.073219195 1.8891332e-38 276 300
-0.052549154 0.69700003 -0.073324397 1.8891332e-38 277 300
-0.051327083 0.69700003 -0.073324397 1.861654e-38 278 300
-0.050176892 0.69800001 -0.073429599 1.8432149e-38 279 300
-0.048953064 0.69800001 -0.073429599 1.8524345e-38 280 300
-0.047729239 0.69800001 -0.073429599 1.8155922e-38 281 300
-0.046505414 0.69800001 -0.073429599 1.8338884e-38 282 300
-0.045281585 0.69800001 -0.073429599 1.7877906e-38 283 300
-0.04405776 0.69800001 -0.073429599 1.6682268e-38 284 300
-0.042833932 0.69800001 -0.073429599 1.686666e-38 285 300
-0.08091633 0.70999998 -0.075936861 1.4566154e-38 255 301
-0.079447038 0.708 -0.075722955 1.3641628e-38 256 301
-0.078205675 0.708 -0.075722955 1.41948e-38 257 301
-0.076855607 0.70700002 -0.07561601 1.5667372e-38 258 301
-0.075509049 0.70599997 -0.075509049 1.6220545e-38 259 301
-0.07406079 0.704 -0.075295143 1.6405643e-38 260 301
-0.072826453 0.704 -0.075295143 1.668259e-38 261 301
-0.071490414 0.70300001 -0.07518819 1.7050296e-38 262 301
-0.070057929 0.70099998 -0.074974284 1.741872e-38 263 301
-0.068828844 0.70099998 -0.074974284 1.8061937e-38 264 301
-0.06731046 0.69800001 -0.074653424 1.8246688e-38 265 301
-0.066086642 0.69800001 -0.074653424 1.8431083e-38 266 301
-0.064769886 0.69700003 -0.074546471 1.8338528e-38 267 301
-0.063274294 0.69400001 -0.074225612 1.8338531e-38 268 301
-0.06205748 0.69400001 -0.074225612 1.8430727e-38 269 301
-0.060752999 0.69300002 -0.074118659 1.8707312e-38 270 301
-0.05953794 0.69300002 -0.074118659 1.8891705e-38 271 301
-0.058322877 0.69300002 -0.074118659 1.8983898e-38 272 301
-0.057190225 0.69400001 -0.074225612 1.8891702e-38 273 301
-0.055973411 0.69400001 -0.074225612 1.9074297e-38 274 301
-0.054756597 0.69400001 -0.074225612 1.8982101e-38 275 301
-0.053539783 0.69400001 -0.074225612 1.8982101e-38 276 301
-0.052473757 0.69599998 -0.074439511 1.9074297e-38 277 301
-0.051253434 0.69599998 -0.074439511 1.8707662e-38 278 301
-0.050105009 0.69700003 -0.074546471 1.8707662e-38 279 301
-0.048882935 0.69700003 -0.074546471 1.8432149e-38 280 301
-0.047660861 0.69700003 -0.074546471 1.8155922e-38 281 301
-0.046438783 0.69700003 -0.074546471 1.8614742e-38 282 301
-0.045216713 0.69700003 -0.074546471 1.8338516e-38 283 301
-0.043994639 0.69700003 -0.074546471 1.7325824e-38 284 301
-0.042833932 0.69800001 -0.074653424 1.6957041e-38 285 301
-0.08091633 0.70999998 -0.077181734 1.4842032e-38 255 302
-0.079447038 0.708 -0.076964319 1.3550164e-38 256 302
-0.078205675 0.708 -0.076964319 1.3734195e-38 257 302
-0.076855607 0.70700002 -0.076855607 1.520605e-38 258 302
-0.075509049 0.70599997 -0.076746903 1.5943615e-38 259 302
-0.07406079 0.704 -0.076529488 1.6771551e-38 260 302
-0.072723009 0.70300001 -0.076420791 1.6956303e-38 261 302
-0.071490414 0.70300001 -0.076420791 1.7415833e-38 262 302
-0.070057929 0.70099998 -0.076203369 1.7784614e-38 263 302
-0.068730667 0.69999999 -0.076094657 1.7969376e-38 264 302
-0.06731046 0.69800001 -0.075877249 1.8153767e-38 265 302
-0.06599196 0.69700003 -0.075768545 1.852111e-38 266 302
-0.064676955 0.69599998 -0.075659841 1.8705143e-38 267 302
-0.063274294 0.69400001 -0.075442426 1.8520754e-38 268 302
-0.06205748 0.69400001 -0.075442426 1.8705146e-38 269 302
-0.060752999 0.69300002 -0.075333714 1.8705872e-38 270 302
-0.05953794 0.69300002 -0.075333714 1.8982098e-38 271 302
-0.058322877 0.69300002 -0.075333714 1.870839e-38 272 302
-0.057107817 0.69300002 -0.075333714 1.870839e-38 273 302
-0.055892758 0.69300002 -0.075333714 1.8982098e-38 274 302
-0.054677699 0.69300002 -0.075333714 1.8613676e-38 275 302
-0.053539783 0.69400001 -0.075442426 1.8796991e-38 276 302
-0.052322973 0.69400001 -0.075442426 1.8981382e-38 277 302
-0.051106159 0.69400001 -0.075442426 1.8522922e-38 278 302
-0.050033119 0.69599998 -0.075659841 1.8522922e-38 279 302
-0.048812799 0.69599998 -0.075659841 1.8431799e-38 280 302
-0.047592476 0.69599998 -0.075659841 1.8155572e-38 281 302
-0.046438783 0.69700003 -0.075768545 1.8339232e-38 282 302
-0.045151837 0.69599998 -0.075659841 1.8154839e-38 283 302
-0.043931518 0.69599998 -0.075659841 1.7786063e-38 284 302
-0.042772565 0.69700003 -0.075768545 1.7416921e-38 285 302
-0.041610107 0.69800001 -0.075877249 1.6130935e-38 286 302
-0.08091633 0.70999998 -0.0784266 1.502607e-38 255 303
-0.079447038 0.708 -0.078205675 1.4009715e-38 256 303
-0.078205675 0.708 -0.078205675 1.3548379e-38 257 303
-0.076855607 0.70700002 -0.07809522 1.4835485e-38 258 303
-0.075509049 0.70599997 -0.07798475 1.5757802e-38 259 303
-0.07406079 0.704 -0.077763841 1.6403142e-38 260 303
-0.072723009 0.70300001 -0.077653378 1.6587533e-38 261 303
-0.071287021 0.70099998 -0.077432454 1.7231808e-38 262 303
-0.069957994 0.69999999 -0.077321991 1.7416558e-38 263 303
-0.068534292 0.69800001 -0.077101074 1.7783908e-38 264 303
-0.067214034 0.69700003 -0.076990619 1.796866e-38 265 303
-0.065897278 0.69599998 -0.076880157 1.8244168e-38 266 303
-0.064491108 0.69400001 -0.07665924 1.8428559e-38 267 303
-0.063183114 0.69300002 -0.076548778 1.833601e-38 268 303
-0.061968062 0.69300002 -0.076548778 1.8428564e-38 269 303
-0.060577665 0.69099998 -0.076327853 1.8337812e-38 270 303
-0.059366114 0.69099998 -0.076327853 1.8614039e-38 271 303
-0.058322877 0.69300002 -0.076548778 1.8523997e-38 272 303
-0.057107817 0.69300002 -0.076548778 1.8523997e-38 273 303
-0.055892758 0.69300002 -0.076548778 1.8614039e-38 274 303
-0.054677699 0.69300002 -0.076548778 1.8153419e-38 275 303
-0.053462639 0.69300002 -0.076548778 1.833566e-38 276 303
-0.05224758 0.69300002 -0.076548778 1.8520411e-38 277 303
-0.051032521 0.69300002 -0.076548778 1.8245619e-38 278 303
-0.049889345 0.69400001 -0.07665924 1.8245619e-38 279 303
-0.048672531 0.69400001 -0.07665924 1.8337809e-38 280 303
-0.047455717 0.69400001 -0.07665924 1.8337809e-38 281 303
-0.046238903 0.69400001 -0.07665924 1.8429631e-38 282 303
-0.045022093 0.69400001 -0.07665924 1.8337435e-38 283 303
-0.043805279 0.69400001 -0.07665924 1.8244889e-38 284 303
-0.042588469 0.69400001 -0.07665924 1.7691715e-38 285 303
-0.041371655 0.69400001 -0.07665924 1.6496476e-38 286 303
-0.079447038 0.708 -0.079447038 1.4563608e-38 256 304
-0.07809522 0.70700002 -0.079334825 1.3272869e-38 257 304
-0.076855607 0.70700002 -0.079334825 1.4099365e-38 258 304
-0.075295143 0.704 -0.078998186 1.4929486e-38 259 304
-0.073955595 0.70300001 -0.078885972 1.5759221e-38 260 304
-0.072516106 0.70099998 -0.078661539 1.6220198e-38 261 304
-0.071185328 0.69999999 -0.078549333 1.6956303e-38 262 304
-0.069758117 0.69800001 -0.078324907 1.7140694e-38 263 304
-0.068436109 0.69700003 -0.078212693 1.7416205e-38 264 304
-0.067117594 0.69599998 -0.078100473 1.7692793e-38 265 304
-0.065897278 0.69599998 -0.078100473 1.7968304e-38 266 304
-0.064491108 0.69400001 -0.077876054 1.8060499e-38 267 304
-0.063183114 0.69300002 -0.077763841 1.8336366e-38 268 304
-0.061789215 0.69099998 -0.077539407 1.8336366e-38 269 304
-0.060577665 0.69099998 -0.077539407 1.8245615e-38 270 304
-0.059366114 0.69099998 -0.077539407 1.8521843e-38 271 304
-0.058154557 0.69099998 -0.077539407 1.8614039e-38 272 304
-0.056942999 0.69099998 -0.077539407 1.8706593e-38 273 304
-0.055731449 0.69099998 -0.077539407 1.8522199e-38 274 304
-0.054519895 0.69099998 -0.077539407 1.7969025e-38 275 304
-0.053308345 0.69099998 -0.077539407 1.805942e-38 276 304
-0.052096792 0.69099998 -0.077539407 1.7875388e-38 277 304
-0.050885238 0.69099998 -0.077539407 1.8059067e-38 278 304
-0.049817458 0.69300002 -0.077763841 1.8059067e-38 279 304
-0.048602402 0.69300002 -0.077763841 1.8060149e-38 280 304
-0.047387339 0.69300002 -0.077763841 1.8428932e-38 281 304
-0.04617228 0.69300002 -0.077763841 1.842928e-38 282 304
-0.044957221 0.69300002 -0.077763841 1.842928e-38 283 304
-0.043742158 0.69300002 -0.077763841 1.8428562e-38 284 304
-0.042527102 0.69300002 -0.077763841 1.805942e-38 285 304
-0.041371655 0.69400001 -0.077876054 1.6956004e-38 286 304
-0.079334825 0.70700002 -0.080574431 1.4472859e-38 256 305
-0.07798475 0.70599997 -0.080460466 1.3089924e-38 257 305
-0.076746903 0.70599997 -0.080460466 1.4005008e-38 258 305
-0.07518819 0.70300001 -0.080118567 1.4557822e-38 259 305
-0.073745191 0.70099998 -0.079890631 1.5114217e-38 260 305
-0.072412662 0.69999999 -0.079776667 1.6036532e-38 261 305
-0.071185328 0.69999999 -0.079776667 1.6863753e-38 262 305
-0.069658175 0.69700003 -0.079434767 1.695595e-38 263 305
-0.068436109 0.69700003 -0.079434767 1.7599151e-38 264 305
-0.067117594 0.69599998 -0.079320796 1.7783542e-38 265 305
-0.065707922 0.69400001 -0.079092868 1.7876458e-38 266 305
-0.06421233 0.69099998 -0.078750968 1.7968654e-38 267 305
-0.063000768 0.69099998 -0.078750968 1.8151969e-38 268 305
-0.061699796 0.69 -0.078636996 1.8244165e-38 269 305
-0.060489997 0.69 -0.078636996 1.8337082e-38 270 305
-0.059108373 0.68800002 -0.078409068 1.8429278e-38 271 305
-0.057902083 0.68800002 -0.078409068 1.8521475e-38 272 305
-0.0568606 0.69 -0.078636996 1.8521475e-38 273 305
-0.055650797 0.69 -0.078636996 1.8245612e-38 274 305
-0.054440998 0.69 -0.078636996 1.7969025e-38 275 305
-0.053231198 0.69 -0.078636996 1.6954145e-38 276 305
-0.052021399 0.69 -0.078636996 1.6032549e-38 277 305
-0.050811596 0.69 -0.078636996 1.6676838e-38 278 305
-0.049673684 0.69099998 -0.078750968 1.686123e-38 279 305
-0.048602402 0.69300002 -0.078978904 1.6863045e-38 280 305
-0.047387339 0.69300002 -0.078978904 1.7416217e-38 281 305
-0.046039023 0.69099998 -0.078750968 1.7877553e-38 282 305
-0.044827472 0.69099998 -0.078750968 1.8061943e-38 283 305
-0.043615919 0.69099998 -0.078750968 1.8245968e-38 284 305
-0.042404365 0.69099998 -0.078750968 1.8061218e-38 285 305
-0.041312039 0.69300002 -0.078978904 1.7416594e-38 286 305
-0.079334825 0.70700002 -0.081814043 1.4564701e-38 256 306
-0.07798475 0.70599997 -0.081698313 1.3550548e-38 257 306
-0.076529488 0.704 -0.081466876 1.2902248e-38 258 306
-0.07486733 0.69999999 -0.081004001 1.2994444e-38 259 306
-0.073429599 0.69800001 -0.080772556 1.3918546e-38 260 306
-0.072205767 0.69800001 -0.080772556 1.5025252e-38 261 306
-0.07098195 0.69800001 -0.080772556 1.6128725e-38 262 306
-0.069658175 0.69700003 -0.080656841 1.6128725e-38 263 306
-0.068337917 0.69599998 -0.080541112 1.6772647e-38 264 306
-0.066924736 0.69400001 -0.080309682 1.6957397e-38 265 306
-0.065423876 0.69099998 -0.079962514 1.7325102e-38 266 306
-0.06421233 0.69099998 -0.079962514 1.7417298e-38 267 306
-0.062909603 0.69 -0.079846799 1.7600966e-38 268 306
-0.061699796 0.69 -0.079846799 1.7693162e-38 269 306
-0.060314666 0.68800002 -0.079615362 1.7878628e-38 270 306
-0.059108373 0.68800002 -0.079615362 1.7970823e-38 271 306
-0.057902083 0.68800002 -0.079615362 1.8245963e-38 272 306
-0.056613375 0.68699998 -0.079499632 1.8245963e-38 273 306
-0.055408835 0.68699998 -0.079499632 1.8337432e-38 274 306
-0.054204296 0.68699998 -0.079499632 1.796901e-38 275 306
-0.052999757 0.68699998 -0.079499632 1.7138526e-38 276 306
-0.051870614 0.68800002 -0.079615362 1.5755592e-38 277 306
-0.050664321 0.68800002 -0.079615362 1.6122949e-38 278 306
-0.049458027 0.68800002 -0.079615362 1.6122949e-38 279 306
-0.048251733 0.68800002 -0.079615362 1.6125128e-38 280 306
-0.047045439 0.68800002 -0.079615362 1.6770498e-38 281 306
-0.045972396 0.69 -0.079846799 1.7324749e-38 282 306
-0.0447626 0.69 -0.079846799 1.7877921e-38 283 306
-0.043552797 0.69 -0.079846799 1.8062293e-38 284 306
-0.042342998 0.69 -0.079846799 1.7785708e-38 285 306
-0.041133199 0.69 -0.079846799 1.8060152e-38 286 306
-0.0399234 0.69 -0.079846799 1.704564e-38 287 306
-0.079334825 0.70700002 -0.083053641 1.4472158e-38 256 307
-0.07798475 0.70599997 -0.082936168 1.3734234e-38 257 307
-0.076529488 0.704 -0.082701221 1.3823854e-38 258 307
-0.07486733 0.69999999 -0.082231328 1.19803e-38 259 307
-0.073429599 0.69800001 -0.081996389 1.2259749e-38 260 307
-0.072205767 0.69800001 -0.081996389 1.4195857e-38 261 307
-0.07098195 0.69800001 -0.081996389 1.5207845e-38 262 307
-0.069658175 0.69700003 -0.081878915 1.5668823e-38 263 307
-0.068141542 0.69400001 -0.081526496 1.6954145e-38 264 307
-0.066924736 0.69400001 -0.081526496 1.7231092e-38 265 307
-0.065423876 0.69099998 -0.081174068 1.7598795e-38 266 307
-0.06421233 0.69099998 -0.081174068 1.769135e-38 267 307
-0.062909603 0.69 -0.081056595 1.7598082e-38 268 307
-0.06152096 0.68800002 -0.080821648 1.7966504e-38 269 307
-0.060314666 0.68800002 -0.080821648 1.8061574e-38 270 307
-0.059022456 0.68699998 -0.080704175 1.815377e-38 271 307
-0.057817914 0.68699998 -0.080704175 1.8429262e-38 272 307
-0.056613375 0.68699998 -0.080704175 1.8429262e-38 273 307
-0.055408835 0.68699998 -0.080704175 1.8154476e-38 274 307
-0.054204296 0.68699998 -0.080704175 1.8154476e-38 275 307
-0.052999757 0.68699998 -0.080704175 1.7875015e-38 276 307
-0.051795214 0.68699998 -0.080704175 1.6584276e-38 277 307
-0.050590675 0.68699998 -0.080704175 1.630734e-38 278 307
-0.049386136 0.68699998 -0.080704175 1.6030752e-38 279 307
-0.048181597 0.68699998 -0.080704175 1.6305558e-38 280 307
-0.046977058 0.68699998 -0.080704175 1.6582145e-38 281 307
-0.045772515 0.68699998 -0.080704175 1.6771931e-38 282 307
-0.044632856 0.68800002 -0.080821648 1.7509496e-38 283 307
-0.043426562 0.68800002 -0.080821648 1.806194e-38 284 307
-0.042220265 0.68800002 -0.080821648 1.7877909e-38 285 307
-0.041013971 0.68800002 -0.080821648 1.7600966e-38 286 307
-0.0399234 0.69 -0.081056595 1.7139988e-38 287 307
-0.038713597 0.69 -0.081056595 1.6221687e-38 288 307
-0.07798475 0.70599997 -0.084174022 1.3826435e-38 257 308
-0.076529488 0.704 -0.083935574 1.410117e-38 258 308
-0.07486733 0.69999999 -0.083458662 1.2165062e-38 259 308
-0.073429599 0.69800001 -0.083220214 1.1704061e-38 260 308
-0.072205767 0.69800001 -0.083220214 1.3640169e-38 261 308
-0.07098195 0.69800001 -0.083220214 1.5021657e-38 262 308
-0.069658175 0.69700003 -0.083100989 1.5759224e-38 263 308
-0.068141542 0.69400001 -0.082743309 1.6494618e-38 264 308
-0.06663543 0.69099998 -0.082385622 1.6863401e-38 265 308
-0.065423876 0.69099998 -0.082385622 1.7231107e-38 266 308
-0.063933544 0.68800002 -0.082027942 1.7323303e-38 267 308
-0.06272725 0.68800002 -0.082027942 1.741478e-38 268 308
-0.061431535 0.68699998 -0.081908718 1.7875758e-38 269 308
-0.060226995 0.68699998 -0.081908718 1.7877906e-38 270 308
-0.059022456 0.68699998 -0.081908718 1.8061937e-38 271 308
-0.057733759 0.68599999 -0.081789486 1.8337432e-38 272 308
-0.056530971 0.68599999 -0.081789486 1.8429628e-38 273 308
-0.055328183 0.68599999 -0.081789486 1.8337783e-38 274 308
-0.054125395 0.68599999 -0.081789486 1.8337783e-38 275 308
-0.05292261 0.68599999 -0.081789486 1.8244149e-38 276 308
-0.051569041 0.68400002 -0.081551038 1.7322192e-38 277 308
-0.050369758 0.68400002 -0.081551038 1.6398443e-38 278 308
-0.049314249 0.68599999 -0.081789486 1.5753074e-38 279 308
-0.048111461 0.68599999 -0.081789486 1.5663409e-38 280 308
-0.046908677 0.68599999 -0.081789486 1.5663409e-38 281 308
-0.045705888 0.68599999 -0.081789486 1.6217676e-38 282 308
-0.044567976 0.68699998 -0.081908718 1.7047795e-38 283 308
-0.043363437 0.68699998 -0.081908718 1.778571e-38 284 308
-0.042158898 0.68699998 -0.081908718 1.778571e-38 285 308
-0.040954359 0.68699998 -0.081908718 1.7875755e-38 286 308
-0.039807681 0.68800002 -0.082027942 1.7599167e-38 287 308
-0.038601387 0.68800002 -0.082027942 1.6679776e-38 288 308
-0.037395094 0.68800002 -0.082027942 1.7140754e-38 289 308
-0.07798475 0.70599997 -0.085411869 1.3643489e-38 257 309
-0.076529488 0.704 -0.085169919 1.4377049e-38 258 309
-0.07486733 0.69999999 -0.084685996 1.2809725e-38 259 309
-0.073429599 0.69800001 -0.084444039 1.2162518e-38 260 309
-0.072205767 0.69800001 -0.084444039 1.2900083e-38 261 309
-0.07098195 0.69800001 -0.084444039 1.4285167e-38 262 309
-0.069658175 0.69700003 -0.084323063 1.5483709e-38 263 309
-0.068141542 0.69400001 -0.083960123 1.6401704e-38 264 309
-0.06663543 0.69099998 -0.083597176 1.6770485e-38 265 309
-0.065329194 0.69 -0.083476201 1.6954875e-38 266 309
-0.06384062 0.68699998 -0.083113261 1.7323656e-38 267 309
-0.062636077 0.68699998 -0.083113261 1.7508047e-38 268 309
-0.061431535 0.68699998 -0.083113261 1.787683e-38 269 309
-0.060226995 0.68699998 -0.083113261 1.8061937e-38 270 309
-0.058936544 0.68599999 -0.082992278 1.8154491e-38 271 309
-0.057733759 0.68599999 -0.082992278 1.8246319e-38 272 309
-0.056530971 0.68599999 -0.082992278 1.8154123e-38 273 309
-0.055328183 0.68599999 -0.082992278 1.8429265e-38 274 309
-0.054125395 0.68599999 -0.082992278 1.8429265e-38 275 309
-0.05292261 0.68599999 -0.082992278 1.8520384e-38 276 309
-0.051569041 0.68400002 -0.082750313 1.8243799e-38 277 309
-0.050369758 0.68400002 -0.082750313 1.7136363e-38 278 309
-0.049170479 0.68400002 -0.082750313 1.5937459e-38 279 309
-0.0479712 0.68400002 -0.082750313 1.5477926e-38 280 309
-0.046771921 0.68400002 -0.082750313 1.5846708e-38 281 309
-0.045572639 0.68400002 -0.082750313 1.5663412e-38 282 309
-0.04437336 0.68400002 -0.082750313 1.6493174e-38 283 309
-0.043300316 0.68599999 -0.082992278 1.7141057e-38 284 309
-0.042097531 0.68599999 -0.082992278 1.7325807e-38 285 309
-0.040894743 0.68599999 -0.082992278 1.7509119e-38 286 309
-0.039749816 0.68699998 -0.083113261 1.7416924e-38 287 309
-0.038545277 0.68699998 -0.083113261 1.7047808e-38 288 309
-0.037340738 0.68699998 -0.083113261 1.6771581e-38 289 309
-0.076746903 0.70599997 -0.086649731 1.4193751e-38 258 310
-0.07518819 0.70300001 -0.086281531 1.3179599e-38 259 310
-0.073745191 0.70099998 -0.086036064 1.2900083e-38 260 310
-0.072412662 0.69999999 -0.08591333 1.2807888e-38 261 310
-0.07098195 0.69800001 -0.085667863 1.3088062e-38 262 310
-0.069658175 0.69700003 -0.08554513 1.4747943e-38 263 310
-0.067846984 0.69099998 -0.08480873 1.5759221e-38 264 310
-0.066538997 0.69 -0.084685996 1.6036167e-38 265 310
-0.065139838 0.68800002 -0.084440529 1.6588609e-38 266 310
-0.06384062 0.68699998 -0.084317796 1.6773e-38 267 310
-0.062544905 0.68599999 -0.084195063 1.7415849e-38 268 310
-0.061342116 0.68599999 -0.084195063 1.7600599e-38 269 310
-0.060139328 0.68599999 -0.084195063 1.7878262e-38 270 310
-0.058936544 0.68599999 -0.084195063 1.8062293e-38 271 310
-0.057565439 0.68400002 -0.083949596 1.8154123e-38 272 310
-0.056366164 0.68400002 -0.083949596 1.8154123e-38 273 310
-0.055166878 0.68400002 -0.083949596 1.8428909e-38 274 310
-0.053967599 0.68400002 -0.083949596 1.8428909e-38 275 310
-0.052691177 0.68300003 -0.08382687 1.8428909e-38 276 310
-0.051493648 0.68300003 -0.08382687 1.8521463e-38 277 310
-0.050222475 0.68199998 -0.083704129 1.8428183e-38 278 310
-0.049026705 0.68199998 -0.083704129 1.7137444e-38 279 310
-0.047830928 0.68199998 -0.083704129 1.649099e-38 280 310
-0.04670354 0.68300003 -0.08382687 1.6121848e-38 281 310
-0.045506012 0.68300003 -0.08382687 1.5569398e-38 282 310
-0.044308487 0.68300003 -0.08382687 1.6214768e-38 283 310
-0.043110959 0.68300003 -0.08382687 1.658752e-38 284 310
-0.041974798 0.68400002 -0.083949596 1.7048498e-38 285 310
-0.040775519 0.68400002 -0.083949596 1.7233609e-38 286 310
-0.03957624 0.68400002 -0.083949596 1.7233609e-38 287 310
-0.038376961 0.68400002 -0.083949596 1.7047439e-38 288 310
-0.037177678 0.68400002 -0.083949596 1.658682e-38 289 310
-0.035978399 0.68400002 -0.083949596 1.631425e-38 290 310
-0.074974284 0.70099998 -0.087265149 1.3365079e-38 259 311
-0.073745191 0.70099998 -0.087265149 1.3820257e-38 260 311
-0.072412662 0.69999999 -0.087140664 1.3082692e-38 261 311
-0.071185328 0.69999999 -0.087140664 1.2350146e-38 262 311
-0.069758117 0.69800001 -0.086891696 1.4286255e-38 263 311
-0.067846984 0.69099998 -0.086020276 1.5299318e-38 264 311
-0.066346131 0.68800002 -0.08564683 1.5759937e-38 265 311
-0.065045156 0.68699998 -0.085522331 1.6312028e-38 266 311
-0.063747689 0.68599999 -0.085397847 1.6404223e-38 267 311
-0.062544905 0.68599999 -0.085397847 1.6864483e-38 268 311
-0.061342116 0.68599999 -0.085397847 1.7232905e-38 269 311
-0.060139328 0.68599999 -0.085397847 1.7417654e-38 270 311
-0.058936544 0.68599999 -0.085397847 1.769388e-38 271 311
-0.057481278 0.68300003 -0.085024394 1.8061574e-38 272 311
-0.056283753 0.68300003 -0.085024394 1.8061574e-38 273 311
-0.055086225 0.68300003 -0.085024394 1.8244884e-38 274 311
-0.053888701 0.68300003 -0.085024394 1.8337438e-38 275 311
-0.052614026 0.68199998 -0.084899902 1.8154123e-38 276 311
-0.051418249 0.68199998 -0.084899902 1.8246319e-38 277 311
-0.050075196 0.68000001 -0.084650926 1.8522181e-38 278 311
-0.048882935 0.68000001 -0.084650926 1.8429984e-38 279 311
-0.047690667 0.68000001 -0.084650926 1.7781729e-38 280 311
-0.046635158 0.68199998 -0.084899902 1.6951967e-38 281 311
-0.045439381 0.68199998 -0.084899902 1.6122557e-38 282 311
-0.044243611 0.68199998 -0.084899902 1.6214752e-38 283 311
-0.043047838 0.68199998 -0.084899902 1.6402033e-38 284 311
-0.041913435 0.68300003 -0.085024394 1.7139598e-38 285 311
-0.040656291 0.68199998 -0.084899902 1.7233243e-38 286 311
-0.039460517 0.68199998 -0.084899902 1.7233243e-38 287 311
-0.038320854 0.68300003 -0.085024394 1.7415133e-38 288 311
-0.037123326 0.68300003 -0.085024394 1.7138546e-38 289 311
-0.035767999 0.68000001 -0.084650926 1.6219884e-38 290 311
-0.072205767 0.69800001 -0.088115521 1.2715712e-38 261 312
-0.069758117 0.69800001 -0.088115521 1.4098626e-38 263 312
-0.067846984 0.69099998 -0.087231837 1.4562481e-38 264 312
-0.066346131 0.68800002 -0.086853124 1.5391882e-38 265 312
-0.064950474 0.68599999 -0.086600631 1.6309505e-38 266 312
-0.063747689 0.68599999 -0.086600631 1.6678287e-38 267 312
-0.062544905 0.68599999 -0.086600631 1.6863737e-38 268 312
-0.061342116 0.68599999 -0.086600631 1.704813e-38 269 312
-0.059964001 0.68400002 -0.086348161 1.7416552e-38 270 312
-0.058764715 0.68400002 -0.086348161 1.7601302e-38 271 312
-0.057481278 0.68300003 -0.086221918 1.8152322e-38 272 312
-0.056201346 0.68199998 -0.086095676 1.8244518e-38 273 312
-0.055005573 0.68199998 -0.086095676 1.8061208e-38 274 312
-0.053809796 0.68199998 -0.086095676 1.824524e-38 275 312
-0.052614026 0.68199998 -0.086095676 1.8245237e-38 276 312
-0.051267464 0.68000001 -0.085843198 1.8337432e-38 277 312
-0.050075196 0.68000001 -0.085843198 1.8246672e-38 278 312
-0.048882935 0.68000001 -0.085843198 1.8338869e-38 279 312
-0.047690667 0.68000001 -0.085843198 1.8705126e-38 280 312
-0.046498399 0.68000001 -0.085843198 1.8151954e-38 281 312
-0.045306131 0.68000001 -0.085843198 1.741474e-38 282 312
-0.044113863 0.68000001 -0.085843198 1.7137795e-38 283 312
-0.042921599 0.68000001 -0.085843198 1.7138877e-38 284 312
-0.041729335 0.68000001 -0.085843198 1.7322908e-38 285 312
-0.040537067 0.68000001 -0.085843198 1.760022e-38 286 312
-0.039344799 0.68000001 -0.085843198 1.760022e-38 287 312
-0.038152531 0.68000001 -0.085843198 1.7416202e-38 288 312
-0.036960267 0.68000001 -0.085843198 1.7231811e-38 289 312
-0.035767999 0.68000001 -0.085843198 1.640389e-38 290 312
-0.034474038 0.67799997 -0.085590713 1.6588281e-38 291 312
-0.067552425 0.68800002 -0.088059418 1.3917123e-38 264 313
-0.066249698 0.68699998 -0.087931409 1.4747243e-38 265 313
-0.064950474 0.68599999 -0.087803423 1.5759204e-38 266 313
-0.063747689 0.68599999 -0.087803423 1.6035432e-38 267 313
-0.062362559 0.68400002 -0.087547436 1.6496043e-38 268 313
-0.061163284 0.68400002 -0.087547436 1.6680435e-38 269 313
-0.059964001 0.68400002 -0.087547436 1.6865196e-38 270 313
-0.05867881 0.68300003 -0.087419443 1.7049946e-38 271 313
-0.05739712 0.68199998 -0.087291449 1.7325451e-38 272 313
-0.056201346 0.68199998 -0.087291449 1.7510202e-38 273 313
-0.055005573 0.68199998 -0.087291449 1.7786063e-38 274 313
-0.053809796 0.68199998 -0.087291449 1.7786063e-38 275 313
-0.052614026 0.68199998 -0.087291449 1.778571e-38 276 313
-0.051267464 0.68000001 -0.087035462 1.8061937e-38 277 313
-0.050001562 0.67900002 -0.086907476 1.8154486e-38 278 313
-0.048811045 0.67900002 -0.086907476 1.8154486e-38 279 313
-0.047620531 0.67900002 -0.086907476 1.8521814e-38 280 313
-0.046430022 0.67900002 -0.086907476 1.8798042e-38 281 313
-0.045239504 0.67900002 -0.086907476 1.8153379e-38 282 313
-0.044048995 0.67900002 -0.086907476 1.7692401e-38 283 313
-0.042858478 0.67900002 -0.086907476 1.7783152e-38 284 313
-0.041667968 0.67900002 -0.086907476 1.7875347e-38 285 313
-0.040537067 0.68000001 -0.087035462 1.7692398e-38 286 313
-0.039344799 0.68000001 -0.087035462 1.7784952e-38 287 313
-0.038096428 0.67900002 -0.086907476 1.769312e-38 288 313
-0.036851559 0.67799997 -0.086779475 1.7600924e-38 289 313
-0.0356628 0.67799997 -0.086779475 1.695595e-38 290 313
-0.034474038 0.67799997 -0.086779475 1.6587167e-38 291 313
-0.068758719 0.68800002 -0.089265712 1.336215e-38 263 314
-0.067552425 0.68800002 -0.089265712 1.3823484e-38 264 314
-0.066249698 0.68699998 -0.089135952 1.4561049e-38 265 314
-0.064950474 0.68599999 -0.089006208 1.5575179e-38 266 314
-0.063747689 0.68599999 -0.089006208 1.5667374e-38 267 314
-0.062362559 0.68400002 -0.088746719 1.6403479e-38 268 314
-0.061163284 0.68400002 -0.088746719 1.6495675e-38 269 314
-0.059876334 0.68300003 -0.088616975 1.6864453e-38 270 314
-0.05867881 0.68300003 -0.088616975 1.695665e-38 271 314
-0.05739712 0.68199998 -0.088487223 1.7416908e-38 272 314
-0.056036532 0.68000001 -0.088227727 1.7509104e-38 273 314
-0.054844268 0.68000001 -0.088227727 1.7693143e-38 274 314
-0.053652 0.68000001 -0.088227727 1.7693143e-38 275 314
-0.052459732 0.68000001 -0.088227727 1.8059771e-38 276 314
-0.051192071 0.67900002 -0.08809799 1.8152325e-38 277 314
-0.050001562 0.67900002 -0.08809799 1.8244884e-38 278 314
-0.048739154 0.67799997 -0.08796823 1.8521831e-38 279 314
-0.047550395 0.67799997 -0.08796823 1.8614379e-38 280 314
-0.046361636 0.67799997 -0.08796823 1.8522184e-38 281 314
-0.045172878 0.67799997 -0.08796823 1.7787486e-38 282 314
-0.043984115 0.67799997 -0.08796823 1.769529e-38 283 314
-0.042795356 0.67799997 -0.08796823 1.769385e-38 284 314
-0.041606598 0.67799997 -0.08796823 1.769385e-38 285 314
-0.040417835 0.67799997 -0.08796823 1.7877511e-38 286 314
-0.039229076 0.67799997 -0.08796823 1.7785315e-38 287 314
-0.038040318 0.67799997 -0.08796823 1.7602006e-38 288 314
-0.036742851 0.676 -0.087708741 1.7602006e-38 289 314
-0.035557602 0.676 -0.087708741 1.6958101e-38 290 314
-0.034321502 0.67500001 -0.087578997 1.6865546e-38 291 314
-0.033137999 0.67500001 -0.087578997 1.5758561e-38 292 314
-0.068658777 0.68699998 -0.090340495 1.3361437e-38 263 315
-0.067454241 0.68699998 -0.090340495 1.317956e-38 264 315
-0.066249698 0.68699998 -0.090340495 1.3824929e-38 265 315
-0.064950474 0.68599999 -0.090209 1.4838342e-38 266 315
-0.063561834 0.68400002 -0.089946002 1.5483712e-38 267 315
-0.062362559 0.68400002 -0.089946002 1.6034716e-38 268 315
-0.061163284 0.68400002 -0.089946002 1.6126912e-38 269 315
-0.059876334 0.68300003 -0.089814499 1.622018e-38 270 315
-0.058592889 0.68199998 -0.089682996 1.6404571e-38 271 315
-0.057228796 0.68000001 -0.089419998 1.6773353e-38 272 315
-0.056036532 0.68000001 -0.089419998 1.6865549e-38 273 315
-0.054844268 0.68000001 -0.089419998 1.7416924e-38 274 315
-0.053573098 0.67900002 -0.089288503 1.7416924e-38 275 315
-0.052382588 0.67900002 -0.089288503 1.7600599e-38 276 315
-0.051116679 0.67799997 -0.089156993 1.7876827e-38 277 315
-0.049927916 0.67799997 -0.089156993 1.7785357e-38 278 315
-0.048595384 0.676 -0.088893995 1.8061943e-38 279 315
-0.047410134 0.676 -0.088893995 1.8245963e-38 280 315
-0.046224877 0.676 -0.088893995 1.8153767e-38 281 315
-0.045039624 0.676 -0.088893995 1.8154826e-38 282 315
-0.043854371 0.676 -0.088893995 1.8154826e-38 283 315
-0.042795356 0.67799997 -0.089156993 1.8246293e-38 284 315
-0.041606598 0.67799997 -0.089156993 1.8062262e-38 285 315
-0.040417835 0.67799997 -0.089156993 1.8153023e-38 286 315
-0.039229076 0.67799997 -0.089156993 1.8153023e-38 287 315
-0.037928104 0.676 -0.088893995 1.7877165e-38 288 315
-0.036742851 0.676 -0.088893995 1.7784968e-38 289 315
-0.035557602 0.676 -0.088893995 1.7416555e-38 290 315
-0.034321502 0.67500001 -0.088762499 1.7416555e-38 291 315
-0.033137999 0.67500001 -0.088762499 1.6311341e-38 292 315
-0.031954501 0.67500001 -0.088762499 1.6219144e-38 293 315
-0.066249698 0.68699998 -0.09154503 1.3271034e-38 265 316
-0.064950474 0.68599999 -0.091411777 1.4285533e-38 266 316
-0.063561834 0.68400002 -0.091145277 1.5023457e-38 267 316
-0.06227139 0.68300003 -0.091012023 1.5849249e-38 268 316
-0.061073858 0.68300003 -0.091012023 1.6218031e-38 269 316
-0.059876334 0.68300003 -0.091012023 1.6035788e-38 270 316
-0.058592889 0.68199998 -0.090878762 1.6312375e-38 271 316
-0.057228796 0.68000001 -0.090612262 1.6588239e-38 272 316
-0.056036532 0.68000001 -0.090612262 1.6680435e-38 273 316
-0.054763615 0.67900002 -0.090479009 1.7231455e-38 274 316
-0.053573098 0.67900002 -0.090479009 1.7324009e-38 275 316
-0.052305438 0.67799997 -0.090345755 1.7508047e-38 276 316
-0.051116679 0.67799997 -0.090345755 1.7600243e-38 277 316
-0.049780637 0.676 -0.090079248 1.7693162e-38 278 316
-0.048595384 0.676 -0.090079248 1.7877553e-38 279 316
-0.047410134 0.676 -0.090079248 1.8153773e-38 280 316
-0.046224877 0.676 -0.090079248 1.8153773e-38 281 316
-0.045039624 0.676 -0.090079248 1.8154123e-38 282 316
-0.043854371 0.676 -0.090079248 1.8154123e-38 283 316
-0.042669121 0.676 -0.090079248 1.8154476e-38 284 316
-0.041483864 0.676 -0.090079248 1.8061922e-38 285 316
-0.040298611 0.676 -0.090079248 1.8061556e-38 286 316
-0.039113361 0.676 -0.090079248 1.8061556e-38 287 316
-0.037928104 0.676 -0.090079248 1.7693499e-38 288 316
-0.036742851 0.676 -0.090079248 1.7601302e-38 289 316
-0.035557602 0.676 -0.090079248 1.7416921e-38 290 316
-0.034321502 0.67500001 -0.089945994 1.7416921e-38 291 316
-0.033137999 0.67500001 -0.089945994 1.6864864e-38 292 316
-0.032001842 0.676 -0.090079248 1.6496083e-38 293 316
-0.030816587 0.676 -0.090079248 1.5579594e-38 294 316
-0.067454241 0.68699998 -0.092749573 1.3270683e-38 264 317
-0.066249698 0.68699998 -0.092749573 1.2994096e-38 265 317
-0.064950474 0.68599999 -0.092614569 1.363945e-38 266 317
-0.063561834 0.68400002 -0.092344552 1.4561046e-38 267 317
-0.06227139 0.68300003 -0.092209555 1.4930537e-38 268 317
-0.061073858 0.68300003 -0.092209555 1.5391513e-38 269 317
-0.059876334 0.68300003 -0.092209555 1.594324e-38 270 317
-0.058592889 0.68199998 -0.092074543 1.6035435e-38 271 317
-0.057228796 0.68000001 -0.091804534 1.6219461e-38 272 317
-0.055954125 0.67900002 -0.091669522 1.6403492e-38 273 317
-0.054763615 0.67900002 -0.091669522 1.6771551e-38 274 317
-0.053494196 0.67799997 -0.09153451 1.6956303e-38 275 317
-0.052151144 0.676 -0.091264501 1.7140338e-38 276 317
-0.050965894 0.676 -0.091264501 1.7232892e-38 277 317
-0.049780637 0.676 -0.091264501 1.7508403e-38 278 317
-0.048595384 0.676 -0.091264501 1.7692796e-38 279 317
-0.047410134 0.676 -0.091264501 1.7876824e-38 280 317
-0.046224877 0.676 -0.091264501 1.7969378e-38 281 317
-0.045039624 0.676 -0.091264501 1.8061571e-38 282 317
-0.043854371 0.676 -0.091264501 1.8153767e-38 283 317
-0.042669121 0.676 -0.091264501 1.815412e-38 284 317
-0.041483864 0.676 -0.091264501 1.815412e-38 285 317
-0.040298611 0.676 -0.091264501 1.7969363e-38 286 317
-0.039113361 0.676 -0.091264501 1.7969363e-38 287 317
-0.037928104 0.676 -0.091264501 1.7600946e-38 288 317
-0.036742851 0.676 -0.091264501 1.7508751e-38 289 317
-0.035557602 0.676 -0.091264501 1.7508753e-38 290 317
-0.034321502 0.67500001 -0.091129504 1.7508753e-38 291 317
-0.033137999 0.67500001 -0.091129504 1.6865211e-38 292 317
-0.032001842 0.676 -0.091264501 1.668118e-38 293 317
-0.030816587 0.676 -0.091264501 1.5760373e-38 294 317
-0.029631332 0.676 -0.091264501 1.6958916e-38 295 317
-0.067454241 0.68699998 -0.093954116 1.3637661e-38 264 318
-0.066249698 0.68699998 -0.093954116 1.345363e-38 265 318
-0.064950474 0.68599999 -0.093817353 1.3362503e-38 266 318
-0.063561834 0.68400002 -0.093543842 1.3823481e-38 267 318
-0.06227139 0.68300003 -0.09340708 1.4010381e-38 268 318
-0.061073858 0.68300003 -0.09340708 1.4747946e-38 269 318
-0.059788663 0.68199998 -0.093270317 1.5666656e-38 270 318
-0.058421064 0.68000001 -0.092996798 1.5758851e-38 271 318
-0.057144642 0.67900002 -0.092860043 1.5759925e-38 272 318
-0.055871718 0.67799997 -0.092723273 1.585212e-38 273 318
-0.054682959 0.67799997 -0.092723273 1.6402779e-38 274 318
-0.053336397 0.676 -0.092449754 1.6771201e-38 275 318
-0.052151144 0.676 -0.092449754 1.6771928e-38 276 318
-0.050890498 0.67500001 -0.092312999 1.6864483e-38 277 318
-0.049706999 0.67500001 -0.092312999 1.7139988e-38 278 318
-0.048523501 0.67500001 -0.092312999 1.7232183e-38 279 318
-0.047339998 0.67500001 -0.092312999 1.750805e-38 280 318
-0.0461565 0.67500001 -0.092312999 1.7692443e-38 281 318
-0.044972997 0.67500001 -0.092312999 1.7692808e-38 282 318
-0.043789499 0.67500001 -0.092312999 1.7785004e-38 283 318
-0.042606 0.67500001 -0.092312999 1.7786076e-38 284 318
-0.041422497 0.67500001 -0.092312999 1.769388e-38 285 318
-0.040238999 0.67500001 -0.092312999 1.7601316e-38 286 318
-0.039113361 0.676 -0.092449754 1.7601316e-38 287 318
-0.037871998 0.67500001 -0.092312999 1.7416205e-38 288 318
-0.036688499 0.67500001 -0.092312999 1.7324009e-38 289 318
-0.035505001 0.67500001 -0.092312999 1.7141057e-38 290 318
-0.034321502 0.67500001 -0.092312999 1.7048861e-38 291 318
-0.033137999 0.67500001 -0.092312999 1.6864848e-38 292 318
-0.032001842 0.676 -0.092449754 1.6772653e-38 293 318
-0.030771 0.67500001 -0.092312999 1.5483766e-38 294 318
-0.0295875 0.67500001 -0.092312999 1.6497918e-38 295 318
-0.066249698 0.68699998 -0.095158651 1.3453279e-38 265 319
-0.064950474 0.68599999 -0.095020145 1.3269592e-38 266 319
-0.063561834 0.68400002 -0.094743125 1.3269592e-38 267 319
-0.062180214 0.68199998 -0.09446609 1.3088792e-38 268 319
-0.060984433 0.68199998 -0.09446609 1.4010747e-38 269 319
-0.059613332 0.68000001 -0.094189063 1.4930893e-38 270 319
-0.058335152 0.67900002 -0.094050556 1.5114924e-38 271 319
-0.057144642 0.67900002 -0.094050556 1.5849955e-38 272 319
-0.055871718 0.67799997 -0.093912028 1.5942151e-38 273 319
-0.054521654 0.676 -0.093635008 1.631021e-38 274 319
-0.053336397 0.676 -0.093635008 1.6586438e-38 275 319
-0.052074 0.67500001 -0.093496501 1.6678634e-38 276 319
-0.050890498 0.67500001 -0.093496501 1.6863384e-38 277 319
-0.049706999 0.67500001 -0.093496501 1.7139242e-38 278 319
-0.048523501 0.67500001 -0.093496501 1.7231439e-38 279 319
-0.047339998 0.67500001 -0.093496501 1.7598786e-38 280 319
-0.0461565 0.67500001 -0.093496501 1.7875012e-38 281 319
-0.044972997 0.67500001 -0.093496501 1.7690994e-38 282 319
-0.043789499 0.67500001 -0.093496501 1.7875385e-38 283 319
-0.042606 0.67500001 -0.093496501 1.7692796e-38 284 319
-0.041422497 0.67500001 -0.093496501 1.7600599e-38 285 319
-0.040238999 0.67500001 -0.093496501 1.7508403e-38 286 319
-0.039055496 0.67500001 -0.093496501 1.7508403e-38 287 319
-0.037871998 0.67500001 -0.093496501 1.7140338e-38 288 319
-0.036688499 0.67500001 -0.093496501 1.7048142e-38 289 319
-0.035505001 0.67500001 -0.093496501 1.7231808e-38 290 319
-0.034321502 0.67500001 -0.093496501 1.7047777e-38 291 319
-0.033137999 0.67500001 -0.093496501 1.6955947e-38 292 319
-0.031954501 0.67500001 -0.093496501 1.6955947e-38 293 319
-0.030725412 0.67400002 -0.093357988 1.6035123e-38 294 319
-0.029543666 0.67400002 -0.093357988 1.631207e-38 295 319
-0.066249698 0.68699998 -0.096363194 1.3271403e-38 265 320
-0.064950474 0.68599999 -0.096222922 1.3269945e-38 266 320
-0.063561834 0.68400002 -0.0959424 1.3269945e-38 267 320
-0.062180214 0.68199998 -0.095661856 1.3178112e-38 268 320
-0.060984433 0.68199998 -0.095661856 1.3454699e-38 269 320
-0.059613332 0.68000001 -0.095381334 1.4193337e-38 270 320
-0.058335152 0.67900002 -0.095241062 1.4562479e-38 271 320
-0.057060476 0.67799997 -0.09510079 1.5389716e-38 272 320
-0.055706903 0.676 -0.094820268 1.5481911e-38 273 320
-0.054521654 0.676 -0.094820268 1.5575179e-38 274 320
-0.053336397 0.676 -0.094820268 1.5759571e-38 275 320
-0.052074 0.67500001 -0.094679996 1.6126559e-38 276 320
-0.050890498 0.67500001 -0.094679996 1.6403144e-38 277 320
-0.049706999 0.67500001 -0.094679996 1.6494621e-38 278 320
-0.048523501 0.67500001 -0.094679996 1.6586817e-38 279 320
-0.047269866 0.67400002 -0.094539732 1.6862325e-38 280 320
-0.046088122 0.67400002 -0.094539732 1.7047076e-38 281 320
-0.044906374 0.67400002 -0.094539732 1.7048161e-38 282 320
-0.043594878 0.67199999 -0.094259195 1.7140356e-38 283 320
-0.042416636 0.67199999 -0.094259195 1.7232552e-38 284 320
-0.041361131 0.67400002 -0.094539732 1.7140356e-38 285 320
-0.040179387 0.67400002 -0.094539732 1.7140707e-38 286 320
-0.039055496 0.67500001 -0.094679996 1.7048511e-38 287 320
-0.037871998 0.67500001 -0.094679996 1.686483e-38 288 320
-0.036688499 0.67500001 -0.094679996 1.686483e-38 289 320
-0.035505001 0.67500001 -0.094679996 1.686375e-38 290 320
-0.034321502 0.67500001 -0.094679996 1.6955947e-38 291 320
-0.033137999 0.67500001 -0.094679996 1.6497492e-38 292 320
-0.031954501 0.67500001 -0.094679996 1.6405297e-38 293 320
-0.030725412 0.67400002 -0.094539732 1.6496086e-38 294 320
-0.029543666 0.67400002 -0.094539732 1.6311694e-38 295 320
-0.02836192 0.67400002 -0.094539732 1.5762544e-38 296 320
-0.064666435 0.68300003 -0.09699966 1.3088088e-38 266 321
-0.063468911 0.68300003 -0.09699966 1.2719304e-38 267 321
-0.062180214 0.68199998 -0.09685763 1.3452901e-38 268 321
-0.0608056 0.68000001 -0.096573599 1.3452901e-38 269 321
-0.059525665 0.67900002 -0.096431576 1.3272829e-38 270 321
-0.058249239 0.67799997 -0.096289553 1.3918198e-38 271 321
-0.056892153 0.676 -0.096005514 1.4653948e-38 272 321
-0.055706903 0.676 -0.096005514 1.483834e-38 273 321
-0.054521654 0.676 -0.096005514 1.5573364e-38 274 321
-0.053257499 0.67500001 -0.095863499 1.5757757e-38 275 321
-0.052074 0.67500001 -0.095863499 1.6033621e-38 276 321
-0.050815105 0.67400002 -0.095721483 1.6125816e-38 277 321
-0.049633358 0.67400002 -0.095721483 1.6493878e-38 278 321
-0.048451614 0.67400002 -0.095721483 1.6678271e-38 279 321
-0.047269866 0.67400002 -0.095721483 1.6861586e-38 280 321
-0.046088122 0.67400002 -0.095721483 1.7045977e-38 281 321
-0.044773117 0.67199999 -0.095437437 1.6863031e-38 282 321
-0.043594878 0.67199999 -0.095437437 1.6955227e-38 283 321
-0.042416636 0.67199999 -0.095437437 1.6955229e-38 284 321
-0.041238401 0.67199999 -0.095437437 1.6955229e-38 285 321
-0.040060159 0.67199999 -0.095437437 1.686375e-38 286 321
-0.038997639 0.67400002 -0.095721483 1.686375e-38 287 321
-0.037815895 0.67400002 -0.095721483 1.6864103e-38 288 321
-0.036634147 0.67400002 -0.095721483 1.6771907e-38 289 321
-0.035452399 0.67400002 -0.095721483 1.6863381e-38 290 321
-0.034321502 0.67500001 -0.095863499 1.6863381e-38 291 321
-0.033088908 0.67400002 -0.095721483 1.658752e-38 292 321
-0.03190716 0.67400002 -0.095721483 1.6771551e-38 293 321
-0.030634239 0.67199999 -0.095437437 1.6403873e-38 294 321
-0.029455997 0.67199999 -0.095437437 1.6403873e-38 295 321
-0.02827776 0.67199999 -0.095437437 1.5575613e-38 296 321
-0.027099518 0.67199999 -0.095437437 1.6958548e-38 297 321
