# .PCD v.7 - Point Cloud Data file format
FIELDS x y z rgb imX imY
SIZE 4 4 4 4 4 4
TYPE F F F F F F
COUNT 1 1 1 1 1 1
WIDTH 833
HEIGHT 1
VIEWPOINT 0 0 0 1 0 0 0
POINTS 833
DATA ascii
0.055335198 0.78899997 -0.023517458 1.2439165e-38 360 257
0.056718577 0.78899997 -0.023517458 1.3452959e-38 361 257
0.058175597 0.79000002 -0.023547266 1.382428e-38 362 257
0.059560735 0.79000002 -0.023547266 1.3548053e-38 363 257
0.060945868 0.79000002 -0.023547266 1.3088514e-38 364 257
0.062330995 0.79000002 -0.023547266 1.3088514e-38 365 257
0.063635476 0.78899997 -0.023517458 1.1987914e-38 366 257
0.065018855 0.78899997 -0.023517458 1.3924022e-38 367 257
-0.062958695 0.764 -0.024111839 1.7329439e-38 273 258
-0.061619148 0.764 -0.024111839 1.8892759e-38 274 258
-0.060437392 0.76599997 -0.024174958 1.9538128e-38 275 258
-0.059094343 0.76599997 -0.024174958 2.0181698e-38 276 258
-0.057751291 0.76599997 -0.024174958 2.0273894e-38 277 258
-0.056408234 0.76599997 -0.024174958 1.9906913e-38 278 258
-0.055065181 0.76599997 -0.024174958 2.01835e-38 279 258
-0.053722132 0.76599997 -0.024174958 2.0275345e-38 280 258
-0.052379075 0.76599997 -0.024174958 2.0182791e-38 281 258
-0.051036026 0.76599997 -0.024174958 2.0182076e-38 282 258
-0.04969297 0.76599997 -0.024174958 2.0089881e-38 283 258
-0.048349917 0.76599997 -0.024174958 1.9904412e-38 284 258
-0.047006864 0.76599997 -0.024174958 1.9627824e-38 285 258
-0.045663811 0.76599997 -0.024174958 1.9351957e-38 286 258
-0.044320758 0.76599997 -0.024174958 1.9259761e-38 287 258
-0.042977702 0.76599997 -0.024174958 1.8892058e-38 288 258
-0.041689005 0.76700002 -0.024206521 1.8799861e-38 289 258
-0.040344197 0.76700002 -0.024206521 1.8707306e-38 290 258
-0.038999394 0.76700002 -0.024206521 1.843108e-38 291 258
-0.037654586 0.76700002 -0.024206521 1.8063371e-38 292 258
-0.036499143 0.77100003 -0.02433276 1.7786782e-38 293 258
-0.03514732 0.77100003 -0.02433276 1.7511272e-38 294 258
-0.033883166 0.773 -0.024395877 1.7234325e-38 295 258
-0.032527838 0.773 -0.024395877 1.6682237e-38 296 258
-0.03117251 0.773 -0.024395877 1.6036867e-38 297 258
-0.029855758 0.77399999 -0.02442744 1.5484059e-38 298 258
-0.028498679 0.77399999 -0.02442744 1.5115277e-38 299 258
-0.027141599 0.77399999 -0.02442744 1.538936e-38 300 258
-0.025851147 0.77600002 -0.024490559 1.5297164e-38 301 258
-0.024553679 0.778 -0.024553679 1.4562844e-38 302 258
-0.023189586 0.778 -0.024553679 1.4470649e-38 303 258
-0.021881599 0.77999997 -0.024616797 1.437845e-38 304 258
-0.020540299 0.78100002 -0.024648361 1.4102224e-38 305 258
-0.019170946 0.78100002 -0.024648361 1.3735236e-38 306 258
-0.017892767 0.78500003 -0.0247746 1.3643039e-38 307 258
-0.016516401 0.78500003 -0.0247746 1.3367175e-38 308 258
-0.015178605 0.787 -0.024837719 1.327498e-38 309 258
-0.013833799 0.78899997 -0.024900839 1.3182431e-38 310 258
-0.012450419 0.78899997 -0.024900839 1.3182431e-38 311 258
-0.011067039 0.78899997 -0.024900839 1.3089163e-38 312 258
-0.0096959332 0.79000002 -0.024932399 1.2904412e-38 313 258
-0.0083108004 0.79000002 -0.024932399 1.2811147e-38 314 258
-0.0069431998 0.792 -0.024995519 1.2626756e-38 315 258
-0.0055545596 0.792 -0.024995519 1.2625681e-38 316 258
-0.00416592 0.792 -0.024995519 1.2441288e-38 317 258
-0.0027842934 0.79400003 -0.02505864 1.2348021e-38 318 258
-0.0013921467 0.79400003 -0.02505864 1.1979598e-38 319 258
0 0.79400003 -0.02505864 1.1977812e-38 320 258
0.0013956534 0.796 -0.02512176 1.1977812e-38 321 258
0.0027913067 0.796 -0.02512176 1.1887412e-38 322 258
0.0041869599 0.796 -0.02512176 1.2164358e-38 323 258
0.0055826134 0.796 -0.02512176 1.2165427e-38 324 258
0.0069782664 0.796 -0.02512176 1.2165427e-38 325 258
0.0083949603 0.79799998 -0.025184877 1.2163627e-38 326 258
0.0097941197 0.79799998 -0.025184877 1.2163627e-38 327 258
0.011221333 0.80000001 -0.025248 1.1979964e-38 328 258
0.012624 0.80000001 -0.025248 1.1887768e-38 329 258
0.014026666 0.80000001 -0.025248 1.1794862e-38 330 258
0.051185057 0.78899997 -0.024900839 1.5390517e-38 357 258
0.052568436 0.78899997 -0.024900839 1.2990522e-38 358 258
0.053951818 0.78899997 -0.024900839 1.2068207e-38 359 258
0.055335198 0.78899997 -0.024900839 1.2163655e-38 360 258
0.056790464 0.79000002 -0.024932399 1.3085251e-38 361 258
0.058175597 0.79000002 -0.024932399 1.3085999e-38 362 258
0.059560735 0.79000002 -0.024932399 1.2993803e-38 363 258
0.060945868 0.79000002 -0.024932399 1.2718287e-38 364 258
0.062330995 0.79000002 -0.024932399 1.3179264e-38 365 258
0.063716128 0.79000002 -0.024932399 1.2904828e-38 366 258
0.065101266 0.79000002 -0.024932399 1.5670698e-38 367 258
-0.06563779 0.764 -0.025451386 1.6592262e-38 271 259
-0.064298242 0.764 -0.025451386 1.7878975e-38 272 259
-0.062793881 0.76200002 -0.02538476 1.8801292e-38 273 259
-0.061457843 0.76200002 -0.02538476 1.9720367e-38 274 259
-0.060121801 0.76200002 -0.02538476 1.9997314e-38 275 259
-0.058940053 0.764 -0.025451386 2.0456843e-38 276 259
-0.057600506 0.764 -0.025451386 2.0641234e-38 277 259
-0.056260962 0.764 -0.025451386 2.0366092e-38 278 259
-0.054921411 0.764 -0.025451386 2.0458289e-38 279 259
-0.053581864 0.764 -0.025451386 2.0090594e-38 280 259
-0.052242316 0.764 -0.025451386 1.9906563e-38 281 259
-0.050902773 0.764 -0.025451386 1.9721816e-38 282 259
-0.049563225 0.764 -0.025451386 1.9537424e-38 283 259
-0.048223678 0.764 -0.025451386 1.9444872e-38 284 259
-0.047006864 0.76599997 -0.025518013 1.9076449e-38 285 259
-0.045663811 0.76599997 -0.025518013 1.8891702e-38 286 259
-0.044320758 0.76599997 -0.025518013 1.8891702e-38 287 259
-0.042977702 0.76599997 -0.025518013 1.8707309e-38 288 259
-0.041634649 0.76599997 -0.025518013 1.8431083e-38 289 259
-0.040344197 0.76700002 -0.025551327 1.8155219e-38 290 259
-0.038999394 0.76700002 -0.025551327 1.8063023e-38 291 259
-0.037654586 0.76700002 -0.025551327 1.769531e-38 292 259
-0.036404461 0.76899999 -0.025617953 1.7510918e-38 293 259
-0.03514732 0.77100003 -0.02568458 1.6958814e-38 294 259
-0.033883166 0.773 -0.025751207 1.6590392e-38 295 259
-0.032527838 0.773 -0.025751207 1.603723e-38 296 259
-0.03117251 0.773 -0.025751207 1.5484415e-38 297 259
-0.029817186 0.773 -0.025751207 1.5116371e-38 298 259
-0.028498679 0.77399999 -0.025784519 1.474759e-38 299 259
-0.027141599 0.77399999 -0.025784519 1.4930552e-38 300 259
-0.025851147 0.77600002 -0.025851147 1.4746161e-38 301 259
-0.024490559 0.77600002 -0.025851147 1.4746513e-38 302 259
-0.023189586 0.778 -0.025917772 1.4562481e-38 303 259
-0.021881599 0.77999997 -0.025984399 1.4286608e-38 304 259
-0.020540299 0.78100002 -0.026017714 1.4102577e-38 305 259
-0.019170946 0.78100002 -0.026017714 1.3643036e-38 306 259
-0.017892767 0.78500003 -0.026150968 1.3643036e-38 307 259
-0.016516401 0.78500003 -0.026150968 1.327498e-38 308 259
-0.015140033 0.78500003 -0.026150968 1.327498e-38 309 259
-0.013833799 0.78899997 -0.026284218 1.345722e-38 310 259
-0.012450419 0.78899997 -0.026284218 1.3365024e-38 311 259
-0.011081067 0.79000002 -0.026317533 1.3271406e-38 312 259
-0.0096959332 0.79000002 -0.026317533 1.2718233e-38 313 259
-0.0083108004 0.79000002 -0.026317533 1.2350544e-38 314 259
-0.0069431998 0.792 -0.02638416 1.1981762e-38 315 259
-0.0055545596 0.792 -0.02638416 1.2072525e-38 316 259
-0.0041764397 0.79400003 -0.026450787 1.1796299e-38 317 259
-0.0027842934 0.79400003 -0.026450787 1.1978892e-38 318 259
-0.0013921467 0.79400003 -0.026450787 1.1794499e-38 319 259
0 0.796 -0.026517414 1.1609755e-38 320 259
0.0013956534 0.796 -0.026517414 1.1701951e-38 321 259
0.0027983198 0.79799998 -0.026584039 1.1244565e-38 322 259
0.0041869599 0.796 -0.026517414 1.1428958e-38 323 259
0.0055826134 0.796 -0.026517414 1.1795922e-38 324 259
0.0069782664 0.796 -0.026517414 1.1427141e-38 325 259
0.0083949603 0.79799998 -0.026584039 1.1150932e-38 326 259
0.0098186666 0.80000001 -0.026650665 1.0966181e-38 327 259
0.054156959 0.792 -0.02638416 1.4467116e-38 359 259
0.055545598 0.792 -0.02638416 1.3175989e-38 360 259
0.056790464 0.79000002 -0.026317533 1.234587e-38 361 259
0.058175597 0.79000002 -0.026317533 1.2071825e-38 362 259
0.059560735 0.79000002 -0.026317533 1.2440967e-38 363 259
0.060945868 0.79000002 -0.026317533 1.1983242e-38 364 259
0.062330995 0.79000002 -0.026317533 1.2352384e-38 365 259
0.063716128 0.79000002 -0.026317533 1.2630779e-38 366 259
-0.065465957 0.76200002 -0.0267208 1.7881538e-38 271 260
-0.064045757 0.76099998 -0.026685731 1.9260112e-38 272 260
-0.06271147 0.76099998 -0.026685731 1.9813285e-38 273 260
-0.061377186 0.76099998 -0.026685731 1.9629254e-38 274 260
-0.060121801 0.76200002 -0.0267208 1.9905481e-38 275 260
-0.058785759 0.76200002 -0.0267208 2.0273178e-38 276 260
-0.057449725 0.76200002 -0.0267208 2.0457569e-38 277 260
-0.056040037 0.76099998 -0.026685731 2.0366092e-38 278 260
-0.05470575 0.76099998 -0.026685731 2.0273896e-38 279 260
-0.053441599 0.76200002 -0.0267208 2.0090228e-38 280 260
-0.052105557 0.76200002 -0.0267208 1.9905837e-38 281 260
-0.050769519 0.76200002 -0.0267208 1.9445575e-38 282 260
-0.049433477 0.76200002 -0.0267208 1.9261544e-38 283 260
-0.048097439 0.76200002 -0.0267208 1.935231e-38 284 260
-0.046884131 0.764 -0.026790932 1.8983888e-38 285 260
-0.045544583 0.764 -0.026790932 1.8707306e-38 286 260
-0.04420504 0.764 -0.026790932 1.8707306e-38 287 260
-0.042977702 0.76599997 -0.026861066 1.8614395e-38 288 260
-0.041634649 0.76599997 -0.026861066 1.8522199e-38 289 260
-0.040344197 0.76700002 -0.026896132 1.8154491e-38 290 260
-0.038999394 0.76700002 -0.026896132 1.7877906e-38 291 260
-0.037654586 0.76700002 -0.026896132 1.7143215e-38 292 260
-0.036309779 0.76700002 -0.026896132 1.6866268e-38 293 260
-0.034964975 0.76700002 -0.026896132 1.6220901e-38 294 260
-0.033795502 0.77100003 -0.027036399 1.5667728e-38 295 260
-0.032527838 0.773 -0.027106533 1.5299318e-38 296 260
-0.03117251 0.773 -0.027106533 1.5299318e-38 297 260
-0.029817186 0.773 -0.027106533 1.4839435e-38 298 260
-0.028498679 0.77399999 -0.027141599 1.474724e-38 299 260
-0.027141599 0.77399999 -0.027141599 1.4655047e-38 300 260
-0.025851147 0.77600002 -0.027211733 1.4655047e-38 301 260
-0.024490559 0.77600002 -0.027211733 1.4562495e-38 302 260
-0.023189586 0.778 -0.027281865 1.4470298e-38 303 260
-0.021881599 0.77999997 -0.027351998 1.4194785e-38 304 260
-0.020540299 0.78100002 -0.027387068 1.4010394e-38 305 260
-0.019170946 0.78100002 -0.027387068 1.3734883e-38 306 260
-0.017892767 0.78500003 -0.027527334 1.355049e-38 307 260
-0.016516401 0.78500003 -0.027527334 1.3274629e-38 308 260
-0.015140033 0.78500003 -0.027527334 1.3182075e-38 309 260
-0.013833799 0.78899997 -0.027667599 1.3364318e-38 310 260
-0.012450419 0.78899997 -0.027667599 1.3272122e-38 311 260
-0.011081067 0.79000002 -0.027702667 1.2995897e-38 312 260
-0.0096959332 0.79000002 -0.027702667 1.1705158e-38 313 260
-0.0083108004 0.79000002 -0.027702667 1.2253304e-38 314 260
-0.0069431998 0.792 -0.027772799 1.2161108e-38 315 260
-0.0055685868 0.79400003 -0.027842935 1.1978518e-38 316 260
-0.0041764397 0.79400003 -0.027842935 1.2162911e-38 317 260
-0.0027842934 0.79400003 -0.027842935 1.1981384e-38 318 260
-0.0013956534 0.796 -0.027913066 1.1705155e-38 319 260
0 0.79799998 -0.027983198 1.124455e-38 320 260
0.0013991599 0.79799998 -0.027983198 1.0967604e-38 321 260
0.0027983198 0.79799998 -0.027983198 1.0781789e-38 322 260
0.0041974802 0.79799998 -0.027983198 1.013642e-38 323 260
0.0055966396 0.79799998 -0.027983198 9.5825273e-39 324 260
0.0069957995 0.79799998 -0.027983198 9.2137448e-39 325 260
0.055545598 0.792 -0.027772799 1.6034086e-38 360 260
0.056934237 0.792 -0.027772799 1.2991989e-38 361 260
0.058322877 0.792 -0.027772799 9.956014e-39 362 260
0.059711516 0.792 -0.027772799 1.1431144e-38 363 260
0.060945868 0.79000002 -0.027702667 1.1435485e-38 364 260
0.062330995 0.79000002 -0.027702667 1.1711712e-38 365 260
-0.066714332 0.76099998 -0.028020019 1.815377e-38 270 261
-0.065380037 0.76099998 -0.028020019 1.8983532e-38 271 261
-0.064045757 0.76099998 -0.028020019 1.9445209e-38 272 261
-0.06271147 0.76099998 -0.028020019 1.9537405e-38 273 261
-0.061377186 0.76099998 -0.028020019 1.9813992e-38 274 261
-0.060042895 0.76099998 -0.028020019 1.9906187e-38 275 261
-0.058708608 0.76099998 -0.028020019 2.0273541e-38 276 261
-0.057374325 0.76099998 -0.028020019 2.0365736e-38 277 261
-0.056040037 0.76099998 -0.028020019 2.0089875e-38 278 261
-0.05470575 0.76099998 -0.028020019 2.0089875e-38 279 261
-0.053371463 0.76099998 -0.028020019 1.9905484e-38 280 261
-0.052037176 0.76099998 -0.028020019 1.9813288e-38 281 261
-0.050702889 0.76099998 -0.028020019 1.9261194e-38 282 261
-0.049368605 0.76099998 -0.028020019 1.9168998e-38 283 261
-0.048034318 0.76099998 -0.028020019 1.8983179e-38 284 261
-0.046884131 0.764 -0.028130481 1.8890982e-38 285 261
-0.045544583 0.764 -0.028130481 1.8706593e-38 286 261
-0.04420504 0.764 -0.028130481 1.8614039e-38 287 261
-0.042865492 0.764 -0.028130481 1.8154863e-38 288 261
-0.041634649 0.76599997 -0.028204117 1.7970472e-38 289 261
-0.040291596 0.76599997 -0.028204117 1.7786076e-38 290 261
-0.038948543 0.76599997 -0.028204117 1.7509849e-38 291 261
-0.037605491 0.76599997 -0.028204117 1.6865199e-38 292 261
-0.036262438 0.76599997 -0.028204117 1.6680807e-38 293 261
-0.034964975 0.76700002 -0.02824094 1.5484079e-38 294 261
-0.033795502 0.77100003 -0.028388219 1.5207851e-38 295 261
-0.032527838 0.773 -0.028461859 1.5115665e-38 296 261
-0.03117251 0.773 -0.028461859 1.4839438e-38 297 261
-0.029817186 0.773 -0.028461859 1.4746887e-38 298 261
-0.028498679 0.77399999 -0.028498679 1.4654691e-38 299 261
-0.027141599 0.77399999 -0.028498679 1.4654691e-38 300 261
-0.025851147 0.77600002 -0.028572321 1.4562495e-38 301 261
-0.024490559 0.77600002 -0.028572321 1.4379183e-38 302 261
-0.023189586 0.778 -0.028645959 1.4286986e-38 303 261
-0.021881599 0.77999997 -0.028719598 1.4102589e-38 304 261
-0.020540299 0.78100002 -0.028756421 1.3918198e-38 305 261
-0.019220039 0.78299999 -0.028830061 1.3642331e-38 306 261
-0.017892767 0.78500003 -0.0289037 1.3550134e-38 307 261
-0.016516401 0.78500003 -0.0289037 1.3549421e-38 308 261
-0.015178605 0.787 -0.02897734 1.3364671e-38 309 261
-0.013798732 0.787 -0.02897734 1.3271403e-38 310 261
-0.012450419 0.78899997 -0.02905098 1.3087011e-38 311 261
-0.011081067 0.79000002 -0.029087799 1.2993024e-38 312 261
-0.0096836593 0.78899997 -0.02905098 1.2531686e-38 313 261
-0.0083002793 0.78899997 -0.02905098 1.2162913e-38 314 261
-0.0069256667 0.79000002 -0.029087799 1.1978162e-38 315 261
-0.0055685868 0.79400003 -0.029235078 1.1336746e-38 316 261
-0.0041869599 0.796 -0.029308718 1.124455e-38 317 261
-0.069018215 0.75700003 -0.029200014 1.705142e-38 268 262
-0.067690939 0.75700003 -0.029200014 1.7604594e-38 269 262
-0.06636367 0.75700003 -0.029200014 1.9075353e-38 270 262
-0.065208219 0.759 -0.029277159 1.9628527e-38 271 262
-0.063877434 0.759 -0.029277159 1.953848e-38 272 262
-0.062546656 0.759 -0.029277159 1.9630677e-38 273 262
-0.061215881 0.759 -0.029277159 1.990619e-38 274 262
-0.059885096 0.759 -0.029277159 1.9998386e-38 275 262
-0.058554318 0.759 -0.029277159 2.0273896e-38 276 262
-0.05722354 0.759 -0.029277159 2.0273896e-38 277 262
-0.055892758 0.759 -0.029277159 2.0181345e-38 278 262
-0.054561976 0.759 -0.029277159 1.9997314e-38 279 262
-0.053231198 0.759 -0.029277159 1.9812569e-38 280 262
-0.051900417 0.759 -0.029277159 1.9627818e-38 281 262
-0.050569639 0.759 -0.029277159 1.9076446e-38 282 262
-0.049238857 0.759 -0.029277159 1.8984251e-38 283 262
-0.047908079 0.759 -0.029277159 1.8798786e-38 284 262
-0.046700031 0.76099998 -0.029354304 1.8614395e-38 285 262
-0.045365743 0.76099998 -0.029354304 1.8338531e-38 286 262
-0.04420504 0.764 -0.029470026 1.8246335e-38 287 262
-0.042865492 0.764 -0.029470026 1.8154138e-38 288 262
-0.041525945 0.764 -0.029470026 1.8061943e-38 289 262
-0.040291596 0.76599997 -0.029547172 1.7417651e-38 290 262
-0.038948543 0.76599997 -0.029547172 1.7048508e-38 291 262
-0.037605491 0.76599997 -0.029547172 1.5943968e-38 292 262
-0.036262438 0.76599997 -0.029547172 1.5851773e-38 293 262
-0.034964975 0.76700002 -0.029585747 1.5114946e-38 294 262
-0.033707831 0.76899999 -0.02966289 1.5022751e-38 295 262
-0.032443684 0.77100003 -0.029740039 1.4839438e-38 296 262
-0.03117251 0.773 -0.029817186 1.4747243e-38 297 262
-0.029855758 0.77399999 -0.029855758 1.4747243e-38 298 262
-0.028498679 0.77399999 -0.029855758 1.4655047e-38 299 262
-0.027141599 0.77399999 -0.029855758 1.4563217e-38 300 262
-0.025851147 0.77600002 -0.029932907 1.4563217e-38 301 262
-0.024490559 0.77600002 -0.029932907 1.4378827e-38 302 262
-0.023189586 0.778 -0.03001005 1.428663e-38 303 262
-0.021881599 0.77999997 -0.030087199 1.391928e-38 304 262
-0.020540299 0.78100002 -0.030125774 1.373453e-38 305 262
-0.019220039 0.78299999 -0.03020292 1.3550137e-38 306 262
-0.017892767 0.78500003 -0.030280067 1.3366106e-38 307 262
-0.016516401 0.78500003 -0.030280067 1.3639463e-38 308 262
-0.015178605 0.787 -0.03035721 1.3455072e-38 309 262
-0.013798732 0.787 -0.03035721 1.326996e-38 310 262
-0.012450419 0.78899997 -0.030434359 1.3177406e-38 311 262
-0.011081067 0.79000002 -0.030472934 1.2809702e-38 312 262
-0.0096836593 0.78899997 -0.030434359 1.2256528e-38 313 262
-0.0083002793 0.78899997 -0.030434359 1.1795556e-38 314 262
-0.0069256667 0.79000002 -0.030472934 1.151861e-38 315 262
-0.069018215 0.75700003 -0.030527288 1.7695682e-38 268 263
-0.067690939 0.75700003 -0.030527288 1.834105e-38 269 263
-0.06636367 0.75700003 -0.030527288 1.9260818e-38 270 263
-0.065036394 0.75700003 -0.030527288 1.9445209e-38 271 263
-0.063709125 0.75700003 -0.030527288 1.9538124e-38 272 263
-0.062381849 0.75700003 -0.030527288 1.9722875e-38 273 263
-0.061054576 0.75700003 -0.030527288 1.999803e-38 274 263
-0.059727304 0.75700003 -0.030527288 2.0090226e-38 275 263
-0.058400027 0.75700003 -0.030527288 2.0181342e-38 276 263
-0.057072755 0.75700003 -0.030527288 2.0181342e-38 277 263
-0.055892758 0.759 -0.030607941 1.9905837e-38 278 263
-0.054418206 0.75700003 -0.030527288 1.9813641e-38 279 263
-0.053090934 0.75700003 -0.030527288 1.9537057e-38 280 263
-0.051763661 0.75700003 -0.030527288 1.9260112e-38 281 263
-0.050436385 0.75700003 -0.030527288 1.8983888e-38 282 263
-0.049109112 0.75700003 -0.030527288 1.8891332e-38 283 263
-0.04778184 0.75700003 -0.030527288 1.8431077e-38 284 263
-0.046577301 0.759 -0.030607941 1.8338881e-38 285 263
-0.045246519 0.759 -0.030607941 1.8154135e-38 286 263
-0.044031456 0.76099998 -0.030688593 1.806194e-38 287 263
-0.042753279 0.76200002 -0.030728921 1.7509846e-38 288 263
-0.041417241 0.76200002 -0.030728921 1.7325454e-38 289 263
-0.040186398 0.764 -0.030809574 1.6588605e-38 290 263
-0.038846854 0.764 -0.030809574 1.6220182e-38 291 263
-0.037605491 0.76599997 -0.030890226 1.5575909e-38 292 263
-0.036262438 0.76599997 -0.030890226 1.5391516e-38 293 263
-0.034919381 0.76599997 -0.030890226 1.5207142e-38 294 263
-0.033620168 0.76700002 -0.030930554 1.5022751e-38 295 263
-0.032443684 0.77100003 -0.031091858 1.4655763e-38 296 263
-0.03117251 0.773 -0.03117251 1.4563567e-38 297 263
-0.029817186 0.773 -0.03117251 1.4655047e-38 298 263
-0.028498679 0.77399999 -0.031212838 1.4655047e-38 299 263
-0.027141599 0.77399999 -0.031212838 1.4654694e-38 300 263
-0.025851147 0.77600002 -0.031293493 1.4654694e-38 301 263
-0.024490559 0.77600002 -0.031293493 1.4562495e-38 302 263
-0.023189586 0.778 -0.031374145 1.4470298e-38 303 263
-0.021881599 0.77999997 -0.031454798 1.4285902e-38 304 263
-0.020540299 0.78100002 -0.031495128 1.3917479e-38 305 263
-0.019220039 0.78299999 -0.031575777 1.3732731e-38 306 263
-0.017892767 0.78500003 -0.031656433 1.3364308e-38 307 263
-0.01655848 0.787 -0.031737085 1.3362156e-38 308 263
-0.015217179 0.78899997 -0.031817738 1.2901179e-38 309 263
-0.013833799 0.78899997 -0.031817738 1.2624235e-38 310 263
-0.0124662 0.79000002 -0.031858064 1.2071061e-38 311 263
-0.011109119 0.792 -0.031938717 1.1059786e-38 312 263
-0.0097204801 0.792 -0.031938717 1.0506614e-38 313 263
-0.071483396 0.755 -0.031770397 1.6961027e-38 266 264
-0.070159629 0.755 -0.031770397 1.6776634e-38 267 264
-0.068835862 0.755 -0.031770397 1.8433581e-38 268 264
-0.067512102 0.755 -0.031770397 1.8709809e-38 269 264
-0.066100664 0.75400001 -0.03172832 1.9261544e-38 270 264
-0.064778648 0.75400001 -0.03172832 1.9538131e-38 271 264
-0.06345664 0.75400001 -0.03172832 1.9722522e-38 272 264
-0.062134624 0.75400001 -0.03172832 1.9906913e-38 273 264
-0.060893264 0.755 -0.031770397 2.0090228e-38 274 264
-0.059569497 0.755 -0.031770397 2.0090228e-38 275 264
-0.058245733 0.755 -0.031770397 2.0090228e-38 276 264
-0.056921966 0.755 -0.031770397 1.9905837e-38 277 264
-0.055745479 0.75700003 -0.031854562 1.9813641e-38 278 264
-0.054274432 0.755 -0.031770397 1.9629252e-38 279 264
-0.052950665 0.755 -0.031770397 1.9261547e-38 280 264
-0.051626898 0.755 -0.031770397 1.8984601e-38 281 264
-0.050436385 0.75700003 -0.031854562 1.8800208e-38 282 264
-0.049109112 0.75700003 -0.031854562 1.8523982e-38 283 264
-0.04778184 0.75700003 -0.031854562 1.8339234e-38 284 264
-0.046577301 0.759 -0.031938717 1.8247039e-38 285 264
-0.045246519 0.759 -0.031938717 1.806194e-38 286 264
-0.044031456 0.76099998 -0.032022879 1.7785713e-38 287 264
-0.042753279 0.76200002 -0.032064959 1.7049946e-38 288 264
-0.041417241 0.76200002 -0.032064959 1.6404577e-38 289 264
-0.040081199 0.76200002 -0.032064959 1.5759925e-38 290 264
-0.038846854 0.764 -0.032149121 1.5759925e-38 291 264
-0.037507307 0.764 -0.032149121 1.5116015e-38 292 264
-0.036262438 0.76599997 -0.032233275 1.502382e-38 293 264
-0.034919381 0.76599997 -0.032233275 1.5022753e-38 294 264
-0.033620168 0.76700002 -0.03227536 1.4930558e-38 295 264
-0.032443684 0.77100003 -0.032443684 1.4655766e-38 296 264
-0.03117251 0.773 -0.032527838 1.4563211e-38 297 264
-0.029817186 0.773 -0.032527838 1.4655047e-38 298 264
-0.028498679 0.77399999 -0.032569919 1.4655047e-38 299 264
-0.027141599 0.77399999 -0.032569919 1.4563214e-38 300 264
-0.025784519 0.77399999 -0.032569919 1.4379183e-38 301 264
-0.024490559 0.77600002 -0.032654081 1.4378103e-38 302 264
-0.023189586 0.778 -0.032738242 1.4285907e-38 303 264
-0.021881599 0.77999997 -0.032822397 1.4100438e-38 304 264
-0.020540299 0.78100002 -0.032864477 1.3732014e-38 305 264
-0.019220039 0.78299999 -0.032948639 1.3546546e-38 306 264
-0.017938353 0.787 -0.033116959 1.2993731e-38 307 264
-0.016621601 0.79000002 -0.033243202 1.2441639e-38 308 264
-0.01527504 0.792 -0.03332736 1.1796269e-38 309 264
-0.0138864 0.792 -0.03332736 1.1242399e-38 310 264
-0.07271073 0.75400001 -0.033050332 1.6962163e-38 265 265
-0.071388714 0.75400001 -0.033050332 1.7419111e-38 266 265
-0.070066705 0.75400001 -0.033050332 1.7880089e-38 267 265
-0.068744689 0.75400001 -0.033050332 1.8617614e-38 268 265
-0.067422673 0.75400001 -0.033050332 1.8894559e-38 269 265
-0.066100664 0.75400001 -0.033050332 1.9445575e-38 270 265
-0.064606823 0.75199997 -0.032962665 1.9630326e-38 271 265
-0.063288316 0.75199997 -0.032962665 1.981472e-38 272 265
-0.061969809 0.75199997 -0.032962665 1.9906916e-38 273 265
-0.060812615 0.75400001 -0.033050332 1.990656e-38 274 265
-0.059490599 0.75400001 -0.033050332 1.990656e-38 275 265
-0.058168583 0.75400001 -0.033050332 2.0181348e-38 276 265
-0.056846574 0.75400001 -0.033050332 1.9904762e-38 277 265
-0.055524562 0.75400001 -0.033050332 1.9812923e-38 278 265
-0.054274432 0.755 -0.033094164 1.9628171e-38 279 265
-0.052880533 0.75400001 -0.033050332 1.9169351e-38 280 265
-0.051558517 0.75400001 -0.033050332 1.8892405e-38 281 265
-0.050303131 0.755 -0.033094164 1.861654e-38 282 265
-0.048979364 0.755 -0.033094164 1.8339953e-38 283 265
-0.047655597 0.755 -0.033094164 1.8063371e-38 284 265
-0.04633183 0.755 -0.033094164 1.7971174e-38 285 265
-0.045008067 0.755 -0.033094164 1.8154138e-38 286 265
-0.044031456 0.76099998 -0.033357166 1.7416573e-38 287 265
-0.042697169 0.76099998 -0.033357166 1.6312741e-38 288 265
-0.041417241 0.76200002 -0.033401001 1.5575176e-38 289 265
-0.040081199 0.76200002 -0.033401001 1.5574813e-38 290 265
-0.038745161 0.76200002 -0.033401001 1.5574813e-38 291 265
-0.037507307 0.764 -0.033488665 1.5023101e-38 292 265
-0.036262438 0.76599997 -0.033576332 1.5023101e-38 293 265
-0.034919381 0.76599997 -0.033576332 1.4746887e-38 294 265
-0.033620168 0.76700002 -0.033620168 1.4746887e-38 295 265
-0.032443684 0.77100003 -0.033795502 1.4655413e-38 296 265
-0.03117251 0.773 -0.033883166 1.4655413e-38 297 265
-0.029817186 0.773 -0.033883166 1.4563214e-38 298 265
-0.028498679 0.77399999 -0.033927001 1.4563214e-38 299 265
-0.027141599 0.77399999 -0.033927001 1.4562493e-38 300 265
-0.025784519 0.77399999 -0.033927001 1.4470296e-38 301 265
-0.024490559 0.77600002 -0.034014668 1.4377381e-38 302 265
-0.023189586 0.778 -0.034102332 1.4100794e-38 303 265
-0.021881599 0.77999997 -0.034189999 1.3546546e-38 304 265
-0.020540299 0.78100002 -0.034233831 1.2901176e-38 305 265
-0.074032739 0.75400001 -0.034372345 1.7239784e-38 264 266
-0.07271073 0.75400001 -0.034372345 1.585685e-38 265 266
-0.071388714 0.75400001 -0.034372345 1.8432149e-38 266 266
-0.070066705 0.75400001 -0.034372345 1.8524345e-38 267 266
-0.068744689 0.75400001 -0.034372345 1.9260468e-38 268 266
-0.067243837 0.75199997 -0.034281172 1.9444859e-38 269 266
-0.06592533 0.75199997 -0.034281172 1.9629254e-38 270 266
-0.064434998 0.75 -0.034189999 1.9813285e-38 271 266
-0.06312 0.75 -0.034189999 1.9906916e-38 272 266
-0.061804999 0.75 -0.034189999 1.9906916e-38 273 266
-0.060489997 0.75 -0.034189999 2.0090228e-38 274 266
-0.059175 0.75 -0.034189999 1.9998033e-38 275 266
-0.057859998 0.75 -0.034189999 1.9997314e-38 276 266
-0.056544997 0.75 -0.034189999 1.9812923e-38 277 266
-0.055377278 0.75199997 -0.034281172 1.9537055e-38 278 266
-0.054202545 0.75400001 -0.034372345 1.9352663e-38 279 266
-0.052880533 0.75400001 -0.034372345 1.8801292e-38 280 266
-0.051558517 0.75400001 -0.034372345 1.861654e-38 281 266
-0.050236505 0.75400001 -0.034372345 1.8432149e-38 282 266
-0.048914492 0.75400001 -0.034372345 1.8155922e-38 283 266
-0.04759248 0.75400001 -0.034372345 1.8063727e-38 284 266
-0.046270464 0.75400001 -0.034372345 1.7878975e-38 285 266
-0.044948451 0.75400001 -0.034372345 1.7969023e-38 286 266
-0.043915741 0.759 -0.034600276 1.6955229e-38 287 266
-0.042697169 0.76099998 -0.034691449 1.5943966e-38 288 266
-0.041362885 0.76099998 -0.034691449 1.5575182e-38 289 266
-0.040081199 0.76200002 -0.034737039 1.5298246e-38 290 266
-0.038745161 0.76200002 -0.034737039 1.5298246e-38 291 266
-0.037507307 0.764 -0.034828212 1.4656116e-38 292 266
-0.036262438 0.76599997 -0.034919381 1.4656116e-38 293 266
-0.034919381 0.76599997 -0.034919381 1.4563211e-38 294 266
-0.033620168 0.76700002 -0.034964975 1.4655766e-38 295 266
-0.032359518 0.76899999 -0.035056144 1.4563217e-38 296 266
-0.031091858 0.77100003 -0.03514732 1.4563217e-38 297 266
-0.029817186 0.773 -0.035238493 1.4563214e-38 298 266
-0.028498679 0.77399999 -0.03528408 1.4286986e-38 299 266
-0.027141599 0.77399999 -0.03528408 1.4470646e-38 300 266
-0.025851147 0.77600002 -0.035375252 1.4286255e-38 301 266
-0.024490559 0.77600002 -0.035375252 1.4009672e-38 302 266
-0.023249198 0.77999997 -0.035557598 1.3364303e-38 303 266
-0.021909652 0.78100002 -0.035603184 1.1707674e-38 304 266
-0.073836371 0.75199997 -0.035599679 1.6958155e-38 264 267
-0.072517857 0.75199997 -0.035599679 1.7326938e-38 265 267
-0.071199358 0.75199997 -0.035599679 1.8707297e-38 266 267
-0.069880851 0.75199997 -0.035599679 1.8983885e-38 267 267
-0.068562344 0.75199997 -0.035599679 1.9351942e-38 268 267
-0.067243837 0.75199997 -0.035599679 1.9720723e-38 269 267
-0.065749995 0.75 -0.035505001 1.9813641e-38 270 267
-0.064349085 0.74900001 -0.03545766 1.9905837e-38 271 267
-0.063035838 0.74900001 -0.03545766 2.0090228e-38 272 267
-0.061722592 0.74900001 -0.03545766 2.0090228e-38 273 267
-0.060409348 0.74900001 -0.03545766 1.999803e-38 274 267
-0.059096102 0.74900001 -0.03545766 1.9905834e-38 275 267
-0.057782855 0.74900001 -0.03545766 1.9905115e-38 276 267
-0.056469604 0.74900001 -0.03545766 1.9720723e-38 277 267
-0.055156358 0.74900001 -0.03545766 1.9535978e-38 278 267
-0.053914998 0.75 -0.035505001 1.9259393e-38 279 267
-0.052740261 0.75199997 -0.035599679 1.8892055e-38 280 267
-0.051421758 0.75199997 -0.035599679 1.8707662e-38 281 267
-0.050103247 0.75199997 -0.035599679 1.8431796e-38 282 267
-0.048784744 0.75199997 -0.035599679 1.8155569e-38 283 267
-0.04759248 0.75400001 -0.035694357 1.7787508e-38 284 267
-0.046270464 0.75400001 -0.035694357 1.7603117e-38 285 267
-0.044948451 0.75400001 -0.035694357 1.704959e-38 286 267
-0.043800019 0.75700003 -0.03583638 1.6219829e-38 287 267
-0.042584959 0.759 -0.035931058 1.5851417e-38 288 267
-0.041362885 0.76099998 -0.036025736 1.5574828e-38 289 267
-0.040028598 0.76099998 -0.036025736 1.5206769e-38 290 267
-0.038745161 0.76200002 -0.036073081 1.5114573e-38 291 267
-0.037409119 0.76200002 -0.036073081 1.4655395e-38 292 267
-0.036167759 0.764 -0.036167759 1.4655395e-38 293 267
-0.034919381 0.76599997 -0.036262438 1.4563565e-38 294 267
-0.033620168 0.76700002 -0.036309779 1.4563565e-38 295 267
-0.03227536 0.76700002 -0.036309779 1.4563214e-38 296 267
-0.031091858 0.77100003 -0.036499143 1.4379183e-38 297 267
-0.029817186 0.773 -0.036593821 1.4469945e-38 298 267
-0.028498679 0.77399999 -0.036641158 1.437775e-38 299 267
-0.027141599 0.77399999 -0.036641158 1.4192634e-38 300 267
-0.025851147 0.77600002 -0.036735836 1.3271036e-38 301 267
-0.024490559 0.77600002 -0.036735836 1.2625314e-38 302 267
-0.023279008 0.78100002 -0.036972538 1.1887749e-38 303 267
-0.074954994 0.75 -0.036819998 1.6225317e-38 263 268
-0.073639996 0.75 -0.036819998 1.7325473e-38 264 268
-0.072228566 0.74900001 -0.036770906 1.7970843e-38 265 268
-0.070915319 0.74900001 -0.036770906 1.916755e-38 266 268
-0.069602072 0.74900001 -0.036770906 1.9351942e-38 267 268
-0.068379998 0.75 -0.036819998 1.9444856e-38 268 268
-0.067065001 0.75 -0.036819998 1.9629607e-38 269 268
-0.065662332 0.74900001 -0.036770906 1.9905837e-38 270 268
-0.064349085 0.74900001 -0.036770906 1.9998033e-38 271 268
-0.062867515 0.74699998 -0.036672719 2.0090226e-38 272 268
-0.061557774 0.74699998 -0.036672719 1.999803e-38 273 268
-0.060248036 0.74699998 -0.036672719 2.0181698e-38 274 268
-0.058938295 0.74699998 -0.036672719 1.9905471e-38 275 268
-0.057628557 0.74699998 -0.036672719 1.981292e-38 276 268
-0.056318816 0.74699998 -0.036672719 1.9628527e-38 277 268
-0.055156358 0.74900001 -0.036770906 1.9167563e-38 278 268
-0.053843111 0.74900001 -0.036770906 1.8983532e-38 279 268
-0.052529868 0.74900001 -0.036770906 1.8616193e-38 280 268
-0.051284999 0.75 -0.036819998 1.8339247e-38 281 268
-0.049969997 0.75 -0.036819998 1.8338881e-38 282 268
-0.048784744 0.75199997 -0.036918186 1.8154489e-38 283 268
-0.047466237 0.75199997 -0.036918186 1.7878262e-38 284 268
-0.046270464 0.75400001 -0.037016369 1.7232892e-38 285 268
-0.044948451 0.75400001 -0.037016369 1.6497136e-38 286 268
-0.043684296 0.755 -0.037065465 1.5851767e-38 287 268
-0.042472746 0.75700003 -0.037163652 1.5483709e-38 288 268
-0.041254178 0.759 -0.03726184 1.5299318e-38 289 268
-0.040028598 0.76099998 -0.037360024 1.5023457e-38 290 268
-0.038745161 0.76200002 -0.037409119 1.4930902e-38 291 268
-0.037409119 0.76200002 -0.037409119 1.4563565e-38 292 268
-0.036167759 0.764 -0.037507307 1.4563565e-38 293 268
-0.034919381 0.76599997 -0.037605491 1.4563567e-38 294 268
-0.033576332 0.76599997 -0.037605491 1.4563567e-38 295 268
-0.03227536 0.76700002 -0.037654586 1.4470298e-38 296 268
-0.031011207 0.76899999 -0.03775277 1.4470298e-38 297 268
-0.029817186 0.773 -0.037949149 1.4102236e-38 298 268
-0.028498679 0.77399999 -0.037998237 1.3549421e-38 299 268
-0.027141599 0.77399999 -0.037998237 1.3455072e-38 300 268
-0.025784519 0.77399999 -0.037998237 1.2256528e-38 301 268
-0.07586322 0.74599999 -0.03793161 1.7515663e-38 262 269
-0.074855059 0.74900001 -0.038084153 1.5763948e-38 263 269
-0.073541813 0.74900001 -0.038084153 1.7878612e-38 264 269
-0.072035693 0.74699998 -0.03798246 1.8339232e-38 265 269
-0.070725955 0.74699998 -0.03798246 1.9260096e-38 266 269
-0.069416218 0.74699998 -0.03798246 1.9536682e-38 267 269
-0.068106472 0.74699998 -0.03798246 1.9629252e-38 268 269
-0.066975579 0.74900001 -0.038084153 1.9813641e-38 269 269
-0.065662332 0.74900001 -0.038084153 1.9998033e-38 270 269
-0.06417726 0.74699998 -0.03798246 1.9998033e-38 271 269
-0.062867515 0.74699998 -0.03798246 2.0181342e-38 272 269
-0.061557774 0.74699998 -0.03798246 2.0181342e-38 273 269
-0.060248036 0.74699998 -0.03798246 1.9997667e-38 274 269
-0.058938295 0.74699998 -0.03798246 1.9812917e-38 275 269
-0.057628557 0.74699998 -0.03798246 1.9720357e-38 276 269
-0.056318816 0.74699998 -0.03798246 1.9627803e-38 277 269
-0.055009075 0.74699998 -0.03798246 1.8983885e-38 278 269
-0.053699337 0.74699998 -0.03798246 1.8799492e-38 279 269
-0.052389596 0.74699998 -0.03798246 1.8523628e-38 280 269
-0.051216617 0.74900001 -0.038084153 1.8339237e-38 281 269
-0.04990337 0.74900001 -0.038084153 1.8154842e-38 282 269
-0.048655 0.75 -0.038135 1.7878256e-38 283 269
-0.047466237 0.75199997 -0.038236689 1.7325451e-38 284 269
-0.04614773 0.75199997 -0.038236689 1.6680082e-38 285 269
-0.044948451 0.75400001 -0.038338386 1.5944331e-38 286 269
-0.043684296 0.755 -0.038389232 1.5483712e-38 287 269
-0.042472746 0.75700003 -0.038490929 1.5574473e-38 288 269
-0.041254178 0.759 -0.038592618 1.5298246e-38 289 269
-0.040028598 0.76099998 -0.038694311 1.4930908e-38 290 269
-0.038694311 0.76099998 -0.038694311 1.4930908e-38 291 269
-0.037409119 0.76200002 -0.038745161 1.4655044e-38 292 269
-0.036167759 0.764 -0.038846854 1.4655044e-38 293 269
-0.034919381 0.76599997 -0.038948543 1.4562844e-38 294 269
-0.033576332 0.76599997 -0.038948543 1.4470649e-38 295 269
-0.03227536 0.76700002 -0.038999394 1.4377378e-38 296 269
-0.031011207 0.76899999 -0.039101087 1.4377378e-38 297 269
-0.029817186 0.773 -0.039304473 1.3733458e-38 298 269
-0.028498679 0.77399999 -0.039355319 1.2350522e-38 299 269
-0.027141599 0.77399999 -0.039355319 1.1518986e-38 300 269
-0.025784519 0.77399999 -0.039355319 1.0504833e-38 301 269
-0.077171214 0.74599999 -0.039239597 1.7516801e-38 261 270
-0.07586322 0.74599999 -0.039239597 1.7053222e-38 262 270
-0.074555233 0.74599999 -0.039239597 1.6407853e-38 263 270
-0.073345438 0.74699998 -0.039292198 1.8339222e-38 264 270
-0.072035693 0.74699998 -0.039292198 1.879984e-38 265 270
-0.070725955 0.74699998 -0.039292198 1.9351944e-38 266 270
-0.069416218 0.74699998 -0.039292198 1.9628171e-38 267 270
-0.068106472 0.74699998 -0.039292198 1.9536701e-38 268 270
-0.066796735 0.74699998 -0.039292198 1.9905484e-38 269 270
-0.065486997 0.74699998 -0.039292198 1.9998033e-38 270 270
-0.06417726 0.74699998 -0.039292198 2.0090228e-38 271 270
-0.062867515 0.74699998 -0.039292198 2.0181345e-38 272 270
-0.061557774 0.74699998 -0.039292198 2.0181345e-38 273 270
-0.06016738 0.74599999 -0.039239597 2.0088428e-38 274 270
-0.058859397 0.74599999 -0.039239597 1.9812199e-38 275 270
-0.057551414 0.74599999 -0.039239597 1.9536329e-38 276 270
-0.056243423 0.74599999 -0.039239597 1.9352298e-38 277 270
-0.054935437 0.74599999 -0.039239597 1.9075353e-38 278 270
-0.053627454 0.74599999 -0.039239597 1.8890962e-38 279 270
-0.052319467 0.74599999 -0.039239597 1.8431786e-38 280 270
-0.051011477 0.74599999 -0.039239597 1.8154839e-38 281 270
-0.049770117 0.74699998 -0.039292198 1.8062646e-38 282 270
-0.048590127 0.74900001 -0.0393974 1.7601669e-38 283 270
-0.047276881 0.74900001 -0.0393974 1.7047789e-38 284 270
-0.04614773 0.75199997 -0.039555199 1.6402779e-38 285 270
-0.044948451 0.75400001 -0.039660402 1.585142e-38 286 270
-0.043684296 0.755 -0.039712999 1.5667027e-38 287 270
-0.042472746 0.75700003 -0.039818201 1.5390444e-38 288 270
-0.041254178 0.759 -0.0399234 1.5298249e-38 289 270
-0.040028598 0.76099998 -0.040028598 1.5114217e-38 290 270
-0.038694311 0.76099998 -0.040028598 1.5114217e-38 291 270
-0.037409119 0.76200002 -0.040081199 1.4747596e-38 292 270
-0.036073081 0.76200002 -0.040081199 1.4562844e-38 293 270
-0.034919381 0.76599997 -0.040291596 1.4469933e-38 294 270
-0.033576332 0.76599997 -0.040291596 1.4192987e-38 295 270
-0.032233275 0.76599997 -0.040291596 1.4189753e-38 296 270
-0.031011207 0.76899999 -0.0404494 1.382061e-38 297 270
-0.029817186 0.773 -0.0406598 1.216578e-38 298 270
-0.028498679 0.77399999 -0.040712398 1.0967237e-38 299 270
-0.027281865 0.778 -0.040922798 9.9549196e-39 300 270
-0.078479193 0.74599999 -0.040547583 1.881076e-38 260 271
-0.077171214 0.74599999 -0.040547583 1.5676109e-38 261 271
-0.07586322 0.74599999 -0.040547583 1.6958493e-38 262 271
-0.074555233 0.74599999 -0.040547583 1.7326915e-38 263 271
-0.073345438 0.74699998 -0.040601939 1.8431783e-38 264 271
-0.07193926 0.74599999 -0.040547583 1.8800206e-38 265 271
-0.070631281 0.74599999 -0.040547583 1.9259396e-38 266 271
-0.069323286 0.74599999 -0.040547583 1.9535622e-38 267 271
-0.068015307 0.74599999 -0.040547583 1.9629257e-38 268 271
-0.066707321 0.74599999 -0.040547583 1.9905484e-38 269 271
-0.065399326 0.74599999 -0.040547583 1.981472e-38 270 271
-0.064091347 0.74599999 -0.040547583 1.981472e-38 271 271
-0.062783353 0.74599999 -0.040547583 2.0181348e-38 272 271
-0.06147537 0.74599999 -0.040547583 1.9997317e-38 273 271
-0.06016738 0.74599999 -0.040547583 1.9996235e-38 274 271
-0.058859397 0.74599999 -0.040547583 1.9719648e-38 275 271
-0.05739712 0.74400002 -0.040438879 1.9351942e-38 276 271
-0.056092639 0.74400002 -0.040438879 1.916755e-38 277 271
-0.054935437 0.74599999 -0.040547583 1.8983155e-38 278 271
-0.053627454 0.74599999 -0.040547583 1.8706928e-38 279 271
-0.052319467 0.74599999 -0.040547583 1.8338866e-38 280 271
-0.051011477 0.74599999 -0.040547583 1.8154473e-38 281 271
-0.04970349 0.74599999 -0.040547583 1.7694584e-38 282 271
-0.048460379 0.74699998 -0.040601939 1.7049214e-38 283 271
-0.047276881 0.74900001 -0.040710647 1.6219829e-38 284 271
-0.04614773 0.75199997 -0.040873703 1.5942884e-38 285 271
-0.044829223 0.75199997 -0.040873703 1.5667027e-38 286 271
-0.043800019 0.75700003 -0.041145474 1.5574473e-38 287 271
-0.042472746 0.75700003 -0.041145474 1.5298965e-38 288 271
-0.041254178 0.759 -0.041254178 1.5206769e-38 289 271
-0.040028598 0.76099998 -0.041362885 1.4930186e-38 290 271
-0.038694311 0.76099998 -0.041362885 1.4930186e-38 291 271
-0.037409119 0.76200002 -0.041417241 1.4745808e-38 292 271
-0.036073081 0.76200002 -0.041417241 1.446958e-38 293 271
-0.034919381 0.76599997 -0.041634649 1.428376e-38 294 271
-0.033576332 0.76599997 -0.041634649 1.3822781e-38 295 271
-0.032233275 0.76599997 -0.041634649 1.3452203e-38 296 271
-0.078479193 0.74599999 -0.04185557 1.7613271e-38 260 272
-0.077171214 0.74599999 -0.04185557 1.4663011e-38 261 272
-0.07586322 0.74599999 -0.04185557 1.7600963e-38 262 272
-0.074555233 0.74599999 -0.04185557 1.8338528e-38 263 272
-0.073247254 0.74599999 -0.04185557 1.8522897e-38 264 272
-0.07193926 0.74599999 -0.04185557 1.8984235e-38 265 272
-0.070631281 0.74599999 -0.04185557 1.9168272e-38 266 272
-0.069137439 0.74400002 -0.04174336 1.9537055e-38 267 272
-0.067832954 0.74400002 -0.04174336 1.9629252e-38 268 272
-0.066528477 0.74400002 -0.04174336 1.9905837e-38 269 272
-0.065223999 0.74400002 -0.04174336 1.9905834e-38 270 272
-0.063919522 0.74400002 -0.04174336 1.999803e-38 271 272
-0.062615044 0.74400002 -0.04174336 1.9997317e-38 272 272
-0.061310563 0.74400002 -0.04174336 1.9904762e-38 273 272
-0.060006075 0.74400002 -0.04174336 1.972037e-38 274 272
-0.058701597 0.74400002 -0.04174336 1.9628174e-38 275 272
-0.05739712 0.74400002 -0.04174336 1.9260112e-38 276 272
-0.056092639 0.74400002 -0.04174336 1.8983885e-38 277 272
-0.054788161 0.74400002 -0.04174336 1.8707291e-38 278 272
-0.05348368 0.74400002 -0.04174336 1.85229e-38 279 272
-0.052179199 0.74400002 -0.04174336 1.8338513e-38 280 272
-0.051011477 0.74599999 -0.04185557 1.815412e-38 281 272
-0.04970349 0.74599999 -0.04185557 1.7050659e-38 282 272
-0.048460379 0.74699998 -0.041911677 1.6313094e-38 283 272
-0.047150634 0.74699998 -0.041911677 1.5942163e-38 284 272
-0.04614773 0.75199997 -0.04219221 1.6034719e-38 285 272
-0.044829223 0.75199997 -0.04219221 1.5574473e-38 286 272
-0.043800019 0.75700003 -0.042472746 1.5390441e-38 287 272
-0.042472746 0.75700003 -0.042472746 1.5206413e-38 288 272
-0.041254178 0.759 -0.042584959 1.5114217e-38 289 272
-0.040028598 0.76099998 -0.042697169 1.4930186e-38 290 272
-0.038694311 0.76099998 -0.042697169 1.4745794e-38 291 272
-0.037409119 0.76200002 -0.042753279 1.4560693e-38 292 272
-0.036167759 0.764 -0.042865492 1.3915324e-38 293 272
-0.034919381 0.76599997 -0.042977702 1.3175974e-38 294 272
-0.033576332 0.76599997 -0.042977702 1.2530604e-38 295 272
-0.078479193 0.74599999 -0.04316356 1.7883719e-38 260 273
-0.077171214 0.74599999 -0.04316356 1.5486991e-38 261 273
-0.07586322 0.74599999 -0.04316356 1.8244871e-38 262 273
-0.074555233 0.74599999 -0.04316356 1.8798045e-38 263 273
-0.073247254 0.74599999 -0.04316356 1.8799487e-38 264 273
-0.071746401 0.74400002 -0.043047838 1.9168269e-38 265 273
-0.07025256 0.74199998 -0.042932119 1.9353016e-38 266 273
-0.068951584 0.74199998 -0.042932119 1.9537408e-38 267 273
-0.067650609 0.74199998 -0.042932119 1.9813639e-38 268 273
-0.066260219 0.741 -0.042874258 1.9905834e-38 269 273
-0.064960994 0.741 -0.042874258 2.0181345e-38 270 273
-0.063661776 0.741 -0.042874258 1.9997314e-38 271 273
-0.062446713 0.74199998 -0.042932119 1.9905118e-38 272 273
-0.061145745 0.74199998 -0.042932119 1.9720367e-38 273 273
-0.05984477 0.74199998 -0.042932119 1.9720723e-38 274 273
-0.058543798 0.74199998 -0.042932119 1.9535973e-38 275 273
-0.057242822 0.74199998 -0.042932119 1.9168269e-38 276 273
-0.05594185 0.74199998 -0.042932119 1.8799487e-38 277 273
-0.054788161 0.74400002 -0.043047838 1.8890959e-38 278 273
-0.05348368 0.74400002 -0.043047838 1.8614732e-38 279 273
-0.052179199 0.74400002 -0.043047838 1.8062996e-38 280 273
-0.050874721 0.74400002 -0.043047838 1.7694215e-38 281 273
-0.04970349 0.74599999 -0.04316356 1.6681881e-38 282 273
-0.048395503 0.74599999 -0.04316356 1.6313097e-38 283 273
-0.047150634 0.74699998 -0.043221418 1.6035085e-38 284 273
-0.045963634 0.74900001 -0.04333714 1.5758498e-38 285 273
-0.044829223 0.75199997 -0.04351072 1.5574473e-38 286 273
-0.043684296 0.755 -0.043684296 1.5390441e-38 287 273
-0.042472746 0.75700003 -0.043800019 1.5206766e-38 288 273
-0.041254178 0.759 -0.043915741 1.5114571e-38 289 273
-0.040028598 0.76099998 -0.044031456 1.4838342e-38 290 273
-0.038694311 0.76099998 -0.044031456 1.4653592e-38 291 273
-0.037409119 0.76200002 -0.044089317 1.4006806e-38 292 273
-0.036073081 0.76200002 -0.044089317 1.3453633e-38 293 273
-0.034919381 0.76599997 -0.044320758 1.2162204e-38 294 273
-0.078268796 0.74400002 -0.044352323 1.696031e-38 260 274
-0.076964319 0.74400002 -0.044352323 1.6314941e-38 261 274
-0.075659841 0.74400002 -0.044352323 1.8337785e-38 262 274
-0.074355356 0.74400002 -0.044352323 1.8614732e-38 263 274
-0.072854504 0.74199998 -0.044233091 1.8982802e-38 264 274
-0.071457103 0.741 -0.044173479 1.9351944e-38 265 274
-0.070157878 0.741 -0.044173479 1.9444856e-38 266 274
-0.068672806 0.73900002 -0.044054255 1.9813639e-38 267 274
-0.06737709 0.73900002 -0.044054255 1.9905115e-38 268 274
-0.066081382 0.73900002 -0.044054255 1.9997311e-38 269 274
-0.064785667 0.73900002 -0.044054255 1.9997317e-38 270 274
-0.063489959 0.73900002 -0.044054255 1.9997317e-38 271 274
-0.062194239 0.73900002 -0.044054255 1.9629257e-38 272 274
-0.060898528 0.73900002 -0.044054255 1.9629257e-38 273 274
-0.059764117 0.741 -0.044173479 1.9628174e-38 274 274
-0.0584649 0.741 -0.044173479 1.9535978e-38 275 274
-0.057165679 0.741 -0.044173479 1.9167916e-38 276 274
-0.055866458 0.741 -0.044173479 1.8799492e-38 277 274
-0.054640878 0.74199998 -0.044233091 1.8614742e-38 278 274
-0.053339902 0.74199998 -0.044233091 1.8338516e-38 279 274
-0.05203893 0.74199998 -0.044233091 1.7878975e-38 280 274
-0.050874721 0.74400002 -0.044352323 1.7233606e-38 281 274
-0.04957024 0.74400002 -0.044352323 1.6404577e-38 282 274
-0.048395503 0.74599999 -0.044471547 1.6312022e-38 283 274
-0.047087517 0.74599999 -0.044471547 1.5759221e-38 284 274
-0.045840897 0.74699998 -0.044531155 1.5574828e-38 285 274
-0.044709999 0.75 -0.044709999 1.5390807e-38 286 274
-0.043626439 0.75400001 -0.044948451 1.5390807e-38 287 274
-0.042360533 0.755 -0.045008067 1.5023101e-38 288 274
-0.041145474 0.75700003 -0.045127295 1.4930905e-38 289 274
-0.0399234 0.759 -0.045246519 1.4470652e-38 290 274
-0.038694311 0.76099998 -0.045365743 1.3917479e-38 291 274
-0.037409119 0.76200002 -0.045425359 1.2531333e-38 292 274
-0.036073081 0.76200002 -0.045425359 1.1517541e-38 293 274
-0.0777428 0.73900002 -0.045349967 1.7048533e-38 260 275
-0.076447085 0.73900002 -0.045349967 1.7417316e-38 261 275
-0.075151369 0.73900002 -0.045349967 1.8246669e-38 262 275
-0.074055538 0.741 -0.045472696 1.8615451e-38 263 275
-0.072756313 0.741 -0.045472696 1.9168272e-38 264 275
-0.07126423 0.73900002 -0.045349967 1.9444859e-38 265 275
-0.069873832 0.73799998 -0.0452886 1.9629252e-38 266 275
-0.068579875 0.73799998 -0.0452886 1.9813641e-38 267 275
-0.067285918 0.73799998 -0.0452886 2.0180982e-38 268 275
-0.06599196 0.73799998 -0.0452886 2.0180982e-38 269 275
-0.064697996 0.73799998 -0.0452886 1.9997314e-38 270 275
-0.063404039 0.73799998 -0.0452886 1.9905118e-38 271 275
-0.062110078 0.73799998 -0.0452886 1.9812569e-38 272 275
-0.060898528 0.73900002 -0.045349967 1.9720372e-38 273 275
-0.059602812 0.73900002 -0.045349967 1.9627818e-38 274 275
-0.0583071 0.73900002 -0.045349967 1.9259396e-38 275 275
-0.057165679 0.741 -0.045472696 1.9167197e-38 276 275
-0.055866458 0.741 -0.045472696 1.8982805e-38 277 275
-0.054567236 0.741 -0.045472696 1.8614742e-38 278 275
-0.053268019 0.741 -0.045472696 1.8338516e-38 279 275
-0.051968798 0.741 -0.045472696 1.741837e-38 280 275
-0.050737958 0.74199998 -0.045534063 1.7049946e-38 281 275
-0.04957024 0.74400002 -0.0456568 1.6036167e-38 282 275
-0.048395503 0.74599999 -0.045779534 1.5943612e-38 283 275
-0.047087517 0.74599999 -0.045779534 1.5758868e-38 284 275
-0.045840897 0.74699998 -0.045840897 1.5666671e-38 285 275
-0.044650383 0.74900001 -0.045963634 1.5207495e-38 286 275
-0.04333714 0.74900001 -0.045963634 1.5115299e-38 287 275
-0.042304426 0.75400001 -0.046270464 1.4930905e-38 288 275
-0.040982414 0.75400001 -0.046270464 1.4930905e-38 289 275
-0.039818201 0.75700003 -0.046454567 1.410152e-38 290 275
-0.038694311 0.76099998 -0.046700031 1.3179204e-38 291 275
-0.0777428 0.73900002 -0.046645679 1.7599167e-38 260 276
-0.076447085 0.73900002 -0.046645679 1.8244536e-38 261 276
-0.075151369 0.73900002 -0.046645679 1.8339222e-38 262 276
-0.073855661 0.73900002 -0.046645679 1.8707644e-38 263 276
-0.072559945 0.73900002 -0.046645679 1.9169351e-38 264 276
-0.071167797 0.73799998 -0.046582557 1.9261547e-38 265 276
-0.069684476 0.736 -0.046456318 1.9536701e-38 266 276
-0.06839402 0.736 -0.046456318 1.9905484e-38 267 276
-0.067103572 0.736 -0.046456318 2.0180626e-38 268 276
-0.065813117 0.736 -0.046456318 2.0180626e-38 269 276
-0.064522661 0.736 -0.046456318 1.9997314e-38 270 276
-0.063232213 0.736 -0.046456318 1.9905118e-38 271 276
-0.061941758 0.736 -0.046456318 1.9628901e-38 272 276
-0.060816113 0.73799998 -0.046582557 1.9444509e-38 273 276
-0.059602812 0.73900002 -0.046645679 1.9535628e-38 274 276
-0.0583071 0.73900002 -0.046645679 1.9259043e-38 275 276
-0.057011388 0.73900002 -0.046645679 1.8799139e-38 276 276
-0.055715673 0.73900002 -0.046645679 1.8706944e-38 277 276
-0.054567236 0.741 -0.046771921 1.8614745e-38 278 276
-0.053268019 0.741 -0.046771921 1.8245963e-38 279 276
-0.051968798 0.741 -0.046771921 1.6958113e-38 280 276
-0.050669577 0.741 -0.046771921 1.6589691e-38 281 276
-0.049436983 0.74199998 -0.046835039 1.585142e-38 282 276
-0.048265759 0.74400002 -0.046961278 1.585142e-38 283 276
-0.047087517 0.74599999 -0.047087517 1.5483362e-38 284 276
-0.045840897 0.74699998 -0.047150634 1.5483362e-38 285 276
-0.044531155 0.74699998 -0.047150634 1.5207142e-38 286 276
-0.04333714 0.74900001 -0.047276881 1.5207142e-38 287 276
