# .PCD v.7 - Point Cloud Data file format
FIELDS x y z rgb imX imY
SIZE 4 4 4 4 4 4
TYPE F F F F F F
COUNT 1 1 1 1 1 1
WIDTH 819
HEIGHT 1
VIEWPOINT 0 0 0 1 0 0 0
POINTS 819
DATA ascii
0.01605352 0.65399998 -0.064214081 1.1798778e-38 334 296
0.017226499 0.65499997 -0.064312264 1.1890973e-38 335 296
0.018374931 0.65499997 -0.064312264 1.2074283e-38 336 296
0.019582979 0.65700001 -0.064508639 1.2074283e-38 337 296
0.020734919 0.65700001 -0.064508639 1.1799494e-38 338 296
0.021920172 0.65799999 -0.064606823 1.1799494e-38 339 296
0.023073865 0.65799999 -0.064606823 1.1614759e-38 340 296
0.02422756 0.65799999 -0.064606823 1.1337812e-38 341 296
-0.08167728 0.64700001 -0.064661182 1.7424618e-38 248 297
-0.080418386 0.64600003 -0.06456124 1.4474717e-38 249 297
-0.079285733 0.64600003 -0.06456124 1.1341797e-38 250 297
-0.078153081 0.64600003 -0.06456124 1.0051058e-38 251 297
-0.076781973 0.64399999 -0.064361356 1.1894911e-38 252 297
-0.075652823 0.64399999 -0.064361356 1.2632476e-38 253 297
-0.074407957 0.64300001 -0.064261422 1.3092718e-38 254 297
-0.073280565 0.64300001 -0.064261422 1.3645892e-38 255 297
-0.07204096 0.64200002 -0.064161479 1.4382005e-38 256 297
-0.070915326 0.64200002 -0.064161479 1.4474561e-38 257 297
-0.069789678 0.64200002 -0.064161479 1.4749703e-38 258 297
-0.068664044 0.64200002 -0.064161479 1.502593e-38 259 297
-0.067538396 0.64200002 -0.064161479 1.5669488e-38 260 297
-0.066412762 0.64200002 -0.064161479 1.5392902e-38 261 297
-0.06518542 0.64099997 -0.064061537 1.5484002e-38 262 297
-0.064061537 0.64099997 -0.064061537 1.5391806e-38 263 297
-0.062937655 0.64099997 -0.064061537 1.5114147e-38 264 297
-0.061910201 0.64200002 -0.064161479 1.4653169e-38 265 297
-0.060689874 0.64099997 -0.064061537 1.4283311e-38 266 297
-0.059565991 0.64099997 -0.064061537 1.4191115e-38 267 297
-0.058442101 0.64099997 -0.064061537 1.3823772e-38 268 297
-0.057318214 0.64099997 -0.064061537 1.3731576e-38 269 297
-0.056106664 0.63999999 -0.063961595 1.3362802e-38 270 297
-0.054812707 0.63800001 -0.063761719 1.3178052e-38 271 297
-0.053694081 0.63800001 -0.063761719 1.2440865e-38 272 297
-0.05257545 0.63800001 -0.063761719 1.2256474e-38 273 297
-0.051376175 0.63700002 -0.063661784 1.2165373e-38 274 297
-0.0502593 0.63700002 -0.063661784 1.2165373e-38 275 297
-0.049142428 0.63700002 -0.063661784 1.2072468e-38 276 297
-0.048025552 0.63700002 -0.063661784 1.1980272e-38 277 297
-0.04690868 0.63700002 -0.063661784 1.2071402e-38 278 297
-0.045791805 0.63700002 -0.063661784 1.1979206e-38 279 297
-0.044674933 0.63700002 -0.063661784 1.1519667e-38 280 297
-0.043558061 0.63700002 -0.063661784 1.1519667e-38 281 297
-0.042441189 0.63700002 -0.063661784 1.1611865e-38 282 297
-0.041324314 0.63700002 -0.063661784 1.1611865e-38 283 297
-0.040207442 0.63700002 -0.063661784 1.1611863e-38 284 297
-0.039090566 0.63700002 -0.063661784 1.1611863e-38 285 297
-0.037973695 0.63700002 -0.063661784 1.1428903e-38 286 297
-0.036856819 0.63700002 -0.063661784 1.1428903e-38 287 297
-0.035739947 0.63700002 -0.063661784 1.1521096e-38 288 297
-0.034623075 0.63700002 -0.063661784 1.1705127e-38 289 297
-0.0335062 0.63700002 -0.063661784 1.1889877e-38 290 297
-0.032389328 0.63700002 -0.063661784 1.1889877e-38 291 297
-0.031272452 0.63700002 -0.063661784 1.2164664e-38 292 297
-0.03015558 0.63700002 -0.063661784 1.2164664e-38 293 297
-0.029038707 0.63700002 -0.063661784 1.1981702e-38 294 297
-0.027921833 0.63700002 -0.063661784 1.1889506e-38 295 297
-0.026804959 0.63700002 -0.063661784 1.1890581e-38 296 297
-0.025688088 0.63700002 -0.063661784 1.1890581e-38 297 297
-0.024571214 0.63700002 -0.063661784 1.1981702e-38 298 297
-0.023491161 0.63800001 -0.063761719 1.1889506e-38 299 297
-0.022372533 0.63800001 -0.063761719 1.1889509e-38 300 297
-0.021253906 0.63800001 -0.063761719 1.1981704e-38 301 297
-0.02013528 0.63800001 -0.063761719 1.1889153e-38 302 297
-0.019076265 0.63999999 -0.063961595 1.1889153e-38 303 297
-0.017954132 0.63999999 -0.063961595 1.1797676e-38 304 297
-0.016831998 0.63999999 -0.063961595 1.1797676e-38 305 297
-0.015709866 0.63999999 -0.063961595 1.1798032e-38 306 297
-0.014587732 0.63999999 -0.063961595 1.1798032e-38 307 297
-0.013465599 0.63999999 -0.063961595 1.1981702e-38 308 297
-0.012362752 0.64099997 -0.064061537 1.1981702e-38 309 297
-0.011238866 0.64099997 -0.064061537 1.1981707e-38 310 297
-0.010114979 0.64099997 -0.064061537 1.1981707e-38 311 297
-0.0089910924 0.64099997 -0.064061537 1.1889521e-38 312 297
-0.0078794798 0.64200002 -0.064161479 1.1889521e-38 313 297
-0.00675384 0.64200002 -0.064161479 1.1706209e-38 314 297
-0.0056369668 0.64300001 -0.064261422 1.1706209e-38 315 297
-0.0045095733 0.64300001 -0.064261422 1.1706559e-38 316 297
-0.0033821799 0.64300001 -0.064261422 1.1706559e-38 317 297
-0.0022547867 0.64300001 -0.064261422 1.1706913e-38 318 297
-0.0011291467 0.64399999 -0.064361356 1.1706913e-38 319 297
0 0.64399999 -0.064361356 1.1982423e-38 320 297
0.0011326533 0.64600003 -0.06456124 1.1982423e-38 321 297
0.0022688133 0.64700001 -0.064661182 1.198207e-38 322 297
0.0034032199 0.64700001 -0.064661182 1.2074267e-38 323 297
0.00454464 0.648 -0.064761117 1.1982793e-38 324 297
0.0056807999 0.648 -0.064761117 1.1798761e-38 325 297
0.0068274797 0.64899999 -0.064861059 1.1798761e-38 326 297
0.0079653924 0.64899999 -0.064861059 1.1798761e-38 327 297
0.0091173323 0.64999998 -0.064960994 1.1889877e-38 328 297
0.010256999 0.64999998 -0.064960994 1.1889877e-38 329 297
0.011431733 0.65200001 -0.065160878 1.1706212e-38 330 297
0.012594193 0.653 -0.06526082 1.1706212e-38 331 297
0.013760159 0.65399998 -0.065360755 1.1705859e-38 332 297
0.014906839 0.65399998 -0.065360755 1.1798056e-38 333 297
0.01605352 0.65399998 -0.065360755 1.1798422e-38 334 297
0.017226499 0.65499997 -0.065460697 1.1798422e-38 335 297
0.01843104 0.65700001 -0.065660581 1.1615462e-38 336 297
0.019612785 0.65799999 -0.065760516 1.1523267e-38 337 297
0.02076648 0.65799999 -0.065760516 1.1522911e-38 338 297
0.021920172 0.65799999 -0.065760516 1.1430714e-38 339 297
0.023073865 0.65799999 -0.065760516 1.0970127e-38 340 297
-0.080418386 0.64600003 -0.065693893 4.7080854e-39 249 298
-0.079040259 0.64399999 -0.065490507 7.1036724e-39 250 298
-0.077911116 0.64399999 -0.065490507 8.947585e-39 251 298
-0.076781973 0.64399999 -0.065490507 1.023756e-38 252 298
-0.07553535 0.64300001 -0.065388806 1.0790734e-38 253 298
-0.074407957 0.64300001 -0.065388806 1.1802348e-38 254 298
-0.073280565 0.64300001 -0.065388806 1.2078936e-38 255 298
-0.07204096 0.64200002 -0.065287121 1.2264753e-38 256 298
-0.070915326 0.64200002 -0.065287121 1.2172557e-38 257 298
-0.069789678 0.64200002 -0.065287121 1.281503e-38 258 298
-0.068664044 0.64200002 -0.065287121 1.2999421e-38 259 298
-0.067538396 0.64200002 -0.065287121 1.34575e-38 260 298
-0.06630931 0.64099997 -0.06518542 1.3180553e-38 261 298
-0.06518542 0.64099997 -0.06518542 1.3456411e-38 262 298
-0.064061537 0.64099997 -0.06518542 1.3363858e-38 263 298
-0.062937655 0.64099997 -0.06518542 1.3178755e-38 264 298
-0.061813761 0.64099997 -0.06518542 1.2810334e-38 265 298
-0.060689874 0.64099997 -0.06518542 1.2257174e-38 266 298
-0.059565991 0.64099997 -0.06518542 1.2257174e-38 267 298
-0.058442101 0.64099997 -0.06518542 1.2074228e-38 268 298
-0.057318214 0.64099997 -0.06518542 1.1982032e-38 269 298
-0.056194331 0.64099997 -0.06518542 1.2072806e-38 270 298
-0.054984529 0.63999999 -0.065083727 1.2072806e-38 271 298
-0.053694081 0.63800001 -0.064880349 1.2072468e-38 272 298
-0.052493047 0.63700002 -0.064778656 1.2072468e-38 273 298
-0.051376175 0.63700002 -0.064778656 1.1980998e-38 274 298
-0.0502593 0.63700002 -0.064778656 1.1888803e-38 275 298
-0.049142428 0.63700002 -0.064778656 1.1888803e-38 276 298
-0.048025552 0.63700002 -0.064778656 1.1704411e-38 277 298
-0.04690868 0.63700002 -0.064778656 1.1611144e-38 278 298
-0.045791805 0.63700002 -0.064778656 1.1703339e-38 279 298
-0.044674933 0.63700002 -0.064778656 1.1428194e-38 280 298
-0.043558061 0.63700002 -0.064778656 1.1428194e-38 281 298
-0.042441189 0.63700002 -0.064778656 1.133672e-38 282 298
-0.041324314 0.63700002 -0.064778656 1.133672e-38 283 298
-0.040207442 0.63700002 -0.064778656 1.1245601e-38 284 298
-0.039090566 0.63700002 -0.064778656 1.1245601e-38 285 298
-0.037973695 0.63700002 -0.064778656 1.1245954e-38 286 298
-0.036856819 0.63700002 -0.064778656 1.1245954e-38 287 298
-0.035739947 0.63700002 -0.064778656 1.13385e-38 288 298
-0.034623075 0.63700002 -0.064778656 1.13385e-38 289 298
-0.0335062 0.63700002 -0.064778656 1.1797679e-38 290 298
-0.032389328 0.63700002 -0.064778656 1.1889875e-38 291 298
-0.031272452 0.63700002 -0.064778656 1.1889875e-38 292 298
-0.03015558 0.63700002 -0.064778656 1.1889875e-38 293 298
-0.029038707 0.63700002 -0.064778656 1.1890228e-38 294 298
-0.027921833 0.63700002 -0.064778656 1.1798032e-38 295 298
-0.026804959 0.63700002 -0.064778656 1.1889862e-38 296 298
-0.025688088 0.63700002 -0.064778656 1.1982058e-38 297 298
-0.024571214 0.63700002 -0.064778656 1.1981704e-38 298 298
-0.023491161 0.63800001 -0.064880349 1.1981704e-38 299 298
-0.022372533 0.63800001 -0.064880349 1.1889872e-38 300 298
-0.021253906 0.63800001 -0.064880349 1.1889872e-38 301 298
-0.02013528 0.63800001 -0.064880349 1.1889156e-38 302 298
-0.019076265 0.63999999 -0.065083727 1.1889156e-38 303 298
-0.017954132 0.63999999 -0.065083727 1.1797679e-38 304 298
-0.016831998 0.63999999 -0.065083727 1.1705483e-38 305 298
-0.015709866 0.63999999 -0.065083727 1.1796957e-38 306 298
-0.014587732 0.63999999 -0.065083727 1.1889153e-38 307 298
-0.013486639 0.64099997 -0.06518542 1.1889153e-38 308 298
-0.012362752 0.64099997 -0.06518542 1.1889153e-38 309 298
-0.011238866 0.64099997 -0.06518542 1.1981354e-38 310 298
-0.010114979 0.64099997 -0.06518542 1.1981354e-38 311 298
-0.0089910924 0.64099997 -0.06518542 1.1889521e-38 312 298
-0.0078794798 0.64200002 -0.065287121 1.1889521e-38 313 298
-0.0067643598 0.64300001 -0.065388806 1.1706209e-38 314 298
-0.0056369668 0.64300001 -0.065388806 1.1706209e-38 315 298
-0.0045095733 0.64300001 -0.065388806 1.1706559e-38 316 298
-0.0033821799 0.64300001 -0.065388806 1.1798755e-38 317 298
-0.0022582933 0.64399999 -0.065490507 1.1706913e-38 318 298
-0.0011326533 0.64600003 -0.065693893 1.1799108e-38 319 298
0 0.64600003 -0.065693893 1.1982423e-38 320 298
0.0011326533 0.64600003 -0.065693893 1.1982423e-38 321 298
0.0022688133 0.64700001 -0.065795586 1.198207e-38 322 298
0.0034032199 0.64700001 -0.065795586 1.198207e-38 323 298
0.00454464 0.648 -0.065897278 1.1981718e-38 324 298
0.0056895665 0.64899999 -0.065998971 1.1981718e-38 325 298
0.0068274797 0.64899999 -0.065998971 1.1706212e-38 326 298
0.0079653924 0.64899999 -0.065998971 1.1706212e-38 327 298
0.0091173323 0.64999998 -0.066100657 1.1614016e-38 328 298
0.010256999 0.64999998 -0.066100657 1.1614016e-38 329 298
0.011449266 0.653 -0.066405743 1.161366e-38 330 298
0.012613479 0.65399998 -0.066507436 1.161366e-38 331 298
0.013760159 0.65399998 -0.066507436 1.1521833e-38 332 298
0.014906839 0.65399998 -0.066507436 1.1706226e-38 333 298
0.01605352 0.65399998 -0.066507436 1.1705873e-38 334 298
0.017226499 0.65499997 -0.066609129 1.1705873e-38 335 298
0.01843104 0.65700001 -0.066812515 1.1337815e-38 336 298
0.019612785 0.65799999 -0.066914216 1.0784641e-38 337 298
0.02076648 0.65799999 -0.066914216 1.0140367e-38 338 298
-0.080418386 0.64600003 -0.066826545 4.3061902e-42 249 299
-0.079040259 0.64399999 -0.06661965 4.2459834e-39 250 299
-0.077911116 0.64399999 -0.06661965 7.9334499e-39 251 299
-0.076781973 0.64399999 -0.06661965 9.0376128e-39 252 299
-0.07553535 0.64300001 -0.066516206 9.5907866e-39 253 299
-0.074407957 0.64300001 -0.066516206 1.0236859e-38 254 299
-0.073166594 0.64200002 -0.066412762 1.0697838e-38 255 299
-0.07204096 0.64200002 -0.066412762 1.1065879e-38 256 299
-0.070915326 0.64200002 -0.066412762 1.1065879e-38 257 299
-0.069789678 0.64200002 -0.066412762 1.1617232e-38 258 299
-0.068664044 0.64200002 -0.066412762 1.1709428e-38 259 299
-0.067433193 0.64099997 -0.06630931 1.2075676e-38 260 299
-0.06630931 0.64099997 -0.06630931 1.2167873e-38 261 299
-0.065083727 0.63999999 -0.066205859 1.2166421e-38 262 299
-0.063961595 0.63999999 -0.066205859 1.198203e-38 263 299
-0.062839463 0.63999999 -0.066205859 1.1798011e-38 264 299
-0.061813761 0.64099997 -0.06630931 1.161362e-38 265 299
-0.060689874 0.64099997 -0.06630931 1.1428547e-38 266 299
-0.05947306 0.63999999 -0.066205859 1.1520743e-38 267 299
-0.058350928 0.63999999 -0.066205859 1.1520408e-38 268 299
-0.057228796 0.63999999 -0.066205859 1.1520408e-38 269 299
-0.056106664 0.63999999 -0.066205859 1.1520764e-38 270 299
-0.054984529 0.63999999 -0.066205859 1.1520764e-38 271 299
-0.053694081 0.63800001 -0.065998971 1.1521112e-38 272 299
-0.052493047 0.63700002 -0.065895528 1.1521112e-38 273 299
-0.051376175 0.63700002 -0.065895528 1.1521818e-38 274 299
-0.0502593 0.63700002 -0.065895528 1.1521818e-38 275 299
-0.049142428 0.63700002 -0.065895528 1.1520743e-38 276 299
-0.048025552 0.63700002 -0.065895528 1.1428547e-38 277 299
-0.04690868 0.63700002 -0.065895528 1.142855e-38 278 299
-0.045791805 0.63700002 -0.065895528 1.142855e-38 279 299
-0.044674933 0.63700002 -0.065895528 1.1245601e-38 280 299
-0.043558061 0.63700002 -0.065895528 1.1153405e-38 281 299
-0.042441189 0.63700002 -0.065895528 1.0969737e-38 282 299
-0.041324314 0.63700002 -0.065895528 1.0969737e-38 283 299
-0.040207442 0.63700002 -0.065895528 1.1153408e-38 284 299
-0.039090566 0.63700002 -0.065895528 1.1337799e-38 285 299
-0.037973695 0.63700002 -0.065895528 1.1245957e-38 286 299
-0.036856819 0.63700002 -0.065895528 1.1245957e-38 287 299
-0.035739947 0.63700002 -0.065895528 1.1245954e-38 288 299
-0.034623075 0.63700002 -0.065895528 1.133815e-38 289 299
-0.0335062 0.63700002 -0.065895528 1.1614014e-38 290 299
-0.032389328 0.63700002 -0.065895528 1.1614014e-38 291 299
-0.031272452 0.63700002 -0.065895528 1.1614014e-38 292 299
-0.03015558 0.63700002 -0.065895528 1.1614014e-38 293 299
-0.029038707 0.63700002 -0.065895528 1.1614011e-38 294 299
-0.027921833 0.63700002 -0.065895528 1.1614011e-38 295 299
-0.026804959 0.63700002 -0.065895528 1.1614364e-38 296 299
-0.025688088 0.63700002 -0.065895528 1.1706559e-38 297 299
-0.024609786 0.63800001 -0.065998971 1.1889875e-38 298 299
-0.023491161 0.63800001 -0.065998971 1.1889875e-38 299 299
-0.022372533 0.63800001 -0.065998971 1.1797326e-38 300 299
-0.021320533 0.63999999 -0.066205859 1.1797326e-38 301 299
-0.020198399 0.63999999 -0.066205859 1.1797326e-38 302 299
-0.019076265 0.63999999 -0.066205859 1.170513e-38 303 299
-0.017954132 0.63999999 -0.066205859 1.1521099e-38 304 299
-0.016831998 0.63999999 -0.066205859 1.1521099e-38 305 299
-0.015734414 0.64099997 -0.06630931 1.1429619e-38 306 299
-0.014610525 0.64099997 -0.06630931 1.1429619e-38 307 299
-0.013486639 0.64099997 -0.06630931 1.170513e-38 308 299
-0.012362752 0.64099997 -0.06630931 1.1797326e-38 309 299
-0.011238866 0.64099997 -0.06630931 1.1797329e-38 310 299
-0.010114979 0.64099997 -0.06630931 1.1889524e-38 311 299
-0.0089910924 0.64099997 -0.06630931 1.1889524e-38 312 299
-0.0078917528 0.64300001 -0.066516206 1.1889524e-38 313 299
-0.0067643598 0.64300001 -0.066516206 1.1706212e-38 314 299
-0.0056369668 0.64300001 -0.066516206 1.1706212e-38 315 299
-0.0045165867 0.64399999 -0.06661965 1.1706209e-38 316 299
-0.0033874398 0.64399999 -0.06661965 1.1706209e-38 317 299
-0.0022582933 0.64399999 -0.06661965 1.1706562e-38 318 299
-0.0011326533 0.64600003 -0.066826545 1.1706562e-38 319 299
0 0.64600003 -0.066826545 1.1706562e-38 320 299
0.0011326533 0.64600003 -0.066826545 1.1706562e-38 321 299
0.0022653067 0.64600003 -0.066826545 1.1614732e-38 322 299
0.0034032199 0.64700001 -0.066929989 1.1706929e-38 323 299
0.00454464 0.648 -0.067033432 1.1706576e-38 324 299
0.0056895665 0.64899999 -0.067136884 1.1614379e-38 325 299
0.0068274797 0.64899999 -0.067136884 1.1614382e-38 326 299
0.0079776663 0.64999998 -0.067240328 1.1522186e-38 327 299
0.0091173323 0.64999998 -0.067240328 1.1522186e-38 328 299
0.010256999 0.64999998 -0.067240328 1.1522186e-38 329 299
0.011449266 0.653 -0.067550674 1.1245969e-38 330 299
0.012613479 0.65399998 -0.067654118 1.1245969e-38 331 299
0.013760159 0.65399998 -0.067654118 1.0786443e-38 332 299
0.014929632 0.65499997 -0.067757562 1.106267e-38 333 299
0.016078066 0.65499997 -0.067757562 1.1154152e-38 334 299
-0.08016941 0.64399999 -0.0677488 1.0224014e-40 249 300
-0.079040259 0.64399999 -0.0677488 6.0827059e-39 250 300
-0.077911116 0.64399999 -0.0677488 8.3872365e-39 251 300
-0.076662742 0.64300001 -0.067643598 6.2728397e-39 252 300
-0.07553535 0.64300001 -0.067643598 7.0104047e-39 253 300
-0.074292243 0.64200002 -0.067538396 8.2107206e-39 254 300
-0.073166594 0.64200002 -0.067538396 8.85609e-39 255 300
-0.07204096 0.64200002 -0.067538396 9.9598998e-39 256 300
-0.070804857 0.64099997 -0.067433193 1.0052095e-38 257 300
-0.069680966 0.64099997 -0.067433193 1.0144269e-38 258 300
-0.068557084 0.64099997 -0.067433193 1.032866e-38 259 300
-0.067433193 0.64099997 -0.067433193 1.0603802e-38 260 300
-0.06630931 0.64099997 -0.067433193 1.0696358e-38 261 300
-0.065083727 0.63999999 -0.067327991 1.087895e-38 262 300
-0.063961595 0.63999999 -0.067327991 1.087895e-38 263 300
-0.062839463 0.63999999 -0.067327991 1.1061557e-38 264 300
-0.061717331 0.63999999 -0.067327991 1.1154112e-38 265 300
-0.060689874 0.64099997 -0.067433193 1.1611512e-38 266 300
-0.05947306 0.63999999 -0.067327991 1.1519317e-38 267 300
-0.058350928 0.63999999 -0.067327991 1.1335646e-38 268 300
-0.057228796 0.63999999 -0.067327991 1.14282e-38 269 300
-0.056106664 0.63999999 -0.067327991 1.1428194e-38 270 300
-0.054984529 0.63999999 -0.067327991 1.1428194e-38 271 300
-0.053694081 0.63800001 -0.067117594 1.1429266e-38 272 300
-0.052493047 0.63700002 -0.067012399 1.1429266e-38 273 300
-0.051376175 0.63700002 -0.067012399 1.1428547e-38 274 300
-0.0502593 0.63700002 -0.067012399 1.1428547e-38 275 300
-0.049142428 0.63700002 -0.067012399 1.1336718e-38 276 300
-0.048025552 0.63700002 -0.067012399 1.1152686e-38 277 300
-0.04690868 0.63700002 -0.067012399 1.1336364e-38 278 300
-0.045791805 0.63700002 -0.067012399 1.1336364e-38 279 300
-0.044674933 0.63700002 -0.067012399 1.133672e-38 280 300
-0.043558061 0.63700002 -0.067012399 1.133672e-38 281 300
-0.042441189 0.63700002 -0.067012399 1.1153408e-38 282 300
-0.041324314 0.63700002 -0.067012399 1.1153408e-38 283 300
-0.040207442 0.63700002 -0.067012399 1.1245248e-38 284 300
-0.039090566 0.63700002 -0.067012399 1.1245248e-38 285 300
-0.037973695 0.63700002 -0.067012399 1.1245604e-38 286 300
-0.036856819 0.63700002 -0.067012399 1.1245604e-38 287 300
-0.035739947 0.63700002 -0.067012399 1.1520746e-38 288 300
-0.034623075 0.63700002 -0.067012399 1.1520746e-38 289 300
-0.0335062 0.63700002 -0.067012399 1.179661e-38 290 300
-0.032389328 0.63700002 -0.067012399 1.1888805e-38 291 300
-0.031272452 0.63700002 -0.067012399 1.179661e-38 292 300
-0.03015558 0.63700002 -0.067012399 1.179661e-38 293 300
-0.029038707 0.63700002 -0.067012399 1.179661e-38 294 300
-0.027921833 0.63700002 -0.067012399 1.179661e-38 295 300
-0.02684704 0.63800001 -0.067117594 1.1796607e-38 296 300
-0.025728412 0.63800001 -0.067117594 1.1888803e-38 297 300
-0.024609786 0.63800001 -0.067117594 1.1797326e-38 298 300
-0.023491161 0.63800001 -0.067117594 1.1797326e-38 299 300
-0.022442665 0.63999999 -0.067327991 1.179661e-38 300 300
-0.021320533 0.63999999 -0.067327991 1.179661e-38 301 300
-0.020198399 0.63999999 -0.067327991 1.1796254e-38 302 300
-0.019076265 0.63999999 -0.067327991 1.1704058e-38 303 300
-0.017982185 0.64099997 -0.067433193 1.1521099e-38 304 300
-0.016858298 0.64099997 -0.067433193 1.1521099e-38 305 300
-0.015734414 0.64099997 -0.067433193 1.1521452e-38 306 300
-0.014610525 0.64099997 -0.067433193 1.1521452e-38 307 300
-0.013486639 0.64099997 -0.067433193 1.1704408e-38 308 300
-0.01238204 0.64200002 -0.067538396 1.1796604e-38 309 300
-0.0112564 0.64200002 -0.067538396 1.1705127e-38 310 300
-0.01013076 0.64200002 -0.067538396 1.1705127e-38 311 300
-0.0090191467 0.64300001 -0.067643598 1.1797326e-38 312 300
-0.0079040267 0.64399999 -0.0677488 1.1797326e-38 313 300
-0.0067748795 0.64399999 -0.0677488 1.1614014e-38 314 300
-0.0056457333 0.64399999 -0.0677488 1.1614014e-38 315 300
-0.0045165867 0.64399999 -0.0677488 1.1705127e-38 316 300
-0.0033874398 0.64399999 -0.0677488 1.1705127e-38 317 300
-0.0022653067 0.64600003 -0.067959204 1.1796604e-38 318 300
-0.0011326533 0.64600003 -0.067959204 1.1889158e-38 319 300
0 0.64600003 -0.067959204 1.1796607e-38 320 300
0.0011326533 0.64600003 -0.067959204 1.1888803e-38 321 300
0.0022653067 0.64600003 -0.067959204 1.1797326e-38 322 300
0.00340848 0.648 -0.068169601 1.1797326e-38 323 300
0.0045516533 0.64899999 -0.068274796 1.161366e-38 324 300
0.0056895665 0.64899999 -0.068274796 1.161366e-38 325 300
0.0068379994 0.64999998 -0.068379998 1.1521833e-38 326 300
0.0079776663 0.64999998 -0.068379998 1.1337802e-38 327 300
0.0091173323 0.64999998 -0.068379998 1.1245248e-38 328 300
0.010256999 0.64999998 -0.068379998 1.1245248e-38 329 300
-0.080044925 0.64300001 -0.06877099 5.8932756e-39 249 301
-0.078917533 0.64300001 -0.06877099 5.5306013e-39 250 301
-0.077790141 0.64300001 -0.06877099 7.4667096e-39 251 301
-0.076662742 0.64300001 -0.06877099 7.0086209e-39 252 301
-0.07553535 0.64300001 -0.06877099 6.7323941e-39 253 301
-0.074292243 0.64200002 -0.068664044 7.7493949e-39 254 301
-0.073166594 0.64200002 -0.068664044 8.4869599e-39 255 301
-0.07204096 0.64200002 -0.068664044 9.4992944e-39 256 301
-0.070804857 0.64099997 -0.068557084 9.6836856e-39 257 301
-0.069680966 0.64099997 -0.068557084 9.7765875e-39 258 301
-0.068557084 0.64099997 -0.068557084 9.7765875e-39 259 301
-0.067433193 0.64099997 -0.068557084 1.0327963e-38 260 301
-0.06630931 0.64099997 -0.068557084 1.0235408e-38 261 301
-0.065083727 0.63999999 -0.068450131 1.0419087e-38 262 301
-0.063961595 0.63999999 -0.068450131 1.0419087e-38 263 301
-0.062839463 0.63999999 -0.068450131 1.0602046e-38 264 301
-0.061717331 0.63999999 -0.068450131 1.0602046e-38 265 301
-0.060689874 0.64099997 -0.068557084 1.0785717e-38 266 301
-0.05947306 0.63999999 -0.068450131 1.0785717e-38 267 301
-0.058350928 0.63999999 -0.068450131 1.0969743e-38 268 301
-0.057318214 0.64099997 -0.068557084 1.0969743e-38 269 301
-0.056194331 0.64099997 -0.068557084 1.1153405e-38 270 301
-0.054984529 0.63999999 -0.068450131 1.1153405e-38 271 301
-0.053694081 0.63800001 -0.068236224 1.1428913e-38 272 301
-0.052493047 0.63700002 -0.068129279 1.1336718e-38 273 301
-0.051376175 0.63700002 -0.068129279 1.133672e-38 274 301
-0.0502593 0.63700002 -0.068129279 1.1152689e-38 275 301
-0.049142428 0.63700002 -0.068129279 1.1152333e-38 276 301
-0.048025552 0.63700002 -0.068129279 1.1152333e-38 277 301
-0.04690868 0.63700002 -0.068129279 1.1060857e-38 278 301
-0.045791805 0.63700002 -0.068129279 1.1153052e-38 279 301
-0.044674933 0.63700002 -0.068129279 1.1152689e-38 280 301
-0.043558061 0.63700002 -0.068129279 1.1152689e-38 281 301
-0.042441189 0.63700002 -0.068129279 1.1153052e-38 282 301
-0.041324314 0.63700002 -0.068129279 1.1153052e-38 283 301
-0.040207442 0.63700002 -0.068129279 1.1153771e-38 284 301
-0.039090566 0.63700002 -0.068129279 1.1153771e-38 285 301
-0.037973695 0.63700002 -0.068129279 1.1245604e-38 286 301
-0.036856819 0.63700002 -0.068129279 1.1245604e-38 287 301
-0.035739947 0.63700002 -0.068129279 1.1428916e-38 288 301
-0.034623075 0.63700002 -0.068129279 1.133672e-38 289 301
-0.0335062 0.63700002 -0.068129279 1.1337797e-38 290 301
-0.032440174 0.63800001 -0.068236224 1.1337797e-38 291 301
-0.031272452 0.63700002 -0.068129279 1.1428916e-38 292 301
-0.03015558 0.63700002 -0.068129279 1.1428916e-38 293 301
-0.029038707 0.63700002 -0.068129279 1.133672e-38 294 301
-0.027921833 0.63700002 -0.068129279 1.1428916e-38 295 301
-0.02684704 0.63800001 -0.068236224 1.1521112e-38 296 301
-0.025728412 0.63800001 -0.068236224 1.1521112e-38 297 301
-0.024609786 0.63800001 -0.068236224 1.1521112e-38 298 301
-0.023564799 0.63999999 -0.068450131 1.1428916e-38 299 301
-0.022442665 0.63999999 -0.068450131 1.1520393e-38 300 301
-0.021320533 0.63999999 -0.068450131 1.1428197e-38 301 301
-0.020198399 0.63999999 -0.068450131 1.133672e-38 302 301
-0.019076265 0.63999999 -0.068450131 1.133672e-38 303 301
-0.017982185 0.64099997 -0.068557084 1.1336718e-38 304 301
-0.016858298 0.64099997 -0.068557084 1.1336718e-38 305 301
-0.015734414 0.64099997 -0.068557084 1.1153758e-38 306 301
-0.014610525 0.64099997 -0.068557084 1.1245954e-38 307 301
-0.01350768 0.64200002 -0.068664044 1.1337074e-38 308 301
-0.01238204 0.64200002 -0.068664044 1.1337074e-38 309 301
-0.0112564 0.64200002 -0.068664044 1.1245604e-38 310 301
-0.01014654 0.64300001 -0.06877099 1.1153408e-38 311 301
-0.0090191467 0.64300001 -0.06877099 1.1245248e-38 312 301
-0.0079040267 0.64399999 -0.068877943 1.1245248e-38 313 301
-0.0067748795 0.64399999 -0.068877943 1.1245248e-38 314 301
-0.0056457333 0.64399999 -0.068877943 1.1153052e-38 315 301
-0.0045165867 0.64399999 -0.068877943 1.1152333e-38 316 301
-0.0033874398 0.64399999 -0.068877943 1.1152333e-38 317 301
-0.0022653067 0.64600003 -0.069091856 1.1245248e-38 318 301
-0.0011326533 0.64600003 -0.069091856 1.1245248e-38 319 301
0 0.64600003 -0.069091856 1.1245604e-38 320 301
0.0011326533 0.64600003 -0.069091856 1.1245604e-38 321 301
0.0022653067 0.64600003 -0.069091856 1.1337799e-38 322 301
0.00340848 0.648 -0.069305755 1.1337799e-38 323 301
0.0045516533 0.64899999 -0.069412716 1.1337446e-38 324 301
0.0056895665 0.64899999 -0.069412716 1.1153055e-38 325 301
0.0068379994 0.64999998 -0.069519661 1.087791e-38 326 301
0.0079776663 0.64999998 -0.069519661 1.0693517e-38 327 301
0.0091173323 0.64999998 -0.069519661 1.0509133e-38 328 301
-0.080044925 0.64300001 -0.069898389 9.0300948e-39 249 302
-0.078917533 0.64300001 -0.069898389 5.5313076e-39 250 302
-0.077790141 0.64300001 -0.069898389 6.4532653e-39 251 302
-0.076662742 0.64300001 -0.069898389 6.9164127e-39 252 302
-0.075417876 0.64200002 -0.069789678 7.3770321e-39 253 302
-0.074292243 0.64200002 -0.069789678 7.7472467e-39 254 302
-0.073166594 0.64200002 -0.069789678 8.3926147e-39 255 302
-0.07204096 0.64200002 -0.069789678 8.4876662e-39 256 302
-0.070915326 0.64200002 -0.069789678 8.85609e-39 257 302
-0.069680966 0.64099997 -0.069680966 9.6822381e-39 258 302
-0.068557084 0.64099997 -0.069680966 9.8669881e-39 259 302
-0.067433193 0.64099997 -0.069680966 1.0142496e-38 260 302
-0.06630931 0.64099997 -0.069680966 1.0142496e-38 261 302
-0.065083727 0.63999999 -0.069572262 1.0418007e-38 262 302
-0.063961595 0.63999999 -0.069572262 1.0418007e-38 263 302
-0.062937655 0.64099997 -0.069680966 1.0692796e-38 264 302
-0.061813761 0.64099997 -0.069680966 1.0692796e-38 265 302
-0.060689874 0.64099997 -0.069680966 1.0785347e-38 266 302
-0.05947306 0.63999999 -0.069572262 1.0785347e-38 267 302
-0.058350928 0.63999999 -0.069572262 1.0877541e-38 268 302
-0.057318214 0.64099997 -0.069680966 1.0969737e-38 269 302
-0.056194331 0.64099997 -0.069680966 1.1245601e-38 270 302
-0.054984529 0.63999999 -0.069572262 1.1245601e-38 271 302
-0.053862397 0.63999999 -0.069572262 1.1337074e-38 272 302
-0.05257545 0.63800001 -0.069354847 1.1337074e-38 273 302
-0.051376175 0.63700002 -0.069246151 1.133672e-38 274 302
-0.0502593 0.63700002 -0.069246151 1.133672e-38 275 302
-0.049142428 0.63700002 -0.069246151 1.1152333e-38 276 302
-0.048025552 0.63700002 -0.069246151 1.1152333e-38 277 302
-0.04690868 0.63700002 -0.069246151 1.1152686e-38 278 302
-0.045791805 0.63700002 -0.069246151 1.1152686e-38 279 302
-0.044674933 0.63700002 -0.069246151 1.1061207e-38 280 302
-0.043558061 0.63700002 -0.069246151 1.1061207e-38 281 302
-0.042441189 0.63700002 -0.069246151 1.1152684e-38 282 302
-0.041324314 0.63700002 -0.069246151 1.1152684e-38 283 302
-0.040207442 0.63700002 -0.069246151 1.1152686e-38 284 302
-0.039090566 0.63700002 -0.069246151 1.1336718e-38 285 302
-0.037973695 0.63700002 -0.069246151 1.1336718e-38 286 302
-0.036856819 0.63700002 -0.069246151 1.1336718e-38 287 302
-0.035739947 0.63700002 -0.069246151 1.142855e-38 288 302
-0.034677424 0.63800001 -0.069354847 1.1520746e-38 289 302
-0.033558797 0.63800001 -0.069354847 1.1428194e-38 290 302
-0.032440174 0.63800001 -0.069354847 1.1428194e-38 291 302
-0.031321548 0.63800001 -0.069354847 1.14282e-38 292 302
-0.03020292 0.63800001 -0.069354847 1.1335646e-38 293 302
-0.029084295 0.63800001 -0.069354847 1.14282e-38 294 302
-0.027965667 0.63800001 -0.069354847 1.14282e-38 295 302
-0.02684704 0.63800001 -0.069354847 1.14282e-38 296 302
-0.025728412 0.63800001 -0.069354847 1.14282e-38 297 302
-0.024609786 0.63800001 -0.069354847 1.1428197e-38 298 302
-0.023564799 0.63999999 -0.069572262 1.1336002e-38 299 302
-0.022442665 0.63999999 -0.069572262 1.1519314e-38 300 302
-0.021320533 0.63999999 -0.069572262 1.1427117e-38 301 302
-0.020198399 0.63999999 -0.069572262 1.1151256e-38 302 302
-0.019106071 0.64099997 -0.069680966 1.1243451e-38 303 302
-0.017982185 0.64099997 -0.069680966 1.11509e-38 304 302
-0.016858298 0.64099997 -0.069680966 1.11509e-38 305 302
-0.015734414 0.64099997 -0.069680966 1.1152333e-38 306 302
-0.01463332 0.64200002 -0.069789678 1.1060136e-38 307 302
-0.01350768 0.64200002 -0.069789678 1.115089e-38 308 302
-0.01238204 0.64200002 -0.069789678 1.096614e-38 309 302
-0.0112564 0.64200002 -0.069789678 1.1058341e-38 310 302
-0.01014654 0.64300001 -0.069898389 1.1058341e-38 311 302
-0.0090191467 0.64300001 -0.069898389 1.1058707e-38 312 302
-0.0079040267 0.64399999 -0.070007093 1.1150903e-38 313 302
-0.0067748795 0.64399999 -0.070007093 1.1058707e-38 314 302
-0.0056457333 0.64399999 -0.070007093 1.1058707e-38 315 302
-0.0045165867 0.64399999 -0.070007093 1.1150537e-38 316 302
-0.00339796 0.64600003 -0.070224509 1.1242732e-38 317 302
-0.0022653067 0.64600003 -0.070224509 1.1060854e-38 318 302
-0.0011326533 0.64600003 -0.070224509 1.1153408e-38 319 302
0 0.64399999 -0.070007093 1.1060854e-38 320 302
0.0011291467 0.64399999 -0.070007093 1.1153408e-38 321 302
0.0022653067 0.64600003 -0.070224509 1.1153055e-38 322 302
0.0034137398 0.64899999 -0.070550621 1.1060859e-38 323 302
0.0045516533 0.64899999 -0.070550621 1.0784645e-38 324 302
-0.080044925 0.64300001 -0.071025774 1.170703e-38 249 303
-0.078917533 0.64300001 -0.071025774 7.0972012e-39 250 303
-0.077790141 0.64300001 -0.071025774 5.5302356e-39 251 303
-0.076662742 0.64300001 -0.071025774 5.9966017e-39 252 303
-0.075417876 0.64200002 -0.070915326 6.918558e-39 253 303
-0.074292243 0.64200002 -0.070915326 7.0129215e-39 254 303
-0.073166594 0.64200002 -0.070915326 7.4738996e-39 255 303
-0.07204096 0.64200002 -0.070915326 8.301847e-39 256 303
-0.070915326 0.64200002 -0.070915326 8.6706281e-39 257 303
-0.069680966 0.64099997 -0.070804857 9.1305175e-39 258 303
-0.068557084 0.64099997 -0.070804857 9.4067456e-39 259 303
-0.067433193 0.64099997 -0.070804857 9.5907712e-39 260 303
-0.06630931 0.64099997 -0.070804857 9.7748023e-39 261 303
-0.06518542 0.64099997 -0.070804857 1.0325455e-38 262 303
-0.064061537 0.64099997 -0.070804857 1.0417651e-38 263 303
-0.062937655 0.64099997 -0.070804857 1.0509481e-38 264 303
-0.061813761 0.64099997 -0.070804857 1.0509481e-38 265 303
-0.060689874 0.64099997 -0.070804857 1.0785344e-38 266 303
-0.059565991 0.64099997 -0.070804857 1.0877541e-38 267 303
-0.058442101 0.64099997 -0.070804857 1.1153405e-38 268 303
-0.057318214 0.64099997 -0.070804857 1.1153405e-38 269 303
-0.056194331 0.64099997 -0.070804857 1.1245601e-38 270 303
-0.054984529 0.63999999 -0.070694394 1.1337797e-38 271 303
-0.053862397 0.63999999 -0.070694394 1.1245601e-38 272 303
-0.05257545 0.63800001 -0.070473477 1.1245601e-38 273 303
-0.051376175 0.63700002 -0.070363015 1.1153408e-38 274 303
-0.0502593 0.63700002 -0.070363015 1.1153408e-38 275 303
-0.049142428 0.63700002 -0.070363015 1.1152333e-38 276 303
-0.048025552 0.63700002 -0.070363015 1.1336364e-38 277 303
-0.04690868 0.63700002 -0.070363015 1.1153405e-38 278 303
-0.045791805 0.63700002 -0.070363015 1.1153405e-38 279 303
-0.044674933 0.63700002 -0.070363015 1.1337071e-38 280 303
-0.043558061 0.63700002 -0.070363015 1.1337071e-38 281 303
-0.042441189 0.63700002 -0.070363015 1.1337071e-38 282 303
-0.041324314 0.63700002 -0.070363015 1.115304e-38 283 303
-0.040207442 0.63700002 -0.070363015 1.1337074e-38 284 303
-0.039090566 0.63700002 -0.070363015 1.1337074e-38 285 303
-0.037973695 0.63700002 -0.070363015 1.1336718e-38 286 303
-0.036856819 0.63700002 -0.070363015 1.1336718e-38 287 303
-0.035796054 0.63800001 -0.070473477 1.1428913e-38 288 303
-0.034677424 0.63800001 -0.070473477 1.1336718e-38 289 303
-0.033558797 0.63800001 -0.070473477 1.133672e-38 290 303
-0.032440174 0.63800001 -0.070473477 1.133672e-38 291 303
-0.031321548 0.63800001 -0.070473477 1.1336364e-38 292 303
-0.03020292 0.63800001 -0.070473477 1.1152333e-38 293 303
-0.029084295 0.63800001 -0.070473477 1.1336364e-38 294 303
-0.027965667 0.63800001 -0.070473477 1.1152333e-38 295 303
-0.02684704 0.63800001 -0.070473477 1.1152333e-38 296 303
-0.025728412 0.63800001 -0.070473477 1.1060136e-38 297 303
-0.024686933 0.63999999 -0.070694394 1.1243449e-38 298 303
-0.023564799 0.63999999 -0.070694394 1.1151253e-38 299 303
-0.022477733 0.64099997 -0.070804857 1.1151253e-38 300 303
-0.021320533 0.63999999 -0.070694394 1.1059057e-38 301 303
-0.020198399 0.63999999 -0.070694394 1.0689929e-38 302 303
-0.019106071 0.64099997 -0.070804857 1.0597733e-38 303 303
-0.017982185 0.64099997 -0.070804857 1.0597383e-38 304 303
-0.016884599 0.64200002 -0.070915326 1.0689578e-38 305 303
-0.01575896 0.64200002 -0.070915326 1.0781774e-38 306 303
-0.01463332 0.64200002 -0.070915326 1.0412631e-38 307 303
-0.01352872 0.64300001 -0.071025774 1.0409394e-38 308 303
-0.012401327 0.64300001 -0.071025774 1.0317199e-38 309 303
-0.011273934 0.64300001 -0.071025774 1.0226449e-38 310 303
-0.01016232 0.64399999 -0.071136236 1.0318645e-38 311 303
-0.0090331733 0.64399999 -0.071136236 1.0321162e-38 312 303
-0.0079040267 0.64399999 -0.071136236 1.0505913e-38 313 303
-0.0067748795 0.64399999 -0.071136236 1.0690294e-38 314 303
-0.0056632664 0.64600003 -0.071357161 1.0690294e-38 315 303
-0.0045306133 0.64600003 -0.071357161 1.0874676e-38 316 303
-0.0034032199 0.64700001 -0.071467623 1.1058707e-38 317 303
-0.0022653067 0.64600003 -0.071357161 1.0876114e-38 318 303
-0.0011326533 0.64600003 -0.071357161 1.0968309e-38 319 303
0 0.64399999 -0.071136236 1.0874686e-38 320 303
0.0011291467 0.64399999 -0.071136236 1.0874686e-38 321 303
0.0022582933 0.64399999 -0.071136236 1.032261e-38 322 303
-0.079920441 0.64200002 -0.07204096 1.4843126e-38 249 304
-0.0787948 0.64200002 -0.07204096 1.0966531e-38 250 304
-0.077669159 0.64200002 -0.07204096 6.8177276e-39 251 304
-0.076543517 0.64200002 -0.07204096 5.7221476e-39 252 304
-0.075417876 0.64200002 -0.07204096 6.6441039e-39 253 304
-0.074292243 0.64200002 -0.07204096 7.472801e-39 254 304
-0.073166594 0.64200002 -0.07204096 7.8419437e-39 255 304
-0.07204096 0.64200002 -0.07204096 8.3021973e-39 256 304
-0.070915326 0.64200002 -0.07204096 8.5787828e-39 257 304
-0.069680966 0.64099997 -0.07192874 8.9468423e-39 258 304
-0.068557084 0.64099997 -0.07192874 9.1312349e-39 259 304
-0.067433193 0.64099997 -0.07192874 9.3159793e-39 260 304
-0.06630931 0.64099997 -0.07192874 9.408175e-39 261 304
-0.06518542 0.64099997 -0.07192874 1.0142496e-38 262 304
-0.064061537 0.64099997 -0.07192874 1.0326887e-38 263 304
-0.062937655 0.64099997 -0.07192874 1.0694218e-38 264 304
-0.061813761 0.64099997 -0.07192874 1.0786415e-38 265 304
-0.060689874 0.64099997 -0.07192874 1.0878599e-38 266 304
-0.059565991 0.64099997 -0.07192874 1.0970797e-38 267 304
-0.058442101 0.64099997 -0.07192874 1.1246307e-38 268 304
-0.057318214 0.64099997 -0.07192874 1.1246307e-38 269 304
-0.056194331 0.64099997 -0.07192874 1.133815e-38 270 304
-0.054984529 0.63999999 -0.071816526 1.133815e-38 271 304
-0.053862397 0.63999999 -0.071816526 1.1338153e-38 272 304
-0.05257545 0.63800001 -0.071592107 1.1338153e-38 273 304
-0.051456824 0.63800001 -0.071592107 1.1337797e-38 274 304
-0.0502593 0.63700002 -0.071479894 1.1337797e-38 275 304
-0.049142428 0.63700002 -0.071479894 1.1428913e-38 276 304
-0.048025552 0.63700002 -0.071479894 1.1428913e-38 277 304
-0.04690868 0.63700002 -0.071479894 1.1245957e-38 278 304
-0.045791805 0.63700002 -0.071479894 1.1245957e-38 279 304
-0.044674933 0.63700002 -0.071479894 1.1429266e-38 280 304
-0.043558061 0.63700002 -0.071479894 1.1429266e-38 281 304
-0.042441189 0.63700002 -0.071479894 1.1153403e-38 282 304
-0.041324314 0.63700002 -0.071479894 1.1245957e-38 283 304
-0.040207442 0.63700002 -0.071479894 1.1245957e-38 284 304
-0.039090566 0.63700002 -0.071479894 1.1245957e-38 285 304
-0.037973695 0.63700002 -0.071479894 1.1245601e-38 286 304
-0.03691468 0.63800001 -0.071592107 1.1153405e-38 287 304
-0.035796054 0.63800001 -0.071592107 1.1336718e-38 288 304
-0.034677424 0.63800001 -0.071592107 1.1336718e-38 289 304
-0.033558797 0.63800001 -0.071592107 1.1153405e-38 290 304
-0.032541864 0.63999999 -0.071816526 1.1153405e-38 291 304
-0.031419732 0.63999999 -0.071816526 1.1153408e-38 292 304
-0.030297596 0.63999999 -0.071816526 1.1060854e-38 293 304
-0.029084295 0.63800001 -0.071592107 1.1152333e-38 294 304
-0.027965667 0.63800001 -0.071592107 1.1152333e-38 295 304
-0.02684704 0.63800001 -0.071592107 1.1060136e-38 296 304
-0.025728412 0.63800001 -0.071592107 1.0967941e-38 297 304
-0.024686933 0.63999999 -0.071816526 1.1059054e-38 298 304
-0.023564799 0.63999999 -0.071816526 1.1059054e-38 299 304
-0.022477733 0.64099997 -0.07192874 1.0875026e-38 300 304
-0.021353846 0.64099997 -0.07192874 1.0598079e-38 301 304
-0.020229958 0.64099997 -0.07192874 1.0504461e-38 302 304
-0.019106071 0.64099997 -0.07192874 1.0227874e-38 303 304
-0.01801024 0.64200002 -0.07204096 1.0227171e-38 304 304
-0.016884599 0.64200002 -0.07204096 1.0319366e-38 305 304
-0.01575896 0.64200002 -0.07204096 1.0686351e-38 306 304
-0.01463332 0.64200002 -0.07204096 1.0317567e-38 307 304
-0.01352872 0.64300001 -0.072153173 1.0131733e-38 308 304
-0.012401327 0.64300001 -0.072153173 1.0131733e-38 309 304
-0.011273934 0.64300001 -0.072153173 9.765827e-39 310 304
-0.01016232 0.64399999 -0.072265387 1.0226805e-38 311 304
-0.0090331733 0.64399999 -0.072265387 1.0229319e-38 312 304
-0.0079040267 0.64399999 -0.072265387 1.0506266e-38 313 304
-0.00679592 0.64600003 -0.072489813 1.0323667e-38 314 304
-0.0056632664 0.64600003 -0.072489813 1.0323667e-38 315 304
-0.0787948 0.64200002 -0.073166594 1.548305e-38 250 305
-0.077669159 0.64200002 -0.073166594 1.10573e-38 251 305
-0.076543517 0.64200002 -0.073166594 6.7337688e-39 252 305
-0.075300403 0.64099997 -0.073052622 6.4575421e-39 253 305
-0.07417652 0.64099997 -0.073052622 6.5544236e-39 254 305
-0.073166594 0.64200002 -0.073166594 6.9232047e-39 255 305
-0.07204096 0.64200002 -0.073166594 7.382755e-39 256 305
-0.070915326 0.64200002 -0.073166594 7.9359288e-39 257 305
-0.069789678 0.64200002 -0.073166594 8.5791332e-39 258 305
-0.068664044 0.64200002 -0.073166594 8.85572e-39 259 305
-0.067433193 0.64099997 -0.073052622 9.3159765e-39 260 305
-0.06630931 0.64099997 -0.073052622 9.4085309e-39 261 305
-0.06518542 0.64099997 -0.073052622 1.0143568e-38 262 305
-0.064061537 0.64099997 -0.073052622 1.0327961e-38 263 305
-0.062937655 0.64099997 -0.073052622 1.0603452e-38 264 305
-0.061813761 0.64099997 -0.073052622 1.0788203e-38 265 305
-0.060689874 0.64099997 -0.073052622 1.0970794e-38 266 305
-0.059565991 0.64099997 -0.073052622 1.1247379e-38 267 305
-0.058442101 0.64099997 -0.073052622 1.1247026e-38 268 305
-0.057318214 0.64099997 -0.073052622 1.1339222e-38 269 305
-0.056194331 0.64099997 -0.073052622 1.1522181e-38 270 305
-0.054984529 0.63999999 -0.072938658 1.1522181e-38 271 305
-0.053862397 0.63999999 -0.072938658 1.1522186e-38 272 305
-0.052740265 0.63999999 -0.072938658 1.1522186e-38 273 305
-0.051456824 0.63800001 -0.07271073 1.1337797e-38 274 305
-0.050338201 0.63800001 -0.07271073 1.1337797e-38 275 305
-0.049219571 0.63800001 -0.07271073 1.1338153e-38 276 305
-0.048025552 0.63700002 -0.072596766 1.1245957e-38 277 305
-0.04690868 0.63700002 -0.072596766 1.1338153e-38 278 305
-0.045791805 0.63700002 -0.072596766 1.1338153e-38 279 305
-0.044674933 0.63700002 -0.072596766 1.1337797e-38 280 305
-0.043558061 0.63700002 -0.072596766 1.1337797e-38 281 305
-0.042441189 0.63700002 -0.072596766 1.1245604e-38 282 305
-0.041324314 0.63700002 -0.072596766 1.1245604e-38 283 305
-0.040207442 0.63700002 -0.072596766 1.1154127e-38 284 305
-0.039090566 0.63700002 -0.072596766 1.1154127e-38 285 305
-0.037973695 0.63700002 -0.072596766 1.1336718e-38 286 305
-0.03691468 0.63800001 -0.07271073 1.1336718e-38 287 305
-0.035796054 0.63800001 -0.07271073 1.1152684e-38 288 305
-0.034677424 0.63800001 -0.07271073 1.1337074e-38 289 305
-0.033663996 0.63999999 -0.072938658 1.1153403e-38 290 305
-0.032541864 0.63999999 -0.072938658 1.1153403e-38 291 305
-0.031419732 0.63999999 -0.072938658 1.1152686e-38 292 305
-0.030297596 0.63999999 -0.072938658 1.1152686e-38 293 305
-0.029175464 0.63999999 -0.072938658 1.1060492e-38 294 305
-0.028053332 0.63999999 -0.072938658 1.1060492e-38 295 305
-0.026973277 0.64099997 -0.073052622 1.0969013e-38 296 305
-0.025809065 0.63999999 -0.072938658 1.0876817e-38 297 305
-0.024686933 0.63999999 -0.072938658 1.0875742e-38 298 305
-0.023601618 0.64099997 -0.073052622 1.0783547e-38 299 305
-0.022477733 0.64099997 -0.073052622 1.0506967e-38 300 305
-0.021353846 0.64099997 -0.073052622 1.0137824e-38 301 305
-0.020229958 0.64099997 -0.073052622 1.0135679e-38 302 305
-0.019106071 0.64099997 -0.073052622 1.0227874e-38 303 305
-0.01801024 0.64200002 -0.073166594 1.0044209e-38 304 305
-0.016910899 0.64300001 -0.073280565 1.02286e-38 305 305
-0.01575896 0.64200002 -0.073166594 1.0412263e-38 306 305
-0.01463332 0.64200002 -0.073166594 1.0504817e-38 307 305
-0.01352872 0.64300001 -0.073280565 1.0322218e-38 308 305
-0.012420613 0.64399999 -0.07339453 1.0322218e-38 309 305
-0.011291467 0.64399999 -0.07339453 1.0322218e-38 310 305
-0.01016232 0.64399999 -0.07339453 1.050697e-38 311 305
-0.0090331733 0.64399999 -0.07339453 1.0324017e-38 312 305
-0.077669159 0.64200002 -0.074292243 1.4839161e-38 251 306
-0.076543517 0.64200002 -0.074292243 1.1151298e-38 252 306
-0.075300403 0.64099997 -0.07417652 8.4776245e-39 253 306
-0.07417652 0.64099997 -0.07417652 7.6561007e-39 254 306
-0.073166594 0.64200002 -0.074292243 7.4720695e-39 255 306
-0.07204096 0.64200002 -0.074292243 8.2996526e-39 256 306
-0.070915326 0.64200002 -0.074292243 8.6687952e-39 257 306
-0.069789678 0.64200002 -0.074292243 8.3936475e-39 258 306
-0.068664044 0.64200002 -0.074292243 8.8546256e-39 259 306
-0.067433193 0.64099997 -0.07417652 9.4070763e-39 260 306
-0.06630931 0.64099997 -0.07417652 9.8680545e-39 261 306
-0.06518542 0.64099997 -0.07417652 1.0511259e-38 262 306
-0.064061537 0.64099997 -0.07417652 1.0603456e-38 263 306
-0.062937655 0.64099997 -0.07417652 1.0970797e-38 264 306
-0.061813761 0.64099997 -0.07417652 1.1154828e-38 265 306
-0.060689874 0.64099997 -0.07417652 1.1247379e-38 266 306
-0.059565991 0.64099997 -0.07417652 1.1247379e-38 267 306
-0.058442101 0.64099997 -0.07417652 1.1521815e-38 268 306
-0.057228796 0.63999999 -0.07406079 1.1614011e-38 269 306
-0.056106664 0.63999999 -0.07406079 1.1522181e-38 270 306
-0.054984529 0.63999999 -0.07406079 1.1614376e-38 271 306
-0.053862397 0.63999999 -0.07406079 1.1338515e-38 272 306
-0.052740265 0.63999999 -0.07406079 1.1338515e-38 273 306
-0.051456824 0.63800001 -0.07382936 1.1338153e-38 274 306
-0.050338201 0.63800001 -0.07382936 1.1338153e-38 275 306
-0.049219571 0.63800001 -0.07382936 1.1521462e-38 276 306
-0.048025552 0.63700002 -0.073713638 1.1521462e-38 277 306
-0.04690868 0.63700002 -0.073713638 1.133815e-38 278 306
-0.045791805 0.63700002 -0.073713638 1.133815e-38 279 306
-0.044674933 0.63700002 -0.073713638 1.1521465e-38 280 306
-0.043558061 0.63700002 -0.073713638 1.1521465e-38 281 306
-0.042441189 0.63700002 -0.073713638 1.1245601e-38 282 306
-0.041389186 0.63800001 -0.07382936 1.1337797e-38 283 306
-0.040270559 0.63800001 -0.07382936 1.1154127e-38 284 306
-0.039151933 0.63800001 -0.07382936 1.0969737e-38 285 306
-0.038033307 0.63800001 -0.07382936 1.0969737e-38 286 306
-0.03691468 0.63800001 -0.07382936 1.0877541e-38 287 306
-0.035908263 0.63999999 -0.07406079 1.0877541e-38 288 306
-0.034786131 0.63999999 -0.07406079 1.0877541e-38 289 306
-0.033663996 0.63999999 -0.07406079 1.0786065e-38 290 306
-0.032541864 0.63999999 -0.07406079 1.087826e-38 291 306
-0.031419732 0.63999999 -0.07406079 1.106121e-38 292 306
-0.030297596 0.63999999 -0.07406079 1.106121e-38 293 306
-0.029175464 0.63999999 -0.07406079 1.0969013e-38 294 306
-0.028053332 0.63999999 -0.07406079 1.0969013e-38 295 306
-0.026973277 0.64099997 -0.07417652 1.0967938e-38 296 306
-0.025809065 0.63999999 -0.07406079 1.0875742e-38 297 306
-0.024686933 0.63999999 -0.07406079 1.0783547e-38 298 306
-0.023564799 0.63999999 -0.07406079 1.050732e-38 299 306
-0.022477733 0.64099997 -0.07417652 1.0781747e-38 300 306
-0.021353846 0.64099997 -0.07417652 1.0505521e-38 301 306
-0.020229958 0.64099997 -0.07417652 1.0596281e-38 302 306
-0.019135879 0.64200002 -0.074292243 1.0596281e-38 303 306
-0.01801024 0.64200002 -0.074292243 1.0505521e-38 304 306
-0.016910899 0.64300001 -0.074407957 1.0597716e-38 305 306
-0.01575896 0.64200002 -0.074292243 1.0415843e-38 306 306
-0.01463332 0.64200002 -0.074292243 1.0415843e-38 307 306
-0.01352872 0.64300001 -0.074407957 1.0048498e-38 308 306
-0.076543517 0.64200002 -0.075417876 1.7605397e-38 252 307
-0.075300403 0.64099997 -0.075300403 1.6222462e-38 253 307
-0.07417652 0.64099997 -0.075300403 1.4748762e-38 254 307
-0.073166594 0.64200002 -0.075417876 1.4103392e-38 255 307
-0.07204096 0.64200002 -0.075417876 1.3459445e-38 256 307
-0.070915326 0.64200002 -0.075417876 1.2630045e-38 257 307
-0.069789678 0.64200002 -0.075417876 1.1894254e-38 258 307
-0.068664044 0.64200002 -0.075417876 1.1433277e-38 259 307
-0.067538396 0.64200002 -0.075417876 1.0604933e-38 260 307
-0.066412762 0.64200002 -0.075417876 1.0051759e-38 261 307
-0.065287121 0.64200002 -0.075417876 1.0145017e-38 262 307
-0.064061537 0.64099997 -0.075300403 1.0145017e-38 263 307
-0.062937655 0.64099997 -0.075300403 1.0694221e-38 264 307
-0.061813761 0.64099997 -0.075300403 1.0970809e-38 265 307
-0.060784556 0.64200002 -0.075417876 1.1338503e-38 266 307
-0.059565991 0.64099997 -0.075300403 1.1338503e-38 267 307
-0.058442101 0.64099997 -0.075300403 1.1522537e-38 268 307
-0.057228796 0.63999999 -0.07518293 1.1522537e-38 269 307
-0.056106664 0.63999999 -0.07518293 1.1522537e-38 270 307
-0.054984529 0.63999999 -0.07518293 1.1522537e-38 271 307
-0.053862397 0.63999999 -0.07518293 1.1338506e-38 272 307
-0.052740265 0.63999999 -0.07518293 1.1338506e-38 273 307
-0.051618129 0.63999999 -0.07518293 1.1521462e-38 274 307
-0.050338201 0.63800001 -0.07494799 1.1521462e-38 275 307
-0.049219571 0.63800001 -0.07494799 1.1521462e-38 276 307
-0.048100945 0.63800001 -0.07494799 1.1521462e-38 277 307
-0.046982322 0.63800001 -0.07494799 1.1338506e-38 278 307
-0.045863692 0.63800001 -0.07494799 1.1338506e-38 279 307
-0.044745065 0.63800001 -0.07494799 1.1338506e-38 280 307
-0.043626439 0.63800001 -0.07494799 1.1338506e-38 281 307
-0.042507812 0.63800001 -0.07494799 1.1245957e-38 282 307
-0.041389186 0.63800001 -0.07494799 1.1245957e-38 283 307
-0.040270559 0.63800001 -0.07494799 1.1153052e-38 284 307
-0.039151933 0.63800001 -0.07494799 1.1153052e-38 285 307
-0.038152531 0.63999999 -0.07518293 1.1060854e-38 286 307
-0.037030395 0.63999999 -0.07518293 1.0968657e-38 287 307
-0.035908263 0.63999999 -0.07518293 1.0876814e-38 288 307
-0.034840483 0.64099997 -0.075300403 1.0876814e-38 289 307
-0.033716597 0.64099997 -0.075300403 1.106084e-38 290 307
-0.03259271 0.64099997 -0.075300403 1.106084e-38 291 307
-0.031419732 0.63999999 -0.07518293 1.106084e-38 292 307
-0.030297596 0.63999999 -0.07518293 1.0968644e-38 293 307
-0.02922105 0.64099997 -0.075300403 1.0876817e-38 294 307
