# .PCD v.7 - Point Cloud Data file format
FIELDS x y z rgb imX imY
SIZE 4 4 4 4 4 4
TYPE F F F F F F
COUNT 1 1 1 1 1 1
WIDTH 838
HEIGHT 1
VIEWPOINT 0 0 0 1 0 0 0
POINTS 838
DATA ascii
-0.11205377 0.78899997 -0.011067039 1.5212199e-38 239 248
-0.1106704 0.78899997 -0.011067039 1.5763537e-38 240 248
-0.10942553 0.79000002 -0.011081067 1.5579144e-38 241 248
-0.1080404 0.79000002 -0.011081067 1.5946484e-38 242 248
-0.10665527 0.79000002 -0.011081067 1.5946484e-38 243 248
-0.10527013 0.79000002 -0.011081067 1.5853571e-38 244 248
-0.10388499 0.79000002 -0.011081067 1.4378082e-38 245 248
-0.10249986 0.79000002 -0.011081067 1.3361759e-38 246 248
-0.10111474 0.79000002 -0.011081067 1.225577e-38 247 248
-0.099729598 0.79000002 -0.011081067 1.253993e-38 248 248
-0.09834446 0.79000002 -0.011081067 1.4476038e-38 249 248
-0.096959338 0.79000002 -0.011081067 1.5484455e-38 250 248
-0.0955742 0.79000002 -0.011081067 1.5207868e-38 251 248
-0.094189063 0.79000002 -0.011081067 1.4841226e-38 252 248
-0.092803933 0.79000002 -0.011081067 1.4288053e-38 253 248
-0.091418803 0.79000002 -0.011081067 1.4011485e-38 254 248
-0.090033665 0.79000002 -0.011081067 1.3734898e-38 255 248
-0.11728922 0.787 -0.01241886 1.6506983e-38 235 249
-0.11590936 0.787 -0.01241886 1.4849217e-38 236 249
-0.11452948 0.787 -0.01241886 1.3650673e-38 237 249
-0.11314961 0.787 -0.01241886 1.5579887e-38 238 249
-0.11205377 0.78899997 -0.012450419 1.5579887e-38 239 249
-0.1106704 0.78899997 -0.012450419 1.6221994e-38 240 249
-0.10928701 0.78899997 -0.012450419 1.6221994e-38 241 249
-0.1080404 0.79000002 -0.0124662 1.6130878e-38 242 249
-0.10652025 0.78899997 -0.012450419 1.5946486e-38 243 249
-0.10513687 0.78899997 -0.012450419 1.5392609e-38 244 249
-0.10375349 0.78899997 -0.012450419 1.3087358e-38 245 249
-0.10249986 0.79000002 -0.0124662 1.1243436e-38 246 249
-0.10111474 0.79000002 -0.0124662 9.8605015e-39 247 249
-0.099603355 0.78899997 -0.012450419 1.1154127e-38 248 249
-0.098219968 0.78899997 -0.012450419 1.4196584e-38 249 249
-0.096959338 0.79000002 -0.0124662 1.5300782e-38 250 249
-0.09545321 0.78899997 -0.012450419 1.5208587e-38 251 249
-0.094069831 0.78899997 -0.012450419 1.5024176e-38 252 249
-0.092803933 0.79000002 -0.0124662 1.4655395e-38 253 249
-0.091418803 0.79000002 -0.0124662 1.4286983e-38 254 249
-0.090033665 0.79000002 -0.0124662 1.4102592e-38 255 249
-0.088648535 0.79000002 -0.0124662 1.2999176e-38 256 249
-0.11728922 0.787 -0.013798732 1.5859816e-38 235 250
-0.11590936 0.787 -0.013798732 1.4663011e-38 236 250
-0.11452948 0.787 -0.013798732 1.4202032e-38 237 250
-0.11314961 0.787 -0.013798732 1.59483e-38 238 250
-0.11205377 0.78899997 -0.013833799 1.59483e-38 239 250
-0.1106704 0.78899997 -0.013833799 1.640711e-38 240 250
-0.10928701 0.78899997 -0.013833799 1.640711e-38 241 250
-0.10790364 0.78899997 -0.013833799 1.6499303e-38 242 250
-0.10652025 0.78899997 -0.013833799 1.6038685e-38 243 250
-0.10513687 0.78899997 -0.013833799 1.5392259e-38 244 250
-0.10375349 0.78899997 -0.013833799 1.2533834e-38 245 250
-0.10237011 0.78899997 -0.013833799 1.0965439e-38 246 250
-0.10098673 0.78899997 -0.013833799 8.6605486e-39 247 250
-0.099603355 0.78899997 -0.013833799 1.0597377e-38 248 250
-0.098219968 0.78899997 -0.013833799 1.410117e-38 249 250
-0.096836597 0.78899997 -0.013833799 1.5300429e-38 250 250
-0.09545321 0.78899997 -0.013833799 1.5577016e-38 251 250
-0.094069831 0.78899997 -0.013833799 1.5207851e-38 252 250
-0.092686452 0.78899997 -0.013833799 1.4930905e-38 253 250
-0.091303073 0.78899997 -0.013833799 1.4562844e-38 254 250
-0.089919694 0.78899997 -0.013833799 1.4102226e-38 255 250
-0.088536315 0.78899997 -0.013833799 1.2814059e-38 256 250
-0.11758729 0.78899997 -0.015217179 1.484566e-38 235 251
-0.11590936 0.787 -0.015178605 1.4385695e-38 236 251
-0.11452948 0.787 -0.015178605 1.4385695e-38 237 251
-0.11314961 0.787 -0.015178605 1.5947934e-38 238 251
-0.11176974 0.787 -0.015178605 1.6224161e-38 239 251
-0.11038986 0.787 -0.015178605 1.6499309e-38 240 251
-0.10900999 0.787 -0.015178605 1.6591506e-38 241 251
-0.10763012 0.787 -0.015178605 1.659115e-38 242 251
-0.10625024 0.787 -0.015178605 1.613053e-38 243 251
-0.10487037 0.787 -0.015178605 1.5484457e-38 244 251
-0.1034905 0.787 -0.015178605 1.2533837e-38 245 251
-0.10211062 0.787 -0.015178605 1.1423193e-38 246 251
-0.10073075 0.787 -0.015178605 1.0316846e-38 247 251
-0.099350877 0.787 -0.015178605 1.0961852e-38 248 251
-0.097971 0.787 -0.015178605 1.4096145e-38 249 251
-0.09659113 0.787 -0.015178605 1.5207512e-38 250 251
-0.09545321 0.78899997 -0.015217179 1.5852881e-38 251 251
-0.094069831 0.78899997 -0.015217179 1.5484082e-38 252 251
-0.092686452 0.78899997 -0.015217179 1.5023104e-38 253 251
-0.091303073 0.78899997 -0.015217179 1.4563921e-38 254 251
-0.089919694 0.78899997 -0.015217179 1.4102942e-38 255 251
-0.088536315 0.78899997 -0.015217179 1.3181754e-38 256 251
-0.087152928 0.78899997 -0.015217179 1.410335e-38 257 251
-0.1156148 0.78500003 -0.016516401 1.4199865e-38 236 252
-0.11423843 0.78500003 -0.016516401 1.4660843e-38 237 252
-0.11286207 0.78500003 -0.016516401 1.5947581e-38 238 252
-0.1114857 0.78500003 -0.016516401 1.6223808e-38 239 252
-0.11010934 0.78500003 -0.016516401 1.6591155e-38 240 252
-0.10873297 0.78500003 -0.016516401 1.6591155e-38 241 252
-0.1073566 0.78500003 -0.016516401 1.668227e-38 242 252
-0.10598023 0.78500003 -0.016516401 1.6313489e-38 243 252
-0.10460387 0.78500003 -0.016516401 1.5668486e-38 244 252
-0.1032275 0.78500003 -0.016516401 1.262639e-38 245 252
-0.10211062 0.787 -0.01655848 1.1788383e-38 246 252
-0.10073075 0.787 -0.01655848 1.1143013e-38 247 252
-0.099098399 0.78500003 -0.016516401 1.1235562e-38 248 252
-0.097722031 0.78500003 -0.016516401 1.4093627e-38 249 252
-0.09659113 0.787 -0.01655848 1.5298614e-38 250 252
-0.09521126 0.787 -0.01655848 1.6312768e-38 251 252
-0.093831383 0.787 -0.01655848 1.5851417e-38 252 252
-0.092451513 0.787 -0.01655848 1.5574828e-38 253 252
-0.091071643 0.787 -0.01655848 1.4930537e-38 254 252
-0.089691758 0.787 -0.01655848 1.4746144e-38 255 252
-0.088311888 0.787 -0.01655848 1.4008984e-38 256 252
-0.086932018 0.787 -0.01655848 1.4101538e-38 257 252
-0.11532024 0.78299999 -0.017847179 1.4566477e-38 236 253
-0.11394738 0.78299999 -0.017847179 1.5211846e-38 237 253
-0.11286207 0.78500003 -0.017892767 1.6314205e-38 238 253
-0.1114857 0.78500003 -0.017892767 1.6498955e-38 239 253
-0.11010934 0.78500003 -0.017892767 1.6682268e-38 240 253
-0.10873297 0.78500003 -0.017892767 1.6682268e-38 241 253
-0.1073566 0.78500003 -0.017892767 1.6498602e-38 242 253
-0.10571022 0.78299999 -0.017847179 1.6314211e-38 243 253
-0.10433736 0.78299999 -0.017847179 1.6035826e-38 244 253
-0.10296449 0.78299999 -0.017847179 1.3177762e-38 245 253
-0.10185113 0.78500003 -0.017892767 1.1881632e-38 246 253
-0.10047477 0.78500003 -0.017892767 1.0590893e-38 247 253
-0.099098399 0.78500003 -0.017892767 1.1328095e-38 248 253
-0.097722031 0.78500003 -0.017892767 1.3909573e-38 249 253
-0.09659113 0.787 -0.017938353 1.5481205e-38 250 253
-0.09521126 0.787 -0.017938353 1.6587552e-38 251 253
-0.093831383 0.787 -0.017938353 1.5668826e-38 252 253
-0.092451513 0.787 -0.017938353 1.5115652e-38 253 253
-0.091071643 0.787 -0.017938353 1.4840142e-38 254 253
-0.08946383 0.78500003 -0.017892767 1.4470999e-38 255 253
-0.088087469 0.78500003 -0.017892767 1.4102239e-38 256 253
-0.086269259 0.78100002 -0.017801592 1.3641261e-38 257 253
-0.084899902 0.78100002 -0.017801592 1.3091384e-38 258 253
-0.11699116 0.78500003 -0.019269135 1.272729e-38 235 254
-0.11532024 0.78299999 -0.019220039 1.4841619e-38 236 254
-0.11394738 0.78299999 -0.019220039 1.5486988e-38 237 254
-0.11257452 0.78299999 -0.019220039 1.5947228e-38 238 254
-0.11120166 0.78299999 -0.019220039 1.6131259e-38 239 254
-0.10982879 0.78299999 -0.019220039 1.6406404e-38 240 254
-0.10845593 0.78299999 -0.019220039 1.6498599e-38 241 254
-0.10708307 0.78299999 -0.019220039 1.6497881e-38 242 254
-0.10571022 0.78299999 -0.019220039 1.6221294e-38 243 254
-0.10433736 0.78299999 -0.019220039 1.5943262e-38 244 254
-0.10296449 0.78299999 -0.019220039 1.3822763e-38 245 254
-0.10159164 0.78299999 -0.019220039 1.2618484e-38 246 254
-0.10021878 0.78299999 -0.019220039 1.1973114e-38 247 254
-0.098845914 0.78299999 -0.019220039 1.1884154e-38 248 254
-0.097473055 0.78299999 -0.019220039 1.3359286e-38 249 254
-0.096100196 0.78299999 -0.019220039 1.5480486e-38 250 254
-0.09521126 0.787 -0.019318225 1.6771225e-38 251 254
-0.093831383 0.787 -0.019318225 1.5851767e-38 252 254
-0.092216566 0.78500003 -0.019269135 1.5667374e-38 253 254
-0.090840198 0.78500003 -0.019269135 1.5207107e-38 254 254
-0.08946383 0.78500003 -0.019269135 1.493016e-38 255 254
-0.087863036 0.78299999 -0.019220039 1.4561044e-38 256 254
-0.086269259 0.78100002 -0.019170946 1.3823479e-38 257 254
-0.084899902 0.78100002 -0.019170946 1.3179614e-38 258 254
-0.11699116 0.78500003 -0.020645501 1.2176269e-38 235 255
-0.11532024 0.78299999 -0.0205929 1.5575221e-38 236 255
-0.11394738 0.78299999 -0.0205929 1.6128395e-38 237 255
-0.11257452 0.78299999 -0.0205929 1.6130896e-38 238 255
-0.11120166 0.78299999 -0.0205929 1.6223092e-38 239 255
-0.10982879 0.78299999 -0.0205929 1.6223089e-38 240 255
-0.10845593 0.78299999 -0.0205929 1.6223089e-38 241 255
-0.10708307 0.78299999 -0.0205929 1.6314205e-38 242 255
-0.10544021 0.78100002 -0.020540299 1.6037979e-38 243 255
-0.10407086 0.78100002 -0.020540299 1.6036898e-38 244 255
-0.1027015 0.78100002 -0.020540299 1.4100791e-38 245 255
-0.10133215 0.78100002 -0.020540299 1.3265639e-38 246 255
-0.099962793 0.78100002 -0.020540299 1.2344042e-38 247 255
-0.098593444 0.78100002 -0.020540299 1.1885938e-38 248 255
-0.097224087 0.78100002 -0.020540299 1.3176677e-38 249 255
-0.095854737 0.78100002 -0.020540299 1.5388646e-38 250 255
-0.09448538 0.78100002 -0.020540299 1.6771581e-38 251 255
-0.09311603 0.78100002 -0.020540299 1.5944684e-38 252 255
-0.091981612 0.78299999 -0.0205929 1.5483706e-38 253 255
-0.090608761 0.78299999 -0.0205929 1.5116e-38 254 255
-0.089235894 0.78299999 -0.0205929 1.4747216e-38 255 255
-0.087863036 0.78299999 -0.0205929 1.4653595e-38 256 255
-0.086269259 0.78100002 -0.020540299 1.4100421e-38 257 255
-0.084899902 0.78100002 -0.020540299 1.3364713e-38 258 255
-0.083530553 0.78100002 -0.020540299 1.4747648e-38 259 255
-0.11669309 0.78299999 -0.021965759 1.2450688e-38 235 256
-0.11502568 0.78100002 -0.021909652 1.5392262e-38 236 256
-0.11365632 0.78100002 -0.021909652 1.5852881e-38 237 256
-0.11228697 0.78100002 -0.021909652 1.6038347e-38 238 256
-0.11091762 0.78100002 -0.021909652 1.6222738e-38 239 256
-0.10954827 0.78100002 -0.021909652 1.6497881e-38 240 256
-0.10817891 0.78100002 -0.021909652 1.6497881e-38 241 256
-0.10680956 0.78100002 -0.021909652 1.6405685e-38 242 256
-0.10544021 0.78100002 -0.021909652 1.6221294e-38 243 256
-0.10407086 0.78100002 -0.021909652 1.594578e-38 244 256
-0.10256999 0.77999997 -0.021881599 1.4009672e-38 245 256
-0.10120239 0.77999997 -0.021881599 1.3267787e-38 246 256
-0.099962793 0.78100002 -0.021909652 1.2438026e-38 247 256
-0.098593444 0.78100002 -0.021909652 1.2805367e-38 248 256
-0.097224087 0.78100002 -0.021909652 1.400391e-38 249 256
-0.095854737 0.78100002 -0.021909652 1.5572312e-38 250 256
-0.09448538 0.78100002 -0.021909652 1.6770495e-38 251 256
-0.09311603 0.78100002 -0.021909652 1.6036517e-38 252 256
-0.091746673 0.78100002 -0.021909652 1.5851767e-38 253 256
-0.090377316 0.78100002 -0.021909652 1.5666653e-38 254 256
-0.089007966 0.78100002 -0.021909652 1.5482261e-38 255 256
-0.087863036 0.78299999 -0.021965759 1.5021655e-38 256 256
-0.086269259 0.78100002 -0.021909652 1.4560678e-38 257 256
-0.084791191 0.77999997 -0.021881599 1.3365417e-38 258 256
-0.083423592 0.77999997 -0.021881599 1.3826393e-38 259 256
-0.11806595 0.78299999 -0.02333862 1.4846333e-38 234 257
-0.11669309 0.78299999 -0.02333862 1.2633277e-38 235 257
-0.11502568 0.78100002 -0.023279008 1.5301135e-38 236 257
-0.11365632 0.78100002 -0.023279008 1.5669918e-38 237 257
-0.11228697 0.78100002 -0.023279008 1.5946505e-38 238 257
-0.11091762 0.78100002 -0.023279008 1.6130896e-38 239 257
-0.10954827 0.78100002 -0.023279008 1.6314211e-38 240 257
-0.10817891 0.78100002 -0.023279008 1.6314211e-38 241 257
-0.10680956 0.78100002 -0.023279008 1.6130174e-38 242 257
-0.10530519 0.77999997 -0.023249198 1.5945783e-38 243 257
-0.1039376 0.77999997 -0.023249198 1.6129081e-38 244 257
-0.10256999 0.77999997 -0.023249198 1.4653592e-38 245 257
-0.10120239 0.77999997 -0.023249198 1.3636554e-38 246 257
-0.099834792 0.77999997 -0.023249198 1.2714956e-38 247 257
-0.098467186 0.77999997 -0.023249198 1.3266695e-38 248 257
-0.097099595 0.77999997 -0.023249198 1.4373403e-38 249 257
-0.095731996 0.77999997 -0.023249198 1.5664507e-38 250 257
-0.094364397 0.77999997 -0.023249198 1.6586464e-38 251 257
-0.092996791 0.77999997 -0.023249198 1.6037233e-38 252 257
-0.091746673 0.78100002 -0.023279008 1.5945038e-38 253 257
-0.090377316 0.78100002 -0.023279008 1.6127262e-38 254 257
-0.089007966 0.78100002 -0.023279008 1.594287e-38 255 257
-0.087638609 0.78100002 -0.023279008 1.5115277e-38 256 257
-0.086269259 0.78100002 -0.023279008 1.4654299e-38 257 257
-0.084791191 0.77999997 -0.023249198 1.3733461e-38 258 257
-0.083423592 0.77999997 -0.023249198 1.3456872e-38 259 257
-0.082055993 0.77999997 -0.023249198 1.38286e-38 260 257
-0.11776438 0.78100002 -0.024648361 1.4754131e-38 234 258
-0.11639503 0.78100002 -0.024648361 1.2449239e-38 235 258
-0.11502568 0.78100002 -0.024648361 1.4657561e-38 236 258
-0.11365632 0.78100002 -0.024648361 1.530293e-38 237 258
-0.11228697 0.78100002 -0.024648361 1.5945786e-38 238 258
-0.11077559 0.77999997 -0.024616797 1.6130177e-38 239 258
-0.10940799 0.77999997 -0.024616797 1.6313487e-38 240 258
-0.10804039 0.77999997 -0.024616797 1.6498237e-38 241 258
-0.10667279 0.77999997 -0.024616797 1.6131249e-38 242 258
-0.10530519 0.77999997 -0.024616797 1.5946499e-38 243 258
-0.1039376 0.77999997 -0.024616797 1.6129081e-38 244 258
-0.10256999 0.77999997 -0.024616797 1.5206766e-38 245 258
-0.1009429 0.778 -0.024553679 1.4650336e-38 246 258
-0.099578805 0.778 -0.024553679 1.3359597e-38 247 258
-0.098214716 0.778 -0.024553679 1.4096087e-38 248 258
-0.097099595 0.77999997 -0.024616797 1.4833652e-38 249 258
-0.095731996 0.77999997 -0.024616797 1.5849255e-38 250 258
-0.094364397 0.77999997 -0.024616797 1.6770851e-38 251 258
-0.092996791 0.77999997 -0.024616797 1.6037952e-38 252 258
-0.091629192 0.77999997 -0.024616797 1.6037952e-38 253 258
-0.090261593 0.77999997 -0.024616797 1.566953e-38 254 258
-0.089007966 0.78100002 -0.024648361 1.548478e-38 255 258
-0.087638609 0.78100002 -0.024648361 1.5116356e-38 256 258
-0.086269259 0.78100002 -0.024648361 1.4563182e-38 257 258
-0.084791191 0.77999997 -0.024616797 1.4286242e-38 258 258
-0.083423592 0.77999997 -0.024616797 1.3825264e-38 259 258
-0.082055993 0.77999997 -0.024616797 1.3184286e-38 260 258
-0.080688395 0.77999997 -0.024616797 1.5396983e-38 261 258
-0.11776438 0.78100002 -0.026017714 1.4661937e-38 234 259
-0.11639503 0.78100002 -0.026017714 1.208046e-38 235 259
-0.11487839 0.77999997 -0.025984399 1.4289504e-38 236 259
-0.11351079 0.77999997 -0.025984399 1.4934874e-38 237 259
-0.11228697 0.78100002 -0.026017714 1.5578092e-38 238 259
-0.11077559 0.77999997 -0.025984399 1.5762483e-38 239 259
-0.10940799 0.77999997 -0.025984399 1.613054e-38 240 259
-0.10804039 0.77999997 -0.025984399 1.613054e-38 241 259
-0.10667279 0.77999997 -0.025984399 1.6406391e-38 242 259
-0.10530519 0.77999997 -0.025984399 1.6314196e-38 243 259
-0.10367109 0.778 -0.025917772 1.6680807e-38 244 259
-0.10230699 0.778 -0.025917772 1.6035438e-38 245 259
-0.10068341 0.77600002 -0.025851147 1.5755958e-38 246 259
-0.099322826 0.77600002 -0.025851147 1.4557416e-38 247 259
-0.097962238 0.77600002 -0.025851147 1.4190077e-38 248 259
-0.096850619 0.778 -0.025917772 1.4927643e-38 249 259
-0.095486529 0.778 -0.025917772 1.594145e-38 250 259
-0.094364397 0.77999997 -0.025984399 1.6770851e-38 251 259
-0.092996791 0.77999997 -0.025984399 1.6405293e-38 252 259
-0.091629192 0.77999997 -0.025984399 1.6405293e-38 253 259
-0.090261593 0.77999997 -0.025984399 1.6220896e-38 254 259
-0.088893995 0.77999997 -0.025984399 1.5852473e-38 255 259
-0.087526396 0.77999997 -0.025984399 1.5575882e-38 256 259
-0.086158797 0.77999997 -0.025984399 1.5207101e-38 257 259
-0.084791191 0.77999997 -0.025984399 1.5021992e-38 258 259
-0.083423592 0.77999997 -0.025984399 1.4284427e-38 259 259
-0.082055993 0.77999997 -0.025984399 1.2999161e-38 260 259
-0.080688395 0.77999997 -0.025984399 1.4750517e-38 261 259
-0.11776438 0.78100002 -0.027387068 1.4662655e-38 234 260
-0.11639503 0.78100002 -0.027387068 1.1804949e-38 235 260
-0.11487839 0.77999997 -0.027351998 1.4380971e-38 236 260
-0.11351079 0.77999997 -0.027351998 1.5026341e-38 237 260
-0.1121432 0.77999997 -0.027351998 1.5760669e-38 238 260
-0.11077559 0.77999997 -0.027351998 1.6129092e-38 239 260
-0.10940799 0.77999997 -0.027351998 1.6403884e-38 240 260
-0.10804039 0.77999997 -0.027351998 1.668083e-38 241 260
-0.10639928 0.778 -0.027281865 1.640676e-38 242 260
-0.10503518 0.778 -0.027281865 1.6498955e-38 243 260
-0.10367109 0.778 -0.027281865 1.6865564e-38 244 260
-0.102044 0.77600002 -0.027211733 1.6497142e-38 245 260
-0.10068341 0.77600002 -0.027211733 1.6770479e-38 246 260
-0.099322826 0.77600002 -0.027211733 1.6309861e-38 247 260
-0.097962238 0.77600002 -0.027211733 1.5390792e-38 248 260
-0.09660165 0.77600002 -0.027211733 1.5390792e-38 249 260
-0.095486529 0.778 -0.027281865 1.6402791e-38 250 260
-0.094122432 0.778 -0.027281865 1.686413e-38 251 260
-0.092758343 0.778 -0.027281865 1.631418e-38 252 260
-0.091394253 0.778 -0.027281865 1.631418e-38 253 260
-0.090030156 0.778 -0.027281865 1.5854993e-38 254 260
-0.088666067 0.778 -0.027281865 1.5670243e-38 255 260
-0.08730197 0.778 -0.027281865 1.5485131e-38 256 260
-0.086158797 0.77999997 -0.027351998 1.5116709e-38 257 260
-0.084573783 0.778 -0.027281865 1.5298949e-38 258 260
-0.083209693 0.778 -0.027281865 1.4561384e-38 259 260
-0.082055993 0.77999997 -0.027351998 1.3182823e-38 260 260
-0.080688395 0.77999997 -0.027351998 1.36438e-38 261 260
-0.079320796 0.77999997 -0.027351998 1.4017331e-38 262 260
-0.11776438 0.78100002 -0.028756421 1.493925e-38 234 261
-0.11624599 0.77999997 -0.028719598 1.1712403e-38 235 261
-0.11487839 0.77999997 -0.028719598 1.3829249e-38 236 261
-0.11351079 0.77999997 -0.028719598 1.4566814e-38 237 261
-0.1121432 0.77999997 -0.028719598 1.5392978e-38 238 261
-0.11077559 0.77999997 -0.028719598 1.5669566e-38 239 261
-0.10940799 0.77999997 -0.028719598 1.5945433e-38 240 261
-0.10804039 0.77999997 -0.028719598 1.6129824e-38 241 261
-0.10639928 0.778 -0.028645959 1.6406757e-38 242 261
-0.10503518 0.778 -0.028645959 1.6498953e-38 243 261
-0.10367109 0.778 -0.028645959 1.6774445e-38 244 261
-0.102044 0.77600002 -0.028572321 1.6682249e-38 245 261
-0.10068341 0.77600002 -0.028572321 1.6958466e-38 246 261
-0.099322826 0.77600002 -0.028572321 1.6405293e-38 247 261
-0.097962238 0.77600002 -0.028572321 1.5944684e-38 248 261
-0.09660165 0.77600002 -0.028572321 1.5944684e-38 249 261
-0.095241062 0.77600002 -0.028572321 1.6588259e-38 250 261
-0.094122432 0.778 -0.028645959 1.6957041e-38 251 261
-0.092758343 0.778 -0.028645959 1.659076e-38 252 261
-0.091394253 0.778 -0.028645959 1.6498564e-38 253 261
-0.090030156 0.778 -0.028645959 1.6222328e-38 254 261
-0.088666067 0.778 -0.028645959 1.5945741e-38 255 261
-0.08730197 0.778 -0.028645959 1.5852824e-38 256 261
-0.086158797 0.77999997 -0.028719598 1.5668431e-38 257 261
-0.084573783 0.778 -0.028645959 1.5849952e-38 258 261
-0.083209693 0.778 -0.028645959 1.5481168e-38 259 261
-0.082055993 0.77999997 -0.028719598 1.3917845e-38 260 261
-0.080688395 0.77999997 -0.028719598 1.3641617e-38 261 261
-0.079320796 0.77999997 -0.028719598 1.3738921e-38 262 261
-0.11776438 0.78100002 -0.030125774 1.4941049e-38 234 262
-0.11624599 0.77999997 -0.030087199 1.1068833e-38 235 262
-0.11487839 0.77999997 -0.030087199 1.3367918e-38 236 262
-0.11351079 0.77999997 -0.030087199 1.4382068e-38 237 262
-0.1121432 0.77999997 -0.030087199 1.530006e-38 238 262
-0.11077559 0.77999997 -0.030087199 1.5668842e-38 239 262
-0.10912746 0.778 -0.03001005 1.6036182e-38 240 262
-0.10776336 0.778 -0.03001005 1.631277e-38 241 262
-0.10612576 0.77600002 -0.029932907 1.6406041e-38 242 262
-0.10476518 0.77600002 -0.029932907 1.6682268e-38 243 262
-0.10340459 0.77600002 -0.029932907 1.659115e-38 244 262
-0.101781 0.77399999 -0.029855758 1.659115e-38 245 262
-0.10042392 0.77399999 -0.029855758 1.6774451e-38 246 262
-0.099066831 0.77399999 -0.029855758 1.6774451e-38 247 262
-0.09770976 0.77399999 -0.029855758 1.649894e-38 248 262
-0.096352674 0.77399999 -0.029855758 1.649894e-38 249 262
-0.094995596 0.77399999 -0.029855758 1.7049957e-38 250 262
-0.093880482 0.77600002 -0.029932907 1.7049957e-38 251 262
-0.092519894 0.77600002 -0.029932907 1.6774798e-38 252 262
-0.091159306 0.77600002 -0.029932907 1.6590407e-38 253 262
-0.089798726 0.77600002 -0.029932907 1.6314896e-38 254 262
-0.088438138 0.77600002 -0.029932907 1.5761722e-38 255 262
-0.086853117 0.77399999 -0.029855758 1.5853195e-38 256 262
-0.085496038 0.77399999 -0.029855758 1.5576608e-38 257 262
-0.084138952 0.77399999 -0.029855758 1.5575529e-38 258 262
-0.082781881 0.77399999 -0.029855758 1.5207107e-38 259 262
-0.081424795 0.77399999 -0.029855758 1.474651e-38 260 262
-0.080067717 0.77399999 -0.029855758 1.4193337e-38 261 262
-0.078710638 0.77399999 -0.029855758 1.3277202e-38 262 262
-0.11776438 0.78100002 -0.031495128 1.5033257e-38 234 263
-0.11624599 0.77999997 -0.031454798 1.0884454e-38 235 263
-0.11487839 0.77999997 -0.031454798 1.2999861e-38 236 263
-0.11351079 0.77999997 -0.031454798 1.4106207e-38 237 263
-0.1121432 0.77999997 -0.031454798 1.5207862e-38 238 263
-0.11049156 0.778 -0.031374145 1.5392612e-38 239 263
-0.10912746 0.778 -0.031374145 1.566812e-38 240 263
-0.10776336 0.778 -0.031374145 1.6036901e-38 241 263
-0.10612576 0.77600002 -0.031293493 1.6313489e-38 242 263
-0.10449515 0.77399999 -0.031212838 1.6497881e-38 243 263
-0.10313807 0.77399999 -0.031212838 1.6682268e-38 244 263
-0.101781 0.77399999 -0.031212838 1.6774465e-38 245 263
-0.10042392 0.77399999 -0.031212838 1.704996e-38 246 263
-0.099066831 0.77399999 -0.031212838 1.704996e-38 247 263
-0.09758351 0.773 -0.03117251 1.6866645e-38 248 263
-0.09622819 0.773 -0.03117251 1.6866645e-38 249 263
-0.094872862 0.773 -0.03117251 1.6866645e-38 250 263
-0.093638517 0.77399999 -0.031212838 1.6958841e-38 251 263
-0.092281438 0.77399999 -0.031212838 1.686735e-38 252 263
-0.090924352 0.77399999 -0.031212838 1.6775154e-38 253 263
-0.089567274 0.77399999 -0.031212838 1.6866268e-38 254 263
-0.088210195 0.77399999 -0.031212838 1.640529e-38 255 263
-0.086853117 0.77399999 -0.031212838 1.631345e-38 256 263
-0.085496038 0.77399999 -0.031212838 1.6036865e-38 257 263
-0.084138952 0.77399999 -0.031212838 1.5943586e-38 258 263
-0.082674921 0.773 -0.03117251 1.5667359e-38 259 263
-0.0813196 0.773 -0.03117251 1.5207117e-38 260 263
-0.080067717 0.77399999 -0.031212838 1.4746497e-38 261 263
-0.078710638 0.77399999 -0.031212838 1.3735274e-38 262 263
-0.11776438 0.78100002 -0.032864477 1.5308771e-38 234 264
-0.11624599 0.77999997 -0.032822397 1.1252163e-38 235 264
-0.11458384 0.778 -0.032738242 1.2631447e-38 236 264
-0.11321974 0.778 -0.032738242 1.3645599e-38 237 264
-0.11185565 0.778 -0.032738242 1.4839085e-38 238 264
-0.11049156 0.778 -0.032738242 1.5207868e-38 239 264
-0.10884693 0.77600002 -0.032654081 1.5483376e-38 240 264
-0.10748634 0.77600002 -0.032654081 1.5759962e-38 241 264
-0.10585223 0.77399999 -0.032569919 1.5945077e-38 242 264
-0.10449515 0.77399999 -0.032569919 1.6129827e-38 243 264
-0.10313807 0.77399999 -0.032569919 1.6406051e-38 244 264
-0.10164949 0.773 -0.032527838 1.6498606e-38 245 264
-0.10029417 0.773 -0.032527838 1.6591155e-38 246 264
-0.098938845 0.773 -0.032527838 1.6683351e-38 247 264
-0.09758351 0.773 -0.032527838 1.6774462e-38 248 264
-0.09622819 0.773 -0.032527838 1.6867016e-38 249 264
-0.094872862 0.773 -0.032527838 1.7142877e-38 250 264
-0.093517542 0.773 -0.032527838 1.7142877e-38 251 264
-0.092162207 0.773 -0.032527838 1.6959913e-38 252 264
-0.090924352 0.77399999 -0.032569919 1.6775521e-38 253 264
-0.089567274 0.77399999 -0.032569919 1.6958817e-38 254 264
-0.088096231 0.773 -0.032527838 1.668259e-38 255 264
-0.086740904 0.773 -0.032527838 1.6498549e-38 256 264
-0.085385576 0.773 -0.032527838 1.6313798e-38 257 264
-0.084030248 0.773 -0.032527838 1.6128685e-38 258 264
-0.082674921 0.773 -0.032527838 1.5760261e-38 259 264
-0.0813196 0.773 -0.032527838 1.5758829e-38 260 264
-0.079964265 0.773 -0.032527838 1.5482602e-38 261 264
-0.078608945 0.773 -0.032527838 1.4469927e-38 262 264
-0.077253617 0.773 -0.032527838 1.4285536e-38 263 264
-0.11624599 0.77999997 -0.034189999 1.1712792e-38 235 265
-0.11458384 0.778 -0.034102332 1.2630368e-38 236 265
-0.11321974 0.778 -0.034102332 1.3460129e-38 237 265
-0.11185565 0.778 -0.034102332 1.4930189e-38 238 265
-0.11049156 0.778 -0.034102332 1.5206416e-38 239 265
-0.1085664 0.77399999 -0.033927001 1.5574475e-38 240 265
-0.10720932 0.77399999 -0.033927001 1.5851064e-38 241 265
-0.10585223 0.77399999 -0.033927001 1.5943981e-38 242 265
-0.10449515 0.77399999 -0.033927001 1.6220928e-38 243 265
-0.10313807 0.77399999 -0.033927001 1.6406038e-38 244 265
-0.10164949 0.773 -0.033883166 1.6498234e-38 245 265
-0.10029417 0.773 -0.033883166 1.6498234e-38 246 265
-0.098938845 0.773 -0.033883166 1.6774462e-38 247 265
-0.09758351 0.773 -0.033883166 1.695849e-38 248 265
-0.09622819 0.773 -0.033883166 1.7142521e-38 249 265
-0.094627403 0.77100003 -0.033795502 1.7235073e-38 250 265
-0.093275577 0.77100003 -0.033795502 1.7235073e-38 251 265
-0.091923758 0.77100003 -0.033795502 1.6960278e-38 252 265
-0.09057194 0.77100003 -0.033795502 1.6776247e-38 253 265
-0.089451559 0.773 -0.033883166 1.6867714e-38 254 265
-0.088096231 0.773 -0.033883166 1.6683321e-38 255 265
-0.086740904 0.773 -0.033883166 1.6682237e-38 256 265
-0.085164659 0.77100003 -0.033795502 1.6497846e-38 257 265
-0.08381284 0.77100003 -0.033795502 1.6221252e-38 258 265
-0.082674921 0.773 -0.033883166 1.5945025e-38 259 265
-0.0813196 0.773 -0.033883166 1.5759555e-38 260 265
-0.079964265 0.773 -0.033883166 1.5575163e-38 261 265
-0.078608945 0.773 -0.033883166 1.4655748e-38 262 265
-0.077253617 0.773 -0.033883166 1.4378801e-38 263 265
-0.075898297 0.773 -0.033883166 1.3369029e-38 264 265
-0.11594792 0.778 -0.035466425 1.2173417e-38 235 266
-0.11458384 0.778 -0.035466425 1.2537103e-38 236 266
-0.1129287 0.77600002 -0.035375252 1.3182473e-38 237 266
-0.11156811 0.77600002 -0.035375252 1.4379532e-38 238 266
-0.11020752 0.77600002 -0.035375252 1.465576e-38 239 266
-0.1085664 0.77399999 -0.03528408 1.5115299e-38 240 266
-0.10720932 0.77399999 -0.03528408 1.5391526e-38 241 266
-0.10571548 0.773 -0.035238493 1.5484455e-38 242 266
-0.10436015 0.773 -0.035238493 1.5853237e-38 243 266
-0.10300483 0.773 -0.035238493 1.5946149e-38 244 266
-0.10164949 0.773 -0.035238493 1.6038344e-38 245 266
-0.10029417 0.773 -0.035238493 1.6314208e-38 246 266
-0.098938845 0.773 -0.035238493 1.6406404e-38 247 266
-0.09758351 0.773 -0.035238493 1.6591152e-38 248 266
-0.095979221 0.77100003 -0.03514732 1.6683348e-38 249 266
-0.094627403 0.77100003 -0.03514732 1.6959212e-38 250 266
-0.093275577 0.77100003 -0.03514732 1.6959212e-38 251 266
-0.091685303 0.76899999 -0.035056144 1.6960284e-38 252 266
-0.090336986 0.76899999 -0.035056144 1.6775894e-38 253 266
-0.089220122 0.77100003 -0.03514732 1.6959194e-38 254 266
-0.087868303 0.77100003 -0.03514732 1.6866998e-38 255 266
-0.086292051 0.76899999 -0.035056144 1.6958098e-38 256 266
-0.084943734 0.76899999 -0.035056144 1.6773707e-38 257 266
-0.08381284 0.77100003 -0.03514732 1.6588945e-38 258 266
-0.082461022 0.77100003 -0.03514732 1.6404195e-38 259 266
-0.081109203 0.77100003 -0.03514732 1.6310914e-38 260 266
-0.079757385 0.77100003 -0.03514732 1.6310914e-38 261 266
-0.078405559 0.77100003 -0.03514732 1.5850671e-38 262 266
-0.077053741 0.77100003 -0.03514732 1.5574445e-38 263 266
-0.075701922 0.77100003 -0.03514732 1.4010772e-38 264 266
-0.074542962 0.773 -0.035238493 1.4563946e-38 265 266
-0.11594792 0.778 -0.036830518 1.2728039e-38 235 267
-0.11458384 0.778 -0.036830518 1.2630021e-38 236 267
-0.1129287 0.77600002 -0.036735836 1.2537466e-38 237 267
-0.11156811 0.77600002 -0.036735836 1.4286252e-38 238 267
-0.10992347 0.77399999 -0.036641158 1.4563197e-38 239 267
-0.1085664 0.77399999 -0.036641158 1.5113852e-38 240 267
-0.1070708 0.773 -0.036593821 1.5298243e-38 241 267
-0.10571548 0.773 -0.036593821 1.5574826e-38 242 267
-0.10409014 0.77100003 -0.036499143 1.5851773e-38 243 267
-0.10273832 0.77100003 -0.036499143 1.6220548e-38 244 267
-0.10138649 0.77100003 -0.036499143 1.6404941e-38 245 267
-0.10003468 0.77100003 -0.036499143 1.6497858e-38 246 267
-0.098682858 0.77100003 -0.036499143 1.6497858e-38 247 267
-0.09733104 0.77100003 -0.036499143 1.6681536e-38 248 267
-0.095730245 0.76899999 -0.036404461 1.6957763e-38 249 267
-0.094381928 0.76899999 -0.036404461 1.695849e-38 250 267
-0.093033619 0.76899999 -0.036404461 1.7142521e-38 251 267
-0.091685303 0.76899999 -0.036404461 1.6959209e-38 252 267
-0.090336986 0.76899999 -0.036404461 1.6959209e-38 253 267
-0.088988677 0.76899999 -0.036404461 1.6959559e-38 254 267
-0.087640367 0.76899999 -0.036404461 1.6867364e-38 255 267
-0.086292051 0.76899999 -0.036404461 1.6683319e-38 256 267
-0.084943734 0.76899999 -0.036404461 1.6499287e-38 257 267
-0.08381284 0.77100003 -0.036499143 1.6222701e-38 258 267
-0.082461022 0.77100003 -0.036499143 1.6130504e-38 259 267
-0.081109203 0.77100003 -0.036499143 1.5945035e-38 260 267
-0.079757385 0.77100003 -0.036499143 1.5852839e-38 261 267
-0.078405559 0.77100003 -0.036499143 1.548478e-38 262 267
-0.077053741 0.77100003 -0.036499143 1.5392583e-38 263 267
-0.075701922 0.77100003 -0.036499143 1.5024902e-38 264 267
-0.074350104 0.77100003 -0.036499143 1.5208934e-38 265 267
-0.073187642 0.773 -0.036593821 1.4657618e-38 266 267
-0.11428928 0.77600002 -0.038096428 1.2447799e-38 236 268
-0.1129287 0.77600002 -0.038096428 1.1618037e-38 237 268
-0.11156811 0.77600002 -0.038096428 1.3183154e-38 238 268
-0.10992347 0.77399999 -0.037998237 1.3828523e-38 239 268
-0.1085664 0.77399999 -0.037998237 1.4562128e-38 240 268
-0.1070708 0.773 -0.037949149 1.4930552e-38 241 268
-0.10571548 0.773 -0.037949149 1.4839789e-38 242 268
-0.10409014 0.77100003 -0.037850961 1.520857e-38 243 268
-0.10273832 0.77100003 -0.037850961 1.5668821e-38 244 268
-0.1011235 0.76899999 -0.03775277 1.5853571e-38 245 268
-0.09977518 0.76899999 -0.03775277 1.6129446e-38 246 268
-0.098682858 0.77100003 -0.037850961 1.6129446e-38 247 268
-0.09733104 0.77100003 -0.037850961 1.6313489e-38 248 268
-0.095730245 0.76899999 -0.03775277 1.6497881e-38 249 268
-0.094381928 0.76899999 -0.03775277 1.6774467e-38 250 268
-0.093033619 0.76899999 -0.03775277 1.6866663e-38 251 268
-0.091446854 0.76700002 -0.037654586 1.6683348e-38 252 268
-0.090102047 0.76700002 -0.037654586 1.6683348e-38 253 268
-0.088988677 0.76899999 -0.03775277 1.6867367e-38 254 268
-0.087412432 0.76700002 -0.037654586 1.6867367e-38 255 268
-0.086067624 0.76700002 -0.037654586 1.6775154e-38 256 268
-0.084722824 0.76700002 -0.037654586 1.66826e-38 257 268
-0.083595425 0.76899999 -0.03775277 1.668259e-38 258 268
-0.082247108 0.76899999 -0.03775277 1.649784e-38 259 268
-0.080898799 0.76899999 -0.03775277 1.6405999e-38 260 268
-0.079550482 0.76899999 -0.03775277 1.6221249e-38 261 268
-0.078405559 0.77100003 -0.037850961 1.5945375e-38 262 268
-0.077053741 0.77100003 -0.037850961 1.5945375e-38 263 268
-0.075701922 0.77100003 -0.037850961 1.5760641e-38 264 268
-0.074350104 0.77100003 -0.037850961 1.5576608e-38 265 268
-0.072998285 0.77100003 -0.037850961 1.4748707e-38 266 268
-0.071646459 0.77100003 -0.037850961 1.5301879e-38 267 268
-0.11428928 0.77600002 -0.039457016 1.2540363e-38 236 269
-0.1129287 0.77600002 -0.039457016 1.0973037e-38 237 269
-0.11156811 0.77600002 -0.039457016 1.2630706e-38 238 269
-0.10992347 0.77399999 -0.039355319 1.3644498e-38 239 269
-0.1085664 0.77399999 -0.039355319 1.446993e-38 240 269
-0.1070708 0.773 -0.039304473 1.4746157e-38 241 269
-0.10571548 0.773 -0.039304473 1.4931258e-38 242 269
-0.10409014 0.77100003 -0.03920278 1.511565e-38 243 269
-0.10273832 0.77100003 -0.03920278 1.5208564e-38 244 269
-0.1011235 0.76899999 -0.039101087 1.5485511e-38 245 269
-0.09977518 0.76899999 -0.039101087 1.6128725e-38 246 269
-0.098682858 0.77100003 -0.03920278 1.603653e-38 247 269
-0.09733104 0.77100003 -0.03920278 1.6129092e-38 248 269
-0.095730245 0.76899999 -0.039101087 1.6313842e-38 249 269
-0.094381928 0.76899999 -0.039101087 1.6498234e-38 250 269
-0.093033619 0.76899999 -0.039101087 1.6774462e-38 251 269
-0.091446854 0.76700002 -0.038999394 1.6867013e-38 252 269
-0.090102047 0.76700002 -0.038999394 1.6867013e-38 253 269
-0.088757239 0.76700002 -0.038999394 1.6867367e-38 254 269
-0.087412432 0.76700002 -0.038999394 1.6959562e-38 255 269
-0.086067624 0.76700002 -0.038999394 1.6867714e-38 256 269
-0.084722824 0.76700002 -0.038999394 1.6683321e-38 257 269
-0.083378009 0.76700002 -0.038999394 1.66826e-38 258 269
-0.082247108 0.76899999 -0.039101087 1.6590404e-38 259 269
-0.080898799 0.76899999 -0.039101087 1.6314893e-38 260 269
-0.079550482 0.76899999 -0.039101087 1.6130501e-38 261 269
-0.078202173 0.76899999 -0.039101087 1.6038658e-38 262 269
-0.076853856 0.76899999 -0.039101087 1.6038658e-38 263 269
-0.07550554 0.76899999 -0.039101087 1.5762076e-38 264 269
-0.074157231 0.76899999 -0.039101087 1.566988e-38 265 269
-0.072808921 0.76899999 -0.039101087 1.5393681e-38 266 269
-0.07127475 0.76700002 -0.038999394 1.5485877e-38 267 269
-0.06992995 0.76700002 -0.038999394 1.46569e-38 268 269
-0.1129287 0.77600002 -0.0408176 1.088157e-38 237 270
-0.11156811 0.77600002 -0.0408176 1.235269e-38 238 270
-0.10992347 0.77399999 -0.040712398 1.3366842e-38 239 270
-0.1085664 0.77399999 -0.040712398 1.401147e-38 240 270
-0.1070708 0.773 -0.0406598 1.401147e-38 241 270
-0.10571548 0.773 -0.0406598 1.4746866e-38 242 270
-0.10409014 0.77100003 -0.040554602 1.4839063e-38 243 270
-0.10273832 0.77100003 -0.040554602 1.5024176e-38 244 270
-0.1011235 0.76899999 -0.0404494 1.539296e-38 245 270
-0.09977518 0.76899999 -0.0404494 1.5760669e-38 246 270
-0.098682858 0.77100003 -0.040554602 1.5760669e-38 247 270
-0.09733104 0.77100003 -0.040554602 1.5853939e-38 248 270
-0.095730245 0.76899999 -0.0404494 1.5946136e-38 249 270
-0.094381928 0.76899999 -0.0404494 1.6497508e-38 250 270
-0.093033619 0.76899999 -0.0404494 1.6681899e-38 251 270
-0.091446854 0.76700002 -0.040344197 1.6866295e-38 252 270
-0.090102047 0.76700002 -0.040344197 1.6866295e-38 253 270
-0.088757239 0.76700002 -0.040344197 1.6774815e-38 254 270
-0.087412432 0.76700002 -0.040344197 1.6867011e-38 255 270
-0.086067624 0.76700002 -0.040344197 1.686772e-38 256 270
-0.084722824 0.76700002 -0.040344197 1.6775165e-38 257 270
-0.083378009 0.76700002 -0.040344197 1.6774801e-38 258 270
-0.08203321 0.76700002 -0.040344197 1.6682605e-38 259 270
-0.080688395 0.76700002 -0.040344197 1.6590404e-38 260 270
-0.079343595 0.76700002 -0.040344197 1.6314177e-38 261 270
-0.077998787 0.76700002 -0.040344197 1.6223051e-38 262 270
-0.07665398 0.76700002 -0.040344197 1.6223051e-38 263 270
-0.075309172 0.76700002 -0.040344197 1.6038655e-38 264 270
-0.073964365 0.76700002 -0.040344197 1.5854624e-38 265 270
-0.072619557 0.76700002 -0.040344197 1.5762439e-38 266 270
-0.071181826 0.76599997 -0.040291596 1.5486212e-38 267 270
-0.069838762 0.76599997 -0.040291596 1.5207877e-38 268 270
-0.068495713 0.76599997 -0.040291596 1.5484823e-38 269 270
-0.11156811 0.77600002 -0.042178184 1.1799889e-38 238 271
-0.10992347 0.77399999 -0.042069476 1.2353061e-38 239 271
-0.1085664 0.77399999 -0.042069476 1.3551218e-38 240 271
-0.1070708 0.773 -0.042015124 1.3919999e-38 241 271
-0.10571548 0.773 -0.042015124 1.437845e-38 242 271
-0.10436015 0.773 -0.042015124 1.4470646e-38 243 271
-0.10273832 0.77100003 -0.04190642 1.465576e-38 244 271
-0.1011235 0.76899999 -0.041797712 1.4932706e-38 245 271
-0.09977518 0.76899999 -0.041797712 1.4841954e-38 246 271
-0.098426871 0.76899999 -0.041797712 1.5118539e-38 247 271
-0.097078554 0.76899999 -0.041797712 1.5578072e-38 248 271
-0.095481269 0.76700002 -0.041689005 1.5670268e-38 249 271
-0.094136469 0.76700002 -0.041689005 1.6221647e-38 250 271
-0.092791654 0.76700002 -0.041689005 1.6406038e-38 251 271
-0.091446854 0.76700002 -0.041689005 1.6682268e-38 252 271
-0.090102047 0.76700002 -0.041689005 1.6682268e-38 253 271
-0.088757239 0.76700002 -0.041689005 1.6683701e-38 254 271
-0.087412432 0.76700002 -0.041689005 1.6683701e-38 255 271
-0.085955404 0.76599997 -0.041634649 1.677625e-38 256 271
-0.084612355 0.76599997 -0.041634649 1.6684054e-38 257 271
-0.083269298 0.76599997 -0.041634649 1.6867001e-38 258 271
-0.081926249 0.76599997 -0.041634649 1.6682249e-38 259 271
-0.080583192 0.76599997 -0.041634649 1.6590404e-38 260 271
-0.079240143 0.76599997 -0.041634649 1.6590404e-38 261 271
-0.077897087 0.76599997 -0.041634649 1.6407442e-38 262 271
-0.076354161 0.764 -0.041525945 1.6315247e-38 263 271
-0.075014614 0.764 -0.041525945 1.6131207e-38 264 271
-0.073867925 0.76599997 -0.041634649 1.6038653e-38 265 271
-0.072524875 0.76599997 -0.041634649 1.5945741e-38 266 271
-0.070995972 0.764 -0.041525945 1.5945741e-38 267 271
-0.069656424 0.764 -0.041525945 1.5669176e-38 268 271
-0.068316877 0.764 -0.041525945 1.5484427e-38 269 271
-0.067152664 0.76599997 -0.041634649 1.456576e-38 270 271
-0.11156811 0.77600002 -0.043538772 1.0695709e-38 238 272
-0.11020752 0.77600002 -0.043538772 1.1341078e-38 239 272
-0.1085664 0.77399999 -0.043426558 1.2906567e-38 240 272
-0.1070708 0.773 -0.043370452 1.3459741e-38 241 272
-0.10571548 0.773 -0.043370452 1.428517e-38 242 272
-0.10436015 0.773 -0.043370452 1.4561397e-38 243 272
-0.10273832 0.77100003 -0.043258239 1.4471352e-38 244 272
-0.1011235 0.76899999 -0.043146025 1.4655745e-38 245 272
-0.09977518 0.76899999 -0.043146025 1.4840505e-38 246 272
-0.098170884 0.76700002 -0.043033812 1.5209287e-38 247 272
-0.096826084 0.76700002 -0.043033812 1.5669545e-38 248 272
-0.095481269 0.76700002 -0.043033812 1.5669545e-38 249 272
-0.094136469 0.76700002 -0.043033812 1.6312747e-38 250 272
-0.092791654 0.76700002 -0.043033812 1.6404944e-38 251 272
-0.091446854 0.76700002 -0.043033812 1.6681533e-38 252 272
-0.090102047 0.76700002 -0.043033812 1.6865564e-38 253 272
-0.088641517 0.76599997 -0.042977702 1.6774448e-38 254 272
-0.08729846 0.76599997 -0.042977702 1.6866645e-38 255 272
-0.085955404 0.76599997 -0.042977702 1.6866645e-38 256 272
-0.084612355 0.76599997 -0.042977702 1.6958841e-38 257 272
-0.083269298 0.76599997 -0.042977702 1.6591853e-38 258 272
-0.081926249 0.76599997 -0.042977702 1.6591853e-38 259 272
-0.080583192 0.76599997 -0.042977702 1.6498934e-38 260 272
-0.079240143 0.76599997 -0.042977702 1.6498934e-38 261 272
-0.077897087 0.76599997 -0.042977702 1.6499287e-38 262 272
-0.076354161 0.764 -0.042865492 1.6499287e-38 263 272
-0.075014614 0.764 -0.042865492 1.6131934e-38 264 272
-0.073675066 0.764 -0.042865492 1.6039739e-38 265 272
-0.072335519 0.764 -0.042865492 1.6038658e-38 266 272
-0.070995972 0.764 -0.042865492 1.5854268e-38 267 272
-0.069656424 0.764 -0.042865492 1.5670599e-38 268 272
-0.068316877 0.764 -0.042865492 1.5486568e-38 269 272
-0.06697733 0.764 -0.042865492 1.5301132e-38 270 272
-0.11020752 0.77600002 -0.044899363 1.1247456e-38 239 273
-0.1085664 0.77399999 -0.044783637 1.2444885e-38 240 273
-0.1070708 0.773 -0.044725779 1.3182809e-38 241 273
-0.10571548 0.773 -0.044725779 1.3825282e-38 242 273
-0.10436015 0.773 -0.044725779 1.4009675e-38 243 273
-0.10273832 0.77100003 -0.044610061 1.4102586e-38 244 273
-0.1011235 0.76899999 -0.044494338 1.4379532e-38 245 273
-0.09977518 0.76899999 -0.044494338 1.4655044e-38 246 273
-0.098170884 0.76700002 -0.04437862 1.5023467e-38 247 273
-0.096826084 0.76700002 -0.04437862 1.4933425e-38 248 273
-0.095481269 0.76700002 -0.04437862 1.5117817e-38 249 273
-0.094136469 0.76700002 -0.04437862 1.5852864e-38 250 273
-0.092791654 0.76700002 -0.04437862 1.6036895e-38 251 273
-0.091327623 0.76599997 -0.044320758 1.6221291e-38 252 273
-0.089984566 0.76599997 -0.044320758 1.6313487e-38 253 273
-0.088641517 0.76599997 -0.044320758 1.6406757e-38 254 273
-0.08729846 0.76599997 -0.044320758 1.6406757e-38 255 273
-0.085955404 0.76599997 -0.044320758 1.6682618e-38 256 273
-0.084612355 0.76599997 -0.044320758 1.6774815e-38 257 273
-0.083269298 0.76599997 -0.044320758 1.6682971e-38 258 273
-0.081926249 0.76599997 -0.044320758 1.6682971e-38 259 273
-0.080372795 0.764 -0.04420504 1.6683324e-38 260 273
-0.079033248 0.764 -0.04420504 1.6498934e-38 261 273
-0.077693708 0.764 -0.04420504 1.6682956e-38 262 273
-0.076354161 0.764 -0.04420504 1.6682956e-38 263 273
-0.075014614 0.764 -0.04420504 1.6590745e-38 264 273
-0.073675066 0.764 -0.04420504 1.6498549e-38 265 273
-0.072335519 0.764 -0.04420504 1.6405628e-38 266 273
-0.070995972 0.764 -0.04420504 1.6405628e-38 267 273
-0.069656424 0.764 -0.04420504 1.622088e-38 268 273
-0.068316877 0.764 -0.04420504 1.622088e-38 269 273
-0.066802002 0.76200002 -0.044089317 1.5852826e-38 270 273
-0.065465957 0.76200002 -0.044089317 1.5668075e-38 271 273
-0.064129919 0.76200002 -0.044089317 1.530113e-38 272 273
-0.1085664 0.77399999 -0.046140719 1.2625684e-38 240 274
-0.1070708 0.773 -0.046081103 1.308666e-38 241 274
-0.10571548 0.773 -0.046081103 1.345722e-38 242 274
-0.10409014 0.77100003 -0.045961879 1.3641611e-38 243 274
-0.10273832 0.77100003 -0.045961879 1.4192973e-38 244 274
-0.1011235 0.76899999 -0.045842651 1.4469201e-38 245 274
-0.09977518 0.76899999 -0.045842651 1.4563185e-38 246 274
-0.098170884 0.76700002 -0.045723427 1.4747216e-38 247 274
-0.096826084 0.76700002 -0.045723427 1.5298949e-38 248 274
-0.095481269 0.76700002 -0.045723427 1.5575176e-38 249 274
-0.094136469 0.76700002 -0.045723427 1.5759937e-38 250 274
-0.092670672 0.76599997 -0.045663811 1.5944687e-38 251 274
-0.091327623 0.76599997 -0.045663811 1.6220198e-38 252 274
-0.089984566 0.76599997 -0.045663811 1.6404591e-38 253 274
-0.088641517 0.76599997 -0.045663811 1.6497139e-38 254 274
-0.08729846 0.76599997 -0.045663811 1.6681531e-38 255 274
-0.085955404 0.76599997 -0.045663811 1.6590404e-38 256 274
-0.084612355 0.76599997 -0.045663811 1.66826e-38 257 274
-0.083269298 0.76599997 -0.045663811 1.6774801e-38 258 274
-0.081712343 0.764 -0.045544583 1.6682605e-38 259 274
-0.080372795 0.764 -0.045544583 1.6682971e-38 260 274
-0.079033248 0.764 -0.045544583 1.6682971e-38 261 274
-0.077693708 0.764 -0.045544583 1.6865562e-38 262 274
-0.076154284 0.76200002 -0.045425359 1.6865562e-38 263 274
-0.074818239 0.76200002 -0.045425359 1.6499287e-38 264 274
-0.073482201 0.76200002 -0.045425359 1.6407092e-38 265 274
-0.072146162 0.76200002 -0.045425359 1.6407442e-38 266 274
-0.070810117 0.76200002 -0.045425359 1.6223051e-38 267 274
-0.069474079 0.76200002 -0.045425359 1.6130132e-38 268 274
-0.068048611 0.76099998 -0.045365743 1.5945741e-38 269 274
-0.066714332 0.76099998 -0.045365743 1.5945022e-38 270 274
-0.065380037 0.76099998 -0.045365743 1.5945022e-38 271 274
-0.064045757 0.76099998 -0.045365743 1.5945035e-38 272 274
-0.06271147 0.76099998 -0.045365743 1.5852839e-38 273 274
-0.061377186 0.76099998 -0.045365743 1.5669216e-38 274 274
-0.10842613 0.773 -0.047436431 1.1982478e-38 240 275
-0.1070708 0.773 -0.047436431 1.1982478e-38 241 275
-0.10571548 0.773 -0.047436431 1.2811866e-38 242 275
-0.10409014 0.77100003 -0.047313701 1.3181009e-38 243 275
-0.10273832 0.77100003 -0.047313701 1.3732733e-38 244 275
-0.1011235 0.76899999 -0.047190964 1.3824929e-38 245 275
-0.099515699 0.76700002 -0.047068235 1.4010744e-38 246 275
-0.098170884 0.76700002 -0.047068235 1.410294e-38 247 275
-0.096826084 0.76700002 -0.047068235 1.4746147e-38 248 275
-0.095481269 0.76700002 -0.047068235 1.5114571e-38 249 275
-0.094013728 0.76599997 -0.047006864 1.5208214e-38 250 275
-0.092670672 0.76599997 -0.047006864 1.5392606e-38 251 275
-0.091327623 0.76599997 -0.047006864 1.5851785e-38 252 275
-0.089984566 0.76599997 -0.047006864 1.6036177e-38 253 275
-0.088641517 0.76599997 -0.047006864 1.6128725e-38 254 275
-0.08729846 0.76599997 -0.047006864 1.6220922e-38 255 275
-0.085955404 0.76599997 -0.047006864 1.6221994e-38 256 275
-0.084391437 0.764 -0.046884131 1.631419e-38 257 275
-0.08305189 0.764 -0.046884131 1.6406744e-38 258 275
-0.081712343 0.764 -0.046884131 1.6406744e-38 259 275
-0.080162399 0.76200002 -0.046761397 1.6406391e-38 260 275
-0.07882636 0.76200002 -0.046761397 1.6406391e-38 261 275
-0.077490322 0.76200002 -0.046761397 1.6682255e-38 262 275
-0.076154284 0.76200002 -0.046761397 1.6682255e-38 263 275
-0.074720047 0.76099998 -0.046700031 1.6865915e-38 264 275
-0.07338576 0.76099998 -0.046700031 1.695811e-38 265 275
-0.072051473 0.76099998 -0.046700031 1.6683303e-38 266 275
-0.070717193 0.76099998 -0.046700031 1.6498912e-38 267 275
-0.069382899 0.76099998 -0.046700031 1.6589659e-38 268 275
-0.068048611 0.76099998 -0.046700031 1.6405628e-38 269 275
-0.066714332 0.76099998 -0.046700031 1.6313432e-38 270 275
-0.065380037 0.76099998 -0.046700031 1.6313432e-38 271 275
-0.064045757 0.76099998 -0.046700031 1.6037221e-38 272 275
-0.06271147 0.76099998 -0.046700031 1.6037221e-38 273 275
-0.061215881 0.759 -0.046577301 1.5851773e-38 274 275
-0.059885096 0.759 -0.046577301 1.5851773e-38 275 275
-0.058554318 0.759 -0.046577301 1.5485919e-38 276 275
-0.1070708 0.773 -0.048791755 1.1614424e-38 241 276
-0.10544196 0.77100003 -0.04866552 1.2442725e-38 242 276
-0.10409014 0.77100003 -0.04866552 1.2903343e-38 243 276
-0.10247181 0.76899999 -0.048539277 1.3364305e-38 244 276
-0.1011235 0.76899999 -0.048539277 1.3732728e-38 245 276
-0.099515699 0.76700002 -0.048413042 1.3917828e-38 246 276
-0.098170884 0.76700002 -0.048413042 1.3917828e-38 247 276
-0.096826084 0.76700002 -0.048413042 1.4469554e-38 248 276
-0.095481269 0.76700002 -0.048413042 1.4746141e-38 249 276
-0.094013728 0.76599997 -0.048349917 1.4931258e-38 250 276
-0.092670672 0.76599997 -0.048349917 1.511565e-38 251 276
-0.091327623 0.76599997 -0.048349917 1.5483359e-38 252 276
-0.089749627 0.764 -0.048223678 1.5759587e-38 253 276
-0.088410079 0.764 -0.048223678 1.5943615e-38 254 276
-0.087070532 0.764 -0.048223678 1.6219842e-38 255 276
-0.085730985 0.764 -0.048223678 1.6129081e-38 256 276
-0.084391437 0.764 -0.048223678 1.6313474e-38 257 276
-0.08305189 0.764 -0.048223678 1.6313471e-38 258 276
-0.081498444 0.76200002 -0.048097439 1.6497861e-38 259 276
-0.080162399 0.76200002 -0.048097439 1.6497505e-38 260 276
-0.07882636 0.76200002 -0.048097439 1.6497505e-38 261 276
-0.077490322 0.76200002 -0.048097439 1.668118e-38 262 276
-0.076154284 0.76200002 -0.048097439 1.6865211e-38 263 276
-0.074720047 0.76099998 -0.048034318 1.6774448e-38 264 276
-0.07338576 0.76099998 -0.048034318 1.6774448e-38 265 276
-0.072051473 0.76099998 -0.048034318 1.6775151e-38 266 276
-0.070717193 0.76099998 -0.048034318 1.659076e-38 267 276
-0.069382899 0.76099998 -0.048034318 1.668294e-38 268 276
-0.068048611 0.76099998 -0.048034318 1.6590745e-38 269 276
-0.066714332 0.76099998 -0.048034318 1.6589661e-38 270 276
-0.065380037 0.76099998 -0.048034318 1.640563e-38 271 276
-0.064045757 0.76099998 -0.048034318 1.6221602e-38 272 276
-0.06271147 0.76099998 -0.048034318 1.6221602e-38 273 276
-0.061215881 0.759 -0.047908079 1.6220896e-38 274 276
-0.059885096 0.759 -0.047908079 1.6220896e-38 275 276
-0.058554318 0.759 -0.047908079 1.6036898e-38 276 276
-0.057449725 0.76200002 -0.048097439 1.6036898e-38 277 276
-0.056113683 0.76200002 -0.048097439 1.5394089e-38 278 276
-0.05470575 0.76099998 -0.048034318 1.6039458e-38 279 276
-0.053371463 0.76099998 -0.048034318 1.6134216e-38 280 276
-0.10651675 0.76899999 -0.04988759 1.1429327e-38 241 277
-0.10516843 0.76899999 -0.04988759 1.2072876e-38 242 277
-0.10382012 0.76899999 -0.04988759 1.2442018e-38 243 277
