# .PCD v.7 - Point Cloud Data file format
FIELDS x y z rgb imX imY
SIZE 4 4 4 4 4 4
TYPE F F F F F F
COUNT 1 1 1 1 1 1
WIDTH 845
HEIGHT 1
VIEWPOINT 0 0 0 1 0 0 0
POINTS 845
DATA ascii
-0.01674784 0.796 -0.0013956534 1.8984647e-38 308 241
-0.015352187 0.796 -0.0013956534 1.9076844e-38 309 241
-0.013956533 0.796 -0.0013956534 1.9261579e-38 310 241
-0.01256088 0.796 -0.0013956534 1.9353774e-38 311 241
-0.011165227 0.796 -0.0013956534 1.9630715e-38 312 241
-0.0097695729 0.796 -0.0013956534 1.9907301e-38 313 241
-0.0083739199 0.796 -0.0013956534 2.0182088e-38 314 241
-0.0069782664 0.796 -0.0013956534 1.9813664e-38 315 241
-0.0055826134 0.796 -0.0013956534 1.9446308e-38 316 241
-0.0041869599 0.796 -0.0013956534 1.9446308e-38 317 241
-0.0027913067 0.796 -0.0013956534 1.9264062e-38 318 241
-0.0013956534 0.796 -0.0013956534 1.9448452e-38 319 241
0 0.796 -0.0013956534 1.9448096e-38 320 241
0.0013956534 0.796 -0.0013956534 1.9540292e-38 321 241
0.0027913067 0.796 -0.0013956534 1.972397e-38 322 241
0.0041869599 0.796 -0.0013956534 1.9908002e-38 323 241
0.0055826134 0.796 -0.0013956534 1.9723616e-38 324 241
0.0069782664 0.796 -0.0013956534 1.9723616e-38 325 241
0.0083739199 0.796 -0.0013956534 1.9631421e-38 326 241
0.0097695729 0.796 -0.0013956534 1.9631421e-38 327 241
0.011165227 0.796 -0.0013956534 1.9631421e-38 328 241
0.01256088 0.796 -0.0013956534 1.9631421e-38 329 241
0.013956533 0.796 -0.0013956534 1.9723263e-38 330 241
0.015352187 0.796 -0.0013956534 1.9631068e-38 331 241
0.01674784 0.796 -0.0013956534 1.9723619e-38 332 241
0.018143492 0.796 -0.0013956534 1.9631424e-38 333 241
0.019539146 0.796 -0.0013956534 1.9538872e-38 334 241
0.0209348 0.796 -0.0013956534 1.9354481e-38 335 241
0.022386558 0.79799998 -0.0013991599 1.9077894e-38 336 241
0.02378572 0.79799998 -0.0013991599 1.8801307e-38 337 241
0.025184877 0.79799998 -0.0013991599 1.8890606e-38 338 241
0.026584039 0.79799998 -0.0013991599 1.7784259e-38 339 241
0.027983198 0.79799998 -0.0013991599 1.704488e-38 340 241
0.029382357 0.79799998 -0.0013991599 1.5293522e-38 341 241
0.030781519 0.79799998 -0.0013991599 1.4006017e-38 342 241
0.032180678 0.79799998 -0.0013991599 1.2807474e-38 343 241
0.033579841 0.79799998 -0.0013991599 1.3630404e-38 344 241
0.034978997 0.79799998 -0.0013991599 1.3353458e-38 345 241
0.036378156 0.79799998 -0.0013991599 1.3171979e-38 346 241
0.03777732 0.79799998 -0.0013991599 1.4001739e-38 347 241
0.039176479 0.79799998 -0.0013991599 1.4467431e-38 348 241
0.040575638 0.79799998 -0.0013991599 1.575817e-38 349 241
0.041974798 0.79799998 -0.0013991599 1.6772695e-38 350 241
0.043482669 0.80000001 -0.0014026667 1.751026e-38 351 241
0.044885334 0.80000001 -0.0014026667 1.7787919e-38 352 241
0.046056557 0.796 -0.0013956534 1.7971951e-38 353 241
0.047452211 0.796 -0.0013956534 1.7879023e-38 354 241
0.048847865 0.796 -0.0013956534 1.7602076e-38 355 241
0.050243519 0.796 -0.0013956534 1.7325862e-38 356 241
0.051639169 0.796 -0.0013956534 1.7418059e-38 357 241
0.053034827 0.796 -0.0013956534 1.7326973e-38 358 241
-0.023666494 0.79400003 -0.0027842934 1.8800643e-38 303 242
-0.022274347 0.79400003 -0.0027842934 1.8983942e-38 304 242
-0.020829599 0.792 -0.0027772798 1.9260169e-38 305 242
-0.01944096 0.792 -0.0027772798 1.9536371e-38 306 242
-0.018097907 0.79400003 -0.0027842934 1.9536371e-38 307 242
-0.016705759 0.79400003 -0.0027842934 1.9814733e-38 308 242
-0.015352187 0.796 -0.0027913067 1.9814733e-38 309 242
-0.013956533 0.796 -0.0027913067 1.9815089e-38 310 242
-0.01256088 0.796 -0.0027913067 1.9907285e-38 311 242
-0.011165227 0.796 -0.0027913067 1.9907282e-38 312 242
-0.0097695729 0.796 -0.0027913067 1.9999479e-38 313 242
-0.0083739199 0.796 -0.0027913067 2.0458655e-38 314 242
-0.0069782664 0.796 -0.0027913067 1.9998035e-38 315 242
-0.0055826134 0.796 -0.0027913067 1.9722522e-38 316 242
-0.0041869599 0.796 -0.0027913067 1.9722522e-38 317 242
-0.0027913067 0.796 -0.0027913067 1.9539929e-38 318 242
-0.0013956534 0.796 -0.0027913067 1.9539929e-38 319 242
0 0.796 -0.0027913067 1.9722891e-38 320 242
0.0013956534 0.796 -0.0027913067 1.9722891e-38 321 242
0.0027913067 0.796 -0.0027913067 1.9538869e-38 322 242
0.0041869599 0.796 -0.0027913067 1.9631424e-38 323 242
0.0055826134 0.796 -0.0027913067 1.9631068e-38 324 242
0.0069782664 0.796 -0.0027913067 1.9631068e-38 325 242
0.0083739199 0.796 -0.0027913067 1.9447392e-38 326 242
0.0097695729 0.796 -0.0027913067 1.9447392e-38 327 242
0.011165227 0.796 -0.0027913067 1.9263364e-38 328 242
0.01256088 0.796 -0.0027913067 1.9263364e-38 329 242
0.013956533 0.796 -0.0027913067 1.944632e-38 330 242
0.015352187 0.796 -0.0027913067 1.9538875e-38 331 242
0.01674784 0.796 -0.0027913067 1.944632e-38 332 242
0.018143492 0.796 -0.0027913067 1.944632e-38 333 242
0.019539146 0.796 -0.0027913067 1.9354125e-38 334 242
0.0209348 0.796 -0.0027913067 1.9354125e-38 335 242
0.022386558 0.79799998 -0.0027983198 1.9262282e-38 336 242
0.02378572 0.79799998 -0.0027983198 1.8986054e-38 337 242
0.025184877 0.79799998 -0.0027983198 1.9260843e-38 338 242
0.026584039 0.79799998 -0.0027983198 1.8799505e-38 339 242
0.027983198 0.79799998 -0.0027983198 1.8429283e-38 340 242
0.029382357 0.79799998 -0.0027983198 1.7415133e-38 341 242
0.030781519 0.79799998 -0.0027983198 1.6400255e-38 342 242
0.032180678 0.79799998 -0.0027983198 1.5386103e-38 343 242
0.033495679 0.796 -0.0027913067 1.5198102e-38 344 242
0.03489133 0.796 -0.0027913067 1.3815168e-38 345 242
0.036378156 0.79799998 -0.0027983198 1.2893231e-38 346 242
0.03777732 0.79799998 -0.0027983198 1.2155666e-38 347 242
0.039176479 0.79799998 -0.0027983198 1.1973112e-38 348 242
0.040575638 0.79799998 -0.0027983198 1.3079458e-38 349 242
0.041974798 0.79799998 -0.0027983198 1.3268182e-38 350 242
0.043373957 0.79799998 -0.0027983198 1.4282332e-38 351 242
0.044773117 0.79799998 -0.0027983198 1.4656857e-38 352 242
0.046056557 0.796 -0.0027913067 1.5855401e-38 353 242
0.047452211 0.796 -0.0027913067 1.7326918e-38 354 242
0.048847865 0.796 -0.0027913067 1.7326918e-38 355 242
0.050243519 0.796 -0.0027913067 1.7141808e-38 356 242
0.051639169 0.796 -0.0027913067 1.7049254e-38 357 242
0.052901573 0.79400003 -0.0027842934 1.6775575e-38 358 242
0.054293722 0.79400003 -0.0027842934 1.6960326e-38 359 242
0.055826131 0.796 -0.0027913067 1.7052917e-38 360 242
0.057221789 0.796 -0.0027913067 1.7421339e-38 361 242
-0.03725658 0.787 -0.0041396199 1.9076902e-38 293 243
-0.035876706 0.787 -0.0041396199 1.9260214e-38 294 243
-0.034496833 0.787 -0.0041396199 1.9168017e-38 295 243
-0.033116959 0.787 -0.0041396199 1.916837e-38 296 243
-0.031737085 0.787 -0.0041396199 1.916837e-38 297 243
-0.030434359 0.78899997 -0.0041501396 1.9076522e-38 298 243
-0.029087799 0.79000002 -0.0041554002 1.8800295e-38 299 243
-0.027702667 0.79000002 -0.0041554002 1.8891745e-38 300 243
-0.026317533 0.79000002 -0.0041554002 1.879955e-38 301 243
-0.024932399 0.79000002 -0.0041554002 1.8983916e-38 302 243
-0.023547266 0.79000002 -0.0041554002 1.9168307e-38 303 243
-0.022218239 0.792 -0.00416592 1.9261212e-38 304 243
-0.020829599 0.792 -0.00416592 1.9629636e-38 305 243
-0.01944096 0.792 -0.00416592 2.0089878e-38 306 243
-0.018097907 0.79400003 -0.0041764397 2.0274271e-38 307 243
-0.016705759 0.79400003 -0.0041764397 2.0368613e-38 308 243
-0.015313613 0.79400003 -0.0041764397 2.0368613e-38 309 243
-0.013921468 0.79400003 -0.0041764397 2.0184948e-38 310 243
-0.01256088 0.796 -0.0041869599 2.0184948e-38 311 243
-0.011165227 0.796 -0.0041869599 2.009168e-38 312 243
-0.0097695729 0.796 -0.0041869599 1.9999126e-38 313 243
-0.0083528794 0.79400003 -0.0041764397 2.0182441e-38 314 243
-0.0069607338 0.79400003 -0.0041764397 1.9906213e-38 315 243
-0.0055826134 0.796 -0.0041869599 1.9722535e-38 316 243
-0.0041869599 0.796 -0.0041869599 1.9630339e-38 317 243
-0.0027913067 0.796 -0.0041869599 1.944703e-38 318 243
-0.0013956534 0.796 -0.0041869599 1.944703e-38 319 243
0 0.796 -0.0041869599 1.9445958e-38 320 243
0.0013956534 0.796 -0.0041869599 1.9629989e-38 321 243
0.0027913067 0.796 -0.0041869599 1.9170813e-38 322 243
0.0041869599 0.796 -0.0041869599 1.9263008e-38 323 243
0.0055826134 0.796 -0.0041869599 1.9263364e-38 324 243
0.0069782664 0.796 -0.0041869599 1.917081e-38 325 243
0.0083739199 0.796 -0.0041869599 1.9354478e-38 326 243
0.0097695729 0.796 -0.0041869599 1.9262282e-38 327 243
0.011165227 0.796 -0.0041869599 1.9077894e-38 328 243
0.01256088 0.796 -0.0041869599 1.9262285e-38 329 243
0.013956533 0.796 -0.0041869599 1.9078264e-38 330 243
0.015352187 0.796 -0.0041869599 1.9078264e-38 331 243
0.01674784 0.796 -0.0041869599 1.9077548e-38 332 243
0.018143492 0.796 -0.0041869599 1.9077548e-38 333 243
0.019539146 0.796 -0.0041869599 1.8984995e-38 334 243
0.0209348 0.796 -0.0041869599 1.9077192e-38 335 243
0.022386558 0.79799998 -0.0041974802 1.8893518e-38 336 243
0.02378572 0.79799998 -0.0041974802 1.8893518e-38 337 243
0.025184877 0.79799998 -0.0041974802 1.9077548e-38 338 243
0.026584039 0.79799998 -0.0041974802 1.8985351e-38 339 243
0.027983198 0.79799998 -0.0041974802 1.916866e-38 340 243
0.029382357 0.79799998 -0.0041974802 1.8800238e-38 341 243
0.030781519 0.79799998 -0.0041974802 1.8889199e-38 342 243
0.032100026 0.796 -0.0041869599 1.8059799e-38 343 243
0.033495679 0.796 -0.0041869599 1.7504097e-38 344 243
0.03489133 0.796 -0.0041869599 1.6213358e-38 345 243
0.036286984 0.796 -0.0041869599 1.4461633e-38 346 243
0.037682641 0.796 -0.0041869599 1.3078697e-38 347 243
0.039078292 0.796 -0.0041869599 1.1694353e-38 348 243
0.040473945 0.796 -0.0041869599 1.1417407e-38 349 243
0.041974798 0.79799998 -0.0041974802 1.0592344e-38 350 243
0.043373957 0.79799998 -0.0041974802 1.0868572e-38 351 243
0.044660907 0.796 -0.0041869599 1.0048849e-38 352 243
0.046056557 0.796 -0.0041869599 1.382923e-38 353 243
0.047452211 0.796 -0.0041869599 1.7140709e-38 354 243
0.048847865 0.796 -0.0041869599 1.8062667e-38 355 243
0.050243519 0.796 -0.0041869599 1.7510584e-38 356 243
0.051639169 0.796 -0.0041869599 1.7234357e-38 357 243
0.052901573 0.79400003 -0.0041764397 1.6683714e-38 358 243
0.054293722 0.79400003 -0.0041764397 1.6775909e-38 359 243
0.055826131 0.796 -0.0041869599 1.6316401e-38 360 243
0.057221789 0.796 -0.0041869599 1.6777379e-38 361 243
0.058617435 0.796 -0.0041869599 1.760357e-38 362 243
0.060013093 0.796 -0.0041869599 1.7971992e-38 363 243
-0.03863645 0.787 -0.005519493 1.9169095e-38 292 244
-0.03725658 0.787 -0.005519493 1.9076899e-38 293 244
-0.035876706 0.787 -0.005519493 1.92602e-38 294 244
-0.034496833 0.787 -0.005519493 1.9167646e-38 295 244
-0.033116959 0.787 -0.005519493 1.9168355e-38 296 244
-0.031737085 0.787 -0.005519493 1.9076159e-38 297 244
-0.030434359 0.78899997 -0.0055335197 1.907686e-38 298 244
-0.02905098 0.78899997 -0.0055335197 1.907686e-38 299 244
-0.027667599 0.78899997 -0.0055335197 1.9261579e-38 300 244
-0.026284218 0.78899997 -0.0055335197 1.9077548e-38 301 244
-0.024900839 0.78899997 -0.0055335197 1.9537427e-38 302 244
-0.023517458 0.78899997 -0.0055335197 1.990621e-38 303 244
-0.022162134 0.79000002 -0.0055405335 2.0182791e-38 304 244
-0.020777 0.79000002 -0.0055405335 2.0182791e-38 305 244
-0.019391866 0.79000002 -0.0055405335 1.9999829e-38 306 244
-0.018006733 0.79000002 -0.0055405335 1.9999829e-38 307 244
-0.016621601 0.79000002 -0.0055405335 2.0092381e-38 308 244
-0.015313613 0.79400003 -0.0055685868 2.0276412e-38 309 244
-0.013921468 0.79400003 -0.0055685868 2.0276062e-38 310 244
-0.01252932 0.79400003 -0.0055685868 2.0276062e-38 311 244
-0.011137174 0.79400003 -0.0055685868 2.0182797e-38 312 244
-0.0097450269 0.79400003 -0.0055685868 2.0090241e-38 313 244
-0.0083528794 0.79400003 -0.0055685868 1.9906929e-38 314 244
-0.0069607338 0.79400003 -0.0055685868 1.9722537e-38 315 244
-0.0055826134 0.796 -0.0055826134 1.9630339e-38 316 244
-0.0041869599 0.796 -0.0055826134 1.9446308e-38 317 244
-0.0027913067 0.796 -0.0055826134 1.9446311e-38 318 244
-0.0013956534 0.796 -0.0055826134 1.9353756e-38 319 244
0 0.79400003 -0.0055685868 1.9353756e-38 320 244
0.0013921467 0.79400003 -0.0055685868 1.9261559e-38 321 244
0.0027913067 0.796 -0.0055826134 1.8803105e-38 322 244
0.0041764397 0.79400003 -0.0055685868 1.8803105e-38 323 244
0.0055685868 0.79400003 -0.0055685868 1.8986417e-38 324 244
0.0069607338 0.79400003 -0.0055685868 1.8802026e-38 325 244
0.0083528794 0.79400003 -0.0055685868 1.8894221e-38 326 244
0.0097450269 0.79400003 -0.0055685868 1.8802026e-38 327 244
0.011137174 0.79400003 -0.0055685868 1.8526165e-38 328 244
0.01252932 0.79400003 -0.0055685868 1.8526165e-38 329 244
0.013921468 0.79400003 -0.0055685868 1.8800954e-38 330 244
0.015313613 0.79400003 -0.0055685868 1.8708758e-38 331 244
0.016705759 0.79400003 -0.0055685868 1.8249579e-38 332 244
0.018143492 0.796 -0.0055826134 1.8249579e-38 333 244
0.019539146 0.796 -0.0055826134 1.8249585e-38 334 244
0.0209348 0.796 -0.0055826134 1.8249585e-38 335 244
0.022330454 0.796 -0.0055826134 1.8249229e-38 336 244
0.023726106 0.796 -0.0055826134 1.8249229e-38 337 244
0.02512176 0.796 -0.0055826134 1.8800957e-38 338 244
0.026517414 0.796 -0.0055826134 1.8708761e-38 339 244
0.027913066 0.796 -0.0055826134 1.8708758e-38 340 244
0.029308718 0.796 -0.0055826134 1.8708758e-38 341 244
0.030704373 0.796 -0.0055826134 1.8616209e-38 342 244
0.032100026 0.796 -0.0055826134 1.8432178e-38 343 244
0.033495679 0.796 -0.0055826134 1.8430745e-38 344 244
0.03489133 0.796 -0.0055826134 1.8154518e-38 345 244
0.036195815 0.79400003 -0.0055685868 1.7326202e-38 346 244
0.037587963 0.79400003 -0.0055685868 1.6403887e-38 347 244
0.039078292 0.796 -0.0055826134 1.594041e-38 348 244
0.040473945 0.796 -0.0055826134 1.5110648e-38 349 244
0.041869599 0.796 -0.0055826134 1.4465279e-38 350 244
0.043265253 0.796 -0.0055826134 1.3727714e-38 351 244
0.044660907 0.796 -0.0055826134 1.2627456e-38 352 244
0.046056557 0.796 -0.0055826134 1.5208934e-38 353 244
0.047452211 0.796 -0.0055826134 1.6956691e-38 354 244
0.048847865 0.796 -0.0055826134 1.8063038e-38 355 244
0.050243519 0.796 -0.0055826134 1.7419111e-38 356 244
0.051639169 0.796 -0.0055826134 1.723472e-38 357 244
0.052901573 0.79400003 -0.0055685868 1.668442e-38 358 244
0.054293722 0.79400003 -0.0055685868 1.6592224e-38 359 244
0.055826131 0.796 -0.0055826134 1.6407853e-38 360 244
0.057221789 0.796 -0.0055826134 1.6500048e-38 361 244
0.058617435 0.796 -0.0055826134 1.6498641e-38 362 244
0.060013093 0.796 -0.0055826134 1.6775227e-38 363 244
0.061254453 0.79400003 -0.0055685868 1.8150272e-38 364 244
-0.040016327 0.787 -0.0068993662 1.9077265e-38 291 245
-0.03863645 0.787 -0.0068993662 1.9260211e-38 292 245
-0.03725658 0.787 -0.0068993662 1.9168014e-38 293 245
-0.035876706 0.787 -0.0068993662 1.9168352e-38 294 245
-0.034496833 0.787 -0.0068993662 1.9076156e-38 295 245
-0.033116959 0.787 -0.0068993662 1.9076488e-38 296 245
-0.031737085 0.787 -0.0068993662 1.9076488e-38 297 245
-0.030434359 0.78899997 -0.0069168997 1.9262282e-38 298 245
-0.02905098 0.78899997 -0.0069168997 1.9446674e-38 299 245
-0.027667599 0.78899997 -0.0069168997 1.9723594e-38 300 245
-0.026284218 0.78899997 -0.0069168997 1.9723594e-38 301 245
-0.024900839 0.78899997 -0.0069168997 2.0090579e-38 302 245
-0.023517458 0.78899997 -0.0069168997 2.0551557e-38 303 245
-0.022134079 0.78899997 -0.0069168997 2.0276412e-38 304 245
-0.0207507 0.78899997 -0.0069168997 2.0092381e-38 305 245
-0.019367319 0.78899997 -0.0069168997 2.0092384e-38 306 245
-0.018006733 0.79000002 -0.0069256667 2.0092384e-38 307 245
-0.016621601 0.79000002 -0.0069256667 1.9908005e-38 308 245
-0.015236467 0.79000002 -0.0069256667 1.9908005e-38 309 245
-0.0138864 0.792 -0.0069431998 1.9907296e-38 310 245
-0.012497759 0.792 -0.0069431998 1.9723263e-38 311 245
-0.011109119 0.792 -0.0069431998 1.9722184e-38 312 245
-0.0097204801 0.792 -0.0069431998 1.9722184e-38 313 245
-0.0083318399 0.792 -0.0069431998 1.944632e-38 314 245
-0.0069431998 0.792 -0.0069431998 1.9354125e-38 315 245
-0.0055545596 0.792 -0.0069431998 1.9170813e-38 316 245
-0.0041764397 0.79400003 -0.0069607338 1.898642e-38 317 245
-0.0027842934 0.79400003 -0.0069607338 1.9078603e-38 318 245
-0.0013921467 0.79400003 -0.0069607338 1.8986049e-38 319 245
0 0.79400003 -0.0069607338 1.8894575e-38 320 245
0.0013921467 0.79400003 -0.0069607338 1.8802379e-38 321 245
0.0027842934 0.79400003 -0.0069607338 1.8434692e-38 322 245
0.0041764397 0.79400003 -0.0069607338 1.8434692e-38 323 245
0.0055685868 0.79400003 -0.0069607338 1.8618005e-38 324 245
0.0069607338 0.79400003 -0.0069607338 1.8249582e-38 325 245
0.0083528794 0.79400003 -0.0069607338 1.8157752e-38 326 245
0.0097204801 0.792 -0.0069431998 1.8157752e-38 327 245
0.011109119 0.792 -0.0069431998 1.7882239e-38 328 245
0.01252932 0.79400003 -0.0069607338 1.7790042e-38 329 245
0.013921468 0.79400003 -0.0069607338 1.8340685e-38 330 245
0.015313613 0.79400003 -0.0069607338 1.824813e-38 331 245
0.016705759 0.79400003 -0.0069607338 1.7972625e-38 332 245
0.018097907 0.79400003 -0.0069607338 1.7972625e-38 333 245
0.019490054 0.79400003 -0.0069607338 1.7880077e-38 334 245
0.0209348 0.796 -0.0069782664 1.7880077e-38 335 245
0.022330454 0.796 -0.0069782664 1.7788244e-38 336 245
0.023666494 0.79400003 -0.0069607338 1.7788244e-38 337 245
0.02505864 0.79400003 -0.0069607338 1.7971919e-38 338 245
0.026517414 0.796 -0.0069782664 1.815595e-38 339 245
0.027913066 0.796 -0.0069782664 1.7789326e-38 340 245
0.029308718 0.796 -0.0069782664 1.769713e-38 341 245
0.030704373 0.796 -0.0069782664 1.8156306e-38 342 245
0.032019373 0.79400003 -0.0069607338 1.8340699e-38 343 245
0.033411518 0.79400003 -0.0069607338 1.8340702e-38 344 245
0.034803666 0.79400003 -0.0069607338 1.8432897e-38 345 245
0.036195815 0.79400003 -0.0069607338 1.8525105e-38 346 245
0.037587963 0.79400003 -0.0069607338 1.843291e-38 347 245
0.039078292 0.796 -0.0069782664 1.8247093e-38 348 245
0.040473945 0.796 -0.0069782664 1.787867e-38 349 245
0.041869599 0.796 -0.0069782664 1.7232218e-38 350 245
0.043265253 0.796 -0.0069782664 1.6402818e-38 351 245
0.044660907 0.796 -0.0069782664 1.5852517e-38 352 245
0.046056557 0.796 -0.0069782664 1.6497886e-38 353 245
0.047452211 0.796 -0.0069782664 1.6957787e-38 354 245
0.048847865 0.796 -0.0069782664 1.7510961e-38 355 245
0.050243519 0.796 -0.0069782664 1.7420184e-38 356 245
0.051639169 0.796 -0.0069782664 1.7143956e-38 357 245
0.052901573 0.79400003 -0.0069607338 1.6776603e-38 358 245
0.054293722 0.79400003 -0.0069607338 1.6776603e-38 359 245
0.05568587 0.79400003 -0.0069607338 1.6316007e-38 360 245
0.057078011 0.79400003 -0.0069607338 1.6316007e-38 361 245
0.058470156 0.79400003 -0.0069607338 1.5852531e-38 362 245
0.059862308 0.79400003 -0.0069607338 1.5668138e-38 363 245
0.061254453 0.79400003 -0.0069607338 1.7410168e-38 364 245
0.062804401 0.796 -0.0069782664 1.9161883e-38 365 245
-0.041080598 0.78100002 -0.0082161194 1.8892138e-38 290 246
-0.039711244 0.78100002 -0.0082161194 1.8799942e-38 291 246
-0.038341891 0.78100002 -0.0082161194 1.8891759e-38 292 246
-0.037067216 0.78299999 -0.0082371598 1.8891759e-38 293 246
-0.035785533 0.78500003 -0.0082582003 1.9260873e-38 294 246
-0.034409165 0.78500003 -0.0082582003 1.9353427e-38 295 246
-0.033032801 0.78500003 -0.0082582003 1.9263364e-38 296 246
-0.031656433 0.78500003 -0.0082582003 1.9631787e-38 297 246
-0.03035721 0.787 -0.0082792398 2.0000198e-38 298 246
-0.02897734 0.787 -0.0082792398 2.0092393e-38 299 246
-0.027597465 0.787 -0.0082792398 2.0090944e-38 300 246
-0.026217593 0.787 -0.0082792398 2.0090944e-38 301 246
-0.024837719 0.787 -0.0082792398 2.0183496e-38 302 246
-0.023457846 0.787 -0.0082792398 2.0275693e-38 303 246
-0.022134079 0.78899997 -0.0083002793 2.0092028e-38 304 246
-0.0207507 0.78899997 -0.0083002793 2.0092028e-38 305 246
-0.019367319 0.78899997 -0.0083002793 2.0275345e-38 306 246
-0.018006733 0.79000002 -0.0083108004 2.0090594e-38 307 246
-0.016621601 0.79000002 -0.0083108004 2.0090597e-38 308 246
-0.015236467 0.79000002 -0.0083108004 1.9906566e-38 309 246
-0.0138864 0.792 -0.0083318399 1.9721816e-38 310 246
-0.012497759 0.792 -0.0083318399 1.962962e-38 311 246
-0.011081067 0.79000002 -0.0083108004 1.9537427e-38 312 246
-0.0096959332 0.79000002 -0.0083108004 1.9537427e-38 313 246
-0.0083108004 0.79000002 -0.0083108004 1.9260846e-38 314 246
-0.0069431998 0.792 -0.0083318399 1.9168292e-38 315 246
-0.0055545596 0.792 -0.0083318399 1.9076099e-38 316 246
-0.00416592 0.792 -0.0083318399 1.8799152e-38 317 246
-0.0027772798 0.792 -0.0083318399 1.834105e-38 318 246
-0.0013886399 0.792 -0.0083318399 1.8433248e-38 319 246
0 0.792 -0.0083318399 1.8891705e-38 320 246
0.0013886399 0.792 -0.0083318399 1.8799508e-38 321 246
0.0027772798 0.792 -0.0083318399 1.8616195e-38 322 246
0.0041554002 0.79000002 -0.0083108004 1.8523641e-38 323 246
0.0055405335 0.79000002 -0.0083108004 1.8248136e-38 324 246
0.0069431998 0.792 -0.0083318399 1.797119e-38 325 246
0.0083318399 0.792 -0.0083318399 1.7328341e-38 326 246
0.0097204801 0.792 -0.0083318399 1.7328341e-38 327 246
0.011109119 0.792 -0.0083318399 1.7235776e-38 328 246
0.01252932 0.79400003 -0.0083528794 1.7143581e-38 329 246
0.013921468 0.79400003 -0.0083528794 1.7143578e-38 330 246
0.015313613 0.79400003 -0.0083528794 1.6959547e-38 331 246
0.016705759 0.79400003 -0.0083528794 1.7233628e-38 332 246
0.018097907 0.79400003 -0.0083528794 1.7418019e-38 333 246
0.019490054 0.79400003 -0.0083528794 1.6867011e-38 334 246
0.0208822 0.79400003 -0.0083528794 1.6867011e-38 335 246
0.022330454 0.796 -0.0083739199 1.7234357e-38 336 246
0.023666494 0.79400003 -0.0083528794 1.7326552e-38 337 246
0.02505864 0.79400003 -0.0083528794 1.7417669e-38 338 246
0.026517414 0.796 -0.0083739199 1.7417669e-38 339 246
0.027913066 0.796 -0.0083739199 1.6959565e-38 340 246
0.029308718 0.796 -0.0083739199 1.6867011e-38 341 246
0.030704373 0.796 -0.0083739199 1.6958843e-38 342 246
0.032019373 0.79400003 -0.0083528794 1.6958843e-38 343 246
0.033411518 0.79400003 -0.0083528794 1.769318e-38 344 246
0.034803666 0.79400003 -0.0083528794 1.7877571e-38 345 246
0.036195815 0.79400003 -0.0083528794 1.7785022e-38 346 246
0.037587963 0.79400003 -0.0083528794 1.7877218e-38 347 246
0.038980108 0.79400003 -0.0083528794 1.7419484e-38 348 246
0.040372252 0.79400003 -0.0083528794 1.7603875e-38 349 246
0.041764401 0.79400003 -0.0083528794 1.7788272e-38 350 246
0.043156546 0.79400003 -0.0083528794 1.7696076e-38 351 246
0.044548694 0.79400003 -0.0083528794 1.760389e-38 352 246
0.046056557 0.796 -0.0083739199 1.7696086e-38 353 246
0.047452211 0.796 -0.0083739199 1.7328011e-38 354 246
0.048725132 0.79400003 -0.0083528794 1.7328011e-38 355 246
0.05011728 0.79400003 -0.0083528794 1.7603862e-38 356 246
0.051509425 0.79400003 -0.0083528794 1.7419111e-38 357 246
0.052901573 0.79400003 -0.0083528794 1.6959928e-38 358 246
0.054293722 0.79400003 -0.0083528794 1.6591506e-38 359 246
0.05568587 0.79400003 -0.0083528794 1.6315993e-38 360 246
0.057078011 0.79400003 -0.0083528794 1.6039048e-38 361 246
0.058470156 0.79400003 -0.0083528794 1.6221294e-38 362 246
0.059862308 0.79400003 -0.0083528794 1.566812e-38 363 246
0.061408747 0.796 -0.0083739199 1.6401061e-38 364 246
0.062804401 0.796 -0.0083739199 1.9535711e-38 365 246
0.063877434 0.792 -0.0083318399 1.9357487e-38 366 246
-0.042449951 0.78100002 -0.0095854728 1.8892509e-38 289 247
-0.041027997 0.77999997 -0.0095731998 1.8800999e-38 290 247
-0.039660398 0.77999997 -0.0095731998 1.8616247e-38 291 247
-0.038341891 0.78100002 -0.0095854728 1.9076462e-38 292 247
-0.036972538 0.78100002 -0.0095854728 1.8984266e-38 293 247
-0.035603184 0.78100002 -0.0095854728 1.9722172e-38 294 247
-0.034321502 0.78299999 -0.0096100196 1.9906563e-38 295 247
-0.032948639 0.78299999 -0.0096100196 2.0090944e-38 296 247
-0.031575777 0.78299999 -0.0096100196 2.0090944e-38 297 247
-0.030280067 0.78500003 -0.0096345674 2.0000181e-38 298 247
-0.0289037 0.78500003 -0.0096345674 2.0092378e-38 299 247
-0.027527334 0.78500003 -0.0096345674 2.01835e-38 300 247
-0.026150968 0.78500003 -0.0096345674 2.01835e-38 301 247
-0.0247746 0.78500003 -0.0096345674 2.0182794e-38 302 247
-0.023457846 0.787 -0.0096591124 2.0182794e-38 303 247
-0.022077972 0.787 -0.0096591124 1.9999128e-38 304 247
-0.0206981 0.787 -0.0096591124 1.9906931e-38 305 247
-0.019318225 0.787 -0.0096591124 1.9631068e-38 306 247
-0.018006733 0.79000002 -0.0096959332 1.9538872e-38 307 247
-0.016621601 0.79000002 -0.0096959332 1.9446323e-38 308 247
-0.015236467 0.79000002 -0.0096959332 1.9354128e-38 309 247
-0.013851333 0.79000002 -0.0096959332 1.9170813e-38 310 247
-0.0124662 0.79000002 -0.0096959332 1.898642e-38 311 247
-0.011081067 0.79000002 -0.0096959332 1.9076818e-38 312 247
-0.0096959332 0.79000002 -0.0096959332 1.8800232e-38 313 247
-0.0083108004 0.79000002 -0.0096959332 1.852474e-38 314 247
-0.0069256667 0.79000002 -0.0096959332 1.8340348e-38 315 247
-0.0055405335 0.79000002 -0.0096959332 1.8248151e-38 316 247
-0.0041554002 0.79000002 -0.0096959332 1.8155597e-38 317 247
-0.0027702667 0.79000002 -0.0096959332 1.7972288e-38 318 247
-0.0013851334 0.79000002 -0.0096959332 1.7972288e-38 319 247
0 0.79000002 -0.0096959332 1.7696424e-38 320 247
0.0013851334 0.79000002 -0.0096959332 1.7696424e-38 321 247
0.0027702667 0.79000002 -0.0096959332 1.7512383e-38 322 247
0.0041554002 0.79000002 -0.0096959332 1.7512383e-38 323 247
0.0055405335 0.79000002 -0.0096959332 1.7695332e-38 324 247
0.0069256667 0.79000002 -0.0096959332 1.7510581e-38 325 247
0.0083318399 0.792 -0.0097204801 1.705031e-38 326 247
0.0097204801 0.792 -0.0097204801 1.6865918e-38 327 247
0.011109119 0.792 -0.0097204801 1.6682956e-38 328 247
0.012497759 0.792 -0.0097204801 1.6682956e-38 329 247
0.0138864 0.792 -0.0097204801 1.6865918e-38 330 247
0.015313613 0.79400003 -0.0097450269 1.6681886e-38 331 247
0.016705759 0.79400003 -0.0097450269 1.6589338e-38 332 247
0.018097907 0.79400003 -0.0097450269 1.6865564e-38 333 247
0.019490054 0.79400003 -0.0097450269 1.6496789e-38 334 247
0.0208822 0.79400003 -0.0097450269 1.6496789e-38 335 247
0.022330454 0.796 -0.0097695729 1.6497155e-38 336 247
0.023666494 0.79400003 -0.0097450269 1.6497155e-38 337 247
0.02505864 0.79400003 -0.0097450269 1.6406038e-38 338 247
0.026450787 0.79400003 -0.0097450269 1.6406038e-38 339 247
0.027842935 0.79400003 -0.0097450269 1.658935e-38 340 247
0.029235078 0.79400003 -0.0097450269 1.658935e-38 341 247
0.030627226 0.79400003 -0.0097450269 1.6406038e-38 342 247
0.032019373 0.79400003 -0.0097450269 1.6406038e-38 343 247
0.033411518 0.79400003 -0.0097450269 1.6497883e-38 344 247
0.034803666 0.79400003 -0.0097450269 1.6497883e-38 345 247
0.036104638 0.792 -0.0097204801 1.6681566e-38 346 247
0.037493281 0.792 -0.0097204801 1.6681566e-38 347 247
0.038980108 0.79400003 -0.0097450269 1.6773764e-38 348 247
0.040372252 0.79400003 -0.0097450269 1.6958155e-38 349 247
0.041764401 0.79400003 -0.0097450269 1.7326215e-38 350 247
0.043156546 0.79400003 -0.0097450269 1.7234019e-38 351 247
0.044548694 0.79400003 -0.0097450269 1.6958871e-38 352 247
0.045940842 0.79400003 -0.0097450269 1.7051426e-38 353 247
0.047332987 0.79400003 -0.0097450269 1.6775925e-38 354 247
0.048725132 0.79400003 -0.0097450269 1.6775925e-38 355 247
0.049991038 0.792 -0.0097204801 1.6775562e-38 356 247
0.051379677 0.792 -0.0097204801 1.6591171e-38 357 247
0.05276832 0.792 -0.0097204801 1.6590799e-38 358 247
0.054156959 0.792 -0.0097204801 1.6498602e-38 359 247
0.055545598 0.792 -0.0097204801 1.5947581e-38 360 247
0.056934237 0.792 -0.0097204801 1.576319e-38 361 247
0.058322877 0.792 -0.0097204801 1.5303297e-38 362 247
0.059711516 0.792 -0.0097204801 1.4934874e-38 363 247
0.061100159 0.792 -0.0097204801 1.5575985e-38 364 247
0.062488798 0.792 -0.0097204801 1.8895027e-38 365 247
0.063877434 0.792 -0.0097204801 1.8993751e-38 366 247
0.065266073 0.792 -0.0097204801 1.9362174e-38 367 247
-0.042449951 0.78100002 -0.010954826 1.8524052e-38 289 248
-0.041027997 0.77999997 -0.010940799 1.9260507e-38 290 248
-0.039660398 0.77999997 -0.010940799 1.9445257e-38 291 248
-0.038341891 0.78100002 -0.010954826 1.981437e-38 292 248
-0.036972538 0.78100002 -0.010954826 2.0090597e-38 293 248
-0.035603184 0.78100002 -0.010954826 2.0367894e-38 294 248
-0.034233831 0.78100002 -0.010954826 2.027534e-38 295 248
-0.032864477 0.78100002 -0.010954826 2.0000551e-38 296 248
-0.031575777 0.78299999 -0.010982879 2.0000551e-38 297 248
-0.03020292 0.78299999 -0.010982879 2.0000198e-38 298 248
-0.028830061 0.78299999 -0.010982879 2.0000198e-38 299 248
-0.027457198 0.78299999 -0.010982879 2.0182791e-38 300 248
-0.026084339 0.78299999 -0.010982879 2.0182791e-38 301 248
-0.024711479 0.78299999 -0.010982879 2.0182076e-38 302 248
-0.023398234 0.78500003 -0.011010934 2.0089881e-38 303 248
-0.022021867 0.78500003 -0.011010934 1.9813661e-38 304 248
-0.020645501 0.78500003 -0.011010934 1.9721465e-38 305 248
-0.019269135 0.78500003 -0.011010934 1.9629267e-38 306 248
-0.017938353 0.787 -0.011038986 1.9537071e-38 307 248
-0.016600559 0.78899997 -0.011067039 1.9260843e-38 308 248
-0.015217179 0.78899997 -0.011067039 1.9168648e-38 309 248
-0.013833799 0.78899997 -0.011067039 1.88935e-38 310 248
-0.012450419 0.78899997 -0.011067039 1.8616913e-38 311 248
-0.011067039 0.78899997 -0.011067039 1.8340685e-38 312 248
-0.0096836593 0.78899997 -0.011067039 1.8063739e-38 313 248
-0.0083002793 0.78899997 -0.011067039 1.8063742e-38 314 248
-0.0069168997 0.78899997 -0.011067039 1.8063742e-38 315 248
-0.0055405335 0.79000002 -0.011081067 1.7695329e-38 316 248
-0.0041554002 0.79000002 -0.011081067 1.7695329e-38 317 248
-0.0027702667 0.79000002 -0.011081067 1.7786453e-38 318 248
-0.0013851334 0.79000002 -0.011081067 1.7694256e-38 319 248
0 0.79000002 -0.011081067 1.7878277e-38 320 248
0.0013851334 0.79000002 -0.011081067 1.7417301e-38 321 248
0.0027702667 0.79000002 -0.011081067 1.7233974e-38 322 248
0.0041554002 0.79000002 -0.011081067 1.7326171e-38 323 248
0.0055405335 0.79000002 -0.011081067 1.7416568e-38 324 248
0.0069256667 0.79000002 -0.011081067 1.7048145e-38 325 248
0.0083108004 0.79000002 -0.011081067 1.6221249e-38 326 248
0.0096959332 0.79000002 -0.011081067 1.5852826e-38 327 248
0.011081067 0.79000002 -0.011081067 1.5576961e-38 328 248
0.012497759 0.792 -0.011109119 1.5576961e-38 329 248
0.0138864 0.792 -0.011109119 1.5483706e-38 330 248
0.015313613 0.79400003 -0.011137174 1.5391511e-38 331 248
0.016705759 0.79400003 -0.011137174 1.5298596e-38 332 248
0.018097907 0.79400003 -0.011137174 1.5298596e-38 333 248
0.019490054 0.79400003 -0.011137174 1.5207122e-38 334 248
0.0208822 0.79400003 -0.011137174 1.5299318e-38 335 248
0.022274347 0.79400003 -0.011137174 1.5298612e-38 336 248
0.023666494 0.79400003 -0.011137174 1.5483362e-38 337 248
0.02505864 0.79400003 -0.011137174 1.5208584e-38 338 248
0.026450787 0.79400003 -0.011137174 1.5392975e-38 339 248
0.027842935 0.79400003 -0.011137174 1.5851435e-38 340 248
0.029235078 0.79400003 -0.011137174 1.5575208e-38 341 248
0.030627226 0.79400003 -0.011137174 1.5484452e-38 342 248
0.032019373 0.79400003 -0.011137174 1.5668842e-38 343 248
0.033411518 0.79400003 -0.011137174 1.5851435e-38 344 248
0.034715999 0.792 -0.011109119 1.5943631e-38 345 248
0.036104638 0.792 -0.011109119 1.6036547e-38 346 248
0.037493281 0.792 -0.011109119 1.6036547e-38 347 248
0.038980108 0.79400003 -0.011137174 1.594508e-38 348 248
0.040372252 0.79400003 -0.011137174 1.6037275e-38 349 248
0.041659199 0.792 -0.011109119 1.6220225e-38 350 248
0.043047838 0.792 -0.011109119 1.6220225e-38 351 248
0.044436477 0.792 -0.011109119 1.6037981e-38 352 248
0.045825116 0.792 -0.011109119 1.6037981e-38 353 248
0.047213759 0.792 -0.011109119 1.6221294e-38 354 248
0.048602398 0.792 -0.011109119 1.6221294e-38 355 248
0.049991038 0.792 -0.011109119 1.6129471e-38 356 248
0.051379677 0.792 -0.011109119 1.6313502e-38 357 248
0.05276832 0.792 -0.011109119 1.5762849e-38 358 248
0.054156959 0.792 -0.011109119 1.5486622e-38 359 248
0.055545598 0.792 -0.011109119 1.5853956e-38 360 248
0.056934237 0.792 -0.011109119 1.5577369e-38 361 248
0.058322877 0.792 -0.011109119 1.5210379e-38 362 248
0.059711516 0.792 -0.011109119 1.4841956e-38 363 248
0.061100159 0.792 -0.011109119 1.456542e-38 364 248
0.062488798 0.792 -0.011109119 1.7423845e-38 365 248
0.063877434 0.792 -0.011109119 1.8163987e-38 366 248
0.065266073 0.792 -0.011109119 1.8901552e-38 367 248
-0.042395595 0.77999997 -0.012308398 1.9260507e-38 289 249
-0.041027997 0.77999997 -0.012308398 1.9905481e-38 290 249
-0.039660398 0.77999997 -0.012308398 2.0090231e-38 291 249
-0.038292799 0.77999997 -0.012308398 2.0090579e-38 292 249
-0.036925197 0.77999997 -0.012308398 2.0182774e-38 293 249
-0.035603184 0.78100002 -0.01232418 2.0275693e-38 294 249
-0.034233831 0.78100002 -0.01232418 2.0183496e-38 295 249
-0.032864477 0.78100002 -0.01232418 2.009203e-38 296 249
-0.031495128 0.78100002 -0.01232418 2.009203e-38 297 249
-0.03020292 0.78299999 -0.012355739 1.9999482e-38 298 249
-0.028830061 0.78299999 -0.012355739 1.9907285e-38 299 249
-0.027457198 0.78299999 -0.012355739 1.9906566e-38 300 249
-0.026084339 0.78299999 -0.012355739 1.9721816e-38 301 249
-0.024711479 0.78299999 -0.012355739 1.972254e-38 302 249
-0.02333862 0.78299999 -0.012355739 1.9629986e-38 303 249
-0.021965759 0.78299999 -0.012355739 1.9445604e-38 304 249
-0.0205929 0.78299999 -0.012355739 1.9261212e-38 305 249
-0.019220039 0.78299999 -0.012355739 1.926049e-38 306 249
-0.017892767 0.78500003 -0.0123873 1.9168294e-38 307 249
-0.01655848 0.787 -0.01241886 1.8708392e-38 308 249
-0.015178605 0.787 -0.01241886 1.8616195e-38 309 249
-0.013798732 0.787 -0.01241886 1.806554e-38 310 249
-0.01241886 0.787 -0.01241886 1.788079e-38 311 249
-0.011038986 0.787 -0.01241886 1.7787159e-38 312 249
-0.0096591124 0.787 -0.01241886 1.7694962e-38 313 249
-0.0082792398 0.787 -0.01241886 1.7603485e-38 314 249
-0.0069168997 0.78899997 -0.012450419 1.7510931e-38 315 249
-0.0055335197 0.78899997 -0.012450419 1.714323e-38 316 249
-0.0041501396 0.78899997 -0.012450419 1.6866645e-38 317 249
-0.0027667598 0.78899997 -0.012450419 1.7049963e-38 318 249
-0.0013833799 0.78899997 -0.012450419 1.6957407e-38 319 249
0 0.78899997 -0.012450419 1.6865562e-38 320 249
0.0013833799 0.78899997 -0.012450419 1.6497139e-38 321 249
0.0027667598 0.78899997 -0.012450419 1.6588236e-38 322 249
0.0041501396 0.78899997 -0.012450419 1.6403845e-38 323 249
0.0055335197 0.78899997 -0.012450419 1.6402407e-38 324 249
0.0069256667 0.79000002 -0.0124662 1.6125819e-38 325 249
0.0083108004 0.79000002 -0.0124662 1.5482599e-38 326 249
0.0096959332 0.79000002 -0.0124662 1.5113457e-38 327 249
0.011081067 0.79000002 -0.0124662 1.4562451e-38 328 249
0.012497759 0.792 -0.012497759 1.4470255e-38 329 249
0.0138864 0.792 -0.012497759 1.4285886e-38 330 249
0.01527504 0.792 -0.012497759 1.419369e-38 331 249
0.016705759 0.79400003 -0.01252932 1.4100777e-38 332 249
0.018097907 0.79400003 -0.01252932 1.4100777e-38 333 249
0.019490054 0.79400003 -0.01252932 1.4101496e-38 334 249
0.0208822 0.79400003 -0.01252932 1.3917106e-38 335 249
0.022274347 0.79400003 -0.01252932 1.382456e-38 336 249
0.023666494 0.79400003 -0.01252932 1.4100789e-38 337 249
0.02505864 0.79400003 -0.01252932 1.3917845e-38 338 249
0.026450787 0.79400003 -0.01252932 1.4010041e-38 339 249
0.027842935 0.79400003 -0.01252932 1.4284832e-38 340 249
0.029235078 0.79400003 -0.01252932 1.4284832e-38 341 249
0.030627226 0.79400003 -0.01252932 1.4377747e-38 342 249
0.032019373 0.79400003 -0.01252932 1.4562498e-38 343 249
0.033411518 0.79400003 -0.01252932 1.4655047e-38 344 249
0.034715999 0.792 -0.012497759 1.4839438e-38 345 249
0.036104638 0.792 -0.012497759 1.4840523e-38 346 249
0.037493281 0.792 -0.012497759 1.493272e-38 347 249
0.03888192 0.792 -0.012497759 1.5024565e-38 348 249
0.040270559 0.792 -0.012497759 1.5024565e-38 349 249
0.041659199 0.792 -0.012497759 1.5484101e-38 350 249
0.043047838 0.792 -0.012497759 1.5668133e-38 351 249
0.044324268 0.79000002 -0.0124662 1.5485527e-38 352 249
0.045709401 0.79000002 -0.0124662 1.5301135e-38 353 249
0.047213759 0.792 -0.012497759 1.5208937e-38 354 249
0.048479669 0.79000002 -0.0124662 1.5393328e-38 355 249
0.049864799 0.79000002 -0.0124662 1.5668135e-38 356 249
0.051249932 0.79000002 -0.0124662 1.5852528e-38 357 249
0.052635066 0.79000002 -0.0124662 1.5576668e-38 358 249
0.0540202 0.79000002 -0.0124662 1.5392277e-38 359 249
0.055545598 0.792 -0.012497759 1.511748e-38 360 249
0.056934237 0.792 -0.012497759 1.511748e-38 361 249
0.058322877 0.792 -0.012497759 1.465901e-38 362 249
0.059711516 0.792 -0.012497759 1.4474619e-38 363 249
0.061100159 0.792 -0.012497759 1.419807e-38 364 249
0.062488798 0.792 -0.012497759 1.5581004e-38 365 249
0.063877434 0.792 -0.012497759 1.5864841e-38 366 249
0.065266073 0.792 -0.012497759 1.7708395e-38 367 249
-0.042395595 0.77999997 -0.013675999 2.0089525e-38 289 250
-0.040922798 0.778 -0.013640933 2.0550841e-38 290 250
-0.039558705 0.778 -0.013640933 2.0550841e-38 291 250
-0.038292799 0.77999997 -0.013675999 2.0183496e-38 292 250
-0.036925197 0.77999997 -0.013675999 2.0275693e-38 293 250
-0.035557598 0.77999997 -0.013675999 2.0091674e-38 294 250
-0.034189999 0.77999997 -0.013675999 1.9907282e-38 295 250
-0.032822397 0.77999997 -0.013675999 2.0090241e-38 296 250
-0.031454798 0.77999997 -0.013675999 1.990621e-38 297 250
-0.030087199 0.77999997 -0.013675999 1.972254e-38 298 250
-0.028756421 0.78100002 -0.013693534 1.9629986e-38 299 250
-0.027387068 0.78100002 -0.013693534 1.962927e-38 300 250
-0.026017714 0.78100002 -0.013693534 1.9260846e-38 301 250
-0.024648361 0.78100002 -0.013693534 1.9077897e-38 302 250
-0.023279008 0.78100002 -0.013693534 1.8985701e-38 303 250
-0.021909652 0.78100002 -0.013693534 1.8893149e-38 304 250
-0.020540299 0.78100002 -0.013693534 1.8800954e-38 305 250
-0.019220039 0.78299999 -0.013728599 1.8708037e-38 306 250
-0.017892767 0.78500003 -0.013763667 1.861584e-38 307 250
-0.016516401 0.78500003 -0.013763667 1.8063386e-38 308 250
-0.015140033 0.78500003 -0.013763667 1.797119e-38 309 250
-0.013763667 0.78500003 -0.013763667 1.7511661e-38 310 250
-0.0123873 0.78500003 -0.013763667 1.7419464e-38 311 250
-0.011010934 0.78500003 -0.013763667 1.7234354e-38 312 250
-0.0096345674 0.78500003 -0.013763667 1.7142158e-38 313 250
-0.0082792398 0.787 -0.013798732 1.6959196e-38 314 250
-0.0068993662 0.787 -0.013798732 1.6867001e-38 315 250
-0.0055335197 0.78899997 -0.013833799 1.6957392e-38 316 250
-0.0041501396 0.78899997 -0.013833799 1.6680805e-38 317 250
-0.0027667598 0.78899997 -0.013833799 1.6404571e-38 318 250
-0.0013833799 0.78899997 -0.013833799 1.622018e-38 319 250
0 0.78899997 -0.013833799 1.5945019e-38 320 250
0.0013833799 0.78899997 -0.013833799 1.5668431e-38 321 250
0.0027667598 0.78899997 -0.013833799 1.5299653e-38 322 250
0.0041501396 0.78899997 -0.013833799 1.511526e-38 323 250
0.0055335197 0.78899997 -0.013833799 1.4928725e-38 324 250
0.0069168997 0.78899997 -0.013833799 1.4743975e-38 325 250
0.0083108004 0.79000002 -0.013851333 1.4284443e-38 326 250
0.0096959332 0.79000002 -0.013851333 1.4007857e-38 327 250
0.011081067 0.79000002 -0.013851333 1.3640532e-38 328 250
0.012497759 0.792 -0.0138864 1.3456501e-38 329 250
0.0138864 0.792 -0.0138864 1.3364671e-38 330 250
0.01527504 0.792 -0.0138864 1.3088444e-38 331 250
0.01666368 0.792 -0.0138864 1.3087361e-38 332 250
0.018052319 0.792 -0.0138864 1.3087361e-38 333 250
0.01944096 0.792 -0.0138864 1.2995894e-38 334 250
0.020829599 0.792 -0.0138864 1.2995894e-38 335 250
0.022218239 0.792 -0.0138864 1.2903345e-38 336 250
0.02360688 0.792 -0.0138864 1.2903345e-38 337 250
0.02505864 0.79400003 -0.013921468 1.2811869e-38 338 250
0.026450787 0.79400003 -0.013921468 1.2904064e-38 339 250
0.027842935 0.79400003 -0.013921468 1.2810778e-38 340 250
0.029235078 0.79400003 -0.013921468 1.2810778e-38 341 250
0.030627226 0.79400003 -0.013921468 1.3179913e-38 342 250
0.032019373 0.79400003 -0.013921468 1.327211e-38 343 250
0.033411518 0.79400003 -0.013921468 1.3364674e-38 344 250
0.034628332 0.79000002 -0.013851333 1.3641261e-38 345 250
0.036013465 0.79000002 -0.013851333 1.3734901e-38 346 250
0.037493281 0.792 -0.0138864 1.3827097e-38 347 250
0.03888192 0.792 -0.0138864 1.4194803e-38 348 250
0.040270559 0.792 -0.0138864 1.4379196e-38 349 250
0.041659199 0.792 -0.0138864 1.456359e-38 350 250
0.043047838 0.792 -0.0138864 1.4839817e-38 351 250
0.044324268 0.79000002 -0.013851333 1.4931646e-38 352 250
0.045709401 0.79000002 -0.013851333 1.4839451e-38 353 250
0.047094531 0.79000002 -0.013851333 1.4472819e-38 354 250
0.048479669 0.79000002 -0.013851333 1.4472819e-38 355 250
0.049864799 0.79000002 -0.013851333 1.5114962e-38 356 250
0.051249932 0.79000002 -0.013851333 1.5207159e-38 357 250
0.052635066 0.79000002 -0.013851333 1.5023493e-38 358 250
0.0540202 0.79000002 -0.013851333 1.5207883e-38 359 250
0.055405334 0.79000002 -0.013851333 1.493237e-38 360 250
0.056790464 0.79000002 -0.013851333 1.5024565e-38 361 250
0.058175597 0.79000002 -0.013851333 1.474941e-38 362 250
0.059711516 0.792 -0.0138864 1.474941e-38 363 250
0.061100159 0.792 -0.0138864 1.3922539e-38 364 250
0.062488798 0.792 -0.0138864 1.4198767e-38 365 250
0.063716128 0.79000002 -0.013851333 1.3746837e-38 366 250
0.065101266 0.79000002 -0.013851333 1.6604542e-38 367 250
0.066486403 0.79000002 -0.013851333 1.8533139e-38 368 250
-0.04885488 0.77399999 -0.014927879 1.8894614e-38 284 251
-0.047497798 0.77399999 -0.014927879 1.8710223e-38 285 251
-0.046140719 0.77399999 -0.014927879 1.898497e-38 286 251
-0.044899363 0.77600002 -0.014966453 1.9261915e-38 287 251
-0.043538772 0.77600002 -0.014966453 1.9630326e-38 288 251
-0.042178184 0.77600002 -0.014966453 1.9906913e-38 289 251
-0.0408176 0.77600002 -0.014966453 2.0275329e-38 290 251
-0.039457016 0.77600002 -0.014966453 2.0459361e-38 291 251
-0.038096428 0.77600002 -0.014966453 2.01835e-38 292 251
-0.036830518 0.778 -0.015005025 2.01835e-38 293 251
-0.035466425 0.778 -0.015005025 2.009095e-38 294 251
-0.034102332 0.778 -0.015005025 1.990656e-38 295 251
-0.032822397 0.77999997 -0.0150436 1.9997682e-38 296 251
-0.031454798 0.77999997 -0.0150436 1.9905487e-38 297 251
-0.030087199 0.77999997 -0.0150436 1.9445955e-38 298 251
-0.028719598 0.77999997 -0.0150436 1.9261562e-38 299 251
-0.027351998 0.77999997 -0.0150436 1.9168294e-38 300 251
-0.025984399 0.77999997 -0.0150436 1.9168294e-38 301 251
-0.024648361 0.78100002 -0.015062887 1.8984622e-38 302 251
-0.023279008 0.78100002 -0.015062887 1.8708037e-38 303 251
-0.021909652 0.78100002 -0.015062887 1.8432524e-38 304 251
-0.020540299 0.78100002 -0.015062887 1.8340329e-38 305 251
-0.019170946 0.78100002 -0.015062887 1.8431445e-38 306 251
-0.017847179 0.78299999 -0.01510146 1.8155219e-38 307 251
-0.01647432 0.78299999 -0.01510146 1.7787162e-38 308 251
-0.01510146 0.78299999 -0.01510146 1.7694606e-38 309 251
-0.013728599 0.78299999 -0.01510146 1.7510581e-38 310 251
-0.012355739 0.78299999 -0.01510146 1.7510581e-38 311 251
-0.011010934 0.78500003 -0.015140033 1.7233623e-38 312 251
-0.0096345674 0.78500003 -0.015140033 1.6773003e-38 313 251
-0.0082582003 0.78500003 -0.015140033 1.6681158e-38 314 251
-0.0068993662 0.787 -0.015178605 1.6127984e-38 315 251
-0.005519493 0.787 -0.015178605 1.5943237e-38 316 251
-0.0041501396 0.78899997 -0.015217179 1.5574813e-38 317 251
-0.0027667598 0.78899997 -0.015217179 1.5114185e-38 318 251
-0.0013833799 0.78899997 -0.015217179 1.4929794e-38 319 251
0 0.78899997 -0.015217179 1.4562804e-38 320 251
0.0013833799 0.78899997 -0.015217179 1.4470608e-38 321 251
0.0027667598 0.78899997 -0.015217179 1.4193676e-38 322 251
0.0041501396 0.78899997 -0.015217179 1.4101481e-38 323 251
0.0055335197 0.78899997 -0.015217179 1.3732362e-38 324 251
0.0069168997 0.78899997 -0.015217179 1.3824558e-38 325 251
0.0083108004 0.79000002 -0.015236467 1.3732733e-38 326 251
0.0096959332 0.79000002 -0.015236467 1.3640538e-38 327 251
0.011081067 0.79000002 -0.015236467 1.3455798e-38 328 251
0.012497759 0.792 -0.01527504 1.3455798e-38 329 251
0.0138864 0.792 -0.01527504 1.3272122e-38 330 251
0.01527504 0.792 -0.01527504 1.3088091e-38 331 251
0.01666368 0.792 -0.01527504 1.3179206e-38 332 251
0.018052319 0.792 -0.01527504 1.3087011e-38 333 251
0.01944096 0.792 -0.01527504 1.2995541e-38 334 251
0.020829599 0.792 -0.01527504 1.2995541e-38 335 251
0.022218239 0.792 -0.01527504 1.2995541e-38 336 251
0.02360688 0.792 -0.01527504 1.2903345e-38 337 251
0.02505864 0.79400003 -0.015313613 1.2811866e-38 338 251
0.026450787 0.79400003 -0.015313613 1.2811866e-38 339 251
0.027842935 0.79400003 -0.015313613 1.2718586e-38 340 251
0.029235078 0.79400003 -0.015313613 1.2810781e-38 341 251
0.030627226 0.79400003 -0.015313613 1.2994447e-38 342 251
0.032019373 0.79400003 -0.015313613 1.3086642e-38 343 251
0.033411518 0.79400003 -0.015313613 1.2811147e-38 344 251
0.034628332 0.79000002 -0.015236467 1.2903343e-38 345 251
0.036013465 0.79000002 -0.015236467 1.2903343e-38 346 251
0.037493281 0.792 -0.01527504 1.2811147e-38 347 251
0.03888192 0.792 -0.01527504 1.2811503e-38 348 251
0.040270559 0.792 -0.01527504 1.3088091e-38 349 251
0.041659199 0.792 -0.01527504 1.3180653e-38 350 251
0.043047838 0.792 -0.01527504 1.3365403e-38 351 251
0.044324268 0.79000002 -0.015236467 1.3641634e-38 352 251
0.045709401 0.79000002 -0.015236467 1.3826025e-38 353 251
0.047094531 0.79000002 -0.015236467 1.4102239e-38 354 251
0.048479669 0.79000002 -0.015236467 1.4102239e-38 355 251
0.049864799 0.79000002 -0.015236467 1.4746164e-38 356 251
0.051249932 0.79000002 -0.015236467 1.4838359e-38 357 251
0.052568436 0.78899997 -0.015217179 1.4746889e-38 358 251
0.053951818 0.78899997 -0.015217179 1.5023116e-38 359 251
0.055335198 0.78899997 -0.015217179 1.4656845e-38 360 251
0.056790464 0.79000002 -0.015236467 1.4840876e-38 361 251
0.058175597 0.79000002 -0.015236467 1.4565365e-38 362 251
0.059560735 0.79000002 -0.015236467 1.4657561e-38 363 251
0.060945868 0.79000002 -0.015236467 1.4198751e-38 364 251
0.062330995 0.79000002 -0.015236467 1.4290948e-38 365 251
0.063716128 0.79000002 -0.015236467 1.392689e-38 366 251
0.065101266 0.79000002 -0.015236467 1.5217629e-38 367 251
0.066486403 0.79000002 -0.015236467 1.6417306e-38 368 251
0.067871533 0.79000002 -0.015236467 1.7615849e-38 369 251
-0.052720979 0.77100003 -0.016221842 1.9356025e-38 281 252
-0.050211959 0.77399999 -0.016284959 1.8249613e-38 283 252
-0.04885488 0.77399999 -0.016284959 1.8894209e-38 284 252
-0.047497798 0.77399999 -0.016284959 1.9262633e-38 285 252
-0.046140719 0.77399999 -0.016284959 1.9722872e-38 286 252
-0.044783637 0.77399999 -0.016284959 1.9722872e-38 287 252
-0.043426558 0.77399999 -0.016284959 2.0090932e-38 288 252
-0.042069476 0.77399999 -0.016284959 2.0183127e-38 289 252
-0.040712398 0.77399999 -0.016284959 2.0090944e-38 290 252
-0.039355319 0.77399999 -0.016284959 2.01835e-38 291 252
-0.037998237 0.77399999 -0.016284959 1.9907285e-38 292 252
-0.036735836 0.77600002 -0.01632704 1.9815089e-38 293 252
-0.035375252 0.77600002 -0.01632704 1.9538869e-38 294 252
-0.034014668 0.77600002 -0.01632704 1.9354478e-38 295 252
-0.032654081 0.77600002 -0.01632704 1.9353759e-38 296 252
-0.031374145 0.778 -0.016369121 1.9353759e-38 297 252
-0.03001005 0.778 -0.016369121 1.916901e-38 298 252
-0.028645959 0.778 -0.016369121 1.8984619e-38 299 252
-0.027281865 0.778 -0.016369121 1.8708758e-38 300 252
-0.025984399 0.77999997 -0.016411198 1.8432531e-38 301 252
-0.024616797 0.77999997 -0.016411198 1.8432527e-38 302 252
-0.023249198 0.77999997 -0.016411198 1.8248136e-38 303 252
-0.021881599 0.77999997 -0.016411198 1.8063386e-38 304 252
-0.020513998 0.77999997 -0.016411198 1.797119e-38 305 252
-0.0191464 0.77999997 -0.016411198 1.7604216e-38 306 252
-0.017847179 0.78299999 -0.01647432 1.7511661e-38 307 252
-0.01647432 0.78299999 -0.01647432 1.7326903e-38 308 252
-0.01510146 0.78299999 -0.01647432 1.7234707e-38 309 252
-0.013728599 0.78299999 -0.01647432 1.7235055e-38 310 252
-0.012355739 0.78299999 -0.01647432 1.7050662e-38 311 252
-0.010982879 0.78299999 -0.01647432 1.6772988e-38 312 252
-0.0096100196 0.78299999 -0.01647432 1.6219814e-38 313 252
-0.0082582003 0.78500003 -0.016516401 1.5943589e-38 314 252
-0.0068993662 0.787 -0.01655848 1.5482612e-38 315 252
-0.005519493 0.787 -0.01655848 1.493089e-38 316 252
-0.0041396199 0.787 -0.01655848 1.4561747e-38 317 252
