# .PCD v.7 - Point Cloud Data file format
FIELDS x y z rgb imX imY
SIZE 4 4 4 4 4 4
TYPE F F F F F F
COUNT 1 1 1 1 1 1
WIDTH 845
HEIGHT 1
VIEWPOINT 0 0 0 1 0 0 0
POINTS 845
DATA ascii
0.056699295 0.70300001 -0.018488899 1.6220938e-38 366 255
0.057931885 0.70300001 -0.018488899 1.5575927e-38 367 255
0.059164476 0.70300001 -0.018488899 1.5308052e-38 368 255
0.06039707 0.70300001 -0.018488899 1.7520387e-38 369 255
-0.010716373 0.764 -0.021432746 1.2721119e-38 312 256
-0.0093768267 0.764 -0.021432746 1.2721119e-38 313 256
-0.0080162399 0.76200002 -0.02137664 1.272147e-38 314 256
-0.0066801999 0.76200002 -0.02137664 1.2537437e-38 315 256
-0.0053441599 0.76200002 -0.02137664 1.2721105e-38 316 256
-0.0040028598 0.76099998 -0.021348584 1.2721105e-38 317 256
-0.0026685731 0.76099998 -0.021348584 1.2996614e-38 318 256
-0.00133078 0.759 -0.02129248 1.2904417e-38 319 256
0 0.759 -0.02129248 1.2812222e-38 320 256
0.0013272733 0.75700003 -0.021236373 1.2812222e-38 321 256
0.0026475333 0.755 -0.021180267 1.2628554e-38 322 256
0.0039712996 0.755 -0.021180267 1.2720749e-38 323 256
0.0052880533 0.75400001 -0.021152213 1.2627835e-38 324 256
0.0065925326 0.75199997 -0.021096105 1.2535639e-38 325 256
0.00789 0.75 -0.02104 1.2443088e-38 326 256
0.0091927266 0.74900001 -0.021011947 1.3641631e-38 327 256
0.010477919 0.74699998 -0.020955838 1.41948e-38 328 256
0.011771879 0.74599999 -0.020927785 1.4471747e-38 329 256
0.013079867 0.74599999 -0.020927785 1.5114596e-38 330 256
0.01434928 0.74400002 -0.02087168 1.5206791e-38 331 256
0.015611678 0.74199998 -0.020815572 1.5483378e-38 332 256
0.016844273 0.73900002 -0.020731414 1.566777e-38 333 256
0.018115439 0.73799998 -0.020703359 1.5759965e-38 334 256
0.019356798 0.736 -0.020647252 1.5852161e-38 335 256
0.020591147 0.73400003 -0.020591147 1.6035826e-38 336 256
0.021788673 0.73100001 -0.020506985 1.6220578e-38 337 256
0.023038799 0.73000002 -0.020478934 1.6220575e-38 338 256
0.024252106 0.72799999 -0.020422826 1.631277e-38 339 256
0.025493465 0.727 -0.020394772 1.6313487e-38 340 256
0.026768139 0.727 -0.020394772 1.6313487e-38 341 256
0.027965667 0.72500002 -0.020338668 1.6406041e-38 342 256
0.029115854 0.722 -0.020254506 1.6498237e-38 343 256
0.0302976 0.72000003 -0.020198401 1.7142521e-38 344 256
0.031384666 0.71600002 -0.020086186 1.760386e-38 345 256
0.032548878 0.71399999 -0.020030079 1.7972272e-38 346 256
0.033800758 0.71399999 -0.020030079 1.8156303e-38 347 256
0.035003547 0.713 -0.020002026 1.8431448e-38 348 256
0.036253672 0.713 -0.020002026 1.861584e-38 349 256
0.037398599 0.71100003 -0.01994592 1.8800585e-38 350 256
0.038590867 0.70999998 -0.019917866 1.8984616e-38 351 256
0.039723519 0.708 -0.01986176 1.9076452e-38 352 256
0.040907022 0.70700002 -0.019833706 1.9076452e-38 353 256
0.042146627 0.70700002 -0.019833706 1.9259408e-38 354 256
0.043447599 0.708 -0.01986176 1.9259408e-38 355 256
0.044625837 0.70700002 -0.019833706 1.9259761e-38 356 256
0.04580057 0.70599997 -0.019805651 1.9167566e-38 357 256
0.047038425 0.70599997 -0.019805651 1.9074647e-38 358 256
0.048276275 0.70599997 -0.019805651 1.8890256e-38 359 256
0.04951413 0.70599997 -0.019805651 1.8339603e-38 360 256
0.050751984 0.70599997 -0.019805651 1.8339603e-38 361 256
0.051842559 0.704 -0.019749546 1.7971174e-38 362 256
0.053076904 0.704 -0.019749546 1.7786782e-38 363 256
0.054311249 0.704 -0.019749546 1.7694584e-38 364 256
0.0554667 0.70300001 -0.019721493 1.7418357e-38 365 256
0.056699295 0.70300001 -0.019721493 1.6681886e-38 366 256
0.057931885 0.70300001 -0.019721493 1.6036517e-38 367 256
0.059164476 0.70300001 -0.019721493 1.4936351e-38 368 256
0.06039707 0.70300001 -0.019721493 1.6411481e-38 369 256
0.061629668 0.70300001 -0.019721493 1.761081e-38 370 256
0 0.759 -0.02262326 1.2535655e-38 320 257
0.0013272733 0.75700003 -0.022563647 1.2535655e-38 321 257
0.0026545466 0.75700003 -0.022563647 1.2444885e-38 322 257
0.0039712996 0.755 -0.022504034 1.253744e-38 323 257
0.0052880533 0.75400001 -0.022474226 1.2813297e-38 324 257
0.0065925326 0.75199997 -0.022414612 1.2813297e-38 325 257
0.0079110395 0.75199997 -0.022414612 1.2905495e-38 326 257
0.0092049995 0.75 -0.022355 1.3182081e-38 327 257
0.010477919 0.74699998 -0.022265578 1.3550511e-38 328 257
0.011787659 0.74699998 -0.022265578 1.3919292e-38 329 257
0.013079867 0.74599999 -0.022235774 1.4654338e-38 330 257
0.01434928 0.74400002 -0.022176161 1.4839088e-38 331 257
0.015611678 0.74199998 -0.022116546 1.5206794e-38 332 257
0.016844273 0.73900002 -0.022027127 1.5483022e-38 333 257
0.018115439 0.73799998 -0.021997318 1.5575218e-38 334 257
0.019356798 0.736 -0.021937706 1.5759968e-38 335 257
0.020563092 0.73299998 -0.021848286 1.5943633e-38 336 257
0.021788673 0.73100001 -0.021788673 1.6128026e-38 337 257
0.023038799 0.73000002 -0.021758866 1.6129098e-38 338 257
0.024252106 0.72799999 -0.021699252 1.6129098e-38 339 257
0.025493465 0.727 -0.021669446 1.6129092e-38 340 257
0.026768139 0.727 -0.021669446 1.6221647e-38 341 257
0.027965667 0.72500002 -0.021609833 1.6221291e-38 342 257
0.029035201 0.72000003 -0.021460801 1.6406041e-38 343 257
0.030171359 0.71700001 -0.021371379 1.6866295e-38 344 257
0.031384666 0.71600002 -0.021341572 1.7142521e-38 345 257
0.032548878 0.71399999 -0.021281958 1.7695678e-38 346 257
0.033753417 0.713 -0.021252153 1.788043e-38 347 257
0.035003547 0.713 -0.021252153 1.8248136e-38 348 257
0.036151983 0.71100003 -0.021192541 1.8340332e-38 349 257
0.037345998 0.70999998 -0.021162732 1.8616195e-38 350 257
0.038482159 0.708 -0.021103119 1.8800588e-38 351 257
0.039611302 0.70599997 -0.021043506 1.8800585e-38 352 257
0.040849157 0.70599997 -0.021043506 1.8800585e-38 353 257
0.042087011 0.70599997 -0.021043506 1.8983898e-38 354 257
0.043202132 0.704 -0.020983893 1.9076452e-38 355 257
0.044436477 0.704 -0.020983893 1.8984616e-38 356 257
0.045670826 0.704 -0.020983893 1.8800585e-38 357 257
0.046838548 0.70300001 -0.020954086 1.9259396e-38 358 257
0.048071139 0.70300001 -0.020954086 1.9075003e-38 359 257
0.049303733 0.70300001 -0.020954086 1.85247e-38 360 257
0.050536323 0.70300001 -0.020954086 1.833995e-38 361 257
0.051768921 0.70300001 -0.020954086 1.8155922e-38 362 257
0.053001512 0.70300001 -0.020954086 1.7971529e-38 363 257
0.054234106 0.70300001 -0.020954086 1.7695663e-38 364 257
0.0554667 0.70300001 -0.020954086 1.7419076e-38 365 257
0.056699295 0.70300001 -0.020954086 1.7233611e-38 366 257
0.057767071 0.70099998 -0.020894472 1.686483e-38 367 257
0.058996156 0.70099998 -0.020894472 1.5485889e-38 368 257
0.06039707 0.70300001 -0.020954086 1.5578445e-38 369 257
0.061629668 0.70300001 -0.020954086 1.6597709e-38 370 257
0.0053090933 0.75700003 -0.02389092 1.2996612e-38 324 258
0.0066100666 0.75400001 -0.02379624 1.2996612e-38 325 258
0.00793208 0.75400001 -0.02379624 1.2905851e-38 326 258
0.0092049995 0.75 -0.023669999 1.2905851e-38 327 258
0.010505973 0.74900001 -0.02363844 1.3274276e-38 328 258
0.011787659 0.74699998 -0.023575317 1.3458669e-38 329 258
0.013079867 0.74599999 -0.023543758 1.3919292e-38 330 258
0.01434928 0.74400002 -0.023480639 1.4103685e-38 331 258
0.015611678 0.74199998 -0.023417519 1.5113517e-38 332 258
0.016889861 0.741 -0.023385961 1.5390104e-38 333 258
0.018115439 0.73799998 -0.023291279 1.5665969e-38 334 258
0.019304199 0.73400003 -0.023165042 1.585036e-38 335 258
0.020563092 0.73299998 -0.023133477 1.5851432e-38 336 258
0.021788673 0.73100001 -0.02307036 1.6036182e-38 337 258
0.023038799 0.73000002 -0.023038799 1.6128378e-38 338 258
0.024252106 0.72799999 -0.022975679 1.6220575e-38 339 258
0.025493465 0.727 -0.022944121 1.6221291e-38 340 258
0.026584039 0.722 -0.022786319 1.6221291e-38 341 258
0.027772799 0.72000003 -0.022723202 1.6312768e-38 342 258
0.028994869 0.71899998 -0.022691639 1.6497158e-38 343 258
0.03012928 0.71600002 -0.022596961 1.6498587e-38 344 258
0.031296998 0.71399999 -0.022533838 1.6774815e-38 345 258
0.032503292 0.713 -0.022502279 1.7235779e-38 346 258
0.033753417 0.713 -0.022502279 1.7604563e-38 347 258
0.034905359 0.71100003 -0.022439159 1.8155216e-38 348 258
0.036101133 0.70999998 -0.022407599 1.8431801e-38 349 258
0.0372408 0.708 -0.022344479 1.8707309e-38 350 258
0.038373452 0.70599997 -0.022281358 1.8799505e-38 351 258
0.039499093 0.704 -0.022218239 1.8800585e-38 352 258
0.040675577 0.70300001 -0.02218668 1.870839e-38 353 258
0.041908171 0.70300001 -0.02218668 1.8984253e-38 354 258
0.043140765 0.70300001 -0.02218668 1.8984253e-38 355 258
0.04437336 0.70300001 -0.02218668 1.8984253e-38 356 258
0.045476202 0.70099998 -0.022123558 1.9076449e-38 357 258
0.046705291 0.70099998 -0.022123558 1.9076446e-38 358 258
0.047934376 0.70099998 -0.022123558 1.8799858e-38 359 258
0.049163464 0.70099998 -0.022123558 1.8616546e-38 360 258
0.050392549 0.70099998 -0.022123558 1.8431796e-38 361 258
0.051547997 0.69999999 -0.022091998 1.8248486e-38 362 258
0.052775331 0.69999999 -0.022091998 1.8063736e-38 363 258
0.054002665 0.69999999 -0.022091998 1.7787864e-38 364 258
0.055229999 0.69999999 -0.022091998 1.7603114e-38 365 258
0.056457333 0.69999999 -0.022091998 1.7326527e-38 366 258
0.057519849 0.69800001 -0.02202888 1.6865549e-38 367 258
0.058743682 0.69800001 -0.02202888 1.6129802e-38 368 258
0.06039707 0.70300001 -0.02218668 1.5668823e-38 369 258
0.061629668 0.70300001 -0.02218668 1.5490619e-38 370 258
0.00793208 0.75400001 -0.025118252 1.2170099e-38 326 259
0.0092295464 0.75199997 -0.025051624 1.2262295e-38 327 259
0.01052 0.75 -0.024984999 1.263e-38 328 259
0.011787659 0.74699998 -0.024885058 1.2722195e-38 329 259
0.013079867 0.74599999 -0.024851745 1.3458321e-38 330 259
0.014387853 0.74599999 -0.024851745 1.3826744e-38 331 259
0.015653761 0.74400002 -0.02478512 1.437848e-38 332 259
0.016889861 0.741 -0.024685178 1.4746902e-38 333 259
0.018115439 0.73799998 -0.024585238 1.5115315e-38 334 259
0.019304199 0.73400003 -0.024451986 1.5207512e-38 335 259
0.020563092 0.73299998 -0.024418673 1.5575927e-38 336 259
0.021758866 0.73000002 -0.024318734 1.5760318e-38 337 259
0.022975679 0.72799999 -0.024252106 1.5853234e-38 338 259
0.024218792 0.727 -0.024218792 1.594543e-38 339 259
0.025493465 0.727 -0.024218792 1.6129098e-38 340 259
0.026584039 0.722 -0.024052227 1.6221294e-38 341 259
0.027772799 0.72000003 -0.0239856 1.6221647e-38 342 259
0.028914221 0.71700001 -0.02388566 1.6313842e-38 343 259
0.030045118 0.71399999 -0.02378572 1.6589353e-38 344 259
0.031253166 0.713 -0.023752406 1.6681549e-38 345 259
0.032412119 0.71100003 -0.023685781 1.695849e-38 346 259
0.033611398 0.70999998 -0.023652466 1.7327271e-38 347 259
0.034856264 0.70999998 -0.023652466 1.8063742e-38 348 259
0.03599944 0.708 -0.023585839 1.8248133e-38 349 259
0.037188202 0.70700002 -0.023552528 1.843288e-38 350 259
0.038264744 0.704 -0.023452586 1.843288e-38 351 259
0.039442986 0.70300001 -0.023419274 1.8616195e-38 352 259
0.040559858 0.70099998 -0.023352645 1.8616195e-38 353 259
0.041788943 0.70099998 -0.023352645 1.8616913e-38 354 259
0.042956665 0.69999999 -0.023319334 1.8709109e-38 355 259
0.044183996 0.69999999 -0.023319334 1.8800585e-38 356 259
0.045281585 0.69800001 -0.023252707 1.8984616e-38 357 259
0.046505414 0.69800001 -0.023252707 1.8984253e-38 358 259
0.047729239 0.69800001 -0.023252707 1.8892058e-38 359 259
0.048953064 0.69800001 -0.023252707 1.8891338e-38 360 259
0.050176892 0.69800001 -0.023252707 1.8706588e-38 361 259
0.051327083 0.69700003 -0.023219392 1.8431796e-38 362 259
0.052549154 0.69700003 -0.023219392 1.83396e-38 363 259
0.053848371 0.69800001 -0.023252707 1.8063727e-38 364 259
0.0550722 0.69800001 -0.023252707 1.7786779e-38 365 259
0.056296028 0.69800001 -0.023252707 1.7693865e-38 366 259
0.05743745 0.69700003 -0.023219392 1.7417277e-38 367 259
0.05865952 0.69700003 -0.023219392 1.6864127e-38 368 259
0.05988159 0.69700003 -0.023219392 1.6494984e-38 369 259
0.061015997 0.69599998 -0.023186078 1.5026032e-38 370 259
0.01052 0.75 -0.0263 1.2904061e-38 328 260
0.01181922 0.74900001 -0.026264934 1.2996259e-38 329 260
0.013097399 0.74699998 -0.026194798 1.3181009e-38 330 260
0.014387853 0.74599999 -0.026159734 1.3273204e-38 331 260
0.015653761 0.74400002 -0.026089599 1.3366486e-38 332 260
0.016889861 0.741 -0.025984399 1.3735627e-38 333 260
0.018115439 0.73799998 -0.025879199 1.4195886e-38 334 260
0.019304199 0.73400003 -0.025738932 1.4564309e-38 335 260
0.020563092 0.73299998 -0.025703866 1.5207865e-38 336 260
0.021758866 0.73000002 -0.025598666 1.5392256e-38 337 260
0.022975679 0.72799999 -0.025528532 1.5943984e-38 338 260
0.024218792 0.727 -0.025493465 1.6128375e-38 339 260
0.025493465 0.727 -0.025493465 1.6220938e-38 340 260
0.026584039 0.722 -0.025318133 1.6128742e-38 341 260
0.027734226 0.71899998 -0.025212931 1.6221294e-38 342 260
0.028873893 0.71600002 -0.025107734 1.6313489e-38 343 260
0.030045118 0.71399999 -0.025037598 1.6588631e-38 344 260
0.031165501 0.71100003 -0.024932399 1.6680827e-38 345 260
0.032366529 0.70999998 -0.024897331 1.713964e-38 346 260
0.033516716 0.708 -0.024827199 1.760026e-38 347 260
0.034708988 0.70700002 -0.024792133 1.8155219e-38 348 260
0.035897743 0.70599997 -0.024757065 1.833925e-38 349 260
0.037030395 0.704 -0.024686933 1.8523275e-38 350 260
0.038210396 0.70300001 -0.024651866 1.8523275e-38 351 260
0.039330769 0.70099998 -0.024581732 1.8798786e-38 352 260
0.040559858 0.70099998 -0.024581732 1.8798786e-38 353 260
0.041729331 0.69999999 -0.024546666 1.8616195e-38 354 260
0.042833932 0.69800001 -0.024476532 1.8708392e-38 355 260
0.04405776 0.69800001 -0.024476532 1.8983898e-38 356 260
0.045216713 0.69700003 -0.024441468 1.9076452e-38 357 260
0.046438783 0.69700003 -0.024441468 1.9076452e-38 358 260
0.047660861 0.69700003 -0.024441468 1.8891702e-38 359 260
0.048882935 0.69700003 -0.024441468 1.870839e-38 360 260
0.050033119 0.69599998 -0.0244064 1.8523997e-38 361 260
0.051253434 0.69599998 -0.0244064 1.8340682e-38 362 260
0.052473757 0.69599998 -0.0244064 1.8248486e-38 363 260
0.053694077 0.69599998 -0.0244064 1.7971541e-38 364 260
0.054914396 0.69599998 -0.0244064 1.7787508e-38 365 260
0.056134716 0.69599998 -0.0244064 1.7510565e-38 366 260
0.057355035 0.69599998 -0.0244064 1.7326174e-38 367 260
0.058575355 0.69599998 -0.0244064 1.6682255e-38 368 260
0.059795678 0.69599998 -0.0244064 1.6589701e-38 369 260
0.061015997 0.69599998 -0.0244064 1.5300079e-38 370 260
0.062236317 0.69599998 -0.0244064 1.548447e-38 371 260
0.014407139 0.74699998 -0.027504537 1.2721119e-38 331 261
0.015695838 0.74599999 -0.027467718 1.2904807e-38 332 261
0.016912652 0.74199998 -0.027320439 1.3181754e-38 333 261
0.018139986 0.73900002 -0.027209979 1.3642372e-38 334 261
0.019304199 0.73400003 -0.02702588 1.4011155e-38 335 261
0.020563092 0.73299998 -0.026989058 1.4747258e-38 336 261
0.021758866 0.73000002 -0.026878599 1.5207877e-38 337 261
0.022975679 0.72799999 -0.026804959 1.5484455e-38 338 261
0.024218792 0.727 -0.026768139 1.5853237e-38 339 261
0.025318133 0.722 -0.026584039 1.5945433e-38 340 261
0.026584039 0.722 -0.026584039 1.6037628e-38 341 261
0.027734226 0.71899998 -0.02647358 1.6221291e-38 342 261
0.028873893 0.71600002 -0.026363119 1.6313487e-38 343 261
0.030003037 0.713 -0.026252659 1.6680827e-38 344 261
0.031121666 0.70999998 -0.026142199 1.6680827e-38 345 261
0.03227536 0.708 -0.026068559 1.668083e-38 346 261
0.033516716 0.708 -0.026068559 1.7049254e-38 347 261
0.034659892 0.70599997 -0.025994917 1.7877921e-38 348 261
0.035796054 0.704 -0.02592128 1.8062673e-38 349 261
0.036977798 0.70300001 -0.025884461 1.8155938e-38 350 261
0.038101684 0.70099998 -0.025810819 1.8248133e-38 351 261
0.039162453 0.69800001 -0.025700359 1.8340332e-38 352 261
0.040386278 0.69800001 -0.025700359 1.8432527e-38 353 261
0.041550495 0.69700003 -0.025663542 1.8432527e-38 354 261
0.042711195 0.69599998 -0.025626717 1.861656e-38 355 261
0.043931518 0.69599998 -0.025626717 1.8708758e-38 356 261
0.045151837 0.69599998 -0.025626717 1.8708758e-38 357 261
0.046238903 0.69400001 -0.025553079 1.8983898e-38 358 261
0.047455717 0.69400001 -0.025553079 1.8891702e-38 359 261
0.048672531 0.69400001 -0.025553079 1.8892052e-38 360 261
0.049889345 0.69400001 -0.025553079 1.870766e-38 361 261
0.051106159 0.69400001 -0.025553079 1.8524345e-38 362 261
0.052322973 0.69400001 -0.025553079 1.8339953e-38 363 261
0.053539783 0.69400001 -0.025553079 1.8063727e-38 364 261
0.054756597 0.69400001 -0.025553079 1.7971529e-38 365 261
0.055973411 0.69400001 -0.025553079 1.7878256e-38 366 261
0.057355035 0.69599998 -0.025626717 1.7601669e-38 367 261
0.058575355 0.69599998 -0.025626717 1.6866268e-38 368 261
0.059795678 0.69599998 -0.025626717 1.6590041e-38 369 261
0.061015997 0.69599998 -0.025626717 1.5759237e-38 370 261
0.061968062 0.69300002 -0.02551626 1.5390813e-38 371 261
0.063183114 0.69300002 -0.02551626 1.576686e-38 372 261
0.016958239 0.74400002 -0.02869856 1.3088475e-38 333 262
0.018213626 0.74199998 -0.028621411 1.3182104e-38 334 262
0.019304199 0.73400003 -0.028312827 1.3643081e-38 335 262
0.020563092 0.73299998 -0.028274251 1.4378845e-38 336 262
0.021758866 0.73000002 -0.028158534 1.4932019e-38 337 262
0.022975679 0.72799999 -0.028081384 1.5391909e-38 338 262
0.024052227 0.722 -0.027849946 1.5668135e-38 339 262
0.025318133 0.722 -0.027849946 1.6036547e-38 340 262
0.026510401 0.72000003 -0.027772799 1.6036547e-38 341 262
0.027657079 0.71700001 -0.027657079 1.6221647e-38 342 262
0.028873893 0.71600002 -0.027618507 1.6313842e-38 343 262
0.030003037 0.713 -0.027502786 1.6588982e-38 344 262
0.031121666 0.70999998 -0.027387066 1.6681536e-38 345 262
0.03227536 0.708 -0.027309919 1.6772653e-38 346 262
0.033469379 0.70700002 -0.027271347 1.704924e-38 347 262
0.034561705 0.704 -0.027155625 1.7602767e-38 348 262
0.035745207 0.70300001 -0.027117053 1.7787159e-38 349 262
0.036872596 0.70099998 -0.027039904 1.8155216e-38 350 262
0.038047329 0.69999999 -0.027001332 1.8339247e-38 351 262
0.039106347 0.69700003 -0.026885614 1.8523278e-38 352 262
0.040270556 0.69599998 -0.026847038 1.8523278e-38 353 262
0.041371655 0.69400001 -0.026769891 1.8707312e-38 354 262
0.042527102 0.69300002 -0.02673132 1.8799508e-38 355 262
0.043615919 0.69099998 -0.026654173 1.8891708e-38 356 262
0.044827472 0.69099998 -0.026654173 1.8983903e-38 357 262
0.04617228 0.69300002 -0.02673132 1.89839e-38 358 262
0.047387339 0.69300002 -0.02673132 1.89839e-38 359 262
0.048602402 0.69300002 -0.02673132 1.8800938e-38 360 262
0.049817458 0.69300002 -0.02673132 1.8616546e-38 361 262
0.050885238 0.69099998 -0.026654173 1.8341035e-38 362 262
0.052096792 0.69099998 -0.026654173 1.8248839e-38 363 262
0.053462639 0.69300002 -0.02673132 1.8064445e-38 364 262
0.054677699 0.69300002 -0.02673132 1.7787858e-38 365 262
0.055892758 0.69300002 -0.02673132 1.7694587e-38 366 262
0.057107817 0.69300002 -0.02673132 1.7694587e-38 367 262
0.058322877 0.69300002 -0.02673132 1.686735e-38 368 262
0.059623852 0.69400001 -0.026769891 1.6590404e-38 369 262
0.060752999 0.69300002 -0.02673132 1.6128731e-38 370 262
0.061968062 0.69300002 -0.02673132 1.5851785e-38 371 262
0.063183114 0.69300002 -0.02673132 1.5027127e-38 372 262
0.064398177 0.69300002 -0.02673132 1.6871039e-38 373 262
0.019356798 0.736 -0.029680425 1.2998077e-38 335 263
0.020563092 0.73299998 -0.029559445 1.355053e-38 336 263
0.021669446 0.727 -0.029317487 1.4011508e-38 337 263
0.022786319 0.722 -0.029115854 1.5022413e-38 338 263
0.0239856 0.72000003 -0.029035201 1.529936e-38 339 263
0.025248 0.72000003 -0.029035201 1.603511e-38 340 263
0.02639994 0.71700001 -0.028914221 1.6311338e-38 341 263
0.027618507 0.71600002 -0.028873893 1.6221647e-38 342 263
0.028793238 0.71399999 -0.028793238 1.6313842e-38 343 263
0.029876797 0.70999998 -0.028631933 1.6589338e-38 344 263
0.031034 0.708 -0.02855128 1.6681533e-38 345 263
0.032229774 0.70700002 -0.028510952 1.6681533e-38 346 263
0.033422034 0.70599997 -0.028470624 1.695776e-38 347 263
0.034561705 0.704 -0.028389972 1.7509496e-38 348 263
0.035745207 0.70300001 -0.028349647 1.7878277e-38 349 263
0.036819998 0.69999999 -0.028228667 1.8155219e-38 350 263
0.037938625 0.69800001 -0.028148014 1.8155219e-38 351 263
0.039050236 0.69599998 -0.028067358 1.8338531e-38 352 263
0.040154841 0.69400001 -0.027986705 1.8430727e-38 353 263
0.041371655 0.69400001 -0.027986705 1.8522922e-38 354 263
0.042404365 0.69099998 -0.027865725 1.8707312e-38 355 263
0.043552797 0.69 -0.027825398 1.861584e-38 356 263
0.0447626 0.69 -0.027825398 1.8708037e-38 357 263
0.046039023 0.69099998 -0.027865725 1.8983182e-38 358 263
0.047250576 0.69099998 -0.027865725 1.8983182e-38 359 263
0.048391998 0.69 -0.027825398 1.8799858e-38 360 263
0.049601797 0.69 -0.027825398 1.8707662e-38 361 263
0.050664321 0.68800002 -0.027744746 1.8432152e-38 362 263
0.051870614 0.68800002 -0.027744746 1.8339956e-38 363 263
0.053231198 0.69 -0.027825398 1.8063727e-38 364 263
0.054440998 0.69 -0.027825398 1.7878975e-38 365 263
0.055650797 0.69 -0.027825398 1.7786063e-38 366 263
0.0568606 0.69 -0.027825398 1.7693868e-38 367 263
0.058070395 0.69 -0.027825398 1.6958466e-38 368 263
0.059280202 0.69 -0.027825398 1.6681881e-38 369 263
0.060314666 0.68800002 -0.027744746 1.6404237e-38 370 263
0.06152096 0.68800002 -0.027744746 1.6035814e-38 371 263
0.06272725 0.68800002 -0.027744746 1.4288113e-38 372 263
0.020591147 0.73400003 -0.030886721 1.2721851e-38 336 264
0.021520413 0.722 -0.030381758 1.318247e-38 337 264
0.022723202 0.72000003 -0.0302976 1.428593e-38 338 264
0.023952285 0.71899998 -0.030255521 1.4654353e-38 339 264
0.025212931 0.71899998 -0.030255521 1.5114962e-38 340 264
0.02639994 0.71700001 -0.030171359 1.5668135e-38 341 264
0.02754136 0.71399999 -0.030045118 1.6036898e-38 342 264
0.028631933 0.70999998 -0.029876797 1.6313487e-38 343 264
0.029876797 0.70999998 -0.029876797 1.6589338e-38 344 264
0.030990168 0.70700002 -0.029750559 1.6681533e-38 345 264
0.032184184 0.70599997 -0.029708479 1.6865562e-38 346 264
0.03332736 0.704 -0.029624319 1.6958116e-38 347 264
0.034512613 0.70300001 -0.029582238 1.7234354e-38 348 264
0.035592664 0.69999999 -0.029455997 1.7510581e-38 349 264
0.0367148 0.69800001 -0.029371841 1.7971193e-38 350 264
0.037884273 0.69700003 -0.02932976 1.8063389e-38 351 264
0.038938027 0.69400001 -0.029203519 1.8338531e-38 352 264
0.04009698 0.69300002 -0.029161438 1.8430727e-38 353 264
0.041312039 0.69300002 -0.029161438 1.8430727e-38 354 264
0.042342998 0.69 -0.029035198 1.8707312e-38 355 264
0.043426562 0.68800002 -0.028951041 1.8340332e-38 356 264
0.044632856 0.68800002 -0.028951041 1.861656e-38 357 264
0.045839146 0.68800002 -0.028951041 1.8891705e-38 358 264
0.047045439 0.68800002 -0.028951041 1.8891705e-38 359 264
0.048181597 0.68699998 -0.028908957 1.8799858e-38 360 264
0.049386136 0.68699998 -0.028908957 1.8707662e-38 361 264
0.050590675 0.68699998 -0.028908957 1.8431796e-38 362 264
0.051795214 0.68699998 -0.028908957 1.8155569e-38 363 264
0.052999757 0.68699998 -0.028908957 1.8154486e-38 364 264
0.054204296 0.68699998 -0.028908957 1.806229e-38 365 264
0.055408835 0.68699998 -0.028908957 1.7785708e-38 366 264
0.056613375 0.68699998 -0.028908957 1.7601316e-38 367 264
0.057817914 0.68699998 -0.028908957 1.695811e-38 368 264
0.059022456 0.68699998 -0.028908957 1.6681884e-38 369 264
0.060226995 0.68699998 -0.028908957 1.631204e-38 370 264
0.061431535 0.68699998 -0.028908957 1.631204e-38 371 264
0.062636077 0.68699998 -0.028908957 1.4285946e-38 372 264
0.06384062 0.68699998 -0.028908957 1.5115707e-38 373 264
0.021460801 0.72000003 -0.03156 1.216904e-38 337 265
0.022723202 0.72000003 -0.03156 1.2998077e-38 338 265
0.02388566 0.71700001 -0.031428497 1.3551251e-38 339 265
0.0251428 0.71700001 -0.031428497 1.4562514e-38 340 265
0.026363119 0.71600002 -0.031384666 1.5023493e-38 341 265
0.02754136 0.71399999 -0.031296998 1.5760318e-38 342 265
0.028631933 0.70999998 -0.031121666 1.6313492e-38 343 265
0.02979264 0.708 -0.031034 1.6681183e-38 344 265
0.030990168 0.70700002 -0.030990168 1.6865214e-38 345 265
0.032184184 0.70599997 -0.030946331 1.6865211e-38 346 265
0.03332736 0.704 -0.030858666 1.6957407e-38 347 265
0.034512613 0.70300001 -0.030814834 1.7325473e-38 348 265
0.035592664 0.69999999 -0.030683333 1.7509865e-38 349 265
0.0367148 0.69800001 -0.030595668 1.7787162e-38 350 265
0.037829921 0.69599998 -0.030507999 1.7971193e-38 351 265
0.03888192 0.69300002 -0.0303765 1.8338884e-38 352 265
0.0399234 0.69 -0.030244999 1.8338884e-38 353 265
0.041013971 0.68800002 -0.030157333 1.8338881e-38 354 265
0.042158898 0.68699998 -0.030113498 1.8523631e-38 355 265
0.043300316 0.68599999 -0.030069664 1.8523997e-38 356 265
0.044503104 0.68599999 -0.030069664 1.8616193e-38 357 265
0.045705888 0.68599999 -0.030069664 1.8799508e-38 358 265
0.046908677 0.68599999 -0.030069664 1.8799508e-38 359 265
0.048111461 0.68599999 -0.030069664 1.8799505e-38 360 265
0.049314249 0.68599999 -0.030069664 1.8707309e-38 361 265
0.050517038 0.68599999 -0.030069664 1.8431799e-38 362 265
0.051569041 0.68400002 -0.029982001 1.8339603e-38 363 265
0.05276832 0.68400002 -0.029982001 1.8063373e-38 364 265
0.054125395 0.68599999 -0.030069664 1.7971176e-38 365 265
0.055328183 0.68599999 -0.030069664 1.75102e-38 366 265
0.056530971 0.68599999 -0.030069664 1.7418004e-38 367 265
0.057733759 0.68599999 -0.030069664 1.695811e-38 368 265
0.058936544 0.68599999 -0.030069664 1.6681884e-38 369 265
0.060139328 0.68599999 -0.030069664 1.6221275e-38 370 265
0.061431535 0.68699998 -0.030113498 1.6036883e-38 371 265
0.062636077 0.68699998 -0.030113498 1.4838384e-38 372 265
0.06384062 0.68699998 -0.030113498 1.5206808e-38 373 265
0.022723202 0.72000003 -0.0328224 1.1433645e-38 338 266
0.02388566 0.71700001 -0.032685637 1.217121e-38 339 266
0.0251428 0.71700001 -0.032685637 1.3825319e-38 340 266
0.026363119 0.71600002 -0.032640055 1.4286297e-38 341 266
0.02754136 0.71399999 -0.032548878 1.5208231e-38 342 266
0.028631933 0.70999998 -0.032366529 1.6037991e-38 343 266
0.02979264 0.708 -0.03227536 1.6681552e-38 344 266
0.030990168 0.70700002 -0.032229774 1.6588997e-38 345 266
0.032184184 0.70599997 -0.032184184 1.6957057e-38 346 266
0.03332736 0.704 -0.032093015 1.6957057e-38 347 266
0.034561705 0.704 -0.032093015 1.6865941e-38 348 266
0.035796054 0.704 -0.032093015 1.7234723e-38 349 266
0.036609598 0.69599998 -0.031728316 1.8062673e-38 350 266
0.037829921 0.69599998 -0.031728316 1.8062673e-38 351 266
0.038601387 0.68800002 -0.031363625 1.8246688e-38 352 266
0.039749816 0.68699998 -0.031318039 1.8338884e-38 353 266
0.040894743 0.68599999 -0.031272452 1.8339603e-38 354 266
0.041974798 0.68400002 -0.03118128 1.8339603e-38 355 266
0.043174081 0.68400002 -0.03118128 1.8431092e-38 356 266
0.04437336 0.68400002 -0.03118128 1.8523647e-38 357 266
0.045572639 0.68400002 -0.03118128 1.8799159e-38 358 266
0.046771921 0.68400002 -0.03118128 1.8799159e-38 359 266
0.0479712 0.68400002 -0.03118128 1.8706956e-38 360 266
0.049170479 0.68400002 -0.03118128 1.8522925e-38 361 266
0.05029612 0.68300003 -0.031135695 1.8431083e-38 362 266
0.051493648 0.68300003 -0.031135695 1.8338528e-38 363 266
0.052691177 0.68300003 -0.031135695 1.8245963e-38 364 266
0.053888701 0.68300003 -0.031135695 1.7969376e-38 365 266
0.055086225 0.68300003 -0.031135695 1.7693868e-38 366 266
0.056283753 0.68300003 -0.031135695 1.7509116e-38 367 266
0.057733759 0.68599999 -0.031272452 1.6957745e-38 368 266
0.058936544 0.68599999 -0.031272452 1.6773353e-38 369 266
0.059964001 0.68400002 -0.03118128 1.6588605e-38 370 266
0.061163284 0.68400002 -0.03118128 1.6312378e-38 371 266
0.062362559 0.68400002 -0.03118128 1.5390104e-38 372 266
0.063747689 0.68599999 -0.031272452 1.5390104e-38 373 266
0.02388566 0.71700001 -0.033942781 1.0054674e-38 339 267
0.0251428 0.71700001 -0.033942781 1.2443832e-38 340 267
0.02639994 0.71700001 -0.033942781 1.3181398e-38 341 267
0.027657079 0.71700001 -0.033942781 1.4655791e-38 342 267
0.02855128 0.708 -0.033516716 1.594653e-38 343 267
0.02979264 0.708 -0.033516716 1.668048e-38 344 267
0.030990168 0.70700002 -0.033469379 1.6864511e-38 345 267
0.032093015 0.704 -0.03332736 1.6957057e-38 346 267
0.03332736 0.704 -0.03332736 1.6957057e-38 347 267
0.034561705 0.704 -0.03332736 1.695741e-38 348 267
0.035796054 0.704 -0.03332736 1.7234357e-38 349 267
0.036083598 0.68599999 -0.032475237 1.8062667e-38 350 267
0.037286382 0.68599999 -0.032475237 1.8062667e-38 351 267
0.03848917 0.68599999 -0.032475237 1.8246688e-38 352 267
0.03957624 0.68400002 -0.032380559 1.8246688e-38 353 267
0.040715907 0.68300003 -0.032333218 1.8338884e-38 354 267
0.041913435 0.68300003 -0.032333218 1.8338884e-38 355 267
0.043047838 0.68199998 -0.032285877 1.8431083e-38 356 267
0.044243611 0.68199998 -0.032285877 1.8523278e-38 357 267
0.045439381 0.68199998 -0.032285877 1.8799508e-38 358 267
0.046635158 0.68199998 -0.032285877 1.8799508e-38 359 267
0.047830928 0.68199998 -0.032285877 1.8616195e-38 360 267
0.049098592 0.68300003 -0.032333218 1.8431445e-38 361 267
0.050222475 0.68199998 -0.032285877 1.8431083e-38 362 267
0.051418249 0.68199998 -0.032285877 1.8246333e-38 363 267
0.052459732 0.68000001 -0.032191198 1.7970823e-38 364 267
0.053652 0.68000001 -0.032191198 1.7786432e-38 365 267
0.055005573 0.68199998 -0.032285877 1.7508766e-38 366 267
0.056201346 0.68199998 -0.032285877 1.7508766e-38 367 267
0.05739712 0.68199998 -0.032285877 1.6957748e-38 368 267
0.058592889 0.68199998 -0.032285877 1.6865552e-38 369 267
0.059788663 0.68199998 -0.032285877 1.6314177e-38 370 267
0.060984433 0.68199998 -0.032285877 1.603723e-38 371 267
0.06227139 0.68300003 -0.032333218 1.5300416e-38 372 267
0.063561834 0.68400002 -0.032380559 1.5300416e-38 373 267
0.029624319 0.704 -0.034561705 1.6497897e-38 344 268
0.032093015 0.704 -0.034561705 1.6773391e-38 346 268
0.03332736 0.704 -0.034561705 1.6773391e-38 347 268
0.034561705 0.704 -0.034561705 1.6866297e-38 348 268
0.034677424 0.68199998 -0.03348165 1.7142524e-38 349 268
0.035873197 0.68199998 -0.03348165 1.8062667e-38 350 268
0.037068974 0.68199998 -0.03348165 1.8062667e-38 351 268
0.038264744 0.68199998 -0.03348165 1.806302e-38 352 268
0.039460517 0.68199998 -0.03348165 1.806302e-38 353 268
0.040656291 0.68199998 -0.03348165 1.8246333e-38 354 268
0.041852064 0.68199998 -0.03348165 1.8431083e-38 355 268
0.042921599 0.68000001 -0.033383466 1.8431801e-38 356 268
0.044113863 0.68000001 -0.033383466 1.8616193e-38 357 268
0.045306131 0.68000001 -0.033383466 1.8799508e-38 358 268
0.046430022 0.67900002 -0.033334374 1.8799508e-38 359 268
0.047620531 0.67900002 -0.033334374 1.8707309e-38 360 268
0.048811045 0.67900002 -0.033334374 1.8431083e-38 361 268
0.050001562 0.67900002 -0.033334374 1.8246688e-38 362 268
0.050965894 0.676 -0.033187091 1.8061937e-38 363 268
0.052151144 0.676 -0.033187091 1.7785713e-38 364 268
0.053573098 0.67900002 -0.033334374 1.7693159e-38 365 268
0.054763615 0.67900002 -0.033334374 1.6957392e-38 366 268
0.055954125 0.67900002 -0.033334374 1.7049946e-38 367 268
0.057228796 0.68000001 -0.033383466 1.6957745e-38 368 268
0.058421064 0.68000001 -0.033383466 1.6773353e-38 369 268
0.059613332 0.68000001 -0.033383466 1.6405643e-38 370 268
0.060984433 0.68199998 -0.03348165 1.6313447e-38 371 268
0.062180214 0.68199998 -0.03348165 1.5576275e-38 372 268
0.063468911 0.68300003 -0.033530746 1.5484079e-38 373 268
0.03348165 0.68199998 -0.034677424 1.6773744e-38 348 269
0.034677424 0.68199998 -0.034677424 1.7142527e-38 349 269
0.035873197 0.68199998 -0.034677424 1.7970472e-38 350 269
0.036960267 0.68000001 -0.034575731 1.7970472e-38 351 269
0.038096428 0.67900002 -0.034524884 1.8246686e-38 352 269
0.039286941 0.67900002 -0.034524884 1.8154489e-38 353 269
0.040477451 0.67900002 -0.034524884 1.8338518e-38 354 269
0.041667968 0.67900002 -0.034524884 1.8522549e-38 355 269
0.042795356 0.67799997 -0.034474038 1.8431077e-38 356 269
0.043984115 0.67799997 -0.034474038 1.8523631e-38 357 269
0.045039624 0.676 -0.034372345 1.8799142e-38 358 269
0.0461565 0.67500001 -0.034321502 1.8799142e-38 359 269
0.047339998 0.67500001 -0.034321502 1.8523275e-38 360 269
0.048451614 0.67400002 -0.034270655 1.8338884e-38 361 269
0.049633358 0.67400002 -0.034270655 1.7878609e-38 362 269
0.050890498 0.67500001 -0.034321502 1.7417271e-38 363 269
0.052074 0.67500001 -0.034321502 1.7048127e-38 364 269
0.053257499 0.67500001 -0.034321502 1.7416908e-38 365 269
0.054763615 0.67900002 -0.034524884 1.6958098e-38 366 269
0.055954125 0.67900002 -0.034524884 1.6958098e-38 367 269
0.057228796 0.68000001 -0.034575731 1.6682234e-38 368 269
0.058421064 0.68000001 -0.034575731 1.6590038e-38 369 269
0.059613332 0.68000001 -0.034575731 1.631453e-38 370 269
0.0608056 0.68000001 -0.034575731 1.6222333e-38 371 269
0.061997864 0.68000001 -0.034575731 1.5852864e-38 372 269
0.063190132 0.68000001 -0.034575731 1.5852864e-38 373 269
0.064382397 0.68000001 -0.034575731 1.456507e-38 374 269
0.03348165 0.68199998 -0.035873197 1.7049607e-38 348 270
0.034677424 0.68199998 -0.035873197 1.7234357e-38 349 270
0.035767999 0.68000001 -0.035767999 1.7970826e-38 350 270
0.036905911 0.67900002 -0.035715401 1.7970826e-38 351 270
0.038040318 0.67799997 -0.0356628 1.8154491e-38 352 270
0.039229076 0.67799997 -0.0356628 1.8154491e-38 353 270
0.040417835 0.67799997 -0.0356628 1.8245965e-38 354 270
0.041606598 0.67799997 -0.0356628 1.8338162e-38 355 270
0.042669121 0.676 -0.035557602 1.843108e-38 356 270
0.043789499 0.67500001 -0.035505001 1.8523275e-38 357 270
0.044906374 0.67400002 -0.035452399 1.8706588e-38 358 270
0.046088122 0.67400002 -0.035452399 1.8799142e-38 359 270
0.047269866 0.67400002 -0.035452399 1.843108e-38 360 270
0.04830784 0.67199999 -0.035347197 1.8338884e-38 361 270
0.049486078 0.67199999 -0.035347197 1.8062641e-38 362 270
0.050664317 0.67199999 -0.035347197 1.7602022e-38 363 270
0.051842555 0.67199999 -0.035347197 1.7416187e-38 364 270
0.053020798 0.67199999 -0.035347197 1.7600218e-38 365 270
0.054360349 0.67400002 -0.035452399 1.7141763e-38 366 270
0.0556245 0.67500001 -0.035505001 1.7049568e-38 367 270
0.057060476 0.67799997 -0.0356628 1.6590036e-38 368 270
0.058335152 0.67900002 -0.035715401 1.649784e-38 369 270
0.059613332 0.68000001 -0.035767999 1.6405293e-38 370 270
0.0608056 0.68000001 -0.035767999 1.6313097e-38 371 270
0.061997864 0.68000001 -0.035767999 1.585322e-38 372 270
0.063190132 0.68000001 -0.035767999 1.5760666e-38 373 270
0.064382397 0.68000001 -0.035767999 1.4562905e-38 374 270
0.03348165 0.68199998 -0.037068974 1.6866295e-38 348 271
0.034677424 0.68199998 -0.037068974 1.7235076e-38 349 271
0.035767999 0.68000001 -0.036960267 1.8154135e-38 350 271
0.036905911 0.67900002 -0.036905911 1.8154135e-38 351 271
0.037928104 0.676 -0.036742851 1.8063373e-38 352 271
0.039113361 0.676 -0.036742851 1.7971176e-38 353 271
0.040238999 0.67500001 -0.036688499 1.8154491e-38 354 271
0.041422497 0.67500001 -0.036688499 1.8246688e-38 355 271
0.042606 0.67500001 -0.036688499 1.8338884e-38 356 271
0.043594878 0.67199999 -0.036525436 1.843108e-38 357 271
0.044706494 0.671 -0.036471087 1.8431083e-38 358 271
0.045882981 0.671 -0.036471087 1.8523278e-38 359 271
0.047059465 0.671 -0.036471087 1.8614745e-38 360 271
0.048235953 0.671 -0.036471087 1.8522549e-38 361 271
0.049412437 0.671 -0.036471087 1.8154826e-38 362 271
0.050588924 0.671 -0.036471087 1.7970076e-38 363 271
0.051765412 0.671 -0.036471087 1.7784965e-38 364 271
0.052941896 0.671 -0.036471087 1.7600574e-38 365 271
0.054118387 0.671 -0.036471087 1.7141044e-38 366 271
0.055377278 0.67199999 -0.036525436 1.7048849e-38 367 271
0.056808002 0.67500001 -0.036688499 1.6681158e-38 368 271
0.058077414 0.676 -0.036742851 1.6588961e-38 369 271
0.059437994 0.67799997 -0.036851559 1.6129432e-38 370 271
0.060626756 0.67799997 -0.036851559 1.6037236e-38 371 271
0.061815511 0.67799997 -0.036851559 1.5760666e-38 372 271
0.063097201 0.67900002 -0.036905911 1.566847e-38 373 271
0.064382397 0.68000001 -0.036960267 1.4010083e-38 374 271
0.033530746 0.68300003 -0.038320854 1.7232919e-38 348 272
0.034575731 0.68000001 -0.038152531 1.7509865e-38 349 272
0.035715401 0.67900002 -0.038096428 1.7694959e-38 350 272
0.036851559 0.67799997 -0.038040318 1.7694959e-38 351 272
0.037871998 0.67500001 -0.037871998 1.8154489e-38 352 272
0.039055496 0.67500001 -0.037871998 1.8154489e-38 353 272
0.040238999 0.67500001 -0.037871998 1.8338165e-38 354 272
0.041422497 0.67500001 -0.037871998 1.8338165e-38 355 272
0.042542879 0.67400002 -0.037815895 1.8522199e-38 356 272
0.043465134 0.67000002 -0.037591465 1.8614395e-38 357 272
0.044639867 0.67000002 -0.037591465 1.8614392e-38 358 272
0.0458146 0.67000002 -0.037591465 1.8614392e-38 359 272
0.046989333 0.67000002 -0.037591465 1.8614742e-38 360 272
0.048164066 0.67000002 -0.037591465 1.8522547e-38 361 272
0.049338799 0.67000002 -0.037591465 1.8063721e-38 362 272
0.050362743 0.66799998 -0.037479252 1.7787133e-38 363 272
0.051533967 0.66799998 -0.037479252 1.7694218e-38 364 272
0.052705199 0.66799998 -0.037479252 1.7417271e-38 365 272
0.054118387 0.671 -0.037647571 1.7048496e-38 366 272
0.055294871 0.671 -0.037647571 1.7048496e-38 367 272
0.056471359 0.671 -0.037647571 1.6680082e-38 368 272
0.057905588 0.67400002 -0.037815895 1.6587886e-38 369 272
0.059175 0.67500001 -0.037871998 1.6037236e-38 370 272
0.060358498 0.67500001 -0.037871998 1.594504e-38 371 272
0.061633173 0.676 -0.037928104 1.5668826e-38 372 272
0.062818423 0.676 -0.037928104 1.5484076e-38 373 272
0.064003684 0.676 -0.037928104 1.4009718e-38 374 272
0.034575731 0.68000001 -0.039344799 1.7234367e-38 349 273
0.035715401 0.67900002 -0.039286941 1.7510934e-38 350 273
0.036688499 0.67500001 -0.039055496 1.760313e-38 351 273
0.037703678 0.67199999 -0.03888192 1.8154135e-38 352 273
0.03888192 0.67199999 -0.03888192 1.8154135e-38 353 273
0.039702479 0.66600001 -0.03853476 1.8246333e-38 354 273
0.040870197 0.66600001 -0.03853476 1.8246333e-38 355 273
0.042353518 0.671 -0.038824059 1.8155219e-38 356 273
0.04327051 0.667 -0.038592618 1.8155219e-38 357 273
0.044439986 0.667 -0.038592618 1.833925e-38 358 273
0.045677837 0.66799998 -0.038650475 1.833925e-38 359 273
0.046708796 0.66600001 -0.03853476 1.8155569e-38 360 273
0.047876518 0.66600001 -0.03853476 1.8155569e-38 361 273
0.049117878 0.667 -0.038592618 1.7879331e-38 362 273
0.050287351 0.667 -0.038592618 1.7694581e-38 363 273
0.051456824 0.667 -0.038592618 1.750947e-38 364 273
0.052626297 0.667 -0.038592618 1.7141047e-38 365 273
0.053876422 0.66799998 -0.038650475 1.6589685e-38 366 273
0.05504765 0.66799998 -0.038650475 1.6405293e-38 367 273
0.056387197 0.67000002 -0.038766202 1.6312744e-38 368 273
0.057733759 0.67199999 -0.03888192 1.6220548e-38 369 273
0.059087332 0.67400002 -0.038997639 1.5945038e-38 370 273
0.060358498 0.67500001 -0.039055496 1.5945038e-38 371 273
0.061542001 0.67500001 -0.039055496 1.5576625e-38 372 273
0.062725499 0.67500001 -0.039055496 1.5208201e-38 373 273
0.063909002 0.67500001 -0.039055496 1.3457612e-38 374 273
0.03259797 0.66399997 -0.039583251 1.7141802e-38 348 274
0.033762183 0.66399997 -0.039583251 1.7326552e-38 349 274
0.0349264 0.66399997 -0.039583251 1.7695315e-38 350 274
0.036525436 0.67199999 -0.040060159 1.7787511e-38 351 274
0.037647571 0.671 -0.040000543 1.8154486e-38 352 274
0.03853476 0.66600001 -0.039702479 1.8154486e-38 353 274
0.039702479 0.66600001 -0.039702479 1.8154489e-38 354 274
0.040870197 0.66600001 -0.039702479 1.8154489e-38 355 274
0.042037919 0.66600001 -0.039702479 1.8063373e-38 356 274
0.043205637 0.66600001 -0.039702479 1.8063373e-38 357 274
0.04437336 0.66600001 -0.039702479 1.8246686e-38 358 274
0.045541082 0.66600001 -0.039702479 1.8246686e-38 359 274
0.046568532 0.66399997 -0.039583251 1.8246688e-38 360 274
0.047732744 0.66399997 -0.039583251 1.8154491e-38 361 274
0.04904424 0.66600001 -0.039702479 1.7786782e-38 362 274
0.050211959 0.66600001 -0.039702479 1.7418001e-38 363 274
0.051379681 0.66600001 -0.039702479 1.7232887e-38 364 274
0.052547399 0.66600001 -0.039702479 1.69563e-38 365 274
0.053715117 0.66600001 -0.039702479 1.6680082e-38 366 274
0.054965243 0.667 -0.039762091 1.6680082e-38 367 274
0.056218877 0.66799998 -0.039821707 1.6312022e-38 368 274
0.057561934 0.67000002 -0.039940935 1.6312022e-38 369 274
0.059087332 0.67400002 -0.040179387 1.5945035e-38 370 274
0.06026908 0.67400002 -0.040179387 1.5852839e-38 371 274
0.061450824 0.67400002 -0.040179387 1.5301114e-38 372 274
0.062632568 0.67400002 -0.040179387 1.5024526e-38 373 274
0.06381432 0.67400002 -0.040179387 1.3732404e-38 374 274
0.064996064 0.67400002 -0.040179387 1.548412e-38 375 274
0.030269546 0.66399997 -0.040747464 1.6406053e-38 346 275
0.03259797 0.66399997 -0.040747464 1.6958137e-38 348 275
0.033660494 0.662 -0.04062473 1.7234723e-38 349 275
0.034821201 0.662 -0.04062473 1.7694962e-38 350 275
0.036090612 0.66399997 -0.040747464 1.7694962e-38 351 275
0.037254825 0.66399997 -0.040747464 1.7970823e-38 352 275
0.038419038 0.66399997 -0.040747464 1.7970823e-38 353 275
0.039523639 0.66299999 -0.040686097 1.7970823e-38 354 275
0.040686097 0.66299999 -0.040686097 1.806302e-38 355 275
0.041848559 0.66299999 -0.040686097 1.7971541e-38 356 275
0.043075889 0.66399997 -0.040747464 1.7971541e-38 357 275
0.044173479 0.66299999 -0.040686097 1.806302e-38 358 275
0.045335937 0.66299999 -0.040686097 1.7970823e-38 359 275
0.046498399 0.66299999 -0.040686097 1.7878272e-38 360 275
0.047660857 0.66299999 -0.040686097 1.7786076e-38 361 275
0.048896957 0.66399997 -0.040747464 1.7693159e-38 362 275
0.05006117 0.66399997 -0.040747464 1.741657e-38 363 275
0.051225383 0.66399997 -0.040747464 1.7231455e-38 364 275
0.052389596 0.66399997 -0.040747464 1.7047424e-38 365 275
0.053715117 0.66600001 -0.040870197 1.6587886e-38 366 275
0.054882839 0.66600001 -0.040870197 1.649569e-38 367 275
0.056050558 0.66600001 -0.040870197 1.6036514e-38 368 275
0.057304189 0.667 -0.040931564 1.6036514e-38 369 275
0.058824331 0.671 -0.041177034 1.5669527e-38 370 275
0.060000818 0.671 -0.041177034 1.5577331e-38 371 275
0.061268479 0.67199999 -0.041238401 1.5024173e-38 372 275
0.062446721 0.67199999 -0.041238401 1.465575e-38 373 275
0.063624956 0.67199999 -0.041238401 1.3364343e-38 374 275
0.064803198 0.67199999 -0.041238401 1.5300451e-38 375 275
0.030269546 0.66399997 -0.041911677 1.649718e-38 346 276
0.031433757 0.66399997 -0.041911677 1.649718e-38 347 276
0.03259797 0.66399997 -0.041911677 1.7141808e-38 348 276
0.033660494 0.662 -0.041785441 1.7326199e-38 349 276
0.034821201 0.662 -0.041785441 1.7786079e-38 350 276
0.036036257 0.66299999 -0.041848559 1.7878274e-38 351 276
0.037198719 0.66299999 -0.041848559 1.7970823e-38 352 276
0.038361177 0.66299999 -0.041848559 1.7970823e-38 353 276
0.039464023 0.662 -0.041785441 1.797082e-38 354 276
0.040563367 0.66100001 -0.04172232 1.797082e-38 355 276
0.04172232 0.66100001 -0.04172232 1.8063373e-38 356 276
0.042881273 0.66100001 -0.04172232 1.8063373e-38 357 276
0.044106852 0.662 -0.041785441 1.8063376e-38 358 276
0.04526756 0.662 -0.041785441 1.7878625e-38 359 276
0.046428263 0.662 -0.041785441 1.7877909e-38 360 276
0.047588971 0.662 -0.041785441 1.7693159e-38 361 276
0.048823316 0.66299999 -0.041848559 1.7600599e-38 362 276
0.049985778 0.66299999 -0.041848559 1.7323653e-38 363 276
0.051071092 0.662 -0.041785441 1.6772632e-38 364 276
0.0522318 0.662 -0.041785441 1.6588239e-38 365 276
0.053473156 0.66299999 -0.041848559 1.6312378e-38 366 276
0.054718021 0.66399997 -0.041911677 1.6220182e-38 367 276
0.055882234 0.66399997 -0.041911677 1.5852842e-38 368 276
0.057218276 0.66600001 -0.042037919 1.5852842e-38 369 276
0.058561329 0.66799998 -0.042164158 1.5669174e-38 370 276
0.0599114 0.67000002 -0.042290401 1.5392585e-38 371 276
0.061086133 0.67000002 -0.042290401 1.4748312e-38 372 276
0.06226087 0.67000002 -0.042290401 1.4379529e-38 373 276
0.063530281 0.671 -0.042353518 1.3547658e-38 374 276
0.064803198 0.67199999 -0.042416636 1.5483766e-38 375 276
0.06598144 0.67199999 -0.042416636 1.7056542e-38 376 276
0.030269546 0.66399997 -0.043075889 1.6404628e-38 346 277
0.031433757 0.66399997 -0.043075889 1.6681215e-38 347 277
0.03259797 0.66399997 -0.043075889 1.7141802e-38 348 277
0.033660494 0.662 -0.042946145 1.7326552e-38 349 277
0.034821201 0.662 -0.042946145 1.7878628e-38 350 277
0.035927553 0.66100001 -0.042881273 1.7878628e-38 351 277
0.037086505 0.66100001 -0.042881273 1.8154489e-38 352 277
0.038129739 0.65899998 -0.042751525 1.8154489e-38 353 277
0.039285187 0.65899998 -0.042751525 1.8063371e-38 354 277
0.040379263 0.65799999 -0.042686652 1.8063371e-38 355 277
0.04153296 0.65799999 -0.042686652 1.8246683e-38 356 277
0.042686652 0.65799999 -0.042686652 1.8246683e-38 357 277
0.043840345 0.65799999 -0.042686652 1.7971541e-38 358 277
0.044994038 0.65799999 -0.042686652 1.7695313e-38 359 277
0.046217863 0.65899998 -0.042751525 1.7693878e-38 360 277
0.047517084 0.66100001 -0.042881273 1.7417651e-38 361 277
0.04867604 0.66100001 -0.042881273 1.7232537e-38 362 277
0.049910385 0.662 -0.042946145 1.695595e-38 363 277
0.051071092 0.662 -0.042946145 1.6404574e-38 364 277
0.0522318 0.662 -0.042946145 1.6312378e-38 365 277
0.053473156 0.66299999 -0.043011017 1.5944321e-38 366 277
0.054635618 0.66299999 -0.043011017 1.5944321e-38 367 277
0.055882234 0.66399997 -0.043075889 1.5576628e-38 368 277
0.057046451 0.66399997 -0.043075889 1.5484432e-38 369 277
0.058473662 0.667 -0.04327051 1.5207845e-38 370 277
0.059643134 0.667 -0.04327051 1.5023454e-38 371 277
0.060903784 0.66799998 -0.043335386 1.4195504e-38 372 277
0.062075011 0.66799998 -0.043335386 1.3919277e-38 373 277
0.063435599 0.67000002 -0.043465134 1.3271794e-38 374 277
0.064803198 0.67199999 -0.043594878 1.5300457e-38 375 277
0.06598144 0.67199999 -0.043594878 1.733169e-38 376 277
0.030269546 0.66399997 -0.044240102 1.6405337e-38 346 278
0.031386416 0.66299999 -0.044173479 1.6497533e-38 347 278
0.032499783 0.662 -0.044106852 1.7326906e-38 348 278
0.033609647 0.66100001 -0.044040225 1.7510937e-38 349 278
0.0347686 0.66100001 -0.044040225 1.7878625e-38 350 278
0.035818845 0.65899998 -0.043906972 1.7878625e-38 351 278
0.036974292 0.65899998 -0.043906972 1.7971174e-38 352 278
0.038071878 0.65799999 -0.043840345 1.7971174e-38 353 278
0.039165959 0.65700001 -0.043773718 1.8063371e-38 354 278
0.0403179 0.65700001 -0.043773718 1.8063371e-38 355 278
0.041343596 0.65499997 -0.043640465 1.8246686e-38 356 278
0.042492028 0.65499997 -0.043640465 1.8246686e-38 357 278
0.043640465 0.65499997 -0.043640465 1.797082e-38 358 278
0.044788897 0.65499997 -0.043640465 1.7878625e-38 359 278
0.046077598 0.65700001 -0.043773718 1.7785708e-38 360 278
0.04722954 0.65700001 -0.043773718 1.7601316e-38 361 278
0.048528757 0.65899998 -0.043906972 1.6864833e-38 362 278
0.049834993 0.66100001 -0.044040225 1.6772637e-38 363 278
0.050993945 0.66100001 -0.044040225 1.6587889e-38 364 278
0.052152898 0.66100001 -0.044040225 1.6495693e-38 365 278
0.053473156 0.66299999 -0.044173479 1.6036164e-38 366 278
0.054635618 0.66299999 -0.044173479 1.5759218e-38 367 278
0.055798076 0.66299999 -0.044173479 1.5300411e-38 368 278
0.057046451 0.66399997 -0.044240102 1.5208214e-38 369 278
0.058385998 0.66600001 -0.04437336 1.5023823e-38 370 278
0.059553716 0.66600001 -0.04437336 1.4747596e-38 371 278
0.060721438 0.66600001 -0.04437336 1.4010394e-38 372 278
0.06198208 0.667 -0.044439986 1.3549415e-38 373 278
0.063151561 0.667 -0.044439986 1.3089201e-38 374 278
0.064706765 0.671 -0.044706494 1.5025309e-38 375 278
0.065883249 0.671 -0.044706494 1.7332053e-38 376 278
0.030269546 0.66399997 -0.045404319 1.649573e-38 346 279
0.031386416 0.66299999 -0.045335937 1.6864511e-38 347 279
0.032450691 0.66100001 -0.045199182 1.7510565e-38 348 279
0.033507951 0.65899998 -0.045062415 1.7602761e-38 349 279
0.034610797 0.65799999 -0.044994038 1.7878259e-38 350 279
0.035764489 0.65799999 -0.044994038 1.7878259e-38 351 279
0.036862079 0.65700001 -0.04492566 1.8062646e-38 352 279
0.038014017 0.65700001 -0.04492566 1.8062646e-38 353 279
0.039046731 0.65499997 -0.044788897 1.8154489e-38 354 279
0.040133797 0.65399998 -0.044720516 1.8246686e-38 355 279
0.041280478 0.65399998 -0.044720516 1.8155572e-38 356 279
0.04242716 0.65399998 -0.044720516 1.8063376e-38 357 279
0.043573838 0.65399998 -0.044720516 1.7971894e-38 358 279
0.044720516 0.65399998 -0.044720516 1.7695666e-38 359 279
0.045867197 0.65399998 -0.044720516 1.760347e-38 360 279
