# .PCD v.7 - Point Cloud Data file format
FIELDS x y z rgb imX imY
SIZE 4 4 4 4 4 4
TYPE F F F F F F
COUNT 1 1 1 1 1 1
WIDTH 831
HEIGHT 1
VIEWPOINT 0 0 0 1 0 0 0
POINTS 831
DATA ascii
-0.0092435731 0.65899998 -0.045062415 1.7602411e-38 312 279
-0.0080881258 0.65899998 -0.045062415 1.7510215e-38 313 279
-0.0069326796 0.65899998 -0.045062415 1.7602411e-38 314 279
-0.0057772328 0.65899998 -0.045062415 1.7602411e-38 315 279
-0.0046217865 0.65899998 -0.045062415 1.7510215e-38 316 279
-0.0034663398 0.65899998 -0.045062415 1.7602411e-38 317 279
-0.0023108933 0.65899998 -0.045062415 1.7510934e-38 318 279
-0.0011554466 0.65899998 -0.045062415 1.7326903e-38 319 279
0 0.65899998 -0.045062415 1.7326903e-38 320 279
0.0011554466 0.65899998 -0.045062415 1.7234707e-38 321 279
0.0023108933 0.65899998 -0.045062415 1.7418017e-38 322 279
0.0034663398 0.65899998 -0.045062415 1.7418017e-38 323 279
0.0046217865 0.65899998 -0.045062415 1.7142877e-38 324 279
0.0057772328 0.65899998 -0.045062415 1.7142877e-38 325 279
0.0069326796 0.65899998 -0.045062415 1.7142521e-38 326 279
0.0080881258 0.65899998 -0.045062415 1.695849e-38 327 279
0.0092435731 0.65899998 -0.045062415 1.7232905e-38 328 279
0.010399019 0.65899998 -0.045062415 1.7140709e-38 329 279
0.011536933 0.65799999 -0.044994038 1.6957041e-38 330 279
0.012690626 0.65799999 -0.044994038 1.7233628e-38 331 279
0.01384432 0.65799999 -0.044994038 1.7325473e-38 332 279
0.014998012 0.65799999 -0.044994038 1.6864495e-38 333 279
0.016176252 0.65899998 -0.045062415 1.6588982e-38 334 279
0.0173843 0.66100001 -0.045199182 1.6404591e-38 335 279
0.018543253 0.66100001 -0.045199182 1.6403867e-38 336 279
0.019732011 0.662 -0.04526756 1.6403867e-38 337 279
0.020892721 0.662 -0.04526756 1.640424e-38 338 279
0.022053426 0.662 -0.04526756 1.640424e-38 339 279
0.023214132 0.662 -0.04526756 1.6128023e-38 340 279
0.024374841 0.662 -0.04526756 1.6220578e-38 341 279
0.025535546 0.662 -0.04526756 1.6311338e-38 342 279
0.026696252 0.662 -0.04526756 1.6311338e-38 343 279
0.027856959 0.662 -0.04526756 1.5852517e-38 344 279
0.02910533 0.66399997 -0.045404319 1.5759962e-38 345 279
0.030269546 0.66399997 -0.045404319 1.5943277e-38 346 279
0.031433757 0.66399997 -0.045404319 1.5943277e-38 347 279
0.032696161 0.66600001 -0.045541082 1.5668135e-38 348 279
0.033914726 0.667 -0.045609459 1.5760331e-38 349 279
0.035084199 0.667 -0.045609459 1.5668863e-38 350 279
0.036308024 0.66799998 -0.045677837 1.5668863e-38 351 279
0.037479252 0.66799998 -0.045677837 1.5577386e-38 352 279
0.038766202 0.67000002 -0.0458146 1.5485189e-38 353 279
0.039940935 0.67000002 -0.0458146 1.5209678e-38 354 279
0.041177034 0.671 -0.045882981 1.5209678e-38 355 279
0.042353518 0.671 -0.045882981 1.5026366e-38 356 279
0.043530006 0.671 -0.045882981 1.5026366e-38 357 279
0.044773117 0.67199999 -0.045951359 1.5026366e-38 358 279
0.045951359 0.67199999 -0.045951359 1.5026366e-38 359 279
0.047129598 0.67199999 -0.045951359 1.5208959e-38 360 279
0.048235953 0.671 -0.045882981 1.5116764e-38 361 279
0.049412437 0.671 -0.045882981 1.4749426e-38 362 279
0.050513536 0.67000002 -0.0458146 1.4749426e-38 363 279
0.051688269 0.67000002 -0.0458146 1.3919332e-38 364 279
0.052705199 0.66799998 -0.045677837 1.096907e-38 365 279
0.053876422 0.66799998 -0.045677837 8.3015541e-39 366 279
-0.094504662 0.69999999 -0.049093332 1.105945e-38 243 280
-0.093010828 0.69800001 -0.048953064 1.1244563e-38 244 280
-0.09152399 0.69599998 -0.048812799 1.1889932e-38 245 280
-0.090044186 0.69400001 -0.048672531 1.271823e-38 246 280
-0.088699378 0.69300002 -0.048602402 1.271823e-38 247 280
-0.087484315 0.69300002 -0.048602402 1.2996222e-38 248 280
-0.085895799 0.69 -0.048391998 1.2996222e-38 249 280
-0.084685996 0.69 -0.048391998 1.3180598e-38 250 280
-0.083234236 0.68800002 -0.048251733 1.3180598e-38 251 280
-0.081908718 0.68699998 -0.048181597 1.3272068e-38 252 280
-0.080704175 0.68699998 -0.048181597 1.3272068e-38 253 280
-0.079383917 0.68599999 -0.048111461 1.3271715e-38 254 280
-0.077953197 0.68400002 -0.0479712 1.3271715e-38 255 280
-0.076641709 0.68300003 -0.047901068 1.3271717e-38 256 280
-0.075444184 0.68300003 -0.047901068 1.3271717e-38 257 280
-0.074137948 0.68199998 -0.047830928 1.3088049e-38 258 280
-0.072728261 0.68000001 -0.047690667 1.3088049e-38 259 280
-0.071535997 0.68000001 -0.047690667 1.3179894e-38 260 280
-0.070240289 0.67900002 -0.047620531 1.327209e-38 261 280
-0.068948075 0.67799997 -0.047550395 1.3273529e-38 262 280
-0.067559443 0.676 -0.047410134 1.3365725e-38 263 280
-0.066374183 0.676 -0.047410134 1.3549025e-38 264 280
-0.064996064 0.67400002 -0.047269866 1.3733416e-38 265 280
-0.06381432 0.67400002 -0.047269866 1.428694e-38 266 280
-0.062446721 0.67199999 -0.047129598 1.447169e-38 267 280
-0.061268479 0.67199999 -0.047129598 1.4747548e-38 268 280
-0.060090236 0.67199999 -0.047129598 1.4839744e-38 269 280
-0.058824331 0.671 -0.047059465 1.5207807e-38 270 280
-0.057647847 0.671 -0.047059465 1.5300003e-38 271 280
-0.056387197 0.67000002 -0.046989333 1.5300725e-38 272 280
-0.05504765 0.66799998 -0.046849065 1.539292e-38 273 280
-0.05379577 0.667 -0.046778932 1.557623e-38 274 280
-0.052626297 0.667 -0.046778932 1.576098e-38 275 280
-0.051456824 0.667 -0.046778932 1.6035786e-38 276 280
-0.050287351 0.667 -0.046778932 1.6220177e-38 277 280
-0.04904424 0.66600001 -0.046708796 1.6036161e-38 278 280
-0.047876518 0.66600001 -0.046708796 1.6036161e-38 279 280
-0.046708796 0.66600001 -0.046708796 1.6036164e-38 280 280
-0.045541082 0.66600001 -0.046708796 1.6036164e-38 281 280
-0.044173479 0.66299999 -0.046498399 1.5944687e-38 282 280
-0.043011017 0.66299999 -0.046498399 1.6036883e-38 283 280
-0.041848559 0.66299999 -0.046498399 1.5853571e-38 284 280
-0.040686097 0.66299999 -0.046498399 1.5853571e-38 285 280
-0.039523639 0.66299999 -0.046498399 1.6037602e-38 286 280
-0.038361177 0.66299999 -0.046498399 1.6037602e-38 287 280
-0.037142612 0.662 -0.046428263 1.6220922e-38 288 280
-0.035981905 0.662 -0.046428263 1.6220922e-38 289 280
-0.034821201 0.662 -0.046428263 1.6496433e-38 290 280
-0.033660494 0.662 -0.046428263 1.6588987e-38 291 280
-0.032499783 0.662 -0.046428263 1.6496436e-38 292 280
-0.031291738 0.66100001 -0.046358135 1.6680827e-38 293 280
-0.030132787 0.66100001 -0.046358135 1.668083e-38 294 280
-0.028973831 0.66100001 -0.046358135 1.6864861e-38 295 280
-0.02781488 0.66100001 -0.046358135 1.6865202e-38 296 280
-0.026655925 0.66100001 -0.046358135 1.6865202e-38 297 280
-0.025496973 0.66100001 -0.046358135 1.6865549e-38 298 280
-0.02433802 0.66100001 -0.046358135 1.6957745e-38 299 280
-0.023179067 0.66100001 -0.046358135 1.6865562e-38 300 280
-0.022020113 0.66100001 -0.046358135 1.7050313e-38 301 280
-0.02076648 0.65799999 -0.04614773 1.6774451e-38 302 280
-0.019612785 0.65799999 -0.04614773 1.6774451e-38 303 280
-0.018459093 0.65799999 -0.04614773 1.695776e-38 304 280
-0.017305398 0.65799999 -0.04614773 1.7049957e-38 305 280
-0.016151706 0.65799999 -0.04614773 1.705031e-38 306 280
-0.014998012 0.65799999 -0.04614773 1.6958113e-38 307 280
-0.01384432 0.65799999 -0.04614773 1.6958819e-38 308 280
-0.012690626 0.65799999 -0.04614773 1.6958819e-38 309 280
-0.011554466 0.65899998 -0.046217863 1.6682956e-38 310 280
-0.010399019 0.65899998 -0.046217863 1.6682956e-38 311 280
-0.0092435731 0.65899998 -0.046217863 1.6957407e-38 312 280
-0.0080881258 0.65899998 -0.046217863 1.7142158e-38 313 280
-0.0069326796 0.65899998 -0.046217863 1.6958843e-38 314 280
-0.0057772328 0.65899998 -0.046217863 1.6958843e-38 315 280
-0.0046217865 0.65899998 -0.046217863 1.7233625e-38 316 280
-0.0034663398 0.65899998 -0.046217863 1.7233625e-38 317 280
-0.0023108933 0.65899998 -0.046217863 1.6957407e-38 318 280
-0.00115194 0.65700001 -0.046077598 1.668118e-38 319 280
0 0.65700001 -0.046077598 1.6681183e-38 320 280
0.0011554466 0.65899998 -0.046217863 1.6865214e-38 321 280
0.0023108933 0.65899998 -0.046217863 1.6865567e-38 322 280
0.0034663398 0.65899998 -0.046217863 1.6865567e-38 323 280
0.0046217865 0.65899998 -0.046217863 1.6865567e-38 324 280
0.0057772328 0.65899998 -0.046217863 1.6865567e-38 325 280
0.0069221598 0.65799999 -0.04614773 1.631384e-38 326 280
0.0080758529 0.65799999 -0.04614773 1.6406035e-38 327 280
0.0092295464 0.65799999 -0.04614773 1.6681536e-38 328 280
0.01038324 0.65799999 -0.04614773 1.6588982e-38 329 280
0.011536933 0.65799999 -0.04614773 1.6406041e-38 330 280
0.012690626 0.65799999 -0.04614773 1.6406041e-38 331 280
0.01384432 0.65799999 -0.04614773 1.6313124e-38 332 280
0.014998012 0.65799999 -0.04614773 1.6036177e-38 333 280
0.016176252 0.65899998 -0.046217863 1.6220192e-38 334 280
0.017331699 0.65899998 -0.046217863 1.6220192e-38 335 280
0.018543253 0.66100001 -0.046358135 1.5761037e-38 336 280
0.019702207 0.66100001 -0.046358135 1.5668842e-38 337 280
0.02086116 0.66100001 -0.046358135 1.5484826e-38 338 280
0.022020113 0.66100001 -0.046358135 1.5484826e-38 339 280
0.023179067 0.66100001 -0.046358135 1.5392978e-38 340 280
0.02433802 0.66100001 -0.046358135 1.5300782e-38 341 280
0.025496973 0.66100001 -0.046358135 1.5483726e-38 342 280
0.026655925 0.66100001 -0.046358135 1.5391529e-38 343 280
0.027856959 0.662 -0.046428263 1.5208217e-38 344 280
0.029017664 0.662 -0.046428263 1.5208217e-38 345 280
0.030223956 0.66299999 -0.046498399 1.5024199e-38 346 280
0.031433757 0.66399997 -0.046568532 1.5300426e-38 347 280
0.03259797 0.66399997 -0.046568532 1.5024937e-38 348 280
0.03386388 0.66600001 -0.046708796 1.5117132e-38 349 280
0.035031598 0.66600001 -0.046708796 1.5209331e-38 350 280
0.03619932 0.66600001 -0.046708796 1.5209331e-38 351 280
0.037479252 0.66799998 -0.046849065 1.502566e-38 352 280
0.038650475 0.66799998 -0.046849065 1.4933464e-38 353 280
0.039940935 0.67000002 -0.046989333 1.4933464e-38 354 280
0.041115668 0.67000002 -0.046989333 1.4841268e-38 355 280
0.042353518 0.671 -0.047059465 1.4933464e-38 356 280
0.043530006 0.671 -0.047059465 1.502566e-38 357 280
0.044773117 0.67199999 -0.047129598 1.4750149e-38 358 280
0.045951359 0.67199999 -0.047129598 1.4750149e-38 359 280
0.047129598 0.67199999 -0.047129598 1.4841621e-38 360 280
0.048235953 0.671 -0.047059465 1.4841621e-38 361 280
0.049412437 0.671 -0.047059465 1.465723e-38 362 280
0.050513536 0.67000002 -0.046989333 1.465723e-38 363 280
0.051688269 0.67000002 -0.046989333 1.3827858e-38 364 280
0.052705199 0.66799998 -0.046849065 1.0970153e-38 365 280
0.053876422 0.66799998 -0.046849065 7.8416662e-39 366 280
-0.091129504 0.69300002 -0.049817458 1.161155e-38 245 281
-0.089914441 0.69300002 -0.049817458 1.1890267e-38 246 281
-0.088699378 0.69300002 -0.049817458 1.1982463e-38 247 281
-0.087484315 0.69300002 -0.049817458 1.3085544e-38 248 281
-0.085895799 0.69 -0.049601797 1.3270295e-38 249 281
-0.084440529 0.68800002 -0.049458027 1.3271364e-38 250 281
-0.083234236 0.68800002 -0.049458027 1.336356e-38 251 281
-0.081908718 0.68699998 -0.049386136 1.3180245e-38 252 281
-0.080704175 0.68699998 -0.049386136 1.3088049e-38 253 281
-0.079383917 0.68599999 -0.049314249 1.3271364e-38 254 281
-0.077953197 0.68400002 -0.049170479 1.3271364e-38 255 281
-0.076641709 0.68300003 -0.049098592 1.3088052e-38 256 281
-0.075444184 0.68300003 -0.049098592 1.3088052e-38 257 281
-0.074137948 0.68199998 -0.049026705 1.3270643e-38 258 281
-0.072728261 0.68000001 -0.048882935 1.3178447e-38 259 281
-0.071535997 0.68000001 -0.048882935 1.3271361e-38 260 281
-0.070240289 0.67900002 -0.048811045 1.3271361e-38 261 281
-0.068948075 0.67799997 -0.048739154 1.3271361e-38 262 281
-0.067559443 0.676 -0.048595384 1.3271361e-38 263 281
-0.066374183 0.676 -0.048595384 1.3179163e-38 264 281
-0.064996064 0.67400002 -0.048451614 1.3363913e-38 265 281
-0.06381432 0.67400002 -0.048451614 1.3456474e-38 266 281
-0.062446721 0.67199999 -0.04830784 1.3640867e-38 267 281
-0.061268479 0.67199999 -0.04830784 1.3641942e-38 268 281
-0.060090236 0.67199999 -0.04830784 1.3734137e-38 269 281
-0.058824331 0.671 -0.048235953 1.3734844e-38 270 281
-0.057647847 0.671 -0.048235953 1.3827039e-38 271 281
-0.056218877 0.66799998 -0.048020288 1.4195096e-38 272 281
-0.05504765 0.66799998 -0.048020288 1.4379489e-38 273 281
-0.05379577 0.667 -0.047948405 1.4747195e-38 274 281
-0.052626297 0.667 -0.047948405 1.4839749e-38 275 281
-0.051456824 0.667 -0.047948405 1.5574445e-38 276 281
-0.050211959 0.66600001 -0.047876518 1.5850671e-38 277 281
-0.04904424 0.66600001 -0.047876518 1.6126182e-38 278 281
-0.047876518 0.66600001 -0.047876518 1.6126182e-38 279 281
-0.046708796 0.66600001 -0.047876518 1.594287e-38 280 281
-0.045541082 0.66600001 -0.047876518 1.6035065e-38 281 281
-0.044173479 0.66299999 -0.047660857 1.6035068e-38 282 281
-0.043011017 0.66299999 -0.047660857 1.6127265e-38 283 281
-0.041848559 0.66299999 -0.047660857 1.6127984e-38 284 281
-0.040686097 0.66299999 -0.047660857 1.6035788e-38 285 281
-0.039464023 0.662 -0.047588971 1.6035786e-38 286 281
-0.038303319 0.662 -0.047588971 1.6127981e-38 287 281
-0.037142612 0.662 -0.047588971 1.6219464e-38 288 281
-0.035981905 0.662 -0.047588971 1.6219464e-38 289 281
-0.034821201 0.662 -0.047588971 1.6403495e-38 290 281
-0.033609647 0.66100001 -0.047517084 1.6403495e-38 291 281
-0.032450691 0.66100001 -0.047517084 1.6494971e-38 292 281
-0.031291738 0.66100001 -0.047517084 1.6771198e-38 293 281
-0.030132787 0.66100001 -0.047517084 1.6771201e-38 294 281
-0.028973831 0.66100001 -0.047517084 1.6863398e-38 295 281
-0.02781488 0.66100001 -0.047517084 1.6404221e-38 296 281
-0.026655925 0.66100001 -0.047517084 1.6404221e-38 297 281
-0.025419824 0.65899998 -0.04737331 1.6588253e-38 298 281
-0.024264378 0.65899998 -0.04737331 1.6680807e-38 299 281
-0.023108931 0.65899998 -0.04737331 1.6313827e-38 300 281
-0.021953486 0.65899998 -0.04737331 1.6497858e-38 301 281
-0.020734919 0.65700001 -0.04722954 1.6772653e-38 302 281
-0.019523365 0.65499997 -0.047085766 1.6864848e-38 303 281
-0.018374931 0.65499997 -0.047085766 1.6406035e-38 304 281
-0.0172791 0.65700001 -0.04722954 1.631384e-38 305 281
-0.01612716 0.65700001 -0.04722954 1.6588985e-38 306 281
-0.01497522 0.65700001 -0.04722954 1.6496789e-38 307 281
-0.013823279 0.65700001 -0.04722954 1.6404221e-38 308 281
-0.01267134 0.65700001 -0.04722954 1.6588253e-38 309 281
-0.011536933 0.65799999 -0.047301427 1.6221626e-38 310 281
-0.01038324 0.65799999 -0.047301427 1.6129429e-38 311 281
-0.0092295464 0.65799999 -0.047301427 1.6497139e-38 312 281
-0.0080758529 0.65799999 -0.047301427 1.6589335e-38 313 281
-0.0069221598 0.65799999 -0.047301427 1.6772653e-38 314 281
-0.0057772328 0.65899998 -0.04737331 1.6772653e-38 315 281
-0.0046217865 0.65899998 -0.04737331 1.6497142e-38 316 281
-0.0034558198 0.65700001 -0.04722954 1.6404588e-38 317 281
-0.0023038799 0.65700001 -0.04722954 1.6404591e-38 318 281
-0.00115194 0.65700001 -0.04722954 1.6312394e-38 319 281
0 0.65700001 -0.04722954 1.6036532e-38 320 281
0.00115194 0.65700001 -0.04722954 1.6036532e-38 321 281
0.0023108933 0.65899998 -0.04737331 1.6220198e-38 322 281
0.0034663398 0.65899998 -0.04737331 1.6036167e-38 323 281
0.0046147732 0.65799999 -0.047301427 1.6128725e-38 324 281
0.0057684663 0.65799999 -0.047301427 1.6128725e-38 325 281
0.0069221598 0.65799999 -0.047301427 1.5484805e-38 326 281
0.0080758529 0.65799999 -0.047301427 1.576139e-38 327 281
0.0092295464 0.65799999 -0.047301427 1.6128375e-38 328 281
0.01036746 0.65700001 -0.04722954 1.6036179e-38 329 281
0.011519399 0.65700001 -0.04722954 1.6035458e-38 330 281
0.01267134 0.65700001 -0.04722954 1.6035458e-38 331 281
0.013823279 0.65700001 -0.04722954 1.5485158e-38 332 281
0.014998012 0.65799999 -0.047301427 1.5392962e-38 333 281
0.016176252 0.65899998 -0.04737331 1.5484079e-38 334 281
0.017331699 0.65899998 -0.04737331 1.5576275e-38 335 281
0.018487146 0.65899998 -0.04737331 1.5759234e-38 336 281
0.019702207 0.66100001 -0.047517084 1.5575203e-38 337 281
0.02086116 0.66100001 -0.047517084 1.5391177e-38 338 281
0.022020113 0.66100001 -0.047517084 1.5207145e-38 339 281
0.023179067 0.66100001 -0.047517084 1.5207498e-38 340 281
0.02433802 0.66100001 -0.047517084 1.4838356e-38 341 281
0.025496973 0.66100001 -0.047517084 1.4655763e-38 342 281
0.026655925 0.66100001 -0.047517084 1.4747959e-38 343 281
0.027856959 0.662 -0.047588971 1.4472819e-38 344 281
0.029017664 0.662 -0.047588971 1.4472819e-38 345 281
0.030223956 0.66299999 -0.047660857 1.50224e-38 346 281
0.031386416 0.66299999 -0.047660857 1.5114596e-38 347 281
0.03259797 0.66399997 -0.047732744 1.4931649e-38 348 281
0.033762183 0.66399997 -0.047732744 1.5023846e-38 349 281
0.0349264 0.66399997 -0.047732744 1.5023493e-38 350 281
0.03619932 0.66600001 -0.047876518 1.5207883e-38 351 281
0.037423145 0.667 -0.047948405 1.4840903e-38 352 281
0.038592618 0.667 -0.047948405 1.4840903e-38 353 281
0.039821707 0.66799998 -0.048020288 1.4749426e-38 354 281
0.041115668 0.67000002 -0.048164066 1.4749426e-38 355 281
0.042290401 0.67000002 -0.048164066 1.4841621e-38 356 281
0.043530006 0.671 -0.048235953 1.4841621e-38 357 281
0.044773117 0.67199999 -0.04830784 1.4841621e-38 358 281
0.045951359 0.67199999 -0.04830784 1.4749426e-38 359 281
0.047129598 0.67199999 -0.04830784 1.4841621e-38 360 281
0.04830784 0.67199999 -0.04830784 1.4749426e-38 361 281
0.049486078 0.67199999 -0.04830784 1.4473565e-38 362 281
0.050588924 0.671 -0.048235953 1.4381009e-38 363 281
0.051765412 0.671 -0.048235953 1.3644555e-38 364 281
0.052941896 0.671 -0.048235953 1.1247829e-38 365 281
-0.089914441 0.69300002 -0.051032521 1.1153796e-38 246 282
-0.088315398 0.69 -0.050811596 1.1522579e-38 247 282
-0.087105595 0.69 -0.050811596 1.2533824e-38 248 282
-0.085895799 0.69 -0.050811596 1.2902248e-38 249 282
-0.084440529 0.68800002 -0.050664321 1.2995147e-38 250 282
-0.083234236 0.68800002 -0.050664321 1.3087343e-38 251 282
-0.081908718 0.68699998 -0.050590675 1.3271364e-38 252 282
-0.080704175 0.68699998 -0.050590675 1.3271364e-38 253 282
-0.079383917 0.68599999 -0.050517038 1.3088052e-38 254 282
-0.077953197 0.68400002 -0.050369758 1.3088052e-38 255 282
-0.076753922 0.68400002 -0.050369758 1.3087696e-38 256 282
-0.075444184 0.68300003 -0.05029612 1.29955e-38 257 282
-0.074137948 0.68199998 -0.050222475 1.3179169e-38 258 282
-0.072728261 0.68000001 -0.050075196 1.3179169e-38 259 282
-0.071535997 0.68000001 -0.050075196 1.2995498e-38 260 282
-0.070136838 0.67799997 -0.049927916 1.2995498e-38 261 282
-0.068948075 0.67799997 -0.049927916 1.2996219e-38 262 282
-0.067559443 0.676 -0.049780637 1.2996219e-38 263 282
-0.066275999 0.67500001 -0.049706999 1.2995869e-38 264 282
-0.064996064 0.67400002 -0.049633358 1.3088065e-38 265 282
-0.06381432 0.67400002 -0.049633358 1.3179194e-38 266 282
-0.062446721 0.67199999 -0.049486078 1.3455422e-38 267 282
-0.061268479 0.67199999 -0.049486078 1.3364308e-38 268 282
-0.060000818 0.671 -0.049412437 1.3456504e-38 269 282
-0.058824331 0.671 -0.049412437 1.3457202e-38 270 282
-0.057647847 0.671 -0.049412437 1.3457202e-38 271 282
-0.056218877 0.66799998 -0.04919152 1.364157e-38 272 282
-0.05504765 0.66799998 -0.04919152 1.3734125e-38 273 282
-0.05379577 0.667 -0.049117878 1.4377336e-38 274 282
-0.052626297 0.667 -0.049117878 1.4469891e-38 275 282
-0.051456824 0.667 -0.049117878 1.4562456e-38 276 282
-0.050211959 0.66600001 -0.04904424 1.4746847e-38 277 282
-0.04904424 0.66600001 -0.04904424 1.474721e-38 278 282
-0.047876518 0.66600001 -0.04904424 1.4839766e-38 279 282
-0.046708796 0.66600001 -0.04904424 1.5115271e-38 280 282
-0.045404319 0.66399997 -0.048896957 1.5207826e-38 281 282
-0.044173479 0.66299999 -0.048823316 1.5391145e-38 282 282
-0.043011017 0.66299999 -0.048823316 1.5391145e-38 283 282
-0.041848559 0.66299999 -0.048823316 1.5207117e-38 284 282
-0.040686097 0.66299999 -0.048823316 1.5299671e-38 285 282
-0.039464023 0.662 -0.048749682 1.5116356e-38 286 282
-0.038303319 0.662 -0.048749682 1.5392583e-38 287 282
-0.037142612 0.662 -0.048749682 1.5667377e-38 288 282
-0.035981905 0.662 -0.048749682 1.5759574e-38 289 282
-0.0347686 0.66100001 -0.04867604 1.585177e-38 290 282
-0.033609647 0.66100001 -0.04867604 1.5943966e-38 291 282
-0.032450691 0.66100001 -0.04867604 1.6127278e-38 292 282
-0.031291738 0.66100001 -0.04867604 1.6219832e-38 293 282
-0.030132787 0.66100001 -0.04867604 1.6218757e-38 294 282
-0.028973831 0.66100001 -0.04867604 1.6494984e-38 295 282
-0.027730718 0.65899998 -0.048528757 1.6220195e-38 296 282
-0.026575271 0.65899998 -0.048528757 1.6312391e-38 297 282
-0.025419824 0.65899998 -0.048528757 1.6129078e-38 298 282
-0.024264378 0.65899998 -0.048528757 1.6129078e-38 299 282
-0.023108931 0.65899998 -0.048528757 1.6221278e-38 300 282
-0.021953486 0.65899998 -0.048528757 1.6129081e-38 301 282
-0.020734919 0.65700001 -0.048381478 1.6404237e-38 302 282
-0.019523365 0.65499997 -0.048234195 1.6404237e-38 303 282
-0.018374931 0.65499997 -0.048234195 1.6587552e-38 304 282
-0.0172791 0.65700001 -0.048381478 1.6587552e-38 305 282
-0.01612716 0.65700001 -0.048381478 1.640352e-38 306 282
-0.01497522 0.65700001 -0.048381478 1.640352e-38 307 282
-0.013823279 0.65700001 -0.048381478 1.640387e-38 308 282
-0.01267134 0.65700001 -0.048381478 1.640387e-38 309 282
-0.011519399 0.65700001 -0.048381478 1.6129078e-38 310 282
-0.01038324 0.65799999 -0.048455119 1.6129078e-38 311 282
-0.0092295464 0.65799999 -0.048455119 1.6129802e-38 312 282
-0.0080758529 0.65799999 -0.048455119 1.6037604e-38 313 282
-0.0069221598 0.65799999 -0.048455119 1.6128725e-38 314 282
-0.0057421662 0.65499997 -0.048234195 1.6128725e-38 315 282
-0.0045937328 0.65499997 -0.048234195 1.6036886e-38 316 282
-0.0034452998 0.65499997 -0.048234195 1.5944331e-38 317 282
-0.0022968664 0.65499997 -0.048234195 1.6036177e-38 318 282
-0.0011484332 0.65499997 -0.048234195 1.6036177e-38 319 282
0 0.65499997 -0.048234195 1.5759962e-38 320 282
0.00115194 0.65700001 -0.048381478 1.5667767e-38 321 282
0.0023038799 0.65700001 -0.048381478 1.5759237e-38 322 282
0.0034558198 0.65700001 -0.048381478 1.5851432e-38 323 282
0.0046077599 0.65700001 -0.048381478 1.5484808e-38 324 282
0.0057596997 0.65700001 -0.048381478 1.5484808e-38 325 282
0.0069116396 0.65700001 -0.048381478 1.5484455e-38 326 282
0.0080635799 0.65700001 -0.048381478 1.5392259e-38 327 282
0.0092155198 0.65700001 -0.048381478 1.5484455e-38 328 282
0.01036746 0.65700001 -0.048381478 1.5392259e-38 329 282
0.011519399 0.65700001 -0.048381478 1.530006e-38 330 282
0.01267134 0.65700001 -0.048381478 1.530006e-38 331 282
0.013823279 0.65700001 -0.048381478 1.5391533e-38 332 282
0.01497522 0.65700001 -0.048381478 1.5483729e-38 333 282
0.016151706 0.65799999 -0.048455119 1.5207142e-38 334 282
0.017331699 0.65899998 -0.048528757 1.5207142e-38 335 282
0.018487146 0.65899998 -0.048528757 1.5115668e-38 336 282
0.019642593 0.65899998 -0.048528757 1.5023472e-38 337 282
0.020798039 0.65899998 -0.048528757 1.4839804e-38 338 282
0.022020113 0.66100001 -0.04867604 1.4655413e-38 339 282
0.023179067 0.66100001 -0.04867604 1.4563567e-38 340 282
0.02433802 0.66100001 -0.04867604 1.4194785e-38 341 282
0.025496973 0.66100001 -0.04867604 1.4194432e-38 342 282
0.026655925 0.66100001 -0.04867604 1.4286986e-38 343 282
0.027856959 0.662 -0.048749682 1.4286647e-38 344 282
0.029017664 0.662 -0.048749682 1.4286647e-38 345 282
0.030223956 0.66299999 -0.048823316 1.4378127e-38 346 282
0.031386416 0.66299999 -0.048823316 1.4562158e-38 347 282
0.032548878 0.66299999 -0.048823316 1.4471044e-38 348 282
0.033762183 0.66399997 -0.048896957 1.456324e-38 349 282
0.0349264 0.66399997 -0.048896957 1.4471763e-38 350 282
0.03619932 0.66600001 -0.04904424 1.4563958e-38 351 282
0.037367038 0.66600001 -0.04904424 1.4563956e-38 352 282
0.03853476 0.66600001 -0.04904424 1.465651e-38 353 282
0.039762091 0.667 -0.049117878 1.4380646e-38 354 282
0.040931564 0.667 -0.049117878 1.4380646e-38 355 282
0.042290401 0.67000002 -0.049338799 1.4105501e-38 356 282
0.043465134 0.67000002 -0.049338799 1.4289894e-38 357 282
0.044706494 0.671 -0.049412437 1.4381009e-38 358 282
0.045951359 0.67199999 -0.049486078 1.4473565e-38 359 282
0.047129598 0.67199999 -0.049486078 1.4381009e-38 360 282
0.04830784 0.67199999 -0.049486078 1.4381009e-38 361 282
0.049486078 0.67199999 -0.049486078 1.4105148e-38 362 282
0.050588924 0.671 -0.049412437 1.3920757e-38 363 282
0.051765412 0.671 -0.049412437 1.3092465e-38 364 282
0.053020798 0.67199999 -0.049486078 1.1617333e-38 365 282
-0.088315398 0.69 -0.052021399 1.1428605e-38 247 283
-0.087105595 0.69 -0.052021399 1.1797718e-38 248 283
-0.08564683 0.68800002 -0.051870614 1.2258695e-38 249 283
-0.084440529 0.68800002 -0.051870614 1.2994078e-38 250 283
-0.083234236 0.68800002 -0.051870614 1.3178109e-38 251 283
-0.082027942 0.68800002 -0.051870614 1.3178815e-38 252 283
-0.080704175 0.68699998 -0.051795214 1.3271011e-38 253 283
-0.079383917 0.68599999 -0.051719822 1.3271008e-38 254 283
-0.078181133 0.68599999 -0.051719822 1.3271008e-38 255 283
-0.076753922 0.68400002 -0.051569041 1.3087699e-38 256 283
-0.075444184 0.68300003 -0.051493648 1.2995503e-38 257 283
-0.074137948 0.68199998 -0.051418249 1.2995498e-38 258 283
-0.072728261 0.68000001 -0.051267464 1.2995498e-38 259 283
-0.071535997 0.68000001 -0.051267464 1.2995854e-38 260 283
-0.070136838 0.67799997 -0.051116679 1.2995854e-38 261 283
-0.068948075 0.67799997 -0.051116679 1.2995851e-38 262 283
-0.067559443 0.676 -0.050965894 1.2995851e-38 263 283
-0.066275999 0.67500001 -0.050890498 1.3179163e-38 264 283
-0.064996064 0.67400002 -0.050815105 1.3179163e-38 265 283
-0.06381432 0.67400002 -0.050815105 1.3270292e-38 266 283
-0.062446721 0.67199999 -0.050664317 1.3454684e-38 267 283
-0.061268479 0.67199999 -0.050664317 1.3087346e-38 268 283
-0.060000818 0.671 -0.050588924 1.3179541e-38 269 283
-0.058824331 0.671 -0.050588924 1.3272093e-38 270 283
-0.057647847 0.671 -0.050588924 1.3179897e-38 271 283
-0.056387197 0.67000002 -0.050513536 1.3179892e-38 272 283
-0.05504765 0.66799998 -0.050362743 1.3179892e-38 273 283
-0.05379577 0.667 -0.050287351 1.3640867e-38 274 283
-0.052626297 0.667 -0.050287351 1.3548671e-38 275 283
-0.051456824 0.667 -0.050287351 1.3641223e-38 276 283
-0.050211959 0.66600001 -0.050211959 1.3733419e-38 277 283
-0.04904424 0.66600001 -0.050211959 1.3826336e-38 278 283
-0.047876518 0.66600001 -0.050211959 1.3918532e-38 279 283
-0.046708796 0.66600001 -0.050211959 1.4286592e-38 280 283
-0.045404319 0.66399997 -0.05006117 1.4286592e-38 281 283
-0.044173479 0.66299999 -0.049985778 1.4561384e-38 282 283
-0.043011017 0.66299999 -0.049985778 1.4561384e-38 283 283
-0.041848559 0.66299999 -0.049985778 1.4194044e-38 284 283
-0.040686097 0.66299999 -0.049985778 1.4378435e-38 285 283
-0.039464023 0.662 -0.049910385 1.4471349e-38 286 283
-0.038303319 0.662 -0.049910385 1.4656101e-38 287 283
-0.037142612 0.662 -0.049910385 1.5390792e-38 288 283
-0.035927553 0.66100001 -0.049834993 1.5575182e-38 289 283
-0.0347686 0.66100001 -0.049834993 1.5759571e-38 290 283
-0.033609647 0.66100001 -0.049834993 1.5851767e-38 291 283
-0.032450691 0.66100001 -0.049834993 1.6035435e-38 292 283
-0.031197058 0.65899998 -0.049684204 1.6035435e-38 293 283
-0.030041611 0.65899998 -0.049684204 1.5852123e-38 294 283
-0.028886165 0.65899998 -0.049684204 1.5944319e-38 295 283
-0.027730718 0.65899998 -0.049684204 1.6036517e-38 296 283
-0.026575271 0.65899998 -0.049684204 1.6036517e-38 297 283
-0.025381252 0.65799999 -0.049608808 1.6220192e-38 298 283
-0.02422756 0.65799999 -0.049608808 1.6220192e-38 299 283
-0.023108931 0.65899998 -0.049684204 1.6220195e-38 300 283
-0.021886859 0.65700001 -0.049533416 1.6220195e-38 301 283
-0.020671798 0.65499997 -0.049382631 1.6311675e-38 302 283
-0.019523365 0.65499997 -0.049382631 1.6311675e-38 303 283
-0.018374931 0.65499997 -0.049382631 1.6219476e-38 304 283
-0.017226499 0.65499997 -0.049382631 1.6219476e-38 305 283
-0.016078066 0.65499997 -0.049382631 1.6219476e-38 306 283
-0.014929632 0.65499997 -0.049382631 1.6219476e-38 307 283
-0.013823279 0.65700001 -0.049533416 1.5944321e-38 308 283
-0.01267134 0.65700001 -0.049533416 1.5944321e-38 309 283
-0.011519399 0.65700001 -0.049533416 1.5852486e-38 310 283
-0.01036746 0.65700001 -0.049533416 1.5852486e-38 311 283
-0.0092155198 0.65700001 -0.049533416 1.5943966e-38 312 283
-0.0080635799 0.65700001 -0.049533416 1.5943966e-38 313 283
-0.0069116396 0.65700001 -0.049533416 1.5852136e-38 314 283
-0.0057421662 0.65499997 -0.049382631 1.5852136e-38 315 283
-0.0045937328 0.65499997 -0.049382631 1.5759587e-38 316 283
-0.0034452998 0.65499997 -0.049382631 1.5759587e-38 317 283
-0.0022968664 0.65499997 -0.049382631 1.575959e-38 318 283
-0.0011484332 0.65499997 -0.049382631 1.575959e-38 319 283
0 0.65499997 -0.049382631 1.5575559e-38 320 283
0.0011484332 0.65499997 -0.049382631 1.5483362e-38 321 283
0.0022968664 0.65499997 -0.049382631 1.5390444e-38 322 283
0.0034452998 0.65499997 -0.049382631 1.5390444e-38 323 283
0.0045937328 0.65499997 -0.049382631 1.5483362e-38 324 283
0.0057421662 0.65499997 -0.049382631 1.5483362e-38 325 283
0.0069116396 0.65700001 -0.049533416 1.5116021e-38 326 283
0.0080635799 0.65700001 -0.049533416 1.5208217e-38 327 283
0.0092155198 0.65700001 -0.049533416 1.5207498e-38 328 283
0.010335899 0.65499997 -0.049382631 1.5207498e-38 329 283
0.011484332 0.65499997 -0.049382631 1.5115299e-38 330 283
0.012632766 0.65499997 -0.049382631 1.5023104e-38 331 283
0.013781199 0.65499997 -0.049382631 1.5023101e-38 332 283
0.01497522 0.65700001 -0.049533416 1.5023101e-38 333 283
0.01612716 0.65700001 -0.049533416 1.5114573e-38 334 283
0.017305398 0.65799999 -0.049608808 1.4930184e-38 335 283
0.018459093 0.65799999 -0.049608808 1.4838356e-38 336 283
0.019642593 0.65899998 -0.049684204 1.4746161e-38 337 283
0.020798039 0.65899998 -0.049684204 1.4562493e-38 338 283
0.022020113 0.66100001 -0.049834993 1.43781e-38 339 283
0.023179067 0.66100001 -0.049834993 1.3917845e-38 340 283
0.02433802 0.66100001 -0.049834993 1.3364671e-38 341 283
0.025496973 0.66100001 -0.049834993 1.3549065e-38 342 283
0.026655925 0.66100001 -0.049834993 1.3733458e-38 343 283
0.02781488 0.66100001 -0.049834993 1.410152e-38 344 283
0.028973831 0.66100001 -0.049834993 1.410152e-38 345 283
0.030178372 0.662 -0.049910385 1.4101523e-38 346 283
0.031339079 0.662 -0.049910385 1.4285554e-38 347 283
0.032548878 0.66299999 -0.049985778 1.4101886e-38 348 283
0.033762183 0.66399997 -0.05006117 1.4194081e-38 349 283
0.0349264 0.66399997 -0.05006117 1.4286277e-38 350 283
0.036090612 0.66399997 -0.05006117 1.4286277e-38 351 283
0.037367038 0.66600001 -0.050211959 1.4286997e-38 352 283
0.03853476 0.66600001 -0.050211959 1.4379552e-38 353 283
0.039702479 0.66600001 -0.050211959 1.4286997e-38 354 283
0.040931564 0.667 -0.050287351 1.41948e-38 355 283
0.042164158 0.66799998 -0.050362743 1.3828179e-38 356 283
0.043465134 0.67000002 -0.050513536 1.4104407e-38 357 283
0.044706494 0.671 -0.050588924 1.382819e-38 358 283
0.045951359 0.67199999 -0.050664317 1.382819e-38 359 283
0.047129598 0.67199999 -0.050664317 1.3828914e-38 360 283
0.048451614 0.67400002 -0.050815105 1.3828914e-38 361 283
0.049633358 0.67400002 -0.050815105 1.3369385e-38 362 283
0.050815105 0.67400002 -0.050815105 1.3369385e-38 363 283
0.051996857 0.67400002 -0.050815105 1.3183581e-38 364 283
-0.08564683 0.68800002 -0.053076908 1.1521875e-38 249 284
-0.084440529 0.68800002 -0.053076908 1.2440923e-38 250 284
-0.083234236 0.68800002 -0.053076908 1.2809346e-38 251 284
-0.082027942 0.68800002 -0.053076908 1.290188e-38 252 284
-0.080704175 0.68699998 -0.052999757 1.2994434e-38 253 284
-0.079499632 0.68699998 -0.052999757 1.2994782e-38 254 284
-0.078181133 0.68599999 -0.05292261 1.3178813e-38 255 284
-0.076978341 0.68599999 -0.05292261 1.2903308e-38 256 284
-0.075554639 0.68400002 -0.05276832 1.2903308e-38 257 284
-0.074246652 0.68300003 -0.052691177 1.2903308e-38 258 284
-0.072942168 0.68199998 -0.052614026 1.2903308e-38 259 284
-0.071535997 0.68000001 -0.052459732 1.2719993e-38 260 284
-0.070240289 0.67900002 -0.052382588 1.2812188e-38 261 284
-0.068948075 0.67799997 -0.052305438 1.2903658e-38 262 284
-0.067559443 0.676 -0.052151144 1.2995854e-38 263 284
-0.066275999 0.67500001 -0.052074 1.2995851e-38 264 284
-0.064996064 0.67400002 -0.051996857 1.2995851e-38 265 284
-0.06381432 0.67400002 -0.051996857 1.29955e-38 266 284
-0.062446721 0.67199999 -0.051842555 1.29955e-38 267 284
-0.061268479 0.67199999 -0.051842555 1.2995147e-38 268 284
-0.060090236 0.67199999 -0.051842555 1.3087343e-38 269 284
-0.058824331 0.671 -0.051765412 1.2995869e-38 270 284
-0.057647847 0.671 -0.051765412 1.2995869e-38 271 284
-0.056387197 0.67000002 -0.051688269 1.3088067e-38 272 284
-0.05504765 0.66799998 -0.051533967 1.3088067e-38 273 284
-0.05379577 0.667 -0.051456824 1.3179541e-38 274 284
-0.052626297 0.667 -0.051456824 1.3179541e-38 275 284
-0.051379681 0.66600001 -0.051379681 1.3455405e-38 276 284
-0.050211959 0.66600001 -0.051379681 1.3455405e-38 277 284
-0.04904424 0.66600001 -0.051379681 1.3272093e-38 278 284
-0.047876518 0.66600001 -0.051379681 1.3456124e-38 279 284
-0.046568532 0.66399997 -0.051225383 1.3547954e-38 280 284
-0.045335937 0.66299999 -0.051148236 1.3455758e-38 281 284
-0.044173479 0.66299999 -0.051148236 1.3271361e-38 282 284
-0.043011017 0.66299999 -0.051148236 1.2810742e-38 283 284
-0.041785441 0.662 -0.051071092 1.2166816e-38 284 284
-0.04062473 0.662 -0.051071092 1.2443401e-38 285 284
-0.039464023 0.662 -0.051071092 1.290475e-38 286 284
-0.038245458 0.66100001 -0.050993945 1.3642315e-38 287 284
-0.037086505 0.66100001 -0.050993945 1.4377731e-38 288 284
-0.035927553 0.66100001 -0.050993945 1.4746513e-38 289 284
-0.0347686 0.66100001 -0.050993945 1.5114571e-38 290 284
-0.033507951 0.65899998 -0.050839648 1.5114571e-38 291 284
-0.032352503 0.65899998 -0.050839648 1.5298596e-38 292 284
-0.031197058 0.65899998 -0.050839648 1.5390792e-38 293 284
-0.030041611 0.65899998 -0.050839648 1.5484782e-38 294 284
-0.028886165 0.65899998 -0.050839648 1.5484782e-38 295 284
-0.027730718 0.65899998 -0.050839648 1.5851767e-38 296 284
-0.026534945 0.65799999 -0.050762504 1.5944321e-38 297 284
-0.025381252 0.65799999 -0.050762504 1.6036514e-38 298 284
-0.02422756 0.65799999 -0.050762504 1.6220545e-38 299 284
-0.023038799 0.65700001 -0.050685361 1.6036517e-38 300 284
-0.021886859 0.65700001 -0.050685361 1.6036517e-38 301 284
-0.020671798 0.65499997 -0.050531063 1.6036161e-38 302 284
-0.019523365 0.65499997 -0.050531063 1.6036161e-38 303 284
-0.018374931 0.65499997 -0.050531063 1.6036164e-38 304 284
-0.017226499 0.65499997 -0.050531063 1.5943968e-38 305 284
-0.016078066 0.65499997 -0.050531063 1.5943968e-38 306 284
-0.014929632 0.65499997 -0.050531063 1.5851773e-38 307 284
-0.013781199 0.65499997 -0.050531063 1.5759937e-38 308 284
-0.012632766 0.65499997 -0.050531063 1.5759937e-38 309 284
-0.011484332 0.65499997 -0.050531063 1.5760293e-38 310 284
-0.010335899 0.65499997 -0.050531063 1.5760293e-38 311 284
-0.0091874655 0.65499997 -0.050531063 1.5759937e-38 312 284
-0.008039033 0.65499997 -0.050531063 1.5575906e-38 313 284
-0.0068905996 0.65499997 -0.050531063 1.5575553e-38 314 284
-0.0057421662 0.65499997 -0.050531063 1.5483356e-38 315 284
-0.0045937328 0.65499997 -0.050531063 1.5391526e-38 316 284
-0.0034452998 0.65499997 -0.050531063 1.5391526e-38 317 284
-0.0022968664 0.65499997 -0.050531063 1.5391529e-38 318 284
-0.0011484332 0.65499997 -0.050531063 1.5391529e-38 319 284
0 0.65499997 -0.050531063 1.5207142e-38 320 284
0.0011484332 0.65499997 -0.050531063 1.4838359e-38 321 284
0.0022968664 0.65499997 -0.050531063 1.4285539e-38 322 284
0.0034452998 0.65499997 -0.050531063 1.4377734e-38 323 284
0.0045937328 0.65499997 -0.050531063 1.4838356e-38 324 284
0.0057421662 0.65499997 -0.050531063 1.4838356e-38 325 284
0.0068905996 0.65499997 -0.050531063 1.5022753e-38 326 284
0.008039033 0.65499997 -0.050531063 1.5022753e-38 327 284
0.0091874655 0.65499997 -0.050531063 1.5022751e-38 328 284
0.010335899 0.65499997 -0.050531063 1.5022751e-38 329 284
0.011484332 0.65499997 -0.050531063 1.4930552e-38 330 284
0.012632766 0.65499997 -0.050531063 1.4930552e-38 331 284
0.013781199 0.65499997 -0.050531063 1.483871e-38 332 284
0.014929632 0.65499997 -0.050531063 1.4562481e-38 333 284
0.01612716 0.65700001 -0.050685361 1.4285536e-38 334 284
0.017305398 0.65799999 -0.050762504 1.4377731e-38 335 284
0.018459093 0.65799999 -0.050762504 1.4469933e-38 336 284
0.019612785 0.65799999 -0.050762504 1.4377378e-38 337 284
0.020798039 0.65899998 -0.050839648 1.4101873e-38 338 284
0.021953486 0.65899998 -0.050839648 1.3824926e-38 339 284
0.023108931 0.65899998 -0.050839648 1.308916e-38 340 284
0.02433802 0.66100001 -0.050993945 1.1798422e-38 341 284
0.025496973 0.66100001 -0.050993945 1.1982816e-38 342 284
0.026655925 0.66100001 -0.050993945 1.2535989e-38 343 284
0.02781488 0.66100001 -0.050993945 1.2996614e-38 344 284
0.028973831 0.66100001 -0.050993945 1.3181006e-38 345 284
0.030178372 0.662 -0.051071092 1.3273204e-38 346 284
0.031339079 0.662 -0.051071092 1.3181009e-38 347 284
0.032499783 0.662 -0.051071092 1.3181727e-38 348 284
0.033711337 0.66299999 -0.051148236 1.3273923e-38 349 284
0.0349264 0.66399997 -0.051225383 1.3090611e-38 350 284
0.036090612 0.66399997 -0.051225383 1.3090611e-38 351 284
0.037367038 0.66600001 -0.051379681 1.327392e-38 352 284
0.03853476 0.66600001 -0.051379681 1.3366475e-38 353 284
0.039702479 0.66600001 -0.051379681 1.3641264e-38 354 284
0.040870197 0.66600001 -0.051379681 1.3456872e-38 355 284
0.042164158 0.66799998 -0.051533967 1.3089532e-38 356 284
0.043465134 0.67000002 -0.051688269 1.3181727e-38 357 284
0.044706494 0.671 -0.051765412 1.281548e-38 358 284
0.045951359 0.67199999 -0.051842555 1.3092425e-38 359 284
0.047129598 0.67199999 -0.051842555 1.3000598e-38 360 284
0.04830784 0.67199999 -0.051842555 1.3092794e-38 361 284
0.049633358 0.67400002 -0.051996857 1.3184636e-38 362 284
0.050815105 0.67400002 -0.051996857 1.3276834e-38 363 284
0.051996857 0.67400002 -0.051996857 1.2816242e-38 364 284
-0.084440529 0.68800002 -0.054283202 1.1429677e-38 250 285
-0.083234236 0.68800002 -0.054283202 1.1706623e-38 251 285
-0.082027942 0.68800002 -0.054283202 1.253419e-38 252 285
-0.080821648 0.68800002 -0.054283202 1.2810778e-38 253 285
-0.079499632 0.68699998 -0.054204296 1.2627091e-38 254 285
-0.078295097 0.68699998 -0.054204296 1.2719286e-38 255 285
-0.076978341 0.68599999 -0.054125395 1.2627086e-38 256 285
-0.075554639 0.68400002 -0.053967599 1.2627086e-38 257 285
-0.074246652 0.68300003 -0.053888701 1.2627086e-38 258 285
-0.072942168 0.68199998 -0.053809796 1.2719642e-38 259 285
-0.071535997 0.68000001 -0.053652 1.2628163e-38 260 285
-0.070240289 0.67900002 -0.053573098 1.2720358e-38 261 285
-0.068948075 0.67799997 -0.053494196 1.2995854e-38 262 285
-0.067559443 0.676 -0.053336397 1.2995854e-38 263 285
-0.066374183 0.676 -0.053336397 1.2996207e-38 264 285
-0.065092497 0.67500001 -0.053257499 1.2996207e-38 265 285
-0.06381432 0.67400002 -0.053178601 1.2995851e-38 266 285
-0.062446721 0.67199999 -0.053020798 1.2995851e-38 267 285
-0.061268479 0.67199999 -0.053020798 1.2995498e-38 268 285
-0.060090236 0.67199999 -0.053020798 1.2995498e-38 269 285
-0.058824331 0.671 -0.052941896 1.3087699e-38 270 285
-0.057647847 0.671 -0.052941896 1.2995503e-38 271 285
-0.056387197 0.67000002 -0.052863002 1.2995866e-38 272 285
-0.05504765 0.66799998 -0.052705199 1.2811835e-38 273 285
-0.05379577 0.667 -0.052626297 1.2811835e-38 274 285
-0.052626297 0.667 -0.052626297 1.2811835e-38 275 285
-0.051379681 0.66600001 -0.052547399 1.2994797e-38 276 285
-0.050211959 0.66600001 -0.052547399 1.3086993e-38 277 285
-0.04904424 0.66600001 -0.052547399 1.2810778e-38 278 285
-0.047876518 0.66600001 -0.052547399 1.2995168e-38 279 285
-0.046568532 0.66399997 -0.052389596 1.2994815e-38 280 285
-0.045335937 0.66299999 -0.052310698 1.2810784e-38 281 285
-0.044173479 0.66299999 -0.052310698 1.2534187e-38 282 285
-0.043011017 0.66299999 -0.052310698 1.1704427e-38 283 285
-0.041785441 0.662 -0.0522318 1.0783549e-38 284 285
-0.04062473 0.662 -0.0522318 1.0967941e-38 285 285
-0.039464023 0.662 -0.0522318 1.1613679e-38 286 285
-0.038245458 0.66100001 -0.052152898 1.2812222e-38 287 285
-0.037086505 0.66100001 -0.052152898 1.3640538e-38 288 285
-0.035927553 0.66100001 -0.052152898 1.3917126e-38 289 285
-0.0347686 0.66100001 -0.052152898 1.4468848e-38 290 285
-0.033507951 0.65899998 -0.051995095 1.4561044e-38 291 285
-0.032352503 0.65899998 -0.051995095 1.4562829e-38 292 285
-0.031197058 0.65899998 -0.051995095 1.474686e-38 293 285
-0.030041611 0.65899998 -0.051995095 1.4747216e-38 294 285
-0.028886165 0.65899998 -0.051995095 1.4931609e-38 295 285
-0.027688639 0.65799999 -0.051916201 1.5023804e-38 296 285
-0.026534945 0.65799999 -0.051916201 1.5208554e-38 297 285
-0.025381252 0.65799999 -0.051916201 1.5391864e-38 298 285
-0.02422756 0.65799999 -0.051916201 1.5484059e-38 299 285
-0.023038799 0.65700001 -0.051837299 1.5852123e-38 300 285
-0.021886859 0.65700001 -0.051837299 1.5944319e-38 301 285
-0.020671798 0.65499997 -0.051679496 1.6036164e-38 302 285
-0.019523365 0.65499997 -0.051679496 1.5943968e-38 303 285
-0.018374931 0.65499997 -0.051679496 1.5759937e-38 304 285
-0.017226499 0.65499997 -0.051679496 1.5483709e-38 305 285
-0.01605352 0.65399998 -0.051600594 1.5391511e-38 306 285
-0.014906839 0.65399998 -0.051600594 1.5391511e-38 307 285
-0.013781199 0.65499997 -0.051679496 1.5208201e-38 308 285
-0.012632766 0.65499997 -0.051679496 1.5208201e-38 309 285
-0.011484332 0.65499997 -0.051679496 1.4932703e-38 310 285
-0.010335899 0.65499997 -0.051679496 1.4932703e-38 311 285
-0.0091874655 0.65499997 -0.051679496 1.5208217e-38 312 285
-0.008039033 0.65499997 -0.051679496 1.5116021e-38 313 285
-0.0068905996 0.65499997 -0.051679496 1.4840507e-38 314 285
-0.0057421662 0.65499997 -0.051679496 1.4748312e-38 315 285
-0.0045937328 0.65499997 -0.051679496 1.502382e-38 316 285
-0.0034400397 0.65399998 -0.051600594 1.5116015e-38 317 285
-0.00229336 0.65399998 -0.051600594 1.5023116e-38 318 285
-0.0011484332 0.65499997 -0.051679496 1.5023116e-38 319 285
0 0.65499997 -0.051679496 1.4838732e-38 320 285
0.0011484332 0.65499997 -0.051679496 1.4562145e-38 321 285
0.0022968664 0.65499997 -0.051679496 1.3455798e-38 322 285
0.0034452998 0.65499997 -0.051679496 1.3455798e-38 323 285
0.0045937328 0.65499997 -0.051679496 1.4192637e-38 324 285
0.0057421662 0.65499997 -0.051679496 1.4377028e-38 325 285
0.0068905996 0.65499997 -0.051679496 1.4562142e-38 326 285
0.008039033 0.65499997 -0.051679496 1.4562142e-38 327 285
0.0091874655 0.65499997 -0.051679496 1.4562142e-38 328 285
0.010335899 0.65499997 -0.051679496 1.4562142e-38 329 285
0.011484332 0.65499997 -0.051679496 1.4562498e-38 330 285
0.012632766 0.65499997 -0.051679496 1.4469942e-38 331 285
0.013781199 0.65499997 -0.051679496 1.4377378e-38 332 285
0.014929632 0.65499997 -0.051679496 1.4192987e-38 333 285
0.01612716 0.65700001 -0.051837299 1.3916756e-38 334 285
0.0172791 0.65700001 -0.051837299 1.3916756e-38 335 285
0.01843104 0.65700001 -0.051837299 1.3916403e-38 336 285
0.019612785 0.65799999 -0.051916201 1.3916403e-38 337 285
0.02076648 0.65799999 -0.051916201 1.382421e-38 338 285
0.021953486 0.65899998 -0.051995095 1.3455069e-38 339 285
0.023108931 0.65899998 -0.051995095 1.2443075e-38 340 285
0.024264378 0.65899998 -0.051995095 1.0875389e-38 341 285
0.025496973 0.66100001 -0.052152898 1.0322937e-38 342 285
0.026655925 0.66100001 -0.052152898 1.1152699e-38 343 285
0.02781488 0.66100001 -0.052152898 1.1798793e-38 344 285
0.028973831 0.66100001 -0.052152898 1.2259772e-38 345 285
0.030178372 0.662 -0.0522318 1.2535652e-38 346 285
0.031339079 0.662 -0.0522318 1.2535652e-38 347 285
0.032499783 0.662 -0.0522318 1.2352352e-38 348 285
0.033711337 0.66299999 -0.052310698 1.2444908e-38 349 285
0.0349264 0.66399997 -0.052389596 1.2444552e-38 350 285
0.036090612 0.66399997 -0.052389596 1.2444552e-38 351 285
0.037254825 0.66399997 -0.052389596 1.2536029e-38 352 285
0.03853476 0.66600001 -0.052547399 1.2443832e-38 353 285
0.039702479 0.66600001 -0.052547399 1.2627147e-38 354 285
0.040870197 0.66600001 -0.052547399 1.2442755e-38 355 285
0.042101037 0.667 -0.052626297 1.2258734e-38 356 285
0.043465134 0.67000002 -0.052863002 1.2443484e-38 357 285
0.044706494 0.671 -0.052941896 1.2169785e-38 358 285
0.045951359 0.67199999 -0.053020798 1.2538568e-38 359 285
0.047129598 0.67199999 -0.053020798 1.2448523e-38 360 285
0.04830784 0.67199999 -0.053020798 1.2448523e-38 361 285
0.049633358 0.67400002 -0.053178601 1.281623e-38 362 285
0.050890498 0.67500001 -0.053257499 1.2908425e-38 363 285
0.051842555 0.67199999 -0.053020798 1.2356719e-38 364 285
0.053020798 0.67199999 -0.053020798 1.3370512e-38 365 285
-0.082027942 0.68800002 -0.055489492 1.1154517e-38 252 286
-0.080821648 0.68800002 -0.055489492 1.1707689e-38 253 286
-0.079499632 0.68699998 -0.055408835 1.2809335e-38 254 286
-0.078295097 0.68699998 -0.055408835 1.2901532e-38 255 286
-0.076978341 0.68599999 -0.055328183 1.2810403e-38 256 286
-0.075554639 0.68400002 -0.055166878 1.262637e-38 257 286
-0.074246652 0.68300003 -0.055086225 1.2627442e-38 258 286
-0.073049128 0.68300003 -0.055086225 1.2627442e-38 259 286
-0.071535997 0.68000001 -0.054844268 1.2719993e-38 260 286
-0.070240289 0.67900002 -0.054763615 1.2812188e-38 261 286
-0.068948075 0.67799997 -0.054682959 1.2995498e-38 262 286
-0.067559443 0.676 -0.054521654 1.2995498e-38 263 286
-0.066374183 0.676 -0.054521654 1.3179166e-38 264 286
-0.065092497 0.67500001 -0.054441001 1.3271361e-38 265 286
-0.06381432 0.67400002 -0.054360349 1.2995854e-38 266 286
-0.062446721 0.67199999 -0.054199036 1.2995854e-38 267 286
-0.061268479 0.67199999 -0.054199036 1.2995498e-38 268 286
-0.060090236 0.67199999 -0.054199036 1.2995498e-38 269 286
-0.058824331 0.671 -0.054118387 1.2996219e-38 270 286
-0.057647847 0.671 -0.054118387 1.2996219e-38 271 286
-0.056387197 0.67000002 -0.054037735 1.2996216e-38 272 286
-0.05504765 0.66799998 -0.053876422 1.2812185e-38 273 286
-0.05379577 0.667 -0.05379577 1.2903302e-38 274 286
-0.052626297 0.667 -0.05379577 1.2903302e-38 275 286
-0.051379681 0.66600001 -0.053715117 1.2902952e-38 276 286
-0.050211959 0.66600001 -0.053715117 1.2902952e-38 277 286
-0.04904424 0.66600001 -0.053715117 1.2902604e-38 278 286
-0.047876518 0.66600001 -0.053715117 1.281005e-38 279 286
-0.046708796 0.66600001 -0.053715117 1.2993731e-38 280 286
-0.045404319 0.66399997 -0.053553808 1.2808979e-38 281 286
-0.044173479 0.66299999 -0.053473156 1.244092e-38 282 286
-0.043011017 0.66299999 -0.053473156 1.1703355e-38 283 286
-0.041848559 0.66299999 -0.053473156 1.1333499e-38 284 286
-0.04062473 0.662 -0.053392503 1.1056913e-38 285 286
-0.039464023 0.662 -0.053392503 1.0509852e-38 286 286
-0.038245458 0.66100001 -0.053311851 1.1708395e-38 287 286
-0.037086505 0.66100001 -0.053311851 1.2719658e-38 288 286
-0.035927553 0.66100001 -0.053311851 1.2904049e-38 289 286
-0.034663398 0.65899998 -0.053150542 1.3271387e-38 290 286
-0.033507951 0.65899998 -0.053150542 1.3640169e-38 291 286
-0.032352503 0.65899998 -0.053150542 1.3640522e-38 292 286
-0.031197058 0.65899998 -0.053150542 1.3640522e-38 293 286
-0.030041611 0.65899998 -0.053150542 1.364087e-38 294 286
-0.028886165 0.65899998 -0.053150542 1.364087e-38 295 286
-0.027688639 0.65799999 -0.05306989 1.3733419e-38 296 286
-0.026534945 0.65799999 -0.05306989 1.41022e-38 297 286
-0.025381252 0.65799999 -0.05306989 1.4193671e-38 298 286
-0.02422756 0.65799999 -0.05306989 1.4193671e-38 299 286
-0.023038799 0.65700001 -0.052989237 1.4469539e-38 300 286
-0.021886859 0.65700001 -0.052989237 1.465393e-38 301 286
-0.020671798 0.65499997 -0.052827932 1.45621e-38 302 286
-0.019523365 0.65499997 -0.052827932 1.45621e-38 303 286
-0.018374931 0.65499997 -0.052827932 1.4378791e-38 304 286
-0.017226499 0.65499997 -0.052827932 1.4286236e-38 305 286
-0.01605352 0.65399998 -0.052747279 1.4193323e-38 306 286
-0.014906839 0.65399998 -0.052747279 1.428552e-38 307 286
-0.013781199 0.65499997 -0.052827932 1.4286605e-38 308 286
-0.012632766 0.65499997 -0.052827932 1.4563551e-38 309 286
-0.011484332 0.65499997 -0.052827932 1.4930184e-38 310 286
-0.010335899 0.65499997 -0.052827932 1.4930184e-38 311 286
-0.0091874655 0.65499997 -0.052827932 1.4837989e-38 312 286
