# .PCD v.7 - Point Cloud Data file format
FIELDS x y z rgb imX imY
SIZE 4 4 4 4 4 4
TYPE F F F F F F
COUNT 1 1 1 1 1 1
WIDTH 845
HEIGHT 1
VIEWPOINT 0 0 0 1 0 0 0
POINTS 845
DATA ascii
0.064650662 0.72299999 -0.01394426 1.8430337e-38 371 251
0.065918319 0.72299999 -0.01394426 1.8430331e-38 372 251
0.067185976 0.72299999 -0.01394426 1.8338136e-38 373 251
0.068358958 0.722 -0.013924973 1.8154821e-38 374 251
0.069432005 0.72000003 -0.0138864 1.8062625e-38 375 251
0.070694394 0.72000003 -0.0138864 1.7970429e-38 376 251
0.071956798 0.72000003 -0.0138864 1.7694201e-38 377 251
0.073219202 0.72000003 -0.0138864 1.7876812e-38 378 251
0.074481606 0.72000003 -0.0138864 1.7876812e-38 379 251
-0.074327305 0.75700003 -0.015927281 1.6872131e-38 264 252
-0.073000036 0.75700003 -0.015927281 1.521261e-38 265 252
-0.071483396 0.755 -0.015885198 1.6404984e-38 266 252
-0.070159629 0.755 -0.015885198 1.6773408e-38 267 252
-0.068835862 0.755 -0.015885198 1.695849e-38 268 252
-0.067422673 0.75400001 -0.01586416 1.7235076e-38 269 252
-0.065749995 0.75 -0.01578 1.696136e-38 270 252
-0.064434998 0.75 -0.01578 1.6869164e-38 271 252
-0.06312 0.75 -0.01578 1.7052126e-38 272 252
-0.061722592 0.74900001 -0.01575896 1.6683345e-38 273 252
-0.060409348 0.74900001 -0.01575896 1.6774112e-38 274 252
-0.059096102 0.74900001 -0.01575896 1.6497883e-38 275 252
-0.057782855 0.74900001 -0.01575896 1.6680477e-38 276 252
-0.056469604 0.74900001 -0.01575896 1.6496086e-38 277 252
-0.055156358 0.74900001 -0.01575896 1.6403523e-38 278 252
-0.053843111 0.74900001 -0.01575896 1.6310968e-38 279 252
-0.052529868 0.74900001 -0.01575896 1.5391533e-38 280 252
-0.051216617 0.74900001 -0.01575896 1.4838359e-38 281 252
-0.04990337 0.74900001 -0.01575896 1.3640535e-38 282 252
-0.048590127 0.74900001 -0.01575896 1.3364308e-38 283 252
-0.047339998 0.75 -0.01578 1.3547974e-38 284 252
-0.046024997 0.75 -0.01578 1.3640169e-38 285 252
-0.044650383 0.74900001 -0.01575896 1.3365375e-38 286 252
-0.04333714 0.74900001 -0.01575896 1.345757e-38 287 252
-0.042023893 0.74900001 -0.01575896 1.3459371e-38 288 252
-0.040710647 0.74900001 -0.01575896 1.3551568e-38 289 252
-0.039449997 0.75 -0.01578 1.3734533e-38 290 252
-0.038236689 0.75199997 -0.015822079 1.3734533e-38 291 252
-0.036918186 0.75199997 -0.015822079 1.3734179e-38 292 252
-0.035599679 0.75199997 -0.015822079 1.3641984e-38 293 252
-0.034372345 0.75400001 -0.01586416 1.3458321e-38 294 252
-0.033050332 0.75400001 -0.01586416 1.3458321e-38 295 252
-0.03172832 0.75400001 -0.01586416 1.3366486e-38 296 252
-0.030406307 0.75400001 -0.01586416 1.3366486e-38 297 252
-0.029084291 0.75400001 -0.01586416 1.3365768e-38 298 252
-0.027762281 0.75400001 -0.01586416 1.3365768e-38 299 252
-0.026440267 0.75400001 -0.01586416 1.327322e-38 300 252
-0.025118252 0.75400001 -0.01586416 1.327322e-38 301 252
-0.02379624 0.75400001 -0.01586416 1.3273217e-38 302 252
-0.022474226 0.75400001 -0.01586416 1.3365771e-38 303 252
-0.021152213 0.75400001 -0.01586416 1.3365768e-38 304 252
-0.019830201 0.75400001 -0.01586416 1.3365768e-38 305 252
-0.018459093 0.75199997 -0.015822079 1.3641278e-38 306 252
-0.017140586 0.75199997 -0.015822079 1.3641278e-38 307 252
-0.015822079 0.75199997 -0.015822079 1.3641278e-38 308 252
-0.014503572 0.75199997 -0.015822079 1.3733473e-38 309 252
-0.013185065 0.75199997 -0.015822079 1.3734548e-38 310 252
-0.011866559 0.75199997 -0.015822079 1.3550517e-38 311 252
-0.010548052 0.75199997 -0.015822079 1.3734182e-38 312 252
-0.0092295464 0.75199997 -0.015822079 1.3826378e-38 313 252
-0.0079110395 0.75199997 -0.015822079 1.3826375e-38 314 252
-0.0065925326 0.75199997 -0.015822079 1.3734179e-38 315 252
-0.0052740262 0.75199997 -0.015822079 1.4009687e-38 316 252
-0.0039555198 0.75199997 -0.015822079 1.4009687e-38 317 252
-0.0026370131 0.75199997 -0.015822079 1.4009687e-38 318 252
-0.0013185065 0.75199997 -0.015822079 1.4009687e-38 319 252
0 0.75 -0.01578 1.400969e-38 320 252
0.001315 0.75 -0.01578 1.4101886e-38 321 252
0.0026264933 0.74900001 -0.01575896 1.4102242e-38 322 252
0.0039397399 0.74900001 -0.01575896 1.4102242e-38 323 252
0.0052529867 0.74900001 -0.01575896 1.3918924e-38 324 252
0.0065486995 0.74699998 -0.015716879 1.3918924e-38 325 252
0.0078584393 0.74699998 -0.015716879 1.4102589e-38 326 252
0.0091681797 0.74699998 -0.015716879 1.4102589e-38 327 252
0.010477919 0.74699998 -0.015716879 1.4378453e-38 328 252
0.011787659 0.74699998 -0.015716879 1.4378453e-38 329 252
0.013097399 0.74699998 -0.015716879 1.4378453e-38 330 252
0.014387853 0.74599999 -0.015695838 1.4470649e-38 331 252
0.015695838 0.74599999 -0.015695838 1.4470649e-38 332 252
0.017003827 0.74599999 -0.015695838 1.4562844e-38 333 252
0.018311813 0.74599999 -0.015695838 1.4562849e-38 334 252
0.019619798 0.74599999 -0.015695838 1.4655044e-38 335 252
0.02087168 0.74400002 -0.015653761 1.4563565e-38 336 252
0.022116546 0.74199998 -0.015611678 1.465576e-38 337 252
0.023417519 0.74199998 -0.015611678 1.4747946e-38 338 252
0.024718491 0.74199998 -0.015611678 1.4747946e-38 339 252
0.025984399 0.741 -0.01559064 1.4747943e-38 340 252
0.027283618 0.741 -0.01559064 1.4747943e-38 341 252
0.028505694 0.73900002 -0.01554856 1.4840142e-38 342 252
0.029801406 0.73900002 -0.01554856 1.4840142e-38 343 252
0.03109712 0.73900002 -0.01554856 1.5207122e-38 344 252
0.032392833 0.73900002 -0.01554856 1.5207122e-38 345 252
0.033642959 0.73799998 -0.015527519 1.5023457e-38 346 252
0.034936916 0.73799998 -0.015527519 1.5023457e-38 347 252
0.036132693 0.736 -0.015485439 1.5206416e-38 348 252
0.037321456 0.73400003 -0.01544336 1.5298612e-38 349 252
0.038608398 0.73400003 -0.01544336 1.5206419e-38 350 252
0.039840993 0.73299998 -0.015422319 1.5206419e-38 351 252
0.041126184 0.73299998 -0.015422319 1.5391529e-38 352 252
0.042411376 0.73299998 -0.015422319 1.5668117e-38 353 252
0.043577347 0.73100001 -0.01538024 1.5852489e-38 354 252
0.044797666 0.73000002 -0.0153592 1.603688e-38 355 252
0.046077598 0.73000002 -0.0153592 1.6589311e-38 356 252
0.047227785 0.72799999 -0.01531712 1.6773704e-38 357 252
0.048504211 0.72799999 -0.01531712 1.7050649e-38 358 252
0.049712259 0.727 -0.015296079 1.7419073e-38 359 252
0.050986931 0.727 -0.015296079 1.7601669e-38 360 252
0.052117832 0.72500002 -0.015254001 1.7786061e-38 361 252
0.053241719 0.72299999 -0.015211919 1.7786061e-38 362 252
0.054509375 0.72299999 -0.015211919 1.7878256e-38 363 252
0.055699892 0.722 -0.015190879 1.7879331e-38 364 252
0.056965802 0.722 -0.015190879 1.7879331e-38 365 252
0.058231708 0.722 -0.015190879 1.7971524e-38 366 252
0.059497613 0.722 -0.015190879 1.7971524e-38 367 252
0.061184317 0.727 -0.015296079 1.8154836e-38 368 252
0.062287167 0.72500002 -0.015254001 1.8154836e-38 369 252
0.063382991 0.72299999 -0.015211919 1.8246672e-38 370 252
0.064382397 0.72000003 -0.0151488 1.8246672e-38 371 252
0.065644801 0.72000003 -0.0151488 1.8246666e-38 372 252
0.067093052 0.722 -0.015190879 1.8246666e-38 373 252
0.068169601 0.72000003 -0.0151488 1.8247369e-38 374 252
0.069432005 0.72000003 -0.0151488 1.8155174e-38 375 252
0.070596211 0.71899998 -0.01512776 1.8246275e-38 376 252
0.071856856 0.71899998 -0.01512776 1.8154079e-38 377 252
0.073117502 0.71899998 -0.01512776 1.8153732e-38 378 252
0.074481606 0.72000003 -0.0151488 1.8245928e-38 379 252
0.075743996 0.72000003 -0.0151488 1.7875385e-38 380 252
0.0770064 0.72000003 -0.0151488 1.7690994e-38 381 252
-0.07413093 0.755 -0.017208965 1.6223146e-38 264 253
-0.07280717 0.755 -0.017208965 1.5670331e-38 265 253
-0.071483396 0.755 -0.017208965 1.7234372e-38 266 253
-0.070159629 0.755 -0.017208965 1.7141818e-38 267 253
-0.068744689 0.75400001 -0.017186172 1.6959931e-38 268 253
-0.067065001 0.75 -0.017095 1.6959931e-38 269 253
-0.065749995 0.75 -0.017095 1.7051405e-38 270 253
-0.064349085 0.74900001 -0.017072206 1.6867013e-38 271 253
-0.063035838 0.74900001 -0.017072206 1.6957407e-38 272 253
-0.061722592 0.74900001 -0.017072206 1.6496789e-38 273 253
-0.060409348 0.74900001 -0.017072206 1.6496436e-38 274 253
-0.059096102 0.74900001 -0.017072206 1.6496436e-38 275 253
-0.057782855 0.74900001 -0.017072206 1.6128745e-38 276 253
-0.056469604 0.74900001 -0.017072206 1.5852517e-38 277 253
-0.055156358 0.74900001 -0.017072206 1.539118e-38 278 253
-0.053843111 0.74900001 -0.017072206 1.5114593e-38 279 253
-0.052529868 0.74900001 -0.017072206 1.4194437e-38 280 253
-0.051216617 0.74900001 -0.017072206 1.4009687e-38 281 253
-0.04990337 0.74900001 -0.017072206 1.3641628e-38 282 253
-0.048590127 0.74900001 -0.017072206 1.3641628e-38 283 253
-0.047276881 0.74900001 -0.017072206 1.327392e-38 284 253
-0.046024997 0.75 -0.017095 1.3366475e-38 285 253
-0.044709999 0.75 -0.017095 1.3549781e-38 286 253
-0.043394998 0.75 -0.017095 1.3549781e-38 287 253
-0.04208 0.75 -0.017095 1.3550867e-38 288 253
-0.040764999 0.75 -0.017095 1.3458672e-38 289 253
-0.039449997 0.75 -0.017095 1.3733829e-38 290 253
-0.038135 0.75 -0.017095 1.3641634e-38 291 253
-0.036819998 0.75 -0.017095 1.3641634e-38 292 253
-0.035505001 0.75 -0.017095 1.3549437e-38 293 253
-0.034372345 0.75400001 -0.017186172 1.3549437e-38 294 253
-0.033050332 0.75400001 -0.017186172 1.3549437e-38 295 253
-0.03172832 0.75400001 -0.017186172 1.3365049e-38 296 253
-0.030406307 0.75400001 -0.017186172 1.3365049e-38 297 253
-0.029084291 0.75400001 -0.017186172 1.327357e-38 298 253
-0.027762281 0.75400001 -0.017186172 1.327357e-38 299 253
-0.026440267 0.75400001 -0.017186172 1.3271769e-38 300 253
-0.025118252 0.75400001 -0.017186172 1.3087738e-38 301 253
-0.02379624 0.75400001 -0.017186172 1.3272125e-38 302 253
-0.022474226 0.75400001 -0.017186172 1.3364321e-38 303 253
-0.021152213 0.75400001 -0.017186172 1.3456519e-38 304 253
-0.019830201 0.75400001 -0.017186172 1.3548715e-38 305 253
-0.018459093 0.75199997 -0.017140586 1.3548715e-38 306 253
-0.017140586 0.75199997 -0.017140586 1.364091e-38 307 253
-0.015822079 0.75199997 -0.017140586 1.3640908e-38 308 253
-0.014503572 0.75199997 -0.017140586 1.3640908e-38 309 253
-0.013185065 0.75199997 -0.017140586 1.3641264e-38 310 253
-0.011866559 0.75199997 -0.017140586 1.3641264e-38 311 253
-0.010548052 0.75199997 -0.017140586 1.3917129e-38 312 253
-0.0092295464 0.75199997 -0.017140586 1.3917129e-38 313 253
-0.0079110395 0.75199997 -0.017140586 1.3733814e-38 314 253
-0.0065925326 0.75199997 -0.017140586 1.3917845e-38 315 253
-0.0052740262 0.75199997 -0.017140586 1.3917123e-38 316 253
-0.0039555198 0.75199997 -0.017140586 1.3917123e-38 317 253
-0.0026370131 0.75199997 -0.017140586 1.4100794e-38 318 253
-0.0013185065 0.75199997 -0.017140586 1.419299e-38 319 253
0 0.75 -0.017095 1.4192634e-38 320 253
0.001315 0.75 -0.017095 1.4192634e-38 321 253
0.00263 0.75 -0.017095 1.4192634e-38 322 253
0.0039397399 0.74900001 -0.017072206 1.4192634e-38 323 253
0.0052529867 0.74900001 -0.017072206 1.4101873e-38 324 253
0.0065486995 0.74699998 -0.017026618 1.4009678e-38 325 253
0.0078584393 0.74699998 -0.017026618 1.4285183e-38 326 253
0.0091681797 0.74699998 -0.017026618 1.4285183e-38 327 253
0.010477919 0.74699998 -0.017026618 1.4285183e-38 328 253
0.011787659 0.74699998 -0.017026618 1.4285183e-38 329 253
0.013097399 0.74699998 -0.017026618 1.4561049e-38 330 253
0.014387853 0.74599999 -0.017003827 1.4653245e-38 331 253
0.015695838 0.74599999 -0.017003827 1.4561049e-38 332 253
0.017003827 0.74599999 -0.017003827 1.4653245e-38 333 253
0.018311813 0.74599999 -0.017003827 1.4562128e-38 334 253
0.019567199 0.74400002 -0.016958239 1.4746161e-38 335 253
0.020815572 0.74199998 -0.016912652 1.4655041e-38 336 253
0.02208674 0.741 -0.016889861 1.4747596e-38 337 253
0.023385961 0.741 -0.016889861 1.4747593e-38 338 253
0.024685178 0.741 -0.016889861 1.4747593e-38 339 253
0.025984399 0.741 -0.016889861 1.4747946e-38 340 253
0.027209979 0.73900002 -0.016844273 1.4747946e-38 341 253
0.028505694 0.73900002 -0.016844273 1.4931258e-38 342 253
0.029801406 0.73900002 -0.016844273 1.5023454e-38 343 253
0.03109712 0.73900002 -0.016844273 1.5298246e-38 344 253
0.032392833 0.73900002 -0.016844273 1.5298246e-38 345 253
0.033642959 0.73799998 -0.016821479 1.5023454e-38 346 253
0.034842238 0.736 -0.016775893 1.5023454e-38 347 253
0.036132693 0.736 -0.016775893 1.5023454e-38 348 253
0.037321456 0.73400003 -0.016730307 1.5023454e-38 349 253
0.038608398 0.73400003 -0.016730307 1.5390441e-38 350 253
0.039840993 0.73299998 -0.016707512 1.5390441e-38 351 253
0.041126184 0.73299998 -0.016707512 1.557411e-38 352 253
0.042295661 0.73100001 -0.016661927 1.5666305e-38 353 253
0.043577347 0.73100001 -0.016661927 1.5391145e-38 354 253
0.044797666 0.73000002 -0.016639132 1.5298949e-38 355 253
0.045951359 0.72799999 -0.016593546 1.5208549e-38 356 253
0.047227785 0.72799999 -0.016593546 1.5577331e-38 357 253
0.048437584 0.727 -0.016570752 1.5944316e-38 358 253
0.049712259 0.727 -0.016570752 1.6405293e-38 359 253
0.050846666 0.72500002 -0.016525166 1.6957745e-38 360 253
0.051974058 0.72299999 -0.01647958 1.7510918e-38 361 253
0.053241719 0.72299999 -0.01647958 1.7968654e-38 362 253
0.054433983 0.722 -0.016456785 1.8061208e-38 363 253
0.055699892 0.722 -0.016456785 1.7970082e-38 364 253
0.056965802 0.722 -0.016456785 1.8062278e-38 365 253
0.058070403 0.72000003 -0.0164112 1.8154473e-38 366 253
0.059332799 0.72000003 -0.0164112 1.8062278e-38 367 253
0.060763516 0.722 -0.016456785 1.8062996e-38 368 253
0.062029421 0.722 -0.016456785 1.8062996e-38 369 253
0.06312 0.72000003 -0.0164112 1.8154473e-38 370 253
0.064114138 0.71700001 -0.016342819 1.8154473e-38 371 253
0.065371275 0.71700001 -0.016342819 1.8337783e-38 372 253
0.066628419 0.71700001 -0.016342819 1.8430337e-38 373 253
0.067885563 0.71700001 -0.016342819 1.8247019e-38 374 253
0.069142699 0.71700001 -0.016342819 1.8247019e-38 375 253
0.070596211 0.71899998 -0.016388407 1.8247019e-38 376 253
0.071557038 0.71600002 -0.016320027 1.8154824e-38 377 253
0.072812423 0.71600002 -0.016320027 1.8062631e-38 378 253
0.074378148 0.71899998 -0.016388407 1.7970076e-38 379 253
0.075638793 0.71899998 -0.016388407 1.7693868e-38 380 253
0.075722955 0.708 -0.01613768 1.7786063e-38 381 253
0.076964319 0.708 -0.01613768 1.7234001e-38 382 253
0.078537062 0.71100003 -0.01620606 1.7141805e-38 383 253
0.079783678 0.71100003 -0.01620606 1.6591563e-38 384 253
-0.07413093 0.755 -0.018532733 1.6129855e-38 264 254
-0.07280717 0.755 -0.018532733 1.6129855e-38 265 254
-0.071388714 0.75400001 -0.018508185 1.6866307e-38 266 254
-0.070066705 0.75400001 -0.018508185 1.6958862e-38 267 254
-0.068744689 0.75400001 -0.018508185 1.6866307e-38 268 254
-0.067065001 0.75 -0.018409999 1.6774112e-38 269 254
-0.065662332 0.74900001 -0.018385453 1.6406051e-38 270 254
-0.064349085 0.74900001 -0.018385453 1.6313855e-38 271 254
-0.063035838 0.74900001 -0.018385453 1.6221291e-38 272 254
-0.061557774 0.74699998 -0.018336359 1.6036898e-38 273 254
-0.060248036 0.74699998 -0.018336359 1.5852511e-38 274 254
-0.058938295 0.74699998 -0.018336359 1.5852511e-38 275 254
-0.057628557 0.74699998 -0.018336359 1.5668133e-38 276 254
-0.056318816 0.74699998 -0.018336359 1.529971e-38 277 254
-0.055156358 0.74900001 -0.018385453 1.465506e-38 278 254
-0.053843111 0.74900001 -0.018385453 1.4378833e-38 279 254
-0.052529868 0.74900001 -0.018385453 1.3826022e-38 280 254
-0.051216617 0.74900001 -0.018385453 1.3826022e-38 281 254
-0.04990337 0.74900001 -0.018385453 1.3458318e-38 282 254
-0.048590127 0.74900001 -0.018385453 1.3366121e-38 283 254
-0.047276881 0.74900001 -0.018385453 1.3366119e-38 284 254
-0.046024997 0.75 -0.018409999 1.3366119e-38 285 254
-0.044709999 0.75 -0.018409999 1.3366121e-38 286 254
-0.043394998 0.75 -0.018409999 1.3458318e-38 287 254
-0.04208 0.75 -0.018409999 1.3457965e-38 288 254
-0.040764999 0.75 -0.018409999 1.3457965e-38 289 254
-0.039449997 0.75 -0.018409999 1.3366491e-38 290 254
-0.038135 0.75 -0.018409999 1.3366491e-38 291 254
-0.036819998 0.75 -0.018409999 1.327322e-38 292 254
-0.035505001 0.75 -0.018409999 1.3181024e-38 293 254
-0.034372345 0.75400001 -0.018508185 1.3179949e-38 294 254
-0.033050332 0.75400001 -0.018508185 1.3179949e-38 295 254
-0.03172832 0.75400001 -0.018508185 1.2904794e-38 296 254
-0.030406307 0.75400001 -0.018508185 1.2627847e-38 297 254
-0.029084291 0.75400001 -0.018508185 1.2810784e-38 298 254
-0.027762281 0.75400001 -0.018508185 1.2810784e-38 299 254
-0.026440267 0.75400001 -0.018508185 1.2718583e-38 300 254
-0.025118252 0.75400001 -0.018508185 1.253419e-38 301 254
-0.02379624 0.75400001 -0.018508185 1.235269e-38 302 254
-0.022474226 0.75400001 -0.018508185 1.2721472e-38 303 254
-0.021152213 0.75400001 -0.018508185 1.2904797e-38 304 254
-0.019830201 0.75400001 -0.018508185 1.3088828e-38 305 254
-0.018459093 0.75199997 -0.018459093 1.3180658e-38 306 254
-0.017140586 0.75199997 -0.018459093 1.3365049e-38 307 254
-0.015822079 0.75199997 -0.018459093 1.3365403e-38 308 254
-0.014503572 0.75199997 -0.018459093 1.3365403e-38 309 254
-0.013185065 0.75199997 -0.018459093 1.3366119e-38 310 254
-0.011866559 0.75199997 -0.018459093 1.3366119e-38 311 254
-0.010548052 0.75199997 -0.018459093 1.3549787e-38 312 254
-0.0092295464 0.75199997 -0.018459093 1.3365756e-38 313 254
-0.0079110395 0.75199997 -0.018459093 1.3549784e-38 314 254
-0.0065925326 0.75199997 -0.018459093 1.3549784e-38 315 254
-0.0052740262 0.75199997 -0.018459093 1.3641261e-38 316 254
-0.0039555198 0.75199997 -0.018459093 1.3641261e-38 317 254
-0.0026370131 0.75199997 -0.018459093 1.3733458e-38 318 254
-0.0013185065 0.75199997 -0.018459093 1.3733458e-38 319 254
0 0.75 -0.018409999 1.3733461e-38 320 254
0.001315 0.75 -0.018409999 1.3917492e-38 321 254
0.00263 0.75 -0.018409999 1.3916773e-38 322 254
0.0039397399 0.74900001 -0.018385453 1.4008969e-38 323 254
0.0052529867 0.74900001 -0.018385453 1.3917492e-38 324 254
0.0065662335 0.74900001 -0.018385453 1.3733461e-38 325 254
0.0078584393 0.74699998 -0.018336359 1.364091e-38 326 254
0.0091681797 0.74699998 -0.018336359 1.364091e-38 327 254
0.010477919 0.74699998 -0.018336359 1.3824226e-38 328 254
0.011787659 0.74699998 -0.018336359 1.3824226e-38 329 254
0.013097399 0.74699998 -0.018336359 1.373311e-38 330 254
0.014387853 0.74599999 -0.018311813 1.3917141e-38 331 254
0.015695838 0.74599999 -0.018311813 1.3917139e-38 332 254
0.017003827 0.74599999 -0.018311813 1.4009693e-38 333 254
0.01826272 0.74400002 -0.01826272 1.4377752e-38 334 254
0.019567199 0.74400002 -0.01826272 1.4562145e-38 335 254
0.020815572 0.74199998 -0.018213626 1.4379546e-38 336 254
0.02208674 0.741 -0.018189078 1.4379546e-38 337 254
0.023385961 0.741 -0.018189078 1.4563214e-38 338 254
0.024685178 0.741 -0.018189078 1.4563214e-38 339 254
0.025984399 0.741 -0.018189078 1.4563567e-38 340 254
0.027209979 0.73900002 -0.018139986 1.4655763e-38 341 254
0.028505694 0.73900002 -0.018139986 1.474724e-38 342 254
0.029801406 0.73900002 -0.018139986 1.474724e-38 343 254
0.031055039 0.73799998 -0.018115439 1.5022748e-38 344 254
0.032348998 0.73799998 -0.018115439 1.4930552e-38 345 254
0.033551786 0.736 -0.018066347 1.5023101e-38 346 254
0.034842238 0.736 -0.018066347 1.5023101e-38 347 254
0.036034506 0.73400003 -0.018017253 1.5023457e-38 348 254
0.037321456 0.73400003 -0.018017253 1.5023457e-38 349 254
0.038555797 0.73299998 -0.017992707 1.5115652e-38 350 254
0.039840993 0.73299998 -0.017992707 1.5115652e-38 351 254
0.041013971 0.73100001 -0.017943613 1.5115296e-38 352 254
0.042295661 0.73100001 -0.017943613 1.5115296e-38 353 254
0.043517731 0.73000002 -0.017919067 1.5115299e-38 354 254
0.044674929 0.72799999 -0.017869972 1.5207495e-38 355 254
0.045951359 0.72799999 -0.017869972 1.5208217e-38 356 254
0.047162913 0.727 -0.017845426 1.5208217e-38 357 254
0.048437584 0.727 -0.017845426 1.5392235e-38 358 254
0.0495755 0.72500002 -0.017796334 1.5576628e-38 359 254
0.050846666 0.72500002 -0.017796334 1.5944321e-38 360 254
0.051974058 0.72299999 -0.017747238 1.6497136e-38 361 254
0.053241719 0.72299999 -0.017747238 1.6682603e-38 362 254
0.054433983 0.722 -0.017722692 1.6774798e-38 363 254
0.055699892 0.722 -0.017722692 1.7326171e-38 364 254
0.056808002 0.72000003 -0.017673599 1.7510921e-38 365 254
0.058070403 0.72000003 -0.017673599 1.7786426e-38 366 254
0.059332799 0.72000003 -0.017673599 1.7694231e-38 367 254
0.060511041 0.71899998 -0.017649053 1.7787135e-38 368 254
0.061771683 0.71899998 -0.017649053 1.7787135e-38 369 254
0.062769331 0.71600002 -0.017575413 1.8062643e-38 370 254
0.064024724 0.71600002 -0.017575413 1.8062643e-38 371 254
0.06528011 0.71600002 -0.017575413 1.8337788e-38 372 254
0.066628419 0.71700001 -0.017599959 1.8429984e-38 373 254
0.067885563 0.71700001 -0.017599959 1.8429981e-38 374 254
0.069046266 0.71600002 -0.017575413 1.8429981e-38 375 254
0.070301652 0.71600002 -0.017575413 1.8338139e-38 376 254
0.071557038 0.71600002 -0.017575413 1.8338139e-38 377 254
0.072812423 0.71600002 -0.017575413 1.8338139e-38 378 254
0.073860914 0.71399999 -0.017526319 1.8245943e-38 379 254
0.075007595 0.713 -0.017501773 1.8245224e-38 380 254
0.075722955 0.708 -0.017379038 1.8245224e-38 381 254
0.076964319 0.708 -0.017379038 1.7693499e-38 382 254
0.0784266 0.70999998 -0.017428132 1.7601302e-38 383 254
0.079671465 0.70999998 -0.017428132 1.6681549e-38 384 254
0.08091633 0.70999998 -0.017428132 1.6681549e-38 385 254
-0.074032739 0.75400001 -0.019830201 1.6314238e-38 264 255
-0.07271073 0.75400001 -0.019830201 1.6498269e-38 265 255
-0.071388714 0.75400001 -0.019830201 1.6773391e-38 266 255
-0.069880851 0.75199997 -0.0197776 1.6681196e-38 267 255
-0.068288825 0.74900001 -0.0196987 1.6497158e-38 268 255
-0.066975579 0.74900001 -0.0196987 1.6497158e-38 269 255
-0.065662332 0.74900001 -0.0196987 1.6129098e-38 270 255
-0.06417726 0.74699998 -0.019646099 1.6036901e-38 271 255
-0.062867515 0.74699998 -0.019646099 1.5852511e-38 272 255
-0.061557774 0.74699998 -0.019646099 1.5760316e-38 273 255
-0.060248036 0.74699998 -0.019646099 1.5668117e-38 274 255
-0.058938295 0.74699998 -0.019646099 1.5575921e-38 275 255
-0.057628557 0.74699998 -0.019646099 1.4840157e-38 276 255
-0.056318816 0.74699998 -0.019646099 1.437918e-38 277 255
-0.055009075 0.74699998 -0.019646099 1.3826728e-38 278 255
-0.053699337 0.74699998 -0.019646099 1.3642337e-38 279 255
-0.052389596 0.74699998 -0.019646099 1.3366475e-38 280 255
-0.051216617 0.74900001 -0.0196987 1.3458672e-38 281 255
-0.04990337 0.74900001 -0.0196987 1.3641631e-38 282 255
-0.048590127 0.74900001 -0.0196987 1.3641631e-38 283 255
-0.047276881 0.74900001 -0.0196987 1.3182453e-38 284 255
-0.046024997 0.75 -0.019724999 1.3366486e-38 285 255
-0.044709999 0.75 -0.019724999 1.3365766e-38 286 255
-0.043394998 0.75 -0.019724999 1.3365766e-38 287 255
-0.04208 0.75 -0.019724999 1.3549081e-38 288 255
-0.040764999 0.75 -0.019724999 1.3549081e-38 289 255
-0.039449997 0.75 -0.019724999 1.3273217e-38 290 255
-0.038236689 0.75199997 -0.0197776 1.3181021e-38 291 255
-0.036918186 0.75199997 -0.0197776 1.2995911e-38 292 255
-0.035599679 0.75199997 -0.0197776 1.2811518e-38 293 255
-0.034281172 0.75199997 -0.0197776 1.2810075e-38 294 255
-0.033050332 0.75400001 -0.019830201 1.2625684e-38 295 255
-0.03172832 0.75400001 -0.019830201 1.2533471e-38 296 255
-0.030406307 0.75400001 -0.019830201 1.1518961e-38 297 255
-0.029084291 0.75400001 -0.019830201 1.1332777e-38 298 255
-0.027762281 0.75400001 -0.019830201 1.1793755e-38 299 255
-0.026440267 0.75400001 -0.019830201 1.151789e-38 300 255
-0.025118252 0.75400001 -0.019830201 1.1425694e-38 301 255
-0.023827799 0.755 -0.0198565 1.179879e-38 302 255
-0.022504034 0.755 -0.0198565 1.244416e-38 303 255
-0.021180267 0.755 -0.0198565 1.2995544e-38 304 255
-0.0198565 0.755 -0.0198565 1.3271772e-38 305 255
-0.018508185 0.75400001 -0.019830201 1.3271769e-38 306 255
-0.017186172 0.75400001 -0.019830201 1.3364324e-38 307 255
-0.01586416 0.75400001 -0.019830201 1.3364674e-38 308 255
-0.014542146 0.75400001 -0.019830201 1.3364674e-38 309 255
-0.013220133 0.75400001 -0.019830201 1.3181356e-38 310 255
-0.011866559 0.75199997 -0.0197776 1.3181356e-38 311 255
-0.010548052 0.75199997 -0.0197776 1.3456867e-38 312 255
-0.0092295464 0.75199997 -0.0197776 1.3456867e-38 313 255
-0.0079110395 0.75199997 -0.0197776 1.3456867e-38 314 255
-0.0065925326 0.75199997 -0.0197776 1.3549421e-38 315 255
-0.0052740262 0.75199997 -0.0197776 1.3549421e-38 316 255
-0.0039555198 0.75199997 -0.0197776 1.3549421e-38 317 255
-0.0026370131 0.75199997 -0.0197776 1.3732377e-38 318 255
-0.0013185065 0.75199997 -0.0197776 1.3824573e-38 319 255
0 0.75 -0.019724999 1.3824573e-38 320 255
0.001315 0.75 -0.019724999 1.3824573e-38 321 255
0.00263 0.75 -0.019724999 1.3641261e-38 322 255
0.0039397399 0.74900001 -0.0196987 1.3733458e-38 323 255
0.0052529867 0.74900001 -0.0196987 1.3824573e-38 324 255
0.0065662335 0.74900001 -0.0196987 1.3732377e-38 325 255
0.0078584393 0.74699998 -0.019646099 1.3639829e-38 326 255
0.0091681797 0.74699998 -0.019646099 1.3455798e-38 327 255
0.010477919 0.74699998 -0.019646099 1.3639113e-38 328 255
0.011787659 0.74699998 -0.019646099 1.3546917e-38 329 255
0.013097399 0.74699998 -0.019646099 1.3270686e-38 330 255
0.014407139 0.74699998 -0.019646099 1.3546914e-38 331 255
0.015695838 0.74599999 -0.019619798 1.3731659e-38 332 255
0.017003827 0.74599999 -0.019619798 1.3823854e-38 333 255
0.01826272 0.74400002 -0.019567199 1.4192271e-38 334 255
0.019567199 0.74400002 -0.019567199 1.4468498e-38 335 255
0.020815572 0.74199998 -0.0195146 1.4285904e-38 336 255
0.02208674 0.741 -0.019488299 1.43781e-38 337 255
0.023385961 0.741 -0.019488299 1.4469933e-38 338 255
0.024685178 0.741 -0.019488299 1.4562128e-38 339 255
0.025984399 0.741 -0.019488299 1.4470652e-38 340 255
0.027209979 0.73900002 -0.0194357 1.4562849e-38 341 255
0.028505694 0.73900002 -0.0194357 1.4746161e-38 342 255
0.029801406 0.73900002 -0.0194357 1.4746161e-38 343 255
0.031055039 0.73799998 -0.019409399 1.4929833e-38 344 255
0.032348998 0.73799998 -0.019409399 1.5113864e-38 345 255
0.033551786 0.736 -0.019356798 1.511422e-38 346 255
0.034842238 0.736 -0.019356798 1.5206416e-38 347 255
0.036034506 0.73400003 -0.019304199 1.5023457e-38 348 255
0.037321456 0.73400003 -0.019304199 1.5023457e-38 349 255
0.038555797 0.73299998 -0.019277899 1.511565e-38 350 255
0.039840993 0.73299998 -0.019277899 1.5023454e-38 351 255
0.041013971 0.73100001 -0.019225299 1.511565e-38 352 255
0.042295661 0.73100001 -0.019225299 1.511565e-38 353 255
0.043517731 0.73000002 -0.019199001 1.511565e-38 354 255
0.044674929 0.72799999 -0.0191464 1.511565e-38 355 255
0.045888241 0.727 -0.019120099 1.5298962e-38 356 255
0.047162913 0.727 -0.019120099 1.5206766e-38 357 255
0.048304334 0.72500002 -0.0190675 1.5298952e-38 358 255
0.0495755 0.72500002 -0.0190675 1.5114202e-38 359 255
0.050706398 0.72299999 -0.019014901 1.5115271e-38 360 255
0.051902171 0.722 -0.0189886 1.5392217e-38 361 255
0.053168077 0.722 -0.0189886 1.5576975e-38 362 255
0.054433983 0.722 -0.0189886 1.6037952e-38 363 255
0.055699892 0.722 -0.0189886 1.6865196e-38 364 255
0.056808002 0.72000003 -0.018935999 1.7233977e-38 365 255
0.058070403 0.72000003 -0.018935999 1.7418001e-38 366 255
0.059250388 0.71899998 -0.018909698 1.7418001e-38 367 255
0.060342718 0.71700001 -0.018857099 1.7693862e-38 368 255
0.061513945 0.71600002 -0.0188308 1.7693862e-38 369 255
0.062769331 0.71600002 -0.0188308 1.7786414e-38 370 255
0.064024724 0.71600002 -0.0188308 1.7786414e-38 371 255
0.06528011 0.71600002 -0.0188308 1.824559e-38 372 255
0.066535495 0.71600002 -0.0188308 1.824559e-38 373 255
0.067790881 0.71600002 -0.0188308 1.8245587e-38 374 255
0.069046266 0.71600002 -0.0188308 1.8245587e-38 375 255
0.070105277 0.71399999 -0.018778199 1.8245587e-38 376 255
0.071357153 0.71399999 -0.018778199 1.8245587e-38 377 255
0.072609037 0.71399999 -0.018778199 1.8154473e-38 378 255
0.07375747 0.713 -0.018751899 1.8154473e-38 379 255
0.075007595 0.713 -0.018751899 1.8062278e-38 380 255
0.075936861 0.70999998 -0.018672999 1.8062278e-38 381 255
0.077181734 0.70999998 -0.018672999 1.7969363e-38 382 255
0.0784266 0.70999998 -0.018672999 1.7876809e-38 383 255
0.079671465 0.70999998 -0.018672999 1.7418007e-38 384 255
0.08091633 0.70999998 -0.018672999 1.7510202e-38 385 255
0.082161188 0.70999998 -0.018672999 1.6404634e-38 386 255
-0.074954994 0.75 -0.02104 1.530444e-38 263 256
-0.073639996 0.75 -0.02104 1.64979e-38 264 256
-0.072324999 0.75 -0.02104 1.6405703e-38 265 256
-0.071010001 0.75 -0.02104 1.6312773e-38 266 256
-0.069602072 0.74900001 -0.021011947 1.6035826e-38 267 256
-0.068288825 0.74900001 -0.021011947 1.5944337e-38 268 256
-0.066975579 0.74900001 -0.021011947 1.6036532e-38 269 256
-0.065486997 0.74699998 -0.020955838 1.5668836e-38 270 256
-0.06417726 0.74699998 -0.020955838 1.5484805e-38 271 256
-0.062867515 0.74699998 -0.020955838 1.5392259e-38 272 256
-0.061557774 0.74699998 -0.020955838 1.5300063e-38 273 256
-0.060248036 0.74699998 -0.020955838 1.5115665e-38 274 256
-0.058938295 0.74699998 -0.020955838 1.4655047e-38 275 256
-0.057628557 0.74699998 -0.020955838 1.4011473e-38 276 256
-0.056318816 0.74699998 -0.020955838 1.3827081e-38 277 256
-0.055009075 0.74699998 -0.020955838 1.355122e-38 278 256
-0.053699337 0.74699998 -0.020955838 1.3366469e-38 279 256
-0.052389596 0.74699998 -0.020955838 1.3182804e-38 280 256
-0.051079858 0.74699998 -0.020955838 1.3182804e-38 281 256
-0.04990337 0.74900001 -0.021011947 1.3366121e-38 282 256
-0.048590127 0.74900001 -0.021011947 1.3273926e-38 283 256
-0.047276881 0.74900001 -0.021011947 1.309026e-38 284 256
-0.045963634 0.74900001 -0.021011947 1.309026e-38 285 256
-0.044709999 0.75 -0.02104 1.3273217e-38 286 256
-0.043394998 0.75 -0.02104 1.3273217e-38 287 256
-0.04208 0.75 -0.02104 1.3181024e-38 288 256
-0.040764999 0.75 -0.02104 1.3181024e-38 289 256
-0.039449997 0.75 -0.02104 1.3088107e-38 290 256
-0.038236689 0.75199997 -0.021096105 1.2903715e-38 291 256
-0.036918186 0.75199997 -0.021096105 1.2623534e-38 292 256
-0.035599679 0.75199997 -0.021096105 1.2623534e-38 293 256
-0.034281172 0.75199997 -0.021096105 1.2072876e-38 294 256
-0.033050332 0.75400001 -0.021152213 1.2072876e-38 295 256
-0.03172832 0.75400001 -0.021152213 1.2163627e-38 296 256
-0.030406307 0.75400001 -0.021152213 1.1887398e-38 297 256
-0.029084291 0.75400001 -0.021152213 1.1887396e-38 298 256
-0.027762281 0.75400001 -0.021152213 1.17952e-38 299 256
-0.026440267 0.75400001 -0.021152213 1.1887752e-38 300 256
-0.025151566 0.755 -0.021180267 1.1979947e-38 301 256
-0.023827799 0.755 -0.021180267 1.1982465e-38 302 256
-0.022504034 0.755 -0.021180267 1.2443443e-38 303 256
-0.021180267 0.755 -0.021180267 1.2536358e-38 304 256
-0.0198565 0.755 -0.021180267 1.2720749e-38 305 256
-0.018508185 0.75400001 -0.021152213 1.2904064e-38 306 256
-0.017186172 0.75400001 -0.021152213 1.2996261e-38 307 256
-0.01586416 0.75400001 -0.021152213 1.2996259e-38 308 256
-0.014542146 0.75400001 -0.021152213 1.2996259e-38 309 256
-0.013220133 0.75400001 -0.021152213 1.2813302e-38 310 256
-0.011866559 0.75199997 -0.021096105 1.2813302e-38 311 256
-0.010548052 0.75199997 -0.021096105 1.3089163e-38 312 256
-0.0092295464 0.75199997 -0.021096105 1.3089163e-38 313 256
-0.0079110395 0.75199997 -0.021096105 1.2905848e-38 314 256
-0.0066100666 0.75400001 -0.021152213 1.2905848e-38 315 256
-0.0052740262 0.75199997 -0.021096105 1.3181359e-38 316 256
-0.0039555198 0.75199997 -0.021096105 1.3273554e-38 317 256
-0.0026370131 0.75199997 -0.021096105 1.3273201e-38 318 256
-0.0013185065 0.75199997 -0.021096105 1.3273201e-38 319 256
0 0.75199997 -0.021096105 1.3639829e-38 320 256
0.0013185065 0.75199997 -0.021096105 1.3639829e-38 321 256
0.0026370131 0.75199997 -0.021096105 1.3456516e-38 322 256
0.0039555198 0.75199997 -0.021096105 1.3548712e-38 323 256
0.0052529867 0.74900001 -0.021011947 1.3456872e-38 324 256
0.0065662335 0.74900001 -0.021011947 1.3272122e-38 325 256
0.0078794798 0.74900001 -0.021011947 1.3455798e-38 326 256
0.0091681797 0.74699998 -0.020955838 1.3271406e-38 327 256
0.010477919 0.74699998 -0.020955838 1.3546917e-38 328 256
0.011787659 0.74699998 -0.020955838 1.327033e-38 329 256
0.013097399 0.74699998 -0.020955838 1.336145e-38 330 256
0.014407139 0.74699998 -0.020955838 1.3269254e-38 331 256
0.015716879 0.74699998 -0.020955838 1.3177055e-38 332 256
0.017003827 0.74599999 -0.020927785 1.2993024e-38 333 256
0.018311813 0.74599999 -0.020927785 1.2902251e-38 334 256
0.019619798 0.74599999 -0.020927785 1.3086642e-38 335 256
0.02087168 0.74400002 -0.02087168 1.3454699e-38 336 256
0.022116546 0.74199998 -0.020815572 1.4007873e-38 337 256
0.023385961 0.741 -0.020787518 1.4284467e-38 338 256
0.024685178 0.741 -0.020787518 1.4468498e-38 339 256
0.025984399 0.741 -0.020787518 1.4285904e-38 340 256
0.027209979 0.73900002 -0.020731414 1.43781e-38 341 256
0.028505694 0.73900002 -0.020731414 1.4469933e-38 342 256
0.029801406 0.73900002 -0.020731414 1.4469933e-38 343 256
0.03109712 0.73900002 -0.020731414 1.4562128e-38 344 256
0.032348998 0.73799998 -0.020703359 1.4746161e-38 345 256
0.033551786 0.736 -0.020647252 1.4837638e-38 346 256
0.034842238 0.736 -0.020647252 1.4929833e-38 347 256
0.036034506 0.73400003 -0.020591147 1.4930908e-38 348 256
0.037321456 0.73400003 -0.020591147 1.4930908e-38 349 256
0.038555797 0.73299998 -0.020563092 1.5206766e-38 350 256
0.039840993 0.73299998 -0.020563092 1.5206766e-38 351 256
0.041013971 0.73100001 -0.020506985 1.5023454e-38 352 256
0.0422378 0.73000002 -0.020478934 1.5023454e-38 353 256
0.043517731 0.73000002 -0.020478934 1.5115652e-38 354 256
0.044674929 0.72799999 -0.020422826 1.5023457e-38 355 256
0.045888241 0.727 -0.020394772 1.5206413e-38 356 256
0.047162913 0.727 -0.020394772 1.5206413e-38 357 256
0.048304334 0.72500002 -0.020338668 1.5114568e-38 358 256
0.0495755 0.72500002 -0.020338668 1.483834e-38 359 256
0.050706398 0.72299999 -0.020282559 1.5114558e-38 360 256
0.051902171 0.722 -0.020254506 1.5114558e-38 361 256
0.053168077 0.722 -0.020254506 1.5115277e-38 362 256
0.054283202 0.72000003 -0.020198401 1.5391864e-38 363 256
0.055545598 0.72000003 -0.020198401 1.5852473e-38 364 256
0.056808002 0.72000003 -0.020198401 1.6036865e-38 365 256
0.057989739 0.71899998 -0.020170346 1.640529e-38 366 256
0.059085581 0.71700001 -0.020114239 1.6958464e-38 367 256
0.06025856 0.71600002 -0.020086186 1.7233974e-38 368 256
0.061513945 0.71600002 -0.020086186 1.7233974e-38 369 256
0.062593997 0.71399999 -0.020030079 1.7510553e-38 370 256
0.063845873 0.71399999 -0.020030079 1.7510553e-38 371 256
0.065097757 0.71399999 -0.020030079 1.7969007e-38 372 256
0.066535495 0.71600002 -0.020086186 1.7969007e-38 373 256
0.067601517 0.71399999 -0.020030079 1.7969007e-38 374 256
0.068853401 0.71399999 -0.020030079 1.7969007e-38 375 256
0.070105277 0.71399999 -0.020030079 1.787753e-38 376 256
0.071257219 0.713 -0.020002026 1.7969726e-38 377 256
0.072303966 0.71100003 -0.01994592 1.8061922e-38 378 256
0.073447131 0.70999998 -0.019917866 1.8061922e-38 379 256
0.074691996 0.70999998 -0.019917866 1.8061556e-38 380 256
0.075936861 0.70999998 -0.019917866 1.8061556e-38 381 256
0.077181734 0.70999998 -0.019917866 1.796936e-38 382 256
0.0784266 0.70999998 -0.019917866 1.796936e-38 383 256
0.079671465 0.70999998 -0.019917866 1.7602022e-38 384 256
0.08091633 0.70999998 -0.019917866 1.7602022e-38 385 256
0.082161188 0.70999998 -0.019917866 1.6681183e-38 386 256
0.083523542 0.71100003 -0.01994592 1.6681183e-38 387 256
0.084770165 0.71100003 -0.01994592 1.6316068e-38 388 256
-0.073639996 0.75 -0.022355 1.6313502e-38 264 257
-0.072324999 0.75 -0.022355 1.6037275e-38 265 257
-0.070915319 0.74900001 -0.022325192 1.5759962e-38 266 257
-0.069602072 0.74900001 -0.022325192 1.5575571e-38 267 257
-0.068288825 0.74900001 -0.022325192 1.530006e-38 268 257
-0.066796735 0.74699998 -0.022265578 1.5392256e-38 269 257
-0.065486997 0.74699998 -0.022265578 1.530006e-38 270 257
-0.06417726 0.74699998 -0.022265578 1.5207865e-38 271 257
-0.062867515 0.74699998 -0.022265578 1.5115668e-38 272 257
-0.061557774 0.74699998 -0.022265578 1.4839082e-38 273 257
-0.060248036 0.74699998 -0.022265578 1.4378827e-38 274 257
-0.058938295 0.74699998 -0.022265578 1.4010043e-38 275 257
-0.057628557 0.74699998 -0.022265578 1.3458318e-38 276 257
-0.056318816 0.74699998 -0.022265578 1.3458318e-38 277 257
-0.055009075 0.74699998 -0.022265578 1.3182809e-38 278 257
-0.053699337 0.74699998 -0.022265578 1.3182809e-38 279 257
-0.052389596 0.74699998 -0.022265578 1.2998778e-38 280 257
-0.051079858 0.74699998 -0.022265578 1.2998778e-38 281 257
-0.04990337 0.74900001 -0.022325192 1.3090258e-38 282 257
-0.048590127 0.74900001 -0.022325192 1.3090258e-38 283 257
-0.047276881 0.74900001 -0.022325192 1.3181377e-38 284 257
-0.045963634 0.74900001 -0.022325192 1.3181377e-38 285 257
-0.044709999 0.75 -0.022355 1.3181021e-38 286 257
-0.043394998 0.75 -0.022355 1.3181021e-38 287 257
-0.04208 0.75 -0.022355 1.2995911e-38 288 257
-0.040764999 0.75 -0.022355 1.2995911e-38 289 257
-0.039449997 0.75 -0.022355 1.2903345e-38 290 257
-0.038236689 0.75199997 -0.022414612 1.2718954e-38 291 257
-0.036918186 0.75199997 -0.022414612 1.2255456e-38 292 257
-0.035599679 0.75199997 -0.022414612 1.2347652e-38 293 257
-0.034281172 0.75199997 -0.022414612 1.1797002e-38 294 257
-0.033050332 0.75400001 -0.022474226 1.2073229e-38 295 257
-0.03172832 0.75400001 -0.022474226 1.1982468e-38 296 257
-0.030446632 0.755 -0.022504034 1.2258695e-38 297 257
-0.029122867 0.755 -0.022504034 1.2351595e-38 298 257
-0.027799098 0.755 -0.022504034 1.2351595e-38 299 257
-0.026475333 0.755 -0.022504034 1.2351228e-38 300 257
-0.025151566 0.755 -0.022504034 1.2351228e-38 301 257
-0.02389092 0.75700003 -0.022563647 1.2168636e-38 302 257
-0.022563647 0.75700003 -0.022563647 1.2444863e-38 303 257
-0.021236373 0.75700003 -0.022563647 1.2260844e-38 304 257
-0.019909101 0.75700003 -0.022563647 1.235304e-38 305 257
-0.018532733 0.755 -0.022504034 1.2536002e-38 306 257
-0.017208965 0.755 -0.022504034 1.2536002e-38 307 257
-0.015885198 0.755 -0.022504034 1.2536005e-38 308 257
-0.014542146 0.75400001 -0.022474226 1.2536005e-38 309 257
-0.013220133 0.75400001 -0.022474226 1.2352693e-38 310 257
-0.01189812 0.75400001 -0.022474226 1.2260497e-38 311 257
-0.010576107 0.75400001 -0.022474226 1.2445241e-38 312 257
-0.0092540924 0.75400001 -0.022474226 1.2445241e-38 313 257
-0.00793208 0.75400001 -0.022474226 1.2628907e-38 314 257
-0.0066100666 0.75400001 -0.022474226 1.2628907e-38 315 257
-0.0052880533 0.75400001 -0.022474226 1.2720749e-38 316 257
-0.00396604 0.75400001 -0.022474226 1.2812946e-38 317 257
-0.0026440267 0.75400001 -0.022474226 1.2904067e-38 318 257
-0.0013220133 0.75400001 -0.022474226 1.2996264e-38 319 257
0 0.75199997 -0.022414612 1.3087744e-38 320 257
0.0013185065 0.75199997 -0.022414612 1.3087744e-38 321 257
0.0026370131 0.75199997 -0.022414612 1.3087741e-38 322 257
0.0039555198 0.75199997 -0.022414612 1.3271772e-38 323 257
0.00526 0.75 -0.022355 1.3088094e-38 324 257
0.006575 0.75 -0.022355 1.2995897e-38 325 257
0.00789 0.75 -0.022355 1.3179206e-38 326 257
0.0091927266 0.74900001 -0.022325192 1.3179206e-38 327 257
0.010505973 0.74900001 -0.022325192 1.2995891e-38 328 257
0.01181922 0.74900001 -0.022325192 1.2995891e-38 329 257
0.013132467 0.74900001 -0.022325192 1.3086645e-38 330 257
0.014407139 0.74699998 -0.022265578 1.2994449e-38 331 257
0.015716879 0.74699998 -0.022265578 1.3084494e-38 332 257
0.017026618 0.74699998 -0.022265578 1.2992297e-38 333 257
0.018311813 0.74599999 -0.022235774 1.2623519e-38 334 257
0.019619798 0.74599999 -0.022235774 1.2715714e-38 335 257
0.02087168 0.74400002 -0.022176161 1.2901179e-38 336 257
0.022116546 0.74199998 -0.022116546 1.3362156e-38 337 257
0.023417519 0.74199998 -0.022116546 1.3732014e-38 338 257
0.024685178 0.741 -0.02208674 1.382421e-38 339 257
0.025984399 0.741 -0.02208674 1.4100794e-38 340 257
0.027209979 0.73900002 -0.022027127 1.419299e-38 341 257
0.028505694 0.73900002 -0.022027127 1.4377378e-38 342 257
0.029801406 0.73900002 -0.022027127 1.4377378e-38 343 257
0.03109712 0.73900002 -0.022027127 1.4285904e-38 344 257
0.032348998 0.73799998 -0.021997318 1.43781e-38 345 257
0.033551786 0.736 -0.021937706 1.4561775e-38 346 257
0.034842238 0.736 -0.021937706 1.4561775e-38 347 257
0.036034506 0.73400003 -0.021878093 1.4562495e-38 348 257
0.037321456 0.73400003 -0.021878093 1.4562495e-38 349 257
0.038555797 0.73299998 -0.021848286 1.4655041e-38 350 257
0.039732285 0.73100001 -0.021788673 1.4655041e-38 351 257
0.041013971 0.73100001 -0.021788673 1.4747593e-38 352 257
0.0422378 0.73000002 -0.021758866 1.4839789e-38 353 257
0.043517731 0.73000002 -0.021758866 1.4839791e-38 354 257
0.044674929 0.72799999 -0.021699252 1.4747596e-38 355 257
0.045888241 0.727 -0.021669446 1.4930908e-38 356 257
0.047033165 0.72500002 -0.021609833 1.4930908e-38 357 257
0.048304334 0.72500002 -0.021609833 1.4839063e-38 358 257
0.049438741 0.72299999 -0.021550218 1.4839063e-38 359 257
0.050706398 0.72299999 -0.021550218 1.4930539e-38 360 257
0.051902171 0.722 -0.021520413 1.4930539e-38 361 257
0.053168077 0.722 -0.021520413 1.483871e-38 362 257
0.054283202 0.72000003 -0.021460801 1.5023101e-38 363 257
0.055545598 0.72000003 -0.021460801 1.5207119e-38 364 257
0.056729097 0.71899998 -0.021430992 1.5207119e-38 365 257
0.057989739 0.71899998 -0.021430992 1.5392217e-38 366 257
0.059085581 0.71700001 -0.021371379 1.5945391e-38 367 257
0.06025856 0.71600002 -0.021341572 1.6405646e-38 368 257
0.061513945 0.71600002 -0.021341572 1.6590038e-38 369 257
0.062593997 0.71399999 -0.021281958 1.7141766e-38 370 257
0.063845873 0.71399999 -0.021281958 1.7233962e-38 371 257
0.065097757 0.71399999 -0.021281958 1.7416908e-38 372 257
0.066349633 0.71399999 -0.021281958 1.7509104e-38 373 257
0.067601517 0.71399999 -0.021281958 1.7692416e-38 374 257
0.068756968 0.713 -0.021252153 1.7784612e-38 375 257
0.069810718 0.71100003 -0.021192541 1.7600946e-38 376 257
0.071057342 0.71100003 -0.021192541 1.7877533e-38 377 257
0.072202265 0.70999998 -0.021162732 1.7786061e-38 378 257
0.073447131 0.70999998 -0.021162732 1.7786061e-38 379 257
0.074691996 0.70999998 -0.021162732 1.787753e-38 380 257
0.075722955 0.708 -0.021103119 1.787753e-38 381 257
0.076964319 0.708 -0.021103119 1.7877528e-38 382 257
0.0784266 0.70999998 -0.021162732 1.7693496e-38 383 257
0.079671465 0.70999998 -0.021162732 1.7418352e-38 384 257
0.08091633 0.70999998 -0.021162732 1.7418352e-38 385 257
0.082161188 0.70999998 -0.021162732 1.7233974e-38 386 257
0.083406061 0.70999998 -0.021162732 1.6957748e-38 387 257
0.084770165 0.71100003 -0.021192541 1.6312783e-38 388 257
0.086016782 0.71100003 -0.021192541 1.6865957e-38 389 257
-0.074855059 0.74900001 -0.02363844 1.5302625e-38 263 258
-0.073541813 0.74900001 -0.02363844 1.6036193e-38 264 258
-0.072228566 0.74900001 -0.02363844 1.5759965e-38 265 258
-0.070915319 0.74900001 -0.02363844 1.566777e-38 266 258
-0.069602072 0.74900001 -0.02363844 1.5390824e-38 267 258
-0.068106472 0.74699998 -0.023575317 1.5207147e-38 268 258
-0.066796735 0.74699998 -0.023575317 1.5207147e-38 269 258
-0.065486997 0.74699998 -0.023575317 1.5115668e-38 270 258
-0.06417726 0.74699998 -0.023575317 1.5023472e-38 271 258
-0.062867515 0.74699998 -0.023575317 1.4655044e-38 272 258
-0.06147537 0.74599999 -0.023543758 1.410187e-38 273 258
-0.06016738 0.74599999 -0.023543758 1.4192637e-38 274 258
-0.058938295 0.74699998 -0.023575317 1.4100441e-38 275 258
-0.057628557 0.74699998 -0.023575317 1.3549437e-38 276 258
-0.056318816 0.74699998 -0.023575317 1.3365047e-38 277 258
-0.054935437 0.74599999 -0.023543758 1.3090258e-38 278 258
-0.053627454 0.74599999 -0.023543758 1.3090258e-38 279 258
-0.052389596 0.74699998 -0.023575317 1.2997706e-38 280 258
-0.051079858 0.74699998 -0.023575317 1.2997706e-38 281 258
-0.04990337 0.74900001 -0.02363844 1.309026e-38 282 258
-0.048590127 0.74900001 -0.02363844 1.2997706e-38 283 258
-0.047276881 0.74900001 -0.02363844 1.3181374e-38 284 258
-0.045963634 0.74900001 -0.02363844 1.3181374e-38 285 258
-0.044709999 0.75 -0.023669999 1.3089179e-38 286 258
-0.043394998 0.75 -0.023669999 1.3089179e-38 287 258
-0.04208 0.75 -0.023669999 1.2996261e-38 288 258
-0.040764999 0.75 -0.023669999 1.2811869e-38 289 258
-0.039449997 0.75 -0.023669999 1.2627832e-38 290 258
-0.038236689 0.75199997 -0.023733119 1.2535636e-38 291 258
-0.036918186 0.75199997 -0.023733119 1.1892774e-38 292 258
-0.035599679 0.75199997 -0.023733119 1.1800219e-38 293 258
-0.034372345 0.75400001 -0.02379624 1.1616194e-38 294 258
-0.033050332 0.75400001 -0.02379624 1.170839e-38 295 258
-0.031770397 0.755 -0.023827799 1.1800944e-38 296 258
-0.030446632 0.755 -0.023827799 1.1985337e-38 297 258
-0.029122867 0.755 -0.023827799 1.2260126e-38 298 258
-0.027799098 0.755 -0.023827799 1.2260126e-38 299 258
-0.026475333 0.755 -0.023827799 1.2443794e-38 300 258
-0.025218192 0.75700003 -0.02389092 1.2351598e-38 301 258
-0.02389092 0.75700003 -0.02389092 1.207645e-38 302 258
-0.018581826 0.75700003 -0.02389092 1.2351242e-38 306 258
-0.017254554 0.75700003 -0.02389092 1.2351242e-38 307 258
-0.015927281 0.75700003 -0.02389092 1.207538e-38 308 258
-0.014600007 0.75700003 -0.02389092 1.207538e-38 309 258
-0.013272733 0.75700003 -0.02389092 1.2075383e-38 310 258
-0.011913899 0.755 -0.023827799 1.2075383e-38 311 258
-0.010590133 0.755 -0.023827799 1.2076456e-38 312 258
-0.0092663663 0.755 -0.023827799 1.2168652e-38 313 258
-0.0079425992 0.755 -0.023827799 1.2351242e-38 314 258
-0.0066188332 0.755 -0.023827799 1.2443438e-38 315 258
-0.0052950666 0.755 -0.023827799 1.2626753e-38 316 258
-0.0039712996 0.755 -0.023827799 1.2626753e-38 317 258
-0.0026475333 0.755 -0.023827799 1.2810428e-38 318 258
-0.0013220133 0.75400001 -0.02379624 1.2718233e-38 319 258
0 0.75400001 -0.02379624 1.2993743e-38 320 258
0.0013220133 0.75400001 -0.02379624 1.2993743e-38 321 258
0.0026440267 0.75400001 -0.02379624 1.2810428e-38 322 258
0.00396604 0.75400001 -0.02379624 1.2994459e-38 323 258
0.0052740262 0.75199997 -0.023733119 1.2810781e-38 324 258
0.0065925326 0.75199997 -0.023733119 1.2810781e-38 325 258
0.0079110395 0.75199997 -0.023733119 1.2995166e-38 326 258
0.0092295464 0.75199997 -0.023733119 1.2995166e-38 327 258
0.010548052 0.75199997 -0.023733119 1.3087714e-38 328 258
0.011835 0.75 -0.023669999 1.2995519e-38 329 258
0.01315 0.75 -0.023669999 1.3179194e-38 330 258
0.014445714 0.74900001 -0.02363844 1.3271389e-38 331 258
0.01575896 0.74900001 -0.02363844 1.2719655e-38 332 258
0.017026618 0.74699998 -0.023575317 1.281185e-38 333 258
0.018336359 0.74699998 -0.023575317 1.2994444e-38 334 258
0.019619798 0.74599999 -0.023543758 1.2902248e-38 335 258
0.020927785 0.74599999 -0.023543758 1.3178115e-38 336 258
0.022116546 0.74199998 -0.023417519 1.3362506e-38 337 258
0.023417519 0.74199998 -0.023417519 1.3547255e-38 338 258
0.024685178 0.741 -0.023385961 1.3823481e-38 339 258
0.025984399 0.741 -0.023385961 1.3824563e-38 340 258
0.027283618 0.741 -0.023385961 1.3824563e-38 341 258
0.028505694 0.73900002 -0.023322839 1.3916759e-38 342 258
0.029801406 0.73900002 -0.023322839 1.4192987e-38 343 258
0.03109712 0.73900002 -0.023322839 1.4192987e-38 344 258
0.032348998 0.73799998 -0.023291279 1.4285183e-38 345 258
0.033642959 0.73799998 -0.023291279 1.4468498e-38 346 258
0.034842238 0.736 -0.023228159 1.4560693e-38 347 258
0.036034506 0.73400003 -0.023165042 1.4377381e-38 348 258
0.037321456 0.73400003 -0.023165042 1.4469577e-38 349 258
0.038555797 0.73299998 -0.023133477 1.4837992e-38 350 258
0.039732285 0.73100001 -0.02307036 1.4837992e-38 351 258
0.041013971 0.73100001 -0.02307036 1.4838707e-38 352 258
0.0422378 0.73000002 -0.023038799 1.4838707e-38 353 258
0.043517731 0.73000002 -0.023038799 1.4930908e-38 354 258
0.044674929 0.72799999 -0.022975679 1.4838712e-38 355 258
0.045888241 0.727 -0.022944121 1.4838712e-38 356 258
0.047033165 0.72500002 -0.022880999 1.4838712e-38 357 258
0.048304334 0.72500002 -0.022880999 1.4838707e-38 358 258
0.049438741 0.72299999 -0.02281788 1.474651e-38 359 258
0.050636265 0.722 -0.022786319 1.474651e-38 360 258
0.051902171 0.722 -0.022786319 1.474651e-38 361 258
0.053168077 0.722 -0.022786319 1.4746513e-38 362 258
0.054283202 0.72000003 -0.022723202 1.4930905e-38 363 258
0.055545598 0.72000003 -0.022723202 1.5114571e-38 364 258
0.056729097 0.71899998 -0.022691639 1.5114571e-38 365 258
