# .PCD v.7 - Point Cloud Data file format
FIELDS x y z rgb imX imY
SIZE 4 4 4 4 4 4
TYPE F F F F F F
COUNT 1 1 1 1 1 1
WIDTH 843
HEIGHT 1
VIEWPOINT 0 0 0 1 0 0 0
POINTS 843
DATA ascii
-0.031011207 0.76899999 -0.0053932532 1.7880077e-38 297 244
-0.02966289 0.76899999 -0.0053932532 1.77886e-38 298 244
-0.028314579 0.76899999 -0.0053932532 1.760421e-38 299 244
-0.026966266 0.76899999 -0.0053932532 1.7328338e-38 300 244
-0.025551327 0.76700002 -0.0053792265 1.7144307e-38 301 244
-0.024206521 0.76700002 -0.0053792265 1.7419076e-38 302 244
-0.022861714 0.76700002 -0.0053792265 1.6773707e-38 303 244
-0.021516906 0.76700002 -0.0053792265 1.6401662e-38 304 244
-0.020145798 0.76599997 -0.0053722127 1.5664097e-38 305 244
-0.018802745 0.76599997 -0.0053722127 1.5112348e-38 306 244
-0.01736852 0.76200002 -0.0053441599 1.5112348e-38 307 244
-0.016011439 0.76099998 -0.0053371461 1.4563504e-38 308 244
-0.014677152 0.76099998 -0.0053371461 1.484045e-38 309 244
-0.013342866 0.76099998 -0.0053371461 1.5300372e-38 310 244
-0.012008579 0.76099998 -0.0053371461 1.576135e-38 311 244
-0.01064624 0.759 -0.0053231199 1.5670246e-38 312 244
-0.00931546 0.759 -0.0053231199 1.5670246e-38 313 244
-0.0079846792 0.759 -0.0053231199 1.6039388e-38 314 244
-0.0066363667 0.75700003 -0.0053090933 1.6315615e-38 315 244
-0.0053090933 0.75700003 -0.0053090933 1.6499643e-38 316 244
-0.0039818203 0.75700003 -0.0053090933 1.677587e-38 317 244
-0.0026545466 0.75700003 -0.0053090933 1.6684752e-38 318 244
-0.0013237667 0.755 -0.0052950666 1.6684752e-38 319 244
0 0.75400001 -0.0052880533 1.7143565e-38 320 244
0.0013220133 0.75400001 -0.0052880533 1.7327957e-38 321 244
0.0026440267 0.75400001 -0.0052880533 1.7052812e-38 322 244
0.00396604 0.75400001 -0.0052880533 1.7329397e-38 323 244
0.0052740262 0.75199997 -0.0052740262 1.696171e-38 324 244
0.0065925326 0.75199997 -0.0052740262 1.7330493e-38 325 244
0.00789 0.75 -0.00526 1.7974063e-38 326 244
0.0092049995 0.75 -0.00526 1.7697478e-38 327 244
0.010505973 0.74900001 -0.0052529867 1.8065537e-38 328 244
0.011787659 0.74699998 -0.0052389596 1.8157733e-38 329 244
0.013097399 0.74699998 -0.0052389596 1.8249932e-38 330 244
0.014387853 0.74599999 -0.0052319462 1.8433964e-38 331 244
0.015695838 0.74599999 -0.0052319462 1.8801307e-38 332 244
0.016958239 0.74400002 -0.0052179201 1.8893503e-38 333 244
0.01826272 0.74400002 -0.0052179201 1.8985701e-38 334 244
0.019567199 0.74400002 -0.0052179201 1.9077897e-38 335 244
0.020815572 0.74199998 -0.0052038929 1.8894221e-38 336 244
0.022116546 0.74199998 -0.0052038929 1.8986417e-38 337 244
0.023417519 0.74199998 -0.0052038929 1.907932e-38 338 244
0.024718491 0.74199998 -0.0052038929 1.907932e-38 339 244
0.026019465 0.74199998 -0.0052038929 1.9079674e-38 340 244
0.027320439 0.74199998 -0.0052038929 1.9079674e-38 341 244
0.028582839 0.741 -0.0051968796 1.9262986e-38 342 244
0.029882059 0.741 -0.0051968796 1.9262986e-38 343 244
0.03118128 0.741 -0.0051968796 1.9078948e-38 344 244
0.032392833 0.73900002 -0.0051828534 1.8986752e-38 345 244
0.033642959 0.73799998 -0.0051758396 1.8986752e-38 346 244
0.034842238 0.736 -0.005161813 1.8894556e-38 347 244
0.036132693 0.736 -0.005161813 1.8526853e-38 348 244
0.037321456 0.73400003 -0.0051477868 1.8342101e-38 349 244
0.038608398 0.73400003 -0.0051477868 1.806589e-38 350 244
0.039895348 0.73400003 -0.0051477868 1.806589e-38 351 244
0.041182294 0.73400003 -0.0051477868 1.7698229e-38 352 244
0.042469237 0.73400003 -0.0051477868 1.788226e-38 353 244
0.043756187 0.73400003 -0.0051477868 1.7423491e-38 354 244
0.045043133 0.73400003 -0.0051477868 1.7884468e-38 355 244
-0.042069476 0.77399999 -0.0067853997 1.6875018e-38 289 245
-0.040712398 0.77399999 -0.0067853997 1.6962121e-38 290 245
-0.039355319 0.77399999 -0.0067853997 1.6408947e-38 291 245
-0.037998237 0.77399999 -0.0067853997 1.7054642e-38 292 245
-0.036593821 0.773 -0.0067766332 1.7054642e-38 293 245
-0.03514732 0.77100003 -0.0067590997 1.7604566e-38 294 245
-0.033795502 0.77100003 -0.0067590997 1.751237e-38 295 245
-0.032359518 0.76899999 -0.0067415666 1.7512363e-38 296 245
-0.031011207 0.76899999 -0.0067415666 1.7327972e-38 297 245
-0.029585747 0.76700002 -0.006724033 1.6959915e-38 298 245
-0.02824094 0.76700002 -0.006724033 1.686772e-38 299 245
-0.026896132 0.76700002 -0.006724033 1.6775165e-38 300 245
-0.025551327 0.76700002 -0.006724033 1.6314546e-38 301 245
-0.024206521 0.76700002 -0.006724033 1.6037221e-38 302 245
-0.022831906 0.76599997 -0.0067152665 1.5207101e-38 303 245
-0.021488851 0.76599997 -0.0067152665 1.4375506e-38 304 245
-0.020145798 0.76599997 -0.0067152665 1.3084767e-38 305 245
-0.018753653 0.764 -0.006697733 1.2994005e-38 306 245
-0.017345725 0.76099998 -0.0066714329 1.2717781e-38 307 245
-0.016011439 0.76099998 -0.0066714329 1.2995458e-38 308 245
-0.014677152 0.76099998 -0.0066714329 1.3640828e-38 309 245
-0.0133078 0.759 -0.0066538998 1.4194041e-38 310 245
-0.01197702 0.759 -0.0066538998 1.4747213e-38 311 245
-0.01064624 0.759 -0.0066538998 1.4656113e-38 312 245
-0.00931546 0.759 -0.0066538998 1.4748309e-38 313 245
-0.0079846792 0.759 -0.0066538998 1.4933056e-38 314 245
-0.0066363667 0.75700003 -0.0066363667 1.530148e-38 315 245
-0.0053090933 0.75700003 -0.0066363667 1.5394029e-38 316 245
-0.0039712996 0.755 -0.0066188332 1.5486583e-38 317 245
-0.0026475333 0.755 -0.0066188332 1.5671325e-38 318 245
-0.0013220133 0.75400001 -0.0066100666 1.5947553e-38 319 245
0 0.75400001 -0.0066100666 1.6130498e-38 320 245
0.0013220133 0.75400001 -0.0066100666 1.6223054e-38 321 245
0.0026370131 0.75199997 -0.0065925326 1.6132656e-38 322 245
0.0039555198 0.75199997 -0.0065925326 1.6317047e-38 323 245
0.0052740262 0.75199997 -0.0065925326 1.6317413e-38 324 245
0.006575 0.75 -0.006575 1.6501806e-38 325 245
0.0078794798 0.74900001 -0.0065662335 1.7145023e-38 326 245
0.0091927266 0.74900001 -0.0065662335 1.7145023e-38 327 245
0.010477919 0.74699998 -0.0065486995 1.7329771e-38 328 245
0.011787659 0.74699998 -0.0065486995 1.7606357e-38 329 245
0.013079867 0.74599999 -0.0065399334 1.7973339e-38 330 245
0.014387853 0.74599999 -0.0065399334 1.8065893e-38 331 245
0.015695838 0.74599999 -0.0065399334 1.8526149e-38 332 245
0.016958239 0.74400002 -0.0065223998 1.8618345e-38 333 245
0.018213626 0.74199998 -0.0065048663 1.8526159e-38 334 245
0.0195146 0.74199998 -0.0065048663 1.8618714e-38 335 245
0.020787518 0.741 -0.0064960998 1.8618358e-38 336 245
0.02208674 0.741 -0.0064960998 1.8618358e-38 337 245
0.023385961 0.741 -0.0064960998 1.8711262e-38 338 245
0.024685178 0.741 -0.0064960998 1.8803458e-38 339 245
0.025984399 0.741 -0.0064960998 1.8711976e-38 340 245
0.027283618 0.741 -0.0064960998 1.8711976e-38 341 245
0.028582839 0.741 -0.0064960998 1.8803808e-38 342 245
0.029882059 0.741 -0.0064960998 1.8803808e-38 343 245
0.03109712 0.73900002 -0.0064785667 1.907895e-38 344 245
0.032348998 0.73799998 -0.0064697997 1.8986755e-38 345 245
0.033642959 0.73799998 -0.0064697997 1.8895626e-38 346 245
0.034842238 0.736 -0.0064522666 1.8895626e-38 347 245
0.036034506 0.73400003 -0.006434733 1.8803783e-38 348 245
0.037321456 0.73400003 -0.006434733 1.8619752e-38 349 245
0.038608398 0.73400003 -0.006434733 1.8710162e-38 350 245
0.039895348 0.73400003 -0.006434733 1.8617967e-38 351 245
0.041182294 0.73400003 -0.006434733 1.8341032e-38 352 245
0.042469237 0.73400003 -0.006434733 1.7787858e-38 353 245
0.043756187 0.73400003 -0.006434733 1.7143225e-38 354 245
0.044859033 0.73100001 -0.006408433 1.7143225e-38 355 245
-0.043370452 0.773 -0.0081319595 1.7055784e-38 288 246
-0.042015124 0.773 -0.0081319595 1.5765045e-38 289 246
-0.0406598 0.773 -0.0081319595 1.6775912e-38 290 246
-0.039304473 0.773 -0.0081319595 1.6960303e-38 291 246
-0.037949149 0.773 -0.0081319595 1.7236872e-38 292 246
-0.036593821 0.773 -0.0081319595 1.7052479e-38 293 246
-0.03514732 0.77100003 -0.0081109209 1.6776247e-38 294 246
-0.033707831 0.76899999 -0.0080898795 1.6591856e-38 295 246
-0.032359518 0.76899999 -0.0080898795 1.6591853e-38 296 246
-0.030930554 0.76700002 -0.00806884 1.6499656e-38 297 246
-0.029585747 0.76700002 -0.00806884 1.5946484e-38 298 246
-0.02824094 0.76700002 -0.00806884 1.5485864e-38 299 246
-0.026861066 0.76599997 -0.0080583189 1.539258e-38 300 246
-0.025518013 0.76599997 -0.0080583189 1.4563179e-38 301 246
-0.024174958 0.76599997 -0.0080583189 1.3918519e-38 302 246
-0.022831906 0.76599997 -0.0080583189 1.3549378e-38 303 246
-0.021432746 0.764 -0.0080372803 1.327244e-38 304 246
-0.020093199 0.764 -0.0080372803 1.327244e-38 305 246
-0.018680012 0.76099998 -0.0080057196 1.3823466e-38 306 246
-0.017345725 0.76099998 -0.0080057196 1.3731269e-38 307 246
-0.015969358 0.759 -0.0079846792 1.3916734e-38 308 246
-0.014638579 0.759 -0.0079846792 1.4193321e-38 309 246
-0.0133078 0.759 -0.0079846792 1.4470986e-38 310 246
-0.01197702 0.759 -0.0079846792 1.4747213e-38 311 246
-0.01064624 0.759 -0.0079846792 1.4747943e-38 312 246
-0.00931546 0.759 -0.0079846792 1.4840139e-38 313 246
-0.0079846792 0.759 -0.0079846792 1.4839786e-38 314 246
-0.0066363667 0.75700003 -0.0079636406 1.4839786e-38 315 246
-0.0052950666 0.755 -0.0079425992 1.4933053e-38 316 246
-0.0039712996 0.755 -0.0079425992 1.4840858e-38 317 246
-0.0026475333 0.755 -0.0079425992 1.4565697e-38 318 246
-0.0013220133 0.75400001 -0.00793208 1.4842283e-38 319 246
0 0.75400001 -0.00793208 1.484228e-38 320 246
0.0013220133 0.75400001 -0.00793208 1.4658249e-38 321 246
0.0026370131 0.75199997 -0.0079110395 1.4842636e-38 322 246
0.0039555198 0.75199997 -0.0079110395 1.5119224e-38 323 246
0.00526 0.75 -0.00789 1.5212139e-38 324 246
0.0065662335 0.74900001 -0.0078794798 1.539653e-38 325 246
0.0078794798 0.74900001 -0.0078794798 1.5855709e-38 326 246
0.0091681797 0.74699998 -0.0078584393 1.6132656e-38 327 246
0.010477919 0.74699998 -0.0078584393 1.6592558e-38 328 246
0.011771879 0.74599999 -0.0078479191 1.6960982e-38 329 246
0.013079867 0.74599999 -0.0078479191 1.7421242e-38 330 246
0.014387853 0.74599999 -0.0078479191 1.7605635e-38 331 246
0.015653761 0.74400002 -0.0078268806 1.7697831e-38 332 246
0.016912652 0.74199998 -0.0078058392 1.7974057e-38 333 246
0.018213626 0.74199998 -0.0078058392 1.8340682e-38 334 246
0.019488299 0.741 -0.0077953199 1.861691e-38 335 246
0.020787518 0.741 -0.0077953199 1.861726e-38 336 246
0.02208674 0.741 -0.0077953199 1.880201e-38 337 246
0.023385961 0.741 -0.0077953199 1.8894203e-38 338 246
0.024685178 0.741 -0.0077953199 1.8894203e-38 339 246
0.025984399 0.741 -0.0077953199 1.8894925e-38 340 246
0.027283618 0.741 -0.0077953199 1.8894925e-38 341 246
0.028505694 0.73900002 -0.0077742799 1.8987121e-38 342 246
0.029801406 0.73900002 -0.0077742799 1.8987121e-38 343 246
0.031055039 0.73799998 -0.0077637597 1.917007e-38 344 246
0.032261331 0.736 -0.0077427197 1.917007e-38 345 246
0.033460613 0.73400003 -0.0077216802 1.8986752e-38 346 246
0.034700219 0.73299998 -0.0077111595 1.9078948e-38 347 246
0.035985414 0.73299998 -0.0077111595 1.8895275e-38 348 246
0.037270606 0.73299998 -0.0077111595 1.8987471e-38 349 246
0.038555797 0.73299998 -0.0077111595 1.8802726e-38 350 246
0.039840993 0.73299998 -0.0077111595 1.8618695e-38 351 246
0.041013971 0.73100001 -0.00769012 1.8433948e-38 352 246
0.042295661 0.73100001 -0.00769012 1.8249556e-38 353 246
0.043577347 0.73100001 -0.00769012 1.7973329e-38 354 246
0.044859033 0.73100001 -0.00769012 1.7788579e-38 355 246
0.046140719 0.73100001 -0.00769012 1.732872e-38 356 246
0.047422405 0.73100001 -0.00769012 1.7420916e-38 357 246
-0.045842651 0.76899999 -0.0094381925 1.8992261e-38 286 247
-0.044494338 0.76899999 -0.0094381925 1.7056152e-38 287 247
-0.043146025 0.76899999 -0.0094381925 1.6500752e-38 288 247
-0.04190642 0.77100003 -0.0094627403 1.6131968e-38 289 247
-0.040554602 0.77100003 -0.0094627403 1.6408553e-38 290 247
-0.03920278 0.77100003 -0.0094627403 1.6777335e-38 291 247
-0.037850961 0.77100003 -0.0094627403 1.668407e-38 292 247
-0.036499143 0.77100003 -0.0094627403 1.6591515e-38 293 247
-0.03514732 0.77100003 -0.0094627403 1.6316358e-38 294 247
-0.033707831 0.76899999 -0.0094381925 1.6131965e-38 295 247
-0.032359518 0.76899999 -0.0094381925 1.5946852e-38 296 247
-0.030930554 0.76700002 -0.0094136465 1.5578428e-38 297 247
-0.029585747 0.76700002 -0.0094136465 1.5118524e-38 298 247
-0.02824094 0.76700002 -0.0094136465 1.4657546e-38 299 247
-0.026861066 0.76599997 -0.0094013726 1.4380603e-38 300 247
-0.025518013 0.76599997 -0.0094013726 1.3919625e-38 301 247
-0.024174958 0.76599997 -0.0094013726 1.3827081e-38 302 247
-0.022772292 0.764 -0.0093768267 1.3827081e-38 303 247
-0.021432746 0.764 -0.0093768267 1.373453e-38 304 247
-0.020093199 0.764 -0.0093768267 1.3550137e-38 305 247
-0.018680012 0.76099998 -0.0093400059 1.3551194e-38 306 247
-0.017345725 0.76099998 -0.0093400059 1.3643389e-38 307 247
-0.015969358 0.759 -0.00931546 1.3919249e-38 308 247
-0.014638579 0.759 -0.00931546 1.4103999e-38 309 247
-0.0133078 0.759 -0.00931546 1.4196563e-38 310 247
-0.01197702 0.759 -0.00931546 1.4288759e-38 311 247
-0.01064624 0.759 -0.00931546 1.4197659e-38 312 247
-0.00931546 0.759 -0.00931546 1.4197659e-38 313 247
-0.0079636406 0.75700003 -0.0092909131 1.4380621e-38 314 247
-0.0066363667 0.75700003 -0.0092909131 1.4472817e-38 315 247
-0.0052950666 0.755 -0.0092663663 1.4565012e-38 316 247
-0.0039712996 0.755 -0.0092663663 1.4657208e-38 317 247
-0.0026475333 0.755 -0.0092663663 1.4565015e-38 318 247
-0.0013220133 0.75400001 -0.0092540924 1.4657211e-38 319 247
0 0.75400001 -0.0092540924 1.4840526e-38 320 247
0.0013185065 0.75199997 -0.0092295464 1.4932723e-38 321 247
0.0026370131 0.75199997 -0.0092295464 1.4750124e-38 322 247
0.0039555198 0.75199997 -0.0092295464 1.4842678e-38 323 247
0.00526 0.75 -0.0092049995 1.4933772e-38 324 247
0.0065662335 0.74900001 -0.0091927266 1.4841577e-38 325 247
0.0078584393 0.74699998 -0.0091681797 1.5210337e-38 326 247
0.0091681797 0.74699998 -0.0091681797 1.5302892e-38 327 247
0.010477919 0.74699998 -0.0091681797 1.5946833e-38 328 247
0.011771879 0.74599999 -0.0091559067 1.6407811e-38 329 247
0.013079867 0.74599999 -0.0091559067 1.686807e-38 330 247
0.014387853 0.74599999 -0.0091559067 1.7052461e-38 331 247
0.015653761 0.74400002 -0.0091313599 1.7053177e-38 332 247
0.016912652 0.74199998 -0.009106813 1.7237927e-38 333 247
0.018213626 0.74199998 -0.009106813 1.742232e-38 334 247
0.019488299 0.741 -0.0090945391 1.7698547e-38 335 247
0.020787518 0.741 -0.0090945391 1.8158439e-38 336 247
0.022027127 0.73900002 -0.0090699932 1.8250636e-38 337 247
0.023322839 0.73900002 -0.0090699932 1.8159162e-38 338 247
0.024585238 0.73799998 -0.0090577193 1.8343553e-38 339 247
0.025879199 0.73799998 -0.0090577193 1.8343203e-38 340 247
0.027173158 0.73799998 -0.0090577193 1.8343203e-38 341 247
0.028389972 0.736 -0.0090331733 1.8711262e-38 342 247
0.029680425 0.736 -0.0090331733 1.8711262e-38 343 247
0.030886721 0.73400003 -0.0090086265 1.8894209e-38 344 247
0.032173667 0.73400003 -0.0090086265 1.8986404e-38 345 247
0.033415023 0.73299998 -0.0089963535 1.8986402e-38 346 247
0.034605537 0.73100001 -0.0089718066 1.8986402e-38 347 247
0.035887226 0.73100001 -0.0089718066 1.8894928e-38 348 247
0.037118066 0.73000002 -0.0089595336 1.8894928e-38 349 247
0.038398001 0.73000002 -0.0089595336 1.8894559e-38 350 247
0.039732285 0.73100001 -0.0089718066 1.8894559e-38 351 247
0.041013971 0.73100001 -0.0089718066 1.8985304e-38 352 247
0.042295661 0.73100001 -0.0089718066 1.8893107e-38 353 247
0.043517731 0.73000002 -0.0089595336 1.8708713e-38 354 247
0.044797666 0.73000002 -0.0089595336 1.8432487e-38 355 247
0.045951359 0.72799999 -0.0089349858 1.7971877e-38 356 247
0.047227785 0.72799999 -0.0089349858 1.75109e-38 357 247
0.048504211 0.72799999 -0.0089349858 1.6314914e-38 358 247
0.049780637 0.72799999 -0.0089349858 1.6775894e-38 359 247
-0.048539277 0.76899999 -0.010786506 1.9362877e-38 284 248
-0.047190964 0.76899999 -0.010786506 1.7703716e-38 285 248
-0.045842651 0.76899999 -0.010786506 1.7054333e-38 286 248
-0.044494338 0.76899999 -0.010786506 1.5302975e-38 287 248
-0.043146025 0.76899999 -0.010786506 1.6129821e-38 288 248
-0.04190642 0.77100003 -0.01081456 1.6498602e-38 289 248
-0.040554602 0.77100003 -0.01081456 1.6591152e-38 290 248
-0.03920278 0.77100003 -0.01081456 1.6591152e-38 291 248
-0.037850961 0.77100003 -0.01081456 1.6223445e-38 292 248
-0.036499143 0.77100003 -0.01081456 1.6131249e-38 293 248
-0.03514732 0.77100003 -0.01081456 1.5210366e-38 294 248
-0.033707831 0.76899999 -0.010786506 1.4657192e-38 295 248
-0.032359518 0.76899999 -0.010786506 1.4197288e-38 296 248
-0.030930554 0.76700002 -0.010758453 1.3828504e-38 297 248
-0.029547172 0.76599997 -0.010744425 1.3551924e-38 298 248
-0.028204117 0.76599997 -0.010744425 1.3735955e-38 299 248
-0.026861066 0.76599997 -0.010744425 1.3644488e-38 300 248
-0.025451386 0.764 -0.010716373 1.3551934e-38 301 248
-0.024111839 0.764 -0.010716373 1.3827447e-38 302 248
-0.02271268 0.76200002 -0.01068832 1.3827447e-38 303 248
-0.02137664 0.76200002 -0.01068832 1.3551583e-38 304 248
-0.0200406 0.76200002 -0.01068832 1.3551583e-38 305 248
-0.01863092 0.759 -0.01064624 1.3735251e-38 306 248
-0.017300138 0.759 -0.01064624 1.3827447e-38 307 248
-0.015969358 0.759 -0.01064624 1.38278e-38 308 248
-0.014638579 0.759 -0.01064624 1.3919996e-38 309 248
-0.0133078 0.759 -0.01064624 1.419586e-38 310 248
-0.01197702 0.759 -0.01064624 1.4288055e-38 311 248
-0.01064624 0.759 -0.01064624 1.4379532e-38 312 248
-0.0092909131 0.75700003 -0.010618187 1.4379532e-38 313 248
-0.0079636406 0.75700003 -0.010618187 1.4379532e-38 314 248
-0.0066363667 0.75700003 -0.010618187 1.4563565e-38 315 248
-0.0052950666 0.755 -0.010590133 1.4563921e-38 316 248
-0.0039712996 0.755 -0.010590133 1.4656116e-38 317 248
-0.0026440267 0.75400001 -0.010576107 1.465576e-38 318 248
-0.0013220133 0.75400001 -0.010576107 1.4747956e-38 319 248
0 0.75199997 -0.010548052 1.4839789e-38 320 248
0.0013185065 0.75199997 -0.010548052 1.502382e-38 321 248
0.00263 0.75 -0.01052 1.4840861e-38 322 248
0.003945 0.75 -0.01052 1.4933056e-38 323 248
0.0052529867 0.74900001 -0.010505973 1.5025605e-38 324 248
0.0065486995 0.74699998 -0.010477919 1.5209637e-38 325 248
0.0078584393 0.74699998 -0.010477919 1.5301465e-38 326 248
0.0091681797 0.74699998 -0.010477919 1.5209268e-38 327 248
0.010463892 0.74599999 -0.010463892 1.5302189e-38 328 248
0.011771879 0.74599999 -0.010463892 1.5578776e-38 329 248
0.013079867 0.74599999 -0.010463892 1.5854289e-38 330 248
0.01434928 0.74400002 -0.01043584 1.6038682e-38 331 248
0.015653761 0.74400002 -0.01043584 1.6222701e-38 332 248
0.016912652 0.74199998 -0.010407786 1.6683319e-38 333 248
0.018189078 0.741 -0.010393759 1.6778025e-38 334 248
0.019488299 0.741 -0.010393759 1.7054612e-38 335 248
0.020731414 0.73900002 -0.010365707 1.7698537e-38 336 248
0.021997318 0.73799998 -0.010351679 1.7790733e-38 337 248
0.023291279 0.73799998 -0.010351679 1.8249556e-38 338 248
0.024518613 0.736 -0.010323626 1.8341751e-38 339 248
0.025809066 0.736 -0.010323626 1.8250286e-38 340 248
0.02709952 0.736 -0.010323626 1.8250286e-38 341 248
0.028312827 0.73400003 -0.010295574 1.8526512e-38 342 248
0.029599773 0.73400003 -0.010295574 1.8618708e-38 343 248
0.030844638 0.73299998 -0.010281546 1.8894209e-38 344 248
0.032042164 0.73100001 -0.010253493 1.8801654e-38 345 248
0.033323854 0.73100001 -0.010253493 1.8985323e-38 346 248
0.034558199 0.73000002 -0.010239467 1.9077518e-38 347 248
0.035838135 0.73000002 -0.010239467 1.9077165e-38 348 248
0.037016369 0.72799999 -0.010211413 1.916972e-38 349 248
0.038292799 0.72799999 -0.010211413 1.8894572e-38 350 248
0.039677933 0.73000002 -0.010239467 1.8894572e-38 351 248
0.040957868 0.73000002 -0.010239467 1.8894203e-38 352 248
0.042122077 0.72799999 -0.010211413 1.8894203e-38 353 248
0.043398503 0.72799999 -0.010211413 1.8709443e-38 354 248
0.044674929 0.72799999 -0.010211413 1.8525051e-38 355 248
0.045888241 0.727 -0.010197386 1.8340304e-38 356 248
0.047162913 0.727 -0.010197386 1.8064077e-38 357 248
0.048304334 0.72500002 -0.010169334 1.7327959e-38 358 248
0.0495755 0.72500002 -0.010169334 1.6866621e-38 359 248
0.050846666 0.72500002 -0.010169334 1.6223459e-38 360 248
0.052117832 0.72500002 -0.010169334 1.6776631e-38 361 248
0.052578956 0.71399999 -0.01001504 1.6687387e-38 362 248
0.053830836 0.71399999 -0.01001504 1.8070321e-38 363 248
0.05508272 0.71399999 -0.01001504 1.8441294e-38 364 248
-0.04988759 0.76899999 -0.012134819 1.8901552e-38 283 249
-0.048539277 0.76899999 -0.012134819 1.8256142e-38 284 249
-0.047190964 0.76899999 -0.012134819 1.5582468e-38 285 249
-0.045842651 0.76899999 -0.012134819 1.5577736e-38 286 249
-0.044494338 0.76899999 -0.012134819 1.5024921e-38 287 249
-0.043146025 0.76899999 -0.012134819 1.5669922e-38 288 249
-0.041797712 0.76899999 -0.012134819 1.613054e-38 289 249
-0.0404494 0.76899999 -0.012134819 1.6130177e-38 290 249
-0.03920278 0.77100003 -0.01216638 1.585323e-38 291 249
-0.037850961 0.77100003 -0.01216638 1.5393681e-38 292 249
-0.036404461 0.76899999 -0.012134819 1.520929e-38 293 249
-0.035056144 0.76899999 -0.012134819 1.4196937e-38 294 249
-0.033707831 0.76899999 -0.012134819 1.3920349e-38 295 249
-0.032359518 0.76899999 -0.012134819 1.3736684e-38 296 249
-0.030930554 0.76700002 -0.01210326 1.3551934e-38 297 249
-0.029547172 0.76599997 -0.012087479 1.345939e-38 298 249
-0.028204117 0.76599997 -0.012087479 1.3643782e-38 299 249
-0.026790932 0.764 -0.01205592 1.3643785e-38 300 249
-0.025451386 0.764 -0.01205592 1.3643785e-38 301 249
-0.024111839 0.764 -0.01205592 1.3643779e-38 302 249
-0.02271268 0.76200002 -0.01202436 1.3643779e-38 303 249
-0.02137664 0.76200002 -0.01202436 1.382745e-38 304 249
-0.0200406 0.76200002 -0.01202436 1.382745e-38 305 249
-0.01863092 0.759 -0.01197702 1.3918927e-38 306 249
-0.017300138 0.759 -0.01197702 1.3918927e-38 307 249
-0.015969358 0.759 -0.01197702 1.3919643e-38 308 249
-0.014638579 0.759 -0.01197702 1.3919643e-38 309 249
-0.0133078 0.759 -0.01197702 1.4011841e-38 310 249
-0.01197702 0.759 -0.01197702 1.4011841e-38 311 249
-0.010618187 0.75700003 -0.01194546 1.4011841e-38 312 249
-0.0092909131 0.75700003 -0.01194546 1.4011841e-38 313 249
-0.0079636406 0.75700003 -0.01194546 1.4104035e-38 314 249
-0.0066188332 0.755 -0.011913899 1.4104035e-38 315 249
-0.0052950666 0.755 -0.011913899 1.4287704e-38 316 249
-0.00396604 0.75400001 -0.01189812 1.4379899e-38 317 249
-0.0026440267 0.75400001 -0.01189812 1.4655766e-38 318 249
-0.0013220133 0.75400001 -0.01189812 1.4655766e-38 319 249
0 0.75199997 -0.011866559 1.4747959e-38 320 249
0.0013185065 0.75199997 -0.011866559 1.4747959e-38 321 249
0.00263 0.75 -0.011835 1.4748312e-38 322 249
0.003945 0.75 -0.011835 1.4932703e-38 323 249
0.0052529867 0.74900001 -0.01181922 1.4933056e-38 324 249
0.0065486995 0.74699998 -0.011787659 1.5025252e-38 325 249
0.0078584393 0.74699998 -0.011787659 1.5209637e-38 326 249
0.0091681797 0.74699998 -0.011787659 1.5301833e-38 327 249
0.010463892 0.74599999 -0.011771879 1.5394034e-38 328 249
0.011771879 0.74599999 -0.011771879 1.5394034e-38 329 249
0.0130448 0.74400002 -0.011740319 1.576139e-38 330 249
0.01434928 0.74400002 -0.011740319 1.576139e-38 331 249
0.015611678 0.74199998 -0.01170876 1.5485511e-38 332 249
0.016889861 0.741 -0.01169298 1.5946131e-38 333 249
0.018189078 0.741 -0.01169298 1.6040102e-38 334 249
0.019488299 0.741 -0.01169298 1.6132656e-38 335 249
0.020731414 0.73900002 -0.01166142 1.6868067e-38 336 249
0.021937706 0.736 -0.01161408 1.742124e-38 337 249
0.023228159 0.736 -0.01161408 1.7330493e-38 338 249
0.024451986 0.73400003 -0.011582521 1.7422689e-38 339 249
0.025738932 0.73400003 -0.011582521 1.806554e-38 340 249
0.02702588 0.73400003 -0.011582521 1.8157735e-38 341 249
0.028274251 0.73299998 -0.011566739 1.8250288e-38 342 249
0.029559445 0.73299998 -0.011566739 1.843432e-38 343 249
0.03076048 0.73100001 -0.01153518 1.8526149e-38 344 249
0.031998333 0.73000002 -0.011519399 1.8526149e-38 345 249
0.033278264 0.73000002 -0.011519399 1.8800936e-38 346 249
0.034463517 0.72799999 -0.01148784 1.8985325e-38 347 249
0.035739943 0.72799999 -0.01148784 1.9077168e-38 348 249
0.037016369 0.72799999 -0.01148784 1.9169364e-38 349 249
0.038292799 0.72799999 -0.01148784 1.8986051e-38 350 249
0.039514873 0.727 -0.01147206 1.8986051e-38 351 249
0.040789545 0.727 -0.01147206 1.9077874e-38 352 249
0.042064216 0.727 -0.01147206 1.9077874e-38 353 249
0.043338891 0.727 -0.01147206 1.8985307e-38 354 249
0.044613566 0.727 -0.01147206 1.8800915e-38 355 249
0.045761999 0.72500002 -0.0114405 1.8525404e-38 356 249
0.046903417 0.72299999 -0.01140894 1.8340654e-38 357 249
0.048171077 0.72299999 -0.01140894 1.80637e-38 358 249
0.049438741 0.72299999 -0.01140894 1.7510526e-38 359 249
0.050496001 0.72000003 -0.011361601 1.6958819e-38 360 249
0.05168651 0.71899998 -0.01134582 1.7143212e-38 361 249
0.052726239 0.71600002 -0.01129848 1.6776661e-38 362 249
0.053755447 0.713 -0.011251139 1.7329476e-38 363 249
0.055005573 0.713 -0.011251139 1.6873948e-38 364 249
0.056255698 0.713 -0.011251139 1.7980296e-38 365 249
-0.04988759 0.76899999 -0.013483133 1.7977772e-38 283 250
-0.048539277 0.76899999 -0.013483133 1.6134881e-38 284 250
-0.047190964 0.76899999 -0.013483133 1.3737795e-38 285 250
-0.045842651 0.76899999 -0.013483133 1.4470652e-38 286 250
-0.044494338 0.76899999 -0.013483133 1.5023467e-38 287 250
-0.043146025 0.76899999 -0.013483133 1.5117114e-38 288 250
-0.041797712 0.76899999 -0.013483133 1.5485895e-38 289 250
-0.0404494 0.76899999 -0.013483133 1.5483726e-38 290 250
-0.039101087 0.76899999 -0.013483133 1.4838356e-38 291 250
-0.03775277 0.76899999 -0.013483133 1.4103293e-38 292 250
-0.036404461 0.76899999 -0.013483133 1.3918901e-38 293 250
-0.035056144 0.76899999 -0.013483133 1.3368624e-38 294 250
-0.033707831 0.76899999 -0.013483133 1.3368624e-38 295 250
-0.032359518 0.76899999 -0.013483133 1.3276444e-38 296 250
-0.030930554 0.76700002 -0.013448066 1.336864e-38 297 250
-0.029547172 0.76599997 -0.013430533 1.3551952e-38 298 250
-0.028204117 0.76599997 -0.013430533 1.3551952e-38 299 250
-0.026790932 0.764 -0.013395466 1.3551952e-38 300 250
-0.025451386 0.764 -0.013395466 1.3551952e-38 301 250
-0.024111839 0.764 -0.013395466 1.3826741e-38 302 250
-0.02271268 0.76200002 -0.0133604 1.3826741e-38 303 250
-0.02137664 0.76200002 -0.0133604 1.3826744e-38 304 250
-0.0200406 0.76200002 -0.0133604 1.3826744e-38 305 250
-0.01863092 0.759 -0.0133078 1.4010416e-38 306 250
-0.017300138 0.759 -0.0133078 1.4010416e-38 307 250
-0.015969358 0.759 -0.0133078 1.3918939e-38 308 250
-0.014638579 0.759 -0.0133078 1.3918939e-38 309 250
-0.0133078 0.759 -0.0133078 1.3918942e-38 310 250
-0.01194546 0.75700003 -0.013272733 1.3918942e-38 311 250
-0.010618187 0.75700003 -0.013272733 1.3735627e-38 312 250
-0.0092909131 0.75700003 -0.013272733 1.3735627e-38 313 250
-0.0079425992 0.755 -0.013237666 1.3735977e-38 314 250
-0.0066188332 0.755 -0.013237666 1.3828173e-38 315 250
-0.0052950666 0.755 -0.013237666 1.4195153e-38 316 250
-0.00396604 0.75400001 -0.013220133 1.428735e-38 317 250
-0.0026440267 0.75400001 -0.013220133 1.4287353e-38 318 250
-0.0013220133 0.75400001 -0.013220133 1.4471745e-38 319 250
0 0.75199997 -0.013185065 1.4380621e-38 320 250
0.0013185065 0.75199997 -0.013185065 1.4472817e-38 321 250
0.00263 0.75 -0.01315 1.4564646e-38 322 250
0.003945 0.75 -0.01315 1.4656842e-38 323 250
0.0052529867 0.74900001 -0.013132467 1.4841226e-38 324 250
0.0065486995 0.74699998 -0.013097399 1.4933422e-38 325 250
0.0078584393 0.74699998 -0.013097399 1.5026325e-38 326 250
0.0091559067 0.74599999 -0.013079867 1.5026325e-38 327 250
0.010463892 0.74599999 -0.013079867 1.5118521e-38 328 250
0.011771879 0.74599999 -0.013079867 1.5118521e-38 329 250
0.0130448 0.74400002 -0.0130448 1.5485155e-38 330 250
0.01434928 0.74400002 -0.0130448 1.5485155e-38 331 250
0.015611678 0.74199998 -0.013009733 1.5576275e-38 332 250
0.016889861 0.741 -0.0129922 1.5760666e-38 333 250
0.018189078 0.741 -0.0129922 1.5578428e-38 334 250
0.0194357 0.73900002 -0.012957133 1.5670624e-38 335 250
0.020703359 0.73799998 -0.012939599 1.594684e-38 336 250
0.021878093 0.73400003 -0.012869466 1.6407458e-38 337 250
0.023165042 0.73400003 -0.012869466 1.6685121e-38 338 250
0.024451986 0.73400003 -0.012869466 1.6962066e-38 339 250
0.025738932 0.73400003 -0.012869466 1.7422676e-38 340 250
0.026989058 0.73299998 -0.012851933 1.7422676e-38 341 250
0.028197108 0.73100001 -0.012816866 1.8066243e-38 342 250
0.029438468 0.73000002 -0.012799333 1.8158439e-38 343 250
0.030634239 0.72799999 -0.012764266 1.8433951e-38 344 250
0.031910665 0.72799999 -0.012764266 1.8433951e-38 345 250
0.033187091 0.72799999 -0.012764266 1.861691e-38 346 250
0.03441618 0.727 -0.012746733 1.8709106e-38 347 250
0.035690852 0.727 -0.012746733 1.8802023e-38 348 250
0.036863834 0.72500002 -0.012711667 1.8802023e-38 349 250
0.038135 0.72500002 -0.012711667 1.8894219e-38 350 250
0.039406165 0.72500002 -0.012711667 1.8894219e-38 351 250
0.040677335 0.72500002 -0.012711667 1.8894572e-38 352 250
0.041832779 0.72299999 -0.012676599 1.8894572e-38 353 250
0.043100435 0.72299999 -0.012676599 1.8894559e-38 354 250
0.044490833 0.72500002 -0.012711667 1.8802364e-38 355 250
0.04563576 0.72299999 -0.012676599 1.8802348e-38 356 250
0.046838548 0.722 -0.012659066 1.8617597e-38 357 250
0.048104454 0.722 -0.012659066 1.8525386e-38 358 250
0.04937036 0.722 -0.012659066 1.8248797e-38 359 250
0.050425861 0.71899998 -0.012606465 1.7972597e-38 360 250
0.051542737 0.71700001 -0.0125714 1.7972597e-38 361 250
0.052726239 0.71600002 -0.012553867 1.742054e-38 362 250
0.053755447 0.713 -0.012501267 1.6682615e-38 363 250
0.055005573 0.713 -0.012501267 1.5764667e-38 364 250
0.056255698 0.713 -0.012501267 1.7147601e-38 365 250
0.057505824 0.713 -0.012501267 1.7335655e-38 366 250
0.058755953 0.713 -0.012501267 1.853384e-38 367 250
-0.051235907 0.76899999 -0.014831445 1.7606807e-38 282 251
-0.04988759 0.76899999 -0.014831445 1.6223871e-38 283 251
-0.048539277 0.76899999 -0.014831445 1.5212196e-38 284 251
-0.047190964 0.76899999 -0.014831445 1.42906e-38 285 251
-0.045842651 0.76899999 -0.014831445 1.5022751e-38 286 251
-0.044494338 0.76899999 -0.014831445 1.4561772e-38 287 251
-0.043146025 0.76899999 -0.014831445 1.4102589e-38 288 251
-0.041797712 0.76899999 -0.014831445 1.3918198e-38 289 251
-0.0404494 0.76899999 -0.014831445 1.373416e-38 290 251
-0.039101087 0.76899999 -0.014831445 1.373416e-38 291 251
-0.03775277 0.76899999 -0.014831445 1.3918551e-38 292 251
-0.036404461 0.76899999 -0.014831445 1.3918551e-38 293 251
-0.034964975 0.76700002 -0.014792874 1.3551583e-38 294 251
-0.033620168 0.76700002 -0.014792874 1.3551583e-38 295 251
-0.03227536 0.76700002 -0.014792874 1.3275722e-38 296 251
-0.030930554 0.76700002 -0.014792874 1.3275722e-38 297 251
-0.029547172 0.76599997 -0.014773586 1.3276441e-38 298 251
-0.028204117 0.76599997 -0.014773586 1.3276441e-38 299 251
-0.026790932 0.764 -0.014735013 1.3367565e-38 300 251
-0.025451386 0.764 -0.014735013 1.3275369e-38 301 251
-0.024111839 0.764 -0.014735013 1.3458681e-38 302 251
-0.02271268 0.76200002 -0.01469644 1.3551236e-38 303 251
-0.02137664 0.76200002 -0.01469644 1.3734545e-38 304 251
-0.020014299 0.76099998 -0.014677152 1.3550514e-38 305 251
-0.01863092 0.759 -0.014638579 1.3826378e-38 306 251
-0.017300138 0.759 -0.014638579 1.3826378e-38 307 251
-0.015969358 0.759 -0.014638579 1.3826378e-38 308 251
-0.014638579 0.759 -0.014638579 1.3826378e-38 309 251
-0.0133078 0.759 -0.014638579 1.3734548e-38 310 251
-0.01194546 0.75700003 -0.014600007 1.3734548e-38 311 251
-0.010618187 0.75700003 -0.014600007 1.3826028e-38 312 251
-0.0092909131 0.75700003 -0.014600007 1.3918223e-38 313 251
-0.0079425992 0.755 -0.014561433 1.3643785e-38 314 251
-0.0066188332 0.755 -0.014561433 1.3828176e-38 315 251
-0.0052950666 0.755 -0.014561433 1.4011122e-38 316 251
-0.00396604 0.75400001 -0.014542146 1.4011122e-38 317 251
-0.0026440267 0.75400001 -0.014542146 1.4194435e-38 318 251
-0.0013220133 0.75400001 -0.014542146 1.428663e-38 319 251
0 0.75199997 -0.014503572 1.4287706e-38 320 251
0.0013185065 0.75199997 -0.014503572 1.4379902e-38 321 251
0.00263 0.75 -0.014465 1.4472095e-38 322 251
0.003945 0.75 -0.014465 1.4564649e-38 323 251
0.0052529867 0.74900001 -0.014445714 1.484051e-38 324 251
0.0065486995 0.74699998 -0.014407139 1.4932706e-38 325 251
0.0078584393 0.74699998 -0.014407139 1.5025252e-38 326 251
0.0091559067 0.74599999 -0.014387853 1.5025252e-38 327 251
0.010463892 0.74599999 -0.014387853 1.520964e-38 328 251
0.011771879 0.74599999 -0.014387853 1.520964e-38 329 251
0.0130448 0.74400002 -0.01434928 1.539296e-38 330 251
0.01434928 0.74400002 -0.01434928 1.5485155e-38 331 251
0.015611678 0.74199998 -0.014310705 1.5668826e-38 332 251
0.016889861 0.741 -0.01429142 1.5668826e-38 333 251
0.018189078 0.741 -0.01429142 1.5669542e-38 334 251
0.0194357 0.73900002 -0.014252847 1.5853933e-38 335 251
0.020703359 0.73799998 -0.014233559 1.5853568e-38 336 251
0.021878093 0.73400003 -0.014156413 1.5853568e-38 337 251
0.023165042 0.73400003 -0.014156413 1.5947189e-38 338 251
0.024418673 0.73299998 -0.014137126 1.6315612e-38 339 251
0.025703866 0.73299998 -0.014137126 1.6225568e-38 340 251
0.026915418 0.73100001 -0.014098554 1.659471e-38 341 251
0.028197108 0.73100001 -0.014098554 1.751379e-38 342 251
0.029357811 0.72799999 -0.014040692 1.7974766e-38 343 251
0.030634239 0.72799999 -0.014040692 1.8248484e-38 344 251
0.031910665 0.72799999 -0.014040692 1.8433234e-38 345 251
0.033141505 0.727 -0.014021406 1.8432878e-38 346 251
0.034321502 0.72500002 -0.013982833 1.861691e-38 347 251
0.035592668 0.72500002 -0.013982833 1.8525793e-38 348 251
0.036762137 0.72299999 -0.01394426 1.8617989e-38 349 251
0.038029801 0.72299999 -0.01394426 1.8893853e-38 350 251
0.039297458 0.72299999 -0.01394426 1.8893853e-38 351 251
0.040509012 0.722 -0.013924973 1.8893853e-38 352 251
0.041774917 0.722 -0.013924973 1.8893853e-38 353 251
0.043040827 0.722 -0.013924973 1.8894206e-38 354 251
0.044306733 0.722 -0.013924973 1.8894206e-38 355 251
0.045446403 0.72000003 -0.0138864 1.8986029e-38 356 251
0.0467088 0.72000003 -0.0138864 1.8709443e-38 357 251
0.0479712 0.72000003 -0.0138864 1.8618672e-38 358 251
0.048960082 0.71600002 -0.013809253 1.824989e-38 359 251
0.050215468 0.71600002 -0.013809253 1.8525048e-38 360 251
0.051470853 0.71600002 -0.013809253 1.8432852e-38 361 251
0.052578956 0.71399999 -0.01377068 1.8064443e-38 362 251
0.053755447 0.713 -0.013751393 1.7696019e-38 363 251
0.055005573 0.713 -0.013751393 1.6959209e-38 364 251
0.056255698 0.713 -0.013751393 1.7051405e-38 365 251
0.057505824 0.713 -0.013751393 1.6134919e-38 366 251
0.058755953 0.713 -0.013751393 1.7333462e-38 367 251
0.060006075 0.713 -0.013751393 1.7796643e-38 368 251
-0.053792264 0.76700002 -0.01613768 1.834365e-38 280 252
-0.052447457 0.76700002 -0.01613768 1.6868518e-38 281 252
-0.051102653 0.76700002 -0.01613768 1.5669581e-38 282 252
-0.04988759 0.76899999 -0.016179759 1.5116766e-38 283 252
-0.048539277 0.76899999 -0.016179759 1.5117464e-38 284 252
-0.047190964 0.76899999 -0.016179759 1.5025269e-38 285 252
-0.045842651 0.76899999 -0.016179759 1.465576e-38 286 252
-0.044494338 0.76899999 -0.016179759 1.3918195e-38 287 252
-0.043146025 0.76899999 -0.016179759 1.3181727e-38 288 252
-0.041797712 0.76899999 -0.016179759 1.3181727e-38 289 252
-0.040344197 0.76700002 -0.01613768 1.3089905e-38 290 252
-0.038999394 0.76700002 -0.01613768 1.3366491e-38 291 252
-0.037654586 0.76700002 -0.01613768 1.3183527e-38 292 252
-0.036309779 0.76700002 -0.01613768 1.3275722e-38 293 252
-0.034964975 0.76700002 -0.01613768 1.3184243e-38 294 252
-0.033620168 0.76700002 -0.01613768 1.3184243e-38 295 252
-0.03227536 0.76700002 -0.01613768 1.3184246e-38 296 252
-0.030890226 0.76599997 -0.016116638 1.3184246e-38 297 252
-0.029547172 0.76599997 -0.016116638 1.3183892e-38 298 252
-0.028204117 0.76599997 -0.016116638 1.2999861e-38 299 252
-0.026790932 0.764 -0.016074561 1.3275369e-38 300 252
-0.025451386 0.764 -0.016074561 1.3183174e-38 301 252
-0.02404872 0.76200002 -0.01603248 1.3275725e-38 302 252
-0.02271268 0.76200002 -0.01603248 1.3275725e-38 303 252
-0.02137664 0.76200002 -0.01603248 1.3366486e-38 304 252
-0.020014299 0.76099998 -0.016011439 1.3366486e-38 305 252
-0.01863092 0.759 -0.015969358 1.3457965e-38 306 252
-0.017300138 0.759 -0.015969358 1.3457965e-38 307 252
-0.015969358 0.759 -0.015969358 1.3365766e-38 308 252
-0.014638579 0.759 -0.015969358 1.3365766e-38 309 252
-0.0133078 0.759 -0.015969358 1.327392e-38 310 252
-0.01194546 0.75700003 -0.015927281 1.3181725e-38 311 252
-0.010618187 0.75700003 -0.015927281 1.3088807e-38 312 252
-0.0092909131 0.75700003 -0.015927281 1.3549784e-38 313 252
-0.0079425992 0.755 -0.015885198 1.3826375e-38 314 252
-0.0066188332 0.755 -0.015885198 1.3826375e-38 315 252
-0.0052950666 0.755 -0.015885198 1.4010043e-38 316 252
-0.00396604 0.75400001 -0.01586416 1.3917848e-38 317 252
-0.0026440267 0.75400001 -0.01586416 1.373453e-38 318 252
-0.0013220133 0.75400001 -0.01586416 1.3826725e-38 319 252
0 0.75199997 -0.015822079 1.3736333e-38 320 252
0.0013185065 0.75199997 -0.015822079 1.3828529e-38 321 252
0.00263 0.75 -0.01578 1.4104041e-38 322 252
0.003945 0.75 -0.01578 1.4380268e-38 323 252
0.0052389596 0.74699998 -0.015716879 1.4565012e-38 324 252
0.0065486995 0.74699998 -0.015716879 1.4565012e-38 325 252
0.0078479191 0.74599999 -0.015695838 1.4841229e-38 326 252
0.0091559067 0.74599999 -0.015695838 1.4933425e-38 327 252
0.010463892 0.74599999 -0.015695838 1.520929e-38 328 252
0.011740319 0.74400002 -0.015653761 1.5301486e-38 329 252
0.0130448 0.74400002 -0.015653761 1.5392606e-38 330 252
0.014310705 0.74199998 -0.015611678 1.5485161e-38 331 252
0.01559064 0.741 -0.01559064 1.5393678e-38 332 252
0.016889861 0.741 -0.01559064 1.5393678e-38 333 252
0.018139986 0.73900002 -0.01554856 1.5485508e-38 334 252
0.0194357 0.73900002 -0.01554856 1.5669539e-38 335 252
0.020703359 0.73799998 -0.015527519 1.5761738e-38 336 252
0.021878093 0.73400003 -0.01544336 1.5853933e-38 337 252
0.023165042 0.73400003 -0.01544336 1.5579144e-38 338 252
0.024418673 0.73299998 -0.015422319 1.5486949e-38 339 252
0.025703866 0.73299998 -0.015422319 1.5486931e-38 340 252
0.026915418 0.73100001 -0.01538024 1.5947909e-38 341 252
0.028158534 0.73000002 -0.0153592 1.6868423e-38 342 252
0.029357811 0.72799999 -0.01531712 1.7421237e-38 343 252
0.030592158 0.727 -0.015296079 1.7788594e-38 344 252
0.03186683 0.727 -0.015296079 1.7973344e-38 345 252
0.033050332 0.72500002 -0.015254001 1.7973694e-38 346 252
0.03422682 0.72299999 -0.015211919 1.7973694e-38 347 252
0.035494477 0.72299999 -0.015211919 1.8250286e-38 348 252
0.03671129 0.722 -0.015190879 1.8434317e-38 349 252
0.0379772 0.722 -0.015190879 1.8617995e-38 350 252
0.039243106 0.722 -0.015190879 1.8617995e-38 351 252
0.040396802 0.72000003 -0.0151488 1.8802023e-38 352 252
0.041659199 0.72000003 -0.0151488 1.8802023e-38 353 252
0.042921603 0.72000003 -0.0151488 1.8893853e-38 354 252
0.044183999 0.72000003 -0.0151488 1.8893853e-38 355 252
0.045383278 0.71899998 -0.01512776 1.9077869e-38 356 252
0.046643924 0.71899998 -0.01512776 1.8985673e-38 357 252
0.047704693 0.71600002 -0.01506464 1.8802343e-38 358 252
0.048960082 0.71600002 -0.01506464 1.861795e-38 359 252
0.050215468 0.71600002 -0.01506464 1.8801262e-38 360 252
0.05132708 0.71399999 -0.015022559 1.8709067e-38 361 252
0.052578956 0.71399999 -0.015022559 1.824989e-38 362 252
0.053755447 0.713 -0.015001519 1.8065499e-38 363 252
0.055005573 0.713 -0.015001519 1.7788565e-38 364 252
0.056097899 0.71100003 -0.014959441 1.7235031e-38 365 252
0.057344519 0.71100003 -0.014959441 1.5762834e-38 366 252
0.058755953 0.713 -0.015001519 1.6408203e-38 367 252
0.060342718 0.71700001 -0.015085679 1.6689908e-38 368 252
0.061599858 0.71700001 -0.015085679 1.8165038e-38 369 252
0.062856995 0.71700001 -0.015085679 1.8257631e-38 370 252
0.067792632 0.70300001 -0.014791119 1.8073237e-38 375 252
-0.053792264 0.76700002 -0.017482487 1.5574517e-38 280 253
-0.052447457 0.76700002 -0.017482487 1.4836952e-38 281 253
-0.051102653 0.76700002 -0.017482487 1.4468501e-38 282 253
-0.049757849 0.76700002 -0.017482487 1.4284469e-38 283 253
-0.048539277 0.76899999 -0.017528072 1.3642683e-38 284 253
-0.047190964 0.76899999 -0.017528072 1.3366456e-38 285 253
-0.045842651 0.76899999 -0.017528072 1.272217e-38 286 253
-0.044494338 0.76899999 -0.017528072 1.272217e-38 287 253
-0.043033812 0.76700002 -0.017482487 1.3365753e-38 288 253
-0.041689005 0.76700002 -0.017482487 1.3273557e-38 289 253
-0.040344197 0.76700002 -0.017482487 1.3274276e-38 290 253
-0.038999394 0.76700002 -0.017482487 1.3366472e-38 291 253
-0.037654586 0.76700002 -0.017482487 1.3367189e-38 292 253
-0.036309779 0.76700002 -0.017482487 1.3367189e-38 293 253
-0.034964975 0.76700002 -0.017482487 1.3367192e-38 294 253
-0.033620168 0.76700002 -0.017482487 1.3367192e-38 295 253
-0.03227536 0.76700002 -0.017482487 1.3183524e-38 296 253
-0.030890226 0.76599997 -0.017459691 1.3091327e-38 297 253
-0.029547172 0.76599997 -0.017459691 1.3182804e-38 298 253
-0.028204117 0.76599997 -0.017459691 1.3182804e-38 299 253
-0.026790932 0.764 -0.017414106 1.3182804e-38 300 253
-0.025451386 0.764 -0.017414106 1.3182804e-38 301 253
-0.02404872 0.76200002 -0.01736852 1.318316e-38 302 253
-0.02271268 0.76200002 -0.01736852 1.318316e-38 303 253
-0.02137664 0.76200002 -0.01736852 1.3182804e-38 304 253
-0.020014299 0.76099998 -0.017345725 1.3090608e-38 305 253
-0.01863092 0.759 -0.017300138 1.3365403e-38 306 253
-0.017300138 0.759 -0.017300138 1.3180653e-38 307 253
-0.015969358 0.759 -0.017300138 1.308846e-38 308 253
-0.014638579 0.759 -0.017300138 1.2811513e-38 309 253
-0.0133078 0.759 -0.017300138 1.1800225e-38 310 253
-0.01194546 0.75700003 -0.017254554 1.1523279e-38 311 253
-0.010618187 0.75700003 -0.017254554 1.1798056e-38 312 253
-0.0092909131 0.75700003 -0.017254554 1.1798056e-38 313 253
-0.0079425992 0.755 -0.017208965 1.2349062e-38 314 253
-0.0066188332 0.755 -0.017208965 1.2072115e-38 315 253
-0.0052950666 0.755 -0.017208965 1.2071399e-38 316 253
-0.00396604 0.75400001 -0.017186172 1.2532377e-38 317 253
-0.0026440267 0.75400001 -0.017186172 1.2353749e-38 318 253
-0.0013220133 0.75400001 -0.017186172 1.2999119e-38 319 253
0 0.75199997 -0.017140586 1.3827444e-38 320 253
0.0013185065 0.75199997 -0.017140586 1.3919999e-38 321 253
0.00263 0.75 -0.017095 1.4286983e-38 322 253
0.003945 0.75 -0.017095 1.437918e-38 323 253
0.0052389596 0.74699998 -0.017026618 1.4655047e-38 324 253
0.0065486995 0.74699998 -0.017026618 1.4747243e-38 325 253
0.0078479191 0.74599999 -0.017003827 1.484051e-38 326 253
0.0091559067 0.74599999 -0.017003827 1.484051e-38 327 253
0.010463892 0.74599999 -0.017003827 1.5207851e-38 328 253
0.011740319 0.74400002 -0.016958239 1.5391882e-38 329 253
0.013009733 0.74199998 -0.016912652 1.5484076e-38 330 253
0.014310705 0.74199998 -0.016912652 1.5576272e-38 331 253
0.01559064 0.741 -0.016889861 1.5576625e-38 332 253
0.016844273 0.73900002 -0.016844273 1.5576625e-38 333 253
0.018139986 0.73900002 -0.016844273 1.5576981e-38 334 253
0.0194357 0.73900002 -0.016844273 1.5669176e-38 335 253
0.020647252 0.736 -0.016775893 1.5761372e-38 336 253
0.021878093 0.73400003 -0.016730307 1.5761372e-38 337 253
0.023165042 0.73400003 -0.016730307 1.5762088e-38 338 253
0.024418673 0.73299998 -0.016707512 1.5762088e-38 339 253
0.025703866 0.73299998 -0.016707512 1.5945391e-38 340 253
0.026915418 0.73100001 -0.016661927 1.5853195e-38 341 253
0.028158534 0.73000002 -0.016639132 1.5946833e-38 342 253
0.029357811 0.72799999 -0.016593546 1.6500006e-38 343 253
0.030592158 0.727 -0.016570752 1.696171e-38 344 253
0.03186683 0.727 -0.016570752 1.7238297e-38 345 253
0.033050332 0.72500002 -0.016525166 1.8154489e-38 346 253
0.03422682 0.72299999 -0.01647958 1.8523631e-38 347 253
0.035494477 0.72299999 -0.01647958 1.8341035e-38 348 253
0.03671129 0.722 -0.016456785 1.8433231e-38 349 253
0.037871998 0.72000003 -0.0164112 1.8617263e-38 350 253
0.039134402 0.72000003 -0.0164112 1.8709459e-38 351 253
0.040340692 0.71899998 -0.016388407 1.8801654e-38 352 253
0.041485619 0.71700001 -0.016342819 1.8801654e-38 353 253
0.042742759 0.71700001 -0.016342819 1.8985323e-38 354 253
0.043938532 0.71600002 -0.016320027 1.8985323e-38 355 253
0.045193922 0.71600002 -0.016320027 1.8894206e-38 356 253
0.046449307 0.71600002 -0.016320027 1.8894206e-38 357 253
0.047571439 0.71399999 -0.016274439 1.8894203e-38 358 253
0.048823316 0.71399999 -0.016274439 1.8802008e-38 359 253
0.050075196 0.71399999 -0.016274439 1.8526853e-38 360 253
0.051255193 0.713 -0.016251646 1.8342101e-38 361 253
0.052505318 0.713 -0.016251646 1.8158792e-38 362 253
0.053604662 0.71100003 -0.01620606 1.8066596e-38 363 253
0.054774132 0.70999998 -0.016183265 1.7973323e-38 364 253
0.056018997 0.70999998 -0.016183265 1.7788932e-38 365 253
0.057263866 0.70999998 -0.016183265 1.7510916e-38 366 253
0.058508728 0.70999998 -0.016183265 1.7326524e-38 367 253
0.060006075 0.713 -0.016251646 1.5672104e-38 368 253
0.061084379 0.71100003 -0.01620606 1.640967e-38 369 253
0.062243331 0.70999998 -0.016183265 1.6968312e-38 370 253
0.063488193 0.70999998 -0.016183265 1.8074659e-38 371 253
-0.053792264 0.76700002 -0.018827293 1.3916773e-38 280 254
-0.052447457 0.76700002 -0.018827293 1.3916773e-38 281 254
-0.051102653 0.76700002 -0.018827293 1.3549431e-38 282 254
-0.049757849 0.76700002 -0.018827293 1.3273204e-38 283 254
-0.048413042 0.76700002 -0.018827293 1.2905861e-38 284 254
-0.047190964 0.76899999 -0.018876385 1.272147e-38 285 254
-0.045842651 0.76899999 -0.018876385 1.2537804e-38 286 254
-0.044494338 0.76899999 -0.018876385 1.263e-38 287 254
-0.043033812 0.76700002 -0.018827293 1.253817e-38 288 254
-0.041689005 0.76700002 -0.018827293 1.253817e-38 289 254
-0.040344197 0.76700002 -0.018827293 1.2631075e-38 290 254
-0.038999394 0.76700002 -0.018827293 1.272327e-38 291 254
-0.037654586 0.76700002 -0.018827293 1.2722914e-38 292 254
-0.036309779 0.76700002 -0.018827293 1.2722914e-38 293 254
-0.034964975 0.76700002 -0.018827293 1.2540324e-38 294 254
-0.033620168 0.76700002 -0.018827293 1.2540324e-38 295 254
-0.03227536 0.76700002 -0.018827293 1.2815466e-38 296 254
-0.030890226 0.76599997 -0.018802745 1.272327e-38 297 254
-0.029547172 0.76599997 -0.018802745 1.2815466e-38 298 254
-0.028204117 0.76599997 -0.018802745 1.2815466e-38 299 254
-0.026790932 0.764 -0.018753653 1.2815819e-38 300 254
-0.025451386 0.764 -0.018753653 1.2908015e-38 301 254
-0.024111839 0.764 -0.018753653 1.2908368e-38 302 254
-0.02271268 0.76200002 -0.01870456 1.2908368e-38 303 254
-0.02137664 0.76200002 -0.01870456 1.3090611e-38 304 254
-0.0200406 0.76200002 -0.01870456 1.2998415e-38 305 254
-0.018680012 0.76099998 -0.018680012 1.290551e-38 306 254
-0.017345725 0.76099998 -0.018680012 1.2813315e-38 307 254
-0.015969358 0.759 -0.01863092 1.2812596e-38 308 254
-0.014638579 0.759 -0.01863092 1.2720399e-38 309 254
-0.0133078 0.759 -0.01863092 1.2535289e-38 310 254
-0.01197702 0.759 -0.01863092 1.2442734e-38 311 254
-0.010618187 0.75700003 -0.018581826 1.2259772e-38 312 254
-0.0092909131 0.75700003 -0.018581826 1.207538e-38 313 254
-0.0079425992 0.755 -0.018532733 1.2441639e-38 314 254
-0.0066188332 0.755 -0.018532733 1.1981021e-38 315 254
-0.0052950666 0.755 -0.018532733 1.1519336e-38 316 254
-0.0039712996 0.755 -0.018532733 1.1427141e-38 317 254
-0.0026440267 0.75400001 -0.018508185 1.1337818e-38 318 254
-0.0013220133 0.75400001 -0.018508185 1.2075383e-38 319 254
0 0.75199997 -0.018459093 1.3274276e-38 320 254
0.0013185065 0.75199997 -0.018459093 1.382745e-38 321 254
0.00263 0.75 -0.018409999 1.3918574e-38 322 254
0.003945 0.75 -0.018409999 1.41948e-38 323 254
0.0052529867 0.74900001 -0.018385453 1.4196237e-38 324 254
0.0065486995 0.74699998 -0.018336359 1.4196237e-38 325 254
0.0078584393 0.74699998 -0.018336359 1.4472817e-38 326 254
0.0091559067 0.74599999 -0.018311813 1.4472817e-38 327 254
0.010463892 0.74599999 -0.018311813 1.4840157e-38 328 254
0.011740319 0.74400002 -0.01826272 1.4932353e-38 329 254
0.013009733 0.74199998 -0.018213626 1.5208937e-38 330 254
0.014310705 0.74199998 -0.018213626 1.5208937e-38 331 254
0.01559064 0.741 -0.018189078 1.5208934e-38 332 254
