# .PCD v.7 - Point Cloud Data file format
FIELDS x y z rgb imX imY
SIZE 4 4 4 4 4 4
TYPE F F F F F F
COUNT 1 1 1 1 1 1
WIDTH 842
HEIGHT 1
VIEWPOINT 0 0 0 1 0 0 0
POINTS 842
DATA ascii
0.036697265 0.80500001 -0 1.852445e-38 346 240
-0.030781519 0.79799998 -0.0013991599 1.9167664e-38 298 241
-0.029308718 0.796 -0.0013956534 1.9352057e-38 299 241
-0.027913066 0.796 -0.0013956534 1.9168364e-38 300 241
-0.026450787 0.79400003 -0.0013921467 1.8799942e-38 301 241
-0.02505864 0.79400003 -0.0013921467 1.8984314e-38 302 241
-0.023666494 0.79400003 -0.0013921467 1.8984314e-38 303 241
-0.022274347 0.79400003 -0.0013921467 1.9076138e-38 304 241
-0.0208822 0.79400003 -0.0013921467 1.9260169e-38 305 241
-0.019490054 0.79400003 -0.0013921467 1.9170112e-38 306 241
-0.018143492 0.796 -0.0013956534 1.9538534e-38 307 241
-0.01674784 0.796 -0.0013956534 1.9723269e-38 308 241
-0.015352187 0.796 -0.0013956534 1.9907301e-38 309 241
-0.013956533 0.796 -0.0013956534 1.9999847e-38 310 241
-0.012592439 0.79799998 -0.0013991599 1.9723619e-38 311 241
-0.011193279 0.79799998 -0.0013991599 1.9631418e-38 312 241
-0.0097695729 0.796 -0.0013956534 1.9631418e-38 313 241
-0.0083739199 0.796 -0.0013956534 1.9907282e-38 314 241
-0.0069957995 0.79799998 -0.0013991599 1.9815086e-38 315 241
-0.0055966396 0.79799998 -0.0013991599 1.9815089e-38 316 241
-0.0041974802 0.79799998 -0.0013991599 1.9630339e-38 317 241
-0.0027983198 0.79799998 -0.0013991599 1.9629623e-38 318 241
-0.0013991599 0.79799998 -0.0013991599 1.9444872e-38 319 241
0 0.79799998 -0.0013991599 1.8338884e-38 320 241
0.0013991599 0.79799998 -0.0013991599 1.7693515e-38 321 241
0.0027983198 0.79799998 -0.0013991599 1.6861937e-38 322 241
0.0041974802 0.79799998 -0.0013991599 1.5847785e-38 323 241
0.0055966396 0.79799998 -0.0013991599 1.4834336e-38 324 241
0.0069957995 0.79799998 -0.0013991599 1.3820184e-38 325 241
0.0083949603 0.79799998 -0.0013991599 1.3635793e-38 326 241
0.0097941197 0.79799998 -0.0013991599 1.1791893e-38 327 241
0.011221333 0.80000001 -0.0014026667 1.2336807e-38 328 241
0.012624 0.80000001 -0.0014026667 1.1875478e-38 329 241
0.014026666 0.80000001 -0.0014026667 1.1140435e-38 330 241
0.015429333 0.80000001 -0.0014026667 1.1416659e-38 331 241
0.016832 0.80000001 -0.0014026667 1.1786871e-38 332 241
0.018280253 0.80199999 -0.0014061732 1.2709173e-38 333 241
0.019686425 0.80199999 -0.0014061732 1.2714563e-38 334 241
0.021092599 0.80199999 -0.0014061732 1.4465919e-38 335 241
0.022498772 0.80199999 -0.0014061732 1.6036867e-38 336 241
0.023904946 0.80199999 -0.0014061732 1.7511637e-38 337 241
0.02531112 0.80199999 -0.0014061732 1.7512736e-38 338 241
0.026750606 0.80299997 -0.0014079266 1.7327985e-38 339 241
0.028158531 0.80299997 -0.0014079266 1.7419467e-38 340 241
0.029566457 0.80299997 -0.0014079266 1.7511664e-38 341 241
0.030974386 0.80299997 -0.0014079266 1.686956e-38 342 241
0.032382313 0.80299997 -0.0014079266 1.686956e-38 343 241
0.033790238 0.80299997 -0.0014079266 1.7053264e-38 344 241
0.035198163 0.80299997 -0.0014079266 1.7514241e-38 345 241
0.036697265 0.80500001 -0.0014114333 1.8248589e-38 346 241
0.038108699 0.80500001 -0.0014114333 1.8248589e-38 347 241
0.039520133 0.80500001 -0.0014114333 1.8340428e-38 348 241
-0.032100026 0.796 -0.0027913067 1.9350966e-38 297 242
-0.030704373 0.796 -0.0027913067 1.8985058e-38 298 242
-0.029308718 0.796 -0.0027913067 1.8892503e-38 299 242
-0.027842935 0.79400003 -0.0027842934 1.8892838e-38 300 242
-0.026450787 0.79400003 -0.0027842934 1.8800643e-38 301 242
-0.02505864 0.79400003 -0.0027842934 1.9076844e-38 302 242
-0.023666494 0.79400003 -0.0027842934 1.9353071e-38 303 242
-0.022274347 0.79400003 -0.0027842934 1.944597e-38 304 242
-0.0208822 0.79400003 -0.0027842934 1.9538166e-38 305 242
-0.019490054 0.79400003 -0.0027842934 1.9906929e-38 306 242
-0.018143492 0.796 -0.0027913067 1.9906929e-38 307 242
-0.01674784 0.796 -0.0027913067 1.9906913e-38 308 242
-0.015352187 0.796 -0.0027913067 1.9906913e-38 309 242
-0.013956533 0.796 -0.0027913067 2.00913e-38 310 242
-0.01256088 0.796 -0.0027913067 2.00913e-38 311 242
-0.011165227 0.796 -0.0027913067 1.9906563e-38 312 242
-0.0097695729 0.796 -0.0027913067 2.0090594e-38 313 242
-0.0083739199 0.796 -0.0027913067 1.9906566e-38 314 242
-0.0069782664 0.796 -0.0027913067 2.0090597e-38 315 242
-0.0055966396 0.79799998 -0.0027983198 2.0089875e-38 316 242
-0.0041974802 0.79799998 -0.0027983198 1.9905484e-38 317 242
-0.0027983198 0.79799998 -0.0027983198 1.9813288e-38 318 242
-0.0013991599 0.79799998 -0.0027983198 1.9444506e-38 319 242
0 0.79799998 -0.0027983198 1.9168645e-38 320 242
0.0013991599 0.79799998 -0.0027983198 1.8799861e-38 321 242
0.0027983198 0.79799998 -0.0027983198 1.8614395e-38 322 242
0.0041974802 0.79799998 -0.0027983198 1.8061221e-38 323 242
0.0055966396 0.79799998 -0.0027983198 1.7047792e-38 324 242
0.0069957995 0.79799998 -0.0027983198 1.6310227e-38 325 242
0.0083949603 0.79799998 -0.0027983198 1.5940003e-38 326 242
0.0097941197 0.79799998 -0.0027983198 1.4833655e-38 327 242
0.011221333 0.80000001 -0.0028053334 1.4461648e-38 328 242
0.012592439 0.79799998 -0.0027983198 1.3724083e-38 329 242
0.013991599 0.79799998 -0.0027983198 1.3169484e-38 330 242
0.015390759 0.79799998 -0.0027983198 1.3077289e-38 331 242
0.016789921 0.79799998 -0.0027983198 1.2709578e-38 332 242
0.018234666 0.80000001 -0.0028053334 1.2617382e-38 333 242
0.019637333 0.80000001 -0.0028053334 1.2434048e-38 334 242
0.021092599 0.80199999 -0.0028123464 1.4093569e-38 335 242
0.022498772 0.80199999 -0.0028123464 1.5943237e-38 336 242
0.023904946 0.80199999 -0.0028123464 1.7603117e-38 337 242
0.02531112 0.80199999 -0.0028123464 1.7971919e-38 338 242
0.026717292 0.80199999 -0.0028123464 1.7695332e-38 339 242
0.028123464 0.80199999 -0.0028123464 1.760386e-38 340 242
0.029529637 0.80199999 -0.0028123464 1.7511664e-38 341 242
0.030974386 0.80299997 -0.0028158531 1.6960657e-38 342 242
0.032382313 0.80299997 -0.0028158531 1.6776265e-38 343 242
0.033790238 0.80299997 -0.0028158531 1.6224924e-38 344 242
0.035198163 0.80299997 -0.0028158531 1.6501513e-38 345 242
0.036606088 0.80299997 -0.0028158531 1.7513903e-38 346 242
0.038014017 0.80299997 -0.0028158531 1.779085e-38 347 242
0.03937285 0.80199999 -0.0028123464 1.8435516e-38 348 242
0.040779024 0.80199999 -0.0028123464 1.8342962e-38 349 242
-0.038734637 0.78899997 -0.0041501396 1.9076899e-38 292 243
-0.037398599 0.79000002 -0.0041554002 1.9076899e-38 293 243
-0.036195815 0.79400003 -0.0041764397 1.9259844e-38 294 243
-0.034803666 0.79400003 -0.0041764397 1.9075453e-38 295 243
-0.033411518 0.79400003 -0.0041764397 1.9258747e-38 296 243
-0.032019373 0.79400003 -0.0041764397 1.9166551e-38 297 243
-0.030627226 0.79400003 -0.0041764397 1.8984294e-38 298 243
-0.029235078 0.79400003 -0.0041764397 1.8984294e-38 299 243
-0.027842935 0.79400003 -0.0041764397 1.9261226e-38 300 243
-0.02638416 0.792 -0.00416592 1.9261226e-38 301 243
-0.024995519 0.792 -0.00416592 1.9446676e-38 302 243
-0.02360688 0.792 -0.00416592 1.9631068e-38 303 243
-0.022218239 0.792 -0.00416592 1.9999479e-38 304 243
-0.020829599 0.792 -0.00416592 1.9999479e-38 305 243
-0.019490054 0.79400003 -0.0041764397 2.0183147e-38 306 243
-0.018143492 0.796 -0.0041869599 2.009095e-38 307 243
-0.01674784 0.796 -0.0041869599 1.9907635e-38 308 243
-0.015352187 0.796 -0.0041869599 1.9815439e-38 309 243
-0.013956533 0.796 -0.0041869599 1.9906563e-38 310 243
-0.01256088 0.796 -0.0041869599 1.9906563e-38 311 243
-0.011165227 0.796 -0.0041869599 1.981438e-38 312 243
-0.0097695729 0.796 -0.0041869599 1.981438e-38 313 243
-0.0083739199 0.796 -0.0041869599 1.981438e-38 314 243
-0.0069782664 0.796 -0.0041869599 1.981438e-38 315 243
-0.0055826134 0.796 -0.0041869599 1.9814014e-38 316 243
-0.0041974802 0.79799998 -0.0041974802 1.9629623e-38 317 243
-0.0027983198 0.79799998 -0.0041974802 1.9354112e-38 318 243
-0.0013956534 0.796 -0.0041869599 1.9261915e-38 319 243
0 0.796 -0.0041869599 1.9537424e-38 320 243
0.0013956534 0.796 -0.0041869599 1.9537424e-38 321 243
0.0027983198 0.79799998 -0.0041974802 1.9536721e-38 322 243
0.0041974802 0.79799998 -0.0041974802 1.9721112e-38 323 243
0.0055966396 0.79799998 -0.0041974802 1.9168307e-38 324 243
0.0069957995 0.79799998 -0.0041974802 1.8799885e-38 325 243
0.0083949603 0.79799998 -0.0041974802 1.8798803e-38 326 243
0.0097941197 0.79799998 -0.0041974802 1.8338183e-38 327 243
0.011193279 0.79799998 -0.0041974802 1.8152713e-38 328 243
0.012592439 0.79799998 -0.0041974802 1.7692095e-38 329 243
0.013991599 0.79799998 -0.0041974802 1.7414076e-38 330 243
0.015390759 0.79799998 -0.0041974802 1.6952738e-38 331 243
0.016789921 0.79799998 -0.0041974802 1.6308808e-38 332 243
0.018189078 0.79799998 -0.0041974802 1.5663438e-38 333 243
0.019637333 0.80000001 -0.0042079999 1.5385775e-38 334 243
0.02104 0.80000001 -0.0042079999 1.6307371e-38 335 243
0.022442667 0.80000001 -0.0042079999 1.6496804e-38 336 243
0.023845334 0.80000001 -0.0042079999 1.7510958e-38 337 243
0.025248 0.80000001 -0.0042079999 1.7971569e-38 338 243
0.026717292 0.80199999 -0.0042185197 1.7787177e-38 339 243
0.028123464 0.80199999 -0.0042185197 1.7511661e-38 340 243
0.029529637 0.80199999 -0.0042185197 1.7511661e-38 341 243
0.030935811 0.80199999 -0.0042185197 1.7327634e-38 342 243
0.032341983 0.80199999 -0.0042185197 1.7143603e-38 343 243
0.033748157 0.80199999 -0.0042185197 1.6130911e-38 344 243
0.035154331 0.80199999 -0.0042185197 1.6130911e-38 345 243
0.036606088 0.80299997 -0.0042237798 1.6319312e-38 346 243
0.038014017 0.80299997 -0.0042237798 1.7610051e-38 347 243
0.03937285 0.80199999 -0.0042185197 1.9084864e-38 348 243
0.040779024 0.80199999 -0.0042185197 1.9269257e-38 349 243
0.042185199 0.80199999 -0.0042185197 1.9359653e-38 350 243
-0.040118016 0.78899997 -0.0055335197 1.9077251e-38 291 244
-0.038734637 0.78899997 -0.0055335197 1.9167646e-38 292 244
-0.037398599 0.79000002 -0.0055405335 1.907545e-38 293 244
-0.036013465 0.79000002 -0.0055405335 1.8891762e-38 294 244
-0.034628332 0.79000002 -0.0055405335 1.8983958e-38 295 244
-0.03332736 0.792 -0.0055545596 1.9260159e-38 296 244
-0.031938717 0.792 -0.0055545596 1.9260159e-38 297 244
-0.030550079 0.792 -0.0055545596 1.9354125e-38 298 244
-0.029161438 0.792 -0.0055545596 1.9261929e-38 299 244
-0.027772799 0.792 -0.0055545596 1.9354831e-38 300 244
-0.02638416 0.792 -0.0055545596 1.9354831e-38 301 244
-0.024995519 0.792 -0.0055545596 1.9814718e-38 302 244
-0.02360688 0.792 -0.0055545596 1.9906913e-38 303 244
-0.022218239 0.792 -0.0055545596 1.9907269e-38 304 244
-0.020829599 0.792 -0.0055545596 2.00913e-38 305 244
-0.01944096 0.792 -0.0055545596 1.9906916e-38 306 244
-0.018097907 0.79400003 -0.0055685868 1.9906916e-38 307 244
-0.016705759 0.79400003 -0.0055685868 1.990656e-38 308 244
-0.015313613 0.79400003 -0.0055685868 1.9814364e-38 309 244
-0.013956533 0.796 -0.0055826134 1.9539578e-38 310 244
-0.01252932 0.79400003 -0.0055685868 1.9539578e-38 311 244
-0.011137174 0.79400003 -0.0055685868 1.9538869e-38 312 244
-0.0097695729 0.796 -0.0055826134 1.9446674e-38 313 244
-0.0083739199 0.796 -0.0055826134 1.9721465e-38 314 244
-0.0069782664 0.796 -0.0055826134 1.9721465e-38 315 244
-0.0055826134 0.796 -0.0055826134 1.962927e-38 316 244
-0.0041869599 0.796 -0.0055826134 1.9537074e-38 317 244
-0.0027913067 0.796 -0.0055826134 1.9444872e-38 318 244
-0.0013956534 0.796 -0.0055826134 1.926084e-38 319 244
0 0.796 -0.0055826134 1.9444506e-38 320 244
0.0013956534 0.796 -0.0055826134 1.9444506e-38 321 244
0.0027913067 0.796 -0.0055826134 1.9260843e-38 322 244
0.0041869599 0.796 -0.0055826134 1.9168648e-38 323 244
0.0055826134 0.796 -0.0055826134 1.8800238e-38 324 244
0.0069782664 0.796 -0.0055826134 1.8800238e-38 325 244
0.0083739199 0.796 -0.0055826134 1.8708761e-38 326 244
0.0097695729 0.796 -0.0055826134 1.8616207e-38 327 244
0.011165227 0.796 -0.0055826134 1.8523647e-38 328 244
0.01256088 0.796 -0.0055826134 1.8615844e-38 329 244
0.013956533 0.796 -0.0055826134 1.8706609e-38 330 244
0.015352187 0.796 -0.0055826134 1.8430023e-38 331 244
0.016789921 0.79799998 -0.0055966396 1.7970862e-38 332 244
0.018189078 0.79799998 -0.0055966396 1.7878667e-38 333 244
0.019588239 0.79799998 -0.0055966396 1.7511332e-38 334 244
0.020987399 0.79799998 -0.0055966396 1.7511332e-38 335 244
0.022386558 0.79799998 -0.0055966396 1.7786118e-38 336 244
0.02378572 0.79799998 -0.0055966396 1.7878314e-38 337 244
0.025248 0.80000001 -0.0056106667 1.7971572e-38 338 244
0.026650665 0.80000001 -0.0056106667 1.7879017e-38 339 244
0.028053332 0.80000001 -0.0056106667 1.7694976e-38 340 244
0.029456001 0.80000001 -0.0056106667 1.7602779e-38 341 244
0.030858666 0.80000001 -0.0056106667 1.7051407e-38 342 244
0.032341983 0.80199999 -0.0056246929 1.6867016e-38 343 244
0.033748157 0.80199999 -0.0056246929 1.613054e-38 344 244
0.035154331 0.80199999 -0.0056246929 1.6038344e-38 345 244
0.036560506 0.80199999 -0.0056246929 1.4569739e-38 346 244
0.037966676 0.80199999 -0.0056246929 1.604487e-38 347 244
0.03937285 0.80199999 -0.0056246929 1.742894e-38 348 244
0.040677335 0.80000001 -0.0056106667 1.8627124e-38 349 244
0.04208 0.80000001 -0.0056106667 1.9362174e-38 350 244
-0.042776071 0.787 -0.0068993662 1.9169097e-38 289 245
-0.041291002 0.78500003 -0.0068818335 1.8985408e-38 290 245
-0.040118016 0.78899997 -0.0069168997 1.8800658e-38 291 245
-0.038734637 0.78899997 -0.0069168997 1.8891748e-38 292 245
-0.037351258 0.78899997 -0.0069168997 1.8799194e-38 293 245
-0.035967879 0.78899997 -0.0069168997 1.8892446e-38 294 245
-0.034584496 0.78899997 -0.0069168997 1.9261229e-38 295 245
-0.033243202 0.79000002 -0.0069256667 1.9537071e-38 296 245
-0.031858064 0.79000002 -0.0069256667 1.9721821e-38 297 245
-0.030472934 0.79000002 -0.0069256667 1.9722522e-38 298 245
-0.029087799 0.79000002 -0.0069256667 1.9814718e-38 299 245
-0.027702667 0.79000002 -0.0069256667 1.9905834e-38 300 245
-0.026317533 0.79000002 -0.0069256667 1.999803e-38 301 245
-0.024932399 0.79000002 -0.0069256667 1.981472e-38 302 245
-0.023547266 0.79000002 -0.0069256667 1.9906916e-38 303 245
-0.022162134 0.79000002 -0.0069256667 1.9722888e-38 304 245
-0.020777 0.79000002 -0.0069256667 1.9815083e-38 305 245
-0.01944096 0.792 -0.0069431998 1.9722537e-38 306 245
-0.018052319 0.792 -0.0069431998 1.9722537e-38 307 245
-0.01666368 0.792 -0.0069431998 1.944632e-38 308 245
-0.01527504 0.792 -0.0069431998 1.944632e-38 309 245
-0.013921468 0.79400003 -0.0069607338 1.9170815e-38 310 245
-0.01252932 0.79400003 -0.0069607338 1.9170815e-38 311 245
-0.011137174 0.79400003 -0.0069607338 1.9170815e-38 312 245
-0.0097450269 0.79400003 -0.0069607338 1.907862e-38 313 245
-0.0083528794 0.79400003 -0.0069607338 1.9262285e-38 314 245
-0.0069607338 0.79400003 -0.0069607338 1.9077894e-38 315 245
-0.0055826134 0.796 -0.0069782664 1.8985701e-38 316 245
-0.0041869599 0.796 -0.0069782664 1.8893505e-38 317 245
-0.0027913067 0.796 -0.0069782664 1.8799882e-38 318 245
-0.0013956534 0.796 -0.0069782664 1.8799882e-38 319 245
0 0.796 -0.0069782664 1.8983903e-38 320 245
0.0013956534 0.796 -0.0069782664 1.8891708e-38 321 245
0.0027913067 0.796 -0.0069782664 1.8615844e-38 322 245
0.0041869599 0.796 -0.0069782664 1.8615844e-38 323 245
0.0055826134 0.796 -0.0069782664 1.815595e-38 324 245
0.0069782664 0.796 -0.0069782664 1.815595e-38 325 245
0.0083739199 0.796 -0.0069782664 1.8247783e-38 326 245
0.0097695729 0.796 -0.0069782664 1.8247783e-38 327 245
0.011165227 0.796 -0.0069782664 1.8062667e-38 328 245
0.01256088 0.796 -0.0069782664 1.8154863e-38 329 245
0.013956533 0.796 -0.0069782664 1.83389e-38 330 245
0.015352187 0.796 -0.0069782664 1.8431095e-38 331 245
0.01674784 0.796 -0.0069782664 1.8339995e-38 332 245
0.018143492 0.796 -0.0069782664 1.8339995e-38 333 245
0.019539146 0.796 -0.0069782664 1.815633e-38 334 245
0.0209348 0.796 -0.0069782664 1.7971937e-38 335 245
0.022386558 0.79799998 -0.0069957995 1.8154528e-38 336 245
0.02378572 0.79799998 -0.0069957995 1.8062332e-38 337 245
0.025184877 0.79799998 -0.0069957995 1.7603506e-38 338 245
0.026584039 0.79799998 -0.0069957995 1.7511311e-38 339 245
0.027983198 0.79799998 -0.0069957995 1.7326921e-38 340 245
0.029382357 0.79799998 -0.0069957995 1.7142171e-38 341 245
0.030781519 0.79799998 -0.0069957995 1.6682995e-38 342 245
0.032261331 0.80000001 -0.007013333 1.6498602e-38 343 245
0.033663999 0.80000001 -0.007013333 1.6038344e-38 344 245
0.035066664 0.80000001 -0.007013333 1.5853953e-38 345 245
0.036469333 0.80000001 -0.007013333 1.4108372e-38 346 245
0.037871998 0.80000001 -0.007013333 1.4200568e-38 347 245
0.039274666 0.80000001 -0.007013333 1.5033626e-38 348 245
0.040677335 0.80000001 -0.007013333 1.6969734e-38 349 245
0.04208 0.80000001 -0.007013333 1.8442388e-38 350 245
0.043482669 0.80000001 -0.007013333 1.8811171e-38 351 245
-0.044155944 0.787 -0.0082792398 1.8983607e-38 288 246
-0.042776071 0.787 -0.0082792398 1.9075803e-38 289 246
-0.041291002 0.78500003 -0.0082582003 1.8892468e-38 290 246
-0.039914634 0.78500003 -0.0082582003 1.8892468e-38 291 246
-0.03853827 0.78500003 -0.0082582003 1.9261229e-38 292 246
-0.03725658 0.787 -0.0082792398 1.9537815e-38 293 246
-0.035876706 0.787 -0.0082792398 1.9263364e-38 294 246
-0.034496833 0.787 -0.0082792398 1.9631787e-38 295 246
-0.033201117 0.78899997 -0.0083002793 2.0092028e-38 296 246
-0.031858064 0.79000002 -0.0083108004 1.9999832e-38 297 246
-0.030434359 0.78899997 -0.0083002793 1.9907279e-38 298 246
-0.02905098 0.78899997 -0.0083002793 1.9815083e-38 299 246
-0.027667599 0.78899997 -0.0083002793 1.999768e-38 300 246
-0.026284218 0.78899997 -0.0083002793 2.0089875e-38 301 246
-0.024900839 0.78899997 -0.0083002793 1.9906563e-38 302 246
-0.023517458 0.78899997 -0.0083002793 1.9814367e-38 303 246
-0.022134079 0.78899997 -0.0083002793 1.9998035e-38 304 246
-0.0207507 0.78899997 -0.0083002793 1.9813285e-38 305 246
-0.019367319 0.78899997 -0.0083002793 1.9629976e-38 306 246
-0.018052319 0.792 -0.0083318399 1.9537422e-38 307 246
-0.016621601 0.79000002 -0.0083108004 1.9444872e-38 308 246
-0.015236467 0.79000002 -0.0083108004 1.926084e-38 309 246
-0.0138864 0.792 -0.0083318399 1.9077168e-38 310 246
-0.012497759 0.792 -0.0083318399 1.9077168e-38 311 246
-0.011109119 0.792 -0.0083318399 1.9076449e-38 312 246
-0.0097204801 0.792 -0.0083318399 1.9076449e-38 313 246
-0.0083318399 0.792 -0.0083318399 1.8708743e-38 314 246
-0.0069431998 0.792 -0.0083318399 1.852435e-38 315 246
-0.0055685868 0.79400003 -0.0083528794 1.8707306e-38 316 246
-0.0041764397 0.79400003 -0.0083528794 1.8523275e-38 317 246
-0.0027842934 0.79400003 -0.0083528794 1.8614042e-38 318 246
-0.0013921467 0.79400003 -0.0083528794 1.8521846e-38 319 246
0 0.79400003 -0.0083528794 1.7878274e-38 320 246
0.0013921467 0.79400003 -0.0083528794 1.7878274e-38 321 246
0.0027842934 0.79400003 -0.0083528794 1.7603132e-38 322 246
0.0041764397 0.79400003 -0.0083528794 1.7603132e-38 323 246
0.0055685868 0.79400003 -0.0083528794 1.7510584e-38 324 246
0.0069607338 0.79400003 -0.0083528794 1.7141802e-38 325 246
0.0083739199 0.796 -0.0083739199 1.7233272e-38 326 246
0.0097695729 0.796 -0.0083739199 1.7233272e-38 327 246
0.011165227 0.796 -0.0083739199 1.6957394e-38 328 246
0.01256088 0.796 -0.0083739199 1.6865199e-38 329 246
0.013956533 0.796 -0.0083739199 1.6682971e-38 330 246
0.015352187 0.796 -0.0083739199 1.6682971e-38 331 246
0.01674784 0.796 -0.0083739199 1.6864861e-38 332 246
0.018143492 0.796 -0.0083739199 1.6957057e-38 333 246
0.019539146 0.796 -0.0083739199 1.6773747e-38 334 246
0.0209348 0.796 -0.0083739199 1.6681552e-38 335 246
0.022386558 0.79799998 -0.0083949603 1.6956338e-38 336 246
0.02378572 0.79799998 -0.0083949603 1.6771947e-38 337 246
0.025184877 0.79799998 -0.0083949603 1.6497155e-38 338 246
0.026584039 0.79799998 -0.0083949603 1.6497155e-38 339 246
0.027983198 0.79799998 -0.0083949603 1.6496802e-38 340 246
0.029382357 0.79799998 -0.0083949603 1.6496802e-38 341 246
0.030781519 0.79799998 -0.0083949603 1.6129095e-38 342 246
0.032261331 0.80000001 -0.0084159998 1.5852867e-38 343 246
0.033579841 0.79799998 -0.0083949603 1.5760669e-38 344 246
0.034978997 0.79799998 -0.0083949603 1.5760669e-38 345 246
0.036469333 0.80000001 -0.0084159998 1.5025634e-38 346 246
0.037871998 0.80000001 -0.0084159998 1.4749408e-38 347 246
0.039274666 0.80000001 -0.0084159998 1.3373716e-38 348 246
0.040677335 0.80000001 -0.0084159998 1.4664455e-38 349 246
0.04208 0.80000001 -0.0084159998 1.5587542e-38 350 246
0.043482669 0.80000001 -0.0084159998 1.7247423e-38 351 246
0.044885334 0.80000001 -0.0084159998 1.9176713e-38 352 246
-0.042667367 0.78500003 -0.0096345674 1.8982859e-38 289 247
-0.0411858 0.78299999 -0.0096100196 1.9168294e-38 290 247
-0.039812941 0.78299999 -0.0096100196 1.9629273e-38 291 247
-0.03853827 0.78500003 -0.0096345674 1.9722537e-38 292 247
-0.037161902 0.78500003 -0.0096345674 1.9814733e-38 293 247
-0.035876706 0.787 -0.0096591124 2.0090944e-38 294 247
-0.034496833 0.787 -0.0096591124 2.01835e-38 295 247
-0.033116959 0.787 -0.0096591124 2.0276049e-38 296 247
-0.031817738 0.78899997 -0.0096836593 2.0183493e-38 297 247
-0.03035721 0.787 -0.0096591124 2.0182424e-38 298 247
-0.02897734 0.787 -0.0096591124 2.0182424e-38 299 247
-0.027597465 0.787 -0.0096591124 2.0089878e-38 300 247
-0.026217593 0.787 -0.0096591124 1.9997682e-38 301 247
-0.024837719 0.787 -0.0096591124 1.972254e-38 302 247
-0.023457846 0.787 -0.0096591124 1.9629986e-38 303 247
-0.022077972 0.787 -0.0096591124 1.9354481e-38 304 247
-0.0206981 0.787 -0.0096591124 1.9262285e-38 305 247
-0.019318225 0.787 -0.0096591124 1.9077894e-38 306 247
-0.018006733 0.79000002 -0.0096959332 1.9077894e-38 307 247
-0.016621601 0.79000002 -0.0096959332 1.8617995e-38 308 247
-0.015236467 0.79000002 -0.0096959332 1.8617995e-38 309 247
-0.013851333 0.79000002 -0.0096959332 1.8433245e-38 310 247
-0.0124662 0.79000002 -0.0096959332 1.8341048e-38 311 247
-0.011081067 0.79000002 -0.0096959332 1.8248486e-38 312 247
-0.0096959332 0.79000002 -0.0096959332 1.8156291e-38 313 247
-0.0083318399 0.792 -0.0097204801 1.8063724e-38 314 247
-0.0069431998 0.792 -0.0097204801 1.7879331e-38 315 247
-0.0055685868 0.79400003 -0.0097450269 1.7786779e-38 316 247
-0.0041764397 0.79400003 -0.0097450269 1.7786779e-38 317 247
-0.0027842934 0.79400003 -0.0097450269 1.7511287e-38 318 247
-0.0013921467 0.79400003 -0.0097450269 1.723506e-38 319 247
0 0.79400003 -0.0097450269 1.7233628e-38 320 247
0.0013921467 0.79400003 -0.0097450269 1.7233628e-38 321 247
0.0027842934 0.79400003 -0.0097450269 1.7049963e-38 322 247
0.0041764397 0.79400003 -0.0097450269 1.6957407e-38 323 247
0.0055685868 0.79400003 -0.0097450269 1.6680827e-38 324 247
0.0069607338 0.79400003 -0.0097450269 1.6588631e-38 325 247
0.0083739199 0.796 -0.0097695729 1.6588985e-38 326 247
0.0097695729 0.796 -0.0097695729 1.6496789e-38 327 247
0.011165227 0.796 -0.0097695729 1.6403887e-38 328 247
0.01256088 0.796 -0.0097695729 1.6496083e-38 329 247
0.013956533 0.796 -0.0097695729 1.576178e-38 330 247
0.015352187 0.796 -0.0097695729 1.5853976e-38 331 247
0.01674784 0.796 -0.0097695729 1.6127335e-38 332 247
0.018143492 0.796 -0.0097695729 1.621989e-38 333 247
0.019539146 0.796 -0.0097695729 1.5944026e-38 334 247
0.0209348 0.796 -0.0097695729 1.6036221e-38 335 247
0.022330454 0.796 -0.0097695729 1.6128039e-38 336 247
0.023726106 0.796 -0.0097695729 1.5851811e-38 337 247
0.025184877 0.79799998 -0.0097941197 1.5760318e-38 338 247
0.026584039 0.79799998 -0.0097941197 1.5760318e-38 339 247
0.027983198 0.79799998 -0.0097941197 1.5760318e-38 340 247
0.029382357 0.79799998 -0.0097941197 1.5760318e-38 341 247
0.030781519 0.79799998 -0.0097941197 1.5484805e-38 342 247
0.032180678 0.79799998 -0.0097941197 1.5392609e-38 343 247
0.033579841 0.79799998 -0.0097941197 1.5301135e-38 344 247
0.034978997 0.79799998 -0.0097941197 1.5301135e-38 345 247
0.036378156 0.79799998 -0.0097941197 1.4750124e-38 346 247
0.03777732 0.79799998 -0.0097941197 1.43817e-38 347 247
0.039274666 0.80000001 -0.0098186666 1.3831413e-38 348 247
0.040575638 0.79799998 -0.0097941197 1.4015805e-38 349 247
0.041974798 0.79799998 -0.0097941197 1.4293525e-38 350 247
0.043482669 0.80000001 -0.0098186666 1.5676459e-38 351 247
0.044773117 0.79799998 -0.0097941197 1.6965811e-38 352 247
0.046172276 0.79799998 -0.0097941197 1.8256549e-38 353 247
-0.045015078 0.778 -0.010912746 1.8983215e-38 287 248
-0.042667367 0.78500003 -0.011010934 1.9444172e-38 289 248
-0.0411858 0.78299999 -0.010982879 1.981437e-38 290 248
-0.039812941 0.78299999 -0.010982879 2.027499e-38 291 248
-0.03853827 0.78500003 -0.011010934 2.0459734e-38 292 248
-0.037161902 0.78500003 -0.011010934 2.0367538e-38 293 248
-0.035785533 0.78500003 -0.011010934 2.0092393e-38 294 248
-0.034409165 0.78500003 -0.011010934 2.0092393e-38 295 248
-0.033032801 0.78500003 -0.011010934 2.0092393e-38 296 248
-0.031656433 0.78500003 -0.011010934 2.0000198e-38 297 248
-0.030280067 0.78500003 -0.011010934 2.0182794e-38 298 248
-0.0289037 0.78500003 -0.011010934 1.9906566e-38 299 248
-0.027457198 0.78299999 -0.010982879 1.9814014e-38 300 248
-0.026084339 0.78299999 -0.010982879 1.9814014e-38 301 248
-0.024711479 0.78299999 -0.010982879 1.9630342e-38 302 248
-0.023398234 0.78500003 -0.011010934 1.9353756e-38 303 248
-0.022021867 0.78500003 -0.011010934 1.9444874e-38 304 248
-0.020645501 0.78500003 -0.011010934 1.9168648e-38 305 248
-0.019269135 0.78500003 -0.011010934 1.9076096e-38 306 248
-0.017983939 0.78899997 -0.011067039 1.89839e-38 307 248
-0.016600559 0.78899997 -0.011067039 1.843288e-38 308 248
-0.015217179 0.78899997 -0.011067039 1.8340685e-38 309 248
-0.013851333 0.79000002 -0.011081067 1.8156291e-38 310 248
-0.0124662 0.79000002 -0.011081067 1.7787508e-38 311 248
-0.011081067 0.79000002 -0.011081067 1.732725e-38 312 248
-0.0096959332 0.79000002 -0.011081067 1.7235055e-38 313 248
-0.0083108004 0.79000002 -0.011081067 1.723433e-38 314 248
-0.0069256667 0.79000002 -0.011081067 1.704994e-38 315 248
-0.0055545596 0.792 -0.011109119 1.7233611e-38 316 248
-0.00416592 0.792 -0.011109119 1.7048861e-38 317 248
-0.0027772798 0.792 -0.011109119 1.6681533e-38 318 248
-0.0013886399 0.792 -0.011109119 1.6681533e-38 319 248
0 0.792 -0.011109119 1.6496789e-38 320 248
0.0013886399 0.792 -0.011109119 1.6312038e-38 321 248
0.0027842934 0.79400003 -0.011137174 1.5944334e-38 322 248
0.00416592 0.792 -0.011109119 1.5852138e-38 323 248
0.0055545596 0.792 -0.011109119 1.5943612e-38 324 248
0.0069607338 0.79400003 -0.011137174 1.5759221e-38 325 248
0.0083528794 0.79400003 -0.011137174 1.5667377e-38 326 248
0.0097695729 0.796 -0.011165227 1.5575182e-38 327 248
0.011165227 0.796 -0.011165227 1.5391867e-38 328 248
0.01256088 0.796 -0.011165227 1.5299671e-38 329 248
0.013956533 0.796 -0.011165227 1.5484432e-38 330 248
0.015352187 0.796 -0.011165227 1.5484432e-38 331 248
0.01674784 0.796 -0.011165227 1.603366e-38 332 248
0.018143492 0.796 -0.011165227 1.603366e-38 333 248
0.019539146 0.796 -0.011165227 1.5942183e-38 334 248
0.0209348 0.796 -0.011165227 1.5942183e-38 335 248
0.022330454 0.796 -0.011165227 1.5851066e-38 336 248
0.023726106 0.796 -0.011165227 1.5666674e-38 337 248
0.025184877 0.79799998 -0.011193279 1.4839435e-38 338 248
0.026584039 0.79799998 -0.011193279 1.5023467e-38 339 248
0.027983198 0.79799998 -0.011193279 1.5207142e-38 340 248
0.029382357 0.79799998 -0.011193279 1.5114946e-38 341 248
0.030781519 0.79799998 -0.011193279 1.4472814e-38 342 248
0.032180678 0.79799998 -0.011193279 1.4565009e-38 343 248
0.033579841 0.79799998 -0.011193279 1.5116018e-38 344 248
0.034978997 0.79799998 -0.011193279 1.5208214e-38 345 248
0.036378156 0.79799998 -0.011193279 1.4657561e-38 346 248
0.03777732 0.79799998 -0.011193279 1.4657561e-38 347 248
0.039176479 0.79799998 -0.011193279 1.4566458e-38 348 248
0.040575638 0.79799998 -0.011193279 1.4659013e-38 349 248
0.041974798 0.79799998 -0.011193279 1.4750871e-38 350 248
0.043373957 0.79799998 -0.011193279 1.4658675e-38 351 248
0.044773117 0.79799998 -0.011193279 1.4293527e-38 352 248
0.046172276 0.79799998 -0.011193279 1.5768657e-38 353 248
0.047571439 0.79799998 -0.011193279 1.6507334e-38 354 248
0.048847865 0.796 -0.011165227 1.7798073e-38 355 248
0.050243519 0.796 -0.011165227 1.8625691e-38 356 248
-0.045015078 0.778 -0.012276839 1.9167941e-38 287 249
-0.043650985 0.778 -0.012276839 1.9812932e-38 288 249
-0.042449951 0.78100002 -0.01232418 1.9997682e-38 289 249
-0.041080598 0.78100002 -0.01232418 1.9815071e-38 290 249
-0.039711244 0.78100002 -0.01232418 2.0091297e-38 291 249
-0.038440078 0.78299999 -0.012355739 2.0275696e-38 292 249
-0.037161902 0.78500003 -0.0123873 2.0367891e-38 293 249
-0.035785533 0.78500003 -0.0123873 2.0091674e-38 294 249
-0.034321502 0.78299999 -0.012355739 2.0091674e-38 295 249
-0.032948639 0.78299999 -0.012355739 1.9999482e-38 296 249
-0.031575777 0.78299999 -0.012355739 1.9907285e-38 297 249
-0.03020292 0.78299999 -0.012355739 1.9814014e-38 298 249
-0.028830061 0.78299999 -0.012355739 1.9721819e-38 299 249
-0.027457198 0.78299999 -0.012355739 1.9353759e-38 300 249
-0.026084339 0.78299999 -0.012355739 1.9353759e-38 301 249
-0.024711479 0.78299999 -0.012355739 1.9261559e-38 302 249
-0.02333862 0.78299999 -0.012355739 1.9077168e-38 303 249
-0.021965759 0.78299999 -0.012355739 1.8800588e-38 304 249
-0.0205929 0.78299999 -0.012355739 1.8708392e-38 305 249
-0.019220039 0.78299999 -0.012355739 1.8615488e-38 306 249
-0.017938353 0.787 -0.01241886 1.8523291e-38 307 249
-0.016600559 0.78899997 -0.012450419 1.7972275e-38 308 249
-0.015217179 0.78899997 -0.012450419 1.7879721e-38 309 249
-0.013833799 0.78899997 -0.012450419 1.7695678e-38 310 249
-0.012450419 0.78899997 -0.012450419 1.723506e-38 311 249
-0.011081067 0.79000002 -0.0124662 1.6774801e-38 312 249
-0.0096959332 0.79000002 -0.0124662 1.659041e-38 313 249
-0.0083108004 0.79000002 -0.0124662 1.6589688e-38 314 249
-0.0069256667 0.79000002 -0.0124662 1.6312741e-38 315 249
-0.0055545596 0.792 -0.012497759 1.6403495e-38 316 249
-0.00416592 0.792 -0.012497759 1.6127268e-38 317 249
-0.0027772798 0.792 -0.012497759 1.5851773e-38 318 249
-0.0013886399 0.792 -0.012497759 1.5759218e-38 319 249
0 0.792 -0.012497759 1.5574828e-38 320 249
0.0013886399 0.792 -0.012497759 1.5113852e-38 321 249
0.0027772798 0.792 -0.012497759 1.4746147e-38 322 249
0.00416592 0.792 -0.012497759 1.4746147e-38 323 249
0.0055545596 0.792 -0.012497759 1.4929812e-38 324 249
0.0069431998 0.792 -0.012497759 1.4561031e-38 325 249
0.0083528794 0.79400003 -0.01252932 1.4285871e-38 326 249
0.0097450269 0.79400003 -0.01252932 1.4101478e-38 327 249
0.011165227 0.796 -0.01256088 1.3917813e-38 328 249
0.01256088 0.796 -0.01256088 1.4101844e-38 329 249
0.013956533 0.796 -0.01256088 1.4285167e-38 330 249
0.015352187 0.796 -0.01256088 1.4285167e-38 331 249
0.01674784 0.796 -0.01256088 1.4101496e-38 332 249
0.018143492 0.796 -0.01256088 1.4285889e-38 333 249
0.019539146 0.796 -0.01256088 1.4010747e-38 334 249
0.0209348 0.796 -0.01256088 1.4010747e-38 335 249
0.022330454 0.796 -0.01256088 1.3827081e-38 336 249
0.02378572 0.79799998 -0.012592439 1.3919277e-38 337 249
0.025184877 0.79799998 -0.012592439 1.3826728e-38 338 249
0.026584039 0.79799998 -0.012592439 1.3918924e-38 339 249
0.027983198 0.79799998 -0.012592439 1.4285907e-38 340 249
0.029308718 0.796 -0.01256088 1.4101517e-38 341 249
0.030704373 0.796 -0.01256088 1.3644135e-38 342 249
0.032180678 0.79799998 -0.012592439 1.373633e-38 343 249
0.033579841 0.79799998 -0.012592439 1.4195507e-38 344 249
0.034978997 0.79799998 -0.012592439 1.4564649e-38 345 249
0.036378156 0.79799998 -0.012592439 1.4014712e-38 346 249
0.03777732 0.79799998 -0.012592439 1.4199104e-38 347 249
0.039176479 0.79799998 -0.012592439 1.4657928e-38 348 249
0.040575638 0.79799998 -0.012592439 1.4750124e-38 349 249
0.041974798 0.79799998 -0.012592439 1.5026343e-38 350 249
0.043373957 0.79799998 -0.012592439 1.4841954e-38 351 249
0.044773117 0.79799998 -0.012592439 1.4383512e-38 352 249
0.046172276 0.79799998 -0.012592439 1.4936686e-38 353 249
0.047452211 0.796 -0.01256088 1.5488828e-38 354 249
0.048847865 0.796 -0.01256088 1.6410783e-38 355 249
0.05011728 0.79400003 -0.01252932 1.7056189e-38 356 249
0.051509425 0.79400003 -0.01252932 1.7794112e-38 357 249
-0.047743265 0.778 -0.013640933 1.9168307e-38 285 250
-0.046379171 0.778 -0.013640933 1.9444874e-38 286 250
-0.045015078 0.778 -0.013640933 1.9629267e-38 287 250
-0.043650985 0.778 -0.013640933 2.0181342e-38 288 250
-0.042395595 0.77999997 -0.013675999 2.0366092e-38 289 250
-0.041027997 0.77999997 -0.013675999 2.0183144e-38 290 250
-0.039660398 0.77999997 -0.013675999 2.027534e-38 291 250
-0.038341891 0.78100002 -0.013693534 2.0275708e-38 292 250
-0.036972538 0.78100002 -0.013693534 2.0275708e-38 293 250
-0.035603184 0.78100002 -0.013693534 1.9999126e-38 294 250
-0.034321502 0.78299999 -0.013728599 1.9906929e-38 295 250
-0.032864477 0.78100002 -0.013693534 1.9815089e-38 296 250
-0.031495128 0.78100002 -0.013693534 1.9630339e-38 297 250
-0.030125774 0.78100002 -0.013693534 1.9446658e-38 298 250
-0.028756421 0.78100002 -0.013693534 1.917007e-38 299 250
-0.027387068 0.78100002 -0.013693534 1.8709815e-38 300 250
-0.026017714 0.78100002 -0.013693534 1.8709815e-38 301 250
-0.024648361 0.78100002 -0.013693534 1.861691e-38 302 250
-0.02333862 0.78299999 -0.013728599 1.8340682e-38 303 250
-0.021965759 0.78299999 -0.013728599 1.8431448e-38 304 250
-0.0205929 0.78299999 -0.013728599 1.8523644e-38 305 250
-0.019220039 0.78299999 -0.013728599 1.8338544e-38 306 250
-0.017892767 0.78500003 -0.013763667 1.8154512e-38 307 250
-0.016600559 0.78899997 -0.013833799 1.7602411e-38 308 250
-0.015217179 0.78899997 -0.013833799 1.7602411e-38 309 250
-0.013833799 0.78899997 -0.013833799 1.7326171e-38 310 250
-0.012450419 0.78899997 -0.013833799 1.6865552e-38 311 250
-0.011067039 0.78899997 -0.013833799 1.6405643e-38 312 250
-0.0096959332 0.79000002 -0.013851333 1.5945025e-38 313 250
-0.0083108004 0.79000002 -0.013851333 1.5668431e-38 314 250
-0.0069256667 0.79000002 -0.013851333 1.529965e-38 315 250
-0.0055545596 0.792 -0.0138864 1.52975e-38 316 250
-0.00416592 0.792 -0.0138864 1.4929078e-38 317 250
-0.0027772798 0.792 -0.0138864 1.4469198e-38 318 250
-0.0013886399 0.792 -0.0138864 1.419297e-38 319 250
0 0.792 -0.0138864 1.4008229e-38 320 250
0.0013886399 0.792 -0.0138864 1.3639448e-38 321 250
0.0027772798 0.792 -0.0138864 1.3639819e-38 322 250
0.0041554002 0.79000002 -0.013851333 1.3639819e-38 323 250
0.0055405335 0.79000002 -0.013851333 1.3546902e-38 324 250
0.0069431998 0.792 -0.0138864 1.336215e-38 325 250
0.0083528794 0.79400003 -0.013921468 1.3087699e-38 326 250
0.0097450269 0.79400003 -0.013921468 1.2810752e-38 327 250
0.011137174 0.79400003 -0.013921468 1.244413e-38 328 250
0.01256088 0.796 -0.013956533 1.2628163e-38 329 250
0.013956533 0.796 -0.013956533 1.2811488e-38 330 250
0.015352187 0.796 -0.013956533 1.2718933e-38 331 250
0.01674784 0.796 -0.013956533 1.2626738e-38 332 250
0.018143492 0.796 -0.013956533 1.2718933e-38 333 250
0.019539146 0.796 -0.013956533 1.2628535e-38 334 250
0.0209348 0.796 -0.013956533 1.2812925e-38 335 250
0.022330454 0.796 -0.013956533 1.2536708e-38 336 250
0.023726106 0.796 -0.013956533 1.2628904e-38 337 250
0.02512176 0.796 -0.013956533 1.2904417e-38 338 250
0.026517414 0.796 -0.013956533 1.2996614e-38 339 250
0.027913066 0.796 -0.013956533 1.2904768e-38 340 250
0.029308718 0.796 -0.013956533 1.2812572e-38 341 250
0.030704373 0.796 -0.013956533 1.2812922e-38 342 250
0.032180678 0.79799998 -0.013991599 1.2997315e-38 343 250
0.033579841 0.79799998 -0.013991599 1.3181712e-38 344 250
0.034978997 0.79799998 -0.013991599 1.3642331e-38 345 250
0.036286984 0.796 -0.013956533 1.3644854e-38 346 250
0.037682641 0.796 -0.013956533 1.3829246e-38 347 250
0.039176479 0.79799998 -0.013991599 1.4656845e-38 348 250
0.040575638 0.79799998 -0.013991599 1.4840876e-38 349 250
0.041974798 0.79799998 -0.013991599 1.4933425e-38 350 250
0.043373957 0.79799998 -0.013991599 1.5117817e-38 351 250
0.044773117 0.79799998 -0.013991599 1.4842678e-38 352 250
0.046172276 0.79799998 -0.013991599 1.4842678e-38 353 250
0.047452211 0.796 -0.013956533 1.5024934e-38 354 250
0.048725132 0.79400003 -0.013921468 1.4840903e-38 355 250
0.05011728 0.79400003 -0.013921468 1.4749814e-38 356 250
0.051509425 0.79400003 -0.013921468 1.548738e-38 357 250
-0.054283198 0.77399999 -0.014927879 1.8983239e-38 280 251
-0.051702294 0.77600002 -0.014966453 1.89832e-38 282 251
-0.050341707 0.77600002 -0.014966453 1.9259787e-38 283 251
-0.048981119 0.77600002 -0.014966453 1.9446674e-38 284 251
-0.047620531 0.77600002 -0.014966453 1.9631424e-38 285 251
-0.046379171 0.778 -0.015005025 1.9814364e-38 286 251
-0.045015078 0.778 -0.015005025 1.9814364e-38 287 251
-0.043650985 0.778 -0.015005025 2.0182777e-38 288 251
-0.042286891 0.778 -0.015005025 2.0274973e-38 289 251
-0.040922798 0.778 -0.015005025 2.0275343e-38 290 251
-0.039558705 0.778 -0.015005025 2.0183147e-38 291 251
-0.038292799 0.77999997 -0.0150436 2.0182794e-38 292 251
-0.036925197 0.77999997 -0.0150436 2.0090597e-38 293 251
-0.035557598 0.77999997 -0.0150436 1.9815086e-38 294 251
-0.034189999 0.77999997 -0.0150436 1.9722891e-38 295 251
-0.032822397 0.77999997 -0.0150436 1.9630692e-38 296 251
-0.031454798 0.77999997 -0.0150436 1.926191e-38 297 251
-0.030087199 0.77999997 -0.0150436 1.9077874e-38 298 251
-0.028756421 0.78100002 -0.015062887 1.8709093e-38 299 251
-0.027387068 0.78100002 -0.015062887 1.8524347e-38 300 251
-0.026017714 0.78100002 -0.015062887 1.8524347e-38 301 251
-0.024648361 0.78100002 -0.015062887 1.8339247e-38 302 251
-0.023279008 0.78100002 -0.015062887 1.8155216e-38 303 251
-0.021909652 0.78100002 -0.015062887 1.806302e-38 304 251
-0.020540299 0.78100002 -0.015062887 1.7878628e-38 305 251
-0.019170946 0.78100002 -0.015062887 1.7786432e-38 306 251
-0.017892767 0.78500003 -0.015140033 1.7786432e-38 307 251
-0.01655848 0.787 -0.015178605 1.7325807e-38 308 251
-0.015178605 0.787 -0.015178605 1.7048861e-38 309 251
-0.013833799 0.78899997 -0.015217179 1.6588236e-38 310 251
-0.012450419 0.78899997 -0.015217179 1.6127618e-38 311 251
-0.011067039 0.78899997 -0.015217179 1.5574798e-38 312 251
-0.0096836593 0.78899997 -0.015217179 1.5113459e-38 313 251
-0.0083002793 0.78899997 -0.015217179 1.4194377e-38 314 251
-0.0069256667 0.79000002 -0.015236467 1.4102181e-38 315 251
-0.0055405335 0.79000002 -0.015236467 1.4284437e-38 316 251
-0.0041554002 0.79000002 -0.015236467 1.4100406e-38 317 251
-0.0027772798 0.792 -0.01527504 1.437486e-38 318 251
-0.0013886399 0.792 -0.01527504 1.4190469e-38 319 251
0 0.792 -0.01527504 1.4006804e-38 320 251
0.0013886399 0.792 -0.01527504 1.3822412e-38 321 251
0.0027772798 0.792 -0.01527504 1.3822778e-38 322 251
0.0041554002 0.79000002 -0.015236467 1.3638747e-38 323 251
0.0055405335 0.79000002 -0.015236467 1.3453995e-38 324 251
0.0069431998 0.792 -0.01527504 1.33618e-38 325 251
0.0083528794 0.79400003 -0.015313613 1.281185e-38 326 251
0.0097450269 0.79400003 -0.015313613 1.2719655e-38 327 251
0.011137174 0.79400003 -0.015313613 1.2627459e-38 328 251
0.01256088 0.796 -0.015352187 1.2627459e-38 329 251
0.013956533 0.796 -0.015352187 1.2994447e-38 330 251
0.015352187 0.796 -0.015352187 1.2902251e-38 331 251
0.01674784 0.796 -0.015352187 1.2626384e-38 332 251
0.018143492 0.796 -0.015352187 1.2626384e-38 333 251
0.019539146 0.796 -0.015352187 1.2627106e-38 334 251
0.0209348 0.796 -0.015352187 1.2627106e-38 335 251
0.022330454 0.796 -0.015352187 1.2443438e-38 336 251
0.023726106 0.796 -0.015352187 1.2443438e-38 337 251
0.02512176 0.796 -0.015352187 1.2626753e-38 338 251
0.026517414 0.796 -0.015352187 1.2718949e-38 339 251
0.027913066 0.796 -0.015352187 1.2443072e-38 340 251
0.029308718 0.796 -0.015352187 1.1797703e-38 341 251
0.030704373 0.796 -0.015352187 1.1706932e-38 342 251
0.032100026 0.796 -0.015352187 1.1799128e-38 343 251
0.033495679 0.796 -0.015352187 1.1798053e-38 344 251
0.03489133 0.796 -0.015352187 1.1798053e-38 345 251
0.036286984 0.796 -0.015352187 1.1798424e-38 346 251
0.037682641 0.796 -0.015352187 1.1982816e-38 347 251
0.039078292 0.796 -0.015352187 1.2536708e-38 348 251
0.040473945 0.796 -0.015352187 1.2813297e-38 349 251
0.041974798 0.79799998 -0.015390759 1.3274629e-38 350 251
0.043373957 0.79799998 -0.015390759 1.3551218e-38 351 251
0.044773117 0.79799998 -0.015390759 1.3918927e-38 352 251
0.046172276 0.79799998 -0.015390759 1.4195153e-38 353 251
0.047452211 0.796 -0.015352187 1.4194435e-38 354 251
0.048725132 0.79400003 -0.015313613 1.428663e-38 355 251
0.05011728 0.79400003 -0.015313613 1.4562158e-38 356 251
0.051379677 0.792 -0.01527504 1.4839103e-38 357 251
0.052635066 0.79000002 -0.015236467 1.4746947e-38 358 251
0.0540202 0.79000002 -0.015236467 1.4746947e-38 359 251
0.055335198 0.78899997 -0.015217179 1.447038e-38 360 251
0.056718577 0.78899997 -0.015217179 1.4285987e-38 361 251
0.05810196 0.78899997 -0.015217179 1.4375669e-38 362 251
-0.055640277 0.77399999 -0.016284959 1.8432234e-38 279 252
-0.054283198 0.77399999 -0.016284959 1.8430392e-38 280 252
-0.052926116 0.77399999 -0.016284959 1.8522587e-38 281 252
-0.051569037 0.77399999 -0.016284959 1.9169001e-38 282 252
-0.050211959 0.77399999 -0.016284959 1.9721816e-38 283 252
-0.048981119 0.77600002 -0.01632704 1.9906913e-38 284 252
-0.047620531 0.77600002 -0.01632704 2.0090944e-38 285 252
-0.046259947 0.77600002 -0.01632704 2.0090581e-38 286 252
-0.044899363 0.77600002 -0.01632704 2.0182777e-38 287 252
-0.043538772 0.77600002 -0.01632704 2.0183144e-38 288 252
-0.042178184 0.77600002 -0.01632704 2.0183144e-38 289 252
-0.0408176 0.77600002 -0.01632704 1.9907285e-38 290 252
-0.039457016 0.77600002 -0.01632704 1.9907285e-38 291 252
-0.038096428 0.77600002 -0.01632704 1.9631421e-38 292 252
-0.036830518 0.778 -0.016369121 1.9539225e-38 293 252
-0.035557598 0.77999997 -0.016411198 1.9447027e-38 294 252
-0.034189999 0.77999997 -0.016411198 1.9262635e-38 295 252
-0.032822397 0.77999997 -0.016411198 1.9078603e-38 296 252
-0.031454798 0.77999997 -0.016411198 1.8801657e-38 297 252
-0.030087199 0.77999997 -0.016411198 1.861691e-38 298 252
-0.028719598 0.77999997 -0.016411198 1.8340682e-38 299 252
-0.027351998 0.77999997 -0.016411198 1.8155584e-38 300 252
-0.025984399 0.77999997 -0.016411198 1.8063389e-38 301 252
-0.024616797 0.77999997 -0.016411198 1.7786806e-38 302 252
-0.023279008 0.78100002 -0.016432239 1.7694609e-38 303 252
-0.021909652 0.78100002 -0.016432239 1.7510568e-38 304 252
-0.020540299 0.78100002 -0.016432239 1.7326177e-38 305 252
-0.019170946 0.78100002 -0.016432239 1.7509122e-38 306 252
-0.017847179 0.78299999 -0.01647432 1.7601319e-38 307 252
-0.01647432 0.78299999 -0.01647432 1.7048496e-38 308 252
-0.015178605 0.787 -0.01655848 1.6587517e-38 309 252
-0.013798732 0.787 -0.01655848 1.6036136e-38 310 252
-0.01241886 0.787 -0.01655848 1.5390767e-38 311 252
-0.011067039 0.78899997 -0.016600559 1.4929091e-38 312 252
-0.0096836593 0.78899997 -0.016600559 1.4652145e-38 313 252
-0.0083002793 0.78899997 -0.016600559 1.4100068e-38 314 252
-0.0069256667 0.79000002 -0.016621601 1.4007873e-38 315 252
-0.0055405335 0.79000002 -0.016621601 1.3823854e-38 316 252
-0.0041554002 0.79000002 -0.016621601 1.3731659e-38 317 252
-0.0027702667 0.79000002 -0.016621601 1.3639115e-38 318 252
-0.0013851334 0.79000002 -0.016621601 1.3639115e-38 319 252
0 0.792 -0.01666368 1.3271769e-38 320 252
0.0013886399 0.792 -0.01666368 1.3271769e-38 321 252
0.0027772798 0.792 -0.01666368 1.2995894e-38 322 252
0.00416592 0.792 -0.01666368 1.2995894e-38 323 252
0.0055545596 0.792 -0.01666368 1.2994812e-38 324 252
0.0069431998 0.792 -0.01666368 1.2994812e-38 325 252
0.0083528794 0.79400003 -0.016705759 1.2535989e-38 326 252
0.0097695729 0.796 -0.01674784 1.2443794e-38 327 252
0.011165227 0.796 -0.01674784 1.2443441e-38 328 252
0.01256088 0.796 -0.01674784 1.2351245e-38 329 252
0.013956533 0.796 -0.01674784 1.2442722e-38 330 252
0.015352187 0.796 -0.01674784 1.2442722e-38 331 252
0.01674784 0.796 -0.01674784 1.2259048e-38 332 252
0.018143492 0.796 -0.01674784 1.2259048e-38 333 252
0.019539146 0.796 -0.01674784 1.207538e-38 334 252
0.0209348 0.796 -0.01674784 1.207538e-38 335 252
0.022330454 0.796 -0.01674784 1.2075383e-38 336 252
0.023726106 0.796 -0.01674784 1.2075383e-38 337 252
0.02512176 0.796 -0.01674784 1.2075027e-38 338 252
0.026517414 0.796 -0.01674784 1.2075027e-38 339 252
0.027913066 0.796 -0.01674784 1.1982465e-38 340 252
0.029308718 0.796 -0.01674784 1.1705878e-38 341 252
0.030704373 0.796 -0.01674784 1.1430364e-38 342 252
0.032100026 0.796 -0.01674784 1.1245972e-38 343 252
0.033495679 0.796 -0.01674784 1.1336364e-38 344 252
0.03489133 0.796 -0.01674784 1.1060136e-38 345 252
0.036286984 0.796 -0.01674784 1.0691724e-38 346 252
0.037682641 0.796 -0.01674784 1.0876114e-38 347 252
0.039078292 0.796 -0.01674784 1.1154152e-38 348 252
0.040473945 0.796 -0.01674784 1.1338185e-38 349 252
0.041869599 0.796 -0.01674784 1.1614053e-38 350 252
0.043373957 0.79799998 -0.016789921 1.2075031e-38 351 252
0.044660907 0.796 -0.01674784 1.2811516e-38 352 252
0.046056557 0.796 -0.01674784 1.3088104e-38 353 252
0.047452211 0.796 -0.01674784 1.3456516e-38 354 252
0.048725132 0.79400003 -0.016705759 1.3640908e-38 355 252
0.05011728 0.79400003 -0.016705759 1.4192286e-38 356 252
0.051379677 0.792 -0.01666368 1.4468873e-38 357 252
0.052635066 0.79000002 -0.016621601 1.4375974e-38 358 252
0.0540202 0.79000002 -0.016621601 1.38228e-38 359 252
0.055335198 0.78899997 -0.016600559 1.3361102e-38 360 252
0.056718577 0.78899997 -0.016600559 1.280793e-38 361 252
0.05810196 0.78899997 -0.016600559 1.2345152e-38 362 252
0.059485335 0.78899997 -0.016600559 1.1607587e-38 363 252
0.060868718 0.78899997 -0.016600559 1.105586e-38 364 252
0.062252093 0.78899997 -0.016600559 1.0963664e-38 365 252
0.063635476 0.78899997 -0.016600559 9.311348e-39 366 252
0.064854041 0.787 -0.01655848 1.0602087e-38 367 252
-0.056923717 0.773 -0.017619247 1.8156345e-38 278 253
-0.055568393 0.773 -0.017619247 1.8248541e-38 279 253
-0.054213066 0.773 -0.017619247 1.8985345e-38 280 253
-0.052926116 0.77399999 -0.01764204 1.9077899e-38 281 253
-0.051569037 0.77399999 -0.01764204 1.9446308e-38 282 253
-0.050211959 0.77399999 -0.01764204 1.9999482e-38 283 253
-0.04885488 0.77399999 -0.01764204 1.9999835e-38 284 253
-0.047497798 0.77399999 -0.01764204 1.9999835e-38 285 253
-0.046140719 0.77399999 -0.01764204 2.01835e-38 286 253
-0.044725779 0.773 -0.017619247 2.01835e-38 287 253
-0.043370452 0.773 -0.017619247 2.009095e-38 288 253
-0.042069476 0.77399999 -0.01764204 2.009095e-38 289 253
-0.040712398 0.77399999 -0.01764204 1.9906566e-38 290 253
-0.039355319 0.77399999 -0.01764204 1.981437e-38 291 253
-0.037949149 0.773 -0.017619247 1.9721816e-38 292 253
-0.036593821 0.773 -0.017619247 1.9445227e-38 293 253
-0.03528408 0.77399999 -0.01764204 1.9445225e-38 294 253
-0.033927001 0.77399999 -0.01764204 1.9076802e-38 295 253
-0.032654081 0.77600002 -0.017687626 1.8341032e-38 296 253
-0.031293493 0.77600002 -0.017687626 1.8156641e-38 297 253
-0.030087199 0.77999997 -0.017778799 1.8339237e-38 298 253
-0.028719598 0.77999997 -0.017778799 1.8154486e-38 299 253
-0.027351998 0.77999997 -0.017778799 1.7970826e-38 300 253
-0.025984399 0.77999997 -0.017778799 1.7878272e-38 301 253
-0.024616797 0.77999997 -0.017778799 1.7418017e-38 302 253
-0.023249198 0.77999997 -0.017778799 1.7233625e-38 303 253
-0.021881599 0.77999997 -0.017778799 1.7416568e-38 304 253
-0.020540299 0.78100002 -0.017801592 1.6863753e-38 305 253
-0.019170946 0.78100002 -0.017801592 1.6403129e-38 306 253
-0.017847179 0.78299999 -0.017847179 1.6126182e-38 307 253
-0.01647432 0.78299999 -0.017847179 1.5482249e-38 308 253
-0.015178605 0.787 -0.017938353 1.5113106e-38 309 253
-0.013798732 0.787 -0.017938353 1.4469539e-38 310 253
-0.01241886 0.787 -0.017938353 1.4284787e-38 311 253
-0.011067039 0.78899997 -0.017983939 1.437592e-38 312 253
-0.0096836593 0.78899997 -0.017983939 1.4468115e-38 313 253
-0.0083002793 0.78899997 -0.017983939 1.400751e-38 314 253
-0.0069256667 0.79000002 -0.018006733 1.400751e-38 315 253
-0.0055405335 0.79000002 -0.018006733 1.391568e-38 316 253
-0.0041554002 0.79000002 -0.018006733 1.3823484e-38 317 253
-0.0027702667 0.79000002 -0.018006733 1.3272478e-38 318 253
