# .PCD v.7 - Point Cloud Data file format
FIELDS x y z rgb imX imY
SIZE 4 4 4 4 4 4
TYPE F F F F F F
COUNT 1 1 1 1 1 1
WIDTH 833
HEIGHT 1
VIEWPOINT 0 0 0 1 0 0 0
POINTS 833
DATA ascii
0.055782299 0.70700002 -0.042146627 7.4659655e-39 365 274
0.057021905 0.70700002 -0.042146627 7.371993e-39 366 274
0.05826151 0.70700002 -0.042146627 7.5567444e-39 367 274
0.059501119 0.70700002 -0.042146627 7.0972334e-39 368 274
0.060740728 0.70700002 -0.042146627 7.5578528e-39 369 274
0.062068 0.708 -0.042206239 6.456208e-39 370 274
-0.095989741 0.71100003 -0.043631699 1.2167242e-38 243 275
-0.094743125 0.71100003 -0.043631699 1.3272473e-38 244 275
-0.093101993 0.708 -0.043447599 1.3365027e-38 245 275
-0.091601141 0.70599997 -0.043324865 1.3365359e-38 246 275
-0.089979313 0.70300001 -0.043140765 1.3365359e-38 247 275
-0.088367991 0.69999999 -0.042956665 1.3549373e-38 248 275
-0.086891696 0.69800001 -0.042833932 1.364157e-38 249 275
-0.085422389 0.69599998 -0.042711195 1.3549378e-38 250 275
-0.083597176 0.69099998 -0.042404365 1.3641573e-38 251 275
-0.082266398 0.69 -0.042342998 1.3548671e-38 252 275
-0.081056595 0.69 -0.042342998 1.3640867e-38 253 275
-0.079615362 0.68800002 -0.042220265 1.364087e-38 254 275
-0.078409068 0.68800002 -0.042220265 1.3733065e-38 255 275
-0.077090554 0.68699998 -0.042158898 1.3918882e-38 256 275
-0.075886011 0.68699998 -0.042158898 1.4287664e-38 257 275
-0.074572764 0.68599999 -0.042097531 1.4656797e-38 258 275
-0.073156074 0.68400002 -0.041974798 1.5117775e-38 259 275
-0.071851604 0.68300003 -0.041913435 1.5853893e-38 260 275
-0.070654072 0.68300003 -0.041913435 1.5853893e-38 261 275
-0.069354847 0.68199998 -0.041852064 1.6038287e-38 262 275
-0.068159081 0.68199998 -0.041852064 1.6315234e-38 263 275
-0.066766933 0.68000001 -0.041729335 1.6498559e-38 264 275
-0.065478235 0.67900002 -0.041667968 1.6590754e-38 265 275
-0.064287722 0.67900002 -0.041667968 1.6682587e-38 266 275
-0.063004278 0.67799997 -0.041606598 1.6866618e-38 267 275
-0.061815511 0.67799997 -0.041606598 1.6958814e-38 268 275
-0.06044792 0.676 -0.041483864 1.7051368e-38 269 275
-0.059175 0.67500001 -0.041422497 1.6960253e-38 270 275
-0.057905588 0.67400002 -0.041361131 1.6960253e-38 271 275
-0.056555521 0.67199999 -0.041238401 1.7236833e-38 272 275
-0.055377278 0.67199999 -0.041238401 1.7144279e-38 273 275
-0.054199036 0.67199999 -0.041238401 1.7511625e-38 274 275
-0.053020798 0.67199999 -0.041238401 1.760382e-38 275 275
-0.051842555 0.67199999 -0.041238401 1.769531e-38 276 275
-0.050664317 0.67199999 -0.041238401 1.769531e-38 277 275
-0.049486078 0.67199999 -0.041238401 1.7695678e-38 278 275
-0.04830784 0.67199999 -0.041238401 1.7787875e-38 279 275
-0.047059465 0.671 -0.041177034 1.7787881e-38 280 275
-0.045882981 0.671 -0.041177034 1.7880077e-38 281 275
-0.044639867 0.67000002 -0.041115668 1.7880424e-38 282 275
-0.043335386 0.66799998 -0.040992931 1.7880424e-38 283 275
-0.042164158 0.66799998 -0.040992931 1.8157007e-38 284 275
-0.040931564 0.667 -0.040931564 1.8341398e-38 285 275
-0.039762091 0.667 -0.040931564 1.8158456e-38 286 275
-0.038592618 0.667 -0.040931564 1.8158456e-38 287 275
-0.037423145 0.667 -0.040931564 1.8249932e-38 288 275
-0.036253672 0.667 -0.040931564 1.8433964e-38 289 275
-0.035084199 0.667 -0.040931564 1.8342847e-38 290 275
-0.033914726 0.667 -0.040931564 1.8342847e-38 291 275
-0.032745253 0.667 -0.040931564 1.8617639e-38 292 275
-0.03157578 0.667 -0.040931564 1.8617639e-38 293 275
-0.030406304 0.667 -0.040931564 1.8801307e-38 294 275
-0.029236831 0.667 -0.040931564 1.8801307e-38 295 275
-0.028025279 0.66600001 -0.040870197 1.8984972e-38 296 275
-0.026857559 0.66600001 -0.040870197 1.9077168e-38 297 275
-0.025728412 0.667 -0.040931564 1.8894209e-38 298 275
-0.024558939 0.667 -0.040931564 1.8894209e-38 299 275
-0.023389466 0.667 -0.040931564 1.8894209e-38 300 275
-0.02218668 0.66600001 -0.040870197 1.8801654e-38 301 275
-0.02101896 0.66600001 -0.040870197 1.8801654e-38 302 275
-0.019851239 0.66600001 -0.040870197 1.8894209e-38 303 275
-0.018683519 0.66600001 -0.040870197 1.8894209e-38 304 275
-0.017515799 0.66600001 -0.040870197 1.8894209e-38 305 275
-0.016348081 0.66600001 -0.040870197 1.8802373e-38 306 275
-0.015134773 0.66399997 -0.040747464 1.8802373e-38 307 275
-0.013949519 0.66299999 -0.040686097 1.8894572e-38 308 275
-0.012787059 0.66299999 -0.040686097 1.8894572e-38 309 275
-0.0116246 0.66299999 -0.040686097 1.8802379e-38 310 275
-0.01044636 0.662 -0.04062473 1.8802379e-38 311 275
-0.009285653 0.662 -0.04062473 1.8802026e-38 312 275
-0.0081249457 0.662 -0.04062473 1.8894221e-38 313 275
-0.0069642398 0.662 -0.04062473 1.8618358e-38 314 275
-0.0058035329 0.662 -0.04062473 1.8710553e-38 315 275
-0.0046428265 0.662 -0.04062473 1.8801673e-38 316 275
-0.0034821199 0.662 -0.04062473 1.8801673e-38 317 275
-0.0023179066 0.66100001 -0.040563367 1.8526888e-38 318 275
-0.0011589533 0.66100001 -0.040563367 1.8526888e-38 319 275
0 0.66100001 -0.040563367 1.8710206e-38 320 275
0.0011589533 0.66100001 -0.040563367 1.8710206e-38 321 275
0.0023179066 0.66100001 -0.040563367 1.8709853e-38 322 275
0.00347686 0.66100001 -0.040563367 1.8617657e-38 323 275
0.0046358132 0.66100001 -0.040563367 1.8434695e-38 324 275
0.0057947668 0.66100001 -0.040563367 1.8250304e-38 325 275
0.0070063197 0.66600001 -0.040870197 1.8526159e-38 326 275
0.0081740404 0.66600001 -0.040870197 1.8526159e-38 327 275
0.0093417596 0.66600001 -0.040870197 1.8250667e-38 328 275
0.01046214 0.66299999 -0.040686097 1.8342862e-38 329 275
0.0116246 0.66299999 -0.040686097 1.8250314e-38 330 275
0.012787059 0.66299999 -0.040686097 1.8250314e-38 331 275
0.013970559 0.66399997 -0.040747464 1.8249585e-38 332 275
0.015134773 0.66399997 -0.040747464 1.8249585e-38 333 275
0.016298985 0.66399997 -0.040747464 1.8065554e-38 334 275
0.017515799 0.66600001 -0.040870197 1.7973357e-38 335 275
0.018683519 0.66600001 -0.040870197 1.7973004e-38 336 275
0.019851239 0.66600001 -0.040870197 1.8065201e-38 337 275
0.020955838 0.66399997 -0.040747464 1.7606026e-38 338 275
0.022120051 0.66399997 -0.040747464 1.7329439e-38 339 275
0.023284266 0.66399997 -0.040747464 1.7329071e-38 340 275
0.024448479 0.66399997 -0.040747464 1.7144678e-38 341 275
0.025612691 0.66399997 -0.040747464 1.7144325e-38 342 275
0.026776904 0.66399997 -0.040747464 1.7420913e-38 343 275
0.027941117 0.66399997 -0.040747464 1.7145789e-38 344 275
0.02910533 0.66399997 -0.040747464 1.7237985e-38 345 275
0.030269546 0.66399997 -0.040747464 1.7146532e-38 346 275
0.046505414 0.69800001 -0.042833932 1.797635e-38 358 275
0.047729239 0.69800001 -0.042833932 1.7146589e-38 359 275
0.048953064 0.69800001 -0.042833932 1.4195938e-38 360 275
0.050392549 0.70099998 -0.043018032 1.3181785e-38 361 275
0.051621638 0.70099998 -0.043018032 1.2902639e-38 362 275
0.053001512 0.70300001 -0.043140765 1.2442021e-38 363 275
0.054311249 0.704 -0.043202132 1.1336392e-38 364 275
0.055545598 0.704 -0.043202132 1.1244197e-38 365 275
0.056941248 0.70599997 -0.043324865 1.1150223e-38 366 275
0.058179103 0.70599997 -0.043324865 1.0873635e-38 367 275
0.059501119 0.70700002 -0.043386232 1.0412673e-38 368 275
0.060740728 0.70700002 -0.043386232 1.0228282e-38 369 275
-0.095989741 0.71100003 -0.044878319 1.1707365e-38 243 276
-0.094743125 0.71100003 -0.044878319 1.2536002e-38 244 276
-0.093101993 0.708 -0.044688959 1.2720752e-38 245 276
-0.091601141 0.70599997 -0.044562716 1.3365362e-38 246 276
-0.090107299 0.704 -0.044436477 1.3457558e-38 247 276
-0.088367991 0.69999999 -0.044183996 1.3458258e-38 248 276
-0.086891696 0.69800001 -0.04405776 1.3366061e-38 249 276
-0.085422389 0.69599998 -0.043931518 1.364157e-38 250 276
-0.083960123 0.69400001 -0.043805279 1.3549373e-38 251 276
-0.082385622 0.69099998 -0.043615919 1.3548655e-38 252 276
-0.081056595 0.69 -0.043552797 1.3548655e-38 253 276
-0.079615362 0.68800002 -0.043426562 1.3640857e-38 254 276
-0.078409068 0.68800002 -0.043426562 1.3824888e-38 255 276
-0.077090554 0.68699998 -0.043363437 1.3733421e-38 256 276
-0.075886011 0.68699998 -0.043363437 1.3917813e-38 257 276
-0.074355356 0.68400002 -0.043174081 1.3918879e-38 258 276
-0.073049128 0.68300003 -0.043110959 1.4379857e-38 259 276
-0.071851604 0.68300003 -0.043110959 1.4932295e-38 260 276
-0.070550621 0.68199998 -0.043047838 1.5208523e-38 261 276
-0.069354847 0.68199998 -0.043047838 1.5577668e-38 262 276
-0.067959204 0.68000001 -0.042921599 1.6038287e-38 263 276
-0.066766933 0.68000001 -0.042921599 1.63138e-38 264 276
-0.065478235 0.67900002 -0.042858478 1.6405996e-38 265 276
-0.06419304 0.67799997 -0.042795356 1.6405993e-38 266 276
-0.063004278 0.67799997 -0.042795356 1.6498549e-38 267 276
-0.061633173 0.676 -0.042669121 1.6590745e-38 268 276
-0.06044792 0.676 -0.042669121 1.668294e-38 269 276
-0.059175 0.67500001 -0.042606 1.6866971e-38 270 276
-0.057905588 0.67400002 -0.042542879 1.6866971e-38 271 276
-0.056555521 0.67199999 -0.042416636 1.6775858e-38 272 276
-0.055377278 0.67199999 -0.042416636 1.6775858e-38 273 276
-0.054118387 0.671 -0.042353518 1.69599e-38 274 276
-0.052941896 0.671 -0.042353518 1.69599e-38 275 276
-0.051765412 0.671 -0.042353518 1.7143215e-38 276 276
-0.050588924 0.671 -0.042353518 1.7235411e-38 277 276
-0.049412437 0.671 -0.042353518 1.7418367e-38 278 276
-0.048235953 0.671 -0.042353518 1.7510921e-38 279 276
-0.046989333 0.67000002 -0.042290401 1.7510568e-38 280 276
-0.0458146 0.67000002 -0.042290401 1.7602764e-38 281 276
-0.044506609 0.66799998 -0.042164158 1.7511287e-38 282 276
-0.043335386 0.66799998 -0.042164158 1.7603483e-38 283 276
-0.042101037 0.667 -0.042101037 1.7696385e-38 284 276
-0.040870197 0.66600001 -0.042037919 1.7880777e-38 285 276
-0.039702479 0.66600001 -0.042037919 1.8156288e-38 286 276
-0.03853476 0.66600001 -0.042037919 1.8156288e-38 287 276
-0.037367038 0.66600001 -0.042037919 1.8248486e-38 288 276
-0.03619932 0.66600001 -0.042037919 1.8248486e-38 289 276
-0.035031598 0.66600001 -0.042037919 1.8158089e-38 290 276
-0.03386388 0.66600001 -0.042037919 1.8250286e-38 291 276
-0.03259797 0.66399997 -0.041911677 1.8433601e-38 292 276
-0.031433757 0.66399997 -0.041911677 1.8433601e-38 293 276
-0.030360719 0.66600001 -0.042037919 1.861691e-38 294 276
-0.029192999 0.66600001 -0.042037919 1.8709106e-38 295 276
-0.028025279 0.66600001 -0.042037919 1.8709106e-38 296 276
-0.026857559 0.66600001 -0.042037919 1.880166e-38 297 276
-0.025728412 0.667 -0.042101037 1.8617989e-38 298 276
-0.02452212 0.66600001 -0.042037919 1.8617989e-38 299 276
-0.023354398 0.66600001 -0.042037919 1.8617992e-38 300 276
-0.02218668 0.66600001 -0.042037919 1.8617992e-38 301 276
-0.02101896 0.66600001 -0.042037919 1.8617995e-38 302 276
-0.019851239 0.66600001 -0.042037919 1.8617995e-38 303 276
-0.018627413 0.66399997 -0.041911677 1.8802026e-38 304 276
-0.0174632 0.66399997 -0.041911677 1.8802026e-38 305 276
-0.016298985 0.66399997 -0.041911677 1.8802023e-38 306 276
-0.015134773 0.66399997 -0.041911677 1.8802023e-38 307 276
-0.013949519 0.66299999 -0.041848559 1.8894224e-38 308 276
-0.012767773 0.662 -0.041785441 1.8894224e-38 309 276
-0.011607066 0.662 -0.041785441 1.8801676e-38 310 276
-0.01044636 0.662 -0.041785441 1.8801676e-38 311 276
-0.009285653 0.662 -0.041785441 1.8618005e-38 312 276
-0.0081126727 0.66100001 -0.04172232 1.8618005e-38 313 276
-0.00695372 0.66100001 -0.04172232 1.861836e-38 314 276
-0.0057947668 0.66100001 -0.04172232 1.861836e-38 315 276
-0.0046358132 0.66100001 -0.04172232 1.8618358e-38 316 276
-0.00347686 0.66100001 -0.04172232 1.8618358e-38 317 276
-0.0023179066 0.66100001 -0.04172232 1.861836e-38 318 276
-0.0011589533 0.66100001 -0.04172232 1.861836e-38 319 276
0 0.65899998 -0.041596077 1.8618005e-38 320 276
0.0011554466 0.65899998 -0.041596077 1.8618005e-38 321 276
0.0023179066 0.66100001 -0.04172232 1.880132e-38 322 276
0.00347686 0.66100001 -0.04172232 1.8617288e-38 323 276
0.0046358132 0.66100001 -0.04172232 1.8342497e-38 324 276
0.0057947668 0.66100001 -0.04172232 1.8342497e-38 325 276
0.00695372 0.66100001 -0.04172232 1.8250654e-38 326 276
0.0081740404 0.66600001 -0.042037919 1.834285e-38 327 276
0.0093417596 0.66600001 -0.042037919 1.834285e-38 328 276
0.01046214 0.66299999 -0.041848559 1.834285e-38 329 276
0.0116246 0.66299999 -0.041848559 1.8250301e-38 330 276
0.012787059 0.66299999 -0.041848559 1.8250301e-38 331 276
0.013949519 0.66299999 -0.041848559 1.8157749e-38 332 276
0.015111978 0.66299999 -0.041848559 1.8157749e-38 333 276
0.016298985 0.66399997 -0.041911677 1.797444e-38 334 276
0.0174632 0.66399997 -0.041911677 1.7789689e-38 335 276
0.018627413 0.66399997 -0.041911677 1.7973006e-38 336 276
0.019791625 0.66399997 -0.041911677 1.7788975e-38 337 276
0.020955838 0.66399997 -0.041911677 1.7697145e-38 338 276
0.022120051 0.66399997 -0.041911677 1.760495e-38 339 276
0.023284266 0.66399997 -0.041911677 1.732872e-38 340 276
0.024448479 0.66399997 -0.041911677 1.7420916e-38 341 276
0.025612691 0.66399997 -0.041911677 1.7420563e-38 342 276
0.026776904 0.66399997 -0.041911677 1.7420563e-38 343 276
0.027941117 0.66399997 -0.041911677 1.7328011e-38 344 276
0.02910533 0.66399997 -0.041911677 1.7235816e-38 345 276
0.030269546 0.66399997 -0.041911677 1.6960303e-38 346 276
0.031528439 0.66600001 -0.042037919 1.6683717e-38 347 276
0.045281585 0.69800001 -0.04405776 1.6963983e-38 357 276
0.046505414 0.69800001 -0.04405776 1.6039484e-38 358 276
0.047729239 0.69800001 -0.04405776 1.4564354e-38 359 276
0.048953064 0.69800001 -0.04405776 1.3087756e-38 360 276
0.050392549 0.70099998 -0.044247117 1.3087756e-38 361 276
0.051621638 0.70099998 -0.044247117 1.364056e-38 362 276
0.053001512 0.70300001 -0.04437336 1.3363615e-38 363 276
0.054311249 0.704 -0.044436477 1.2444188e-38 364 276
0.055545598 0.704 -0.044436477 1.2904807e-38 365 276
0.056941248 0.70599997 -0.044562716 1.3179251e-38 366 276
0.058179103 0.70599997 -0.044562716 1.2902306e-38 367 276
0.059416957 0.70599997 -0.044562716 1.2349132e-38 368 276
-0.092838995 0.70599997 -0.04580057 1.2535652e-38 245 277
-0.091601141 0.70599997 -0.04580057 1.3089144e-38 246 277
-0.089979313 0.70300001 -0.04560595 1.336573e-38 247 277
-0.088494234 0.70099998 -0.045476202 1.3457905e-38 248 277
-0.086891696 0.69800001 -0.045281585 1.3457905e-38 249 277
-0.085422389 0.69599998 -0.045151837 1.3458261e-38 250 277
-0.083960123 0.69400001 -0.045022093 1.3366065e-38 251 277
-0.082385622 0.69099998 -0.044827472 1.3366065e-38 252 277
-0.081056595 0.69 -0.0447626 1.3273868e-38 253 277
-0.079615362 0.68800002 -0.044632856 1.3365356e-38 254 277
-0.078409068 0.68800002 -0.044632856 1.3365356e-38 255 277
-0.077090554 0.68699998 -0.044567976 1.3457555e-38 256 277
-0.075886011 0.68699998 -0.044567976 1.3641586e-38 257 277
-0.074355356 0.68400002 -0.04437336 1.3733772e-38 258 277
-0.073049128 0.68300003 -0.044308487 1.3918163e-38 259 277
-0.071851604 0.68300003 -0.044308487 1.4194727e-38 260 277
-0.070550621 0.68199998 -0.044243611 1.4471314e-38 261 277
-0.069151461 0.68000001 -0.044113863 1.474718e-38 262 277
-0.067859262 0.67900002 -0.044048995 1.5115961e-38 263 277
-0.066668749 0.67900002 -0.044048995 1.5117054e-38 264 277
-0.065381795 0.67799997 -0.043984115 1.5393639e-38 265 277
-0.06419304 0.67799997 -0.043984115 1.5578035e-38 266 277
-0.063004278 0.67799997 -0.043984115 1.5762426e-38 267 277
-0.061633173 0.676 -0.043854371 1.6130488e-38 268 277
-0.060358498 0.67500001 -0.043789499 1.6222684e-38 269 277
-0.059087332 0.67400002 -0.043724626 1.6498549e-38 270 277
-0.057733759 0.67199999 -0.043594878 1.6590745e-38 271 277
-0.056555521 0.67199999 -0.043594878 1.659111e-38 272 277
-0.055377278 0.67199999 -0.043594878 1.659111e-38 273 277
-0.054118387 0.671 -0.043530006 1.6682953e-38 274 277
-0.052941896 0.671 -0.043530006 1.6590757e-38 275 277
-0.051688269 0.67000002 -0.043465134 1.659076e-38 276 277
-0.050513536 0.67000002 -0.043465134 1.6682956e-38 277 277
-0.049338799 0.67000002 -0.043465134 1.6866265e-38 278 277
-0.048164066 0.67000002 -0.043465134 1.6682234e-38 279 277
-0.046849065 0.66799998 -0.043335386 1.6775154e-38 280 277
-0.045609459 0.667 -0.04327051 1.686735e-38 281 277
-0.044439986 0.667 -0.04327051 1.7326174e-38 282 277
-0.043205637 0.66600001 -0.043205637 1.741837e-38 283 277
-0.042037919 0.66600001 -0.043205637 1.7143931e-38 284 277
-0.040870197 0.66600001 -0.043205637 1.7328322e-38 285 277
-0.039702479 0.66600001 -0.043205637 1.7510916e-38 286 277
-0.03853476 0.66600001 -0.043205637 1.7510916e-38 287 277
-0.037367038 0.66600001 -0.043205637 1.7696029e-38 288 277
-0.03619932 0.66600001 -0.043205637 1.7696029e-38 289 277
-0.0349264 0.66399997 -0.043075889 1.7788584e-38 290 277
-0.033762183 0.66399997 -0.043075889 1.788078e-38 291 277
-0.03259797 0.66399997 -0.043075889 1.7880424e-38 292 277
-0.031433757 0.66399997 -0.043075889 1.815701e-38 293 277
-0.030360719 0.66600001 -0.043205637 1.8431799e-38 294 277
-0.029192999 0.66600001 -0.043205637 1.8431799e-38 295 277
-0.028025279 0.66600001 -0.043205637 1.7973339e-38 296 277
-0.026736578 0.66299999 -0.043011017 1.8158089e-38 297 277
-0.025535546 0.662 -0.042946145 1.8157733e-38 298 277
-0.024374841 0.662 -0.042946145 1.8157733e-38 299 277
-0.023214132 0.662 -0.042946145 1.8433601e-38 300 277
-0.022053426 0.662 -0.042946145 1.8341404e-38 301 277
-0.02086116 0.66100001 -0.042881273 1.8525443e-38 302 277
-0.019702207 0.66100001 -0.042881273 1.8525443e-38 303 277
-0.018543253 0.66100001 -0.042881273 1.8525443e-38 304 277
-0.017436899 0.66299999 -0.043011017 1.8525443e-38 305 277
-0.016274439 0.66299999 -0.043011017 1.8525443e-38 306 277
-0.015066394 0.66100001 -0.042881273 1.8617639e-38 307 277
-0.01390744 0.66100001 -0.042881273 1.8801673e-38 308 277
-0.012748486 0.66100001 -0.042881273 1.8617642e-38 309 277
-0.011589534 0.66100001 -0.042881273 1.8617288e-38 310 277
-0.01043058 0.66100001 -0.042881273 1.8617288e-38 311 277
-0.0092716264 0.66100001 -0.042881273 1.8618005e-38 312 277
-0.0081126727 0.66100001 -0.042881273 1.8618005e-38 313 277
-0.00695372 0.66100001 -0.042881273 1.8342853e-38 314 277
-0.0057947668 0.66100001 -0.042881273 1.8342853e-38 315 277
-0.0046358132 0.66100001 -0.042881273 1.8526162e-38 316 277
-0.00347686 0.66100001 -0.042881273 1.8526162e-38 317 277
-0.0023108933 0.65899998 -0.042751525 1.8525446e-38 318 277
-0.0011554466 0.65899998 -0.042751525 1.8525446e-38 319 277
0 0.65899998 -0.042751525 1.8250301e-38 320 277
0.0011554466 0.65899998 -0.042751525 1.8250301e-38 321 277
0.0023108933 0.65899998 -0.042751525 1.8525446e-38 322 277
0.0034663398 0.65899998 -0.042751525 1.8525446e-38 323 277
0.0046358132 0.66100001 -0.042881273 1.8433969e-38 324 277
0.0057947668 0.66100001 -0.042881273 1.8433969e-38 325 277
0.00695372 0.66100001 -0.042881273 1.8250298e-38 326 277
0.0081126727 0.66100001 -0.042881273 1.8250298e-38 327 277
0.0092716264 0.66100001 -0.042881273 1.8250298e-38 328 277
0.01044636 0.662 -0.042946145 1.8158103e-38 329 277
0.011607066 0.662 -0.042946145 1.8157031e-38 330 277
0.012767773 0.662 -0.042946145 1.8157031e-38 331 277
0.013949519 0.66299999 -0.043011017 1.8064836e-38 332 277
0.015111978 0.66299999 -0.043011017 1.8157033e-38 333 277
0.016274439 0.66299999 -0.043011017 1.806448e-38 334 277
0.0174632 0.66399997 -0.043075889 1.7972285e-38 335 277
0.018627413 0.66399997 -0.043075889 1.7788975e-38 336 277
0.019791625 0.66399997 -0.043075889 1.769678e-38 337 277
0.020955838 0.66399997 -0.043075889 1.7420913e-38 338 277
0.022120051 0.66399997 -0.043075889 1.7236522e-38 339 277
0.023284266 0.66399997 -0.043075889 1.7144325e-38 340 277
0.024448479 0.66399997 -0.043075889 1.7144325e-38 341 277
0.025612691 0.66399997 -0.043075889 1.7236171e-38 342 277
0.026776904 0.66399997 -0.043075889 1.7143974e-38 343 277
0.027941117 0.66399997 -0.043075889 1.6775546e-38 344 277
0.02910533 0.66399997 -0.043075889 1.6406404e-38 345 277
0.030360719 0.66600001 -0.043205637 1.6129076e-38 346 277
0.031528439 0.66600001 -0.043205637 1.5483706e-38 347 277
0.03299072 0.67199999 -0.043594878 1.5207122e-38 348 277
0.045281585 0.69800001 -0.045281585 1.5392667e-38 357 277
0.046505414 0.69800001 -0.045281585 1.4748354e-38 358 277
0.047729239 0.69800001 -0.045281585 1.4471407e-38 359 277
0.049163464 0.70099998 -0.045476202 1.3918223e-38 360 277
0.050392549 0.70099998 -0.045476202 1.3641278e-38 361 277
0.051621638 0.70099998 -0.045476202 1.3180668e-38 362 277
0.053001512 0.70300001 -0.04560595 1.0691745e-38 363 277
0.054311249 0.704 -0.045670826 7.6590168e-39 364 277
0.055545598 0.704 -0.045670826 1.0147939e-38 365 277
-0.092575997 0.704 -0.046905171 1.1983932e-38 245 278
-0.091341652 0.704 -0.046905171 1.2445239e-38 246 278
-0.089595325 0.69999999 -0.046638668 1.2814021e-38 247 278
-0.088367991 0.69999999 -0.046638668 1.3457921e-38 248 278
-0.086767212 0.69700003 -0.046438783 1.3365725e-38 249 278
-0.085422389 0.69599998 -0.046372157 1.3366431e-38 250 278
-0.083960123 0.69400001 -0.046238903 1.3274236e-38 251 278
-0.082624078 0.69300002 -0.04617228 1.3365356e-38 252 278
-0.081056595 0.69 -0.045972396 1.3365356e-38 253 278
-0.079846799 0.69 -0.045972396 1.327388e-38 254 278
-0.078409068 0.68800002 -0.045839146 1.327388e-38 255 278
-0.077090554 0.68699998 -0.045772515 1.3273159e-38 256 278
-0.075886011 0.68699998 -0.045772515 1.3273159e-38 257 278
-0.074355356 0.68400002 -0.045572639 1.3365356e-38 258 278
-0.073049128 0.68300003 -0.045506012 1.3457911e-38 259 278
-0.071851604 0.68300003 -0.045506012 1.3551176e-38 260 278
-0.070550621 0.68199998 -0.045439381 1.3551176e-38 261 278
-0.069151461 0.68000001 -0.045306131 1.4009983e-38 262 278
-0.067859262 0.67900002 -0.045239504 1.4286929e-38 263 278
-0.066668749 0.67900002 -0.045239504 1.4379489e-38 264 278
-0.065381795 0.67799997 -0.045172878 1.474827e-38 265 278
-0.06419304 0.67799997 -0.045172878 1.4841195e-38 266 278
-0.062818423 0.676 -0.045039624 1.5209618e-38 267 278
-0.061542001 0.67500001 -0.044972997 1.5577679e-38 268 278
-0.060358498 0.67500001 -0.044972997 1.5854624e-38 269 278
-0.059087332 0.67400002 -0.044906374 1.6405996e-38 270 278
-0.057733759 0.67199999 -0.044773117 1.6405996e-38 271 278
-0.056471359 0.671 -0.044706494 1.6222328e-38 272 278
-0.055294871 0.671 -0.044706494 1.6314884e-38 273 278
-0.054037735 0.67000002 -0.044639867 1.6497492e-38 274 278
-0.052863002 0.67000002 -0.044639867 1.6405297e-38 275 278
-0.051688269 0.67000002 -0.044639867 1.6313827e-38 276 278
-0.050362743 0.66799998 -0.044506609 1.6313827e-38 277 278
-0.04919152 0.66799998 -0.044506609 1.649784e-38 278 278
-0.048020288 0.66799998 -0.044506609 1.6405643e-38 279 278
-0.046849065 0.66799998 -0.044506609 1.6498562e-38 280 278
-0.045541082 0.66600001 -0.04437336 1.6590757e-38 281 278
-0.04437336 0.66600001 -0.04437336 1.6682249e-38 282 278
-0.043205637 0.66600001 -0.04437336 1.6774445e-38 283 278
-0.041911677 0.66399997 -0.044240102 1.6683321e-38 284 278
-0.040747464 0.66399997 -0.044240102 1.6775517e-38 285 278
-0.039583251 0.66399997 -0.044240102 1.732616e-38 286 278
-0.038419038 0.66399997 -0.044240102 1.732616e-38 287 278
-0.037254825 0.66399997 -0.044240102 1.7052458e-38 288 278
-0.036090612 0.66399997 -0.044240102 1.7145013e-38 289 278
-0.0349264 0.66399997 -0.044240102 1.7327266e-38 290 278
-0.033711337 0.66299999 -0.044173479 1.741982e-38 291 278
-0.032548878 0.66299999 -0.044173479 1.7511287e-38 292 278
-0.031386416 0.66299999 -0.044173479 1.7603483e-38 293 278
-0.030223956 0.66299999 -0.044173479 1.7787861e-38 294 278
-0.029017664 0.662 -0.044106852 1.7787861e-38 295 278
-0.027856959 0.662 -0.044106852 1.7696034e-38 296 278
-0.026696252 0.662 -0.044106852 1.7880427e-38 297 278
-0.025496973 0.66100001 -0.044040225 1.7697127e-38 298 278
-0.02433802 0.66100001 -0.044040225 1.7697127e-38 299 278
-0.023214132 0.662 -0.044106852 1.7789328e-38 300 278
-0.022053426 0.662 -0.044106852 1.7789328e-38 301 278
-0.020798039 0.65899998 -0.043906972 1.7789691e-38 302 278
-0.019642593 0.65899998 -0.043906972 1.7881888e-38 303 278
-0.018487146 0.65899998 -0.043906972 1.8157387e-38 304 278
-0.017331699 0.65899998 -0.043906972 1.8157387e-38 305 278
-0.016176252 0.65899998 -0.043906972 1.834105e-38 306 278
-0.015020805 0.65899998 -0.043906972 1.8433248e-38 307 278
-0.013865359 0.65899998 -0.043906972 1.8433616e-38 308 278
-0.012709912 0.65899998 -0.043906972 1.8433616e-38 309 278
-0.011554466 0.65899998 -0.043906972 1.8433616e-38 310 278
-0.010399019 0.65899998 -0.043906972 1.8433616e-38 311 278
-0.0092435731 0.65899998 -0.043906972 1.8525812e-38 312 278
-0.0080881258 0.65899998 -0.043906972 1.8525812e-38 313 278
-0.0069326796 0.65899998 -0.043906972 1.8066636e-38 314 278
-0.0057772328 0.65899998 -0.043906972 1.8066636e-38 315 278
-0.0046217865 0.65899998 -0.043906972 1.8066636e-38 316 278
-0.0034663398 0.65899998 -0.043906972 1.797444e-38 317 278
-0.0023108933 0.65899998 -0.043906972 1.8340699e-38 318 278
-0.0011554466 0.65899998 -0.043906972 1.8340699e-38 319 278
0 0.65799999 -0.043840345 1.806591e-38 320 278
0.0011536933 0.65799999 -0.043840345 1.806591e-38 321 278
0.0023108933 0.65899998 -0.043906972 1.8249582e-38 322 278
0.0034663398 0.65899998 -0.043906972 1.8433613e-38 323 278
0.0046217865 0.65899998 -0.043906972 1.8065554e-38 324 278
0.0057772328 0.65899998 -0.043906972 1.8065554e-38 325 278
0.0069326796 0.65899998 -0.043906972 1.7698576e-38 326 278
0.0080881258 0.65899998 -0.043906972 1.7698576e-38 327 278
0.0092435731 0.65899998 -0.043906972 1.7698576e-38 328 278
0.01043058 0.66100001 -0.044040225 1.7606379e-38 329 278
0.011589534 0.66100001 -0.044040225 1.7788619e-38 330 278
0.012709912 0.65899998 -0.043906972 1.7788619e-38 331 278
0.013865359 0.65899998 -0.043906972 1.7696427e-38 332 278
0.015066394 0.66100001 -0.044040225 1.7696427e-38 333 278
0.016249891 0.662 -0.044106852 1.7696424e-38 334 278
0.017436899 0.66299999 -0.044173479 1.7604228e-38 335 278
0.018599359 0.66299999 -0.044173479 1.7604225e-38 336 278
0.019761819 0.66299999 -0.044173479 1.751203e-38 337 278
0.020924279 0.66299999 -0.044173479 1.7052854e-38 338 278
0.02208674 0.66299999 -0.044173479 1.6776265e-38 339 278
0.0232492 0.66299999 -0.044173479 1.6868108e-38 340 278
0.024411658 0.66299999 -0.044173479 1.6775912e-38 341 278
0.025574118 0.66299999 -0.044173479 1.6868111e-38 342 278
0.026776904 0.66399997 -0.044240102 1.6683361e-38 343 278
0.027941117 0.66399997 -0.044240102 1.6406404e-38 344 278
0.02910533 0.66399997 -0.044240102 1.5761034e-38 345 278
0.030360719 0.66600001 -0.04437336 1.5299318e-38 346 278
0.031528439 0.66600001 -0.04437336 1.4653948e-38 347 278
0.032941625 0.671 -0.044706494 1.4471002e-38 348 278
0.034118112 0.671 -0.044706494 1.4471002e-38 349 278
0.041908171 0.70300001 -0.046838548 1.5946177e-38 354 278
0.042956665 0.69999999 -0.046638668 1.5208612e-38 355 278
0.044183996 0.69999999 -0.046638668 1.4378477e-38 356 278
0.045281585 0.69800001 -0.046505414 1.428628e-38 357 278
0.046505414 0.69800001 -0.046505414 1.4380271e-38 358 278
0.047865998 0.69999999 -0.046638668 1.4656857e-38 359 278
0.049163464 0.70099998 -0.046705291 1.4656157e-38 360 278
0.050392549 0.70099998 -0.046705291 1.4102984e-38 361 278
0.051621638 0.70099998 -0.046705291 1.2166538e-38 362 278
-0.091341652 0.704 -0.048139516 1.2350542e-38 246 279
-0.089595325 0.69999999 -0.047865998 1.2811518e-38 247 279
-0.088115521 0.69800001 -0.047729239 1.327211e-38 248 279
-0.086767212 0.69700003 -0.047660861 1.3364305e-38 249 279
-0.085422389 0.69599998 -0.047592476 1.3457202e-38 250 279
-0.083960123 0.69400001 -0.047455717 1.3365006e-38 251 279
-0.082624078 0.69300002 -0.047387339 1.3365362e-38 252 279
-0.081056595 0.69 -0.047182199 1.3365362e-38 253 279
-0.079846799 0.69 -0.047182199 1.3273159e-38 254 279
-0.078409068 0.68800002 -0.047045439 1.3273159e-38 255 279
-0.077090554 0.68699998 -0.046977058 1.3273515e-38 256 279
-0.075886011 0.68699998 -0.046977058 1.318132e-38 257 279
-0.074572764 0.68599999 -0.046908677 1.3456825e-38 258 279
-0.073049128 0.68300003 -0.04670354 1.3456825e-38 259 279
-0.071851604 0.68300003 -0.04670354 1.3549378e-38 260 279
-0.070550621 0.68199998 -0.046635158 1.3549378e-38 261 279
-0.069151461 0.68000001 -0.046498399 1.3825241e-38 262 279
-0.067859262 0.67900002 -0.046430022 1.4009633e-38 263 279
-0.066570558 0.67799997 -0.046361636 1.3641926e-38 264 279
-0.065381795 0.67799997 -0.046361636 1.3734122e-38 265 279
-0.06419304 0.67799997 -0.046361636 1.4011431e-38 266 279
-0.062818423 0.676 -0.046224877 1.4103628e-38 267 279
-0.061542001 0.67500001 -0.0461565 1.4472406e-38 268 279
-0.060358498 0.67500001 -0.0461565 1.4749353e-38 269 279
-0.059087332 0.67400002 -0.046088122 1.5300725e-38 270 279
-0.057733759 0.67199999 -0.045951359 1.5485116e-38 271 279
-0.056471359 0.671 -0.045882981 1.5576958e-38 272 279
-0.055294871 0.671 -0.045882981 1.576135e-38 273 279
-0.054037735 0.67000002 -0.0458146 1.6127981e-38 274 279
-0.052863002 0.67000002 -0.0458146 1.6127981e-38 275 279
-0.051533967 0.66799998 -0.045677837 1.622018e-38 276 279
-0.050362743 0.66799998 -0.045677837 1.622018e-38 277 279
-0.049117878 0.667 -0.045609459 1.6220533e-38 278 279
-0.047948405 0.667 -0.045609459 1.6312728e-38 279 279
-0.046778932 0.667 -0.045609459 1.6588592e-38 280 279
-0.045541082 0.66600001 -0.045541082 1.6680788e-38 281 279
-0.04437336 0.66600001 -0.045541082 1.6588955e-38 282 279
-0.043205637 0.66600001 -0.045541082 1.6681511e-38 283 279
-0.041911677 0.66399997 -0.045404319 1.6590036e-38 284 279
-0.040747464 0.66399997 -0.045404319 1.649784e-38 285 279
-0.039523639 0.66299999 -0.045335937 1.6958098e-38 286 279
-0.038361177 0.66299999 -0.045335937 1.6958098e-38 287 279
-0.037198719 0.66299999 -0.045335937 1.7051012e-38 288 279
-0.036036257 0.66299999 -0.045335937 1.7051012e-38 289 279
-0.034873798 0.66299999 -0.045335937 1.7326527e-38 290 279
-0.033660494 0.662 -0.04526756 1.7326527e-38 291 279
-0.032499783 0.662 -0.04526756 1.6867703e-38 292 279
-0.031339079 0.662 -0.04526756 1.6867703e-38 293 279
-0.030178372 0.662 -0.04526756 1.6958814e-38 294 279
-0.029017664 0.662 -0.04526756 1.7143565e-38 295 279
-0.027856959 0.662 -0.04526756 1.7326524e-38 296 279
-0.026655925 0.66100001 -0.045199182 1.7510916e-38 297 279
-0.025496973 0.66100001 -0.045199182 1.7235776e-38 298 279
-0.02433802 0.66100001 -0.045199182 1.7235776e-38 299 279
-0.023179067 0.66100001 -0.045199182 1.7327606e-38 300 279
-0.022020113 0.66100001 -0.045199182 1.7327606e-38 301 279
-0.02076648 0.65799999 -0.044994038 1.7235779e-38 302 279
-0.019612785 0.65799999 -0.044994038 1.742017e-38 303 279
-0.018459093 0.65799999 -0.044994038 1.7512014e-38 304 279
-0.017305398 0.65799999 -0.044994038 1.7512014e-38 305 279
-0.016151706 0.65799999 -0.044994038 1.7695682e-38 306 279
-0.015020805 0.65899998 -0.045062415 1.7880074e-38 307 279
-0.013865359 0.65899998 -0.045062415 1.769748e-38 308 279
-0.012709912 0.65899998 -0.045062415 1.7605285e-38 309 279
-0.011554466 0.65899998 -0.045062415 1.7880077e-38 310 279
-0.010399019 0.65899998 -0.045062415 1.7880077e-38 311 279
-0.0092435731 0.65899998 -0.045062415 1.7788244e-38 312 279
-0.0080881258 0.65899998 -0.045062415 1.7972635e-38 313 279
-0.0069326796 0.65899998 -0.045062415 1.7971919e-38 314 279
-0.0057772328 0.65899998 -0.045062415 1.7971919e-38 315 279
-0.0046217865 0.65899998 -0.045062415 1.7697127e-38 316 279
-0.0034663398 0.65899998 -0.045062415 1.7697127e-38 317 279
-0.0023108933 0.65899998 -0.045062415 1.7880793e-38 318 279
-0.0011554466 0.65899998 -0.045062415 1.7880793e-38 319 279
0 0.65799999 -0.044994038 1.7972272e-38 320 279
0.0011536933 0.65799999 -0.044994038 1.7972272e-38 321 279
0.0023108933 0.65899998 -0.045062415 1.7789323e-38 322 279
0.0034663398 0.65899998 -0.045062415 1.7789323e-38 323 279
0.0046217865 0.65899998 -0.045062415 1.7972275e-38 324 279
0.0057772328 0.65899998 -0.045062415 1.7972275e-38 325 279
0.0069326796 0.65899998 -0.045062415 1.769713e-38 326 279
0.0080881258 0.65899998 -0.045062415 1.7604934e-38 327 279
0.0092435731 0.65899998 -0.045062415 1.7787891e-38 328 279
0.010399019 0.65899998 -0.045062415 1.7787891e-38 329 279
0.011554466 0.65899998 -0.045062415 1.7694979e-38 330 279
0.012690626 0.65799999 -0.044994038 1.7602782e-38 331 279
0.01384432 0.65799999 -0.044994038 1.7052126e-38 332 279
0.014998012 0.65799999 -0.044994038 1.6959931e-38 333 279
0.016176252 0.65899998 -0.045062415 1.67759e-38 334 279
0.0173843 0.66100001 -0.045199182 1.67759e-38 335 279
0.018543253 0.66100001 -0.045199182 1.67759e-38 336 279
0.019702207 0.66100001 -0.045199182 1.6959931e-38 337 279
0.02086116 0.66100001 -0.045199182 1.6958856e-38 338 279
0.022053426 0.662 -0.04526756 1.686666e-38 339 279
0.023214132 0.662 -0.04526756 1.6683351e-38 340 279
0.024411658 0.66299999 -0.045335937 1.6683351e-38 341 279
0.025574118 0.66299999 -0.045335937 1.6591521e-38 342 279
0.026776904 0.66399997 -0.045404319 1.6683717e-38 343 279
0.027941117 0.66399997 -0.045404319 1.6499325e-38 344 279
0.02910533 0.66399997 -0.045404319 1.5946152e-38 345 279
0.030360719 0.66600001 -0.045541082 1.5483373e-38 346 279
0.031528439 0.66600001 -0.045541082 1.5207145e-38 347 279
0.032941625 0.671 -0.045882981 1.4564649e-38 348 279
0.034067266 0.67000002 -0.0458146 1.4379899e-38 349 279
0.035241999 0.67000002 -0.0458146 1.4379546e-38 350 279
0.036471087 0.671 -0.045882981 1.4379546e-38 351 279
0.037591465 0.67000002 -0.0458146 1.3738861e-38 352 279
0.038766202 0.67000002 -0.0458146 1.4661178e-38 353 279
0.042956665 0.69999999 -0.047865998 1.5301874e-38 355 279
0.044183996 0.69999999 -0.047865998 1.511748e-38 356 279
0.045281585 0.69800001 -0.047729239 1.4841253e-38 357 279
0.046505414 0.69800001 -0.047729239 1.4657578e-38 358 279
-0.090303674 0.69599998 -0.048812799 1.1707718e-38 246 280
-0.089083351 0.69599998 -0.048812799 1.1615523e-38 247 280
-0.087863036 0.69599998 -0.048812799 1.2076832e-38 248 280
-0.08664272 0.69599998 -0.048812799 1.2445255e-38 249 280
-0.085422389 0.69599998 -0.048812799 1.3089516e-38 250 280
-0.083960123 0.69400001 -0.048672531 1.3089516e-38 251 280
-0.082624078 0.69300002 -0.048602402 1.3273532e-38 252 280
-0.081056595 0.69 -0.048391998 1.30895e-38 253 280
-0.079846799 0.69 -0.048391998 1.308985e-38 254 280
-0.078409068 0.68800002 -0.048251733 1.308985e-38 255 280
-0.077202775 0.68800002 -0.048251733 1.30902e-38 256 280
-0.075886011 0.68699998 -0.048181597 1.2998005e-38 257 280
-0.074572764 0.68599999 -0.048111461 1.3273515e-38 258 280
-0.073049128 0.68300003 -0.047901068 1.3273515e-38 259 280
-0.071851604 0.68300003 -0.047901068 1.3365356e-38 260 280
-0.070550621 0.68199998 -0.047830928 1.3273159e-38 261 280
-0.069049768 0.67900002 -0.047620531 1.327388e-38 262 280
-0.06775932 0.67799997 -0.047550395 1.3366075e-38 263 280
-0.066570558 0.67799997 -0.047550395 1.3273882e-38 264 280
-0.065188929 0.676 -0.047410134 1.3366078e-38 265 280
-0.064003684 0.676 -0.047410134 1.3550469e-38 266 280
-0.062725499 0.67500001 -0.047339998 1.3735219e-38 267 280
-0.061542001 0.67500001 -0.047339998 1.373629e-38 268 280
-0.06026908 0.67400002 -0.047269866 1.3828485e-38 269 280
-0.058911994 0.67199999 -0.047129598 1.4564239e-38 270 280
-0.057647847 0.671 -0.047059465 1.474827e-38 271 280
-0.056471359 0.671 -0.047059465 1.5115977e-38 272 280
-0.055212468 0.67000002 -0.046989333 1.5208173e-38 273 280
-0.054037735 0.67000002 -0.046989333 1.5300003e-38 274 280
-0.052705199 0.66799998 -0.046849065 1.5392199e-38 275 280
-0.051533967 0.66799998 -0.046849065 1.5393283e-38 276 280
-0.050287351 0.667 -0.046778932 1.5485838e-38 277 280
-0.049117878 0.667 -0.046778932 1.5577684e-38 278 280
-0.047948405 0.667 -0.046778932 1.566988e-38 279 280
-0.046778932 0.667 -0.046778932 1.5854274e-38 280 280
-0.045541082 0.66600001 -0.046708796 1.5854274e-38 281 280
-0.04437336 0.66600001 -0.046708796 1.6129785e-38 282 280
-0.043205637 0.66600001 -0.046708796 1.622198e-38 283 280
-0.041911677 0.66399997 -0.046568532 1.6222701e-38 284 280
-0.040686097 0.66299999 -0.046498399 1.6222701e-38 285 280
-0.039523639 0.66299999 -0.046498399 1.6314899e-38 286 280
-0.038361177 0.66299999 -0.046498399 1.6314899e-38 287 280
-0.037198719 0.66299999 -0.046498399 1.6407458e-38 288 280
-0.035981905 0.662 -0.046428263 1.6407458e-38 289 280
-0.034821201 0.662 -0.046428263 1.640746e-38 290 280
-0.033660494 0.662 -0.046428263 1.640746e-38 291 280
-0.032499783 0.662 -0.046428263 1.6407463e-38 292 280
-0.031339079 0.662 -0.046428263 1.6499659e-38 293 280
-0.030178372 0.662 -0.046428263 1.6682618e-38 294 280
-0.028973831 0.66100001 -0.046358135 1.6774815e-38 295 280
-0.02781488 0.66100001 -0.046358135 1.6774801e-38 296 280
-0.026655925 0.66100001 -0.046358135 1.6774801e-38 297 280
-0.025496973 0.66100001 -0.046358135 1.695811e-38 298 280
-0.02433802 0.66100001 -0.046358135 1.7050665e-38 299 280
-0.023179067 0.66100001 -0.046358135 1.695811e-38 300 280
-0.022020113 0.66100001 -0.046358135 1.6865915e-38 301 280
-0.02076648 0.65799999 -0.04614773 1.6958843e-38 302 280
-0.019612785 0.65799999 -0.04614773 1.723507e-38 303 280
-0.018459093 0.65799999 -0.04614773 1.677484e-38 304 280
-0.0172791 0.65700001 -0.046077598 1.6958871e-38 305 280
-0.01612716 0.65700001 -0.046077598 1.6960281e-38 306 280
-0.014998012 0.65799999 -0.04614773 1.677625e-38 307 280
-0.01384432 0.65799999 -0.04614773 1.7235423e-38 308 280
-0.012690626 0.65799999 -0.04614773 1.7235423e-38 309 280
-0.011554466 0.65899998 -0.046217863 1.7235076e-38 310 280
-0.010399019 0.65899998 -0.046217863 1.7235076e-38 311 280
-0.0092435731 0.65899998 -0.046217863 1.7235779e-38 312 280
-0.0080881258 0.65899998 -0.046217863 1.7143225e-38 313 280
-0.0069326796 0.65899998 -0.046217863 1.7235057e-38 314 280
-0.0057772328 0.65899998 -0.046217863 1.7327253e-38 315 280
-0.0046217865 0.65899998 -0.046217863 1.7235426e-38 316 280
-0.0034610799 0.65799999 -0.04614773 1.7419817e-38 317 280
-0.0023073866 0.65799999 -0.04614773 1.7327985e-38 318 280
-0.00115194 0.65700001 -0.046077598 1.7327985e-38 319 280
0 0.65700001 -0.046077598 1.7143953e-38 320 280
0.0011536933 0.65799999 -0.04614773 1.7327985e-38 321 280
0.0023073866 0.65799999 -0.04614773 1.7144672e-38 322 280
0.0034610799 0.65799999 -0.04614773 1.7144672e-38 323 280
0.0046217865 0.65899998 -0.046217863 1.7327622e-38 324 280
0.0057684663 0.65799999 -0.04614773 1.7235426e-38 325 280
0.0069221598 0.65799999 -0.04614773 1.6776613e-38 326 280
0.0080758529 0.65799999 -0.04614773 1.6869167e-38 327 280
0.0092295464 0.65799999 -0.04614773 1.6959565e-38 328 280
0.01038324 0.65799999 -0.04614773 1.6959565e-38 329 280
0.011519399 0.65700001 -0.046077598 1.686772e-38 330 280
0.01267134 0.65700001 -0.046077598 1.6775165e-38 331 280
0.013823279 0.65700001 -0.046077598 1.6498934e-38 332 280
0.01497522 0.65700001 -0.046077598 1.6498934e-38 333 280
0.016151706 0.65799999 -0.04614773 1.6314912e-38 334 280
0.0173843 0.66100001 -0.046358135 1.6407107e-38 335 280
0.018543253 0.66100001 -0.046358135 1.5947228e-38 336 280
0.019702207 0.66100001 -0.046358135 1.5947228e-38 337 280
0.02086116 0.66100001 -0.046358135 1.6223094e-38 338 280
0.022020113 0.66100001 -0.046358135 1.6038344e-38 339 280
0.023214132 0.662 -0.046428263 1.6130543e-38 340 280
0.024374841 0.662 -0.046428263 1.6130543e-38 341 280
0.025535546 0.662 -0.046428263 1.5947963e-38 342 280
0.026736578 0.66299999 -0.046498399 1.5947963e-38 343 280
0.027899038 0.66299999 -0.046498399 1.5763928e-38 344 280
0.029061496 0.66299999 -0.046498399 1.5763928e-38 345 280
0.030269546 0.66399997 -0.046568532 1.5486596e-38 346 280
0.031528439 0.66600001 -0.046708796 1.5118173e-38 347 280
0.032696161 0.66600001 -0.046708796 1.5025972e-38 348 280
0.033965573 0.66799998 -0.046849065 1.4933775e-38 349 280
0.035136797 0.66799998 -0.046849065 1.4749405e-38 350 280
0.036471087 0.671 -0.047059465 1.4749405e-38 351 280
0.037591465 0.67000002 -0.046989333 1.4657578e-38 352 280
0.038766202 0.67000002 -0.046989333 1.5118915e-38 353 280
0.039940935 0.67000002 -0.046989333 1.5119279e-38 354 280
0.041177034 0.671 -0.047059465 1.5119279e-38 355 280
0.045281585 0.69800001 -0.048953064 1.5025637e-38 357 280
0.046505414 0.69800001 -0.048953064 1.4841959e-38 358 280
-0.089083351 0.69599998 -0.050033119 1.1337857e-38 247 281
-0.087863036 0.69599998 -0.050033119 1.1889213e-38 248 281
-0.08664272 0.69599998 -0.050033119 1.2442387e-38 249 281
-0.085176937 0.69400001 -0.049889345 1.2903696e-38 250 281
-0.083960123 0.69400001 -0.049889345 1.3088088e-38 251 281
-0.082385622 0.69099998 -0.049673684 1.318026e-38 252 281
-0.081174068 0.69099998 -0.049673684 1.318026e-38 253 281
-0.079846799 0.69 -0.049601797 1.3180966e-38 254 281
-0.078636996 0.69 -0.049601797 1.3273162e-38 255 281
-0.077202775 0.68800002 -0.049458027 1.3273512e-38 256 281
-0.075886011 0.68699998 -0.049386136 1.3273512e-38 257 281
-0.074681476 0.68699998 -0.049386136 1.3457181e-38 258 281
-0.073156074 0.68400002 -0.049170479 1.3457181e-38 259 281
-0.071851604 0.68300003 -0.049098592 1.3457181e-38 260 281
-0.070550621 0.68199998 -0.049026705 1.3457181e-38 261 281
-0.069049768 0.67900002 -0.048811045 1.3273863e-38 262 281
-0.06775932 0.67799997 -0.048739154 1.3273863e-38 263 281
-0.066570558 0.67799997 -0.048739154 1.3456459e-38 264 281
-0.065188929 0.676 -0.048595384 1.364085e-38 265 281
-0.064003684 0.676 -0.048595384 1.3456474e-38 266 281
-0.062725499 0.67500001 -0.048523501 1.3733421e-38 267 281
-0.061450824 0.67400002 -0.048451614 1.3274959e-38 268 281
-0.06026908 0.67400002 -0.048451614 1.3367513e-38 269 281
-0.058911994 0.67199999 -0.04830784 1.3367863e-38 270 281
-0.057647847 0.671 -0.048235953 1.3367863e-38 271 281
-0.056471359 0.671 -0.048235953 1.4101828e-38 272 281
-0.055212468 0.67000002 -0.048164066 1.4194024e-38 273 281
-0.053876422 0.66799998 -0.048020288 1.4285494e-38 274 281
-0.052705199 0.66799998 -0.048020288 1.4285494e-38 275 281
-0.051533967 0.66799998 -0.048020288 1.3919605e-38 276 281
-0.050287351 0.667 -0.047948405 1.4196192e-38 277 281
-0.049117878 0.667 -0.047948405 1.4473151e-38 278 281
-0.047948405 0.667 -0.047948405 1.4934128e-38 279 281
-0.046778932 0.667 -0.047948405 1.6035432e-38 280 281
-0.045541082 0.66600001 -0.047876518 1.6127987e-38 281 281
-0.04437336 0.66600001 -0.047876518 1.6036865e-38 282 281
-0.043205637 0.66600001 -0.047876518 1.631345e-38 283 281
-0.041911677 0.66399997 -0.047732744 1.63138e-38 284 281
-0.040686097 0.66299999 -0.047660857 1.63138e-38 285 281
-0.039523639 0.66299999 -0.047660857 1.6405996e-38 286 281
-0.038303319 0.662 -0.047588971 1.6405996e-38 287 281
-0.037142612 0.662 -0.047588971 1.6223054e-38 288 281
-0.035981905 0.662 -0.047588971 1.6315249e-38 289 281
-0.034821201 0.662 -0.047588971 1.6590038e-38 290 281
-0.033660494 0.662 -0.047588971 1.6497843e-38 291 281
-0.032499783 0.662 -0.047588971 1.649784e-38 292 281
-0.031291738 0.66100001 -0.047517084 1.6590036e-38 293 281
-0.030132787 0.66100001 -0.047517084 1.6590038e-38 294 281
-0.028973831 0.66100001 -0.047517084 1.6590038e-38 295 281
-0.02781488 0.66100001 -0.047517084 1.6773351e-38 296 281
-0.026655925 0.66100001 -0.047517084 1.6773351e-38 297 281
-0.025496973 0.66100001 -0.047517084 1.6590041e-38 298 281
-0.02433802 0.66100001 -0.047517084 1.6590041e-38 299 281
-0.023179067 0.66100001 -0.047517084 1.6589685e-38 300 281
-0.021953486 0.65899998 -0.04737331 1.6589685e-38 301 281
-0.020734919 0.65700001 -0.04722954 1.6773e-38 302 281
-0.019582979 0.65700001 -0.04722954 1.6957392e-38 303 281
-0.01843104 0.65700001 -0.04722954 1.6682252e-38 304 281
-0.0172791 0.65700001 -0.04722954 1.6590057e-38 305 281
-0.01612716 0.65700001 -0.04722954 1.6590054e-38 306 281
-0.014998012 0.65799999 -0.047301427 1.6590054e-38 307 281
-0.013823279 0.65700001 -0.04722954 1.6681884e-38 308 281
-0.01267134 0.65700001 -0.04722954 1.6865915e-38 309 281
-0.011536933 0.65799999 -0.047301427 1.6222345e-38 310 281
-0.01038324 0.65799999 -0.047301427 1.6222345e-38 311 281
-0.0092295464 0.65799999 -0.047301427 1.6590404e-38 312 281
-0.0080758529 0.65799999 -0.047301427 1.6314177e-38 313 281
-0.0069221598 0.65799999 -0.047301427 1.649749e-38 314 281
-0.0057684663 0.65799999 -0.047301427 1.649749e-38 315 281
-0.0046147732 0.65799999 -0.047301427 1.6131228e-38 316 281
-0.0034610799 0.65799999 -0.047301427 1.6315618e-38 317 281
-0.0023073866 0.65799999 -0.047301427 1.6224145e-38 318 281
-0.00115194 0.65700001 -0.04722954 1.613195e-38 319 281
0 0.65700001 -0.04722954 1.6497861e-38 320 281
0.0011536933 0.65799999 -0.047301427 1.6590057e-38 321 281
0.0023073866 0.65799999 -0.047301427 1.6314546e-38 322 281
0.0034610799 0.65799999 -0.047301427 1.6314546e-38 323 281
0.0046147732 0.65799999 -0.047301427 1.631418e-38 324 281
0.0057684663 0.65799999 -0.047301427 1.631418e-38 325 281
0.0069221598 0.65799999 -0.047301427 1.5947203e-38 326 281
0.0080758529 0.65799999 -0.047301427 1.5947203e-38 327 281
0.0092295464 0.65799999 -0.047301427 1.5947205e-38 328 281
0.01036746 0.65700001 -0.04722954 1.585501e-38 329 281
0.011519399 0.65700001 -0.04722954 1.5854284e-38 330 281
0.01267134 0.65700001 -0.04722954 1.5762088e-38 331 281
0.013823279 0.65700001 -0.04722954 1.5578423e-38 332 281
0.01497522 0.65700001 -0.04722954 1.5670977e-38 333 281
0.016151706 0.65799999 -0.047301427 1.6036886e-38 334 281
0.017331699 0.65899998 -0.04737331 1.5944331e-38 335 281
0.018487146 0.65899998 -0.04737331 1.5669545e-38 336 281
0.019642593 0.65899998 -0.04737331 1.5761741e-38 337 281
0.020798039 0.65899998 -0.04737331 1.548588e-38 338 281
0.022020113 0.66100001 -0.047517084 1.5393325e-38 339 281
0.023179067 0.66100001 -0.047517084 1.5577722e-38 340 281
0.02433802 0.66100001 -0.047517084 1.5669918e-38 341 281
0.025535546 0.662 -0.047588971 1.5762483e-38 342 281
0.026696252 0.662 -0.047588971 1.5762483e-38 343 281
0.027856959 0.662 -0.047588971 1.5762486e-38 344 281
0.029061496 0.66299999 -0.047660857 1.5670291e-38 345 281
0.030269546 0.66399997 -0.047732744 1.5394774e-38 346 281
0.031433757 0.66399997 -0.047732744 1.5118186e-38 347 281
0.032696161 0.66600001 -0.047876518 1.4751556e-38 348 281
0.033914726 0.667 -0.047948405 1.4751556e-38 349 281
0.035084199 0.667 -0.047948405 1.5027785e-38 350 281
0.036416732 0.67000002 -0.048164066 1.493559e-38 351 281
0.037591465 0.67000002 -0.048164066 1.5027432e-38 352 281
0.038766202 0.67000002 -0.048164066 1.5212184e-38 353 281
0.039940935 0.67000002 -0.048164066 1.5302944e-38 354 281
0.041115668 0.67000002 -0.048164066 1.5118912e-38 355 281
0.042290401 0.67000002 -0.048164066 1.5026716e-38 356 281
-0.089083351 0.69599998 -0.051253434 1.207759e-38 247 282
-0.087863036 0.69599998 -0.051253434 1.1707718e-38 248 282
-0.08664272 0.69599998 -0.051253434 1.1338576e-38 249 282
-0.085176937 0.69400001 -0.051106159 1.1432181e-38 250 282
-0.083960123 0.69400001 -0.051106159 1.18928e-38 251 282
-0.082385622 0.69099998 -0.050885238 1.2537059e-38 252 282
-0.081174068 0.69099998 -0.050885238 1.2537059e-38 253 282
-0.079846799 0.69 -0.050811596 1.3088062e-38 254 282
-0.078409068 0.68800002 -0.050664321 1.3180616e-38 255 282
-0.077202775 0.68800002 -0.050664321 1.318132e-38 256 282
-0.075996481 0.68800002 -0.050664321 1.318132e-38 257 282
-0.074681476 0.68699998 -0.050590675 1.3273512e-38 258 282
-0.073369987 0.68599999 -0.050517038 1.3273512e-38 259 282
-0.071956798 0.68400002 -0.050369758 1.3273512e-38 260 282
-0.070550621 0.68199998 -0.050222475 1.3273512e-38 261 282
-0.069049768 0.67900002 -0.050001562 1.327315e-38 262 282
-0.06775932 0.67799997 -0.049927916 1.327315e-38 263 282
-0.066570558 0.67799997 -0.049927916 1.327315e-38 264 282
-0.065188929 0.676 -0.049780637 1.3457181e-38 265 282
-0.063909002 0.67500001 -0.049706999 1.3089494e-38 266 282
-0.062725499 0.67500001 -0.049706999 1.3273885e-38 267 282
-0.061450824 0.67400002 -0.049633358 1.299767e-38 268 282
-0.06026908 0.67400002 -0.049633358 1.3089867e-38 269 282
-0.058911994 0.67199999 -0.049486078 1.3365728e-38 270 282
-0.057647847 0.671 -0.049412437 1.30895e-38 271 282
-0.056471359 0.671 -0.049412437 1.3365712e-38 272 282
-0.055294871 0.671 -0.049412437 1.3273515e-38 273 282
-0.053876422 0.66799998 -0.04919152 1.3364263e-38 274 282
-0.052705199 0.66799998 -0.04919152 1.281109e-38 275 282
-0.051456824 0.667 -0.049117878 1.2260086e-38 276 282
-0.050287351 0.667 -0.049117878 1.2905456e-38 277 282
-0.049117878 0.667 -0.049117878 1.3367172e-38 278 282
-0.047876518 0.66600001 -0.04904424 1.4012542e-38 279 282
