# .PCD v.7 - Point Cloud Data file format
FIELDS x y z rgb imX imY
SIZE 4 4 4 4 4 4
TYPE F F F F F F
COUNT 1 1 1 1 1 1
WIDTH 836
HEIGHT 1
VIEWPOINT 0 0 0 1 0 0 0
POINTS 836
DATA ascii
0.069495119 0.73400003 -0.020591147 1.3273557e-38 374 256
0.070782073 0.73400003 -0.020591147 1.3365753e-38 375 256
0.072069012 0.73400003 -0.020591147 1.336575e-38 376 256
0.073256016 0.73299998 -0.020563092 1.336575e-38 377 256
0.074541211 0.73299998 -0.020563092 1.3550137e-38 378 256
0.075826399 0.73299998 -0.020563092 1.3550137e-38 379 256
0.077111594 0.73299998 -0.020563092 1.3550134e-38 380 256
0.07839679 0.73299998 -0.020563092 1.3550134e-38 381 256
0.079681985 0.73299998 -0.020563092 1.3642687e-38 382 256
0.080746263 0.73100001 -0.020506985 1.3642687e-38 383 256
0.082027942 0.73100001 -0.020506985 1.3734869e-38 384 256
0.083309628 0.73100001 -0.020506985 1.4011097e-38 385 256
0.084591322 0.73100001 -0.020506985 1.4012529e-38 386 256
0.085873008 0.73100001 -0.020506985 1.4380953e-38 387 256
0.087154694 0.73100001 -0.020506985 1.4841211e-38 388 256
0.088436373 0.73100001 -0.020506985 1.4749015e-38 389 256
0.089718066 0.73100001 -0.020506985 1.4105797e-38 390 256
0.090999752 0.73100001 -0.020506985 1.3921047e-38 391 256
0.092533909 0.73299998 -0.020563092 1.3553712e-38 392 256
0.093563125 0.73100001 -0.020506985 1.3277126e-38 393 256
0.094844811 0.73100001 -0.020506985 1.2540656e-38 394 256
0.095994994 0.73000002 -0.020478934 1.2264069e-38 395 256
0.097274937 0.73000002 -0.020478934 1.2822345e-38 396 256
0.098284848 0.72799999 -0.020422826 1.5587854e-38 397 256
0.099561274 0.72799999 -0.020422826 1.7518249e-38 398 256
-0.08129856 0.736 -0.021937706 1.5489537e-38 257 257
-0.080008104 0.736 -0.021937706 1.6774114e-38 258 257
-0.078717649 0.736 -0.021937706 1.6405332e-38 259 257
-0.077427194 0.736 -0.021937706 1.6403167e-38 260 257
-0.07592985 0.73400003 -0.021878093 1.6864145e-38 261 257
-0.074642912 0.73400003 -0.021878093 1.6499673e-38 262 257
-0.073355958 0.73400003 -0.021878093 1.6868814e-38 263 257
-0.071970828 0.73299998 -0.021848286 1.7236875e-38 264 257
-0.070685625 0.73299998 -0.021848286 1.7421266e-38 265 257
-0.069400437 0.73299998 -0.021848286 1.7512383e-38 266 257
-0.068115242 0.73299998 -0.021848286 1.732799e-38 267 257
-0.066830046 0.73299998 -0.021848286 1.6959931e-38 268 257
-0.065544859 0.73299998 -0.021848286 1.6683345e-38 269 257
-0.064347334 0.73400003 -0.021878093 1.6498953e-38 270 257
-0.063060381 0.73400003 -0.021878093 1.6314561e-38 271 257
-0.061773442 0.73400003 -0.021878093 1.6130527e-38 272 257
-0.060486492 0.73400003 -0.021878093 1.5669189e-38 273 257
-0.059199546 0.73400003 -0.021878093 1.520857e-38 274 257
-0.057912603 0.73400003 -0.021878093 1.4102224e-38 275 257
-0.056625653 0.73400003 -0.021878093 1.3642317e-38 276 257
-0.055338707 0.73400003 -0.021878093 1.3642317e-38 277 257
-0.054051761 0.73400003 -0.021878093 1.3551215e-38 278 257
-0.052908584 0.736 -0.021937706 1.4104389e-38 279 257
-0.051618133 0.736 -0.021937706 1.3921094e-38 280 257
-0.050327681 0.736 -0.021937706 1.3921094e-38 281 257
-0.049170475 0.73799998 -0.021997318 1.3829262e-38 282 257
-0.047941394 0.73900002 -0.022027127 1.3829262e-38 283 257
-0.046771921 0.741 -0.02208674 1.4011858e-38 284 257
-0.045472696 0.741 -0.02208674 1.3827825e-38 285 257
-0.044233091 0.74199998 -0.022116546 1.3643797e-38 286 257
-0.042932119 0.74199998 -0.022116546 1.3643797e-38 287 257
-0.041631144 0.74199998 -0.022116546 1.355088e-38 288 257
-0.040330172 0.74199998 -0.022116546 1.3366489e-38 289 257
-0.039134398 0.74400002 -0.022176161 1.3273204e-38 290 257
-0.037829921 0.74400002 -0.022176161 1.2811866e-38 291 257
-0.036623627 0.74599999 -0.022235774 1.2441995e-38 292 257
-0.035362978 0.74699998 -0.022265578 1.2349799e-38 293 257
-0.034053236 0.74699998 -0.022265578 1.2721105e-38 294 257
-0.032831166 0.74900001 -0.022325192 1.2905498e-38 295 257
-0.031517919 0.74900001 -0.022325192 1.2904792e-38 296 257
-0.030244999 0.75 -0.022355 1.3181377e-38 297 257
-0.028929999 0.75 -0.022355 1.3181371e-38 298 257
-0.027615 0.75 -0.022355 1.3181371e-38 299 257
-0.02637013 0.75199997 -0.022414612 1.2998412e-38 300 257
-0.025051624 0.75199997 -0.022414612 1.2906217e-38 301 257
-0.02379624 0.75400001 -0.022474226 1.2906217e-38 302 257
-0.022474226 0.75400001 -0.022474226 1.2906217e-38 303 257
-0.021180267 0.755 -0.022504034 1.2905498e-38 304 257
-0.0198565 0.755 -0.022504034 1.2905498e-38 305 257
-0.018508185 0.75400001 -0.022474226 1.2813665e-38 306 257
-0.017186172 0.75400001 -0.022474226 1.2813665e-38 307 257
-0.01586416 0.75400001 -0.022474226 1.272147e-38 308 257
-0.014542146 0.75400001 -0.022474226 1.272147e-38 309 257
-0.013220133 0.75400001 -0.022474226 1.2445957e-38 310 257
-0.01189812 0.75400001 -0.022474226 1.2353762e-38 311 257
-0.010590133 0.755 -0.022504034 1.244596e-38 312 257
-0.0092663663 0.755 -0.022504034 1.2353765e-38 313 257
-0.0079425992 0.755 -0.022504034 1.2444888e-38 314 257
-0.0066188332 0.755 -0.022504034 1.2444888e-38 315 257
-0.0053090933 0.75700003 -0.022563647 1.2352693e-38 316 257
-0.0039818203 0.75700003 -0.022563647 1.2352693e-38 317 257
-0.0026545466 0.75700003 -0.022563647 1.2443453e-38 318 257
-0.0013272733 0.75700003 -0.022563647 1.2536008e-38 319 257
0 0.755 -0.022504034 1.2535289e-38 320 257
0.0013237667 0.755 -0.022504034 1.2535289e-38 321 257
0.0026545466 0.75700003 -0.022563647 1.2260494e-38 322 257
0.0039712996 0.755 -0.022504034 1.2260494e-38 323 257
0.0052950666 0.755 -0.022504034 1.226121e-38 324 257
0.0066188332 0.755 -0.022504034 1.2077179e-38 325 257
0.0079425992 0.755 -0.022504034 1.2261566e-38 326 257
0.0092663663 0.755 -0.022504034 1.2261566e-38 327 257
0.010590133 0.755 -0.022504034 1.2261213e-38 328 257
0.011913899 0.755 -0.022504034 1.2353409e-38 329 257
0.013237666 0.755 -0.022504034 1.2628203e-38 330 257
0.014561433 0.755 -0.022504034 1.2720399e-38 331 257
0.015885198 0.755 -0.022504034 1.2811516e-38 332 257
0.017208965 0.755 -0.022504034 1.2903711e-38 333 257
0.018508185 0.75400001 -0.022474226 1.2720396e-38 334 257
0.019830201 0.75400001 -0.022474226 1.2812952e-38 335 257
0.021152213 0.75400001 -0.022474226 1.2721472e-38 336 257
0.022474226 0.75400001 -0.022474226 1.2721472e-38 337 257
0.02379624 0.75400001 -0.022474226 1.2721472e-38 338 257
0.025118252 0.75400001 -0.022474226 1.2721472e-38 339 257
0.026440267 0.75400001 -0.022474226 1.2721825e-38 340 257
0.027688639 0.75199997 -0.022414612 1.2721825e-38 341 257
0.029007144 0.75199997 -0.022414612 1.2721823e-38 342 257
0.030325651 0.75199997 -0.022414612 1.2721823e-38 343 257
0.03156 0.75 -0.022355 1.2904412e-38 344 257
0.032874998 0.75 -0.022355 1.2904412e-38 345 257
0.034189999 0.75 -0.022355 1.2812216e-38 346 257
0.03545766 0.74900001 -0.022325192 1.2628185e-38 347 257
0.036672719 0.74699998 -0.022265578 1.2719304e-38 348 257
0.03798246 0.74699998 -0.022265578 1.2350522e-38 349 257
0.039239597 0.74599999 -0.022235774 1.2072863e-38 350 257
0.040547583 0.74599999 -0.022235774 1.1796275e-38 351 257
0.04185557 0.74599999 -0.022235774 1.1427862e-38 352 257
0.043047838 0.74400002 -0.022176161 1.1151635e-38 353 257
0.044352323 0.74400002 -0.022176161 1.0872522e-38 354 257
0.045534063 0.74199998 -0.022116546 1.0227153e-38 355 257
0.046835039 0.74199998 -0.022116546 1.0501568e-38 356 257
0.048136011 0.74199998 -0.022116546 1.0132786e-38 357 257
0.049436983 0.74199998 -0.022116546 9.8576302e-39 358 257
0.050669577 0.741 -0.02208674 9.3962933e-39 359 257
0.051968798 0.741 -0.02208674 9.1204351e-39 360 257
0.053268019 0.741 -0.02208674 8.7516526e-39 361 257
0.054567236 0.741 -0.02208674 7.1868647e-39 362 257
0.055866458 0.741 -0.02208674 6.0805157e-39 363 257
0.057165679 0.741 -0.02208674 5.5284349e-39 364 257
0.0583071 0.73900002 -0.022027127 5.897216e-39 365 257
0.059602812 0.73900002 -0.022027127 5.6260396e-39 366 257
0.061063338 0.741 -0.02208674 7.4703123e-39 367 257
0.062194239 0.73900002 -0.022027127 9.2169888e-39 368 257
0.063489959 0.73900002 -0.022027127 9.8623582e-39 369 257
0.064697996 0.73799998 -0.021997318 1.069391e-38 370 257
0.06563428 0.73400003 -0.021878093 1.152367e-38 371 257
0.066921227 0.73400003 -0.021878093 1.2260507e-38 372 257
0.068208173 0.73400003 -0.021878093 1.2537454e-38 373 257
0.069495119 0.73400003 -0.021878093 1.3180653e-38 374 257
0.070782073 0.73400003 -0.021878093 1.3365403e-38 375 257
0.072069012 0.73400003 -0.021878093 1.327392e-38 376 257
0.073256016 0.73299998 -0.021848286 1.3366475e-38 377 257
0.074541211 0.73299998 -0.021848286 1.3550137e-38 378 257
0.075826399 0.73299998 -0.021848286 1.3550137e-38 379 257
0.077111594 0.73299998 -0.021848286 1.3641964e-38 380 257
0.07839679 0.73299998 -0.021848286 1.3549769e-38 381 257
0.079681985 0.73299998 -0.021848286 1.3549766e-38 382 257
0.080746263 0.73100001 -0.021788673 1.345757e-38 383 257
0.082027942 0.73100001 -0.021788673 1.3457923e-38 384 257
0.083309628 0.73100001 -0.021788673 1.3273532e-38 385 257
0.084591322 0.73100001 -0.021788673 1.3365725e-38 386 257
0.085873008 0.73100001 -0.021788673 1.3550475e-38 387 257
0.087154694 0.73100001 -0.021788673 1.373594e-38 388 257
0.088436373 0.73100001 -0.021788673 1.3828135e-38 389 257
0.089718066 0.73100001 -0.021788673 1.3552973e-38 390 257
0.090999752 0.73100001 -0.021788673 1.3368582e-38 391 257
0.092281438 0.73100001 -0.021788673 1.3000876e-38 392 257
0.093563125 0.73100001 -0.021788673 1.2908321e-38 393 257
0.094715066 0.73000002 -0.021758866 1.2264405e-38 394 257
0.095994994 0.73000002 -0.021758866 1.152684e-38 395 257
0.097008422 0.72799999 -0.021699252 1.0058621e-38 396 257
0.098284848 0.72799999 -0.021699252 1.1810338e-38 397 257
0.099561274 0.72799999 -0.021699252 1.6232915e-38 398 257
-0.082364589 0.73400003 -0.023165042 1.5671032e-38 256 258
-0.08129856 0.736 -0.023228159 1.6039456e-38 257 258
-0.080008104 0.736 -0.023228159 1.6774467e-38 258 258
-0.078717649 0.736 -0.023228159 1.6313489e-38 259 258
-0.077216797 0.73400003 -0.023165042 1.6312768e-38 260 258
-0.075826399 0.73299998 -0.023133477 1.6681549e-38 261 258
-0.074337825 0.73100001 -0.02307036 1.6591868e-38 262 258
-0.073056139 0.73100001 -0.02307036 1.6776618e-38 263 258
-0.071774453 0.73100001 -0.02307036 1.6777337e-38 264 258
-0.070685625 0.73299998 -0.023133477 1.6777337e-38 265 258
-0.069211073 0.73100001 -0.02307036 1.6684064e-38 266 258
-0.067929395 0.73100001 -0.02307036 1.6591868e-38 267 258
-0.066647708 0.73100001 -0.02307036 1.6223089e-38 268 258
-0.065544859 0.73299998 -0.023133477 1.6315643e-38 269 258
-0.064259663 0.73299998 -0.023133477 1.6130174e-38 270 258
-0.062974468 0.73299998 -0.023133477 1.6037979e-38 271 258
-0.061689276 0.73299998 -0.023133477 1.5669918e-38 272 258
-0.060404085 0.73299998 -0.023133477 1.5208581e-38 273 258
-0.059199546 0.73400003 -0.023165042 1.4840876e-38 274 258
-0.057912603 0.73400003 -0.023165042 1.4195507e-38 275 258
-0.056625653 0.73400003 -0.023165042 1.4011475e-38 276 258
-0.055338707 0.73400003 -0.023165042 1.391928e-38 277 258
-0.054051761 0.73400003 -0.023165042 1.391929e-38 278 258
-0.052764814 0.73400003 -0.023165042 1.4104041e-38 279 258
-0.051618133 0.736 -0.023228159 1.4011858e-38 280 258
-0.050327681 0.736 -0.023228159 1.4011858e-38 281 258
-0.049170475 0.73799998 -0.023291279 1.4011858e-38 282 258
-0.047941394 0.73900002 -0.023322839 1.4011858e-38 283 258
-0.046771921 0.741 -0.023385961 1.373563e-38 284 258
-0.045472696 0.741 -0.023385961 1.3643075e-38 285 258
-0.044233091 0.74199998 -0.023417519 1.3458321e-38 286 258
-0.042932119 0.74199998 -0.023417519 1.3365766e-38 287 258
-0.041631144 0.74199998 -0.023417519 1.2812219e-38 288 258
-0.040330172 0.74199998 -0.023417519 1.1705873e-38 289 258
-0.039134398 0.74400002 -0.023480639 1.1613676e-38 290 258
-0.037829921 0.74400002 -0.023480639 1.1705873e-38 291 258
-0.036623627 0.74599999 -0.023543758 1.2071067e-38 292 258
-0.035362978 0.74699998 -0.023575317 1.2531686e-38 293 258
-0.034144413 0.74900001 -0.02363844 1.2627835e-38 294 258
-0.032831166 0.74900001 -0.02363844 1.2904061e-38 295 258
-0.031517919 0.74900001 -0.02363844 1.2996259e-38 296 258
-0.030244999 0.75 -0.023669999 1.3088813e-38 297 258
-0.028929999 0.75 -0.023669999 1.2813302e-38 298 258
-0.027688639 0.75199997 -0.023733119 1.2813302e-38 299 258
-0.02637013 0.75199997 -0.023733119 1.2537434e-38 300 258
-0.025051624 0.75199997 -0.023733119 1.2537434e-38 301 258
-0.02379624 0.75400001 -0.02379624 1.2537434e-38 302 258
-0.022504034 0.755 -0.023827799 1.2445239e-38 303 258
-0.021180267 0.755 -0.023827799 1.2628551e-38 304 258
-0.019909101 0.75700003 -0.02389092 1.2536355e-38 305 258
-0.018532733 0.755 -0.023827799 1.2628188e-38 306 258
-0.017208965 0.755 -0.023827799 1.2628188e-38 307 258
-0.015927281 0.75700003 -0.02389092 1.2536708e-38 308 258
-0.014561433 0.755 -0.023827799 1.2444513e-38 309 258
-0.013237666 0.755 -0.023827799 1.2260126e-38 310 258
-0.01194546 0.75700003 -0.02389092 1.2260126e-38 311 258
-0.010618187 0.75700003 -0.02389092 1.2168652e-38 312 258
-0.0092909131 0.75700003 -0.02389092 1.2076456e-38 313 258
-0.0079636406 0.75700003 -0.02389092 1.216758e-38 314 258
0.015885198 0.755 -0.023827799 1.2626756e-38 332 258
0.017208965 0.755 -0.023827799 1.2626756e-38 333 258
0.018532733 0.755 -0.023827799 1.271823e-38 334 258
0.0198565 0.755 -0.023827799 1.271823e-38 335 258
0.021152213 0.75400001 -0.02379624 1.2626753e-38 336 258
0.022474226 0.75400001 -0.02379624 1.2626753e-38 337 258
0.02379624 0.75400001 -0.02379624 1.2535992e-38 338 258
0.025118252 0.75400001 -0.02379624 1.2628188e-38 339 258
0.026440267 0.75400001 -0.02379624 1.2536708e-38 340 258
0.027762281 0.75400001 -0.02379624 1.2536708e-38 341 258
0.029084291 0.75400001 -0.02379624 1.2628185e-38 342 258
0.030325651 0.75199997 -0.023733119 1.2628185e-38 343 258
0.031644158 0.75199997 -0.023733119 1.2811853e-38 344 258
0.032874998 0.75 -0.023669999 1.2904049e-38 345 258
0.034189999 0.75 -0.023669999 1.281185e-38 346 258
0.03545766 0.74900001 -0.02363844 1.281185e-38 347 258
0.036770906 0.74900001 -0.02363844 1.2628541e-38 348 258
0.03798246 0.74699998 -0.023575317 1.2443791e-38 349 258
0.039292198 0.74699998 -0.023575317 1.216793e-38 350 258
0.040601939 0.74699998 -0.023575317 1.2444157e-38 351 258
0.04185557 0.74599999 -0.023543758 1.2443809e-38 352 258
0.04316356 0.74599999 -0.023543758 1.2259778e-38 353 258
0.044352323 0.74400002 -0.023480639 1.216578e-38 354 258
0.0456568 0.74400002 -0.023480639 1.1704802e-38 355 258
0.046835039 0.74199998 -0.023417519 1.1702639e-38 356 258
0.048136011 0.74199998 -0.023417519 1.1333496e-38 357 258
0.049436983 0.74199998 -0.023417519 1.0963988e-38 358 258
0.050669577 0.741 -0.023385961 9.9501958e-39 359 258
0.051968798 0.741 -0.023385961 8.6591039e-39 360 258
0.053268019 0.741 -0.023385961 7.4605607e-39 361 258
0.054567236 0.741 -0.023385961 3.9618407e-39 362 258
0.055866458 0.741 -0.023385961 3.0395397e-39 363 258
0.057165679 0.741 -0.023385961 1.7524078e-39 364 258
0.0583071 0.73900002 -0.023322839 2.3977702e-39 365 258
0.059602812 0.73900002 -0.023322839 2.4906861e-39 366 258
0.060898528 0.73900002 -0.023322839 3.2282511e-39 367 258
0.062194239 0.73900002 -0.023322839 4.6126107e-39 368 258
0.063404039 0.73799998 -0.023291279 6.1799364e-39 369 258
0.064697996 0.73799998 -0.023291279 8.2064298e-39 370 258
0.06563428 0.73400003 -0.023165042 9.312776e-39 371 258
0.066921227 0.73400003 -0.023165042 1.0417683e-38 372 258
0.068208173 0.73400003 -0.023165042 1.1431475e-38 373 258
0.069495119 0.73400003 -0.023165042 1.2352339e-38 374 258
0.070782073 0.73400003 -0.023165042 1.2813318e-38 375 258
0.072069012 0.73400003 -0.023165042 1.3181371e-38 376 258
0.073256016 0.73299998 -0.023133477 1.3273926e-38 377 258
0.074541211 0.73299998 -0.023133477 1.3641614e-38 378 258
0.075826399 0.73299998 -0.023133477 1.3641614e-38 379 258
0.077111594 0.73299998 -0.023133477 1.364232e-38 380 258
0.07839679 0.73299998 -0.023133477 1.3549766e-38 381 258
0.079681985 0.73299998 -0.023133477 1.3550122e-38 382 258
0.080746263 0.73100001 -0.02307036 1.3457926e-38 383 258
0.082027942 0.73100001 -0.02307036 1.3457926e-38 384 258
0.083309628 0.73100001 -0.02307036 1.336573e-38 385 258
0.084591322 0.73100001 -0.02307036 1.3640882e-38 386 258
0.085873008 0.73100001 -0.02307036 1.3456851e-38 387 258
0.087035462 0.73000002 -0.023038799 1.3366078e-38 388 258
0.088315405 0.73000002 -0.023038799 1.29051e-38 389 258
0.089595333 0.73000002 -0.023038799 1.2538816e-38 390 258
0.090875268 0.73000002 -0.023038799 1.244662e-38 391 258
0.092155196 0.73000002 -0.023038799 1.2170756e-38 392 258
0.093179137 0.72799999 -0.022975679 1.2262952e-38 393 258
0.09445557 0.72799999 -0.022975679 1.1341737e-38 394 258
0.095731996 0.72799999 -0.022975679 9.4056288e-39 395 258
0.097008422 0.72799999 -0.022975679 5.3566441e-39 396 258
0.098284848 0.72799999 -0.022975679 5.6328709e-39 397 258
0.099561274 0.72799999 -0.022975679 1.1448819e-38 398 258
-0.082364589 0.73400003 -0.024451986 1.5855048e-38 256 259
-0.081077635 0.73400003 -0.024451986 1.622419e-38 257 259
-0.079790697 0.73400003 -0.024451986 1.6774818e-38 258 259
-0.07850375 0.73400003 -0.024451986 1.649859e-38 259 259
-0.077111594 0.73299998 -0.024418673 1.6681899e-38 260 259
-0.075619511 0.73100001 -0.024352046 1.6866292e-38 261 259
-0.074337825 0.73100001 -0.024352046 1.6408556e-38 262 259
-0.073056139 0.73100001 -0.024352046 1.6592947e-38 263 259
-0.071774453 0.73100001 -0.024352046 1.6408925e-38 264 259
-0.070492767 0.73100001 -0.024352046 1.6408925e-38 265 259
-0.069116399 0.73000002 -0.024318734 1.6315657e-38 266 259
-0.067836471 0.73000002 -0.024318734 1.6223462e-38 267 259
-0.066556528 0.73000002 -0.024318734 1.6037991e-38 268 259
-0.065366022 0.73100001 -0.024352046 1.6037991e-38 269 259
-0.064084329 0.73100001 -0.024352046 1.5853953e-38 270 259
-0.062802643 0.73100001 -0.024352046 1.5669922e-38 271 259
-0.061689276 0.73299998 -0.024418673 1.5485176e-38 272 259
-0.060404085 0.73299998 -0.024418673 1.5024199e-38 273 259
-0.059199546 0.73400003 -0.024451986 1.4563946e-38 274 259
-0.057912603 0.73400003 -0.024451986 1.4379196e-38 275 259
-0.056625653 0.73400003 -0.024451986 1.4104041e-38 276 259
-0.055338707 0.73400003 -0.024451986 1.4011485e-38 277 259
-0.054051761 0.73400003 -0.024451986 1.4012211e-38 278 259
-0.052764814 0.73400003 -0.024451986 1.3828179e-38 279 259
-0.051618133 0.736 -0.024518613 1.4011505e-38 280 259
-0.050327681 0.736 -0.024518613 1.4011505e-38 281 259
-0.049170475 0.73799998 -0.024585238 1.3552683e-38 282 259
-0.047941394 0.73900002 -0.024618553 1.3460129e-38 283 259
-0.046771921 0.741 -0.024685178 1.3367565e-38 284 259
-0.045472696 0.741 -0.024685178 1.2998781e-38 285 259
-0.044233091 0.74199998 -0.024718491 1.308881e-38 286 259
-0.042932119 0.74199998 -0.024718491 1.2812222e-38 287 259
-0.041631144 0.74199998 -0.024718491 1.1800575e-38 288 259
-0.040330172 0.74199998 -0.024718491 1.0970456e-38 289 259
-0.039134398 0.74400002 -0.02478512 1.0877194e-38 290 259
-0.03793161 0.74599999 -0.024851745 1.1245616e-38 291 259
-0.036672719 0.74699998 -0.024885058 1.1797724e-38 292 259
-0.035362978 0.74699998 -0.024885058 1.2258343e-38 293 259
-0.034144413 0.74900001 -0.024951685 1.189351e-38 294 259
-0.032831166 0.74900001 -0.024951685 1.2077901e-38 295 259
-0.03156 0.75 -0.024984999 1.2444885e-38 296 259
-0.030244999 0.75 -0.024984999 1.2444885e-38 297 259
-0.029007144 0.75199997 -0.025051624 1.2170099e-38 298 259
-0.027688639 0.75199997 -0.025051624 1.2077545e-38 299 259
-0.02637013 0.75199997 -0.025051624 1.1985352e-38 300 259
-0.025051624 0.75199997 -0.025051624 1.1893156e-38 301 259
-0.023827799 0.755 -0.025151566 1.18928e-38 302 259
-0.022504034 0.755 -0.025151566 1.18928e-38 303 259
0.035505001 0.75 -0.024984999 1.1984981e-38 347 259
0.036770906 0.74900001 -0.024951685 1.1893504e-38 348 259
0.038084153 0.74900001 -0.024951685 1.1893504e-38 349 259
0.0393974 0.74900001 -0.024951685 1.2261198e-38 350 259
0.040710647 0.74900001 -0.024951685 1.2353393e-38 351 259
0.041911677 0.74699998 -0.024885058 1.2353749e-38 352 259
0.043221418 0.74699998 -0.024885058 1.2353749e-38 353 259
0.044471547 0.74599999 -0.024851745 1.2627456e-38 354 259
0.045779534 0.74599999 -0.024851745 1.2719652e-38 355 259
0.046961278 0.74400002 -0.02478512 1.2719658e-38 356 259
0.048136011 0.74199998 -0.024718491 1.2350875e-38 357 259
0.049436983 0.74199998 -0.024718491 1.1981021e-38 358 259
0.050737958 0.74199998 -0.024718491 1.1520042e-38 359 259
0.051968798 0.741 -0.024685178 1.0504814e-38 360 259
0.053268019 0.741 -0.024685178 9.1218799e-39 361 259
0.054567236 0.741 -0.024685178 7.1857871e-39 362 259
0.055866458 0.741 -0.024685178 5.5262727e-39 363 259
0.057165679 0.741 -0.024685178 3.4994346e-39 364 259
0.0584649 0.741 -0.024685178 3.3150462e-39 365 259
0.059764117 0.741 -0.024685178 3.682042e-39 366 259
0.061063338 0.741 -0.024685178 3.3132595e-39 367 259
0.062194239 0.73900002 -0.024618553 2.5835908e-39 368 259
0.063404039 0.73799998 -0.024585238 4.4274964e-39 369 259
0.064697996 0.73799998 -0.024585238 5.5334726e-39 370 259
0.065813117 0.736 -0.024518613 6.5479847e-39 371 259
0.066921227 0.73400003 -0.024451986 8.4837398e-39 372 259
0.068208173 0.73400003 -0.024451986 9.9585097e-39 373 259
0.069495119 0.73400003 -0.024451986 1.1247437e-38 374 259
0.070782073 0.73400003 -0.024451986 1.1892806e-38 375 259
0.072069012 0.73400003 -0.024451986 1.2444888e-38 376 259
0.073256016 0.73299998 -0.024418673 1.2813312e-38 377 259
0.074541211 0.73299998 -0.024418673 1.3090964e-38 378 259
0.075826399 0.73299998 -0.024418673 1.318316e-38 379 259
0.077111594 0.73299998 -0.024418673 1.3091667e-38 380 259
0.07839679 0.73299998 -0.024418673 1.3091667e-38 381 259
0.079681985 0.73299998 -0.024418673 1.3366804e-38 382 259
0.080746263 0.73100001 -0.024352046 1.3366804e-38 383 259
0.082027942 0.73100001 -0.024352046 1.3550119e-38 384 259
0.083195664 0.73000002 -0.024318734 1.3457923e-38 385 259
0.084475599 0.73000002 -0.024318734 1.3456851e-38 386 259
0.085755527 0.73000002 -0.024318734 1.3456851e-38 387 259
0.087035462 0.73000002 -0.024318734 1.3088792e-38 388 259
0.088315405 0.73000002 -0.024318734 1.2904399e-38 389 259
0.089349858 0.72799999 -0.024252106 1.2169333e-38 390 259
0.090626292 0.72799999 -0.024252106 1.1892746e-38 391 259
0.091902718 0.72799999 -0.024252106 1.1341727e-38 392 259
0.093179137 0.72799999 -0.024252106 1.1156976e-38 393 259
0.09445557 0.72799999 -0.024252106 1.0327257e-38 394 259
0.095600501 0.727 -0.024218792 8.0227252e-39 395 259
0.096875168 0.727 -0.024218792 3.0517786e-39 396 259
0.098149844 0.727 -0.024218792 7.4652774e-40 397 259
0.099424519 0.727 -0.024218792 8.4027657e-39 398 259
-0.083879463 0.736 -0.025809066 1.5857976e-38 255 260
-0.082364589 0.73400003 -0.025738932 1.6314585e-38 256 260
-0.081077635 0.73400003 -0.025738932 1.6591171e-38 257 260
-0.079790697 0.73400003 -0.025738932 1.6775544e-38 258 260
-0.07850375 0.73400003 -0.025738932 1.6683348e-38 259 260
-0.077111594 0.73299998 -0.025703866 1.668442e-38 260 260
-0.075619511 0.73100001 -0.025633732 1.668442e-38 261 260
-0.074337825 0.73100001 -0.025633732 1.649967e-38 262 260
-0.072956197 0.73000002 -0.025598666 1.6592224e-38 263 260
-0.071676269 0.73000002 -0.025598666 1.6591506e-38 264 260
-0.070396334 0.73000002 -0.025598666 1.6314559e-38 265 260
-0.069116399 0.73000002 -0.025598666 1.631384e-38 266 260
-0.067836471 0.73000002 -0.025598666 1.6037251e-38 267 260
-0.066556528 0.73000002 -0.025598666 1.6036898e-38 268 260
-0.0652766 0.73000002 -0.025598666 1.5852867e-38 269 260
-0.063996665 0.73000002 -0.025598666 1.5577719e-38 270 260
-0.062802643 0.73100001 -0.025633732 1.5485524e-38 271 260
-0.06152096 0.73100001 -0.025633732 1.5024916e-38 272 260
-0.06023927 0.73100001 -0.025633732 1.493272e-38 273 260
-0.059118889 0.73299998 -0.025703866 1.4379917e-38 274 260
-0.057833698 0.73299998 -0.025703866 1.4195886e-38 275 260
-0.056625653 0.73400003 -0.025738932 1.4011858e-38 276 260
-0.055338707 0.73400003 -0.025738932 1.3827825e-38 277 260
-0.054051761 0.73400003 -0.025738932 1.4011861e-38 278 260
-0.052764814 0.73400003 -0.025738932 1.382747e-38 279 260
-0.051618133 0.736 -0.025809066 1.382747e-38 280 260
-0.050327681 0.736 -0.025809066 1.3735274e-38 281 260
-0.049037226 0.736 -0.025809066 1.3643431e-38 282 260
-0.047876518 0.73799998 -0.025879199 1.3551236e-38 283 260
-0.046645679 0.73900002 -0.025914267 1.3365753e-38 284 260
-0.045534063 0.74199998 -0.026019465 1.152148e-38 285 260
-0.044233091 0.74199998 -0.026019465 1.1338871e-38 286 260
-0.043047838 0.74400002 -0.026089599 1.1154121e-38 287 260
-0.04174336 0.74400002 -0.026089599 1.2168649e-38 288 260
-0.040438879 0.74400002 -0.026089599 1.2445594e-38 289 260
-0.039239597 0.74599999 -0.026159734 1.253817e-38 290 260
-0.03793161 0.74599999 -0.026159734 1.2261943e-38 291 260
-0.036672719 0.74699998 -0.026194798 1.1710557e-38 292 260
-0.03545766 0.74900001 -0.026264934 1.1434331e-38 293 260
-0.034144413 0.74900001 -0.026264934 1.1710545e-38 294 260
-0.032874998 0.75 -0.0263 1.1710545e-38 295 260
-0.03156 0.75 -0.0263 1.2260844e-38 296 260
-0.030325651 0.75199997 -0.02637013 1.2168649e-38 297 260
0.045840897 0.74699998 -0.026194798 1.2351245e-38 355 260
0.047087517 0.74599999 -0.026159734 1.216793e-38 356 260
0.048395503 0.74599999 -0.026159734 1.2260126e-38 357 260
0.04970349 0.74599999 -0.026159734 1.2627832e-38 358 260
0.050874721 0.74400002 -0.026089599 1.2904417e-38 359 260
0.052179199 0.74400002 -0.026089599 1.2812952e-38 360 260
0.053339902 0.74199998 -0.026019465 1.26282e-38 361 260
0.054640878 0.74199998 -0.026019465 1.2810078e-38 362 260
0.05594185 0.74199998 -0.026019465 1.1980317e-38 363 260
0.057242822 0.74199998 -0.026019465 1.0781777e-38 364 260
0.058543798 0.74199998 -0.026019465 9.8594603e-39 365 260
0.05984477 0.74199998 -0.026019465 9.2108679e-39 366 260
0.061063338 0.741 -0.025984399 7.5517053e-39 367 260
0.062194239 0.73900002 -0.025914267 5.5302384e-39 368 260
0.063489959 0.73900002 -0.025914267 5.5302384e-39 369 260
0.064697996 0.73799998 -0.025879199 4.8859536e-39 370 260
0.065813117 0.736 -0.025809066 5.2550963e-39 371 260
0.067103572 0.736 -0.025809066 6.5465483e-39 372 260
0.068208173 0.73400003 -0.025738932 8.1142342e-39 373 260
0.069495119 0.73400003 -0.025738932 9.497142e-39 374 260
0.070782073 0.73400003 -0.025738932 1.04191e-38 375 260
0.072069012 0.73400003 -0.025738932 1.1615478e-38 376 260
0.073256016 0.73299998 -0.025703866 1.2076456e-38 377 260
0.074541211 0.73299998 -0.025703866 1.2168649e-38 378 260
0.075826399 0.73299998 -0.025703866 1.253779e-38 379 260
0.077111594 0.73299998 -0.025703866 1.3272826e-38 380 260
0.07839679 0.73299998 -0.025703866 1.3272826e-38 381 260
0.079681985 0.73299998 -0.025703866 1.3641238e-38 382 260
0.080746263 0.73100001 -0.025633732 1.3641238e-38 383 260
0.082027942 0.73100001 -0.025633732 1.3550119e-38 384 260
0.083195664 0.73000002 -0.025598666 1.3457923e-38 385 260
0.084475599 0.73000002 -0.025598666 1.3457921e-38 386 260
0.085755527 0.73000002 -0.025598666 1.3273529e-38 387 260
0.087035462 0.73000002 -0.025598666 1.2998017e-38 388 260
0.088315405 0.73000002 -0.025598666 1.2813626e-38 389 260
0.089349858 0.72799999 -0.025528532 1.2261886e-38 390 260
0.090626292 0.72799999 -0.025528532 1.1524319e-38 391 260
0.091902718 0.72799999 -0.025528532 1.0971881e-38 392 260
0.09305115 0.727 -0.025493465 8.5747947e-39 393 260
0.094325826 0.727 -0.025493465 6.5461826e-39 394 260
0.095600501 0.727 -0.025493465 5.6242263e-39 395 260
0.096875168 0.727 -0.025493465 2.4921308e-39 396 260
0.098149844 0.727 -0.025493465 1.0761972e-42 397 260
0.099424519 0.727 -0.025493465 5.6350793e-39 398 260
-0.083879463 0.736 -0.02709952 1.5488105e-38 255 261
-0.082364589 0.73400003 -0.02702588 1.6130909e-38 256 261
-0.081077635 0.73400003 -0.02702588 1.631566e-38 257 261
-0.079790697 0.73400003 -0.02702588 1.6591871e-38 258 261
-0.07850375 0.73400003 -0.02702588 1.6684067e-38 259 261
-0.077111594 0.73299998 -0.026989058 1.6683348e-38 260 261
-0.075619511 0.73100001 -0.026915418 1.6498955e-38 261 261
-0.074337825 0.73100001 -0.026915418 1.6131259e-38 262 261
-0.072956197 0.73000002 -0.026878599 1.5947228e-38 263 261
-0.071676269 0.73000002 -0.026878599 1.6038697e-38 264 261
-0.070396334 0.73000002 -0.026878599 1.5854306e-38 265 261
-0.068927035 0.72799999 -0.026804959 1.5485877e-38 266 261
-0.067650609 0.72799999 -0.026804959 1.520929e-38 267 261
-0.066374183 0.72799999 -0.026804959 1.5302211e-38 268 261
-0.0652766 0.73000002 -0.026878599 1.5302211e-38 269 261
-0.063996665 0.73000002 -0.026878599 1.5301861e-38 270 261
-0.06271673 0.73000002 -0.026878599 1.511747e-38 271 261
-0.061436798 0.73000002 -0.026878599 1.4657578e-38 272 261
-0.06023927 0.73100001 -0.026915418 1.41966e-38 273 261
-0.059118889 0.73299998 -0.026989058 1.3829262e-38 274 261
-0.057833698 0.73299998 -0.026989058 1.3645231e-38 275 261
-0.056625653 0.73400003 -0.02702588 1.3735993e-38 276 261
-0.055338707 0.73400003 -0.02702588 1.3735993e-38 277 261
-0.054051761 0.73400003 -0.02702588 1.3735641e-38 278 261
-0.052764814 0.73400003 -0.02702588 1.3735641e-38 279 261
-0.051618133 0.736 -0.02709952 1.3735996e-38 280 261
-0.050327681 0.736 -0.02709952 1.3551246e-38 281 261
-0.049037226 0.736 -0.02709952 1.3275372e-38 282 261
-0.047876518 0.73799998 -0.027173158 1.2998425e-38 283 261
-0.046645679 0.73900002 -0.027209979 1.3271775e-38 284 261
-0.045534063 0.74199998 -0.027320439 1.2718601e-38 285 261
-0.044233091 0.74199998 -0.027320439 1.2259778e-38 286 261
-0.043047838 0.74400002 -0.027394081 1.2167582e-38 287 261
-0.04174336 0.74400002 -0.027394081 1.1803106e-38 288 261
-0.040438879 0.74400002 -0.027394081 1.1895302e-38 289 261
-0.039292198 0.74699998 -0.027504537 1.2354112e-38 290 261
-0.03798246 0.74699998 -0.027504537 1.2261916e-38 291 261
-0.036770906 0.74900001 -0.027578179 1.1986409e-38 292 261
-0.035505001 0.75 -0.027615 1.1893854e-38 293 261
-0.034189999 0.75 -0.027615 1.1892785e-38 294 261
0.05348368 0.74400002 -0.027394081 1.2535989e-38 361 261
0.054788161 0.74400002 -0.027394081 1.2812216e-38 362 261
0.056092639 0.74400002 -0.027394081 1.2535989e-38 363 261
0.05739712 0.74400002 -0.027394081 1.2167927e-38 364 261
0.058543798 0.74199998 -0.027320439 1.1615112e-38 365 261
0.05984477 0.74199998 -0.027320439 1.1059434e-38 366 261
0.061145745 0.74199998 -0.027320439 1.0321868e-38 367 261
0.062362559 0.741 -0.027283618 9.5853986e-39 368 261
0.063489959 0.73900002 -0.027209979 9.3088103e-39 369 261
0.064697996 0.73799998 -0.027173158 8.7545617e-39 370 261
0.06599196 0.73799998 -0.027173158 8.1091923e-39 371 261
0.067103572 0.736 -0.02709952 8.5726718e-39 372 261
0.06839402 0.736 -0.02709952 9.0336499e-39 373 261
0.069495119 0.73400003 -0.02702588 1.0414767e-38 374 261
0.070782073 0.73400003 -0.02702588 1.1060136e-38 375 261
0.072069012 0.73400003 -0.02702588 1.1798071e-38 376 261
0.073256016 0.73299998 -0.026989058 1.1982463e-38 377 261
0.074541211 0.73299998 -0.026989058 1.1797002e-38 378 261
0.075826399 0.73299998 -0.026989058 1.2442371e-38 379 261
0.077111594 0.73299998 -0.026989058 1.2535636e-38 380 261
0.07839679 0.73299998 -0.026989058 1.2812222e-38 381 261
0.079681985 0.73299998 -0.026989058 1.2904412e-38 382 261
0.080746263 0.73100001 -0.026915418 1.3089163e-38 383 261
0.082027942 0.73100001 -0.026915418 1.3365021e-38 384 261
0.083195664 0.73000002 -0.026878599 1.3272826e-38 385 261
0.084475599 0.73000002 -0.026878599 1.3182415e-38 386 261
0.085755527 0.73000002 -0.026878599 1.309022e-38 387 261
0.087035462 0.73000002 -0.026878599 1.3089847e-38 388 261
0.088315405 0.73000002 -0.026878599 1.2905456e-38 389 261
0.089349858 0.72799999 -0.026804959 1.2628863e-38 390 261
0.090626292 0.72799999 -0.026804959 1.207569e-38 391 261
0.091902718 0.72799999 -0.026804959 1.1520396e-38 392 261
0.09305115 0.727 -0.026768139 8.4775797e-39 393 261
0.094325826 0.727 -0.026768139 5.1636433e-39 394 261
0.095600501 0.727 -0.026768139 5.4398701e-39 395 261
0.096875168 0.727 -0.026768139 2.6740264e-39 396 261
0.098149844 0.727 -0.026768139 0 397 261
0.099424519 0.727 -0.026768139 8.1153608e-39 398 261
0.10069919 0.727 -0.026768139 1.4015881e-38 399 261
-0.084938474 0.73400003 -0.028312827 1.5764319e-38 254 262
-0.083651535 0.73400003 -0.028312827 1.5211145e-38 255 262
-0.082364589 0.73400003 -0.028312827 1.6037626e-38 256 262
-0.080967173 0.73299998 -0.028274251 1.6406407e-38 257 262
-0.079681985 0.73299998 -0.028274251 1.6499325e-38 258 262
-0.07839679 0.73299998 -0.028274251 1.6499325e-38 259 262
-0.076901197 0.73100001 -0.028197108 1.6406407e-38 260 262
-0.07551606 0.73000002 -0.028158534 1.6314211e-38 261 262
-0.074236132 0.73000002 -0.028158534 1.6037626e-38 262 262
-0.072956197 0.73000002 -0.028158534 1.594543e-38 263 262
-0.071676269 0.73000002 -0.028158534 1.5485889e-38 264 262
-0.070203468 0.72799999 -0.028081384 1.5117467e-38 265 262
-0.068927035 0.72799999 -0.028081384 1.502599e-38 266 262
-0.067650609 0.72799999 -0.028081384 1.502599e-38 267 262
-0.066374183 0.72799999 -0.028081384 1.5209666e-38 268 262
-0.065097757 0.72799999 -0.028081384 1.511747e-38 269 262
-0.063996665 0.73000002 -0.028158534 1.4657575e-38 270 262
-0.06271673 0.73000002 -0.028158534 1.4473542e-38 271 262
-0.061436798 0.73000002 -0.028158534 1.4288445e-38 272 262
-0.06023927 0.73100001 -0.028197108 1.4011858e-38 273 262
-0.059118889 0.73299998 -0.028274251 1.382819e-38 274 262
-0.057833698 0.73299998 -0.028274251 1.382819e-38 275 262
-0.056625653 0.73400003 -0.028312827 1.3735993e-38 276 262
-0.055338707 0.73400003 -0.028312827 1.3643797e-38 277 262
-0.054051761 0.73400003 -0.028312827 1.36438e-38 278 262
-0.052764814 0.73400003 -0.028312827 1.3551246e-38 279 262
-0.051618133 0.736 -0.028389972 1.3643078e-38 280 262
-0.050327681 0.736 -0.028389972 1.3458687e-38 281 262
-0.049170475 0.73799998 -0.028467119 1.3182456e-38 282 262
-0.047941394 0.73900002 -0.028505694 1.2997706e-38 283 262
-0.046771921 0.741 -0.028582839 1.2812946e-38 284 262
-0.045534063 0.74199998 -0.028621411 1.2628554e-38 285 262
-0.044352323 0.74400002 -0.02869856 1.1986055e-38 286 262
-0.043047838 0.74400002 -0.02869856 1.1986055e-38 287 262
-0.04174336 0.74400002 -0.02869856 1.180239e-38 288 262
-0.040547583 0.74599999 -0.028775707 1.1894586e-38 289 262
-0.039292198 0.74699998 -0.028814279 1.2077182e-38 290 262
0.062362559 0.741 -0.028582839 1.2627838e-38 368 262
0.063661776 0.741 -0.028582839 1.2627838e-38 369 262
0.064785667 0.73900002 -0.028505694 1.2626405e-38 370 262
0.06599196 0.73799998 -0.028467119 1.234982e-38 371 262
0.067285918 0.73799998 -0.028467119 1.1798424e-38 372 262
0.06839402 0.736 -0.028389972 1.1521477e-38 373 262
0.069684476 0.736 -0.028389972 1.1705503e-38 374 262
0.070782073 0.73400003 -0.028312827 1.2074285e-38 375 262
0.072069012 0.73400003 -0.028312827 1.2166128e-38 376 262
0.073355958 0.73400003 -0.028312827 1.2166128e-38 377 262
0.074642912 0.73400003 -0.028312827 1.2442348e-38 378 262
0.07592985 0.73400003 -0.028312827 1.262674e-38 379 262
0.077111594 0.73299998 -0.028274251 1.2626738e-38 380 262
0.07839679 0.73299998 -0.028274251 1.2718933e-38 381 262
0.079681985 0.73299998 -0.028274251 1.2811132e-38 382 262
0.080967173 0.73299998 -0.028274251 1.2995163e-38 383 262
0.082252368 0.73299998 -0.028274251 1.3087358e-38 384 262
0.083309628 0.73100001 -0.028197108 1.3179913e-38 385 262
0.084591322 0.73100001 -0.028197108 1.299767e-38 386 262
0.085873008 0.73100001 -0.028197108 1.2905115e-38 387 262
0.087035462 0.73000002 -0.028158534 1.2813276e-38 388 262
0.088315405 0.73000002 -0.028158534 1.2629244e-38 389 262
0.089595333 0.73000002 -0.028158534 1.2352297e-38 390 262
0.090626292 0.72799999 -0.028081384 1.1891321e-38 391 262
0.091902718 0.72799999 -0.028081384 1.0511651e-38 392 262
0.093179137 0.72799999 -0.028081384 7.0082173e-39 393 262
0.09445557 0.72799999 -0.028081384 4.3335225e-39 394 262
0.095731996 0.72799999 -0.028081384 4.4260769e-39 395 262
0.097008422 0.72799999 -0.028081384 3.1299627e-39 396 262
0.098284848 0.72799999 -0.028081384 1.3786086e-39 397 262
0.099561274 0.72799999 -0.028081384 1.1154224e-38 398 262
0.1008377 0.72799999 -0.028081384 1.650157e-38 399 262
-0.086225428 0.73400003 -0.029599773 1.7518965e-38 253 263
-0.084938474 0.73400003 -0.029599773 1.5303694e-38 254 263
-0.083651535 0.73400003 -0.029599773 1.521114e-38 255 263
-0.082364589 0.73400003 -0.029599773 1.6130896e-38 256 263
-0.080967173 0.73299998 -0.029559445 1.6223092e-38 257 263
-0.07946457 0.73100001 -0.029478792 1.6223092e-38 258 263
-0.078075938 0.73000002 -0.029438468 1.60387e-38 259 263
-0.076796003 0.73000002 -0.029438468 1.5945783e-38 260 263
-0.07551606 0.73000002 -0.029438468 1.576139e-38 261 263
-0.074236132 0.73000002 -0.029438468 1.5761034e-38 262 263
-0.072956197 0.73000002 -0.029438468 1.5668839e-38 263 263
-0.071479887 0.72799999 -0.029357811 1.5117114e-38 264 263
-0.070203468 0.72799999 -0.029357811 1.5024918e-38 265 263
-0.068927035 0.72799999 -0.029357811 1.484125e-38 266 263
-0.067650609 0.72799999 -0.029357811 1.484125e-38 267 263
-0.066374183 0.72799999 -0.029357811 1.4841969e-38 268 263
-0.065097757 0.72799999 -0.029357811 1.4657578e-38 269 263
-0.063821331 0.72799999 -0.029357811 1.4288798e-38 270 263
-0.06271673 0.73000002 -0.029438468 1.4196602e-38 271 263
-0.061436798 0.73000002 -0.029438468 1.3644878e-38 272 263
-0.060156867 0.73000002 -0.029438468 1.3552681e-38 273 263
-0.058957584 0.73100001 -0.029478792 1.3552683e-38 274 263
-0.057833698 0.73299998 -0.029559445 1.3552683e-38 275 263
-0.056548502 0.73299998 -0.029559445 1.3460129e-38 276 263
-0.055338707 0.73400003 -0.029599773 1.3367933e-38 277 263
-0.054051761 0.73400003 -0.029599773 1.3367933e-38 278 263
-0.052764814 0.73400003 -0.029599773 1.3367933e-38 279 263
-0.051618133 0.736 -0.029680425 1.3367568e-38 280 263
-0.050327681 0.736 -0.029680425 1.3183176e-38 281 263
-0.049037226 0.736 -0.029680425 1.3090258e-38 282 263
-0.047876518 0.73799998 -0.029761078 1.2905866e-38 283 263
-0.046645679 0.73900002 -0.029801406 1.244596e-38 284 263
-0.045534063 0.74199998 -0.029922385 1.226121e-38 285 263
-0.044352323 0.74400002 -0.030003037 1.1984983e-38 286 263
0.06599196 0.73799998 -0.029761078 1.2443428e-38 371 263
0.067285918 0.73799998 -0.029761078 1.2167906e-38 372 263
0.068579875 0.73799998 -0.029761078 1.1983875e-38 373 263
0.069873832 0.73799998 -0.029761078 1.2260099e-38 374 263
0.071167797 0.73799998 -0.029761078 1.2352295e-38 375 263
0.072265387 0.736 -0.029680425 1.2443425e-38 376 263
0.073555835 0.736 -0.029680425 1.2443425e-38 377 263
0.07484629 0.736 -0.029680425 1.2719289e-38 378 263
0.076136746 0.736 -0.029680425 1.2627093e-38 379 263
0.077216797 0.73400003 -0.029599773 1.2627093e-38 380 263
0.07850375 0.73400003 -0.029599773 1.2627093e-38 381 263
0.079681985 0.73299998 -0.029559445 1.2443425e-38 382 263
0.080967173 0.73299998 -0.029559445 1.2443425e-38 383 263
0.082252368 0.73299998 -0.029559445 1.2719658e-38 384 263
0.083537564 0.73299998 -0.029559445 1.2719658e-38 385 263
0.084822752 0.73299998 -0.029559445 1.2811853e-38 386 263
0.085873008 0.73100001 -0.029478792 1.2719658e-38 387 263
0.087154694 0.73100001 -0.029478792 1.2444144e-38 388 263
0.088436373 0.73100001 -0.029478792 1.2351949e-38 389 263
0.089595333 0.73000002 -0.029438468 1.1983522e-38 390 263
0.090875268 0.73000002 -0.029438468 1.1614379e-38 391 263
0.091902718 0.72799999 -0.029357811 1.0603121e-38 392 263
0.093179137 0.72799999 -0.029357811 7.376274e-39 393 263
0.09445557 0.72799999 -0.029357811 4.2395122e-39 394 263
0.095731996 0.72799999 -0.029357811 3.2257218e-39 395 263
0.097008422 0.72799999 -0.029357811 1.9396829e-39 396 263
0.098284848 0.72799999 -0.029357811 4.6133562e-39 397 263
0.099561274 0.72799999 -0.029357811 1.5115399e-38 398 263
-0.085873008 0.73100001 -0.03076048 1.7427122e-38 253 264
-0.084591322 0.73100001 -0.03076048 1.5026385e-38 254 264
-0.083309628 0.73100001 -0.03076048 1.5210777e-38 255 264
-0.082027942 0.73100001 -0.03076048 1.5947581e-38 256 264
-0.080746263 0.73100001 -0.03076048 1.5855385e-38 257 264
-0.07946457 0.73100001 -0.03076048 1.6131246e-38 258 264
-0.078075938 0.73000002 -0.030718399 1.5578072e-38 259 264
-0.076796003 0.73000002 -0.030718399 1.5669189e-38 260 264
-0.075309172 0.72799999 -0.030634239 1.5300767e-38 261 264
-0.074032739 0.72799999 -0.030634239 1.5300426e-38 262 264
-0.072756313 0.72799999 -0.030634239 1.5024199e-38 263 264
-0.071479887 0.72799999 -0.030634239 1.4656507e-38 264 264
-0.070203468 0.72799999 -0.030634239 1.4656507e-38 265 264
-0.06883236 0.727 -0.030592158 1.4657225e-38 266 264
-0.067557678 0.727 -0.030592158 1.4657225e-38 267 264
-0.06628301 0.727 -0.030592158 1.447391e-38 268 264
-0.065008335 0.727 -0.030592158 1.4105486e-38 269 264
-0.06373366 0.727 -0.030592158 1.3828543e-38 270 264
-0.062544905 0.72799999 -0.030634239 1.3736346e-38 271 264
-0.061268479 0.72799999 -0.030634239 1.3460485e-38 272 264
-0.060156867 0.73000002 -0.030718399 1.3368289e-38 273 264
-0.058957584 0.73100001 -0.03076048 1.3276817e-38 274 264
-0.057675898 0.73100001 -0.03076048 1.3276817e-38 275 264
-0.056548502 0.73299998 -0.030844638 1.318534e-38 276 264
-0.055263311 0.73299998 -0.030844638 1.3093144e-38 277 264
-0.054051761 0.73400003 -0.030886721 1.3275735e-38 278 264
-0.052908584 0.736 -0.030970879 1.3275735e-38 279 264
-0.051618133 0.736 -0.030970879 1.2999861e-38 280 264
-0.050327681 0.736 -0.030970879 1.2815469e-38 281 264
-0.049037226 0.736 -0.030970879 1.2722195e-38 282 264
-0.047876518 0.73799998 -0.031055039 1.2537804e-38 283 264
-0.046645679 0.73900002 -0.03109712 1.2077548e-38 284 264
-0.045534063 0.74199998 -0.031223357 1.1893156e-38 285 264
0.077216797 0.73400003 -0.030886721 1.2259751e-38 380 264
0.07850375 0.73400003 -0.030886721 1.2259751e-38 381 264
0.079790697 0.73400003 -0.030886721 1.2167556e-38 382 264
0.081077635 0.73400003 -0.030886721 1.2167556e-38 383 264
0.082364589 0.73400003 -0.030886721 1.2166847e-38 384 264
0.083537564 0.73299998 -0.030844638 1.2259401e-38 385 264
0.084822752 0.73299998 -0.030844638 1.2259045e-38 386 264
0.086107947 0.73299998 -0.030844638 1.2259045e-38 387 264
0.087154694 0.73100001 -0.03076048 1.1707671e-38 388 264
0.088436373 0.73100001 -0.03076048 1.1707671e-38 389 264
0.089595333 0.73000002 -0.030718399 1.1340318e-38 390 264
0.090875268 0.73000002 -0.030718399 1.1063729e-38 391 264
0.091902718 0.72799999 -0.030634239 1.0327963e-38 392 264
0.093179137 0.72799999 -0.030634239 7.65393e-39 393 264
0.09445557 0.72799999 -0.030634239 2.6808185e-39 394 264
0.095731996 0.72799999 -0.030634239 9.2947567e-40 395 264
0.097008422 0.72799999 -0.030634239 2.5000664e-39 396 264
0.098554872 0.73000002 -0.030718399 8.5846178e-39 397 264
-0.085873008 0.73100001 -0.032042164 1.7243454e-38 253 265
-0.084591322 0.73100001 -0.032042164 1.4656527e-38 254 265
-0.083309628 0.73100001 -0.032042164 1.5301896e-38 255 265
-0.081915736 0.73000002 -0.031998333 1.6038697e-38 256 265
-0.080635801 0.73000002 -0.031998333 1.5946502e-38 257 265
-0.079355866 0.73000002 -0.031998333 1.5946136e-38 258 265
-0.078075938 0.73000002 -0.031998333 1.5669189e-38 259 265
-0.076585598 0.72799999 -0.031910665 1.5391529e-38 260 265
-0.075309172 0.72799999 -0.031910665 1.5022748e-38 261 265
-0.074032739 0.72799999 -0.031910665 1.4839085e-38 262 265
-0.072656378 0.727 -0.03186683 1.4746889e-38 263 265
-0.071381703 0.727 -0.03186683 1.4562864e-38 264 265
-0.070107035 0.727 -0.03186683 1.465506e-38 265 265
-0.06883236 0.727 -0.03186683 1.4563943e-38 266 265
-0.067371838 0.72500002 -0.031779166 1.4563943e-38 267 265
-0.066100664 0.72500002 -0.031779166 1.4380271e-38 268 265
-0.064829499 0.72500002 -0.031779166 1.4195881e-38 269 265
-0.06373366 0.727 -0.03186683 1.3827823e-38 270 265
-0.062544905 0.72799999 -0.031910665 1.3735627e-38 271 265
-0.061268479 0.72799999 -0.031910665 1.3368286e-38 272 265
-0.060156867 0.73000002 -0.031998333 1.3368286e-38 273 265
-0.058876935 0.73000002 -0.031998333 1.3184974e-38 274 265
-0.057675898 0.73100001 -0.032042164 1.3184974e-38 275 265
-0.056548502 0.73299998 -0.032129832 1.3368286e-38 276 265
-0.055263311 0.73299998 -0.032129832 1.3276091e-38 277 265
-0.05419904 0.736 -0.032261331 1.3275369e-38 278 265
-0.052908584 0.736 -0.032261331 1.3090976e-38 279 265
-0.051618133 0.736 -0.032261331 1.3090255e-38 280 265
-0.050327681 0.736 -0.032261331 1.2813668e-38 281 265
-0.049170475 0.73799998 -0.032348998 1.2537084e-38 282 265
-0.047876518 0.73799998 -0.032348998 1.2352693e-38 283 265
-0.046645679 0.73900002 -0.032392833 1.2168301e-38 284 265
0.089718066 0.73100001 -0.032042164 1.0787881e-38 390 265
0.090875268 0.73000002 -0.031998333 1.060385e-38 391 265
0.092155196 0.73000002 -0.031998333 1.0418749e-38 392 265
0.093179137 0.72799999 -0.031910665 8.8514223e-39 393 265
0.09445557 0.72799999 -0.031910665 5.3609812e-39 394 265
0.095731996 0.72799999 -0.031910665 6.0985462e-39 395 265
0.097274937 0.73000002 -0.031998333 1.1341507e-38 396 265
-0.085873008 0.73100001 -0.033323854 1.7794829e-38 253 266
-0.084475599 0.73000002 -0.033278264 1.4473577e-38 254 266
-0.083195664 0.73000002 -0.033278264 1.4657969e-38 255 266
-0.081915736 0.73000002 -0.033278264 1.5579168e-38 256 266
-0.080635801 0.73000002 -0.033278264 1.5394777e-38 257 266
-0.079355866 0.73000002 -0.033278264 1.5668836e-38 258 266
-0.077862024 0.72799999 -0.033187091 1.5208217e-38 259 266
-0.076585598 0.72799999 -0.033187091 1.4840157e-38 260 266
-0.075205728 0.727 -0.033141505 1.4563211e-38 261 266
-0.073931053 0.727 -0.033141505 1.4378833e-38 262 266
-0.072656378 0.727 -0.033141505 1.4286277e-38 263 266
-0.071185336 0.72500002 -0.033050332 1.4194806e-38 264 266
-0.069914162 0.72500002 -0.033050332 1.4287003e-38 265 266
-0.06883236 0.727 -0.033141505 1.4103688e-38 266 266
-0.067371838 0.72500002 -0.033050332 1.4195884e-38 267 266
-0.066100664 0.72500002 -0.033050332 1.3827825e-38 268 266
-0.064829499 0.72500002 -0.033050332 1.373563e-38 269 266
-0.06373366 0.727 -0.033141505 1.3368289e-38 270 266
-0.062544905 0.72799999 -0.033187091 1.3275735e-38 271 266
-0.061268479 0.72799999 -0.033187091 1.3092779e-38 272 266
-0.059992049 0.72799999 -0.033187091 1.3092779e-38 273 266
-0.058876935 0.73000002 -0.033278264 1.3092779e-38 274 266
-0.057675898 0.73100001 -0.033323854 1.3000583e-38 275 266
-0.056548502 0.73299998 -0.033415023 1.300023e-38 276 266
-0.055263311 0.73299998 -0.033415023 1.2908034e-38 277 266
-0.054051761 0.73400003 -0.033460613 1.2907315e-38 278 266
-0.052908584 0.736 -0.033551786 1.2722564e-38 279 266
-0.051618133 0.736 -0.033551786 1.2261946e-38 280 266
-0.050327681 0.736 -0.033551786 1.2077195e-38 281 266
-0.049170475 0.73799998 -0.033642959 1.1892435e-38 282 266
-0.085873008 0.73100001 -0.034605537 1.7980296e-38 253 267
-0.084475599 0.73000002 -0.034558199 1.4383177e-38 254 267
-0.083195664 0.73000002 -0.034558199 1.3737807e-38 255 267
-0.081915736 0.73000002 -0.034558199 1.5302214e-38 256 267
-0.080635801 0.73000002 -0.034558199 1.5302214e-38 257 267
-0.07913845 0.72799999 -0.034463517 1.5484082e-38 258 267
-0.077862024 0.72799999 -0.034463517 1.5023104e-38 259 267
-0.076480396 0.727 -0.03441618 1.4655044e-38 260 267
-0.074998833 0.72500002 -0.034321502 1.4285902e-38 261 267
-0.073727667 0.72500002 -0.034321502 1.4377747e-38 262 267
-0.072456501 0.72500002 -0.034321502 1.4377747e-38 263 267
-0.071185336 0.72500002 -0.034321502 1.4378103e-38 264 267
-0.069914162 0.72500002 -0.034321502 1.4378103e-38 265 267
-0.068643004 0.72500002 -0.034321502 1.4286981e-38 266 267
-0.067371838 0.72500002 -0.034321502 1.4194785e-38 267 267
-0.066100664 0.72500002 -0.034321502 1.3735249e-38 268 267
-0.064829499 0.72500002 -0.034321502 1.3551218e-38 269 267
-0.06373366 0.727 -0.03441618 1.3276441e-38 270 267
-0.062458992 0.727 -0.03441618 1.3184246e-38 271 267
-0.061268479 0.72799999 -0.034463517 1.3092776e-38 272 267
-0.059992049 0.72799999 -0.034463517 1.3092776e-38 273 267
-0.058876935 0.73000002 -0.034558199 1.3000577e-38 274 267
-0.057675898 0.73100001 -0.034605537 1.2816185e-38 275 267
-0.056548502 0.73299998 -0.034700219 1.2999134e-38 276 267
-0.055338707 0.73400003 -0.03474756 1.290658e-38 277 267
-0.054051761 0.73400003 -0.03474756 1.2905145e-38 278 267
