# .PCD v.7 - Point Cloud Data file format
FIELDS x y z rgb imX imY
SIZE 4 4 4 4 4 4
TYPE F F F F F F
COUNT 1 1 1 1 1 1
WIDTH 833
HEIGHT 1
VIEWPOINT 0 0 0 1 0 0 0
POINTS 833
DATA ascii
0.081177577 0.671 -0.095295422 1.4745425e-38 389 321
0.082476802 0.67199999 -0.095437437 1.4653227e-38 390 321
0.083655037 0.67199999 -0.095437437 1.4468835e-38 391 321
0.085212 0.67500001 -0.095863499 1.4008579e-38 392 321
0.086523488 0.676 -0.096005514 1.3547601e-38 393 321
0.08796823 0.67799997 -0.096289553 1.2720008e-38 394 321
0.089288503 0.67900002 -0.096431576 1.1982443e-38 395 321
0.090612262 0.68000001 -0.096573599 1.0876838e-38 396 321
0.091804534 0.68000001 -0.096573599 1.0324023e-38 397 321
0.092860043 0.67900002 -0.096431576 8.0220484e-39 398 321
0.094050556 0.67900002 -0.096431576 7.6536246e-39 399 321
-0.081174068 0.69099998 -0.099347368 1.3920095e-38 253 322
-0.079499632 0.68699998 -0.098772272 1.3181066e-38 254 322
-0.078295097 0.68699998 -0.098772272 1.2720088e-38 255 322
-0.077090554 0.68699998 -0.098772272 1.2902639e-38 256 322
-0.075886011 0.68699998 -0.098772272 1.2810444e-38 257 322
-0.074572764 0.68599999 -0.098628499 1.2810784e-38 258 322
-0.073156074 0.68400002 -0.098340958 1.3087011e-38 259 322
-0.071746394 0.68199998 -0.098053411 1.3271757e-38 260 322
-0.070550621 0.68199998 -0.098053411 1.3456148e-38 261 322
-0.069049768 0.67900002 -0.097622089 1.3825279e-38 262 322
-0.06775932 0.67799997 -0.097478308 1.4102226e-38 263 322
-0.066570558 0.67799997 -0.097478308 1.4470999e-38 264 322
-0.065188929 0.676 -0.097190768 1.4840142e-38 265 322
-0.063909002 0.67500001 -0.097047001 1.5483706e-38 266 322
-0.062725499 0.67500001 -0.097047001 1.5760293e-38 267 322
-0.061450824 0.67400002 -0.096903227 1.585177e-38 268 322
-0.06026908 0.67400002 -0.096903227 1.5943966e-38 269 322
-0.058911994 0.67199999 -0.09661568 1.5761372e-38 270 322
-0.057647847 0.671 -0.096471906 1.5853568e-38 271 322
-0.056471359 0.671 -0.096471906 1.6313097e-38 272 322
-0.055212468 0.67000002 -0.096328132 1.6220901e-38 273 322
-0.054037735 0.67000002 -0.096328132 1.6773356e-38 274 322
-0.052863002 0.67000002 -0.096328132 1.6865552e-38 275 322
-0.051533967 0.66799998 -0.096040577 1.6682605e-38 276 322
-0.050287351 0.667 -0.09589681 1.6866998e-38 277 322
-0.04904424 0.66600001 -0.095753036 1.7417298e-38 278 322
-0.047876518 0.66600001 -0.095753036 1.7509852e-38 279 322
-0.046708796 0.66600001 -0.095753036 1.7509143e-38 280 322
-0.045541082 0.66600001 -0.095753036 1.7785729e-38 281 322
-0.04437336 0.66600001 -0.095753036 1.7877924e-38 282 322
-0.043075889 0.66399997 -0.095465489 1.8062317e-38 283 322
-0.041911677 0.66399997 -0.095465489 1.7879721e-38 284 322
-0.040747464 0.66399997 -0.095465489 1.7972275e-38 285 322
-0.039523639 0.66299999 -0.095321715 1.8247783e-38 286 322
-0.038361177 0.66299999 -0.095321715 1.8247783e-38 287 322
-0.037198719 0.66299999 -0.095321715 1.8706603e-38 288 322
-0.036036257 0.66299999 -0.095321715 1.8799159e-38 289 322
-0.034873798 0.66299999 -0.095321715 1.8708039e-38 290 322
-0.033711337 0.66299999 -0.095321715 1.8708039e-38 291 322
-0.03259797 0.66399997 -0.095465489 1.8708042e-38 292 322
-0.031386416 0.66299999 -0.095321715 1.8708042e-38 293 322
-0.030178372 0.662 -0.095177941 1.8890998e-38 294 322
-0.029017664 0.662 -0.095177941 1.8983194e-38 295 322
-0.027856959 0.662 -0.095177941 1.8983547e-38 296 322
-0.026696252 0.662 -0.095177941 1.8983547e-38 297 322
-0.025496973 0.66100001 -0.095034167 1.8984619e-38 298 322
-0.02433802 0.66100001 -0.095034167 1.8984619e-38 299 322
-0.023179067 0.66100001 -0.095034167 1.8983898e-38 300 322
-0.022020113 0.66100001 -0.095034167 1.9076452e-38 301 322
-0.02086116 0.66100001 -0.095034167 1.9076449e-38 302 322
-0.019732011 0.662 -0.095177941 1.9076449e-38 303 322
-0.018571306 0.662 -0.095177941 1.9076449e-38 304 322
-0.017410601 0.662 -0.095177941 1.9076449e-38 305 322
-0.016249891 0.662 -0.095177941 1.8985325e-38 306 322
-0.015111978 0.66299999 -0.095321715 1.8985325e-38 307 322
-0.01392848 0.662 -0.095177941 1.8984954e-38 308 322
-0.012748486 0.66100001 -0.095034167 1.8892759e-38 309 322
-0.011554466 0.65899998 -0.094746619 1.916755e-38 310 322
-0.010399019 0.65899998 -0.094746619 1.9259746e-38 311 322
-0.0092435731 0.65899998 -0.094746619 1.8983885e-38 312 322
-0.0080881258 0.65899998 -0.094746619 1.8983885e-38 313 322
-0.0069326796 0.65899998 -0.094746619 1.8891688e-38 314 322
-0.0057772328 0.65899998 -0.094746619 1.8983885e-38 315 322
-0.0046217865 0.65899998 -0.094746619 1.8800208e-38 316 322
-0.0034663398 0.65899998 -0.094746619 1.8800208e-38 317 322
-0.0023108933 0.65899998 -0.094746619 1.8800206e-38 318 322
-0.0011554466 0.65899998 -0.094746619 1.870801e-38 319 322
0 0.66100001 -0.095034167 1.8892038e-38 320 322
0.0011589533 0.66100001 -0.095034167 1.8799843e-38 321 322
0.0023179066 0.66100001 -0.095034167 1.8799489e-38 322 322
0.00347686 0.66100001 -0.095034167 1.8799489e-38 323 322
0.0046358132 0.66100001 -0.095034167 1.8891332e-38 324 322
0.0057947668 0.66100001 -0.095034167 1.8891332e-38 325 322
0.00695372 0.66100001 -0.095034167 1.8891332e-38 326 322
0.0080881258 0.65899998 -0.094746619 1.8891332e-38 327 322
0.0092295464 0.65799999 -0.094602853 1.8708016e-38 328 322
0.01036746 0.65700001 -0.094459079 1.8708016e-38 329 322
0.011519399 0.65700001 -0.094459079 1.8708016e-38 330 322
0.01267134 0.65700001 -0.094459079 1.8708016e-38 331 322
0.01384432 0.65799999 -0.094602853 1.8523628e-38 332 322
0.015020805 0.65899998 -0.094746619 1.8523628e-38 333 322
0.016225345 0.66100001 -0.095034167 1.8523628e-38 334 322
0.0173843 0.66100001 -0.095034167 1.870766e-38 335 322
0.018543253 0.66100001 -0.095034167 1.8523628e-38 336 322
0.019702207 0.66100001 -0.095034167 1.870766e-38 337 322
0.02086116 0.66100001 -0.095034167 1.8799139e-38 338 322
0.022020113 0.66100001 -0.095034167 1.8706944e-38 339 322
0.023179067 0.66100001 -0.095034167 1.8707662e-38 340 322
0.02433802 0.66100001 -0.095034167 1.8523631e-38 341 322
0.025419824 0.65899998 -0.094746619 1.8706941e-38 342 322
0.026575271 0.65899998 -0.094746619 1.8706941e-38 343 322
0.027730718 0.65899998 -0.094746619 1.8523626e-38 344 322
0.028886165 0.65899998 -0.094746619 1.843143e-38 345 322
0.030041611 0.65899998 -0.094746619 1.8615098e-38 346 322
0.031291738 0.66100001 -0.095034167 1.8615098e-38 347 322
0.032352503 0.65899998 -0.094746619 1.8431433e-38 348 322
0.033507951 0.65899998 -0.094746619 1.8431433e-38 349 322
0.0347686 0.66100001 -0.095034167 1.843108e-38 350 322
0.035927553 0.66100001 -0.095034167 1.8338884e-38 351 322
0.037086505 0.66100001 -0.095034167 1.8338528e-38 352 322
0.038245458 0.66100001 -0.095034167 1.8338528e-38 353 322
0.039404415 0.66100001 -0.095034167 1.8246335e-38 354 322
0.040563367 0.66100001 -0.095034167 1.8154138e-38 355 322
0.04172232 0.66100001 -0.095034167 1.8153069e-38 356 322
0.042881273 0.66100001 -0.095034167 1.7968319e-38 357 322
0.044106852 0.662 -0.095177941 1.7876123e-38 358 322
0.04526756 0.662 -0.095177941 1.7692092e-38 359 322
0.046428263 0.662 -0.095177941 1.7600243e-38 360 322
0.047588971 0.662 -0.095177941 1.7600243e-38 361 322
0.048749682 0.662 -0.095177941 1.7691713e-38 362 322
0.049910385 0.662 -0.095177941 1.7599517e-38 363 322
0.051071092 0.662 -0.095177941 1.7231089e-38 364 322
0.052152898 0.66100001 -0.095034167 1.7231089e-38 365 322
0.053311851 0.66100001 -0.095034167 1.7138889e-38 366 322
0.054470807 0.66100001 -0.095034167 1.7231445e-38 367 322
0.055713918 0.662 -0.095177941 1.6955227e-38 368 322
0.056874625 0.662 -0.095177941 1.6955227e-38 369 322
0.058035329 0.662 -0.095177941 1.6771554e-38 370 322
0.05919604 0.662 -0.095177941 1.6771554e-38 371 322
0.060447913 0.66299999 -0.095321715 1.6770479e-38 372 322
0.061610378 0.66299999 -0.095321715 1.6586088e-38 373 322
0.062772833 0.66299999 -0.095321715 1.6401704e-38 374 322
0.064031735 0.66399997 -0.095465489 1.6217311e-38 375 322
0.06519594 0.66399997 -0.095465489 1.6125481e-38 376 322
0.066360161 0.66399997 -0.095465489 1.6125481e-38 377 322
0.067524366 0.66399997 -0.095465489 1.5849264e-38 378 322
0.068895474 0.66600001 -0.095753036 1.5757069e-38 379 322
0.070063196 0.66600001 -0.095753036 1.5390088e-38 380 322
0.071230918 0.66600001 -0.095753036 1.5205697e-38 381 322
0.07239864 0.66600001 -0.095753036 1.5388641e-38 382 322
0.073676817 0.667 -0.09589681 1.5296444e-38 383 322
0.07484629 0.667 -0.09589681 1.5020936e-38 384 322
0.076129727 0.66799998 -0.096040577 1.5020936e-38 385 322
0.077532403 0.67000002 -0.096328132 1.4927671e-38 386 322
0.078707129 0.67000002 -0.096328132 1.4927671e-38 387 322
0.079881869 0.67000002 -0.096328132 1.4468129e-38 388 322
0.081177577 0.671 -0.096471906 1.4468129e-38 389 322
0.082476802 0.67199999 -0.09661568 1.4284443e-38 390 322
0.083655037 0.67199999 -0.09661568 1.3823466e-38 391 322
0.085212 0.67500001 -0.097047001 1.3638717e-38 392 322
0.086523488 0.676 -0.097190768 1.3270295e-38 393 322
0.08796823 0.67799997 -0.097478308 1.2533471e-38 394 322
0.089288503 0.67900002 -0.097622089 1.1888102e-38 395 322
0.090612262 0.68000001 -0.09776587 1.0691739e-38 396 322
0.091804534 0.68000001 -0.09776587 9.9541741e-39 397 322
0.092860043 0.67900002 -0.097622089 8.3933574e-39 398 322
0.094050556 0.67900002 -0.097622089 9.7762919e-39 399 322
-0.078409068 0.68800002 -0.10012234 1.2996694e-38 255 323
-0.077202775 0.68800002 -0.10012234 1.3087769e-38 256 323
-0.075775556 0.68599999 -0.099831291 1.2534954e-38 257 323
-0.074572764 0.68599999 -0.099831291 1.2993746e-38 258 323
-0.073049128 0.68300003 -0.099394716 1.3085942e-38 259 323
-0.071746394 0.68199998 -0.099249184 1.3087011e-38 260 323
-0.070343733 0.68000001 -0.098958135 1.3179206e-38 261 323
-0.069151461 0.68000001 -0.098958135 1.3364308e-38 262 323
-0.06775932 0.67799997 -0.09866707 1.3640535e-38 263 323
-0.066374183 0.676 -0.098376028 1.3641964e-38 264 323
-0.065188929 0.676 -0.098376028 1.4010747e-38 265 323
-0.063909002 0.67500001 -0.098230496 1.465575e-38 266 323
-0.062725499 0.67500001 -0.098230496 1.5024173e-38 267 323
-0.061450824 0.67400002 -0.098084971 1.5575179e-38 268 323
-0.060090236 0.67199999 -0.097793922 1.5667374e-38 269 323
-0.058824331 0.671 -0.09764839 1.5576256e-38 270 323
-0.057647847 0.671 -0.09764839 1.5760646e-38 271 323
-0.056387197 0.67000002 -0.097502865 1.5944672e-38 272 323
-0.055212468 0.67000002 -0.097502865 1.5852476e-38 273 323
-0.053876422 0.66799998 -0.097211808 1.6037233e-38 274 323
-0.052705199 0.66799998 -0.097211808 1.6221626e-38 275 323
-0.051456824 0.667 -0.097066283 1.6497142e-38 276 323
-0.050287351 0.667 -0.097066283 1.6681533e-38 277 323
-0.04904424 0.66600001 -0.096920758 1.6957041e-38 278 323
-0.047876518 0.66600001 -0.096920758 1.7049237e-38 279 323
-0.046708796 0.66600001 -0.096920758 1.7232552e-38 280 323
-0.045404319 0.66399997 -0.096629702 1.7417303e-38 281 323
-0.044240102 0.66399997 -0.096629702 1.7417666e-38 282 323
-0.043075889 0.66399997 -0.096629702 1.7602058e-38 283 323
-0.041848559 0.66299999 -0.096484177 1.7603132e-38 284 323
-0.040686097 0.66299999 -0.096484177 1.7695329e-38 285 323
-0.039523639 0.66299999 -0.096484177 1.7787525e-38 286 323
-0.038361177 0.66299999 -0.096484177 1.7787525e-38 287 323
-0.037198719 0.66299999 -0.096484177 1.8155231e-38 288 323
-0.035981905 0.662 -0.096338652 1.8155231e-38 289 323
-0.034821201 0.662 -0.096338652 1.83389e-38 290 323
-0.033660494 0.662 -0.096338652 1.8431095e-38 291 323
-0.032499783 0.662 -0.096338652 1.8522575e-38 292 323
-0.031339079 0.662 -0.096338652 1.8522575e-38 293 323
-0.030178372 0.662 -0.096338652 1.852294e-38 294 323
-0.028973831 0.66100001 -0.096193127 1.8615137e-38 295 323
-0.02781488 0.66100001 -0.096193127 1.8615491e-38 296 323
-0.026655925 0.66100001 -0.096193127 1.8707686e-38 297 323
-0.025419824 0.65899998 -0.09590207 1.8708039e-38 298 323
-0.024264378 0.65899998 -0.09590207 1.8708039e-38 299 323
-0.023179067 0.66100001 -0.096193127 1.8800232e-38 300 323
-0.022020113 0.66100001 -0.096193127 1.8800232e-38 301 323
-0.02086116 0.66100001 -0.096193127 1.8800588e-38 302 323
-0.019702207 0.66100001 -0.096193127 1.8800588e-38 303 323
-0.018543253 0.66100001 -0.096193127 1.8984622e-38 304 323
-0.0173843 0.66100001 -0.096193127 1.8984622e-38 305 323
-0.016225345 0.66100001 -0.096193127 1.8801307e-38 306 323
-0.015089186 0.662 -0.096338652 1.8801307e-38 307 323
-0.01390744 0.66100001 -0.096193127 1.8984972e-38 308 323
-0.012709912 0.65899998 -0.09590207 1.8800941e-38 309 323
-0.011554466 0.65899998 -0.09590207 1.8984251e-38 310 323
-0.01038324 0.65799999 -0.095756538 1.9076446e-38 311 323
-0.0092295464 0.65799999 -0.095756538 1.8984972e-38 312 323
-0.0080758529 0.65799999 -0.095756538 1.8800941e-38 313 323
-0.0069221598 0.65799999 -0.095756538 1.870839e-38 314 323
-0.0057684663 0.65799999 -0.095756538 1.8800585e-38 315 323
-0.0046147732 0.65799999 -0.095756538 1.8708387e-38 316 323
-0.0034610799 0.65799999 -0.095756538 1.8708387e-38 317 323
-0.0023073866 0.65799999 -0.095756538 1.870874e-38 318 323
-0.0011536933 0.65799999 -0.095756538 1.8616543e-38 319 323
0 0.65799999 -0.095756538 1.8800211e-38 320 323
0.0011536933 0.65799999 -0.095756538 1.8708016e-38 321 323
0.0023073866 0.65799999 -0.095756538 1.8799855e-38 322 323
0.0034610799 0.65799999 -0.095756538 1.8799855e-38 323 323
0.0046217865 0.65899998 -0.09590207 1.8892058e-38 324 323
0.0057772328 0.65899998 -0.09590207 1.8892058e-38 325 323
0.0069326796 0.65899998 -0.09590207 1.8799861e-38 326 323
0.0080758529 0.65799999 -0.095756538 1.8799861e-38 327 323
0.0092155198 0.65700001 -0.095611021 1.8616546e-38 328 323
0.01036746 0.65700001 -0.095611021 1.8616546e-38 329 323
0.011519399 0.65700001 -0.095611021 1.8799858e-38 330 323
0.01267134 0.65700001 -0.095611021 1.8707662e-38 331 323
0.013823279 0.65700001 -0.095611021 1.8707662e-38 332 323
0.014998012 0.65799999 -0.095756538 1.8523631e-38 333 323
0.016176252 0.65899998 -0.09590207 1.8523275e-38 334 323
0.0173843 0.66100001 -0.096193127 1.8523275e-38 335 323
0.018543253 0.66100001 -0.096193127 1.8523631e-38 336 323
0.019702207 0.66100001 -0.096193127 1.8707662e-38 337 323
0.020798039 0.65899998 -0.09590207 1.8523631e-38 338 323
0.021953486 0.65899998 -0.09590207 1.8523631e-38 339 323
0.023179067 0.66100001 -0.096193127 1.8523278e-38 340 323
0.024264378 0.65899998 -0.09590207 1.8523278e-38 341 323
0.025419824 0.65899998 -0.09590207 1.8431083e-38 342 323
0.026534945 0.65799999 -0.095756538 1.8431083e-38 343 323
0.027688639 0.65799999 -0.095756538 1.8338884e-38 344 323
0.028842334 0.65799999 -0.095756538 1.8338884e-38 345 323
0.029996024 0.65799999 -0.095756538 1.8431077e-38 346 323
0.031197058 0.65899998 -0.09590207 1.8431077e-38 347 323
0.032352503 0.65899998 -0.09590207 1.8155216e-38 348 323
0.033507951 0.65899998 -0.09590207 1.8155216e-38 349 323
0.034663398 0.65899998 -0.09590207 1.8062667e-38 350 323
0.035818845 0.65899998 -0.09590207 1.8062667e-38 351 323
0.036974292 0.65899998 -0.09590207 1.8062667e-38 352 323
0.038129739 0.65899998 -0.09590207 1.7970472e-38 353 323
0.039285187 0.65899998 -0.09590207 1.7878272e-38 354 323
0.04044063 0.65899998 -0.09590207 1.769388e-38 355 323
0.041596077 0.65899998 -0.09590207 1.7692092e-38 356 323
0.042751525 0.65899998 -0.09590207 1.7599897e-38 357 323
0.043906972 0.65899998 -0.09590207 1.7506993e-38 358 323
0.045199182 0.66100001 -0.096193127 1.7414798e-38 359 323
0.046358135 0.66100001 -0.096193127 1.7322955e-38 360 323
0.047517084 0.66100001 -0.096193127 1.7230401e-38 361 323
0.04867604 0.66100001 -0.096193127 1.7322584e-38 362 323
0.049834993 0.66100001 -0.096193127 1.7230388e-38 363 323
0.050993945 0.66100001 -0.096193127 1.7138542e-38 364 323
0.052152898 0.66100001 -0.096193127 1.7046346e-38 365 323
0.053311851 0.66100001 -0.096193127 1.658717e-38 366 323
0.054470807 0.66100001 -0.096193127 1.658717e-38 367 323
0.05562976 0.66100001 -0.096193127 1.649534e-38 368 323
0.056788713 0.66100001 -0.096193127 1.6403144e-38 369 323
0.057947662 0.66100001 -0.096193127 1.6126559e-38 370 323
0.05919604 0.662 -0.096338652 1.6126559e-38 371 323
0.060356744 0.662 -0.096338652 1.6309511e-38 372 323
0.061610378 0.66299999 -0.096484177 1.612476e-38 373 323
0.062772833 0.66299999 -0.096484177 1.6032564e-38 374 323
0.063935295 0.66299999 -0.096484177 1.5848173e-38 375 323
0.065097757 0.66299999 -0.096484177 1.5572309e-38 376 323
0.066360161 0.66399997 -0.096629702 1.5572309e-38 377 323
0.067524366 0.66399997 -0.096629702 1.5388644e-38 378 323
0.068895474 0.66600001 -0.096920758 1.5296447e-38 379 323
0.070063196 0.66600001 -0.096920758 1.4928384e-38 380 323
0.071230918 0.66600001 -0.096920758 1.4928384e-38 381 323
0.07239864 0.66600001 -0.096920758 1.4836189e-38 382 323
0.073566355 0.66600001 -0.096920758 1.4836189e-38 383 323
0.07484629 0.667 -0.097066283 1.4743996e-38 384 323
0.076015763 0.667 -0.097066283 1.4651441e-38 385 323
0.077300951 0.66799998 -0.097211808 1.4467413e-38 386 323
0.078472182 0.66799998 -0.097211808 1.4375216e-38 387 323
0.079881869 0.67000002 -0.097502865 1.4099705e-38 388 323
0.081177577 0.671 -0.09764839 1.400751e-38 389 323
0.082476802 0.67199999 -0.097793922 1.3823113e-38 390 323
0.083655037 0.67199999 -0.097793922 1.3362135e-38 391 323
0.085085757 0.67400002 -0.098084971 1.3177393e-38 392 323
0.086395502 0.67500001 -0.098230496 1.2716415e-38 393 323
0.08796823 0.67799997 -0.09866707 1.188847e-38 394 323
0.089288503 0.67900002 -0.09881261 1.1335298e-38 395 323
0.090479009 0.67900002 -0.09881261 9.7715835e-39 396 323
0.091669522 0.67900002 -0.09881261 8.8496286e-39 397 323
0.093270317 0.68199998 -0.099249184 1.0880131e-38 398 323
-0.078409068 0.68800002 -0.10132864 1.3090333e-38 255 324
-0.077090554 0.68699998 -0.10118135 1.3088865e-38 256 324
-0.075775556 0.68599999 -0.10103408 1.2443854e-38 257 324
-0.074572764 0.68599999 -0.10103408 1.2993759e-38 258 324
-0.073049128 0.68300003 -0.10059224 1.2993759e-38 259 324
-0.071746394 0.68199998 -0.10044495 1.2810431e-38 260 324
-0.070343733 0.68000001 -0.10015039 1.2994462e-38 261 324
-0.069049768 0.67900002 -0.10000312 1.3087364e-38 262 324
-0.06775932 0.67799997 -0.099855833 1.3271757e-38 263 324
-0.066374183 0.676 -0.099561274 1.3088795e-38 264 324
-0.065188929 0.676 -0.099561274 1.3457576e-38 265 324
-0.063909002 0.67500001 -0.099413998 1.3735236e-38 266 324
-0.062725499 0.67500001 -0.099413998 1.4288408e-38 267 324
-0.061450824 0.67400002 -0.099266715 1.4840139e-38 268 324
-0.060090236 0.67199999 -0.098972157 1.502417e-38 269 324
-0.058824331 0.671 -0.098824874 1.5667728e-38 270 324
-0.057561934 0.67000002 -0.098677598 1.5759925e-38 271 324
-0.056387197 0.67000002 -0.098677598 1.5760997e-38 272 324
-0.05504765 0.66799998 -0.098383039 1.5760997e-38 273 324
-0.05379577 0.667 -0.098235756 1.5944316e-38 274 324
-0.052626297 0.667 -0.098235756 1.603687e-38 275 324
-0.051379681 0.66600001 -0.098088481 1.6220548e-38 276 324
-0.050211959 0.66600001 -0.098088481 1.6312744e-38 277 324
-0.04904424 0.66600001 -0.098088481 1.6680807e-38 278 324
-0.047732744 0.66399997 -0.097793914 1.6680807e-38 279 324
-0.046568532 0.66399997 -0.097793914 1.7047795e-38 280 324
-0.045404319 0.66399997 -0.097793914 1.7232186e-38 281 324
-0.044240102 0.66399997 -0.097793914 1.7232908e-38 282 324
-0.043011017 0.66299999 -0.097646631 1.7417301e-38 283 324
-0.041848559 0.66299999 -0.097646631 1.7418017e-38 284 324
-0.040686097 0.66299999 -0.097646631 1.7510212e-38 285 324
-0.039464023 0.662 -0.097499363 1.7510934e-38 286 324
-0.038303319 0.662 -0.097499363 1.760313e-38 287 324
-0.037198719 0.66299999 -0.097646631 1.7878274e-38 288 324
-0.035981905 0.662 -0.097499363 1.7878274e-38 289 324
-0.034821201 0.662 -0.097499363 1.806194e-38 290 324
-0.033660494 0.662 -0.097499363 1.8246333e-38 291 324
-0.032499783 0.662 -0.097499363 1.8337815e-38 292 324
-0.031291738 0.66100001 -0.09735208 1.8521846e-38 293 324
-0.030132787 0.66100001 -0.09735208 1.8521493e-38 294 324
-0.028973831 0.66100001 -0.09735208 1.8705884e-38 295 324
-0.02781488 0.66100001 -0.09735208 1.8706959e-38 296 324
-0.026575271 0.65899998 -0.097057514 1.8799156e-38 297 324
-0.025419824 0.65899998 -0.097057514 1.8616195e-38 298 324
-0.024264378 0.65899998 -0.097057514 1.8616195e-38 299 324
-0.023108931 0.65899998 -0.097057514 1.8708392e-38 300 324
-0.021953486 0.65899998 -0.097057514 1.8708392e-38 301 324
-0.020798039 0.65899998 -0.097057514 1.8708392e-38 302 324
-0.019702207 0.66100001 -0.09735208 1.8708392e-38 303 324
-0.018487146 0.65899998 -0.097057514 1.8983903e-38 304 324
-0.017331699 0.65899998 -0.097057514 1.8983903e-38 305 324
-0.016176252 0.65899998 -0.097057514 1.8800235e-38 306 324
-0.015020805 0.65899998 -0.097057514 1.8984266e-38 307 324
-0.013865359 0.65899998 -0.097057514 1.9167213e-38 308 324
-0.012690626 0.65799999 -0.096910238 1.9167213e-38 309 324
-0.011536933 0.65799999 -0.096910238 1.8984972e-38 310 324
-0.01036746 0.65700001 -0.096762955 1.8800941e-38 311 324
-0.0092155198 0.65700001 -0.096762955 1.8801307e-38 312 324
-0.0080758529 0.65799999 -0.096910238 1.8801307e-38 313 324
-0.0069221598 0.65799999 -0.096910238 1.8800232e-38 314 324
-0.0057684663 0.65799999 -0.096910238 1.8800232e-38 315 324
-0.0046147732 0.65799999 -0.096910238 1.8891702e-38 316 324
-0.0034610799 0.65799999 -0.096910238 1.8891702e-38 317 324
-0.0023073866 0.65799999 -0.096910238 1.8799861e-38 318 324
-0.00115194 0.65700001 -0.096762955 1.8707306e-38 319 324
0 0.65700001 -0.096762955 1.8891335e-38 320 324
0.00115194 0.65700001 -0.096762955 1.8891335e-38 321 324
0.0023038799 0.65700001 -0.096762955 1.8890982e-38 322 324
0.0034558198 0.65700001 -0.096762955 1.8890982e-38 323 324
0.0046077599 0.65700001 -0.096762955 1.8983182e-38 324 324
0.0057596997 0.65700001 -0.096762955 1.8983182e-38 325 324
0.0069221598 0.65799999 -0.096910238 1.8891338e-38 326 324
0.0080635799 0.65700001 -0.096762955 1.8891338e-38 327 324
0.0091874655 0.65499997 -0.096468389 1.8799861e-38 328 324
0.010335899 0.65499997 -0.096468389 1.8799861e-38 329 324
0.011484332 0.65499997 -0.096468389 1.8983535e-38 330 324
0.012632766 0.65499997 -0.096468389 1.8799142e-38 331 324
0.013823279 0.65700001 -0.096762955 1.8523275e-38 332 324
0.01497522 0.65700001 -0.096762955 1.8523275e-38 333 324
0.016151706 0.65799999 -0.096910238 1.8431083e-38 334 324
0.017305398 0.65799999 -0.096910238 1.8523278e-38 335 324
0.018487146 0.65899998 -0.097057514 1.8614395e-38 336 324
0.019612785 0.65799999 -0.096910238 1.870659e-38 337 324
0.02076648 0.65799999 -0.096910238 1.8614395e-38 338 324
0.021920172 0.65799999 -0.096910238 1.8614395e-38 339 324
0.023073865 0.65799999 -0.096910238 1.8614039e-38 340 324
0.02422756 0.65799999 -0.096910238 1.8614039e-38 341 324
0.025381252 0.65799999 -0.096910238 1.8521843e-38 342 324
0.026494619 0.65700001 -0.096762955 1.8521843e-38 343 324
0.027646558 0.65700001 -0.096762955 1.8337812e-38 344 324
0.028798498 0.65700001 -0.096762955 1.8337812e-38 345 324
0.029996024 0.65799999 -0.096910238 1.8522196e-38 346 324
0.031149717 0.65799999 -0.096910238 1.8522196e-38 347 324
0.032303412 0.65799999 -0.096910238 1.8337809e-38 348 324
0.033457108 0.65799999 -0.096910238 1.8337809e-38 349 324
0.034610797 0.65799999 -0.096910238 1.8061587e-38 350 324
0.035710141 0.65700001 -0.096762955 1.8061587e-38 351 324
0.036862079 0.65700001 -0.096762955 1.8153064e-38 352 324
0.038071878 0.65799999 -0.096910238 1.7968672e-38 353 324
0.039225571 0.65799999 -0.096910238 1.7692445e-38 354 324
0.040379263 0.65799999 -0.096910238 1.7415498e-38 355 324
0.04153296 0.65799999 -0.096910238 1.7415145e-38 356 324
0.042686652 0.65799999 -0.096910238 1.732295e-38 357 324
0.043840345 0.65799999 -0.096910238 1.704637e-38 358 324
0.045062415 0.65899998 -0.097057514 1.6861977e-38 359 324
0.046217863 0.65899998 -0.097057514 1.7045277e-38 360 324
0.04737331 0.65899998 -0.097057514 1.6860527e-38 361 324
0.048528757 0.65899998 -0.097057514 1.6585369e-38 362 324
0.049684204 0.65899998 -0.097057514 1.6585369e-38 363 324
0.050839648 0.65899998 -0.097057514 1.6769037e-38 364 324
0.051995095 0.65899998 -0.097057514 1.6769037e-38 365 324
0.053150542 0.65899998 -0.097057514 1.640206e-38 366 324
0.054305989 0.65899998 -0.097057514 1.640206e-38 367 324
0.05562976 0.66100001 -0.09735208 1.6217676e-38 368 324
0.056788713 0.66100001 -0.09735208 1.6217676e-38 369 324
0.057947662 0.66100001 -0.09735208 1.5941447e-38 370 324
0.059106622 0.66100001 -0.09735208 1.5941447e-38 371 324
0.060356744 0.662 -0.097499363 1.6032564e-38 372 324
0.061517447 0.662 -0.097499363 1.5848173e-38 373 324
0.062678158 0.662 -0.097499363 1.6030766e-38 374 324
0.063838862 0.662 -0.097499363 1.5754538e-38 375 324
0.065097757 0.66299999 -0.097646631 1.5112052e-38 376 324
0.066260219 0.66299999 -0.097646631 1.4928021e-38 377 324
0.067524366 0.66399997 -0.097793914 1.4927665e-38 378 324
0.068688579 0.66399997 -0.097793914 1.4651077e-38 379 324
0.069852799 0.66399997 -0.097793914 1.4651795e-38 380 324
0.071017005 0.66399997 -0.097793914 1.4651795e-38 381 324
0.07239864 0.66600001 -0.098088481 1.4467762e-38 382 324
0.073566355 0.66600001 -0.098088481 1.4467762e-38 383 324
0.074734077 0.66600001 -0.098088481 1.4558881e-38 384 324
0.076015763 0.667 -0.098235756 1.4374131e-38 385 324
0.077185236 0.667 -0.098235756 1.4190819e-38 386 324
0.078472182 0.66799998 -0.098383039 1.4006428e-38 387 324
0.079881869 0.67000002 -0.098677598 1.3730916e-38 388 324
0.081056595 0.67000002 -0.098677598 1.363872e-38 389 324
0.082354069 0.671 -0.098824874 1.336214e-38 390 324
0.083655037 0.67199999 -0.098972157 1.2992998e-38 391 324
0.085085757 0.67400002 -0.099266715 1.2623869e-38 392 324
0.086395502 0.67500001 -0.099413998 1.2346922e-38 393 324
0.08796823 0.67799997 -0.099855833 1.1427859e-38 394 324
0.089288503 0.67900002 -0.10000312 1.096724e-38 395 324
0.090479009 0.67900002 -0.10000312 9.4946505e-39 396 324
0.091669522 0.67900002 -0.10000312 9.1255092e-39 397 324
0.093270317 0.68199998 -0.10044495 1.3276151e-38 398 324
-0.077090554 0.68699998 -0.10238589 1.3273615e-38 256 325
-0.075775556 0.68599999 -0.10223686 1.2720441e-38 257 325
-0.074572764 0.68599999 -0.10223686 1.3178157e-38 258 325
-0.073049128 0.68300003 -0.10178977 1.2809374e-38 259 325
-0.071746394 0.68199998 -0.10164072 1.2810431e-38 260 325
-0.070343733 0.68000001 -0.10134266 1.2718235e-38 261 325
-0.069049768 0.67900002 -0.10119363 1.299374e-38 262 325
-0.06775932 0.67799997 -0.1010446 1.3086295e-38 263 325
-0.066374183 0.676 -0.10074653 1.28115e-38 264 325
-0.065188929 0.676 -0.10074653 1.3088088e-38 265 325
-0.063909002 0.67500001 -0.10059749 1.3456854e-38 266 325
-0.062632568 0.67400002 -0.10044847 1.3917831e-38 267 325
-0.061268479 0.67199999 -0.10015039 1.4470999e-38 268 325
-0.060090236 0.67199999 -0.10015039 1.465575e-38 269 325
-0.058824331 0.671 -0.10000136 1.5299315e-38 270 325
-0.057561934 0.67000002 -0.099852331 1.5391511e-38 271 325
-0.056387197 0.67000002 -0.099852331 1.5025958e-38 272 325
-0.05504765 0.66799998 -0.099554263 1.5025958e-38 273 325
-0.05379577 0.667 -0.099405229 1.5484782e-38 274 325
-0.052547399 0.66600001 -0.099256195 1.5576978e-38 275 325
-0.051379681 0.66600001 -0.099256195 1.5852492e-38 276 325
-0.050211959 0.66600001 -0.099256195 1.5944687e-38 277 325
-0.048896957 0.66399997 -0.098958127 1.6220195e-38 278 325
-0.047732744 0.66399997 -0.098958127 1.6312391e-38 279 325
-0.046568532 0.66399997 -0.098958127 1.640387e-38 280 325
-0.045404319 0.66399997 -0.098958127 1.6772653e-38 281 325
-0.044173479 0.66299999 -0.098809093 1.6864127e-38 282 325
-0.043011017 0.66299999 -0.098809093 1.7140354e-38 283 325
-0.041785441 0.662 -0.098660067 1.6774451e-38 284 325
-0.04062473 0.662 -0.098660067 1.6866648e-38 285 325
-0.039464023 0.662 -0.098660067 1.7325473e-38 286 325
-0.038303319 0.662 -0.098660067 1.7325473e-38 287 325
-0.037142612 0.662 -0.098660067 1.7235057e-38 288 325
-0.035927553 0.66100001 -0.098511033 1.7142862e-38 289 325
-0.0347686 0.66100001 -0.098511033 1.7693512e-38 290 325
-0.033609647 0.66100001 -0.098511033 1.7785708e-38 291 325
-0.032450691 0.66100001 -0.098511033 1.7510937e-38 292 325
-0.031291738 0.66100001 -0.098511033 1.7603132e-38 293 325
-0.030132787 0.66100001 -0.098511033 1.7786453e-38 294 325
-0.028886165 0.65899998 -0.098212965 1.7970843e-38 295 325
-0.027730718 0.65899998 -0.098212965 1.8154512e-38 296 325
-0.026575271 0.65899998 -0.098212965 1.8338544e-38 297 325
-0.025419824 0.65899998 -0.098212965 1.8247783e-38 298 325
-0.024264378 0.65899998 -0.098212965 1.8247783e-38 299 325
-0.023073865 0.65799999 -0.098063931 1.8248855e-38 300 325
-0.021920172 0.65799999 -0.098063931 1.8248855e-38 301 325
-0.02076648 0.65799999 -0.098063931 1.8706956e-38 302 325
-0.019642593 0.65899998 -0.098212965 1.8799152e-38 303 325
-0.018487146 0.65899998 -0.098212965 1.8615491e-38 304 325
-0.017305398 0.65799999 -0.098063931 1.8707686e-38 305 325
-0.016151706 0.65799999 -0.098063931 1.8616212e-38 306 325
-0.01497522 0.65700001 -0.097914897 1.8708408e-38 307 325
-0.013823279 0.65700001 -0.097914897 1.8708761e-38 308 325
-0.01267134 0.65700001 -0.097914897 1.8616207e-38 309 325
-0.011519399 0.65700001 -0.097914897 1.8708755e-38 310 325
-0.01036746 0.65700001 -0.097914897 1.8708755e-38 311 325
-0.0092155198 0.65700001 -0.097914897 1.852509e-38 312 325
-0.0080635799 0.65700001 -0.097914897 1.852509e-38 313 325
-0.0069116396 0.65700001 -0.097914897 1.8708761e-38 314 325
-0.0057596997 0.65700001 -0.097914897 1.8616207e-38 315 325
-0.0046077599 0.65700001 -0.097914897 1.8432531e-38 316 325
-0.0034558198 0.65700001 -0.097914897 1.8339976e-38 317 325
-0.0023038799 0.65700001 -0.097914897 1.8340332e-38 318 325
-0.00115194 0.65700001 -0.097914897 1.8340332e-38 319 325
0 0.65700001 -0.097914897 1.8431092e-38 320 325
0.00115194 0.65700001 -0.097914897 1.8523647e-38 321 325
0.0023038799 0.65700001 -0.097914897 1.8523291e-38 322 325
0.0034452998 0.65499997 -0.097616829 1.8523291e-38 323 325
0.0045937328 0.65499997 -0.097616829 1.8706603e-38 324 325
0.0057421662 0.65499997 -0.097616829 1.8706603e-38 325 325
0.0068905996 0.65499997 -0.097616829 1.8707312e-38 326 325
0.008039033 0.65499997 -0.097616829 1.8707312e-38 327 325
0.0091874655 0.65499997 -0.097616829 1.8706956e-38 328 325
0.010335899 0.65499997 -0.097616829 1.8706956e-38 329 325
0.011484332 0.65499997 -0.097616829 1.8798433e-38 330 325
0.012632766 0.65499997 -0.097616829 1.8706237e-38 331 325
0.013781199 0.65499997 -0.097616829 1.8339253e-38 332 325
0.014929632 0.65499997 -0.097616829 1.8339253e-38 333 325
0.01612716 0.65700001 -0.097914897 1.8154863e-38 334 325
0.0172791 0.65700001 -0.097914897 1.8339253e-38 335 325
0.01843104 0.65700001 -0.097914897 1.8339253e-38 336 325
0.019582979 0.65700001 -0.097914897 1.8154863e-38 337 325
0.020734919 0.65700001 -0.097914897 1.8154866e-38 338 325
0.021886859 0.65700001 -0.097914897 1.806267e-38 339 325
0.023038799 0.65700001 -0.097914897 1.8062673e-38 340 325
0.024190739 0.65700001 -0.097914897 1.7970118e-38 341 325
0.025342681 0.65700001 -0.097914897 1.7970121e-38 342 325
0.026494619 0.65700001 -0.097914897 1.7970121e-38 343 325
0.027562398 0.65499997 -0.097616829 1.8061239e-38 344 325
0.028710833 0.65499997 -0.097616829 1.8153436e-38 345 325
0.02995044 0.65700001 -0.097914897 1.8061239e-38 346 325
0.03110238 0.65700001 -0.097914897 1.8061239e-38 347 325
0.03225432 0.65700001 -0.097914897 1.7877202e-38 348 325
0.033406258 0.65700001 -0.097914897 1.7877202e-38 349 325
0.034558199 0.65700001 -0.097914897 1.7876121e-38 350 325
0.03560143 0.65499997 -0.097616829 1.769209e-38 351 325
0.036749862 0.65499997 -0.097616829 1.7416947e-38 352 325
0.038014017 0.65700001 -0.097914897 1.7232555e-38 353 325
0.039165959 0.65700001 -0.097914897 1.7231483e-38 354 325
0.0403179 0.65700001 -0.097914897 1.6954896e-38 355 325
0.04153296 0.65799999 -0.098063931 1.6954543e-38 356 325
0.042686652 0.65799999 -0.098063931 1.6769791e-38 357 325
0.043840345 0.65799999 -0.098063931 1.6493565e-38 358 325
0.044994038 0.65799999 -0.098063931 1.6401369e-38 359 325
0.04614773 0.65799999 -0.098063931 1.6217328e-38 360 325
0.047301427 0.65799999 -0.098063931 1.6125131e-38 361 325
0.048455119 0.65799999 -0.098063931 1.5940366e-38 362 325
0.049608808 0.65799999 -0.098063931 1.5940366e-38 363 325
0.050762504 0.65799999 -0.098063931 1.5940368e-38 364 325
0.051995095 0.65899998 -0.098212965 1.6032564e-38 365 325
0.053150542 0.65899998 -0.098212965 1.5665952e-38 366 325
0.054305989 0.65899998 -0.098212965 1.5573756e-38 367 325
0.05562976 0.66100001 -0.098511033 1.5573035e-38 368 325
0.056788713 0.66100001 -0.098511033 1.5573035e-38 369 325
0.057947662 0.66100001 -0.098511033 1.5205694e-38 370 325
0.059106622 0.66100001 -0.098511033 1.5113499e-38 371 325
0.060356744 0.662 -0.098660067 1.5203895e-38 372 325
0.061517447 0.662 -0.098660067 1.5111699e-38 373 325
0.062678158 0.662 -0.098660067 1.5202447e-38 374 325
0.063838862 0.662 -0.098660067 1.4926219e-38 375 325
0.064999565 0.662 -0.098660067 1.4467765e-38 376 325
0.066260219 0.66299999 -0.098809093 1.4467765e-38 377 325
0.067422673 0.66299999 -0.098809093 1.4374863e-38 378 325
0.068585135 0.66299999 -0.098809093 1.4190472e-38 379 325
0.069747597 0.66299999 -0.098809093 1.4007876e-38 380 325
0.070910059 0.66299999 -0.098809093 1.391568e-38 381 325
0.072181225 0.66399997 -0.098958127 1.3915674e-38 382 325
0.073566355 0.66600001 -0.099256195 1.3915674e-38 383 325
0.074734077 0.66600001 -0.099256195 1.3822763e-38 384 325
0.075901799 0.66600001 -0.099256195 1.3822763e-38 385 325
0.077185236 0.667 -0.099405229 1.3454699e-38 386 325
0.078354709 0.667 -0.099405229 1.3454699e-38 387 325
0.079643413 0.66799998 -0.099554263 1.3178109e-38 388 325
0.081056595 0.67000002 -0.099852331 1.2901882e-38 389 325
0.082354069 0.671 -0.10000136 1.2716415e-38 390 325
0.083655037 0.67199999 -0.10015039 1.2532024e-38 391 325
0.085085757 0.67400002 -0.10044847 1.2071417e-38 392 325
0.086395502 0.67500001 -0.10059749 1.1886667e-38 393 325
0.08796823 0.67799997 -0.1010446 1.115128e-38 394 325
0.089288503 0.67900002 -0.10119363 1.0966887e-38 395 325
0.090479009 0.67900002 -0.10119363 9.9552853e-39 396 325
0.091669522 0.67900002 -0.10119363 1.1061993e-38 397 325
0.093270317 0.68199998 -0.10164072 1.5302677e-38 398 325
-0.075775556 0.68599999 -0.10343964 1.2904849e-38 257 326
-0.074572764 0.68599999 -0.10343964 1.3270721e-38 258 326
-0.073049128 0.68300003 -0.1029873 1.2809743e-38 259 326
-0.071746394 0.68199998 -0.1028365 1.299339e-38 260 326
-0.070343733 0.68000001 -0.10253493 1.299339e-38 261 326
-0.069151461 0.68000001 -0.10253493 1.2809349e-38 262 326
-0.067859262 0.67900002 -0.10238414 1.2809349e-38 263 326
-0.066570558 0.67799997 -0.10223336 1.2901176e-38 264 326
-0.065188929 0.676 -0.10193179 1.2993731e-38 265 326
-0.063909002 0.67500001 -0.101781 1.2811488e-38 266 326
-0.062632568 0.67400002 -0.10163021 1.3087714e-38 267 326
-0.061268479 0.67199999 -0.10132863 1.3548321e-38 268 326
-0.060090236 0.67199999 -0.10132863 1.3825267e-38 269 326
-0.058824331 0.671 -0.10117785 1.4194041e-38 270 326
-0.057561934 0.67000002 -0.10102707 1.4563182e-38 271 326
-0.056387197 0.67000002 -0.10102707 1.4931959e-38 272 326
-0.05504765 0.66799998 -0.10072549 1.5024155e-38 273 326
-0.05379577 0.667 -0.1005747 1.5391864e-38 274 326
-0.052547399 0.66600001 -0.10042392 1.5484059e-38 275 326
-0.051379681 0.66600001 -0.10042392 1.594324e-38 276 326
-0.050211959 0.66600001 -0.10042392 1.6035435e-38 277 326
-0.048896957 0.66399997 -0.10012234 1.6035788e-38 278 326
-0.047732744 0.66399997 -0.10012234 1.6127984e-38 279 326
-0.046498399 0.66299999 -0.099971555 1.6402773e-38 280 326
-0.045335937 0.66299999 -0.099971555 1.6494969e-38 281 326
-0.044173479 0.66299999 -0.099971555 1.6219464e-38 282 326
-0.043011017 0.66299999 -0.099971555 1.6587886e-38 283 326
-0.041785441 0.662 -0.09982077 1.6680082e-38 284 326
-0.04062473 0.662 -0.09982077 1.6680082e-38 285 326
-0.039464023 0.662 -0.09982077 1.7047789e-38 286 326
-0.038303319 0.662 -0.09982077 1.7047789e-38 287 326
-0.037086505 0.66100001 -0.099669985 1.686483e-38 288 326
-0.035927553 0.66100001 -0.099669985 1.686483e-38 289 326
-0.034663398 0.65899998 -0.099368408 1.7784264e-38 290 326
-0.033507951 0.65899998 -0.099368408 1.7784264e-38 291 326
-0.032352503 0.65899998 -0.099368408 1.7600599e-38 292 326
-0.031197058 0.65899998 -0.099368408 1.7876827e-38 293 326
-0.030041611 0.65899998 -0.099368408 1.7968304e-38 294 326
-0.028886165 0.65899998 -0.099368408 1.8060499e-38 295 326
-0.027730718 0.65899998 -0.099368408 1.8061221e-38 296 326
-0.026534945 0.65799999 -0.099217616 1.8245612e-38 297 326
-0.025381252 0.65799999 -0.099217616 1.8245612e-38 298 326
-0.02422756 0.65799999 -0.099217616 1.8337809e-38 299 326
-0.023073865 0.65799999 -0.099217616 1.8338531e-38 300 326
-0.021920172 0.65799999 -0.099217616 1.8154138e-38 301 326
-0.02076648 0.65799999 -0.099217616 1.8521846e-38 302 326
-0.019612785 0.65799999 -0.099217616 1.8706237e-38 303 326
-0.018459093 0.65799999 -0.099217616 1.8614042e-38 304 326
-0.017305398 0.65799999 -0.099217616 1.8706237e-38 305 326
-0.01612716 0.65700001 -0.099066831 1.8706956e-38 306 326
-0.01497522 0.65700001 -0.099066831 1.8706956e-38 307 326
-0.013823279 0.65700001 -0.099066831 1.8799505e-38 308 326
-0.01267134 0.65700001 -0.099066831 1.8799505e-38 309 326
-0.011519399 0.65700001 -0.099066831 1.8707306e-38 310 326
-0.01036746 0.65700001 -0.099066831 1.8799861e-38 311 326
-0.0092155198 0.65700001 -0.099066831 1.861584e-38 312 326
-0.0080635799 0.65700001 -0.099066831 1.8523644e-38 313 326
-0.0069116396 0.65700001 -0.099066831 1.8706603e-38 314 326
-0.0057596997 0.65700001 -0.099066831 1.8706603e-38 315 326
-0.0046077599 0.65700001 -0.099066831 1.8522928e-38 316 326
-0.0034558198 0.65700001 -0.099066831 1.8430373e-38 317 326
-0.0022968664 0.65499997 -0.098765261 1.8614039e-38 318 326
-0.0011484332 0.65499997 -0.098765261 1.8614039e-38 319 326
0 0.65499997 -0.098765261 1.8522199e-38 320 326
0.0011484332 0.65499997 -0.098765261 1.8522199e-38 321 326
0.0023038799 0.65700001 -0.099066831 1.861332e-38 322 326
0.0034452998 0.65499997 -0.098765261 1.8705874e-38 323 326
0.0045937328 0.65499997 -0.098765261 1.8614039e-38 324 326
0.0057421662 0.65499997 -0.098765261 1.8614039e-38 325 326
0.0068905996 0.65499997 -0.098765261 1.8705872e-38 326 326
0.008039033 0.65499997 -0.098765261 1.8705872e-38 327 326
0.0091874655 0.65499997 -0.098765261 1.8614395e-38 328 326
0.010335899 0.65499997 -0.098765261 1.8522199e-38 329 326
0.011484332 0.65499997 -0.098765261 1.8429283e-38 330 326
0.012632766 0.65499997 -0.098765261 1.8336729e-38 331 326
0.013781199 0.65499997 -0.098765261 1.852076e-38 332 326
0.014929632 0.65499997 -0.098765261 1.852076e-38 333 326
0.016078066 0.65499997 -0.098765261 1.8428927e-38 334 326
0.0172791 0.65700001 -0.099066831 1.8428927e-38 335 326
0.01843104 0.65700001 -0.099066831 1.8245612e-38 336 326
0.019582979 0.65700001 -0.099066831 1.8245612e-38 337 326
0.020734919 0.65700001 -0.099066831 1.8153417e-38 338 326
0.021886859 0.65700001 -0.099066831 1.8153417e-38 339 326
0.023038799 0.65700001 -0.099066831 1.8061224e-38 340 326
0.024190739 0.65700001 -0.099066831 1.7968669e-38 341 326
0.025265532 0.65499997 -0.098765261 1.7967953e-38 342 326
0.026413966 0.65499997 -0.098765261 1.8060149e-38 343 326
0.027562398 0.65499997 -0.098765261 1.8151268e-38 344 326
0.028710833 0.65499997 -0.098765261 1.8059073e-38 345 326
0.029859263 0.65499997 -0.098765261 1.815055e-38 346 326
0.03110238 0.65700001 -0.099066831 1.815055e-38 347 326
0.03225432 0.65700001 -0.099066831 1.7783192e-38 348 326
0.033406258 0.65700001 -0.099066831 1.7598801e-38 349 326
0.034452997 0.65499997 -0.098765261 1.732329e-38 350 326
0.03560143 0.65499997 -0.098765261 1.732329e-38 351 326
0.036749862 0.65499997 -0.098765261 1.6863753e-38 352 326
0.038014017 0.65700001 -0.099066831 1.6494971e-38 353 326
0.039046731 0.65499997 -0.098765261 1.6953794e-38 354 326
0.040195163 0.65499997 -0.098765261 1.6769763e-38 355 326
0.041469838 0.65700001 -0.099066831 1.6677217e-38 356 326
0.04262178 0.65700001 -0.099066831 1.640027e-38 357 326
0.043773718 0.65700001 -0.099066831 1.6124397e-38 358 326
0.04492566 0.65700001 -0.099066831 1.6124397e-38 359 326
0.04614773 0.65799999 -0.099217616 1.6215148e-38 360 326
0.047301427 0.65799999 -0.099217616 1.6030396e-38 361 326
0.048455119 0.65799999 -0.099217616 1.5203156e-38 362 326
0.049608808 0.65799999 -0.099217616 1.5295352e-38 363 326
0.050762504 0.65799999 -0.099217616 1.5661268e-38 364 326
0.051916201 0.65799999 -0.099217616 1.5845299e-38 365 326
0.05306989 0.65799999 -0.099217616 1.52968e-38 366 326
0.054305989 0.65899998 -0.099368408 1.52968e-38 367 326
0.055461437 0.65899998 -0.099368408 1.5296431e-38 368 326
0.056616884 0.65899998 -0.099368408 1.5204235e-38 369 326
0.057947662 0.66100001 -0.099669985 1.511204e-38 370 326
0.059106622 0.66100001 -0.099669985 1.5019485e-38 371 326
0.060265575 0.66100001 -0.099669985 1.5202082e-38 372 326
0.061517447 0.662 -0.09982077 1.5109885e-38 373 326
0.062678158 0.662 -0.09982077 1.4374119e-38 374 326
0.063838862 0.662 -0.09982077 1.4466315e-38 375 326
0.064999565 0.662 -0.09982077 1.4557431e-38 376 326
0.066160277 0.662 -0.09982077 1.43734e-38 377 326
0.067320988 0.662 -0.09982077 1.4189376e-38 378 326
0.068585135 0.66299999 -0.099971555 1.4189376e-38 379 326
0.069747597 0.66299999 -0.099971555 1.37302e-38 380 326
0.070910059 0.66299999 -0.099971555 1.37302e-38 381 326
0.072181225 0.66399997 -0.10012234 1.3730197e-38 382 326
0.07334543 0.66399997 -0.10012234 1.3730197e-38 383 326
0.074734077 0.66600001 -0.10042392 1.391279e-38 384 326
0.075901799 0.66600001 -0.10042392 1.3728399e-38 385 326
0.077185236 0.667 -0.1005747 1.3545087e-38 386 326
0.078354709 0.667 -0.1005747 1.3175944e-38 387 326
0.079524182 0.667 -0.1005747 1.2900083e-38 388 326
0.080814637 0.66799998 -0.10072549 1.2715692e-38 389 326
0.082231335 0.67000002 -0.10102707 1.207177e-38 390 326
0.083655037 0.67199999 -0.10132863 1.207177e-38 391 326
0.085085757 0.67400002 -0.10163021 1.1520045e-38 392 326
0.086267509 0.67400002 -0.10163021 1.1427491e-38 393 326
0.08796823 0.67799997 -0.10223336 1.0784295e-38 394 326
0.089288503 0.67900002 -0.10238414 1.0507348e-38 395 326
0.090479009 0.67900002 -0.10238414 1.1247476e-38 396 326
0.091669522 0.67900002 -0.10238414 1.3367975e-38 397 326
-0.071746394 0.68199998 -0.10403228 1.3178859e-38 260 327
-0.070550621 0.68199998 -0.10403228 1.2717882e-38 261 327
-0.069151461 0.68000001 -0.1037272 1.3084494e-38 262 327
-0.067859262 0.67900002 -0.10357466 1.2992297e-38 263 327
-0.066570558 0.67799997 -0.10342211 1.2532765e-38 264 327
-0.065188929 0.676 -0.10311703 1.2532765e-38 265 327
-0.063909002 0.67500001 -0.1029645 1.2350172e-38 266 327
-0.062632568 0.67400002 -0.10281195 1.2442369e-38 267 327
-0.061268479 0.67199999 -0.10250688 1.3087711e-38 268 327
-0.060090236 0.67199999 -0.10250688 1.3179907e-38 269 327
-0.058824331 0.671 -0.10235433 1.364087e-38 270 327
-0.057561934 0.67000002 -0.1022018 1.3917815e-38 271 327
-0.056218877 0.66799998 -0.10189671 1.4378801e-38 272 327
-0.054965243 0.667 -0.10174417 1.4655748e-38 273 327
-0.053715117 0.66600001 -0.10159164 1.4839789e-38 274 327
-0.052547399 0.66600001 -0.10159164 1.4839789e-38 275 327
-0.051379681 0.66600001 -0.10159164 1.5023823e-38 276 327
-0.05006117 0.66399997 -0.10128655 1.5208214e-38 277 327
-0.048896957 0.66399997 -0.10128655 1.5391879e-38 278 327
-0.047660857 0.66299999 -0.10113402 1.5484076e-38 279 327
-0.046498399 0.66299999 -0.10113402 1.5759221e-38 280 327
-0.045335937 0.66299999 -0.10113402 1.5851417e-38 281 327
-0.044106852 0.662 -0.10098148 1.6126927e-38 282 327
-0.042946145 0.662 -0.10098148 1.6126927e-38 283 327
-0.041785441 0.662 -0.10098148 1.5943615e-38 284 327
-0.04062473 0.662 -0.10098148 1.6035811e-38 285 327
-0.039464023 0.662 -0.10098148 1.5853217e-38 286 327
-0.038303319 0.662 -0.10098148 1.5853217e-38 287 327
-0.037086505 0.66100001 -0.10082894 1.6312747e-38 288 327
-0.035818845 0.65899998 -0.10052385 1.6497139e-38 289 327
-0.034663398 0.65899998 -0.10052385 1.6864127e-38 290 327
-0.033457108 0.65799999 -0.10037132 1.7048158e-38 291 327
-0.032303412 0.65799999 -0.10037132 1.6680827e-38 292 327
-0.031149717 0.65799999 -0.10037132 1.6865217e-38 293 327
-0.029996024 0.65799999 -0.10037132 1.7048889e-38 294 327
-0.028842334 0.65799999 -0.10037132 1.7232922e-38 295 327
-0.027688639 0.65799999 -0.10037132 1.7049963e-38 296 327
-0.026494619 0.65700001 -0.10021878 1.7234354e-38 297 327
-0.025342681 0.65700001 -0.10021878 1.7967956e-38 298 327
-0.024190739 0.65700001 -0.10021878 1.8060152e-38 299 327
-0.023038799 0.65700001 -0.10021878 1.7326552e-38 300 327
-0.021886859 0.65700001 -0.10021878 1.7326552e-38 301 327
-0.020734919 0.65700001 -0.10021878 1.7877924e-38 302 327
-0.019582979 0.65700001 -0.10021878 1.8062317e-38 303 327
-0.01843104 0.65700001 -0.10021878 1.8153784e-38 304 327
-0.0172791 0.65700001 -0.10021878 1.8246338e-38 305 327
-0.01612716 0.65700001 -0.10021878 1.7787528e-38 306 327
-0.014929632 0.65499997 -0.099913694 1.7879723e-38 307 327
-0.013781199 0.65499997 -0.099913694 1.8246335e-38 308 327
-0.012632766 0.65499997 -0.099913694 1.8338531e-38 309 327
-0.011484332 0.65499997 -0.099913694 1.8338884e-38 310 327
-0.010335899 0.65499997 -0.099913694 1.8338884e-38 311 327
-0.0091874655 0.65499997 -0.099913694 1.8063386e-38 312 327
-0.0080635799 0.65700001 -0.10021878 1.8063386e-38 313 327
-0.0069116396 0.65700001 -0.10021878 1.83389e-38 314 327
-0.0057596997 0.65700001 -0.10021878 1.8154868e-38 315 327
-0.0046077599 0.65700001 -0.10021878 1.7787175e-38 316 327
-0.0034452998 0.65499997 -0.099913694 1.7787175e-38 317 327
-0.0022968664 0.65499997 -0.099913694 1.806232e-38 318 327
-0.0011484332 0.65499997 -0.099913694 1.7970124e-38 319 327
0 0.65399998 -0.099761158 1.7877924e-38 320 327
0.00114668 0.65399998 -0.099761158 1.7877924e-38 321 327
0.0022968664 0.65499997 -0.099913694 1.7877924e-38 322 327
0.0034452998 0.65499997 -0.099913694 1.7970121e-38 323 327
0.0045937328 0.65499997 -0.099913694 1.7786809e-38 324 327
0.0057421662 0.65499997 -0.099913694 1.7786809e-38 325 327
0.0068905996 0.65499997 -0.099913694 1.7970118e-38 326 327
0.0080267601 0.65399998 -0.099761158 1.7970118e-38 327 327
0.0091734398 0.65399998 -0.099761158 1.7970474e-38 328 327
0.01032012 0.65399998 -0.099761158 1.7878277e-38 329 327
0.011466799 0.65399998 -0.099761158 1.7877205e-38 330 327
0.012613479 0.65399998 -0.099761158 1.7877205e-38 331 327
0.013760159 0.65399998 -0.099761158 1.769318e-38 332 327
0.014906839 0.65399998 -0.099761158 1.7785375e-38 333 327
0.016078066 0.65499997 -0.099913694 1.7509865e-38 334 327
0.017226499 0.65499997 -0.099913694 1.7509865e-38 335 327
0.01843104 0.65700001 -0.10021878 1.7510218e-38 336 327
0.019582979 0.65700001 -0.10021878 1.7418022e-38 337 327
0.020734919 0.65700001 -0.10021878 1.7600616e-38 338 327
0.021820232 0.65499997 -0.099913694 1.7600616e-38 339 327
0.022968665 0.65499997 -0.099913694 1.7325473e-38 340 327
0.024117097 0.65499997 -0.099913694 1.7048887e-38 341 327
0.025265532 0.65499997 -0.099913694 1.6957057e-38 342 327
0.026413966 0.65499997 -0.099913694 1.6864861e-38 343 327
0.027562398 0.65499997 -0.099913694 1.704746e-38 344 327
0.028710833 0.65499997 -0.099913694 1.704746e-38 345 327
0.029859263 0.65499997 -0.099913694 1.6770875e-38 346 327
0.031007698 0.65499997 -0.099913694 1.686307e-38 347 327
0.032156132 0.65499997 -0.099913694 1.6679382e-38 348 327
0.033304565 0.65499997 -0.099913694 1.6587185e-38 349 327
0.034400396 0.65399998 -0.099761158 1.704599e-38 350 327
0.035547078 0.65399998 -0.099761158 1.6953794e-38 351 327
0.036693759 0.65399998 -0.099761158 1.6219113e-38 352 327
0.037840437 0.65399998 -0.099761158 1.6034363e-38 353 327
0.038987119 0.65399998 -0.099761158 1.6034735e-38 354 327
0.040195163 0.65499997 -0.099913694 1.5758148e-38 355 327
0.041343596 0.65499997 -0.099913694 1.5849249e-38 356 327
0.042492028 0.65499997 -0.099913694 1.5572662e-38 357 327
0.043640465 0.65499997 -0.099913694 1.5572659e-38 358 327
0.04492566 0.65700001 -0.10021878 1.5480462e-38 359 327
0.046077598 0.65700001 -0.10021878 1.5204248e-38 360 327
0.04722954 0.65700001 -0.10021878 1.4928021e-38 361 327
0.048381478 0.65700001 -0.10021878 1.4835473e-38 362 327
