# .PCD v.7 - Point Cloud Data file format
FIELDS x y z rgb imX imY
SIZE 4 4 4 4 4 4
TYPE F F F F F F
COUNT 1 1 1 1 1 1
WIDTH 837
HEIGHT 1
VIEWPOINT 0 0 0 1 0 0 0
POINTS 837
DATA ascii
0.043075889 0.66399997 -0.091972843 1.8522922e-38 357 319
0.044240102 0.66399997 -0.091972843 1.8522925e-38 358 319
0.045404319 0.66399997 -0.091972843 1.8430729e-38 359 319
0.046498399 0.66299999 -0.091834337 1.8430729e-38 360 319
0.047660857 0.66299999 -0.091834337 1.8522925e-38 361 319
0.048823316 0.66299999 -0.091834337 1.8614395e-38 362 319
0.049985778 0.66299999 -0.091834337 1.8614395e-38 363 319
0.051148236 0.66299999 -0.091834337 1.8338528e-38 364 319
0.052310698 0.66299999 -0.091834337 1.8246333e-38 365 319
0.053473156 0.66299999 -0.091834337 1.8153064e-38 366 319
0.054882839 0.66600001 -0.092249878 1.8060868e-38 367 319
0.056050558 0.66600001 -0.092249878 1.7875741e-38 368 319
0.057218276 0.66600001 -0.092249878 1.7598795e-38 369 319
0.05821066 0.66399997 -0.091972843 1.769135e-38 370 319
0.059374876 0.66399997 -0.091972843 1.7598795e-38 371 319
0.060539093 0.66399997 -0.091972843 1.7230386e-38 372 319
0.061889157 0.66600001 -0.092249878 1.713819e-38 373 319
0.063056879 0.66600001 -0.092249878 1.7045993e-38 374 319
0.064224601 0.66600001 -0.092249878 1.6953797e-38 375 319
0.065392323 0.66600001 -0.092249878 1.676941e-38 376 319
0.066560037 0.66600001 -0.092249878 1.6677215e-38 377 319
0.067727759 0.66600001 -0.092249878 1.6401707e-38 378 319
0.068895474 0.66600001 -0.092249878 1.6309511e-38 379 319
0.070063196 0.66600001 -0.092249878 1.6125113e-38 380 319
0.071337871 0.667 -0.092388391 1.6032917e-38 381 319
0.072507344 0.667 -0.092388391 1.5757409e-38 382 319
0.073787279 0.66799998 -0.092526905 1.5664855e-38 383 319
0.074958503 0.66799998 -0.092526905 1.5664142e-38 384 319
0.076357663 0.67000002 -0.092803933 1.547939e-38 385 319
0.077532403 0.67000002 -0.092803933 1.5294646e-38 386 319
0.078707129 0.67000002 -0.092803933 1.5294646e-38 387 319
0.079881869 0.67000002 -0.092803933 1.4468129e-38 388 319
0.081177577 0.671 -0.092942439 1.4375932e-38 389 319
0.082476802 0.67199999 -0.093080953 1.4375216e-38 390 319
0.083655037 0.67199999 -0.093080953 1.428302e-38 391 319
0.085085757 0.67400002 -0.093357988 1.4190822e-38 392 319
0.086395502 0.67500001 -0.093496501 1.4190822e-38 393 319
0.087708741 0.676 -0.093635008 1.3639803e-38 394 319
0.088893995 0.676 -0.093635008 1.3362856e-38 395 319
0.090479009 0.67900002 -0.094050556 1.3453254e-38 396 319
0.091669522 0.67900002 -0.094050556 1.3361059e-38 397 319
0.092996798 0.68000001 -0.094189063 1.2900449e-38 398 319
0.09446609 0.68199998 -0.09446609 1.2624222e-38 399 319
0.095661856 0.68199998 -0.09446609 1.2255822e-38 400 319
0.09685763 0.68199998 -0.09446609 1.2163627e-38 401 319
-0.07915248 0.68400002 -0.0959424 1.7977059e-38 254 320
-0.077953197 0.68400002 -0.0959424 1.5026439e-38 255 320
-0.076753922 0.68400002 -0.0959424 1.262715e-38 256 320
-0.075554639 0.68400002 -0.0959424 1.2903738e-38 257 320
-0.074355356 0.68400002 -0.0959424 1.3364324e-38 258 320
-0.073049128 0.68300003 -0.095802136 1.3917139e-38 259 320
-0.071746394 0.68199998 -0.095661856 1.4472819e-38 260 320
-0.070343733 0.68000001 -0.095381334 1.5118189e-38 261 320
-0.069049768 0.67900002 -0.095241062 1.58536e-38 262 320
-0.06775932 0.67799997 -0.09510079 1.6130546e-38 263 320
-0.066570558 0.67799997 -0.09510079 1.6497533e-38 264 320
-0.065188929 0.676 -0.094820268 1.6773761e-38 265 320
-0.064003684 0.676 -0.094820268 1.6865238e-38 266 320
-0.062725499 0.67500001 -0.094679996 1.6957434e-38 267 320
-0.061542001 0.67500001 -0.094679996 1.7141821e-38 268 320
-0.060358498 0.67500001 -0.094679996 1.7234016e-38 269 320
-0.059087332 0.67400002 -0.094539732 1.7786103e-38 270 320
-0.057905588 0.67400002 -0.094539732 1.7786103e-38 271 320
-0.056555521 0.67199999 -0.094259195 1.7787172e-38 272 320
-0.055294871 0.671 -0.09411893 1.7879726e-38 273 320
-0.054118387 0.671 -0.09411893 1.7788244e-38 274 320
-0.052863002 0.67000002 -0.093978666 1.7788244e-38 275 320
-0.051533967 0.66799998 -0.093698129 1.8063392e-38 276 320
-0.050362743 0.66799998 -0.093698129 1.8155587e-38 277 320
-0.049117878 0.667 -0.093557864 1.8156306e-38 278 320
-0.047948405 0.667 -0.093557864 1.8156306e-38 279 320
-0.046778932 0.667 -0.093557864 1.8340346e-38 280 320
-0.045609459 0.667 -0.093557864 1.8432541e-38 281 320
-0.044439986 0.667 -0.093557864 1.8524743e-38 282 320
-0.04327051 0.667 -0.093557864 1.8616938e-38 283 320
-0.042101037 0.667 -0.093557864 1.8892796e-38 284 320
-0.040931564 0.667 -0.093557864 1.8892796e-38 285 320
-0.039762091 0.667 -0.093557864 1.8801673e-38 286 320
-0.03853476 0.66600001 -0.093417592 1.8801673e-38 287 320
-0.037367038 0.66600001 -0.093417592 1.8617639e-38 288 320
-0.03619932 0.66600001 -0.093417592 1.8617639e-38 289 320
-0.0349264 0.66399997 -0.093137063 1.8800585e-38 290 320
-0.033762183 0.66399997 -0.093137063 1.870839e-38 291 320
-0.03259797 0.66399997 -0.093137063 1.8617266e-38 292 320
-0.031433757 0.66399997 -0.093137063 1.8433234e-38 293 320
-0.030223956 0.66299999 -0.092996798 1.8432878e-38 294 320
-0.029061496 0.66299999 -0.092996798 1.8432878e-38 295 320
-0.027856959 0.662 -0.092856526 1.8616193e-38 296 320
-0.026696252 0.662 -0.092856526 1.8616193e-38 297 320
-0.025535546 0.662 -0.092856526 1.8799858e-38 298 320
-0.024374841 0.662 -0.092856526 1.8892055e-38 299 320
-0.023214132 0.662 -0.092856526 1.8891332e-38 300 320
-0.02208674 0.66299999 -0.092996798 1.8983888e-38 301 320
-0.020955838 0.66399997 -0.093137063 1.8799136e-38 302 320
-0.019851239 0.66600001 -0.093417592 1.8799136e-38 303 320
-0.018683519 0.66600001 -0.093417592 1.8524347e-38 304 320
-0.017515799 0.66600001 -0.093417592 1.8432152e-38 305 320
-0.016348081 0.66600001 -0.093417592 1.8523641e-38 306 320
-0.01518036 0.66600001 -0.093417592 1.8616195e-38 307 320
-0.013970559 0.66399997 -0.093137063 1.8615493e-38 308 320
-0.012806346 0.66399997 -0.093137063 1.8707689e-38 309 320
-0.011607066 0.662 -0.092856526 1.8432178e-38 310 320
-0.01044636 0.662 -0.092856526 1.8247427e-38 311 320
-0.009285653 0.662 -0.092856526 1.8154863e-38 312 320
-0.0081249457 0.662 -0.092856526 1.8154863e-38 313 320
-0.0069642398 0.662 -0.092856526 1.8155219e-38 314 320
-0.0058035329 0.662 -0.092856526 1.833925e-38 315 320
-0.0046428265 0.662 -0.092856526 1.8248136e-38 316 320
-0.0034821199 0.662 -0.092856526 1.8063386e-38 317 320
0.0023214133 0.662 -0.092856526 1.8245612e-38 322 320
0.0034821199 0.662 -0.092856526 1.8337809e-38 323 320
0.0046358132 0.66100001 -0.092716269 1.8246688e-38 324 320
0.0057947668 0.66100001 -0.092716269 1.8154491e-38 325 320
0.00695372 0.66100001 -0.092716269 1.8154491e-38 326 320
0.0081126727 0.66100001 -0.092716269 1.8154491e-38 327 320
0.0092716264 0.66100001 -0.092716269 1.8154863e-38 328 320
0.01038324 0.65799999 -0.09229546 1.8154863e-38 329 320
0.011536933 0.65799999 -0.09229546 1.8338534e-38 330 320
0.012690626 0.65799999 -0.09229546 1.8246338e-38 331 320
0.015020805 0.65899998 -0.092435725 1.8338528e-38 333 320
0.016176252 0.65899998 -0.092435725 1.8431083e-38 334 320
0.017331699 0.65899998 -0.092435725 1.8431083e-38 335 320
0.018543253 0.66100001 -0.092716269 1.8523647e-38 336 320
0.019702207 0.66100001 -0.092716269 1.8523647e-38 337 320
0.020892721 0.662 -0.092856526 1.8523647e-38 338 320
0.022053426 0.662 -0.092856526 1.8431092e-38 339 320
0.023214132 0.662 -0.092856526 1.8523275e-38 340 320
0.024374841 0.662 -0.092856526 1.8523275e-38 341 320
0.025535546 0.662 -0.092856526 1.8523628e-38 342 320
0.026696252 0.662 -0.092856526 1.8523628e-38 343 320
0.02781488 0.66100001 -0.092716269 1.8523626e-38 344 320
0.028973831 0.66100001 -0.092716269 1.8523626e-38 345 320
0.030132787 0.66100001 -0.092716269 1.8431786e-38 346 320
0.031291738 0.66100001 -0.092716269 1.8431786e-38 347 320
0.032450691 0.66100001 -0.092716269 1.8523626e-38 348 320
0.033609647 0.66100001 -0.092716269 1.8523626e-38 349 320
0.034821201 0.662 -0.092856526 1.8523631e-38 350 320
0.035981905 0.662 -0.092856526 1.8523631e-38 351 320
0.037142612 0.662 -0.092856526 1.8523278e-38 352 320
0.038361177 0.66299999 -0.092996798 1.8523278e-38 353 320
0.039523639 0.66299999 -0.092996798 1.8523278e-38 354 320
0.040686097 0.66299999 -0.092996798 1.8523278e-38 355 320
0.041848559 0.66299999 -0.092996798 1.8523278e-38 356 320
0.043011017 0.66299999 -0.092996798 1.8523278e-38 357 320
0.044173479 0.66299999 -0.092996798 1.8430727e-38 358 320
0.045335937 0.66299999 -0.092996798 1.8522922e-38 359 320
0.046428263 0.662 -0.092856526 1.8430729e-38 360 320
0.047588971 0.662 -0.092856526 1.8430729e-38 361 320
0.048749682 0.662 -0.092856526 1.8154866e-38 362 320
0.049910385 0.662 -0.092856526 1.8154866e-38 363 320
0.051071092 0.662 -0.092856526 1.8245629e-38 364 320
0.0522318 0.662 -0.092856526 1.8061236e-38 365 320
0.053392503 0.662 -0.092856526 1.7968319e-38 366 320
0.054635618 0.66299999 -0.092996798 1.7599897e-38 367 320
0.055882234 0.66399997 -0.093137063 1.7323303e-38 368 320
0.057046451 0.66399997 -0.093137063 1.7047076e-38 369 320
0.05821066 0.66399997 -0.093137063 1.6862697e-38 370 320
0.059374876 0.66399997 -0.093137063 1.67705e-38 371 320
0.060539093 0.66399997 -0.093137063 1.6769431e-38 372 320
0.061703302 0.66399997 -0.093137063 1.6584681e-38 373 320
0.062867515 0.66399997 -0.093137063 1.6216958e-38 374 320
0.064031735 0.66399997 -0.093137063 1.6216958e-38 375 320
0.06519594 0.66399997 -0.093137063 1.5757772e-38 376 320
0.066560037 0.66600001 -0.093417592 1.5757772e-38 377 320
0.067727759 0.66600001 -0.093417592 1.5390441e-38 378 320
0.068895474 0.66600001 -0.093417592 1.5298246e-38 379 320
0.070063196 0.66600001 -0.093417592 1.5481561e-38 380 320
0.071230918 0.66600001 -0.093417592 1.5296811e-38 381 320
0.072507344 0.667 -0.093557864 1.5112781e-38 382 320
0.073676817 0.667 -0.093557864 1.5020586e-38 383 320
0.074958503 0.66799998 -0.093698129 1.4652526e-38 384 320
0.076129727 0.66799998 -0.093698129 1.456033e-38 385 320
0.077532403 0.67000002 -0.093978666 1.4375583e-38 386 320
0.078707129 0.67000002 -0.093978666 1.4375583e-38 387 320
0.079881869 0.67000002 -0.093978666 1.382421e-38 388 320
0.081177577 0.671 -0.09411893 1.3732014e-38 389 320
0.082476802 0.67199999 -0.094259195 1.3639463e-38 390 320
0.083655037 0.67199999 -0.094259195 1.3547267e-38 391 320
0.084833272 0.67199999 -0.094259195 1.3271036e-38 392 320
0.086267509 0.67400002 -0.094539732 1.3178841e-38 393 320
0.087578997 0.67500001 -0.094679996 1.3086645e-38 394 320
0.088893995 0.676 -0.094820268 1.2901895e-38 395 320
0.090345755 0.67799997 -0.09510079 1.2808982e-38 396 320
0.091669522 0.67900002 -0.095241062 1.2624591e-38 397 320
0.092860043 0.67900002 -0.095241062 1.2165062e-38 398 320
0.094189063 0.68000001 -0.095381334 1.2072866e-38 399 320
0.095661856 0.68199998 -0.095661856 1.1796299e-38 400 320
-0.07915248 0.68400002 -0.097141676 1.8252933e-38 254 321
-0.077953197 0.68400002 -0.097141676 1.5671455e-38 255 321
-0.076753922 0.68400002 -0.097141676 1.308704e-38 256 321
-0.075554639 0.68400002 -0.097141676 1.2902289e-38 257 321
-0.074355356 0.68400002 -0.097141676 1.3546546e-38 258 321
-0.073049128 0.68300003 -0.09699966 1.3362153e-38 259 321
-0.071746394 0.68199998 -0.09685763 1.3459388e-38 260 321
-0.070343733 0.68000001 -0.096573599 1.4196953e-38 261 321
-0.068948075 0.67799997 -0.096289553 1.5300782e-38 262 321
-0.067559443 0.676 -0.096005514 1.5669566e-38 263 321
-0.066374183 0.676 -0.096005514 1.6496083e-38 264 321
-0.065092497 0.67500001 -0.095863499 1.6680833e-38 265 321
-0.063909002 0.67500001 -0.095863499 1.6956691e-38 266 321
-0.062725499 0.67500001 -0.095863499 1.6956691e-38 267 321
-0.061450824 0.67400002 -0.095721483 1.7232202e-38 268 321
-0.06026908 0.67400002 -0.095721483 1.7324399e-38 269 321
-0.058911994 0.67199999 -0.095437437 1.7141805e-38 270 321
-0.057733759 0.67199999 -0.095437437 1.7326197e-38 271 321
-0.056471359 0.671 -0.095295422 1.7510218e-38 272 321
-0.055212468 0.67000002 -0.095153399 1.7602413e-38 273 321
-0.054037735 0.67000002 -0.095153399 1.7787162e-38 274 321
-0.052863002 0.67000002 -0.095153399 1.7971193e-38 275 321
-0.051456824 0.667 -0.094727337 1.8063389e-38 276 321
-0.050287351 0.667 -0.094727337 1.8063389e-38 277 321
-0.049117878 0.667 -0.094727337 1.8154512e-38 278 321
-0.047948405 0.667 -0.094727337 1.8431098e-38 279 321
-0.046708796 0.66600001 -0.094585314 1.8522219e-38 280 321
-0.045541082 0.66600001 -0.094585314 1.8798806e-38 281 321
-0.04437336 0.66600001 -0.094585314 1.8615491e-38 282 321
-0.043205637 0.66600001 -0.094585314 1.8707686e-38 283 321
-0.042037919 0.66600001 -0.094585314 1.8708758e-38 284 321
-0.040870197 0.66600001 -0.094585314 1.8708758e-38 285 321
-0.039583251 0.66399997 -0.094301268 1.8617639e-38 286 321
-0.038419038 0.66399997 -0.094301268 1.8617639e-38 287 321
-0.037254825 0.66399997 -0.094301268 1.8800954e-38 288 321
-0.036090612 0.66399997 -0.094301268 1.8800954e-38 289 321
-0.0349264 0.66399997 -0.094301268 1.8800232e-38 290 321
-0.033762183 0.66399997 -0.094301268 1.8800232e-38 291 321
-0.03259797 0.66399997 -0.094301268 1.8709111e-38 292 321
-0.031433757 0.66399997 -0.094301268 1.8432524e-38 293 321
-0.030223956 0.66299999 -0.094159253 1.8432524e-38 294 321
-0.029061496 0.66299999 -0.094159253 1.8432524e-38 295 321
-0.027856959 0.662 -0.094017237 1.8799152e-38 296 321
-0.026696252 0.662 -0.094017237 1.8891708e-38 297 321
-0.025535546 0.662 -0.094017237 1.8709109e-38 298 321
-0.024374841 0.662 -0.094017237 1.8709109e-38 299 321
-0.023214132 0.662 -0.094017237 1.8800941e-38 300 321
-0.022053426 0.662 -0.094017237 1.8800941e-38 301 321
-0.020924279 0.66299999 -0.094159253 1.8800941e-38 302 321
-0.019791625 0.66399997 -0.094301268 1.8708387e-38 303 321
-0.018627413 0.66399997 -0.094301268 1.8617263e-38 304 321
-0.0174632 0.66399997 -0.094301268 1.8433231e-38 305 321
-0.016298985 0.66399997 -0.094301268 1.8617263e-38 306 321
-0.015134773 0.66399997 -0.094301268 1.8617263e-38 307 321
-0.013970559 0.66399997 -0.094301268 1.8616546e-38 308 321
-0.012806346 0.66399997 -0.094301268 1.8616546e-38 309 321
-0.011589534 0.66100001 -0.093875214 1.8616546e-38 310 321
-0.01043058 0.66100001 -0.093875214 1.8616546e-38 311 321
-0.0092716264 0.66100001 -0.093875214 1.8616193e-38 312 321
-0.0081126727 0.66100001 -0.093875214 1.8523997e-38 313 321
-0.0069642398 0.662 -0.094017237 1.8616193e-38 314 321
-0.0058035329 0.662 -0.094017237 1.8616193e-38 315 321
-0.0046428265 0.662 -0.094017237 1.8799505e-38 316 321
-0.0034821199 0.662 -0.094017237 1.8707309e-38 317 321
-0.0023214133 0.662 -0.094017237 1.8523997e-38 318 321
-0.0011589533 0.66100001 -0.093875214 1.8523997e-38 319 321
0 0.66100001 -0.093875214 1.8523994e-38 320 321
0.0011589533 0.66100001 -0.093875214 1.8339603e-38 321 321
0.0023179066 0.66100001 -0.093875214 1.8614392e-38 322 321
0.00347686 0.66100001 -0.093875214 1.8614392e-38 323 321
0.0046358132 0.66100001 -0.093875214 1.843108e-38 324 321
0.0057947668 0.66100001 -0.093875214 1.843108e-38 325 321
0.00695372 0.66100001 -0.093875214 1.8338884e-38 326 321
0.0081126727 0.66100001 -0.093875214 1.8338884e-38 327 321
0.0092716264 0.66100001 -0.093875214 1.8431083e-38 328 321
0.01038324 0.65799999 -0.09344916 1.8431083e-38 329 321
0.011536933 0.65799999 -0.09344916 1.8431083e-38 330 321
0.012690626 0.65799999 -0.09344916 1.8431083e-38 331 321
0.01384432 0.65799999 -0.09344916 1.8431077e-38 332 321
0.015020805 0.65899998 -0.093591176 1.8523631e-38 333 321
0.016176252 0.65899998 -0.093591176 1.83396e-38 334 321
0.017331699 0.65899998 -0.093591176 1.8431796e-38 335 321
0.018487146 0.65899998 -0.093591176 1.8523278e-38 336 321
0.019642593 0.65899998 -0.093591176 1.8707309e-38 337 321
0.020892721 0.662 -0.094017237 1.8523997e-38 338 321
0.022020113 0.66100001 -0.093875214 1.8523997e-38 339 321
0.023179067 0.66100001 -0.093875214 1.8523275e-38 340 321
0.02433802 0.66100001 -0.093875214 1.8523275e-38 341 321
0.025496973 0.66100001 -0.093875214 1.8523994e-38 342 321
0.026575271 0.65899998 -0.093591176 1.8523994e-38 343 321
0.027730718 0.65899998 -0.093591176 1.8340682e-38 344 321
0.028886165 0.65899998 -0.093591176 1.8248486e-38 345 321
0.030132787 0.66100001 -0.093875214 1.8248839e-38 346 321
0.031291738 0.66100001 -0.093875214 1.8248839e-38 347 321
0.032450691 0.66100001 -0.093875214 1.8523626e-38 348 321
0.033609647 0.66100001 -0.093875214 1.8523626e-38 349 321
0.0347686 0.66100001 -0.093875214 1.8523631e-38 350 321
0.035927553 0.66100001 -0.093875214 1.8523631e-38 351 321
0.037142612 0.662 -0.094017237 1.870659e-38 352 321
0.038303319 0.662 -0.094017237 1.870659e-38 353 321
0.039464023 0.662 -0.094017237 1.8523278e-38 354 321
0.04062473 0.662 -0.094017237 1.8523278e-38 355 321
0.041785441 0.662 -0.094017237 1.8614395e-38 356 321
0.042946145 0.662 -0.094017237 1.8614395e-38 357 321
0.044173479 0.66299999 -0.094159253 1.8522196e-38 358 321
0.04526756 0.662 -0.094017237 1.8522196e-38 359 321
0.046428263 0.662 -0.094017237 1.8337809e-38 360 321
0.047588971 0.662 -0.094017237 1.8245612e-38 361 321
0.048749682 0.662 -0.094017237 1.8061218e-38 362 321
0.049910385 0.662 -0.094017237 1.7969023e-38 363 321
0.051071092 0.662 -0.094017237 1.7876474e-38 364 321
0.0522318 0.662 -0.094017237 1.7876474e-38 365 321
0.053392503 0.662 -0.094017237 1.7691009e-38 366 321
0.054553211 0.662 -0.094017237 1.7137837e-38 367 321
0.055713918 0.662 -0.094017237 1.6953794e-38 368 321
0.056874625 0.662 -0.094017237 1.6769763e-38 369 321
0.058122993 0.66299999 -0.094159253 1.6585372e-38 370 321
0.059285458 0.66299999 -0.094159253 1.6493176e-38 371 321
0.060447913 0.66299999 -0.094159253 1.6400623e-38 372 321
0.061610378 0.66299999 -0.094159253 1.6124397e-38 373 321
0.062867515 0.66399997 -0.094301268 1.5296794e-38 374 321
0.064031735 0.66399997 -0.094301268 1.4836176e-38 375 321
0.06519594 0.66399997 -0.094301268 1.4743627e-38 376 321
0.066360161 0.66399997 -0.094301268 1.511205e-38 377 321
0.067524366 0.66399997 -0.094301268 1.5203895e-38 378 321
0.068688579 0.66399997 -0.094301268 1.5203895e-38 379 321
0.070063196 0.66600001 -0.094585314 1.5112052e-38 380 321
0.071230918 0.66600001 -0.094585314 1.4928021e-38 381 321
0.07239864 0.66600001 -0.094585314 1.483582e-38 382 321
0.073676817 0.667 -0.094727337 1.4743624e-38 383 321
0.07484629 0.667 -0.094727337 1.4651074e-38 384 321
0.076129727 0.66799998 -0.094869353 1.4558879e-38 385 321
0.077300951 0.66799998 -0.094869353 1.446633e-38 386 321
0.078472182 0.66799998 -0.094869353 1.4190103e-38 387 321
0.079643413 0.66799998 -0.094869353 1.3822044e-38 388 321
0.080814637 0.66799998 -0.094869353 1.3729847e-38 389 321
0.082354069 0.671 -0.095295422 1.336214e-38 390 321
0.083530545 0.671 -0.095295422 1.3269945e-38 391 321
0.084833272 0.67199999 -0.095437437 1.3176672e-38 392 321
0.086011514 0.67199999 -0.095437437 1.3176672e-38 393 321
0.087449253 0.67400002 -0.095721483 1.2900452e-38 394 321
0.089156993 0.67799997 -0.096289553 1.2623866e-38 395 321
0.090345755 0.67799997 -0.096289553 1.2714633e-38 396 321
0.09153451 0.67799997 -0.096289553 1.2530601e-38 397 321
0.092860043 0.67900002 -0.096431576 1.1979595e-38 398 321
0.094050556 0.67900002 -0.096431576 1.1979595e-38 399 321
0.095241062 0.67900002 -0.096431576 1.1703753e-38 400 321
-0.078181133 0.68599999 -0.098628499 1.6133159e-38 255 322
-0.076753922 0.68400002 -0.098340958 1.3824971e-38 256 322
-0.075554639 0.68400002 -0.098340958 1.2626428e-38 257 322
-0.074355356 0.68400002 -0.098340958 1.33618e-38 258 322
-0.073049128 0.68300003 -0.098197185 1.3453995e-38 259 322
-0.071746394 0.68199998 -0.098053411 1.3181009e-38 260 322
-0.070343733 0.68000001 -0.09776587 1.3826378e-38 261 322
-0.068948075 0.67799997 -0.097478308 1.4104404e-38 262 322
-0.067559443 0.676 -0.097190768 1.4749773e-38 263 322
-0.066374183 0.676 -0.097190768 1.5577372e-38 264 322
-0.065092497 0.67500001 -0.097047001 1.5945796e-38 265 322
-0.063909002 0.67500001 -0.097047001 1.6496083e-38 266 322
-0.062725499 0.67500001 -0.097047001 1.6588278e-38 267 322
-0.061450824 0.67400002 -0.096903227 1.6588278e-38 268 322
-0.060090236 0.67199999 -0.09661568 1.6680833e-38 269 322
-0.058824331 0.671 -0.096471906 1.6773744e-38 270 322
-0.057647847 0.671 -0.096471906 1.6865941e-38 271 322
-0.056387197 0.67000002 -0.096328132 1.6867013e-38 272 322
-0.055212468 0.67000002 -0.096328132 1.6867013e-38 273 322
-0.053876422 0.66799998 -0.096040577 1.7143959e-38 274 322
-0.052705199 0.66799998 -0.096040577 1.7420187e-38 275 322
-0.051456824 0.667 -0.09589681 1.7786456e-38 276 322
-0.050287351 0.667 -0.09589681 1.7786456e-38 277 322
-0.04904424 0.66600001 -0.095753036 1.7786459e-38 278 322
-0.047876518 0.66600001 -0.095753036 1.797049e-38 279 322
-0.046708796 0.66600001 -0.095753036 1.8062688e-38 280 322
-0.045541082 0.66600001 -0.095753036 1.8154884e-38 281 322
-0.04437336 0.66600001 -0.095753036 1.8155237e-38 282 322
-0.043075889 0.66399997 -0.095465489 1.8339628e-38 283 322
-0.041911677 0.66399997 -0.095465489 1.8248146e-38 284 322
-0.040747464 0.66399997 -0.095465489 1.8340702e-38 285 322
-0.039583251 0.66399997 -0.095465489 1.8432897e-38 286 322
-0.038419038 0.66399997 -0.095465489 1.8432897e-38 287 322
-0.037254825 0.66399997 -0.095465489 1.8616209e-38 288 322
-0.036036257 0.66299999 -0.095321715 1.8616209e-38 289 322
-0.034873798 0.66299999 -0.095321715 1.843325e-38 290 322
-0.033711337 0.66299999 -0.095321715 1.843325e-38 291 322
-0.03259797 0.66399997 -0.095465489 1.861656e-38 292 322
-0.031386416 0.66299999 -0.095321715 1.8432527e-38 293 322
-0.030178372 0.662 -0.095177941 1.861584e-38 294 322
-0.029017664 0.662 -0.095177941 1.861584e-38 295 322
-0.027856959 0.662 -0.095177941 1.8708392e-38 296 322
-0.026696252 0.662 -0.095177941 1.8800588e-38 297 322
-0.025496973 0.66100001 -0.095034167 1.8984972e-38 298 322
-0.02433802 0.66100001 -0.095034167 1.8984972e-38 299 322
-0.023179067 0.66100001 -0.095034167 1.9076449e-38 300 322
-0.022020113 0.66100001 -0.095034167 1.8984253e-38 301 322
-0.020892721 0.662 -0.095177941 1.8984607e-38 302 322
-0.019761819 0.66299999 -0.095321715 1.8984607e-38 303 322
-0.018599359 0.66299999 -0.095321715 1.8984601e-38 304 322
-0.017436899 0.66299999 -0.095321715 1.8984601e-38 305 322
-0.016274439 0.66299999 -0.095321715 1.8801645e-38 306 322
-0.015111978 0.66299999 -0.095321715 1.8801645e-38 307 322
-0.013949519 0.66299999 -0.095321715 1.8801289e-38 308 322
-0.012748486 0.66100001 -0.095034167 1.8801289e-38 309 322
-0.011589534 0.66100001 -0.095034167 1.8984601e-38 310 322
-0.01043058 0.66100001 -0.095034167 1.8892405e-38 311 322
-0.0092716264 0.66100001 -0.095034167 1.8984607e-38 312 322
-0.0081126727 0.66100001 -0.095034167 1.8892052e-38 313 322
-0.0069642398 0.662 -0.095177941 1.8708387e-38 314 322
-0.0057947668 0.66100001 -0.095034167 1.8708387e-38 315 322
-0.0046358132 0.66100001 -0.095034167 1.8891335e-38 316 322
-0.00347686 0.66100001 -0.095034167 1.8891335e-38 317 322
-0.0023108933 0.65899998 -0.094746619 1.870874e-38 318 322
-0.0011536933 0.65799999 -0.094602853 1.8616543e-38 319 322
0 0.65799999 -0.094602853 1.8708016e-38 320 322
0.0011554466 0.65899998 -0.094746619 1.8708016e-38 321 322
0.0023108933 0.65899998 -0.094746619 1.8708016e-38 322 322
0.0034663398 0.65899998 -0.094746619 1.8708016e-38 323 322
0.0046358132 0.66100001 -0.095034167 1.870766e-38 324 322
0.0057947668 0.66100001 -0.095034167 1.8523628e-38 325 322
0.00695372 0.66100001 -0.095034167 1.8523631e-38 326 322
0.0081126727 0.66100001 -0.095034167 1.8523631e-38 327 322
0.0092716264 0.66100001 -0.095034167 1.8706941e-38 328 322
0.01036746 0.65700001 -0.094459079 1.8706941e-38 329 322
0.011519399 0.65700001 -0.094459079 1.8708013e-38 330 322
0.01267134 0.65700001 -0.094459079 1.8523982e-38 331 322
0.013823279 0.65700001 -0.094459079 1.8707294e-38 332 322
0.014998012 0.65799999 -0.094602853 1.8707294e-38 333 322
0.016176252 0.65899998 -0.094746619 1.870766e-38 334 322
0.017331699 0.65899998 -0.094746619 1.870766e-38 335 322
0.018487146 0.65899998 -0.094746619 1.8707306e-38 336 322
0.019642593 0.65899998 -0.094746619 1.8799861e-38 337 322
0.02086116 0.66100001 -0.095034167 1.8707306e-38 338 322
0.022020113 0.66100001 -0.095034167 1.8707306e-38 339 322
0.023179067 0.66100001 -0.095034167 1.8523275e-38 340 322
0.024264378 0.65899998 -0.094746619 1.8707306e-38 341 322
0.025381252 0.65799999 -0.094602853 1.8707306e-38 342 322
0.026534945 0.65799999 -0.094602853 1.8799861e-38 343 322
0.027688639 0.65799999 -0.094602853 1.8523994e-38 344 322
0.028842334 0.65799999 -0.094602853 1.8431799e-38 345 322
0.030041611 0.65899998 -0.094746619 1.8431796e-38 346 322
0.031197058 0.65899998 -0.094746619 1.83396e-38 347 322
0.032352503 0.65899998 -0.094746619 1.8523631e-38 348 322
0.033507951 0.65899998 -0.094746619 1.8523631e-38 349 322
0.0347686 0.66100001 -0.095034167 1.8706593e-38 350 322
0.035927553 0.66100001 -0.095034167 1.8614039e-38 351 322
0.037086505 0.66100001 -0.095034167 1.8339253e-38 352 322
0.038303319 0.662 -0.095177941 1.8339253e-38 353 322
0.039464023 0.662 -0.095177941 1.8338178e-38 354 322
0.04062473 0.662 -0.095177941 1.8245982e-38 355 322
0.04172232 0.66100001 -0.095034167 1.8337462e-38 356 322
0.042881273 0.66100001 -0.095034167 1.8245266e-38 357 322
0.044106852 0.662 -0.095177941 1.8245263e-38 358 322
0.04526756 0.662 -0.095177941 1.8153066e-38 359 322
0.046358135 0.66100001 -0.095034167 1.7877202e-38 360 322
0.047517084 0.66100001 -0.095034167 1.7785007e-38 361 322
0.04867604 0.66100001 -0.095034167 1.7876474e-38 362 322
0.049910385 0.662 -0.095177941 1.7600247e-38 363 322
0.050993945 0.66100001 -0.095034167 1.7416573e-38 364 322
0.052152898 0.66100001 -0.095034167 1.7232183e-38 365 322
0.053311851 0.66100001 -0.095034167 1.7231107e-38 366 322
0.054553211 0.662 -0.095177941 1.6770129e-38 367 322
0.055713918 0.662 -0.095177941 1.6585016e-38 368 322
0.056874625 0.662 -0.095177941 1.649282e-38 369 322
0.058035329 0.662 -0.095177941 1.6032917e-38 370 322
0.05919604 0.662 -0.095177941 1.6032917e-38 371 322
0.060447913 0.66299999 -0.095321715 1.5481545e-38 372 322
0.061610378 0.66299999 -0.095321715 1.538935e-38 373 322
0.062772833 0.66299999 -0.095321715 1.5111699e-38 374 322
0.063935295 0.66299999 -0.095321715 1.4835473e-38 375 322
0.06519594 0.66399997 -0.095465489 1.4650725e-38 376 322
0.066360161 0.66399997 -0.095465489 1.4742921e-38 377 322
0.067524366 0.66399997 -0.095465489 1.4468135e-38 378 322
0.068688579 0.66399997 -0.095465489 1.4468135e-38 379 322
0.070063196 0.66600001 -0.095753036 1.4467413e-38 380 322
0.071230918 0.66600001 -0.095753036 1.4467413e-38 381 322
0.07239864 0.66600001 -0.095753036 1.4375213e-38 382 322
0.073676817 0.667 -0.09589681 1.4190822e-38 383 322
0.07484629 0.667 -0.09589681 1.400751e-38 384 322
0.076015763 0.667 -0.09589681 1.382276e-38 385 322
0.077300951 0.66799998 -0.096040577 1.382276e-38 386 322
0.078472182 0.66799998 -0.096040577 1.3730564e-38 387 322
0.079643413 0.66799998 -0.096040577 1.3453983e-38 388 322
0.080814637 0.66799998 -0.096040577 1.3361787e-38 389 322
0.082354069 0.671 -0.096471906 1.2994081e-38 390 322
0.083530545 0.671 -0.096471906 1.2532743e-38 391 322
0.084833272 0.67199999 -0.09661568 1.2623866e-38 392 322
0.086011514 0.67199999 -0.09661568 1.2439475e-38 393 322
0.087449253 0.67400002 -0.096903227 1.216398e-38 394 322
0.089156993 0.67799997 -0.097478308 1.1887752e-38 395 322
0.090345755 0.67799997 -0.097478308 1.1887398e-38 396 322
0.09153451 0.67799997 -0.097478308 1.1887398e-38 397 322
0.092860043 0.67900002 -0.097622089 1.16119e-38 398 322
0.094050556 0.67900002 -0.097622089 1.16119e-38 399 322
0.095241062 0.67900002 -0.097622089 1.1336056e-38 400 322
-0.078181133 0.68599999 -0.099831291 1.594985e-38 255 323
-0.076978341 0.68599999 -0.099831291 1.4562905e-38 256 323
-0.075775556 0.68599999 -0.099831291 1.2811189e-38 257 323
-0.074572764 0.68599999 -0.099831291 1.2625317e-38 258 323
-0.072942168 0.68199998 -0.099249184 1.3086295e-38 259 323
-0.071535997 0.68000001 -0.098958135 1.3088091e-38 260 323
-0.070240289 0.67900002 -0.09881261 1.3456872e-38 261 323
-0.068948075 0.67799997 -0.09866707 1.2908012e-38 262 323
-0.067559443 0.676 -0.098376028 1.3553381e-38 263 323
-0.066275999 0.67500001 -0.098230496 1.4656842e-38 264 323
-0.065092497 0.67500001 -0.098230496 1.5302211e-38 265 323
-0.06381432 0.67400002 -0.098084971 1.6219492e-38 266 323
-0.062632568 0.67400002 -0.098084971 1.6311687e-38 267 323
-0.061268479 0.67199999 -0.097793922 1.6220572e-38 268 323
-0.060090236 0.67199999 -0.097793922 1.6312768e-38 269 323
-0.058824331 0.671 -0.09764839 1.6497152e-38 270 323
-0.057561934 0.67000002 -0.097502865 1.6497152e-38 271 323
-0.056387197 0.67000002 -0.097502865 1.6681902e-38 272 323
-0.05504765 0.66799998 -0.097211808 1.6681902e-38 273 323
-0.05379577 0.667 -0.097066283 1.6498599e-38 274 323
-0.052626297 0.667 -0.097066283 1.6683351e-38 275 323
-0.051379681 0.66600001 -0.096920758 1.7142174e-38 276 323
-0.050211959 0.66600001 -0.096920758 1.7234369e-38 277 323
-0.04904424 0.66600001 -0.096920758 1.7509877e-38 278 323
-0.047876518 0.66600001 -0.096920758 1.7602432e-38 279 323
-0.046568532 0.66399997 -0.096629702 1.7602429e-38 280 323
-0.045404319 0.66399997 -0.096629702 1.7694626e-38 281 323
-0.044240102 0.66399997 -0.096629702 1.7695329e-38 282 323
-0.043011017 0.66299999 -0.096484177 1.7879721e-38 283 323
-0.041848559 0.66299999 -0.096484177 1.7880077e-38 284 323
-0.040686097 0.66299999 -0.096484177 1.7972272e-38 285 323
-0.039523639 0.66299999 -0.096484177 1.8156306e-38 286 323
-0.038361177 0.66299999 -0.096484177 1.8156306e-38 287 323
-0.037198719 0.66299999 -0.096484177 1.815595e-38 288 323
-0.035981905 0.662 -0.096338652 1.815595e-38 289 323
-0.034821201 0.662 -0.096338652 1.8248146e-38 290 323
-0.033660494 0.662 -0.096338652 1.8248146e-38 291 323
-0.032499783 0.662 -0.096338652 1.8339981e-38 292 323
-0.031291738 0.66100001 -0.096193127 1.8339981e-38 293 323
-0.030132787 0.66100001 -0.096193127 1.8523291e-38 294 323
-0.028973831 0.66100001 -0.096193127 1.8708042e-38 295 323
-0.02781488 0.66100001 -0.096193127 1.8708755e-38 296 323
-0.026575271 0.65899998 -0.09590207 1.8800951e-38 297 323
-0.025419824 0.65899998 -0.09590207 1.8800951e-38 298 323
-0.024264378 0.65899998 -0.09590207 1.8893505e-38 299 323
-0.023108931 0.65899998 -0.09590207 1.8800951e-38 300 323
-0.022020113 0.66100001 -0.096193127 1.8800951e-38 301 323
-0.02086116 0.66100001 -0.096193127 1.8984616e-38 302 323
-0.019732011 0.662 -0.096338652 1.8984616e-38 303 323
-0.018543253 0.66100001 -0.096193127 1.898497e-38 304 323
-0.0173843 0.66100001 -0.096193127 1.898497e-38 305 323
-0.016249891 0.662 -0.096338652 1.898497e-38 306 323
-0.015089186 0.662 -0.096338652 1.898497e-38 307 323
-0.01392848 0.662 -0.096338652 1.8801657e-38 308 323
-0.012748486 0.66100001 -0.096193127 1.8801657e-38 309 323
-0.011589534 0.66100001 -0.096193127 1.898497e-38 310 323
-0.010399019 0.65899998 -0.09590207 1.8800938e-38 311 323
-0.0092435731 0.65899998 -0.09590207 1.8800585e-38 312 323
-0.0080881258 0.65899998 -0.09590207 1.8984616e-38 313 323
-0.0069326796 0.65899998 -0.09590207 1.8709109e-38 314 323
-0.0057772328 0.65899998 -0.09590207 1.8709109e-38 315 323
-0.0046147732 0.65799999 -0.095756538 1.870839e-38 316 323
-0.0034610799 0.65799999 -0.095756538 1.870839e-38 317 323
-0.0023073866 0.65799999 -0.095756538 1.8709462e-38 318 323
-0.00115194 0.65700001 -0.095611021 1.8617266e-38 319 323
0 0.65700001 -0.095611021 1.861726e-38 320 323
0.00115194 0.65700001 -0.095611021 1.861726e-38 321 323
0.0023038799 0.65700001 -0.095611021 1.8617263e-38 322 323
0.0034558198 0.65700001 -0.095611021 1.8617263e-38 323 323
0.0046147732 0.65799999 -0.095756538 1.861619e-38 324 323
0.0057772328 0.65899998 -0.09590207 1.861619e-38 325 323
0.0069326796 0.65899998 -0.09590207 1.8707306e-38 326 323
0.0080881258 0.65899998 -0.09590207 1.8707306e-38 327 323
0.0092435731 0.65899998 -0.09590207 1.8707306e-38 328 323
0.01036746 0.65700001 -0.095611021 1.8707306e-38 329 323
0.011484332 0.65499997 -0.095319957 1.8799855e-38 330 323
0.012632766 0.65499997 -0.095319957 1.870766e-38 331 323
0.013823279 0.65700001 -0.095611021 1.8708016e-38 332 323
0.01497522 0.65700001 -0.095611021 1.8708016e-38 333 323
0.016151706 0.65799999 -0.095756538 1.8523994e-38 334 323
0.017305398 0.65799999 -0.095756538 1.8523994e-38 335 323
0.018487146 0.65899998 -0.09590207 1.8523997e-38 336 323
0.019642593 0.65899998 -0.09590207 1.8523997e-38 337 323
0.020798039 0.65899998 -0.09590207 1.8523641e-38 338 323
0.021953486 0.65899998 -0.09590207 1.8523641e-38 339 323
0.023108931 0.65899998 -0.09590207 1.8706956e-38 340 323
0.02422756 0.65799999 -0.095756538 1.8706956e-38 341 323
0.025381252 0.65799999 -0.095756538 1.8522925e-38 342 323
0.026494619 0.65700001 -0.095611021 1.8522925e-38 343 323
0.027646558 0.65700001 -0.095611021 1.8522922e-38 344 323
0.028798498 0.65700001 -0.095611021 1.8338531e-38 345 323
0.02995044 0.65700001 -0.095611021 1.8155216e-38 346 323
0.031149717 0.65799999 -0.095756538 1.8155216e-38 347 323
0.032303412 0.65799999 -0.095756538 1.8338531e-38 348 323
0.033457108 0.65799999 -0.095756538 1.8338531e-38 349 323
0.034663398 0.65899998 -0.09590207 1.8338181e-38 350 323
0.035818845 0.65899998 -0.09590207 1.8245985e-38 351 323
0.036974292 0.65899998 -0.09590207 1.8062673e-38 352 323
0.038245458 0.66100001 -0.096193127 1.8062673e-38 353 323
0.039404415 0.66100001 -0.096193127 1.8061234e-38 354 323
0.040563367 0.66100001 -0.096193127 1.7877202e-38 355 323
0.041596077 0.65899998 -0.09590207 1.7784654e-38 356 323
0.042751525 0.65899998 -0.09590207 1.7784654e-38 357 323
0.043906972 0.65899998 -0.09590207 1.7692458e-38 358 323
0.045199182 0.66100001 -0.096193127 1.7600262e-38 359 323
0.046358135 0.66100001 -0.096193127 1.7508064e-38 360 323
0.047517084 0.66100001 -0.096193127 1.7231836e-38 361 323
0.04867604 0.66100001 -0.096193127 1.7415133e-38 362 323
0.049834993 0.66100001 -0.096193127 1.7230741e-38 363 323
0.050993945 0.66100001 -0.096193127 1.7138542e-38 364 323
0.052152898 0.66100001 -0.096193127 1.7046346e-38 365 323
0.053311851 0.66100001 -0.096193127 1.6494974e-38 366 323
0.054470807 0.66100001 -0.096193127 1.6125832e-38 367 323
0.05562976 0.66100001 -0.096193127 1.6217664e-38 368 323
0.056788713 0.66100001 -0.096193127 1.6032914e-38 369 323
0.058035329 0.662 -0.096338652 1.5389347e-38 370 323
0.05919604 0.662 -0.096338652 1.529715e-38 371 323
0.060447913 0.66299999 -0.096484177 1.5204598e-38 372 323
0.061610378 0.66299999 -0.096484177 1.4928372e-38 373 323
0.062772833 0.66299999 -0.096484177 1.483582e-38 374 323
0.063935295 0.66299999 -0.096484177 1.4559232e-38 375 323
0.065097757 0.66299999 -0.096484177 1.4466683e-38 376 323
0.066360161 0.66399997 -0.096629702 1.4466683e-38 377 323
0.067524366 0.66399997 -0.096629702 1.4283734e-38 378 323
0.068688579 0.66399997 -0.096629702 1.4099703e-38 379 323
0.069852799 0.66399997 -0.096629702 1.4374134e-38 380 323
0.071017005 0.66399997 -0.096629702 1.4190103e-38 381 323
0.07239864 0.66600001 -0.096920758 1.382276e-38 382 323
0.073566355 0.66600001 -0.096920758 1.3730564e-38 383 323
0.07484629 0.667 -0.097066283 1.3638367e-38 384 323
0.076015763 0.667 -0.097066283 1.3638367e-38 385 323
0.077185236 0.667 -0.097066283 1.3637648e-38 386 323
0.078472182 0.66799998 -0.097211808 1.3453257e-38 387 323
0.079643413 0.66799998 -0.097211808 1.2993001e-38 388 323
0.080814637 0.66799998 -0.097211808 1.2716415e-38 389 323
0.082354069 0.671 -0.09764839 1.2348361e-38 390 323
0.083530545 0.671 -0.09764839 1.1979219e-38 391 323
0.084833272 0.67199999 -0.097793922 1.1978868e-38 392 323
0.086395502 0.67500001 -0.098230496 1.1886673e-38 393 323
0.087708741 0.676 -0.098376028 1.1703004e-38 394 323
0.089156993 0.67799997 -0.09866707 1.1703004e-38 395 323
0.090345755 0.67799997 -0.09866707 1.1702654e-38 396 323
0.09153451 0.67799997 -0.09866707 1.179485e-38 397 323
0.092860043 0.67900002 -0.09881261 1.1427159e-38 398 323
0.094050556 0.67900002 -0.09881261 1.1427159e-38 399 323
-0.078181133 0.68599999 -0.10103408 1.5582509e-38 255 324
-0.076978341 0.68599999 -0.10103408 1.4932779e-38 256 324
-0.075775556 0.68599999 -0.10103408 1.2996672e-38 257 324
-0.074572764 0.68599999 -0.10103408 1.2993027e-38 258 324
-0.072942168 0.68199998 -0.10044495 1.2993027e-38 259 324
-0.071535997 0.68000001 -0.10015039 1.3086289e-38 260 324
-0.070240289 0.67900002 -0.10000312 1.3086289e-38 261 324
-0.068948075 0.67799997 -0.099855833 1.2813653e-38 262 324
-0.067559443 0.676 -0.099561274 1.3274629e-38 263 324
-0.066275999 0.67500001 -0.099413998 1.3735602e-38 264 324
-0.065092497 0.67500001 -0.099413998 1.4380971e-38 265 324
-0.06381432 0.67400002 -0.099266715 1.5300411e-38 266 324
-0.062632568 0.67400002 -0.099266715 1.5669192e-38 267 324
-0.061268479 0.67199999 -0.098972157 1.6219842e-38 268 324
-0.060000818 0.671 -0.098824874 1.6312038e-38 269 324
-0.058736663 0.67000002 -0.098677598 1.6404591e-38 270 324
-0.057561934 0.67000002 -0.098677598 1.6404591e-38 271 324
-0.056218877 0.66799998 -0.098383039 1.6497142e-38 272 324
-0.054965243 0.667 -0.098235756 1.6497142e-38 273 324
-0.05379577 0.667 -0.098235756 1.6496786e-38 274 324
-0.052547399 0.66600001 -0.098088481 1.6681536e-38 275 324
-0.051379681 0.66600001 -0.098088481 1.6498234e-38 276 324
-0.050211959 0.66600001 -0.098088481 1.6682265e-38 277 324
-0.048896957 0.66399997 -0.097793914 1.7416597e-38 278 324
-0.047732744 0.66399997 -0.097793914 1.7508793e-38 279 324
-0.046568532 0.66399997 -0.097793914 1.7509149e-38 280 324
-0.045404319 0.66399997 -0.097793914 1.769318e-38 281 324
-0.044240102 0.66399997 -0.097793914 1.7510218e-38 282 324
-0.043011017 0.66299999 -0.097646631 1.7694609e-38 283 324
-0.041785441 0.662 -0.097499363 1.7603485e-38 284 324
-0.04062473 0.662 -0.097499363 1.7603485e-38 285 324
-0.039464023 0.662 -0.097499363 1.797119e-38 286 324
-0.038303319 0.662 -0.097499363 1.797119e-38 287 324
-0.037142612 0.662 -0.097499363 1.7787878e-38 288 324
-0.035981905 0.662 -0.097499363 1.7880074e-38 289 324
-0.034821201 0.662 -0.097499363 1.8155584e-38 290 324
-0.033660494 0.662 -0.097499363 1.824778e-38 291 324
-0.032499783 0.662 -0.097499363 1.8247783e-38 292 324
-0.031291738 0.66100001 -0.09735208 1.8339979e-38 293 324
-0.030132787 0.66100001 -0.09735208 1.8523647e-38 294 324
-0.028886165 0.65899998 -0.097057514 1.8615844e-38 295 324
-0.027730718 0.65899998 -0.097057514 1.8708037e-38 296 324
-0.026575271 0.65899998 -0.097057514 1.8800232e-38 297 324
-0.025381252 0.65799999 -0.096910238 1.8800232e-38 298 324
-0.02422756 0.65799999 -0.096910238 1.8984622e-38 299 324
-0.023073865 0.65799999 -0.096910238 1.8801307e-38 300 324
-0.021953486 0.65899998 -0.097057514 1.8801307e-38 301 324
-0.02086116 0.66100001 -0.09735208 1.8984619e-38 302 324
-0.019642593 0.65899998 -0.097057514 1.9076815e-38 303 324
-0.018487146 0.65899998 -0.097057514 1.9076449e-38 304 324
-0.017331699 0.65899998 -0.097057514 1.9076449e-38 305 324
-0.016176252 0.65899998 -0.097057514 1.9076449e-38 306 324
-0.015020805 0.65899998 -0.097057514 1.9076449e-38 307 324
-0.013865359 0.65899998 -0.097057514 1.9076449e-38 308 324
-0.012709912 0.65899998 -0.097057514 1.8984253e-38 309 324
-0.011554466 0.65899998 -0.097057514 1.8984616e-38 310 324
-0.010399019 0.65899998 -0.097057514 1.8984616e-38 311 324
-0.0092435731 0.65899998 -0.097057514 1.8801307e-38 312 324
-0.0080881258 0.65899998 -0.097057514 1.8893503e-38 313 324
-0.0069326796 0.65899998 -0.097057514 1.8984619e-38 314 324
-0.0057684663 0.65799999 -0.096910238 1.8984619e-38 315 324
-0.0046147732 0.65799999 -0.096910238 1.89839e-38 316 324
-0.0034558198 0.65700001 -0.096762955 1.9076096e-38 317 324
-0.0023038799 0.65700001 -0.096762955 1.8984972e-38 318 324
-0.00115194 0.65700001 -0.096762955 1.8800941e-38 319 324
0 0.65700001 -0.096762955 1.8801657e-38 320 324
0.00115194 0.65700001 -0.096762955 1.8709462e-38 321 324
0.0023038799 0.65700001 -0.096762955 1.880166e-38 322 324
0.0034558198 0.65700001 -0.096762955 1.8709106e-38 323 324
0.0046077599 0.65700001 -0.096762955 1.8800585e-38 324 324
0.0057596997 0.65700001 -0.096762955 1.8800585e-38 325 324
0.0069116396 0.65700001 -0.096762955 1.8891702e-38 326 324
0.0080758529 0.65799999 -0.096910238 1.8891702e-38 327 324
0.0092155198 0.65700001 -0.096762955 1.861619e-38 328 324
0.010335899 0.65499997 -0.096468389 1.8708387e-38 329 324
0.011484332 0.65499997 -0.096468389 1.8799855e-38 330 324
0.012632766 0.65499997 -0.096468389 1.870766e-38 331 324
0.013781199 0.65499997 -0.096468389 1.8707662e-38 332 324
0.014929632 0.65499997 -0.096468389 1.8523631e-38 333 324
0.01612716 0.65700001 -0.096762955 1.8523278e-38 334 324
0.0172791 0.65700001 -0.096762955 1.8707309e-38 335 324
0.01843104 0.65700001 -0.096762955 1.8523278e-38 336 324
0.019582979 0.65700001 -0.096762955 1.8523278e-38 337 324
0.020734919 0.65700001 -0.096762955 1.8522922e-38 338 324
0.021886859 0.65700001 -0.096762955 1.8522922e-38 339 324
0.023038799 0.65700001 -0.096762955 1.8522928e-38 340 324
0.024190739 0.65700001 -0.096762955 1.8522928e-38 341 324
0.025342681 0.65700001 -0.096762955 1.8430729e-38 342 324
0.026494619 0.65700001 -0.096762955 1.8430729e-38 343 324
0.027646558 0.65700001 -0.096762955 1.8521843e-38 344 324
0.028798498 0.65700001 -0.096762955 1.8337812e-38 345 324
0.02995044 0.65700001 -0.096762955 1.8246333e-38 346 324
0.031149717 0.65799999 -0.096910238 1.8246333e-38 347 324
0.032303412 0.65799999 -0.096910238 1.8246335e-38 348 324
0.033457108 0.65799999 -0.096910238 1.8246335e-38 349 324
0.034610797 0.65799999 -0.096910238 1.8153787e-38 350 324
0.035764489 0.65799999 -0.096910238 1.8153787e-38 351 324
0.036918186 0.65799999 -0.096910238 1.806159e-38 352 324
0.038129739 0.65899998 -0.097057514 1.7877558e-38 353 324
0.039285187 0.65899998 -0.097057514 1.7692808e-38 354 324
0.04044063 0.65899998 -0.097057514 1.7600613e-38 355 324
0.04153296 0.65799999 -0.096910238 1.7507697e-38 356 324
0.042686652 0.65799999 -0.096910238 1.7415501e-38 357 324
0.043840345 0.65799999 -0.096910238 1.704672e-38 358 324
0.045062415 0.65899998 -0.097057514 1.723111e-38 359 324
0.046217863 0.65899998 -0.097057514 1.7230391e-38 360 324
0.04737331 0.65899998 -0.097057514 1.704564e-38 361 324
0.048528757 0.65899998 -0.097057514 1.667864e-38 362 324
0.049684204 0.65899998 -0.097057514 1.6586085e-38 363 324
0.050993945 0.66100001 -0.09735208 1.6677191e-38 364 324
0.052152898 0.66100001 -0.09735208 1.649316e-38 365 324
0.053311851 0.66100001 -0.09735208 1.6217662e-38 366 324
0.054470807 0.66100001 -0.09735208 1.603327e-38 367 324
0.05562976 0.66100001 -0.09735208 1.5848523e-38 368 324
0.056788713 0.66100001 -0.09735208 1.5664492e-38 369 324
0.058035329 0.662 -0.097499363 1.5296428e-38 370 324
0.05919604 0.662 -0.097499363 1.5112037e-38 371 324
0.060356744 0.662 -0.097499363 1.4836173e-38 372 324
0.061610378 0.66299999 -0.097646631 1.4743978e-38 373 324
0.062772833 0.66299999 -0.097646631 1.4650355e-38 374 324
0.063935295 0.66299999 -0.097646631 1.4465964e-38 375 324
0.065097757 0.66299999 -0.097646631 1.41901e-38 376 324
0.066260219 0.66299999 -0.097646631 1.41901e-38 377 324
0.067422673 0.66299999 -0.097646631 1.4006425e-38 378 324
0.068688579 0.66399997 -0.097793914 1.4006425e-38 379 324
0.069852799 0.66399997 -0.097793914 1.3913865e-38 380 324
0.071017005 0.66399997 -0.097793914 1.3913865e-38 381 324
0.07239864 0.66600001 -0.098088481 1.3362491e-38 382 324
0.073566355 0.66600001 -0.098088481 1.3362491e-38 383 324
0.074734077 0.66600001 -0.098088481 1.3453254e-38 384 324
0.076015763 0.667 -0.098235756 1.3361059e-38 385 324
0.077185236 0.667 -0.098235756 1.3360342e-38 386 324
0.078354709 0.667 -0.098235756 1.2899364e-38 387 324
0.079643413 0.66799998 -0.098383039 1.2071048e-38 388 324
0.080814637 0.66799998 -0.098383039 1.2071048e-38 389 324
0.082231335 0.67000002 -0.098677598 1.1885598e-38 390 324
0.083530545 0.671 -0.098824874 1.1793402e-38 391 324
0.084833272 0.67199999 -0.098972157 1.1426064e-38 392 324
0.086395502 0.67500001 -0.099413998 1.1426064e-38 393 324
0.087708741 0.676 -0.099561274 1.1334945e-38 394 324
0.089156993 0.67799997 -0.099855833 1.1334945e-38 395 324
0.090345755 0.67799997 -0.099855833 1.1334948e-38 396 324
0.09153451 0.67799997 -0.099855833 1.1519339e-38 397 324
0.092860043 0.67900002 -0.10000312 1.1059102e-38 398 324
0.094050556 0.67900002 -0.10000312 1.1059102e-38 399 324
-0.076753922 0.68400002 -0.1019388 1.502607e-38 256 325
-0.075554639 0.68400002 -0.1019388 1.3458744e-38 257 325
-0.074355356 0.68400002 -0.1019388 1.3177431e-38 258 325
-0.072942168 0.68199998 -0.10164072 1.2624617e-38 259 325
-0.071535997 0.68000001 -0.10134266 1.3268888e-38 260 325
-0.070240289 0.67900002 -0.10119363 1.3176693e-38 261 325
-0.068948075 0.67799997 -0.1010446 1.2812222e-38 262 325
-0.067559443 0.676 -0.10074653 1.2904417e-38 263 325
-0.066374183 0.676 -0.10074653 1.290657e-38 264 325
-0.065092497 0.67500001 -0.10059749 1.3551939e-38 265 325
-0.06381432 0.67400002 -0.10044847 1.4563565e-38 266 325
-0.062446721 0.67199999 -0.10015039 1.5024902e-38 267 325
-0.061177302 0.671 -0.10000136 1.5851417e-38 268 325
-0.060000818 0.671 -0.10000136 1.6220198e-38 269 325
-0.058736663 0.67000002 -0.099852331 1.6220195e-38 270 325
-0.057390101 0.66799998 -0.099554263 1.6220195e-38 271 325
-0.056218877 0.66799998 -0.099554263 1.6036883e-38 272 325
-0.054965243 0.667 -0.099405229 1.6036883e-38 273 325
-0.053715117 0.66600001 -0.099256195 1.6129785e-38 274 325
-0.052547399 0.66600001 -0.099256195 1.5945035e-38 275 325
-0.051379681 0.66600001 -0.099256195 1.6404588e-38 276 325
-0.05006117 0.66399997 -0.098958127 1.6681533e-38 277 325
-0.048896957 0.66399997 -0.098958127 1.6864511e-38 278 325
-0.047732744 0.66399997 -0.098958127 1.6956708e-38 279 325
-0.046568532 0.66399997 -0.098958127 1.6773398e-38 280 325
-0.045404319 0.66399997 -0.098958127 1.6865594e-38 281 325
-0.044173479 0.66299999 -0.098809093 1.6865944e-38 282 325
-0.043011017 0.66299999 -0.098809093 1.695814e-38 283 325
-0.041785441 0.662 -0.098660067 1.7142521e-38 284 325
-0.04062473 0.662 -0.098660067 1.7142521e-38 285 325
-0.039464023 0.662 -0.098660067 1.7235073e-38 286 325
-0.038303319 0.662 -0.098660067 1.7327269e-38 287 325
-0.037142612 0.662 -0.098660067 1.7327271e-38 288 325
-0.035927553 0.66100001 -0.098511033 1.7419467e-38 289 325
-0.0347686 0.66100001 -0.098511033 1.7787175e-38 290 325
-0.033609647 0.66100001 -0.098511033 1.787937e-38 291 325
-0.032352503 0.65899998 -0.098212965 1.7971569e-38 292 325
-0.031197058 0.65899998 -0.098212965 1.7971569e-38 293 325
-0.030041611 0.65899998 -0.098212965 1.8247433e-38 294 325
-0.028886165 0.65899998 -0.098212965 1.8339628e-38 295 325
-0.027730718 0.65899998 -0.098212965 1.8431822e-38 296 325
-0.026534945 0.65799999 -0.098063931 1.8431822e-38 297 325
-0.025381252 0.65799999 -0.098063931 1.8432176e-38 298 325
-0.02422756 0.65799999 -0.098063931 1.8708761e-38 299 325
-0.023073865 0.65799999 -0.098063931 1.8525443e-38 300 325
-0.021953486 0.65899998 -0.098212965 1.8525443e-38 301 325
-0.020798039 0.65899998 -0.098212965 1.8800951e-38 302 325
-0.019642593 0.65899998 -0.098212965 1.8800951e-38 303 325
-0.018487146 0.65899998 -0.098212965 1.8708755e-38 304 325
-0.017305398 0.65799999 -0.098063931 1.8708755e-38 305 325
-0.016151706 0.65799999 -0.098063931 1.8708755e-38 306 325
-0.014998012 0.65799999 -0.098063931 1.8708755e-38 307 325
-0.01384432 0.65799999 -0.098063931 1.8709111e-38 308 325
-0.01267134 0.65700001 -0.097914897 1.8709111e-38 309 325
-0.011519399 0.65700001 -0.097914897 1.8708755e-38 310 325
-0.01036746 0.65700001 -0.097914897 1.8708755e-38 311 325
-0.0092295464 0.65799999 -0.098063931 1.8617642e-38 312 325
-0.0080758529 0.65799999 -0.098063931 1.8617642e-38 313 325
-0.0069221598 0.65799999 -0.098063931 1.8800951e-38 314 325
-0.0057684663 0.65799999 -0.098063931 1.8708755e-38 315 325
-0.0046077599 0.65700001 -0.097914897 1.8800232e-38 316 325
-0.0034558198 0.65700001 -0.097914897 1.8800232e-38 317 325
-0.0023038799 0.65700001 -0.097914897 1.8708755e-38 318 325
-0.0011484332 0.65499997 -0.097616829 1.8708755e-38 319 325
0 0.65499997 -0.097616829 1.8984622e-38 320 325
0.0011484332 0.65499997 -0.097616829 1.8800232e-38 321 325
0.0022968664 0.65499997 -0.097616829 1.8800232e-38 322 325
