# .PCD v.7 - Point Cloud Data file format
FIELDS x y z rgb imX imY
SIZE 4 4 4 4 4 4
TYPE F F F F F F
COUNT 1 1 1 1 1 1
WIDTH 841
HEIGHT 1
VIEWPOINT 0 0 0 1 0 0 0
POINTS 841
DATA ascii
0.09340708 0.68300003 -0.088616975 1.4651797e-38 398 314
0.094604604 0.68300003 -0.088616975 1.4283015e-38 399 314
0.095802136 0.68300003 -0.088616975 1.41901e-38 400 314
0.09699966 0.68300003 -0.088616975 1.3913512e-38 401 314
0.098340958 0.68400002 -0.088746719 1.3178115e-38 402 314
0.099831291 0.68599999 -0.089006208 1.2901529e-38 403 314
0.10103408 0.68599999 -0.089006208 1.1981765e-38 404 314
0.10223686 0.68599999 -0.089006208 1.2995558e-38 405 314
0.10343964 0.68599999 -0.089006208 1.4010845e-38 406 314
-0.077090554 0.68699998 -0.090340495 1.6690261e-38 256 315
-0.075886011 0.68699998 -0.090340495 1.374e-38 257 315
-0.074681476 0.68699998 -0.090340495 1.3645952e-38 258 315
-0.073476933 0.68699998 -0.090340495 1.5397309e-38 259 315
-0.072167195 0.68599999 -0.090209 1.6960308e-38 260 315
-0.070964411 0.68599999 -0.090209 1.7236534e-38 261 315
-0.069354847 0.68199998 -0.089682996 1.7696427e-38 262 315
-0.067959204 0.68000001 -0.089419998 1.7972653e-38 263 315
-0.066766933 0.68000001 -0.089419998 1.806448e-38 264 315
-0.065574668 0.68000001 -0.089419998 1.806448e-38 265 315
-0.064287722 0.67900002 -0.089288503 1.7972991e-38 266 315
-0.063004278 0.67799997 -0.089156993 1.7972991e-38 267 315
-0.061815511 0.67799997 -0.089156993 1.769748e-38 268 315
-0.060626756 0.67799997 -0.089156993 1.7605285e-38 269 315
-0.059437994 0.67799997 -0.089156993 1.7788584e-38 270 315
-0.058077414 0.676 -0.088893995 1.7696029e-38 271 315
-0.056892153 0.676 -0.088893995 1.7971897e-38 272 315
-0.0556245 0.67500001 -0.088762499 1.769531e-38 273 315
-0.054441001 0.67500001 -0.088762499 1.7690643e-38 274 315
-0.053257499 0.67500001 -0.088762499 1.713747e-38 275 315
-0.052074 0.67500001 -0.088762499 1.6677583e-38 276 315
-0.050890498 0.67500001 -0.088762499 1.6769779e-38 277 315
-0.049633358 0.67400002 -0.088631004 1.6494634e-38 278 315
-0.048451614 0.67400002 -0.088631004 1.6771581e-38 279 315
-0.047269866 0.67400002 -0.088631004 1.8154491e-38 280 315
-0.046088122 0.67400002 -0.088631004 1.8338884e-38 281 315
-0.044906374 0.67400002 -0.088631004 1.8523626e-38 282 315
-0.043594878 0.67199999 -0.088367991 1.8708016e-38 283 315
-0.042416636 0.67199999 -0.088367991 1.8616543e-38 284 315
-0.041177034 0.671 -0.088236496 1.8616543e-38 285 315
-0.040000543 0.671 -0.088236496 1.8523994e-38 286 315
-0.03888192 0.67199999 -0.088367991 1.8523994e-38 287 315
-0.037647571 0.671 -0.088236496 1.8339253e-38 288 315
-0.036471087 0.671 -0.088236496 1.8154863e-38 289 315
-0.0352946 0.671 -0.088236496 1.7786809e-38 290 315
-0.034118112 0.671 -0.088236496 1.7786809e-38 291 315
-0.032941625 0.671 -0.088236496 1.7512774e-38 292 315
-0.031765141 0.671 -0.088236496 1.7881556e-38 293 315
-0.030588651 0.671 -0.088236496 1.6594122e-38 294 315
-0.029368332 0.67000002 -0.088105001 1.9544022e-38 295 315
-0.028193599 0.67000002 -0.088105001 2.3503428e-38 296 315
0.038824059 0.671 -0.088236496 1.8249652e-38 353 315
0.040000543 0.671 -0.088236496 1.8341093e-38 354 315
0.041115668 0.67000002 -0.088105001 1.8064147e-38 355 315
0.042290401 0.67000002 -0.088105001 1.8339625e-38 356 315
0.043465134 0.67000002 -0.088105001 1.8063038e-38 357 315
0.044639867 0.67000002 -0.088105001 1.852149e-38 358 315
0.0458146 0.67000002 -0.088105001 1.8614044e-38 359 315
0.046989333 0.67000002 -0.088105001 1.8523294e-38 360 315
0.048164066 0.67000002 -0.088105001 1.8523294e-38 361 315
0.049338799 0.67000002 -0.088105001 1.8706959e-38 362 315
0.050588924 0.671 -0.088236496 1.8706959e-38 363 315
0.051765412 0.671 -0.088236496 1.8523278e-38 364 315
0.052941896 0.671 -0.088236496 1.8523278e-38 365 315
0.054118387 0.671 -0.088236496 1.8523278e-38 366 315
0.055294871 0.671 -0.088236496 1.8523278e-38 367 315
0.056555521 0.67199999 -0.088367991 1.8523278e-38 368 315
0.057733759 0.67199999 -0.088367991 1.8431083e-38 369 315
0.058824331 0.671 -0.088236496 1.8522199e-38 370 315
0.060000818 0.671 -0.088236496 1.8337809e-38 371 315
0.061177302 0.671 -0.088236496 1.8337082e-38 372 315
0.06235379 0.671 -0.088236496 1.8244886e-38 373 315
0.063530281 0.671 -0.088236496 1.787718e-38 374 315
0.064706765 0.671 -0.088236496 1.7693149e-38 375 315
0.065883249 0.671 -0.088236496 1.7601319e-38 376 315
0.06705974 0.671 -0.088236496 1.7601319e-38 377 315
0.068337917 0.67199999 -0.088367991 1.7600247e-38 378 315
0.069412716 0.671 -0.088236496 1.73233e-38 379 315
0.0705892 0.671 -0.088236496 1.6863401e-38 380 315
0.071872637 0.67199999 -0.088367991 1.6863401e-38 381 315
0.073050871 0.67199999 -0.088367991 1.6770848e-38 382 315
0.074229114 0.67199999 -0.088367991 1.6586817e-38 383 315
0.07563179 0.67400002 -0.088631004 1.6494618e-38 384 315
0.076813534 0.67400002 -0.088631004 1.6494618e-38 385 315
0.077995278 0.67400002 -0.088631004 1.6126912e-38 386 315
0.079294503 0.67500001 -0.088762499 1.6034716e-38 387 315
0.080477998 0.67500001 -0.088762499 1.5849249e-38 388 315
0.0816615 0.67500001 -0.088762499 1.5849249e-38 389 315
0.082844995 0.67500001 -0.088762499 1.5388994e-38 390 315
0.084028497 0.67500001 -0.088762499 1.5296797e-38 391 315
0.085338242 0.676 -0.088893995 1.5020936e-38 392 315
0.086779475 0.67799997 -0.089156993 1.4836545e-38 393 315
0.08796823 0.67799997 -0.089156993 1.4836191e-38 394 315
0.089156993 0.67799997 -0.089156993 1.4651441e-38 395 315
0.090612262 0.68000001 -0.089419998 1.4468135e-38 396 315
0.091804534 0.68000001 -0.089419998 1.437558e-38 397 315
0.093270317 0.68199998 -0.089682996 1.4007873e-38 398 315
0.094604604 0.68300003 -0.089814499 1.3823481e-38 399 315
0.095802136 0.68300003 -0.089814499 1.3638014e-38 400 315
0.09699966 0.68300003 -0.089814499 1.3361787e-38 401 315
0.098197185 0.68300003 -0.089814499 1.2901901e-38 402 315
0.099540241 0.68400002 -0.089946002 1.2533118e-38 403 315
0.10073952 0.68400002 -0.089946002 1.1521525e-38 404 315
0.1019388 0.68400002 -0.089946002 1.3181048e-38 405 315
-0.077090554 0.68699998 -0.09154503 1.6689542e-38 256 316
-0.075886011 0.68699998 -0.09154503 1.3738921e-38 257 316
-0.074681476 0.68699998 -0.09154503 1.3461201e-38 258 316
-0.073476933 0.68699998 -0.09154503 1.4936332e-38 259 316
-0.072167195 0.68599999 -0.091411777 1.6407856e-38 260 316
-0.070757523 0.68400002 -0.091145277 1.6868475e-38 261 316
-0.069354847 0.68199998 -0.090878762 1.7603875e-38 262 316
-0.067959204 0.68000001 -0.090612262 1.7788625e-38 263 316
-0.066766933 0.68000001 -0.090612262 1.8064483e-38 264 316
-0.065478235 0.67900002 -0.090479009 1.8064483e-38 265 316
-0.064287722 0.67900002 -0.090479009 1.7973357e-38 266 316
-0.063004278 0.67799997 -0.090345755 1.7789326e-38 267 316
-0.061815511 0.67799997 -0.090345755 1.7789676e-38 268 316
-0.06044792 0.676 -0.090079248 1.7789676e-38 269 316
-0.059262663 0.676 -0.090079248 1.7880793e-38 270 316
-0.058077414 0.676 -0.090079248 1.7880793e-38 271 316
-0.056808002 0.67500001 -0.089945994 1.788043e-38 272 316
-0.0556245 0.67500001 -0.089945994 1.8248852e-38 273 316
-0.054441001 0.67500001 -0.089945994 1.8522572e-38 274 316
-0.053257499 0.67500001 -0.089945994 1.8706603e-38 275 316
-0.051996857 0.67400002 -0.089812748 1.8797732e-38 276 316
-0.050664317 0.67199999 -0.089546233 1.8705537e-38 277 316
-0.049486078 0.67199999 -0.089546233 1.8154518e-38 278 316
-0.04830784 0.67199999 -0.089546233 1.8338549e-38 279 316
-0.047129598 0.67199999 -0.089546233 1.8523641e-38 280 316
-0.045951359 0.67199999 -0.089546233 1.8431445e-38 281 316
-0.044773117 0.67199999 -0.089546233 1.8799855e-38 282 316
-0.043530006 0.671 -0.089412987 1.8892052e-38 283 316
-0.042353518 0.671 -0.089412987 1.8708743e-38 284 316
-0.041177034 0.671 -0.089412987 1.8800938e-38 285 316
-0.040000543 0.671 -0.089412987 1.861619e-38 286 316
-0.038824059 0.671 -0.089412987 1.861619e-38 287 316
-0.037647571 0.671 -0.089412987 1.8523997e-38 288 316
-0.036416732 0.67000002 -0.089279734 1.8523997e-38 289 316
-0.035241999 0.67000002 -0.089279734 1.8248136e-38 290 316
-0.034067266 0.67000002 -0.089279734 1.8248136e-38 291 316
-0.032892533 0.67000002 -0.089279734 1.7972285e-38 292 316
-0.0317178 0.67000002 -0.089279734 1.7787894e-38 293 316
-0.030588651 0.671 -0.089412987 1.6039809e-38 294 316
-0.029368332 0.67000002 -0.089279734 1.7975917e-38 295 316
-0.028193599 0.67000002 -0.089279734 2.2389842e-38 296 316
-0.027059194 0.671 -0.089412987 1.9808364e-38 297 316
-0.025882706 0.671 -0.089412987 1.466846e-38 298 316
0.036416732 0.67000002 -0.089279734 1.8246743e-38 351 316
0.037591465 0.67000002 -0.089279734 1.8247445e-38 352 316
0.038766202 0.67000002 -0.089279734 1.8339642e-38 353 316
0.039940935 0.67000002 -0.089279734 1.8522943e-38 354 316
0.040992931 0.66799998 -0.089013219 1.8522943e-38 355 316
0.042164158 0.66799998 -0.089013219 1.8615491e-38 356 316
0.043335386 0.66799998 -0.089013219 1.8431098e-38 357 316
0.044506609 0.66799998 -0.089013219 1.8522928e-38 358 316
0.045677837 0.66799998 -0.089013219 1.8522928e-38 359 316
0.046778932 0.667 -0.088879973 1.8522925e-38 360 316
0.047948405 0.667 -0.088879973 1.8522925e-38 361 316
0.049117878 0.667 -0.088879973 1.8707312e-38 362 316
0.050287351 0.667 -0.088879973 1.8707312e-38 363 316
0.051456824 0.667 -0.088879973 1.8706593e-38 364 316
0.052863002 0.67000002 -0.089279734 1.8706593e-38 365 316
0.054037735 0.67000002 -0.089279734 1.8523275e-38 366 316
0.055212468 0.67000002 -0.089279734 1.8523275e-38 367 316
0.056471359 0.671 -0.089412987 1.8523631e-38 368 316
0.057647847 0.671 -0.089412987 1.8431077e-38 369 316
0.058736663 0.67000002 -0.089279734 1.8338881e-38 370 316
0.0599114 0.67000002 -0.089279734 1.8154489e-38 371 316
0.061177302 0.671 -0.089412987 1.815377e-38 372 316
0.06226087 0.67000002 -0.089279734 1.8061574e-38 373 316
0.063435599 0.67000002 -0.089279734 1.7876827e-38 374 316
0.064610332 0.67000002 -0.089279734 1.7692796e-38 375 316
0.065785065 0.67000002 -0.089279734 1.760025e-38 376 316
0.066959806 0.67000002 -0.089279734 1.7323303e-38 377 316
0.068134531 0.67000002 -0.089279734 1.7230754e-38 378 316
0.069102369 0.66799998 -0.089013219 1.6954527e-38 379 316
0.070273593 0.66799998 -0.089013219 1.6770498e-38 380 316
0.071658738 0.67000002 -0.089279734 1.6586466e-38 381 316
0.072942175 0.671 -0.089412987 1.6402426e-38 382 316
0.074118659 0.671 -0.089412987 1.6402426e-38 383 316
0.075407356 0.67199999 -0.089546233 1.6217676e-38 384 316
0.076585598 0.67199999 -0.089546233 1.6125479e-38 385 316
0.077763841 0.67199999 -0.089546233 1.5941094e-38 386 316
0.079177029 0.67400002 -0.089812748 1.5848899e-38 387 316
0.080358773 0.67400002 -0.089812748 1.5664151e-38 388 316
0.081540518 0.67400002 -0.089812748 1.5571956e-38 389 316
0.082722262 0.67400002 -0.089812748 1.5204251e-38 390 316
0.084028497 0.67500001 -0.089945994 1.4927665e-38 391 316
0.085338242 0.676 -0.090079248 1.4835473e-38 392 316
0.086779475 0.67799997 -0.090345755 1.4743277e-38 393 316
0.08796823 0.67799997 -0.090345755 1.4467413e-38 394 316
0.089156993 0.67799997 -0.090345755 1.4375216e-38 395 316
0.090479009 0.67900002 -0.090479009 1.4007154e-38 396 316
0.091804534 0.68000001 -0.090612262 1.3914958e-38 397 316
0.093270317 0.68199998 -0.090878762 1.3547974e-38 398 316
0.09446609 0.68199998 -0.090878762 1.3179191e-38 399 316
0.095661856 0.68199998 -0.090878762 1.3269238e-38 400 316
0.09685763 0.68199998 -0.090878762 1.3084847e-38 401 316
0.098053411 0.68199998 -0.090878762 1.2533487e-38 402 316
0.099394716 0.68300003 -0.091012023 1.2349095e-38 403 316
0.10073952 0.68400002 -0.091145277 1.1430421e-38 404 316
-0.077090554 0.68699998 -0.092749573 1.6781735e-38 256 317
-0.075886011 0.68699998 -0.092749573 1.3554888e-38 257 317
-0.074681476 0.68699998 -0.092749573 1.3092779e-38 258 317
-0.073476933 0.68699998 -0.092749573 1.4475713e-38 259 317
-0.072167195 0.68599999 -0.092614569 1.6130909e-38 260 317
-0.070550621 0.68199998 -0.092074543 1.6592247e-38 261 317
-0.069354847 0.68199998 -0.092074543 1.7327287e-38 262 317
-0.067959204 0.68000001 -0.091804534 1.7603875e-38 263 317
-0.066668749 0.67900002 -0.091669522 1.7879736e-38 264 317
-0.065478235 0.67900002 -0.091669522 1.797229e-38 265 317
-0.064287722 0.67900002 -0.091669522 1.8248151e-38 266 317
-0.062818423 0.676 -0.091264501 1.8248151e-38 267 317
-0.061633173 0.676 -0.091264501 1.8247783e-38 268 317
-0.06044792 0.676 -0.091264501 1.8339979e-38 269 317
-0.059262663 0.676 -0.091264501 1.8156303e-38 270 317
-0.058077414 0.676 -0.091264501 1.8248499e-38 271 317
-0.056808002 0.67500001 -0.091129504 1.8340329e-38 272 317
-0.055542093 0.67400002 -0.090994492 1.8340329e-38 273 317
-0.054360349 0.67400002 -0.090994492 1.8799156e-38 274 317
-0.053020798 0.67199999 -0.090724476 1.8891352e-38 275 317
-0.051842555 0.67199999 -0.090724476 1.8616212e-38 276 317
-0.050588924 0.671 -0.090589471 1.8616212e-38 277 317
-0.049412437 0.671 -0.090589471 1.8340699e-38 278 317
-0.048235953 0.671 -0.090589471 1.8432894e-38 279 317
-0.047059465 0.671 -0.090589471 1.8525793e-38 280 317
-0.045882981 0.671 -0.090589471 1.8433598e-38 281 317
-0.044639867 0.67000002 -0.090454467 1.8800936e-38 282 317
-0.043465134 0.67000002 -0.090454467 1.8985325e-38 283 317
-0.042353518 0.671 -0.090589471 1.9076452e-38 284 317
-0.041177034 0.671 -0.090589471 1.9076452e-38 285 317
-0.040000543 0.671 -0.090589471 1.89839e-38 286 317
-0.038766202 0.67000002 -0.090454467 1.89839e-38 287 317
-0.037479252 0.66799998 -0.090184443 1.870839e-38 288 317
-0.036308024 0.66799998 -0.090184443 1.870839e-38 289 317
-0.035241999 0.67000002 -0.090454467 1.8432878e-38 290 317
-0.033965573 0.66799998 -0.090184443 1.8340682e-38 291 317
-0.032794341 0.66799998 -0.090184443 1.8065893e-38 292 317
-0.031623118 0.66799998 -0.090184443 1.7881143e-38 293 317
-0.030543067 0.67000002 -0.090454467 1.7420538e-38 294 317
-0.029280664 0.66799998 -0.090184443 1.7604929e-38 295 317
-0.028109439 0.66799998 -0.090184443 1.880025e-38 296 317
-0.027018867 0.67000002 -0.090454467 1.8154881e-38 297 317
-0.025844134 0.67000002 -0.090454467 1.6133118e-38 298 317
-0.024743039 0.67199999 -0.090724476 1.9544357e-38 299 317
0.033762183 0.66399997 -0.089644417 1.7971216e-38 349 317
0.0349264 0.66399997 -0.089644417 1.8154512e-38 350 317
0.036090612 0.66399997 -0.089644417 1.8338544e-38 351 317
0.037254825 0.66399997 -0.089644417 1.8248136e-38 352 317
0.038592618 0.667 -0.090049446 1.8248136e-38 353 317
0.039821707 0.66799998 -0.090184443 1.8706959e-38 354 317
0.040992931 0.66799998 -0.090184443 1.8706959e-38 355 317
0.042101037 0.667 -0.090049446 1.8523647e-38 356 317
0.04327051 0.667 -0.090049446 1.8523647e-38 357 317
0.044506609 0.66799998 -0.090184443 1.8707312e-38 358 317
0.045609459 0.667 -0.090049446 1.8707312e-38 359 317
0.046778932 0.667 -0.090049446 1.8522922e-38 360 317
0.047876518 0.66600001 -0.089914441 1.8707312e-38 361 317
0.04904424 0.66600001 -0.089914441 1.8798789e-38 362 317
0.050211959 0.66600001 -0.089914441 1.8798789e-38 363 317
0.051379681 0.66600001 -0.089914441 1.8706593e-38 364 317
0.052547399 0.66600001 -0.089914441 1.8706593e-38 365 317
0.053876422 0.66799998 -0.090184443 1.8522199e-38 366 317
0.05504765 0.66799998 -0.090184443 1.8614395e-38 367 317
0.056387197 0.67000002 -0.090454467 1.8431077e-38 368 317
0.057561934 0.67000002 -0.090454467 1.8338881e-38 369 317
0.058561329 0.66799998 -0.090184443 1.8245965e-38 370 317
0.05973256 0.66799998 -0.090184443 1.8061574e-38 371 317
0.060903784 0.66799998 -0.090184443 1.8060499e-38 372 317
0.062075011 0.66799998 -0.090184443 1.7876108e-38 373 317
0.063246235 0.66799998 -0.090184443 1.7414054e-38 374 317
0.064417459 0.66799998 -0.090184443 1.7414054e-38 375 317
0.065588683 0.66799998 -0.090184443 1.7138193e-38 376 317
0.066759922 0.66799998 -0.090184443 1.6953441e-38 377 317
0.067931145 0.66799998 -0.090184443 1.6769057e-38 378 317
0.068998925 0.667 -0.090049446 1.6676861e-38 379 317
0.070168398 0.667 -0.090049446 1.6034363e-38 380 317
0.071337871 0.667 -0.090049446 1.5942166e-38 381 317
0.072616048 0.66799998 -0.090184443 1.6125832e-38 382 317
0.074008204 0.67000002 -0.090454467 1.5941801e-38 383 317
0.075295143 0.671 -0.090589471 1.5849252e-38 384 317
0.076471634 0.671 -0.090589471 1.5757056e-38 385 317
0.077648118 0.671 -0.090589471 1.5664151e-38 386 317
0.078942075 0.67199999 -0.090724476 1.5571956e-38 387 317
0.080120318 0.67199999 -0.090724476 1.5295375e-38 388 317
0.08129856 0.67199999 -0.090724476 1.5203179e-38 389 317
0.082476802 0.67199999 -0.090724476 1.4835473e-38 390 317
0.083904013 0.67400002 -0.090994492 1.4743277e-38 391 317
0.085338242 0.676 -0.091264501 1.4558528e-38 392 317
0.086523488 0.676 -0.091264501 1.4466333e-38 393 317
0.087708741 0.676 -0.091264501 1.4190472e-38 394 317
0.089156993 0.67799997 -0.09153451 1.4005722e-38 395 317
0.090479009 0.67900002 -0.091669522 1.3730214e-38 396 317
0.091669522 0.67900002 -0.091669522 1.3453986e-38 397 317
0.093270317 0.68199998 -0.092074543 1.3269955e-38 398 317
0.09446609 0.68199998 -0.092074543 1.2993728e-38 399 317
0.095661856 0.68199998 -0.092074543 1.2992297e-38 400 317
0.09685763 0.68199998 -0.092074543 1.2900101e-38 401 317
0.098053411 0.68199998 -0.092074543 1.1981762e-38 402 317
0.099394716 0.68300003 -0.092209555 1.2165793e-38 403 317
-0.077090554 0.68699998 -0.093954116 1.705832e-38 256 318
-0.075886011 0.68699998 -0.093954116 1.3370496e-38 257 318
-0.074681476 0.68699998 -0.093954116 1.2722914e-38 258 318
-0.073476933 0.68699998 -0.093954116 1.4013653e-38 259 318
-0.072167195 0.68599999 -0.093817353 1.5394777e-38 260 318
-0.070550621 0.68199998 -0.093270317 1.6224538e-38 261 318
-0.069151461 0.68000001 -0.092996798 1.6775915e-38 262 318
-0.067859262 0.67900002 -0.092860043 1.6960308e-38 263 318
-0.066570558 0.67799997 -0.092723273 1.7603159e-38 264 318
-0.065381795 0.67799997 -0.092723273 1.7879386e-38 265 318
-0.064003684 0.676 -0.092449754 1.7970862e-38 266 318
-0.062818423 0.676 -0.092449754 1.7970862e-38 267 318
-0.061633173 0.676 -0.092449754 1.7971569e-38 268 318
-0.06044792 0.676 -0.092449754 1.8247795e-38 269 318
-0.059175 0.67500001 -0.092312999 1.8248149e-38 270 318
-0.057991501 0.67500001 -0.092312999 1.8340346e-38 271 318
-0.056723841 0.67400002 -0.092176244 1.8340699e-38 272 318
-0.055377278 0.67199999 -0.091902718 1.8432894e-38 273 318
-0.054199036 0.67199999 -0.091902718 1.8616207e-38 274 318
-0.053020798 0.67199999 -0.091902718 1.8708761e-38 275 318
-0.051765412 0.671 -0.091765963 1.8708758e-38 276 318
-0.050588924 0.671 -0.091765963 1.8616563e-38 277 318
-0.049412437 0.671 -0.091765963 1.852544e-38 278 318
-0.048235953 0.671 -0.091765963 1.852544e-38 279 318
-0.046989333 0.67000002 -0.0916292 1.8801304e-38 280 318
-0.0458146 0.67000002 -0.0916292 1.8801304e-38 281 318
-0.044639867 0.67000002 -0.0916292 1.8984616e-38 282 318
-0.043465134 0.67000002 -0.0916292 1.9077171e-38 283 318
-0.042290401 0.67000002 -0.0916292 1.9168294e-38 284 318
-0.041115668 0.67000002 -0.0916292 1.9168294e-38 285 318
-0.039940935 0.67000002 -0.0916292 1.9076096e-38 286 318
-0.038766202 0.67000002 -0.0916292 1.9076096e-38 287 318
-0.037479252 0.66799998 -0.091355674 1.8800938e-38 288 318
-0.036308024 0.66799998 -0.091355674 1.8800938e-38 289 318
-0.035136797 0.66799998 -0.091355674 1.8433228e-38 290 318
-0.033965573 0.66799998 -0.091355674 1.8433228e-38 291 318
-0.032745253 0.667 -0.091218919 1.8249553e-38 292 318
-0.03157578 0.667 -0.091218919 1.8249553e-38 293 318
-0.030406304 0.667 -0.091218919 1.8248837e-38 294 318
-0.029192999 0.66600001 -0.091082163 1.8064445e-38 295 318
-0.028025279 0.66600001 -0.091082163 1.7787864e-38 296 318
-0.026897885 0.667 -0.091218919 1.7787864e-38 297 318
-0.025728412 0.667 -0.091218919 1.7327253e-38 298 318
-0.024669399 0.67000002 -0.0916292 1.6681884e-38 299 318
-0.023529733 0.671 -0.091765963 1.6772284e-38 300 318
-0.021082079 0.66799998 -0.091355674 1.8062685e-38 302 318
-0.019910853 0.66799998 -0.091355674 1.8247077e-38 303 318
-0.018739626 0.66799998 -0.091355674 1.7880484e-38 304 318
-0.017620999 0.67000002 -0.0916292 1.8064876e-38 305 318
-0.016397171 0.66799998 -0.091355674 1.8157813e-38 306 318
-0.015203152 0.667 -0.091218919 1.8434399e-38 307 318
-0.014033679 0.667 -0.091218919 1.83433e-38 308 318
0.031386416 0.66299999 -0.090671875 1.8154868e-38 347 318
0.032548878 0.66299999 -0.090671875 1.8431098e-38 348 318
0.033711337 0.66299999 -0.090671875 1.8431098e-38 349 318
0.034873798 0.66299999 -0.090671875 1.8431092e-38 350 318
0.036036257 0.66299999 -0.090671875 1.8431092e-38 351 318
0.037198719 0.66299999 -0.090671875 1.8431445e-38 352 318
0.03853476 0.66600001 -0.091082163 1.8431445e-38 353 318
0.039762091 0.667 -0.091218919 1.8522922e-38 354 318
0.040931564 0.667 -0.091218919 1.8522922e-38 355 318
0.042101037 0.667 -0.091218919 1.8523641e-38 356 318
0.04327051 0.667 -0.091218919 1.8431445e-38 357 318
0.044439986 0.667 -0.091218919 1.8523641e-38 358 318
0.045609459 0.667 -0.091218919 1.8431445e-38 359 318
0.046708796 0.66600001 -0.091082163 1.8522925e-38 360 318
0.047732744 0.66399997 -0.090808637 1.8522925e-38 361 318
0.048896957 0.66399997 -0.090808637 1.8522925e-38 362 318
0.050211959 0.66600001 -0.091082163 1.8522925e-38 363 318
0.051379681 0.66600001 -0.091082163 1.8430727e-38 364 318
0.052547399 0.66600001 -0.091082163 1.8430727e-38 365 318
0.053715117 0.66600001 -0.091082163 1.8431083e-38 366 318
0.054965243 0.667 -0.091218919 1.8246333e-38 367 318
0.056134716 0.667 -0.091218919 1.806302e-38 368 318
0.057304189 0.667 -0.091218919 1.7878628e-38 369 318
0.058473662 0.667 -0.091218919 1.7877909e-38 370 318
0.059643134 0.667 -0.091218919 1.7693159e-38 371 318
0.060812607 0.667 -0.091218919 1.7507694e-38 372 318
0.06198208 0.667 -0.091218919 1.7323303e-38 373 318
0.063151561 0.667 -0.091218919 1.6953444e-38 374 318
0.064321034 0.667 -0.091218919 1.6769413e-38 375 318
0.065392323 0.66600001 -0.091082163 1.6402075e-38 376 318
0.066560037 0.66600001 -0.091082163 1.6309521e-38 377 318
0.067727759 0.66600001 -0.091082163 1.6216972e-38 378 318
0.068895474 0.66600001 -0.091082163 1.5940744e-38 379 318
0.070063196 0.66600001 -0.091082163 1.5388994e-38 380 318
0.071337871 0.667 -0.091218919 1.5388994e-38 381 318
0.072507344 0.667 -0.091218919 1.5390049e-38 382 318
0.073787279 0.66799998 -0.091355674 1.5297853e-38 383 318
0.074958503 0.66799998 -0.091355674 1.5204954e-38 384 318
0.076357663 0.67000002 -0.0916292 1.529715e-38 385 318
0.077532403 0.67000002 -0.0916292 1.5203176e-38 386 318
0.078824602 0.671 -0.091765963 1.5203176e-38 387 318
0.080001086 0.671 -0.091765963 1.4560328e-38 388 318
0.081177577 0.671 -0.091765963 1.4375936e-38 389 318
0.082476802 0.67199999 -0.091902718 1.446706e-38 390 318
0.083904013 0.67400002 -0.092176244 1.4374863e-38 391 318
0.085212 0.67500001 -0.092312999 1.4190116e-38 392 318
0.086523488 0.676 -0.092449754 1.4005725e-38 393 318
0.087708741 0.676 -0.092449754 1.3637666e-38 394 318
0.089156993 0.67799997 -0.092723273 1.3361081e-38 395 318
0.090479009 0.67900002 -0.092860043 1.3269589e-38 396 318
0.091669522 0.67900002 -0.092860043 1.2993001e-38 397 318
0.092996798 0.68000001 -0.092996798 1.2533824e-38 398 318
0.09446609 0.68199998 -0.093270317 1.2441629e-38 399 318
0.095661856 0.68199998 -0.093270317 1.2348021e-38 400 318
0.09699966 0.68300003 -0.09340708 1.2255825e-38 401 318
0.098197185 0.68300003 -0.09340708 1.1796667e-38 402 318
-0.076978341 0.68599999 -0.095020145 1.7334911e-38 256 319
-0.075775556 0.68599999 -0.095020145 1.3370499e-38 257 319
-0.074572764 0.68599999 -0.095020145 1.2354492e-38 258 319
-0.073369987 0.68599999 -0.095020145 1.2999861e-38 259 319
-0.071956798 0.68400002 -0.094743125 1.4475337e-38 260 319
-0.070550621 0.68199998 -0.09446609 1.5489489e-38 261 319
-0.069049768 0.67900002 -0.094050556 1.6590802e-38 262 319
-0.06775932 0.67799997 -0.093912028 1.6959224e-38 263 319
-0.066374183 0.676 -0.093635008 1.7601707e-38 264 319
-0.065188929 0.676 -0.093635008 1.7786459e-38 265 319
-0.064003684 0.676 -0.093635008 1.7786459e-38 266 319
-0.062818423 0.676 -0.093635008 1.797049e-38 267 319
-0.061633173 0.676 -0.093635008 1.806232e-38 268 319
-0.060358498 0.67500001 -0.093496501 1.8154515e-38 269 319
-0.059175 0.67500001 -0.093496501 1.8338544e-38 270 319
-0.057905588 0.67400002 -0.093357988 1.8523294e-38 271 319
-0.056723841 0.67400002 -0.093357988 1.8616209e-38 272 319
-0.055377278 0.67199999 -0.093080953 1.8432178e-38 273 319
-0.054118387 0.671 -0.092942439 1.8615488e-38 274 319
-0.052941896 0.671 -0.092942439 1.8615488e-38 275 319
-0.051765412 0.671 -0.092942439 1.8616207e-38 276 319
-0.050513536 0.67000002 -0.092803933 1.8708761e-38 277 319
-0.049338799 0.67000002 -0.092803933 1.8800235e-38 278 319
-0.048164066 0.67000002 -0.092803933 1.8800235e-38 279 319
-0.046989333 0.67000002 -0.092803933 1.8983903e-38 280 319
-0.045677837 0.66799998 -0.092526905 1.9076099e-38 281 319
-0.044506609 0.66799998 -0.092526905 1.9168297e-38 282 319
-0.04327051 0.667 -0.092388391 1.9260493e-38 283 319
-0.042101037 0.667 -0.092388391 1.916866e-38 284 319
-0.040931564 0.667 -0.092388391 1.916866e-38 285 319
-0.039762091 0.667 -0.092388391 1.9169016e-38 286 319
-0.038592618 0.667 -0.092388391 1.9076462e-38 287 319
-0.037423145 0.667 -0.092388391 1.8801307e-38 288 319
-0.03619932 0.66600001 -0.092249878 1.8801307e-38 289 319
-0.035031598 0.66600001 -0.092249878 1.8525796e-38 290 319
-0.033914726 0.667 -0.092388391 1.8433601e-38 291 319
-0.032745253 0.667 -0.092388391 1.8250283e-38 292 319
-0.03157578 0.667 -0.092388391 1.8158086e-38 293 319
-0.030406304 0.667 -0.092388391 1.8158086e-38 294 319
-0.029192999 0.66600001 -0.092249878 1.806589e-38 295 319
-0.028025279 0.66600001 -0.092249878 1.8157007e-38 296 319
-0.026857559 0.66600001 -0.092249878 1.7972976e-38 297 319
-0.02568984 0.66600001 -0.092249878 1.8156288e-38 298 319
-0.024558939 0.667 -0.092388391 1.7971897e-38 299 319
-0.023354398 0.66600001 -0.092249878 1.8155572e-38 300 319
-0.02218668 0.66600001 -0.092249878 1.8523994e-38 301 319
-0.02101896 0.66600001 -0.092249878 1.8523647e-38 302 319
-0.019881045 0.667 -0.092388391 1.8615844e-38 303 319
-0.018711573 0.667 -0.092388391 1.8431472e-38 304 319
-0.0175421 0.667 -0.092388391 1.8431472e-38 305 319
-0.016372627 0.667 -0.092388391 1.8339295e-38 306 319
-0.01518036 0.66600001 -0.092249878 1.8154543e-38 307 319
-0.014012639 0.66600001 -0.092249878 1.7787212e-38 308 319
-0.012806346 0.66399997 -0.091972843 1.7787212e-38 309 319
-0.011642133 0.66399997 -0.091972843 1.7511717e-38 310 319
-0.010477919 0.66399997 -0.091972843 1.78805e-38 311 319
0.018571306 0.662 -0.091695823 1.8247445e-38 336 319
0.019732011 0.662 -0.091695823 1.815525e-38 337 319
0.020892721 0.662 -0.091695823 1.8247079e-38 338 319
0.022053426 0.662 -0.091695823 1.8339275e-38 339 319
0.023214132 0.662 -0.091695823 1.8247433e-38 340 319
0.024374841 0.662 -0.091695823 1.8247433e-38 341 319
0.025535546 0.662 -0.091695823 1.8431092e-38 342 319
0.026696252 0.662 -0.091695823 1.8338897e-38 343 319
0.02781488 0.66100001 -0.091557316 1.8155935e-38 344 319
0.029017664 0.662 -0.091695823 1.8155935e-38 345 319
0.030178372 0.662 -0.091695823 1.8431801e-38 346 319
0.031339079 0.662 -0.091695823 1.8431801e-38 347 319
0.032499783 0.662 -0.091695823 1.8339247e-38 348 319
0.033660494 0.662 -0.091695823 1.8431801e-38 349 319
0.034821201 0.662 -0.091695823 1.8431799e-38 350 319
0.035981905 0.662 -0.091695823 1.8339603e-38 351 319
0.037142612 0.662 -0.091695823 1.8523631e-38 352 319
0.038361177 0.66299999 -0.091834337 1.8523631e-38 353 319
0.039583251 0.66399997 -0.091972843 1.8523994e-38 354 319
0.040747464 0.66399997 -0.091972843 1.8431799e-38 355 319
0.041911677 0.66399997 -0.091972843 1.8707309e-38 356 319
0.043205637 0.66600001 -0.092249878 1.8523278e-38 357 319
0.04437336 0.66600001 -0.092249878 1.8523278e-38 358 319
0.045404319 0.66399997 -0.091972843 1.8523278e-38 359 319
0.046568532 0.66399997 -0.091972843 1.8523278e-38 360 319
0.047660857 0.66299999 -0.091834337 1.8523278e-38 361 319
0.048823316 0.66299999 -0.091834337 1.870659e-38 362 319
0.049985778 0.66299999 -0.091834337 1.8614395e-38 363 319
0.051148236 0.66299999 -0.091834337 1.861332e-38 364 319
0.052310698 0.66299999 -0.091834337 1.861332e-38 365 319
0.053473156 0.66299999 -0.091834337 1.8245612e-38 366 319
0.054718021 0.66399997 -0.091972843 1.8245612e-38 367 319
0.055882234 0.66399997 -0.091972843 1.8061218e-38 368 319
0.057218276 0.66600001 -0.092249878 1.7969023e-38 369 319
0.05821066 0.66399997 -0.091972843 1.7691715e-38 370 319
0.059374876 0.66399997 -0.091972843 1.741513e-38 371 319
0.060539093 0.66399997 -0.091972843 1.6863753e-38 372 319
0.061889157 0.66600001 -0.092249878 1.6771198e-38 373 319
0.063056879 0.66600001 -0.092249878 1.6310224e-38 374 319
0.064031735 0.66399997 -0.091972843 1.6218029e-38 375 319
0.06519594 0.66399997 -0.091972843 1.64921e-38 376 319
0.066360161 0.66399997 -0.091972843 1.6399905e-38 377 319
0.067727759 0.66600001 -0.092249878 1.6031848e-38 378 319
0.068895474 0.66600001 -0.092249878 1.5847098e-38 379 319
0.070063196 0.66600001 -0.092249878 1.5110238e-38 380 319
0.071230918 0.66600001 -0.092249878 1.4557065e-38 381 319
0.072507344 0.667 -0.092388391 1.4284071e-38 382 319
0.073676817 0.667 -0.092388391 1.474505e-38 383 319
0.074958503 0.66799998 -0.092526905 1.5202803e-38 384 319
0.076129727 0.66799998 -0.092526905 1.5202803e-38 385 319
0.077532403 0.67000002 -0.092803933 1.4375569e-38 386 319
0.078707129 0.67000002 -0.092803933 1.4467765e-38 387 319
0.079881869 0.67000002 -0.092803933 1.4375213e-38 388 319
0.081177577 0.671 -0.092942439 1.4190822e-38 389 319
0.082354069 0.671 -0.092942439 1.4190822e-38 390 319
0.083655037 0.67199999 -0.093080953 1.4006431e-38 391 319
0.085085757 0.67400002 -0.093357988 1.3730567e-38 392 319
0.086395502 0.67500001 -0.093496501 1.345398e-38 393 319
0.087708741 0.676 -0.093635008 1.262602e-38 394 319
0.089156993 0.67799997 -0.093912028 1.2441629e-38 395 319
0.090345755 0.67799997 -0.093912028 1.2439108e-38 396 319
0.091669522 0.67900002 -0.094050556 1.2346912e-38 397 319
0.092996798 0.68000001 -0.094189063 1.2346922e-38 398 319
0.09446609 0.68199998 -0.09446609 1.2346922e-38 399 319
0.095661856 0.68199998 -0.09446609 1.2346226e-38 400 319
0.09699966 0.68300003 -0.094604604 1.2346226e-38 401 319
-0.076978341 0.68599999 -0.096222922 1.8346188e-38 256 320
-0.075775556 0.68599999 -0.096222922 1.4381776e-38 257 320
-0.074572764 0.68599999 -0.096222922 1.2445255e-38 258 320
-0.073369987 0.68599999 -0.096222922 1.2998428e-38 259 320
-0.071851604 0.68300003 -0.095802136 1.3829612e-38 260 320
-0.070343733 0.68000001 -0.095381334 1.4659732e-38 261 320
-0.068948075 0.67799997 -0.09510079 1.5855403e-38 262 320
-0.067559443 0.676 -0.094820268 1.6224187e-38 263 320
-0.066374183 0.676 -0.094820268 1.6683366e-38 264 320
-0.065188929 0.676 -0.094820268 1.6867758e-38 265 320
-0.063909002 0.67500001 -0.094679996 1.7326935e-38 266 320
-0.062725499 0.67500001 -0.094679996 1.7326935e-38 267 320
-0.061542001 0.67500001 -0.094679996 1.7418763e-38 268 320
-0.060358498 0.67500001 -0.094679996 1.7510961e-38 269 320
-0.059087332 0.67400002 -0.094539732 1.7787543e-38 270 320
-0.057905588 0.67400002 -0.094539732 1.7971934e-38 271 320
-0.056555521 0.67199999 -0.094259195 1.7788975e-38 272 320
-0.055294871 0.671 -0.09411893 1.7973006e-38 273 320
-0.054118387 0.671 -0.09411893 1.8339993e-38 274 320
-0.052941896 0.671 -0.09411893 1.8247795e-38 275 320
-0.051688269 0.67000002 -0.093978666 1.8339993e-38 276 320
-0.050513536 0.67000002 -0.093978666 1.8339993e-38 277 320
-0.04919152 0.66799998 -0.093698129 1.8249229e-38 278 320
-0.048020288 0.66799998 -0.093698129 1.8249229e-38 279 320
-0.046849065 0.66799998 -0.093698129 1.8616209e-38 280 320
-0.045609459 0.667 -0.093557864 1.8616209e-38 281 320
-0.044439986 0.667 -0.093557864 1.852474e-38 282 320
-0.043205637 0.66600001 -0.093417592 1.8800966e-38 283 320
-0.042037919 0.66600001 -0.093417592 1.8800969e-38 284 320
-0.040870197 0.66600001 -0.093417592 1.8893165e-38 285 320
-0.039702479 0.66600001 -0.093417592 1.9076465e-38 286 320
-0.03853476 0.66600001 -0.093417592 1.9076465e-38 287 320
-0.037367038 0.66600001 -0.093417592 1.8984616e-38 288 320
-0.036090612 0.66399997 -0.093137063 1.8984616e-38 289 320
-0.0349264 0.66399997 -0.093137063 1.8800941e-38 290 320
-0.033762183 0.66399997 -0.093137063 1.8800941e-38 291 320
-0.032696161 0.66600001 -0.093417592 1.8526147e-38 292 320
-0.031433757 0.66399997 -0.093137063 1.8433951e-38 293 320
-0.030269546 0.66399997 -0.093137063 1.861726e-38 294 320
-0.02910533 0.66399997 -0.093137063 1.8433228e-38 295 320
-0.027941117 0.66399997 -0.093137063 1.870766e-38 296 320
-0.026776904 0.66399997 -0.093137063 1.870766e-38 297 320
-0.025612691 0.66399997 -0.093137063 1.8523994e-38 298 320
-0.024448479 0.66399997 -0.093137063 1.8523994e-38 299 320
-0.023284266 0.66399997 -0.093137063 1.8523997e-38 300 320
-0.022120051 0.66399997 -0.093137063 1.8616193e-38 301 320
-0.020955838 0.66399997 -0.093137063 1.8615844e-38 302 320
-0.019851239 0.66600001 -0.093417592 1.8615844e-38 303 320
-0.018683519 0.66600001 -0.093417592 1.8339628e-38 304 320
-0.017515799 0.66600001 -0.093417592 1.8431825e-38 305 320
-0.016348081 0.66600001 -0.093417592 1.8248151e-38 306 320
-0.015134773 0.66399997 -0.093137063 1.787937e-38 307 320
-0.013970559 0.66399997 -0.093137063 1.8063392e-38 308 320
-0.012787059 0.66299999 -0.092996798 1.7970837e-38 309 320
-0.0116246 0.66299999 -0.092996798 1.7695332e-38 310 320
-0.01046214 0.66299999 -0.092996798 1.7787528e-38 311 320
-0.0092996797 0.66299999 -0.092996798 1.7786806e-38 312 320
-0.0081372196 0.66299999 -0.092996798 1.7970837e-38 313 320
-0.0069852793 0.66399997 -0.093137063 1.7787155e-38 314 320
-0.0058210664 0.66399997 -0.093137063 1.7971546e-38 315 320
-0.0046568532 0.66399997 -0.093137063 1.7880077e-38 316 320
0.0057772328 0.65899998 -0.092435725 1.8337828e-38 325 320
0.0069326796 0.65899998 -0.092435725 1.8245985e-38 326 320
0.0080881258 0.65899998 -0.092435725 1.8245985e-38 327 320
0.0092295464 0.65799999 -0.09229546 1.8246335e-38 328 320
0.01036746 0.65700001 -0.092155196 1.8154138e-38 329 320
0.016225345 0.66100001 -0.092716269 1.8245963e-38 334 320
0.0173843 0.66100001 -0.092716269 1.8338518e-38 335 320
0.018543253 0.66100001 -0.092716269 1.8246683e-38 336 320
0.019702207 0.66100001 -0.092716269 1.8246683e-38 337 320
0.02086116 0.66100001 -0.092716269 1.8431801e-38 338 320
0.022053426 0.662 -0.092856526 1.8523997e-38 339 320
0.023214132 0.662 -0.092856526 1.8340332e-38 340 320
0.024374841 0.662 -0.092856526 1.8248136e-38 341 320
0.025535546 0.662 -0.092856526 1.8523994e-38 342 320
0.026696252 0.662 -0.092856526 1.8431799e-38 343 320
0.02781488 0.66100001 -0.092716269 1.8523628e-38 344 320
0.028973831 0.66100001 -0.092716269 1.8523628e-38 345 320
0.030132787 0.66100001 -0.092716269 1.8523631e-38 346 320
0.031291738 0.66100001 -0.092716269 1.8523631e-38 347 320
0.032450691 0.66100001 -0.092716269 1.8523628e-38 348 320
0.033609647 0.66100001 -0.092716269 1.8523628e-38 349 320
0.034821201 0.662 -0.092856526 1.8523628e-38 350 320
0.035981905 0.662 -0.092856526 1.8523628e-38 351 320
0.037142612 0.662 -0.092856526 1.8523994e-38 352 320
0.038361177 0.66299999 -0.092996798 1.8431799e-38 353 320
0.039523639 0.66299999 -0.092996798 1.8523278e-38 354 320
0.040686097 0.66299999 -0.092996798 1.8523278e-38 355 320
0.041848559 0.66299999 -0.092996798 1.8431445e-38 356 320
0.043011017 0.66299999 -0.092996798 1.8431445e-38 357 320
0.044173479 0.66299999 -0.092996798 1.8338897e-38 358 320
0.045335937 0.66299999 -0.092996798 1.8338897e-38 359 320
0.046498399 0.66299999 -0.092996798 1.8154866e-38 360 320
0.047588971 0.662 -0.092856526 1.8338897e-38 361 320
0.048749682 0.662 -0.092856526 1.8154866e-38 362 320
0.049910385 0.662 -0.092856526 1.8154866e-38 363 320
0.051071092 0.662 -0.092856526 1.8062673e-38 364 320
0.0522318 0.662 -0.092856526 1.7970118e-38 365 320
0.053392503 0.662 -0.092856526 1.7969023e-38 366 320
0.054553211 0.662 -0.092856526 1.7692796e-38 367 320
0.055798076 0.66299999 -0.092996798 1.7601319e-38 368 320
0.056960538 0.66299999 -0.092996798 1.7416568e-38 369 320
0.058122993 0.66299999 -0.092996798 1.73233e-38 370 320
0.059285458 0.66299999 -0.092996798 1.6862681e-38 371 320
0.060447913 0.66299999 -0.092996798 1.6495337e-38 372 320
0.061610378 0.66299999 -0.092996798 1.6403142e-38 373 320
0.062772833 0.66299999 -0.092996798 1.603401e-38 374 320
0.063935295 0.66299999 -0.092996798 1.5849617e-38 375 320
0.065097757 0.66299999 -0.092996798 1.5573388e-38 376 320
0.066360161 0.66399997 -0.093137063 1.5388997e-38 377 320
0.067524366 0.66399997 -0.093137063 1.5571591e-38 378 320
0.068895474 0.66600001 -0.093417592 1.5294646e-38 379 320
0.070063196 0.66600001 -0.093417592 1.5202097e-38 380 320
0.071230918 0.66600001 -0.093417592 1.4833673e-38 381 320
0.07239864 0.66600001 -0.093417592 1.437558e-38 382 320
0.073676817 0.667 -0.093557864 1.437558e-38 383 320
0.07484629 0.667 -0.093557864 1.4283383e-38 384 320
0.076129727 0.66799998 -0.093698129 1.4283383e-38 385 320
0.077300951 0.66799998 -0.093698129 1.4007522e-38 386 320
0.078707129 0.67000002 -0.093978666 1.3915327e-38 387 320
0.079881869 0.67000002 -0.093978666 1.3639463e-38 388 320
0.081056595 0.67000002 -0.093978666 1.3547267e-38 389 320
0.082354069 0.671 -0.09411893 1.3454349e-38 390 320
0.083655037 0.67199999 -0.094259195 1.3362153e-38 391 320
0.085085757 0.67400002 -0.094539732 1.3270308e-38 392 320
0.086395502 0.67500001 -0.094679996 1.2624938e-38 393 320
0.087708741 0.676 -0.094820268 1.2348724e-38 394 320
0.089156993 0.67799997 -0.09510079 1.2164333e-38 395 320
0.090345755 0.67799997 -0.09510079 1.1887401e-38 396 320
0.091669522 0.67900002 -0.095241062 1.1794847e-38 397 320
0.092860043 0.67900002 -0.095241062 1.1520061e-38 398 320
0.094189063 0.68000001 -0.095381334 1.1520061e-38 399 320
0.095661856 0.68199998 -0.095661856 1.1611553e-38 400 320
-0.075775556 0.68599999 -0.097425714 1.5211185e-38 257 321
-0.074572764 0.68599999 -0.097425714 1.3180302e-38 258 321
-0.073369987 0.68599999 -0.097425714 1.2995911e-38 259 321
-0.071746394 0.68199998 -0.09685763 1.3183874e-38 260 321
-0.070343733 0.68000001 -0.096573599 1.3921798e-38 261 321
-0.068948075 0.67799997 -0.096289553 1.4841969e-38 262 321
-0.067559443 0.676 -0.096005514 1.5579893e-38 263 321
-0.066374183 0.676 -0.096005514 1.6773395e-38 264 321
-0.065092497 0.67500001 -0.095863499 1.6865591e-38 265 321
-0.063909002 0.67500001 -0.095863499 1.7417316e-38 266 321
-0.062725499 0.67500001 -0.095863499 1.7509512e-38 267 321
-0.061450824 0.67400002 -0.095721483 1.7509868e-38 268 321
-0.06026908 0.67400002 -0.095721483 1.7509868e-38 269 321
-0.058911994 0.67199999 -0.095437437 1.7694259e-38 270 321
-0.057733759 0.67199999 -0.095437437 1.7786456e-38 271 321
-0.056471359 0.671 -0.095295422 1.7787175e-38 272 321
-0.055294871 0.671 -0.095295422 1.787937e-38 273 321
-0.054037735 0.67000002 -0.095153399 1.8063038e-38 274 321
-0.052863002 0.67000002 -0.095153399 1.8155234e-38 275 321
-0.051533967 0.66799998 -0.094869353 1.8155231e-38 276 321
-0.050362743 0.66799998 -0.094869353 1.8247427e-38 277 321
-0.049117878 0.667 -0.094727337 1.8523291e-38 278 321
-0.047948405 0.667 -0.094727337 1.8523291e-38 279 321
-0.046778932 0.667 -0.094727337 1.8522938e-38 280 321
-0.045609459 0.667 -0.094727337 1.8522938e-38 281 321
-0.04437336 0.66600001 -0.094585314 1.8339628e-38 282 321
-0.043075889 0.66399997 -0.094301268 1.8615856e-38 283 321
-0.041911677 0.66399997 -0.094301268 1.8708405e-38 284 321
-0.040747464 0.66399997 -0.094301268 1.8800601e-38 285 321
-0.039583251 0.66399997 -0.094301268 1.8893152e-38 286 321
-0.038419038 0.66399997 -0.094301268 1.8893152e-38 287 321
-0.037254825 0.66399997 -0.094301268 1.9076465e-38 288 321
-0.036090612 0.66399997 -0.094301268 1.9076465e-38 289 321
-0.0349264 0.66399997 -0.094301268 1.8800954e-38 290 321
-0.033762183 0.66399997 -0.094301268 1.8800954e-38 291 321
-0.03259797 0.66399997 -0.094301268 1.8801307e-38 292 321
-0.031433757 0.66399997 -0.094301268 1.8801307e-38 293 321
-0.030269546 0.66399997 -0.094301268 1.8709111e-38 294 321
-0.02910533 0.66399997 -0.094301268 1.8616916e-38 295 321
-0.027899038 0.66299999 -0.094159253 1.8616916e-38 296 321
-0.026736578 0.66299999 -0.094159253 1.8432524e-38 297 321
-0.025574118 0.66299999 -0.094159253 1.843288e-38 298 321
-0.024374841 0.662 -0.094017237 1.843288e-38 299 321
-0.023214132 0.662 -0.094017237 1.8523997e-38 300 321
-0.022053426 0.662 -0.094017237 1.8523997e-38 301 321
-0.020924279 0.66299999 -0.094159253 1.8523997e-38 302 321
-0.019761819 0.66299999 -0.094159253 1.8616193e-38 303 321
-0.018599359 0.66299999 -0.094159253 1.8432878e-38 304 321
-0.017436899 0.66299999 -0.094159253 1.8340682e-38 305 321
-0.016274439 0.66299999 -0.094159253 1.8341401e-38 306 321
-0.015134773 0.66399997 -0.094301268 1.8249205e-38 307 321
-0.013970559 0.66399997 -0.094301268 1.8340682e-38 308 321
-0.012787059 0.66299999 -0.094159253 1.8248486e-38 309 321
-0.011607066 0.662 -0.094017237 1.8340682e-38 310 321
-0.01044636 0.662 -0.094017237 1.8340682e-38 311 321
-0.009285653 0.662 -0.094017237 1.8340685e-38 312 321
-0.0081372196 0.66299999 -0.094159253 1.8340685e-38 313 321
-0.0069852793 0.66399997 -0.094301268 1.8340332e-38 314 321
-0.0058210664 0.66399997 -0.094301268 1.8340332e-38 315 321
-0.0046568532 0.66399997 -0.094301268 1.8339979e-38 316 321
-0.0034821199 0.662 -0.094017237 1.8339979e-38 317 321
-0.0023284266 0.66399997 -0.094301268 1.8523294e-38 318 321
-0.0011642133 0.66399997 -0.094301268 1.8615491e-38 319 321
0 0.66299999 -0.094159253 1.8615491e-38 320 321
0.00116246 0.66299999 -0.094159253 1.8615491e-38 321 321
0.0023249199 0.66299999 -0.094159253 1.8615488e-38 322 321
0.00347686 0.66100001 -0.093875214 1.8523291e-38 323 321
0.0046358132 0.66100001 -0.093875214 1.8522928e-38 324 321
0.0057772328 0.65899998 -0.093591176 1.8706959e-38 325 321
0.0069326796 0.65899998 -0.093591176 1.8430373e-38 326 321
0.0080881258 0.65899998 -0.093591176 1.8522928e-38 327 321
0.0092295464 0.65799999 -0.09344916 1.8430727e-38 328 321
0.01036746 0.65700001 -0.093307137 1.8430727e-38 329 321
0.011519399 0.65700001 -0.093307137 1.8431077e-38 330 321
0.01267134 0.65700001 -0.093307137 1.8338881e-38 331 321
0.013823279 0.65700001 -0.093307137 1.8339237e-38 332 321
0.015066394 0.66100001 -0.093875214 1.8339237e-38 333 321
0.016225345 0.66100001 -0.093875214 1.8522547e-38 334 321
0.0173843 0.66100001 -0.093875214 1.8614742e-38 335 321
0.018543253 0.66100001 -0.093875214 1.8339232e-38 336 321
0.019702207 0.66100001 -0.093875214 1.8339232e-38 337 321
0.02086116 0.66100001 -0.093875214 1.843143e-38 338 321
0.022020113 0.66100001 -0.093875214 1.8523626e-38 339 321
0.023179067 0.66100001 -0.093875214 1.8523994e-38 340 321
0.02433802 0.66100001 -0.093875214 1.8523994e-38 341 321
0.025496973 0.66100001 -0.093875214 1.8707309e-38 342 321
0.026655925 0.66100001 -0.093875214 1.8707309e-38 343 321
0.027730718 0.65899998 -0.093591176 1.8523997e-38 344 321
0.028886165 0.65899998 -0.093591176 1.8523997e-38 345 321
0.030132787 0.66100001 -0.093875214 1.8340685e-38 346 321
0.031291738 0.66100001 -0.093875214 1.8340685e-38 347 321
0.032450691 0.66100001 -0.093875214 1.8523994e-38 348 321
0.033609647 0.66100001 -0.093875214 1.8431799e-38 349 321
0.0347686 0.66100001 -0.093875214 1.8523275e-38 350 321
0.035927553 0.66100001 -0.093875214 1.8523275e-38 351 321
0.037086505 0.66100001 -0.093875214 1.8431083e-38 352 321
0.038303319 0.662 -0.094017237 1.8523278e-38 353 321
0.039464023 0.662 -0.094017237 1.8706593e-38 354 321
0.04062473 0.662 -0.094017237 1.8706593e-38 355 321
0.041785441 0.662 -0.094017237 1.8522925e-38 356 321
0.043011017 0.66299999 -0.094159253 1.8338534e-38 357 321
0.044106852 0.662 -0.094017237 1.852149e-38 358 321
0.04526756 0.662 -0.094017237 1.8337459e-38 359 321
0.046428263 0.662 -0.094017237 1.8153784e-38 360 321
0.047588971 0.662 -0.094017237 1.8061587e-38 361 321
0.048749682 0.662 -0.094017237 1.8337085e-38 362 321
0.049910385 0.662 -0.094017237 1.8244889e-38 363 321
0.051071092 0.662 -0.094017237 1.7968304e-38 364 321
0.0522318 0.662 -0.094017237 1.7876108e-38 365 321
0.053392503 0.662 -0.094017237 1.7692069e-38 366 321
0.054553211 0.662 -0.094017237 1.7323287e-38 367 321
0.055798076 0.66299999 -0.094159253 1.7231445e-38 368 321
0.056960538 0.66299999 -0.094159253 1.7138889e-38 369 321
0.058122993 0.66299999 -0.094159253 1.6954148e-38 370 321
0.059285458 0.66299999 -0.094159253 1.6677921e-38 371 321
0.060447913 0.66299999 -0.094159253 1.6493174e-38 372 321
0.061610378 0.66299999 -0.094159253 1.6308781e-38 373 321
0.062772833 0.66299999 -0.094159253 1.5940368e-38 374 321
0.063935295 0.66299999 -0.094159253 1.5848173e-38 375 321
0.065097757 0.66299999 -0.094159253 1.5664142e-38 376 321
0.066260219 0.66299999 -0.094159253 1.547939e-38 377 321
0.067524366 0.66399997 -0.094301268 1.5111331e-38 378 321
0.068688579 0.66399997 -0.094301268 1.492694e-38 379 321
0.069852799 0.66399997 -0.094301268 1.4834024e-38 380 321
0.071230918 0.66600001 -0.094585314 1.4834024e-38 381 321
0.07239864 0.66600001 -0.094585314 1.4283371e-38 382 321
0.073566355 0.66600001 -0.094585314 1.4283371e-38 383 321
0.07484629 0.667 -0.094727337 1.41901e-38 384 321
0.076129727 0.66799998 -0.094869353 1.41901e-38 385 321
0.077300951 0.66799998 -0.094869353 1.4005708e-38 386 321
0.078472182 0.66799998 -0.094869353 1.3913512e-38 387 321
0.079881869 0.67000002 -0.095153399 1.3545097e-38 388 321
0.081056595 0.67000002 -0.095153399 1.3452901e-38 389 321
0.082354069 0.671 -0.095295422 1.3360705e-38 390 321
0.083655037 0.67199999 -0.095437437 1.3176674e-38 391 321
0.085085757 0.67400002 -0.095721483 1.2624219e-38 392 321
0.086395502 0.67500001 -0.095863499 1.197885e-38 393 321
0.087708741 0.676 -0.096005514 1.1978502e-38 394 321
0.089156993 0.67799997 -0.096289553 1.1885948e-38 395 321
0.090345755 0.67799997 -0.096289553 1.1702288e-38 396 321
0.091669522 0.67900002 -0.096431576 1.1702288e-38 397 321
0.092860043 0.67900002 -0.096431576 1.1610458e-38 398 321
0.094189063 0.68000001 -0.096573599 1.1702654e-38 399 321
0.095381334 0.68000001 -0.096573599 1.1702314e-38 400 321
-0.075775556 0.68599999 -0.098628499 1.5857276e-38 257 322
-0.074355356 0.68400002 -0.098340958 1.364128e-38 258 322
-0.073156074 0.68400002 -0.098340958 1.2811518e-38 259 322
-0.0713256 0.67799997 -0.097478308 1.3272829e-38 260 322
-0.070136838 0.67799997 -0.097478308 1.4010394e-38 261 322
-0.068948075 0.67799997 -0.097478308 1.4195881e-38 262 322
-0.067559443 0.676 -0.097190768 1.5117836e-38 263 322
-0.066275999 0.67500001 -0.097047001 1.58536e-38 264 322
-0.065092497 0.67500001 -0.097047001 1.6037991e-38 265 322
-0.063909002 0.67500001 -0.097047001 1.6498602e-38 266 322
-0.062725499 0.67500001 -0.097047001 1.6590799e-38 267 322
-0.061450824 0.67400002 -0.096903227 1.7049259e-38 268 322
-0.06026908 0.67400002 -0.096903227 1.7141455e-38 269 322
-0.058911994 0.67199999 -0.09661568 1.7234367e-38 270 322
-0.057647847 0.671 -0.096471906 1.7326921e-38 271 322
-0.056471359 0.671 -0.096471906 1.7326921e-38 272 322
-0.055212468 0.67000002 -0.096328132 1.7419117e-38 273 322
-0.054037735 0.67000002 -0.096328132 1.7694623e-38 274 322
-0.052863002 0.67000002 -0.096328132 1.7694623e-38 275 322
-0.051456824 0.667 -0.09589681 1.7787177e-38 276 322
-0.050287351 0.667 -0.09589681 1.7879373e-38 277 322
-0.04904424 0.66600001 -0.095753036 1.8063038e-38 278 322
-0.047876518 0.66600001 -0.095753036 1.8063038e-38 279 322
-0.046708796 0.66600001 -0.095753036 1.8062683e-38 280 322
-0.045541082 0.66600001 -0.095753036 1.8155237e-38 281 322
-0.044240102 0.66399997 -0.095465489 1.8154881e-38 282 322
-0.043075889 0.66399997 -0.095465489 1.8339272e-38 283 322
-0.041848559 0.66299999 -0.095321715 1.8340702e-38 284 322
-0.040686097 0.66299999 -0.095321715 1.8432897e-38 285 322
-0.039523639 0.66299999 -0.095321715 1.852509e-38 286 322
-0.038419038 0.66399997 -0.095465489 1.852509e-38 287 322
-0.037254825 0.66399997 -0.095465489 1.8800957e-38 288 322
-0.036036257 0.66299999 -0.095321715 1.8800957e-38 289 322
-0.034873798 0.66299999 -0.095321715 1.8984622e-38 290 322
-0.033711337 0.66299999 -0.095321715 1.8984622e-38 291 322
