# .PCD v.7 - Point Cloud Data file format
FIELDS x y z rgb imX imY
SIZE 4 4 4 4 4 4
TYPE F F F F F F
COUNT 1 1 1 1 1 1
WIDTH 849
HEIGHT 1
VIEWPOINT 0 0 0 1 0 0 0
POINTS 849
DATA ascii
0.018150507 0.64700001 -0.10663422 1.6403534e-38 336 334
0.019314719 0.648 -0.10679904 1.6403534e-38 337 334
0.02041932 0.64700001 -0.10663422 1.6220925e-38 338 334
0.021553727 0.64700001 -0.10663422 1.6036532e-38 339 334
0.022688134 0.64700001 -0.10663422 1.6494969e-38 340 334
0.023822539 0.64700001 -0.10663422 1.6402773e-38 341 334
0.024956945 0.64700001 -0.10663422 1.5943591e-38 342 334
0.026091354 0.64700001 -0.10663422 1.5759202e-38 343 334
0.027225759 0.64700001 -0.10663422 1.5758148e-38 344 334
0.028360168 0.64700001 -0.10663422 1.5758148e-38 345 334
0.029494572 0.64700001 -0.10663422 1.5390104e-38 346 334
0.03067632 0.648 -0.10679904 1.5390104e-38 347 334
0.031812482 0.648 -0.10679904 1.50224e-38 348 334
0.032948639 0.648 -0.10679904 1.4930205e-38 349 334
0.034084801 0.648 -0.10679904 1.511387e-38 350 334
0.035220958 0.648 -0.10679904 1.4837284e-38 351 334
0.03635712 0.648 -0.10679904 1.4746497e-38 352 334
0.037551139 0.64899999 -0.10696385 1.428552e-38 353 334
0.038689051 0.64899999 -0.10696385 1.4468112e-38 354 334
0.039826967 0.64899999 -0.10696385 1.4652145e-38 355 334
0.040964879 0.64899999 -0.10696385 1.437558e-38 356 334
0.042167664 0.64999998 -0.10712866 1.437558e-38 357 334
0.04330733 0.64999998 -0.10712866 1.4283737e-38 358 334
0.044446997 0.64999998 -0.10712866 1.4099705e-38 359 334
0.045586664 0.64999998 -0.10712866 1.391603e-38 360 334
0.046726331 0.64999998 -0.10712866 1.391603e-38 361 334
0.047865998 0.64999998 -0.10712866 1.3639448e-38 362 334
0.049005665 0.64999998 -0.10712866 1.3547252e-38 363 334
0.050145328 0.64999998 -0.10712866 1.3638367e-38 364 334
0.051442798 0.65200001 -0.10745829 1.336214e-38 365 334
0.052585974 0.65200001 -0.10745829 1.3178465e-38 366 334
0.053729147 0.65200001 -0.10745829 1.290188e-38 367 334
0.054956477 0.653 -0.1076231 1.2717134e-38 368 334
0.056187313 0.65399998 -0.10778791 1.2532743e-38 369 334
0.057421666 0.65499997 -0.10795272 1.2164683e-38 370 334
0.058570094 0.65499997 -0.10795272 1.1980651e-38 371 334
0.059718527 0.65499997 -0.10795272 1.1704074e-38 372 334
0.060866963 0.65499997 -0.10795272 1.1520042e-38 373 334
0.062015396 0.65499997 -0.10795272 1.1518257e-38 374 334
0.063356705 0.65700001 -0.10828236 1.1518257e-38 375 334
0.064606823 0.65799999 -0.10844716 1.1335298e-38 376 334
0.065760516 0.65799999 -0.10844716 1.1243101e-38 377 334
0.066914216 0.65799999 -0.10844716 1.1243454e-38 378 334
0.068378247 0.66100001 -0.10894161 1.11509e-38 379 334
0.069642402 0.662 -0.10910642 1.1059783e-38 380 334
0.070803106 0.662 -0.10910642 1.0967588e-38 381 334
0.071963809 0.662 -0.10910642 1.1059783e-38 382 334
0.073234983 0.66299999 -0.10927124 1.1059783e-38 383 334
0.074397437 0.66299999 -0.10927124 1.1060153e-38 384 334
0.075559892 0.66299999 -0.10927124 1.0967957e-38 385 334
0.076838076 0.66399997 -0.10943604 1.0781787e-38 386 334
-0.04526756 0.662 -0.11026713 1.3552758e-38 281 335
-0.044106852 0.662 -0.11026713 1.3277224e-38 282 335
-0.042946145 0.662 -0.11026713 1.2631855e-38 283 335
-0.041785441 0.662 -0.11026713 1.2998077e-38 284 335
-0.040563367 0.66100001 -0.11010057 1.2998077e-38 285 335
-0.039285187 0.65899998 -0.10976743 1.2999134e-38 286 335
-0.038071878 0.65799999 -0.10960086 1.2999134e-38 287 335
-0.036862079 0.65700001 -0.1094343 1.3001284e-38 288 335
-0.03560143 0.65499997 -0.10910116 1.346226e-38 289 335
-0.034452997 0.65499997 -0.10910116 1.4658284e-38 290 335
-0.033253718 0.65399998 -0.10893459 1.5027067e-38 291 335
-0.03210704 0.65399998 -0.10893459 1.5486245e-38 292 335
-0.03091302 0.653 -0.10876803 1.5855029e-38 293 335
-0.029768093 0.653 -0.10876803 1.631277e-38 294 335
-0.028579334 0.65200001 -0.10860147 1.6588997e-38 295 335
-0.02743616 0.65200001 -0.10860147 1.6405688e-38 296 335
-0.026292987 0.65200001 -0.10860147 1.6497883e-38 297 335
-0.025072664 0.64999998 -0.10826832 1.6773395e-38 298 335
-0.023932999 0.64999998 -0.10826832 1.6773395e-38 299 335
-0.022793332 0.64999998 -0.10826832 1.6681196e-38 300 335
-0.021653665 0.64999998 -0.10826832 1.6681196e-38 301 335
-0.02057712 0.65200001 -0.10860147 1.6864864e-38 302 335
-0.019433947 0.65200001 -0.10860147 1.6680833e-38 303 335
-0.018234665 0.64999998 -0.10826832 1.6680477e-38 304 335
-0.017095 0.64999998 -0.10826832 1.6864508e-38 305 335
-0.015930785 0.64899999 -0.10810176 1.6955987e-38 306 335
-0.014792874 0.64899999 -0.10810176 1.6955987e-38 307 335
-0.013654959 0.64899999 -0.10810176 1.6864508e-38 308 335
-0.012517046 0.64899999 -0.10810176 1.6680477e-38 309 335
-0.011379133 0.64899999 -0.10810176 1.668083e-38 310 335
-0.01024122 0.64899999 -0.10810176 1.668083e-38 311 335
-0.0091033066 0.64899999 -0.10810176 1.6589703e-38 312 335
-0.0079531204 0.648 -0.1079352 1.6497508e-38 313 335
-0.0068169599 0.648 -0.1079352 1.6681533e-38 314 335
-0.0056807999 0.648 -0.1079352 1.6497142e-38 315 335
-0.0045376266 0.64700001 -0.10776863 1.6588985e-38 316 335
-0.0034032199 0.64700001 -0.10776863 1.668118e-38 317 335
-0.0022688133 0.64700001 -0.10776863 1.7048533e-38 318 335
-0.0011344067 0.64700001 -0.10776863 1.7048533e-38 319 335
0 0.64700001 -0.10776863 1.7048533e-38 320 335
0.0011344067 0.64700001 -0.10776863 1.6956338e-38 321 335
0.0022688133 0.64700001 -0.10776863 1.6956694e-38 322 335
0.0034032199 0.64700001 -0.10776863 1.7048889e-38 323 335
0.0045376266 0.64700001 -0.10776863 1.6865217e-38 324 335
0.0056720334 0.64700001 -0.10776863 1.6680827e-38 325 335
0.0068064397 0.64700001 -0.10776863 1.6680827e-38 326 335
0.0079408465 0.64700001 -0.10776863 1.6588631e-38 327 335
0.0090752533 0.64700001 -0.10776863 1.6404221e-38 328 335
0.01020966 0.64700001 -0.10776863 1.6312025e-38 329 335
0.011344067 0.64700001 -0.10776863 1.6403842e-38 330 335
0.012478473 0.64700001 -0.10776863 1.6219811e-38 331 335
0.013612879 0.64700001 -0.10776863 1.6127634e-38 332 335
0.014747286 0.64700001 -0.10776863 1.6312025e-38 333 335
0.015881693 0.64700001 -0.10776863 1.6586466e-38 334 335
0.0170161 0.64700001 -0.10776863 1.6494271e-38 335 335
0.018150507 0.64700001 -0.10776863 1.6402423e-38 336 335
0.019284913 0.64700001 -0.10776863 1.6310227e-38 337 335
0.02041932 0.64700001 -0.10776863 1.5942887e-38 338 335
0.021553727 0.64700001 -0.10776863 1.5758854e-38 339 335
0.022688134 0.64700001 -0.10776863 1.5666302e-38 340 335
0.023822539 0.64700001 -0.10776863 1.5666302e-38 341 335
0.024956945 0.64700001 -0.10776863 1.5206403e-38 342 335
0.026091354 0.64700001 -0.10776863 1.5113849e-38 343 335
0.027225759 0.64700001 -0.10776863 1.5388641e-38 344 335
0.028360168 0.64700001 -0.10776863 1.5388641e-38 345 335
0.029494572 0.64700001 -0.10776863 1.5112778e-38 346 335
0.030628979 0.64700001 -0.10776863 1.5020583e-38 347 335
0.031763386 0.64700001 -0.10776863 1.4929109e-38 348 335
0.032897793 0.64700001 -0.10776863 1.4652523e-38 349 335
0.034084801 0.648 -0.1079352 1.4743993e-38 350 335
0.035220958 0.648 -0.1079352 1.4743993e-38 351 335
0.03635712 0.648 -0.1079352 1.4376638e-38 352 335
0.037551139 0.64899999 -0.10810176 1.4007857e-38 353 335
0.038689051 0.64899999 -0.10810176 1.4283724e-38 354 335
0.039826967 0.64899999 -0.10810176 1.419117e-38 355 335
0.040964879 0.64899999 -0.10810176 1.400786e-38 356 335
0.042167664 0.64999998 -0.10826832 1.400786e-38 357 335
0.04330733 0.64999998 -0.10826832 1.4098977e-38 358 335
0.044446997 0.64999998 -0.10826832 1.4006781e-38 359 335
0.045586664 0.64999998 -0.10826832 1.3730913e-38 360 335
0.046726331 0.64999998 -0.10826832 1.3638717e-38 361 335
0.047865998 0.64999998 -0.10826832 1.3362854e-38 362 335
0.049005665 0.64999998 -0.10826832 1.3270658e-38 363 335
0.050145328 0.64999998 -0.10826832 1.3361061e-38 364 335
0.051442798 0.65200001 -0.10860147 1.3176672e-38 365 335
0.052585974 0.65200001 -0.10860147 1.2716771e-38 366 335
0.053729147 0.65200001 -0.10860147 1.2624575e-38 367 335
0.054956477 0.653 -0.10876803 1.2256516e-38 368 335
0.056187313 0.65399998 -0.10893459 1.2071764e-38 369 335
0.057333998 0.65399998 -0.10893459 1.19785e-38 370 335
0.058570094 0.65499997 -0.10910116 1.1794108e-38 371 335
0.059718527 0.65499997 -0.10910116 1.1518246e-38 372 335
0.060866963 0.65499997 -0.10910116 1.1518246e-38 373 335
0.062015396 0.65499997 -0.10910116 1.1242379e-38 374 335
0.063356705 0.65700001 -0.1094343 1.1242379e-38 375 335
0.064508639 0.65700001 -0.1094343 1.11509e-38 376 335
0.065760516 0.65799999 -0.10960086 1.11509e-38 377 335
0.066914216 0.65799999 -0.10960086 1.1151256e-38 378 335
0.068171352 0.65899998 -0.10976743 1.1151256e-38 379 335
0.0695372 0.66100001 -0.11010057 1.0967588e-38 380 335
0.070803106 0.662 -0.11026713 1.0967588e-38 381 335
0.071963809 0.662 -0.11026713 1.0968309e-38 382 335
0.073234983 0.66299999 -0.1104337 1.0968309e-38 383 335
0.07450965 0.66399997 -0.11060026 1.0691739e-38 384 335
0.075673863 0.66399997 -0.11060026 1.0507348e-38 385 335
-0.04526756 0.662 -0.11142784 1.3553481e-38 281 336
-0.044106852 0.662 -0.11142784 1.3460542e-38 282 336
-0.042946145 0.662 -0.11142784 1.2999566e-38 283 336
-0.041785441 0.662 -0.11142784 1.3089568e-38 284 336
-0.040563367 0.66100001 -0.11125952 1.2905176e-38 285 336
-0.039285187 0.65899998 -0.11092287 1.2722201e-38 286 336
-0.038071878 0.65799999 -0.11075456 1.2722201e-38 287 336
-0.036862079 0.65700001 -0.11058623 1.2722899e-38 288 336
-0.03560143 0.65499997 -0.11024959 1.2999484e-38 289 336
-0.034452997 0.65499997 -0.11024959 1.3553008e-38 290 336
-0.033253718 0.65399998 -0.11008127 1.3921792e-38 291 336
-0.032057945 0.653 -0.10991295 1.4381697e-38 292 336
-0.03091302 0.653 -0.10991295 1.4934871e-38 293 336
-0.029722504 0.65200001 -0.10974464 1.5485527e-38 294 336
-0.028579334 0.65200001 -0.10974464 1.5577722e-38 295 336
-0.027351998 0.64999998 -0.10940799 1.5853237e-38 296 336
-0.026212333 0.64999998 -0.10940799 1.5945433e-38 297 336
-0.025072664 0.64999998 -0.10940799 1.6037631e-38 298 336
-0.023932999 0.64999998 -0.10940799 1.6037631e-38 299 336
-0.022793332 0.64999998 -0.10940799 1.6037626e-38 300 336
-0.021653665 0.64999998 -0.10940799 1.6037626e-38 301 336
-0.020513998 0.64999998 -0.10940799 1.6312773e-38 302 336
-0.019374331 0.64999998 -0.10940799 1.6220578e-38 303 336
-0.018234665 0.64999998 -0.10940799 1.6219869e-38 304 336
-0.017068699 0.64899999 -0.10923968 1.6219869e-38 305 336
-0.015930785 0.64899999 -0.10923968 1.6403184e-38 306 336
-0.014770079 0.648 -0.10907136 1.6403184e-38 307 336
-0.01363392 0.648 -0.10907136 1.6220225e-38 308 336
-0.01249776 0.648 -0.10907136 1.6220225e-38 309 336
-0.0113616 0.648 -0.10907136 1.6220578e-38 310 336
-0.010225439 0.648 -0.10907136 1.6220578e-38 311 336
-0.0090892799 0.648 -0.10907136 1.6220575e-38 312 336
-0.0079408465 0.64700001 -0.10890304 1.6128378e-38 313 336
-0.0068064397 0.64700001 -0.10890304 1.6311687e-38 314 336
-0.0056807999 0.648 -0.10907136 1.6311687e-38 315 336
-0.0045376266 0.64700001 -0.10890304 1.6128375e-38 316 336
-0.0034032199 0.64700001 -0.10890304 1.6220572e-38 317 336
-0.0022688133 0.64700001 -0.10890304 1.6311694e-38 318 336
-0.0011326533 0.64600003 -0.10873472 1.640389e-38 319 336
0 0.64600003 -0.10873472 1.6586846e-38 320 336
0.0011326533 0.64600003 -0.10873472 1.6679401e-38 321 336
0.0022688133 0.64700001 -0.10890304 1.640389e-38 322 336
0.00339796 0.64600003 -0.10873472 1.640389e-38 323 336
0.0045306133 0.64600003 -0.10873472 1.6128378e-38 324 336
0.0056632664 0.64600003 -0.10873472 1.6036182e-38 325 336
0.00679592 0.64600003 -0.10873472 1.5760669e-38 326 336
0.0079408465 0.64700001 -0.10890304 1.5852864e-38 327 336
0.0090752533 0.64700001 -0.10890304 1.6219113e-38 328 336
0.01020966 0.64700001 -0.10890304 1.6219113e-38 329 336
0.011344067 0.64700001 -0.10890304 1.6310931e-38 330 336
0.012478473 0.64700001 -0.10890304 1.6218734e-38 331 336
0.013612879 0.64700001 -0.10890304 1.6034363e-38 332 336
0.014747286 0.64700001 -0.10890304 1.6034363e-38 333 336
0.015857147 0.64600003 -0.10873472 1.5758498e-38 334 336
0.016989801 0.64600003 -0.10873472 1.5574107e-38 335 336
0.018150507 0.64700001 -0.10890304 1.5574091e-38 336 336
0.019284913 0.64700001 -0.10890304 1.5574091e-38 337 336
0.020387759 0.64600003 -0.10873472 1.5298596e-38 338 336
0.021520413 0.64600003 -0.10873472 1.5114205e-38 339 336
0.022653066 0.64600003 -0.10873472 1.4930539e-38 340 336
0.023822539 0.64700001 -0.10890304 1.4838342e-38 341 336
0.024956945 0.64700001 -0.10890304 1.4745791e-38 342 336
0.026091354 0.64700001 -0.10890304 1.4745791e-38 343 336
0.027225759 0.64700001 -0.10890304 1.4745075e-38 344 336
0.028360168 0.64700001 -0.10890304 1.4745075e-38 345 336
0.029494572 0.64700001 -0.10890304 1.4561046e-38 346 336
0.030628979 0.64700001 -0.10890304 1.4468851e-38 347 336
0.031763386 0.64700001 -0.10890304 1.4468851e-38 348 336
0.032897793 0.64700001 -0.10890304 1.428482e-38 349 336
0.034084801 0.648 -0.10907136 1.4100777e-38 350 336
0.035220958 0.648 -0.10907136 1.4008223e-38 351 336
0.03635712 0.648 -0.10907136 1.3916027e-38 352 336
0.037551139 0.64899999 -0.10923968 1.3823832e-38 353 336
0.038689051 0.64899999 -0.10923968 1.3823832e-38 354 336
0.039826967 0.64899999 -0.10923968 1.3639801e-38 355 336
0.040964879 0.64899999 -0.10923968 1.3548324e-38 356 336
0.042102791 0.64899999 -0.10923968 1.3456127e-38 357 336
0.04330733 0.64999998 -0.10940799 1.3638364e-38 358 336
0.044446997 0.64999998 -0.10940799 1.3454333e-38 359 336
0.045586664 0.64999998 -0.10940799 1.3270305e-38 360 336
0.046726331 0.64999998 -0.10940799 1.3178109e-38 361 336
0.047865998 0.64999998 -0.10940799 1.2902604e-38 362 336
0.049005665 0.64999998 -0.10940799 1.281005e-38 363 336
0.050145328 0.64999998 -0.10940799 1.2900452e-38 364 336
0.051284995 0.64999998 -0.10940799 1.2531671e-38 365 336
0.052585974 0.65200001 -0.10974464 1.216361e-38 366 336
0.053729147 0.65200001 -0.10974464 1.2071414e-38 367 336
0.054956477 0.653 -0.10991295 1.1702636e-38 368 336
0.056187313 0.65399998 -0.11008127 1.161044e-38 369 336
0.057333998 0.65399998 -0.11008127 1.1425694e-38 370 336
0.058570094 0.65499997 -0.11024959 1.1425694e-38 371 336
0.059718527 0.65499997 -0.11024959 1.1150905e-38 372 336
0.060866963 0.65499997 -0.11024959 1.1150905e-38 373 336
0.062015396 0.65499997 -0.11024959 1.0967588e-38 374 336
0.063356705 0.65700001 -0.11058623 1.0967588e-38 375 336
0.064508639 0.65700001 -0.11058623 1.0875389e-38 376 336
0.065760516 0.65799999 -0.11075456 1.0875389e-38 377 336
0.066914216 0.65799999 -0.11075456 1.1151256e-38 378 336
0.068171352 0.65899998 -0.11092287 1.1151256e-38 379 336
0.0695372 0.66100001 -0.11125952 1.0967588e-38 380 336
0.070803106 0.662 -0.11142784 1.1059783e-38 381 336
0.071963809 0.662 -0.11142784 1.0692092e-38 382 336
0.07312452 0.662 -0.11142784 1.0599897e-38 383 336
0.07450965 0.66399997 -0.11176447 1.0231137e-38 384 336
-0.044106852 0.662 -0.11258854 1.3644585e-38 282 337
-0.042946145 0.662 -0.11258854 1.3275442e-38 283 337
-0.041785441 0.662 -0.11258854 1.3273965e-38 284 337
-0.040563367 0.66100001 -0.11241848 1.2997377e-38 285 337
-0.039285187 0.65899998 -0.11207832 1.2813315e-38 286 337
-0.038071878 0.65799999 -0.11190825 1.2721119e-38 287 337
-0.036862079 0.65700001 -0.11173818 1.2538157e-38 288 337
-0.03560143 0.65499997 -0.11139803 1.244596e-38 289 337
-0.034452997 0.65499997 -0.11139803 1.2723267e-38 290 337
-0.033253718 0.65399998 -0.11122796 1.3000214e-38 291 337
-0.032057945 0.653 -0.11105788 1.3643779e-38 292 337
-0.030865679 0.65200001 -0.11088781 1.4196953e-38 293 337
-0.029722504 0.65200001 -0.11088781 1.4656842e-38 294 337
-0.028491667 0.64999998 -0.11054766 1.5025625e-38 295 337
-0.027351998 0.64999998 -0.11054766 1.5575921e-38 296 337
-0.026212333 0.64999998 -0.11054766 1.5668117e-38 297 337
-0.025072664 0.64999998 -0.11054766 1.5485527e-38 298 337
-0.023932999 0.64999998 -0.11054766 1.5485527e-38 299 337
-0.022758266 0.64899999 -0.11037759 1.5485527e-38 300 337
-0.021620352 0.64899999 -0.11037759 1.5485527e-38 301 337
-0.020513998 0.64999998 -0.11054766 1.6035826e-38 302 337
-0.019344525 0.64899999 -0.11037759 1.5943631e-38 303 337
-0.018206613 0.64899999 -0.11037759 1.5943277e-38 304 337
-0.0170424 0.648 -0.11020751 1.5943277e-38 305 337
-0.015906241 0.648 -0.11020751 1.594328e-38 306 337
-0.014747286 0.64700001 -0.11003745 1.594328e-38 307 337
-0.013612879 0.64700001 -0.11003745 1.5851079e-38 308 337
-0.012478473 0.64700001 -0.11003745 1.5851079e-38 309 337
-0.011344067 0.64700001 -0.11003745 1.5851788e-38 310 337
-0.01020966 0.64700001 -0.11003745 1.5851788e-38 311 337
-0.0090752533 0.64700001 -0.11003745 1.5942909e-38 312 337
-0.0079408465 0.64700001 -0.11003745 1.5850713e-38 313 337
-0.0068064397 0.64700001 -0.11003745 1.5851069e-38 314 337
-0.0056720334 0.64700001 -0.11003745 1.5758515e-38 315 337
-0.0045376266 0.64700001 -0.11003745 1.5759234e-38 316 337
-0.0034032199 0.64700001 -0.11003745 1.5759234e-38 317 337
-0.0022688133 0.64700001 -0.11003745 1.5758165e-38 318 337
-0.0011326533 0.64600003 -0.10986737 1.585036e-38 319 337
0 0.64600003 -0.10986737 1.5850363e-38 320 337
0.0011326533 0.64600003 -0.10986737 1.5942559e-38 321 337
0.0022688133 0.64700001 -0.11003745 1.5942915e-38 322 337
0.00339796 0.64600003 -0.10986737 1.585036e-38 323 337
0.0045306133 0.64600003 -0.10986737 1.5575208e-38 324 337
0.0056632664 0.64600003 -0.10986737 1.5575208e-38 325 337
0.00679592 0.64600003 -0.10986737 1.5391533e-38 326 337
0.0079285735 0.64600003 -0.10986737 1.5391533e-38 327 337
0.0090612266 0.64600003 -0.10986737 1.5390807e-38 328 337
0.01019388 0.64600003 -0.10986737 1.5390807e-38 329 337
0.011326533 0.64600003 -0.10986737 1.5390444e-38 330 337
0.012459187 0.64600003 -0.10986737 1.5298249e-38 331 337
0.01359184 0.64600003 -0.10986737 1.5205697e-38 332 337
0.014724494 0.64600003 -0.10986737 1.5297893e-38 333 337
0.015857147 0.64600003 -0.10986737 1.4930539e-38 334 337
0.016989801 0.64600003 -0.10986737 1.4838342e-38 335 337
0.018122453 0.64600003 -0.10986737 1.4838696e-38 336 337
0.019255107 0.64600003 -0.10986737 1.4746141e-38 337 337
0.020387759 0.64600003 -0.10986737 1.4746144e-38 338 337
0.021520413 0.64600003 -0.10986737 1.4653948e-38 339 337
0.022653066 0.64600003 -0.10986737 1.456175e-38 340 337
0.023785722 0.64600003 -0.10986737 1.456175e-38 341 337
0.024956945 0.64700001 -0.11003745 1.4561753e-38 342 337
0.026091354 0.64700001 -0.11003745 1.4469198e-38 343 337
0.02718368 0.64600003 -0.10986737 1.4468485e-38 344 337
0.028316336 0.64600003 -0.10986737 1.4376288e-38 345 337
0.029494572 0.64700001 -0.11003745 1.4376288e-38 346 337
0.030628979 0.64700001 -0.11003745 1.4376288e-38 347 337
0.031763386 0.64700001 -0.11003745 1.4008226e-38 348 337
0.032897793 0.64700001 -0.11003745 1.391603e-38 349 337
0.034084801 0.648 -0.11020751 1.364052e-38 350 337
0.035220958 0.648 -0.11020751 1.3548324e-38 351 337
0.03635712 0.648 -0.11020751 1.3456127e-38 352 337
0.037493281 0.648 -0.11020751 1.3271737e-38 353 337
0.038689051 0.64899999 -0.11037759 1.327174e-38 354 337
0.039826967 0.64899999 -0.11037759 1.3179544e-38 355 337
0.040964879 0.64899999 -0.11037759 1.3270308e-38 356 337
0.042102791 0.64899999 -0.11037759 1.3178112e-38 357 337
0.043240704 0.64899999 -0.11037759 1.3361061e-38 358 337
0.044446997 0.64999998 -0.11054766 1.3084474e-38 359 337
0.045586664 0.64999998 -0.11054766 1.2626373e-38 360 337
0.046726331 0.64999998 -0.11054766 1.2533819e-38 361 337
0.047865998 0.64999998 -0.11054766 1.2441276e-38 362 337
0.049005665 0.64999998 -0.11054766 1.234908e-38 363 337
0.050145328 0.64999998 -0.11054766 1.225581e-38 364 337
0.051284995 0.64999998 -0.11054766 1.1979221e-38 365 337
0.052585974 0.65200001 -0.11088781 1.1885951e-38 366 337
0.053729147 0.65200001 -0.11088781 1.1793755e-38 367 337
0.054956477 0.653 -0.11105788 1.1609363e-38 368 337
0.056187313 0.65399998 -0.11122796 1.1424973e-38 369 337
0.057333998 0.65399998 -0.11122796 1.1241653e-38 370 337
0.058570094 0.65499997 -0.11139803 1.1333849e-38 371 337
0.059718527 0.65499997 -0.11139803 1.105906e-38 372 337
0.060866963 0.65499997 -0.11139803 1.105906e-38 373 337
0.062015396 0.65499997 -0.11139803 1.0875389e-38 374 337
0.063356705 0.65700001 -0.11173818 1.0875389e-38 375 337
0.064606823 0.65799999 -0.11190825 1.0875389e-38 376 337
0.065760516 0.65799999 -0.11190825 1.0875389e-38 377 337
0.067219295 0.66100001 -0.11241848 1.0967588e-38 378 337
0.068378247 0.66100001 -0.11241848 1.0875392e-38 379 337
0.069642402 0.662 -0.11258854 1.0691727e-38 380 337
0.070803106 0.662 -0.11258854 1.0691727e-38 381 337
0.071963809 0.662 -0.11258854 1.0506998e-38 382 337
0.07312452 0.662 -0.11258854 1.0230771e-38 383 337
-0.041596077 0.65899998 -0.11323377 1.3459078e-38 284 338
-0.04044063 0.65899998 -0.11323377 1.2905906e-38 285 338
-0.039285187 0.65899998 -0.11323377 1.2812599e-38 286 338
-0.038071878 0.65799999 -0.11306194 1.2627847e-38 287 338
-0.036862079 0.65700001 -0.11289012 1.2443809e-38 288 338
-0.03560143 0.65499997 -0.11254645 1.2536005e-38 289 338
-0.034452997 0.65499997 -0.11254645 1.2812222e-38 290 338
-0.033253718 0.65399998 -0.11237463 1.308881e-38 291 338
-0.032057945 0.653 -0.11220281 1.2814015e-38 292 338
-0.030865679 0.65200001 -0.11203098 1.3367189e-38 293 338
-0.029631332 0.64999998 -0.11168732 1.3644135e-38 294 338
-0.028491667 0.64999998 -0.11168732 1.4012559e-38 295 338
-0.027309919 0.64899999 -0.1115155 1.4564649e-38 296 338
-0.026172007 0.64899999 -0.1115155 1.4656845e-38 297 338
-0.025034092 0.64899999 -0.1115155 1.5116018e-38 298 338
-0.023896178 0.64899999 -0.1115155 1.5208214e-38 299 338
-0.022758266 0.64899999 -0.1115155 1.520857e-38 300 338
-0.021620352 0.64899999 -0.1115155 1.5300767e-38 301 338
-0.02048244 0.64899999 -0.1115155 1.5484082e-38 302 338
-0.019344525 0.64899999 -0.1115155 1.5576277e-38 303 338
-0.018206613 0.64899999 -0.1115155 1.5483729e-38 304 338
-0.0170424 0.648 -0.11134368 1.5391533e-38 305 338
-0.015881693 0.64700001 -0.11117186 1.548301e-38 306 338
-0.014747286 0.64700001 -0.11117186 1.548301e-38 307 338
-0.013612879 0.64700001 -0.11117186 1.5666674e-38 308 338
-0.012478473 0.64700001 -0.11117186 1.5574478e-38 309 338
-0.011344067 0.64700001 -0.11117186 1.5390441e-38 310 338
-0.01020966 0.64700001 -0.11117186 1.5574473e-38 311 338
-0.0090752533 0.64700001 -0.11117186 1.5390441e-38 312 338
-0.0079408465 0.64700001 -0.11117186 1.5390441e-38 313 338
-0.0068064397 0.64700001 -0.11117186 1.5390444e-38 314 338
-0.0056720334 0.64700001 -0.11117186 1.5298249e-38 315 338
-0.0045376266 0.64700001 -0.11117186 1.5390088e-38 316 338
-0.0034032199 0.64700001 -0.11117186 1.5390088e-38 317 338
-0.0022688133 0.64700001 -0.11117186 1.5481208e-38 318 338
-0.0011344067 0.64700001 -0.11117186 1.5573403e-38 319 338
0 0.64600003 -0.11100002 1.5573403e-38 320 338
0.0011326533 0.64600003 -0.11100002 1.5573403e-38 321 338
0.0022688133 0.64700001 -0.11117186 1.5390091e-38 322 338
0.00339796 0.64600003 -0.11100002 1.5390091e-38 323 338
0.0045306133 0.64600003 -0.11100002 1.5297895e-38 324 338
0.0056632664 0.64600003 -0.11100002 1.52057e-38 325 338
0.00679592 0.64600003 -0.11100002 1.5205694e-38 326 338
0.0079285735 0.64600003 -0.11100002 1.5113499e-38 327 338
0.0090612266 0.64600003 -0.11100002 1.5113855e-38 328 338
0.01019388 0.64600003 -0.11100002 1.5113855e-38 329 338
0.011326533 0.64600003 -0.11100002 1.5021657e-38 330 338
0.012459187 0.64600003 -0.11100002 1.4929103e-38 331 338
0.01359184 0.64600003 -0.11100002 1.4929459e-38 332 338
0.014724494 0.64600003 -0.11100002 1.4745428e-38 333 338
0.015857147 0.64600003 -0.11100002 1.4836545e-38 334 338
0.016989801 0.64600003 -0.11100002 1.474399e-38 335 338
0.018122453 0.64600003 -0.11100002 1.4836542e-38 336 338
0.019255107 0.64600003 -0.11100002 1.4744346e-38 337 338
0.02032464 0.64399999 -0.11065637 1.4285523e-38 338 338
0.021453787 0.64399999 -0.11065637 1.4469554e-38 339 338
0.022653066 0.64600003 -0.11100002 1.4193323e-38 340 338
0.023785722 0.64600003 -0.11100002 1.428552e-38 341 338
0.024918374 0.64600003 -0.11100002 1.4376282e-38 342 338
0.026051028 0.64600003 -0.11100002 1.4376282e-38 343 338
0.02718368 0.64600003 -0.11100002 1.4375566e-38 344 338
0.028316336 0.64600003 -0.11100002 1.4283371e-38 345 338
0.029494572 0.64700001 -0.11117186 1.4100059e-38 346 338
0.030628979 0.64700001 -0.11117186 1.3915309e-38 347 338
0.031763386 0.64700001 -0.11117186 1.3547968e-38 348 338
0.032897793 0.64700001 -0.11117186 1.3455771e-38 349 338
0.0340322 0.64700001 -0.11117186 1.3454333e-38 350 338
0.035220958 0.648 -0.11134368 1.3362138e-38 351 338
0.03635712 0.648 -0.11134368 1.3269939e-38 352 338
0.037493281 0.648 -0.11134368 1.3177743e-38 353 338
0.038689051 0.64899999 -0.1115155 1.3178099e-38 354 338
0.039826967 0.64899999 -0.1115155 1.3085544e-38 355 338
0.040964879 0.64899999 -0.1115155 1.2992279e-38 356 338
0.042102791 0.64899999 -0.1115155 1.2900083e-38 357 338
0.043240704 0.64899999 -0.1115155 1.2439828e-38 358 338
0.044378616 0.64899999 -0.1115155 1.2439828e-38 359 338
0.045586664 0.64999998 -0.11168732 1.2530955e-38 360 338
0.046726331 0.64999998 -0.11168732 1.2438758e-38 361 338
0.047865998 0.64999998 -0.11168732 1.2253657e-38 362 338
0.049005665 0.64999998 -0.11168732 1.2161462e-38 363 338
0.050145328 0.64999998 -0.11168732 1.1885954e-38 364 338
0.051284995 0.64999998 -0.11168732 1.1793399e-38 365 338
0.052585974 0.65200001 -0.11203098 1.1425694e-38 366 338
0.053729147 0.65200001 -0.11203098 1.1425694e-38 367 338
0.054956477 0.653 -0.11220281 1.1333499e-38 368 338
0.056187313 0.65399998 -0.11237463 1.1333499e-38 369 338
0.057421666 0.65499997 -0.11254645 1.1057985e-38 370 338
0.058570094 0.65499997 -0.11254645 1.1150181e-38 371 338
0.059718527 0.65499997 -0.11254645 1.0783193e-38 372 338
0.060866963 0.65499997 -0.11254645 1.0875389e-38 373 338
0.06220476 0.65700001 -0.11289012 1.0875395e-38 374 338
0.063356705 0.65700001 -0.11289012 1.0875395e-38 375 338
0.064606823 0.65799999 -0.11306194 1.0875039e-38 376 338
0.065860458 0.65899998 -0.11323377 1.0875039e-38 377 338
0.067219295 0.66100001 -0.11357743 1.0875392e-38 378 338
0.068378247 0.66100001 -0.11357743 1.0783196e-38 379 338
0.069642402 0.662 -0.11374925 1.0599181e-38 380 338
0.070803106 0.662 -0.11374925 1.0414431e-38 381 338
0.071963809 0.662 -0.11374925 1.0045317e-38 382 338
0.07312452 0.662 -0.11374925 9.9531203e-39 383 338
-0.04044063 0.65899998 -0.11438921 1.2723681e-38 285 339
-0.039285187 0.65899998 -0.11438921 1.3363615e-38 286 339
-0.038071878 0.65799999 -0.11421563 1.2810799e-38 287 339
-0.036862079 0.65700001 -0.11404206 1.26264e-38 288 339
-0.03560143 0.65499997 -0.11369488 1.2442369e-38 289 339
-0.034452997 0.65499997 -0.11369488 1.2167948e-38 290 339
-0.033253718 0.65399998 -0.11352132 1.2352339e-38 291 339
-0.032057945 0.653 -0.11334774 1.2352337e-38 292 339
-0.030865679 0.65200001 -0.11317416 1.2537087e-38 293 339
-0.029631332 0.64999998 -0.112827 1.2723623e-38 294 339
-0.028491667 0.64999998 -0.112827 1.3000212e-38 295 339
-0.027309919 0.64899999 -0.11265341 1.3643779e-38 296 339
-0.026172007 0.64899999 -0.11265341 1.3828529e-38 297 339
-0.025034092 0.64899999 -0.11265341 1.4563921e-38 298 339
-0.023896178 0.64899999 -0.11265341 1.4748312e-38 299 339
-0.022758266 0.64899999 -0.11265341 1.4840495e-38 300 339
-0.021620352 0.64899999 -0.11265341 1.4840495e-38 301 339
-0.020450879 0.648 -0.11247984 1.4747956e-38 302 339
-0.019314719 0.648 -0.11247984 1.484051e-38 303 339
-0.01817856 0.648 -0.11247984 1.4747255e-38 304 339
-0.0170161 0.64700001 -0.11230626 1.4747255e-38 305 339
-0.015881693 0.64700001 -0.11230626 1.4839088e-38 306 339
-0.014747286 0.64700001 -0.11230626 1.4839088e-38 307 339
-0.013612879 0.64700001 -0.11230626 1.5022753e-38 308 339
-0.012478473 0.64700001 -0.11230626 1.4930558e-38 309 339
-0.011344067 0.64700001 -0.11230626 1.4930552e-38 310 339
-0.01020966 0.64700001 -0.11230626 1.4838356e-38 311 339
-0.0090752533 0.64700001 -0.11230626 1.4747596e-38 312 339
-0.0079408465 0.64700001 -0.11230626 1.4655041e-38 313 339
-0.0068064397 0.64700001 -0.11230626 1.4838356e-38 314 339
-0.0056720334 0.64700001 -0.11230626 1.4746161e-38 315 339
-0.0045376266 0.64700001 -0.11230626 1.483764e-38 316 339
-0.0034032199 0.64700001 -0.11230626 1.483764e-38 317 339
-0.0022688133 0.64700001 -0.11230626 1.483764e-38 318 339
-0.0011344067 0.64700001 -0.11230626 1.4929836e-38 319 339
0 0.64700001 -0.11230626 1.4654691e-38 320 339
0.0011344067 0.64700001 -0.11230626 1.4654691e-38 321 339
0.0022653067 0.64600003 -0.11213268 1.4561778e-38 322 339
0.00339796 0.64600003 -0.11213268 1.474581e-38 323 339
0.0045306133 0.64600003 -0.11213268 1.4745808e-38 324 339
0.0056632664 0.64600003 -0.11213268 1.446958e-38 325 339
0.00679592 0.64600003 -0.11213268 1.4652889e-38 326 339
0.0079285735 0.64600003 -0.11213268 1.4652889e-38 327 339
0.0090612266 0.64600003 -0.11213268 1.4469933e-38 328 339
0.01019388 0.64600003 -0.11213268 1.4377378e-38 329 339
0.011326533 0.64600003 -0.11213268 1.4468854e-38 330 339
0.012459187 0.64600003 -0.11213268 1.4468854e-38 331 339
0.01359184 0.64600003 -0.11213268 1.4284464e-38 332 339
0.014678906 0.64399999 -0.11178552 1.4284464e-38 333 339
0.015808053 0.64399999 -0.11178552 1.4192624e-38 334 339
0.0169372 0.64399999 -0.11178552 1.4192624e-38 335 339
0.018122453 0.64600003 -0.11213268 1.4100424e-38 336 339
0.019255107 0.64600003 -0.11213268 1.4100424e-38 337 339
0.02032464 0.64399999 -0.11178552 1.382563e-38 338 339
0.021453787 0.64399999 -0.11178552 1.382563e-38 339 339
0.022653066 0.64600003 -0.11213268 1.3733431e-38 340 339
0.023785722 0.64600003 -0.11213268 1.3641236e-38 341 339
0.024918374 0.64600003 -0.11213268 1.3824914e-38 342 339
0.026051028 0.64600003 -0.11213268 1.3732718e-38 343 339
0.02718368 0.64600003 -0.11213268 1.3823479e-38 344 339
0.028316336 0.64600003 -0.11213268 1.3823479e-38 345 339
0.029494572 0.64700001 -0.11230626 1.3456854e-38 346 339
0.030628979 0.64700001 -0.11230626 1.3272463e-38 347 339
0.031763386 0.64700001 -0.11230626 1.3545453e-38 348 339
0.032897793 0.64700001 -0.11230626 1.3545453e-38 349 339
0.0340322 0.64700001 -0.11230626 1.3176677e-38 350 339
0.035220958 0.648 -0.11247984 1.3084121e-38 351 339
0.03635712 0.648 -0.11247984 1.2533474e-38 352 339
0.037493281 0.648 -0.11247984 1.2348724e-38 353 339
0.038629439 0.648 -0.11247984 1.2165059e-38 354 339
0.039826967 0.64899999 -0.11265341 1.1980667e-38 355 339
0.040964879 0.64899999 -0.11265341 1.197995e-38 356 339
0.042102791 0.64899999 -0.11265341 1.1887396e-38 357 339
0.043240704 0.64899999 -0.11265341 1.1519336e-38 358 339
0.044378616 0.64899999 -0.11265341 1.1519336e-38 359 339
0.045586664 0.64999998 -0.112827 1.1610458e-38 360 339
0.046726331 0.64999998 -0.112827 1.1518263e-38 361 339
0.047865998 0.64999998 -0.112827 1.1700853e-38 362 339
0.049005665 0.64999998 -0.112827 1.1700853e-38 363 339
0.050145328 0.64999998 -0.112827 1.1242026e-38 364 339
0.051284995 0.64999998 -0.112827 1.1149831e-38 365 339
0.052585974 0.65200001 -0.11317416 1.1149831e-38 366 339
0.053729147 0.65200001 -0.11317416 1.1057635e-38 367 339
0.054956477 0.653 -0.11334774 1.0874323e-38 368 339
0.056187313 0.65399998 -0.11352132 1.0874323e-38 369 339
0.057421666 0.65499997 -0.11369488 1.0874676e-38 370 339
0.058570094 0.65499997 -0.11369488 1.0874676e-38 371 339
0.059718527 0.65499997 -0.11369488 1.0875392e-38 372 339
0.060866963 0.65499997 -0.11369488 1.0875392e-38 373 339
0.06220476 0.65700001 -0.11404206 1.1057632e-38 374 339
0.063356705 0.65700001 -0.11404206 1.1150187e-38 375 339
0.064705007 0.65899998 -0.11438921 1.0874686e-38 376 339
0.065860458 0.65899998 -0.11438921 1.0690294e-38 377 339
0.067219295 0.66100001 -0.11473638 1.0323317e-38 378 339
0.068481691 0.662 -0.11490996 1.0138925e-38 379 339
0.069642402 0.662 -0.11490996 9.8620051e-39 380 339
0.070803106 0.662 -0.11490996 9.6776124e-39 381 339
0.071963809 0.662 -0.11490996 9.401048e-39 382 339
-0.04044063 0.65899998 -0.11554466 1.2632224e-38 285 340
-0.039225571 0.65799999 -0.11536933 1.3548379e-38 286 340
-0.038071878 0.65799999 -0.11536933 1.2534585e-38 287 340
-0.036862079 0.65700001 -0.11519399 1.2443443e-38 288 340
-0.03560143 0.65499997 -0.11484333 1.2258692e-38 289 340
-0.034452997 0.65499997 -0.11484333 1.2350525e-38 290 340
-0.033253718 0.65399998 -0.114668 1.2258329e-38 291 340
-0.032057945 0.653 -0.11449267 1.2533834e-38 292 340
-0.030865679 0.65200001 -0.11431734 1.262639e-38 293 340
-0.029631332 0.64999998 -0.11396667 1.2901901e-38 294 340
-0.028491667 0.64999998 -0.11396667 1.3086292e-38 295 340
-0.027309919 0.64899999 -0.11379133 1.2353396e-38 296 340
-0.026172007 0.64899999 -0.11379133 1.2537787e-38 297 340
-0.025034092 0.64899999 -0.11379133 1.3456851e-38 298 340
-0.023896178 0.64899999 -0.11379133 1.3733437e-38 299 340
-0.0227232 0.648 -0.113616 1.3734513e-38 300 340
-0.02158704 0.648 -0.113616 1.40111e-38 301 340
-0.020450879 0.648 -0.113616 1.4470283e-38 302 340
-0.019314719 0.648 -0.113616 1.4562479e-38 303 340
-0.01817856 0.648 -0.113616 1.5021304e-38 304 340
-0.0170161 0.64700001 -0.11344067 1.4929109e-38 305 340
-0.015881693 0.64700001 -0.11344067 1.502095e-38 306 340
-0.014747286 0.64700001 -0.11344067 1.4928753e-38 307 340
-0.013612879 0.64700001 -0.11344067 1.4837992e-38 308 340
-0.012478473 0.64700001 -0.11344067 1.4745438e-38 309 340
-0.011344067 0.64700001 -0.11344067 1.4745791e-38 310 340
-0.01020966 0.64700001 -0.11344067 1.4745791e-38 311 340
-0.0090752533 0.64700001 -0.11344067 1.4653595e-38 312 340
-0.0079285735 0.64600003 -0.11326534 1.4745791e-38 313 340
-0.00679592 0.64600003 -0.11326534 1.4653595e-38 314 340
-0.0056720334 0.64700001 -0.11344067 1.4745791e-38 315 340
-0.0045306133 0.64600003 -0.11326534 1.4745425e-38 316 340
-0.00339796 0.64600003 -0.11326534 1.465323e-38 317 340
-0.0022688133 0.64700001 -0.11344067 1.4745422e-38 318 340
-0.0011344067 0.64700001 -0.11344067 1.4745422e-38 319 340
0 0.64600003 -0.11326534 1.4745425e-38 320 340
0.0011326533 0.64600003 -0.11326534 1.4561034e-38 321 340
0.0022653067 0.64600003 -0.11326534 1.4560681e-38 322 340
0.00339796 0.64600003 -0.11326534 1.4468485e-38 323 340
0.0045306133 0.64600003 -0.11326534 1.4468485e-38 324 340
0.0056632664 0.64600003 -0.11326534 1.4468485e-38 325 340
0.00679592 0.64600003 -0.11326534 1.4376282e-38 326 340
0.0079285735 0.64600003 -0.11326534 1.4376282e-38 327 340
0.0090612266 0.64600003 -0.11326534 1.437592e-38 328 340
0.01019388 0.64600003 -0.11326534 1.4468115e-38 329 340
0.011326533 0.64600003 -0.11326534 1.437592e-38 330 340
0.012459187 0.64600003 -0.11326534 1.437592e-38 331 340
0.01359184 0.64600003 -0.11326534 1.4284443e-38 332 340
0.014678906 0.64399999 -0.11291467 1.4100053e-38 333 340
0.015808053 0.64399999 -0.11291467 1.4283724e-38 334 340
0.0169372 0.64399999 -0.11291467 1.419117e-38 335 340
0.018066347 0.64399999 -0.11291467 1.3916383e-38 336 340
0.019195493 0.64399999 -0.11291467 1.3916383e-38 337 340
0.02032464 0.64399999 -0.11291467 1.3732712e-38 338 340
0.021453787 0.64399999 -0.11291467 1.3640517e-38 339 340
0.022582933 0.64399999 -0.11291467 1.3640154e-38 340 340
0.023785722 0.64600003 -0.11326534 1.3824185e-38 341 340
0.024918374 0.64600003 -0.11326534 1.3730916e-38 342 340
0.026051028 0.64600003 -0.11326534 1.3823113e-38 343 340
0.02718368 0.64600003 -0.11326534 1.3730913e-38 344 340
0.028316336 0.64600003 -0.11326534 1.3454686e-38 345 340
0.029494572 0.64700001 -0.11344067 1.3362841e-38 346 340
0.030628979 0.64700001 -0.11344067 1.2625276e-38 347 340
0.031763386 0.64700001 -0.11344067 1.2160701e-38 348 340
0.032897793 0.64700001 -0.11344067 1.1699723e-38 349 340
0.0340322 0.64700001 -0.11344067 1.1790845e-38 350 340
0.035166606 0.64700001 -0.11344067 1.1883042e-38 351 340
0.03635712 0.648 -0.113616 1.1976332e-38 352 340
0.037493281 0.648 -0.113616 1.1884136e-38 353 340
0.038629439 0.648 -0.113616 1.1699042e-38 354 340
0.039826967 0.64899999 -0.11379133 1.1791237e-38 355 340
0.040964879 0.64899999 -0.11379133 1.1516445e-38 356 340
0.042102791 0.64899999 -0.11379133 1.1608641e-38 357 340
0.043240704 0.64899999 -0.11379133 1.1608638e-38 358 340
0.044378616 0.64899999 -0.11379133 1.1608638e-38 359 340
0.045586664 0.64999998 -0.11396667 1.1425326e-38 360 340
0.046726331 0.64999998 -0.11396667 1.1425326e-38 361 340
0.047865998 0.64999998 -0.11396667 1.1426048e-38 362 340
0.049005665 0.64999998 -0.11396667 1.1426048e-38 363 340
0.050145328 0.64999998 -0.11396667 1.1150181e-38 364 340
0.051284995 0.64999998 -0.11396667 1.1150181e-38 365 340
0.052585974 0.65200001 -0.11431734 1.0965792e-38 366 340
0.05381155 0.653 -0.11449267 1.0965792e-38 367 340
0.054956477 0.653 -0.11449267 1.0874323e-38 368 340
0.056187313 0.65399998 -0.114668 1.0874323e-38 369 340
0.057421666 0.65499997 -0.11484333 1.1058351e-38 370 340
0.058570094 0.65499997 -0.11484333 1.087432e-38 371 340
0.059718527 0.65499997 -0.11484333 1.0874676e-38 372 340
0.060866963 0.65499997 -0.11484333 1.0874676e-38 373 340
0.06220476 0.65700001 -0.11519399 1.087432e-38 374 340
0.063356705 0.65700001 -0.11519399 1.087432e-38 375 340
0.064705007 0.65899998 -0.11554466 1.0690297e-38 376 340
0.066160277 0.662 -0.11607066 1.0506266e-38 377 340
0.067320988 0.662 -0.11607066 1.0320814e-38 378 340
0.068481691 0.662 -0.11607066 1.0136423e-38 379 340
0.069642402 0.662 -0.11607066 9.4921618e-39 380 340
0.070910059 0.66299999 -0.11624599 9.3999662e-39 381 340
-0.04044063 0.65899998 -0.11670011 1.2816619e-38 285 341
-0.039225571 0.65799999 -0.11652302 1.3367233e-38 286 341
-0.038071878 0.65799999 -0.11652302 1.2537472e-38 287 341
-0.036862079 0.65700001 -0.11634594 1.2810794e-38 288 341
-0.035710141 0.65700001 -0.11634594 1.2442371e-38 289 341
-0.034452997 0.65499997 -0.11599176 1.2166496e-38 290 341
-0.033253718 0.65399998 -0.11581468 1.1982465e-38 291 341
-0.032057945 0.653 -0.11563759 1.1890635e-38 292 341
-0.030865679 0.65200001 -0.1154605 1.1890635e-38 293 341
-0.029631332 0.64999998 -0.11510632 1.1890285e-38 294 341
-0.028491667 0.64999998 -0.11510632 1.2074678e-38 295 341
-0.027351998 0.64999998 -0.11510632 1.1983181e-38 296 341
-0.026172007 0.64899999 -0.11492924 1.2075736e-38 297 341
-0.025034092 0.64899999 -0.11492924 1.3087364e-38 298 341
-0.023896178 0.64899999 -0.11492924 1.317956e-38 299 341
-0.0227232 0.648 -0.11475215 1.3271757e-38 300 341
-0.02158704 0.648 -0.11475215 1.3456148e-38 301 341
-0.020450879 0.648 -0.11475215 1.3549771e-38 302 341
-0.019314719 0.648 -0.11475215 1.3641967e-38 303 341
-0.01817856 0.648 -0.11475215 1.3917123e-38 304 341
-0.0170424 0.648 -0.11475215 1.4009678e-38 305 341
-0.015881693 0.64700001 -0.11457507 1.3641984e-38 306 341
-0.014747286 0.64700001 -0.11457507 1.3826375e-38 307 341
-0.013612879 0.64700001 -0.11457507 1.4101886e-38 308 341
-0.012478473 0.64700001 -0.11457507 1.4101886e-38 309 341
-0.011326533 0.64600003 -0.11439799 1.4102592e-38 310 341
-0.01019388 0.64600003 -0.11439799 1.4102592e-38 311 341
-0.0090612266 0.64600003 -0.11439799 1.4377378e-38 312 341
-0.0079285735 0.64600003 -0.11439799 1.4377378e-38 313 341
-0.00679592 0.64600003 -0.11439799 1.4377734e-38 314 341
-0.0056632664 0.64600003 -0.11439799 1.4377734e-38 315 341
-0.0045306133 0.64600003 -0.11439799 1.4469204e-38 316 341
-0.00339796 0.64600003 -0.11439799 1.45614e-38 317 341
-0.0022688133 0.64700001 -0.11457507 1.4285889e-38 318 341
-0.0011326533 0.64600003 -0.11439799 1.4285889e-38 319 341
0 0.64600003 -0.11439799 1.4285536e-38 320 341
0.0011326533 0.64600003 -0.11439799 1.419334e-38 321 341
0.0022653067 0.64600003 -0.11439799 1.4192268e-38 322 341
0.00339796 0.64600003 -0.11439799 1.4192268e-38 323 341
0.0045306133 0.64600003 -0.11439799 1.4007873e-38 324 341
0.0056632664 0.64600003 -0.11439799 1.4007873e-38 325 341
0.00679592 0.64600003 -0.11439799 1.3824914e-38 326 341
0.0079285735 0.64600003 -0.11439799 1.3732718e-38 327 341
0.0090612266 0.64600003 -0.11439799 1.3824914e-38 328 341
0.01019388 0.64600003 -0.11439799 1.3732718e-38 329 341
0.011326533 0.64600003 -0.11439799 1.3823835e-38 330 341
0.012420613 0.64399999 -0.11404381 1.391603e-38 331 341
0.013549759 0.64399999 -0.11404381 1.3732718e-38 332 341
0.014678906 0.64399999 -0.11404381 1.3640522e-38 333 341
0.015808053 0.64399999 -0.11404381 1.3640166e-38 334 341
0.0169372 0.64399999 -0.11404381 1.3640166e-38 335 341
0.018066347 0.64399999 -0.11404381 1.3364658e-38 336 341
0.019195493 0.64399999 -0.11404381 1.3272463e-38 337 341
0.02032464 0.64399999 -0.11404381 1.3455775e-38 338 341
0.021453787 0.64399999 -0.11404381 1.3455775e-38 339 341
0.022582933 0.64399999 -0.11404381 1.3455052e-38 340 341
0.023785722 0.64600003 -0.11439799 1.3362856e-38 341 341
0.024918374 0.64600003 -0.11439799 1.3362859e-38 342 341
0.026051028 0.64600003 -0.11439799 1.3270305e-38 343 341
0.02718368 0.64600003 -0.11439799 1.2994444e-38 344 341
0.028316336 0.64600003 -0.11439799 1.2902248e-38 345 341
0.029448988 0.64600003 -0.11439799 1.2716768e-38 346 341
0.030581642 0.64600003 -0.11439799 1.2071399e-38 347 341
0.031763386 0.64700001 -0.11457507 1.1514625e-38 348 341
0.032897793 0.64700001 -0.11457507 1.1330234e-38 349 341
0.0340322 0.64700001 -0.11457507 1.1606843e-38 350 341
0.035166606 0.64700001 -0.11457507 1.1699039e-38 351 341
0.036301013 0.64700001 -0.11457507 1.1607572e-38 352 341
0.037493281 0.648 -0.11475215 1.1422822e-38 353 341
0.038689051 0.64899999 -0.11492924 1.1240581e-38 354 341
0.039826967 0.64899999 -0.11492924 1.1240581e-38 355 341
0.040964879 0.64899999 -0.11492924 1.1057988e-38 356 341
0.042102791 0.64899999 -0.11492924 1.0965792e-38 357 341
0.043240704 0.64899999 -0.11492924 1.12413e-38 358 341
0.044446997 0.64999998 -0.11510632 1.12413e-38 359 341
0.045586664 0.64999998 -0.11510632 1.0875392e-38 360 341
0.046726331 0.64999998 -0.11510632 1.0875392e-38 361 341
0.047865998 0.64999998 -0.11510632 1.1057985e-38 362 341
0.049005665 0.64999998 -0.11510632 1.1150181e-38 363 341
0.050145328 0.64999998 -0.11510632 1.1150184e-38 364 341
0.051284995 0.64999998 -0.11510632 1.1057988e-38 365 341
0.052585974 0.65200001 -0.1154605 1.0872891e-38 366 341
0.05381155 0.653 -0.11563759 1.0872891e-38 367 341
0.054956477 0.653 -0.11563759 1.0413361e-38 368 341
0.056187313 0.65399998 -0.11581468 1.0505557e-38 369 341
0.057421666 0.65499997 -0.11599176 1.0689941e-38 370 341
0.058570094 0.65499997 -0.11599176 1.0689941e-38 371 341
0.059718527 0.65499997 -0.11599176 1.0599178e-38 372 341
0.060866963 0.65499997 -0.11599176 1.0599178e-38 373 341
0.06220476 0.65700001 -0.11634594 1.0323317e-38 374 341
0.063356705 0.65700001 -0.11634594 1.0138925e-38 375 341
0.064508639 0.65700001 -0.11634594 9.862354e-39 376 341
0.066160277 0.662 -0.11723137 9.6779627e-39 377 341
0.067320988 0.662 -0.11723137 9.3088467e-39 378 341
0.068481691 0.662 -0.11723137 9.2166511e-39 379 341
-0.039285187 0.65899998 -0.11785555 1.3092117e-38 286 342
-0.038071878 0.65799999 -0.11767671 1.2354552e-38 287 342
-0.036862079 0.65700001 -0.11749788 1.2719697e-38 288 342
-0.035710141 0.65700001 -0.11749788 1.2074327e-38 289 342
-0.034452997 0.65499997 -0.11714019 1.216578e-38 290 342
-0.033253718 0.65399998 -0.11696136 1.2073585e-38 291 342
-0.03210704 0.65399998 -0.11696136 1.198067e-38 292 342
-0.030865679 0.65200001 -0.11660367 1.198067e-38 293 342
-0.029631332 0.64999998 -0.11624599 1.198067e-38 294 342
-0.028491667 0.64999998 -0.11624599 1.198067e-38 295 342
-0.027351998 0.64999998 -0.11624599 1.207286e-38 296 342
-0.026172007 0.64899999 -0.11606716 1.1980665e-38 297 342
-0.025034092 0.64899999 -0.11606716 1.1890623e-38 298 342
-0.023896178 0.64899999 -0.11606716 1.216685e-38 299 342
-0.022758266 0.64899999 -0.11606716 1.2351242e-38 300 342
-0.021620352 0.64899999 -0.11606716 1.216685e-38 301 342
-0.02048244 0.64899999 -0.11606716 1.2443794e-38 302 342
-0.019314719 0.648 -0.11588832 1.2535989e-38 303 342
-0.01817856 0.648 -0.11588832 1.281185e-38 304 342
-0.0170424 0.648 -0.11588832 1.2996242e-38 305 342
-0.015881693 0.64700001 -0.11570948 1.317991e-38 306 342
-0.014747286 0.64700001 -0.11570948 1.3456857e-38 307 342
-0.013612879 0.64700001 -0.11570948 1.3824207e-38 308 342
-0.012478473 0.64700001 -0.11570948 1.3824207e-38 309 342
-0.011326533 0.64600003 -0.11553065 1.3825279e-38 310 342
-0.01019388 0.64600003 -0.11553065 1.3917476e-38 311 342
-0.0090612266 0.64600003 -0.11553065 1.4193693e-38 312 342
-0.0079285735 0.64600003 -0.11553065 1.4193693e-38 313 342
-0.00679592 0.64600003 -0.11553065 1.4193326e-38 314 342
-0.0056632664 0.64600003 -0.11553065 1.4193326e-38 315 342
-0.0045306133 0.64600003 -0.11553065 1.428444e-38 316 342
-0.00339796 0.64600003 -0.11553065 1.4376636e-38 317 342
-0.0022653067 0.64600003 -0.11553065 1.4101496e-38 318 342
-0.0011326533 0.64600003 -0.11553065 1.3917106e-38 319 342
0 0.64600003 -0.11553065 1.3825282e-38 320 342
0.0011326533 0.64600003 -0.11553065 1.3732728e-38 321 342
0.0022653067 0.64600003 -0.11553065 1.400752e-38 322 342
0.00339796 0.64600003 -0.11553065 1.3915324e-38 323 342
0.0045306133 0.64600003 -0.11553065 1.3823484e-38 324 342
0.0056632664 0.64600003 -0.11553065 1.3823484e-38 325 342
0.00679592 0.64600003 -0.11553065 1.3456854e-38 326 342
0.0079285735 0.64600003 -0.11553065 1.3364658e-38 327 342
0.0090612266 0.64600003 -0.11553065 1.3364656e-38 328 342
0.01019388 0.64600003 -0.11553065 1.3364656e-38 329 342
0.011326533 0.64600003 -0.11553065 1.3455771e-38 330 342
0.012420613 0.64399999 -0.11517295 1.3547968e-38 331 342
0.013549759 0.64399999 -0.11517295 1.363945e-38 332 342
0.014656113 0.64300001 -0.11499412 1.3547255e-38 333 342
0.015783506 0.64300001 -0.11499412 1.3272107e-38 334 342
0.016910899 0.64300001 -0.11499412 1.3272107e-38 335 342
0.018038293 0.64300001 -0.11499412 1.3179907e-38 336 342
0.019195493 0.64399999 -0.11517295 1.3087711e-38 337 342
0.02032464 0.64399999 -0.11517295 1.3087349e-38 338 342
0.021520413 0.64600003 -0.11553065 1.3087349e-38 339 342
0.022653066 0.64600003 -0.11553065 1.3178462e-38 340 342
0.023785722 0.64600003 -0.11553065 1.2902234e-38 341 342
0.024918374 0.64600003 -0.11553065 1.2993348e-38 342 342
0.026051028 0.64600003 -0.11553065 1.2993348e-38 343 342
0.02718368 0.64600003 -0.11553065 1.2716771e-38 344 342
0.028316336 0.64600003 -0.11553065 1.2624575e-38 345 342
0.029448988 0.64600003 -0.11553065 1.207212e-38 346 342
0.030581642 0.64600003 -0.11553065 1.188737e-38 347 342
0.031763386 0.64700001 -0.11570948 1.1976685e-38 348 342
0.032897793 0.64700001 -0.11570948 1.1792294e-38 349 342
0.0340322 0.64700001 -0.11570948 1.1241285e-38 350 342
0.035166606 0.64700001 -0.11570948 1.1333481e-38 351 342
0.036301013 0.64700001 -0.11570948 1.1241288e-38 352 342
0.037493281 0.648 -0.11588832 1.1241288e-38 353 342
0.038689051 0.64899999 -0.11606716 1.0965777e-38 354 342
0.039826967 0.64899999 -0.11606716 1.1057973e-38 355 342
0.041027997 0.64999998 -0.11624599 1.1057973e-38 356 342
0.042167664 0.64999998 -0.11624599 1.1242004e-38 357 342
0.04330733 0.64999998 -0.11624599 1.1058336e-38 358 342
0.044446997 0.64999998 -0.11624599 1.1058336e-38 359 342
0.045586664 0.64999998 -0.11624599 1.1059057e-38 360 342
0.046726331 0.64999998 -0.11624599 1.1059057e-38 361 342
0.048013281 0.65200001 -0.11660367 1.1150184e-38 362 342
0.049156453 0.65200001 -0.11660367 1.1150184e-38 363 342
0.050299626 0.65200001 -0.11660367 1.1057635e-38 364 342
0.051442798 0.65200001 -0.11660367 1.0873244e-38 365 342
0.052585974 0.65200001 -0.11660367 1.0779622e-38 366 342
0.05381155 0.653 -0.11678252 1.0687426e-38 367 342
0.055040635 0.65399998 -0.11696136 1.041049e-38 368 342
0.056187313 0.65399998 -0.11696136 1.0687076e-38 369 342
0.057421666 0.65499997 -0.11714019 1.0504479e-38 370 342
0.058570094 0.65499997 -0.11714019 1.0596676e-38 371 342
0.059718527 0.65499997 -0.11714019 1.041408e-38 372 342
0.060866963 0.65499997 -0.11714019 1.0321885e-38 373 342
0.06220476 0.65700001 -0.11749788 9.862354e-39 374 342
0.063356705 0.65700001 -0.11749788 9.6779627e-39 375 342
-0.038129739 0.65899998 -0.119011 1.2814104e-38 287 343
-0.036862079 0.65700001 -0.11864981 1.3178895e-38 288 343
-0.035710141 0.65700001 -0.11864981 1.262608e-38 289 343
-0.034452997 0.65499997 -0.11828862 1.2165427e-38 290 343
-0.033304565 0.65499997 -0.11828862 1.1797005e-38 291 343
-0.03210704 0.65399998 -0.11810803 1.1979598e-38 292 343
-0.030865679 0.65200001 -0.11774684 1.1794847e-38 293 343
