# .PCD v.7 - Point Cloud Data file format
FIELDS x y z rgb imX imY
SIZE 4 4 4 4 4 4
TYPE F F F F F F
COUNT 1 1 1 1 1 1
WIDTH 843
HEIGHT 1
VIEWPOINT 0 0 0 1 0 0 0
POINTS 843
DATA ascii
0.071925238 0.77399999 -0.020356199 1.7785375e-38 373 255
0.073282316 0.77399999 -0.020356199 1.7602426e-38 374 255
0.074542962 0.773 -0.0203299 1.7694623e-38 375 255
0.075898297 0.773 -0.0203299 1.7787172e-38 376 255
0.077053741 0.77100003 -0.020277301 1.7971922e-38 377 255
0.078405559 0.77100003 -0.020277301 1.8339979e-38 378 255
0.079757385 0.77100003 -0.020277301 1.8339979e-38 379 255
0.081109203 0.77100003 -0.020277301 1.8248136e-38 380 255
0.082247108 0.76899999 -0.0202247 1.8340332e-38 381 255
0.083595425 0.76899999 -0.0202247 1.7966136e-38 382 255
0.084943734 0.76899999 -0.0202247 1.5937832e-38 383 255
0.086292051 0.76899999 -0.0202247 1.4737491e-38 384 255
0.087640367 0.76899999 -0.0202247 1.3999926e-38 385 255
0.088988677 0.76899999 -0.0202247 1.2621351e-38 386 255
0.090336986 0.76899999 -0.0202247 1.3819894e-38 387 255
0.091685303 0.76899999 -0.0202247 1.4745836e-38 388 255
0.093033619 0.76899999 -0.0202247 1.6036575e-38 389 255
0.094381928 0.76899999 -0.0202247 1.7141105e-38 390 255
0.095730245 0.76899999 -0.0202247 1.7048909e-38 391 255
0.097078554 0.76899999 -0.0202247 1.6865214e-38 392 255
0.098426871 0.76899999 -0.0202247 1.695741e-38 393 255
0.09977518 0.76899999 -0.0202247 1.6864864e-38 394 255
0.1011235 0.76899999 -0.0202247 1.6864864e-38 395 255
0.10247181 0.76899999 -0.0202247 1.6774505e-38 396 255
-0.054283198 0.77399999 -0.021713279 1.8706944e-38 280 256
-0.052926116 0.77399999 -0.021713279 1.9167563e-38 281 256
-0.051569037 0.77399999 -0.021713279 1.9628875e-38 282 256
-0.050211959 0.77399999 -0.021713279 1.9813625e-38 283 256
-0.04885488 0.77399999 -0.021713279 1.9628877e-38 284 256
-0.047497798 0.77399999 -0.021713279 1.9352651e-38 285 256
-0.046140719 0.77399999 -0.021713279 1.9165748e-38 286 256
-0.044783637 0.77399999 -0.021713279 1.7967205e-38 287 256
-0.043426558 0.77399999 -0.021713279 1.7599148e-38 288 256
-0.042069476 0.77399999 -0.021713279 1.7599148e-38 289 256
-0.040712398 0.77399999 -0.021713279 1.7876105e-38 290 256
-0.039355319 0.77399999 -0.021713279 1.8244886e-38 291 256
-0.037998237 0.77399999 -0.021713279 1.815412e-38 292 256
-0.036641158 0.77399999 -0.021713279 1.8246316e-38 293 256
-0.03528408 0.77399999 -0.021713279 1.8707281e-38 294 256
-0.033927001 0.77399999 -0.021713279 1.8614727e-38 295 256
-0.032569919 0.77399999 -0.021713279 1.8246672e-38 296 256
-0.031212838 0.77399999 -0.021713279 1.8154476e-38 297 256
-0.029855758 0.77399999 -0.021713279 1.796936e-38 298 256
-0.028498679 0.77399999 -0.021713279 1.7692413e-38 299 256
-0.027141599 0.77399999 -0.021713279 1.7415458e-38 300 256
-0.025784519 0.77399999 -0.021713279 1.7047034e-38 301 256
-0.024490559 0.77600002 -0.021769386 1.6587125e-38 302 256
-0.023129974 0.77600002 -0.021769386 1.6310538e-38 303 256
-0.021769386 0.77600002 -0.021769386 1.5942829e-38 304 256
-0.0204088 0.77600002 -0.021769386 1.5666601e-38 305 256
-0.019048214 0.77600002 -0.021769386 1.5481519e-38 306 256
-0.017778799 0.77999997 -0.021881599 1.5573714e-38 307 256
-0.016411198 0.77999997 -0.021881599 1.5204954e-38 308 256
-0.0150436 0.77999997 -0.021881599 1.4928369e-38 309 256
-0.013693534 0.78100002 -0.021909652 1.4836542e-38 310 256
-0.01232418 0.78100002 -0.021909652 1.4744346e-38 311 256
-0.010954826 0.78100002 -0.021909652 1.4560328e-38 312 256
-0.0095854728 0.78100002 -0.021909652 1.4283739e-38 313 256
-0.0082161194 0.78100002 -0.021909652 1.4192271e-38 314 256
-0.0068467669 0.78100002 -0.021909652 1.400752e-38 315 256
-0.0054914397 0.78299999 -0.021965759 1.4007876e-38 316 256
-0.0041185799 0.78299999 -0.021965759 1.391568e-38 317 256
-0.0027457199 0.78299999 -0.021965759 1.391568e-38 318 256
-0.0013728599 0.78299999 -0.021965759 1.3823484e-38 319 256
0 0.78299999 -0.021965759 1.3915677e-38 320 256
0.0013728599 0.78299999 -0.021965759 1.3915677e-38 321 256
0.0027457199 0.78299999 -0.021965759 1.3732009e-38 322 256
0.0041185799 0.78299999 -0.021965759 1.3732009e-38 323 256
0.0055054668 0.78500003 -0.022021867 1.3823128e-38 324 256
0.0068818335 0.78500003 -0.022021867 1.3823128e-38 325 256
0.0082582003 0.78500003 -0.022021867 1.3547264e-38 326 256
0.0096345674 0.78500003 -0.022021867 1.3547264e-38 327 256
0.011038986 0.787 -0.022077972 1.3272475e-38 328 256
0.01241886 0.787 -0.022077972 1.3272475e-38 329 256
0.013798732 0.787 -0.022077972 1.3271034e-38 330 256
0.015178605 0.787 -0.022077972 1.3271034e-38 331 256
0.01655848 0.787 -0.022077972 1.3271034e-38 332 256
0.017892767 0.78500003 -0.022021867 1.3271034e-38 333 256
0.019269135 0.78500003 -0.022021867 1.3271036e-38 334 256
0.020645501 0.78500003 -0.022021867 1.3271036e-38 335 256
0.022021867 0.78500003 -0.022021867 1.3179204e-38 336 256
0.023398234 0.78500003 -0.022021867 1.3179204e-38 337 256
0.0247746 0.78500003 -0.022021867 1.3179204e-38 338 256
0.026150968 0.78500003 -0.022021867 1.3179204e-38 339 256
0.027527334 0.78500003 -0.022021867 1.2995891e-38 340 256
0.02897734 0.787 -0.022077972 1.2995891e-38 341 256
0.030280067 0.78500003 -0.022021867 1.3179206e-38 342 256
0.031656433 0.78500003 -0.022021867 1.3179206e-38 343 256
0.033032801 0.78500003 -0.022021867 1.3088088e-38 344 256
0.034409165 0.78500003 -0.022021867 1.3088088e-38 345 256
0.035785533 0.78500003 -0.022021867 1.3272475e-38 346 256
0.037161902 0.78500003 -0.022021867 1.3364671e-38 347 256
0.038440078 0.78299999 -0.021965759 1.3456504e-38 348 256
0.039812941 0.78299999 -0.021965759 1.3456504e-38 349 256
0.0411858 0.78299999 -0.021965759 1.3823484e-38 350 256
0.042558655 0.78299999 -0.021965759 1.3823484e-38 351 256
0.043931518 0.78299999 -0.021965759 1.3639813e-38 352 256
0.04530438 0.78299999 -0.021965759 1.3639813e-38 353 256
0.046558015 0.78100002 -0.021909652 1.3456504e-38 354 256
0.047927368 0.78100002 -0.021909652 1.3364308e-38 355 256
0.049296722 0.78100002 -0.021909652 1.3547264e-38 356 256
0.050666075 0.78100002 -0.021909652 1.3547264e-38 357 256
0.052035429 0.78100002 -0.021909652 1.3638391e-38 358 256
0.053404782 0.78100002 -0.021909652 1.3638391e-38 359 256
0.054774135 0.78100002 -0.021909652 1.3639466e-38 360 256
0.056071598 0.77999997 -0.021881599 1.354727e-38 361 256
0.057439197 0.77999997 -0.021881599 1.3639448e-38 362 256
0.058656007 0.778 -0.021825492 1.3915674e-38 363 256
0.0600201 0.778 -0.021825492 1.4008576e-38 364 256
0.061226401 0.77600002 -0.021769386 1.4008576e-38 365 256
0.062586986 0.77600002 -0.021769386 1.3641967e-38 366 256
0.063947573 0.77600002 -0.021769386 1.4195141e-38 367 256
0.065308161 0.77600002 -0.021769386 1.4562493e-38 368 256
0.066668749 0.77600002 -0.021769386 1.5023469e-38 369 256
0.067854002 0.77399999 -0.021713279 1.5484805e-38 370 256
0.069211073 0.77399999 -0.021713279 1.5945783e-38 371 256
0.070568159 0.77399999 -0.021713279 1.6405688e-38 372 256
0.071832314 0.773 -0.021685226 1.6681915e-38 373 256
0.073187642 0.773 -0.021685226 1.6957787e-38 374 256
0.074542962 0.773 -0.021685226 1.7234372e-38 375 256
0.075701922 0.77100003 -0.021629119 1.7602076e-38 376 256
0.077053741 0.77100003 -0.021629119 1.7786468e-38 377 256
0.078202173 0.76899999 -0.021573013 1.7880089e-38 378 256
0.079550482 0.76899999 -0.021573013 1.7880089e-38 379 256
0.080898799 0.76899999 -0.021573013 1.8156306e-38 380 256
0.082247108 0.76899999 -0.021573013 1.8156306e-38 381 256
0.083595425 0.76899999 -0.021573013 1.852076e-38 382 256
0.084722824 0.76700002 -0.021516906 1.7137826e-38 383 256
0.086067624 0.76700002 -0.021516906 1.5751276e-38 384 256
0.087640367 0.76899999 -0.021573013 1.3907363e-38 385 256
0.088988677 0.76899999 -0.021573013 1.2157111e-38 386 256
0.090336986 0.76899999 -0.021573013 1.2525893e-38 387 256
0.091685303 0.76899999 -0.021573013 1.2625687e-38 388 256
0.093033619 0.76899999 -0.021573013 1.465399e-38 389 256
0.094381928 0.76899999 -0.021573013 1.6588299e-38 390 256
0.095730245 0.76899999 -0.021573013 1.7141114e-38 391 256
0.097078554 0.76899999 -0.021573013 1.6865941e-38 392 256
0.098426871 0.76899999 -0.021573013 1.6773744e-38 393 256
0.09977518 0.76899999 -0.021573013 1.6865211e-38 394 256
0.1011235 0.76899999 -0.021573013 1.6865211e-38 395 256
0.10247181 0.76899999 -0.021573013 1.6681215e-38 396 256
0.1034151 0.76599997 -0.021488851 1.6957802e-38 397 256
0.10475815 0.76599997 -0.021488851 1.7325904e-38 398 256
-0.055784054 0.77600002 -0.023129974 1.8614784e-38 279 257
-0.054283198 0.77399999 -0.02307036 1.9168294e-38 280 257
-0.052926116 0.77399999 -0.02307036 1.926049e-38 281 257
-0.051569037 0.77399999 -0.02307036 1.9537055e-38 282 257
-0.050211959 0.77399999 -0.02307036 1.9537055e-38 283 257
-0.04885488 0.77399999 -0.02307036 1.9628527e-38 284 257
-0.047497798 0.77399999 -0.02307036 1.9259746e-38 285 257
-0.046081103 0.773 -0.023040552 1.8890962e-38 286 257
-0.044725779 0.773 -0.023040552 1.8061203e-38 287 257
-0.043370452 0.773 -0.023040552 1.8244871e-38 288 257
-0.042015124 0.773 -0.023040552 1.8337067e-38 289 257
-0.0406598 0.773 -0.023040552 1.8154842e-38 290 257
-0.039304473 0.773 -0.023040552 1.8339234e-38 291 257
-0.037998237 0.77399999 -0.02307036 1.8429628e-38 292 257
-0.036641158 0.77399999 -0.02307036 1.8429628e-38 293 257
-0.03528408 0.77399999 -0.02307036 1.8521811e-38 294 257
-0.033927001 0.77399999 -0.02307036 1.833742e-38 295 257
-0.032569919 0.77399999 -0.02307036 1.7876444e-38 296 257
-0.031212838 0.77399999 -0.02307036 1.7599499e-38 297 257
-0.029855758 0.77399999 -0.02307036 1.6954848e-38 298 257
-0.028498679 0.77399999 -0.02307036 1.6494229e-38 299 257
-0.027141599 0.77399999 -0.02307036 1.6309113e-38 300 257
-0.025784519 0.77399999 -0.02307036 1.6216917e-38 301 257
-0.02442744 0.77399999 -0.02307036 1.5757008e-38 302 257
-0.02307036 0.77399999 -0.02307036 1.5388586e-38 303 257
-0.021769386 0.77600002 -0.023129974 1.4837946e-38 304 257
-0.0204088 0.77600002 -0.023129974 1.4837946e-38 305 257
-0.019048214 0.77600002 -0.023129974 1.465323e-38 306 257
-0.017778799 0.77999997 -0.023249198 1.4745425e-38 307 257
-0.016411198 0.77999997 -0.023249198 1.4560328e-38 308 257
-0.0150436 0.77999997 -0.023249198 1.4468132e-38 309 257
-0.013675999 0.77999997 -0.023249198 1.4283739e-38 310 257
-0.01232418 0.78100002 -0.023279008 1.4283739e-38 311 257
-0.010954826 0.78100002 -0.023279008 1.4099349e-38 312 257
-0.0095854728 0.78100002 -0.023279008 1.4099349e-38 313 257
-0.0082161194 0.78100002 -0.023279008 1.3915677e-38 314 257
-0.0068467669 0.78100002 -0.023279008 1.3915677e-38 315 257
-0.0054914397 0.78299999 -0.02333862 1.3732365e-38 316 257
-0.0041185799 0.78299999 -0.02333862 1.3640169e-38 317 257
-0.0027457199 0.78299999 -0.02333862 1.3639094e-38 318 257
-0.0013728599 0.78299999 -0.02333862 1.3639094e-38 319 257
0 0.78299999 -0.02333862 1.3639094e-38 320 257
0.0013728599 0.78299999 -0.02333862 1.3823484e-38 321 257
0.0027457199 0.78299999 -0.02333862 1.3456504e-38 322 257
0.0041291001 0.78500003 -0.023398234 1.3640535e-38 323 257
0.0055054668 0.78500003 -0.023398234 1.354762e-38 324 257
0.0068818335 0.78500003 -0.023398234 1.354762e-38 325 257
0.0082582003 0.78500003 -0.023398234 1.3364305e-38 326 257
0.0096345674 0.78500003 -0.023398234 1.327211e-38 327 257
0.011038986 0.787 -0.023457846 1.327211e-38 328 257
0.01241886 0.787 -0.023457846 1.327211e-38 329 257
0.013763667 0.78500003 -0.023398234 1.3179557e-38 330 257
0.015140033 0.78500003 -0.023398234 1.3087361e-38 331 257
0.016516401 0.78500003 -0.023398234 1.3179557e-38 332 257
0.017892767 0.78500003 -0.023398234 1.3179557e-38 333 257
0.019269135 0.78500003 -0.023398234 1.317956e-38 334 257
0.020645501 0.78500003 -0.023398234 1.317956e-38 335 257
0.022021867 0.78500003 -0.023398234 1.3087008e-38 336 257
0.023398234 0.78500003 -0.023398234 1.3087008e-38 337 257
0.0247746 0.78500003 -0.023398234 1.3087008e-38 338 257
0.026150968 0.78500003 -0.023398234 1.3179204e-38 339 257
0.027527334 0.78500003 -0.023398234 1.2995897e-38 340 257
0.02897734 0.787 -0.023457846 1.2995897e-38 341 257
0.030280067 0.78500003 -0.023398234 1.2995897e-38 342 257
0.031656433 0.78500003 -0.023398234 1.2995897e-38 343 257
0.033032801 0.78500003 -0.023398234 1.3088088e-38 344 257
0.034496833 0.787 -0.023457846 1.3088088e-38 345 257
0.035785533 0.78500003 -0.023398234 1.3272475e-38 346 257
0.037161902 0.78500003 -0.023398234 1.3088444e-38 347 257
0.03853827 0.78500003 -0.023398234 1.3271754e-38 348 257
0.039812941 0.78299999 -0.02333862 1.3364308e-38 349 257
0.0411858 0.78299999 -0.02333862 1.3364305e-38 350 257
0.042558655 0.78299999 -0.02333862 1.3364305e-38 351 257
0.043931518 0.78299999 -0.02333862 1.3364658e-38 352 257
0.04530438 0.78299999 -0.02333862 1.3364658e-38 353 257
0.046677239 0.78299999 -0.02333862 1.3364303e-38 354 257
0.047927368 0.78100002 -0.023279008 1.3272107e-38 355 257
0.049296722 0.78100002 -0.023279008 1.327211e-38 356 257
0.050666075 0.78100002 -0.023279008 1.3179913e-38 357 257
0.052035429 0.78100002 -0.023279008 1.3178838e-38 358 257
0.053404782 0.78100002 -0.023279008 1.3271034e-38 359 257
0.054703996 0.77999997 -0.023249198 1.3271036e-38 360 257
0.056071598 0.77999997 -0.023249198 1.3271036e-38 361 257
0.057291918 0.778 -0.023189586 1.3455069e-38 362 257
0.058656007 0.778 -0.023189586 1.3547264e-38 363 257
0.059865814 0.77600002 -0.023129974 1.3639816e-38 364 257
0.061226401 0.77600002 -0.023129974 1.354762e-38 365 257
0.062586986 0.77600002 -0.023129974 1.3363955e-38 366 257
0.063947573 0.77600002 -0.023129974 1.3732377e-38 367 257
0.065308161 0.77600002 -0.023129974 1.3917492e-38 368 257
0.066496916 0.77399999 -0.02307036 1.3917492e-38 369 257
0.067854002 0.77399999 -0.02307036 1.4194435e-38 370 257
0.069211073 0.77399999 -0.02307036 1.4839804e-38 371 257
0.070476986 0.773 -0.023040552 1.5485176e-38 372 257
0.071832314 0.773 -0.023040552 1.5945796e-38 373 257
0.073187642 0.773 -0.023040552 1.6314211e-38 374 257
0.074350104 0.77100003 -0.02298094 1.6498602e-38 375 257
0.07550554 0.76899999 -0.022921326 1.7141455e-38 376 257
0.076853856 0.76899999 -0.022921326 1.7509877e-38 377 257
0.078202173 0.76899999 -0.022921326 1.7419481e-38 378 257
0.079550482 0.76899999 -0.022921326 1.7511677e-38 379 257
0.080898799 0.76899999 -0.022921326 1.778754e-38 380 257
0.082247108 0.76899999 -0.022921326 1.7879736e-38 381 257
0.083378009 0.76700002 -0.022861714 1.8706609e-38 382 257
0.084722824 0.76700002 -0.022861714 1.8061239e-38 383 257
0.086067624 0.76700002 -0.022861714 1.7226772e-38 384 257
0.087640367 0.76899999 -0.022921326 1.4737491e-38 385 257
0.088988677 0.76899999 -0.022921326 1.2799218e-38 386 257
0.090336986 0.76899999 -0.022921326 1.1784718e-38 387 257
0.091446854 0.76700002 -0.022861714 1.1146937e-38 388 257
0.092791654 0.76700002 -0.022861714 1.3267436e-38 389 257
0.094136469 0.76700002 -0.022861714 1.5022062e-38 390 257
0.095481269 0.76700002 -0.022861714 1.6497194e-38 391 257
0.096826084 0.76700002 -0.022861714 1.7326215e-38 392 257
0.098170884 0.76700002 -0.022861714 1.6865238e-38 393 257
0.09977518 0.76899999 -0.022921326 1.6957413e-38 394 257
0.1008605 0.76700002 -0.022861714 1.704961e-38 395 257
0.10207205 0.76599997 -0.022831906 1.6864514e-38 396 257
0.1034151 0.76599997 -0.022831906 1.6956711e-38 397 257
0.10475815 0.76599997 -0.022831906 1.7235856e-38 398 257
0.1061012 0.76599997 -0.022831906 1.778903e-38 399 257
-0.059711516 0.77399999 -0.02442744 1.7787919e-38 276 258
-0.058354434 0.77399999 -0.02442744 1.7511332e-38 277 258
-0.057144642 0.77600002 -0.024490559 1.8430373e-38 278 258
-0.055784054 0.77600002 -0.024490559 1.8891352e-38 279 258
-0.054283198 0.77399999 -0.02442744 1.9259764e-38 280 258
-0.052857738 0.773 -0.024395877 1.935196e-38 281 258
-0.051502414 0.773 -0.024395877 1.9628174e-38 282 258
-0.050147086 0.773 -0.024395877 1.9628174e-38 283 258
-0.048791755 0.773 -0.024395877 1.9535259e-38 284 258
-0.047436431 0.773 -0.024395877 1.9350509e-38 285 258
-0.045961879 0.77100003 -0.02433276 1.8706578e-38 286 258
-0.044610061 0.77100003 -0.02433276 1.8429631e-38 287 258
-0.043370452 0.773 -0.024395877 1.824559e-38 288 258
-0.042015124 0.773 -0.024395877 1.824559e-38 289 258
-0.0406598 0.773 -0.024395877 1.8062278e-38 290 258
-0.039304473 0.773 -0.024395877 1.7970082e-38 291 258
-0.037949149 0.773 -0.024395877 1.7783893e-38 292 258
-0.036593821 0.773 -0.024395877 1.7507306e-38 293 258
-0.035238493 0.773 -0.024395877 1.7138504e-38 294 258
-0.033927001 0.77399999 -0.02442744 1.6769721e-38 295 258
-0.032569919 0.77399999 -0.02442744 1.6125072e-38 296 258
-0.031212838 0.77399999 -0.02442744 1.6032875e-38 297 258
-0.029855758 0.77399999 -0.02442744 1.5572993e-38 298 258
-0.028498679 0.77399999 -0.02442744 1.5480797e-38 299 258
-0.027141599 0.77399999 -0.02442744 1.5296053e-38 300 258
-0.025784519 0.77399999 -0.02442744 1.5296053e-38 301 258
-0.02442744 0.77399999 -0.02442744 1.5204583e-38 302 258
-0.02307036 0.77399999 -0.02442744 1.5112387e-38 303 258
-0.021769386 0.77600002 -0.024490559 1.4744696e-38 304 258
-0.0204088 0.77600002 -0.024490559 1.4652501e-38 305 258
-0.019048214 0.77600002 -0.024490559 1.4651795e-38 306 258
-0.017778799 0.77999997 -0.024616797 1.4467762e-38 307 258
-0.016411198 0.77999997 -0.024616797 1.419262e-38 308 258
-0.0150436 0.77999997 -0.024616797 1.4100424e-38 309 258
-0.013675999 0.77999997 -0.024616797 1.3915674e-38 310 258
-0.01232418 0.78100002 -0.024648361 1.3915674e-38 311 258
-0.010954826 0.78100002 -0.024648361 1.3914958e-38 312 258
-0.0095854728 0.78100002 -0.024648361 1.3914958e-38 313 258
-0.0082161194 0.78100002 -0.024648361 1.3640169e-38 314 258
-0.0068467669 0.78100002 -0.024648361 1.3640169e-38 315 258
-0.0054914397 0.78299999 -0.024711479 1.3823479e-38 316 258
-0.0041185799 0.78299999 -0.024711479 1.3639448e-38 317 258
-0.0027457199 0.78299999 -0.024711479 1.3547974e-38 318 258
-0.0013728599 0.78299999 -0.024711479 1.3547974e-38 319 258
0 0.78299999 -0.024711479 1.3547618e-38 320 258
0.0013728599 0.78299999 -0.024711479 1.3547618e-38 321 258
0.0027527334 0.78500003 -0.0247746 1.3364305e-38 322 258
0.0041291001 0.78500003 -0.0247746 1.3364305e-38 323 258
0.0055054668 0.78500003 -0.0247746 1.3547618e-38 324 258
0.0068818335 0.78500003 -0.0247746 1.3547618e-38 325 258
0.0082582003 0.78500003 -0.0247746 1.3455419e-38 326 258
0.0096591124 0.787 -0.024837719 1.3455419e-38 327 258
0.011038986 0.787 -0.024837719 1.3271387e-38 328 258
0.01241886 0.787 -0.024837719 1.3271387e-38 329 258
0.013763667 0.78500003 -0.0247746 1.3179191e-38 330 258
0.015140033 0.78500003 -0.0247746 1.3086995e-38 331 258
0.016516401 0.78500003 -0.0247746 1.3179194e-38 332 258
0.017892767 0.78500003 -0.0247746 1.3179194e-38 333 258
0.019269135 0.78500003 -0.0247746 1.3179194e-38 334 258
0.020645501 0.78500003 -0.0247746 1.3179194e-38 335 258
0.022021867 0.78500003 -0.0247746 1.3086998e-38 336 258
0.023398234 0.78500003 -0.0247746 1.3086998e-38 337 258
0.0247746 0.78500003 -0.0247746 1.3086642e-38 338 258
0.026217593 0.787 -0.024837719 1.3178838e-38 339 258
0.027597465 0.787 -0.024837719 1.3087008e-38 340 258
0.02897734 0.787 -0.024837719 1.3087008e-38 341 258
0.03035721 0.787 -0.024837719 1.3087008e-38 342 258
0.031656433 0.78500003 -0.0247746 1.3087008e-38 343 258
0.033032801 0.78500003 -0.0247746 1.3179913e-38 344 258
0.034496833 0.787 -0.024837719 1.327211e-38 345 258
0.035785533 0.78500003 -0.0247746 1.3272107e-38 346 258
0.037161902 0.78500003 -0.0247746 1.3364303e-38 347 258
0.03853827 0.78500003 -0.0247746 1.3364303e-38 348 258
0.039812941 0.78299999 -0.024711479 1.3272107e-38 349 258
0.0411858 0.78299999 -0.024711479 1.3272463e-38 350 258
0.042558655 0.78299999 -0.024711479 1.3364658e-38 351 258
0.043931518 0.78299999 -0.024711479 1.3364656e-38 352 258
0.04530438 0.78299999 -0.024711479 1.3272459e-38 353 258
0.046677239 0.78299999 -0.024711479 1.3455775e-38 354 258
0.048050098 0.78299999 -0.024711479 1.3271743e-38 355 258
0.049422957 0.78299999 -0.024711479 1.3271387e-38 356 258
0.050666075 0.78100002 -0.024648361 1.3179191e-38 357 258
0.052035429 0.78100002 -0.024648361 1.3086998e-38 358 258
0.053404782 0.78100002 -0.024648361 1.3179194e-38 359 258
0.054703996 0.77999997 -0.024616797 1.3087361e-38 360 258
0.056071598 0.77999997 -0.024616797 1.3087361e-38 361 258
0.057291918 0.778 -0.024553679 1.3087364e-38 362 258
0.058656007 0.778 -0.024553679 1.317956e-38 363 258
0.059865814 0.77600002 -0.024490559 1.327211e-38 364 258
0.061226401 0.77600002 -0.024490559 1.327211e-38 365 258
0.062586986 0.77600002 -0.024490559 1.3455419e-38 366 258
0.063947573 0.77600002 -0.024490559 1.3640169e-38 367 258
0.065308161 0.77600002 -0.024490559 1.3732012e-38 368 258
0.066496916 0.77399999 -0.02442744 1.3732012e-38 369 258
0.067854002 0.77399999 -0.02442744 1.3456148e-38 370 258
0.069211073 0.77399999 -0.02442744 1.3917126e-38 371 258
0.070476986 0.773 -0.024395877 1.4102236e-38 372 258
0.071832314 0.773 -0.024395877 1.4839801e-38 373 258
0.073187642 0.773 -0.024395877 1.5577372e-38 374 258
0.074350104 0.77100003 -0.02433276 1.6037991e-38 375 258
0.07550554 0.76899999 -0.024269639 1.6498251e-38 376 258
0.076853856 0.76899999 -0.024269639 1.6683001e-38 377 258
0.078202173 0.76899999 -0.024269639 1.7234369e-38 378 258
0.079550482 0.76899999 -0.024269639 1.7234369e-38 379 258
0.080898799 0.76899999 -0.024269639 1.7511311e-38 380 258
0.08203321 0.76700002 -0.024206521 1.7603506e-38 381 258
0.083378009 0.76700002 -0.024206521 1.797049e-38 382 258
0.084722824 0.76700002 -0.024206521 1.797049e-38 383 258
0.085955404 0.76599997 -0.024174958 1.8427129e-38 384 258
0.087070532 0.764 -0.024111839 1.6583217e-38 385 258
0.088410079 0.764 -0.024111839 1.4365818e-38 386 258
0.089984566 0.76599997 -0.024174958 1.2521913e-38 387 258
0.091089167 0.764 -0.024111839 1.1327347e-38 388 258
0.092428714 0.764 -0.024111839 1.2341498e-38 389 258
0.094013728 0.76599997 -0.024174958 1.2534936e-38 390 258
0.095107809 0.764 -0.024111839 1.4931663e-38 391 258
0.096447356 0.764 -0.024111839 1.6864888e-38 392 258
0.097786903 0.764 -0.024111839 1.7233669e-38 393 258
0.09938594 0.76599997 -0.024174958 1.6958137e-38 394 258
0.100466 0.764 -0.024111839 1.6958137e-38 395 258
0.10180555 0.764 -0.024111839 1.6773391e-38 396 258
0.10314509 0.764 -0.024111839 1.6681196e-38 397 258
0.10448463 0.764 -0.024111839 1.6223499e-38 398 258
0.10582418 0.764 -0.024111839 1.705362e-38 399 258
0.10744426 0.76599997 -0.024174958 1.8712821e-38 400 258
0.10878731 0.76599997 -0.024174958 1.7975256e-38 401 258
-0.06234502 0.773 -0.025751207 1.8711686e-38 274 259
-0.060989697 0.773 -0.025751207 1.6222405e-38 275 259
-0.059711516 0.77399999 -0.025784519 1.7786079e-38 276 259
-0.058354434 0.77399999 -0.025784519 1.8431448e-38 277 259
-0.056997359 0.77399999 -0.025784519 1.8798436e-38 278 259
-0.055640277 0.77399999 -0.025784519 1.8982828e-38 279 259
-0.054213066 0.773 -0.025751207 1.89839e-38 280 259
-0.052857738 0.773 -0.025751207 1.9168292e-38 281 259
-0.051502414 0.773 -0.025751207 1.9076452e-38 282 259
-0.050017338 0.77100003 -0.02568458 1.9076452e-38 283 259
-0.04866552 0.77100003 -0.02568458 1.8983532e-38 284 259
-0.047313701 0.77100003 -0.02568458 1.8799139e-38 285 259
-0.045961879 0.77100003 -0.02568458 1.8706575e-38 286 259
-0.044610061 0.77100003 -0.02568458 1.8337432e-38 287 259
-0.043258239 0.77100003 -0.02568458 1.8061556e-38 288 259
-0.04190642 0.77100003 -0.02568458 1.7784968e-38 289 259
-0.040554602 0.77100003 -0.02568458 1.7600218e-38 290 259
-0.039304473 0.773 -0.025751207 1.7231795e-38 291 259
-0.037949149 0.773 -0.025751207 1.7046328e-38 292 259
-0.036593821 0.773 -0.025751207 1.6769741e-38 293 259
-0.035238493 0.773 -0.025751207 1.6216917e-38 294 259
-0.033927001 0.77399999 -0.025784519 1.5755939e-38 295 259
-0.032569919 0.77399999 -0.025784519 1.5204207e-38 296 259
-0.031212838 0.77399999 -0.025784519 1.5204207e-38 297 259
-0.029855758 0.77399999 -0.025784519 1.4836892e-38 298 259
-0.028498679 0.77399999 -0.025784519 1.4744696e-38 299 259
-0.027141599 0.77399999 -0.025784519 1.4652879e-38 300 259
-0.025784519 0.77399999 -0.025784519 1.4468129e-38 301 259
-0.02442744 0.77399999 -0.025784519 1.4651441e-38 302 259
-0.02307036 0.77399999 -0.025784519 1.4467409e-38 303 259
-0.021713279 0.77399999 -0.025784519 1.4100424e-38 304 259
-0.0204088 0.77600002 -0.025851147 1.4100424e-38 305 259
-0.019048214 0.77600002 -0.025851147 1.4007873e-38 306 259
-0.017733213 0.778 -0.025917772 1.4007873e-38 307 259
-0.016411198 0.77999997 -0.025984399 1.3733084e-38 308 259
-0.0150436 0.77999997 -0.025984399 1.3733084e-38 309 259
-0.013675999 0.77999997 -0.025984399 1.3640169e-38 310 259
-0.01232418 0.78100002 -0.026017714 1.3640169e-38 311 259
-0.010954826 0.78100002 -0.026017714 1.3640169e-38 312 259
-0.0095854728 0.78100002 -0.026017714 1.3547974e-38 313 259
-0.0082161194 0.78100002 -0.026017714 1.3640166e-38 314 259
-0.0068467669 0.78100002 -0.026017714 1.3547971e-38 315 259
-0.0054914397 0.78299999 -0.026084339 1.3547971e-38 316 259
-0.0041185799 0.78299999 -0.026084339 1.3547971e-38 317 259
-0.0027457199 0.78299999 -0.026084339 1.3547974e-38 318 259
-0.0013728599 0.78299999 -0.026084339 1.3640169e-38 319 259
0 0.78299999 -0.026084339 1.3547974e-38 320 259
0.0013728599 0.78299999 -0.026084339 1.3547974e-38 321 259
0.0027527334 0.78500003 -0.026150968 1.3364308e-38 322 259
0.0041291001 0.78500003 -0.026150968 1.3364308e-38 323 259
0.005519493 0.787 -0.026217593 1.3547618e-38 324 259
0.0068993662 0.787 -0.026217593 1.3455422e-38 325 259
0.0082792398 0.787 -0.026217593 1.3455775e-38 326 259
0.0096591124 0.787 -0.026217593 1.3271743e-38 327 259
0.011038986 0.787 -0.026217593 1.3271743e-38 328 259
0.01241886 0.787 -0.026217593 1.3179188e-38 329 259
0.013798732 0.787 -0.026217593 1.3086998e-38 330 259
0.015178605 0.787 -0.026217593 1.2994444e-38 331 259
0.01655848 0.787 -0.026217593 1.2901901e-38 332 259
0.017892767 0.78500003 -0.026150968 1.2901901e-38 333 259
0.019269135 0.78500003 -0.026150968 1.2626403e-38 334 259
0.020645501 0.78500003 -0.026150968 1.2626403e-38 335 259
0.022021867 0.78500003 -0.026150968 1.2626756e-38 336 259
0.023398234 0.78500003 -0.026150968 1.2442725e-38 337 259
0.0247746 0.78500003 -0.026150968 1.2626753e-38 338 259
0.026217593 0.787 -0.026217593 1.2718949e-38 339 259
0.027597465 0.787 -0.026217593 1.2718951e-38 340 259
0.02897734 0.787 -0.026217593 1.2718951e-38 341 259
0.03035721 0.787 -0.026217593 1.2811503e-38 342 259
0.031737085 0.787 -0.026217593 1.2811503e-38 343 259
0.033116959 0.787 -0.026217593 1.2995168e-38 344 259
0.034496833 0.787 -0.026217593 1.3087364e-38 345 259
0.035876706 0.787 -0.026217593 1.317956e-38 346 259
0.037161902 0.78500003 -0.026150968 1.3271757e-38 347 259
0.03853827 0.78500003 -0.026150968 1.3271754e-38 348 259
0.039914634 0.78500003 -0.026150968 1.3271754e-38 349 259
0.041291002 0.78500003 -0.026150968 1.327211e-38 350 259
0.042667367 0.78500003 -0.026150968 1.3179913e-38 351 259
0.043931518 0.78299999 -0.026084339 1.3272107e-38 352 259
0.04530438 0.78299999 -0.026084339 1.317991e-38 353 259
0.046677239 0.78299999 -0.026084339 1.317991e-38 354 259
0.048050098 0.78299999 -0.026084339 1.3087714e-38 355 259
0.049422957 0.78299999 -0.026084339 1.3179194e-38 356 259
0.050666075 0.78100002 -0.026017714 1.3086998e-38 357 259
0.052035429 0.78100002 -0.026017714 1.2719302e-38 358 259
0.053404782 0.78100002 -0.026017714 1.2719302e-38 359 259
0.054774135 0.78100002 -0.026017714 1.2995168e-38 360 259
0.056071598 0.77999997 -0.025984399 1.3087364e-38 361 259
0.057439197 0.77999997 -0.025984399 1.2904049e-38 362 259
0.058656007 0.778 -0.025917772 1.2904049e-38 363 259
0.0600201 0.778 -0.025917772 1.2905121e-38 364 259
0.061384194 0.778 -0.025917772 1.2905121e-38 365 259
0.062586986 0.77600002 -0.025851147 1.3088795e-38 366 259
0.063947573 0.77600002 -0.025851147 1.3088795e-38 367 259
0.065308161 0.77600002 -0.025851147 1.3272478e-38 368 259
0.066496916 0.77399999 -0.025784519 1.3272478e-38 369 259
0.067854002 0.77399999 -0.025784519 1.3456153e-38 370 259
0.069211073 0.77399999 -0.025784519 1.373238e-38 371 259
0.070476986 0.773 -0.025751207 1.3456501e-38 372 259
0.071832314 0.773 -0.025751207 1.3732728e-38 373 259
0.072998285 0.77100003 -0.02568458 1.4564649e-38 374 259
0.074157231 0.76899999 -0.025617953 1.5117464e-38 375 259
0.07550554 0.76899999 -0.025617953 1.5669935e-38 376 259
0.076853856 0.76899999 -0.025617953 1.594688e-38 377 259
0.078202173 0.76899999 -0.025617953 1.6497177e-38 378 259
0.079343595 0.76700002 -0.025551327 1.6773764e-38 379 259
0.080688395 0.76700002 -0.025551327 1.7234016e-38 380 259
0.08203321 0.76700002 -0.025551327 1.7234016e-38 381 259
0.083269298 0.76599997 -0.025518013 1.714325e-38 382 259
0.084612355 0.76599997 -0.025518013 1.7419837e-38 383 259
0.085730985 0.764 -0.025451386 1.8337462e-38 384 259
0.087070532 0.764 -0.025451386 1.7968319e-38 385 259
0.088410079 0.764 -0.025451386 1.6396274e-38 386 259
0.089749627 0.764 -0.025451386 1.3630404e-38 387 259
0.091089167 0.764 -0.025451386 1.2247124e-38 388 259
0.092428714 0.764 -0.025451386 1.1970183e-38 389 259
0.093768261 0.764 -0.025451386 1.1150187e-38 390 259
0.09485884 0.76200002 -0.02538476 1.3731664e-38 391 259
0.096194878 0.76200002 -0.02538476 1.5667782e-38 392 259
0.097530924 0.76200002 -0.02538476 1.6682294e-38 393 259
0.099126451 0.764 -0.025451386 1.7416963e-38 394 259
0.100466 0.764 -0.025451386 1.7048539e-38 395 259
0.10180555 0.764 -0.025451386 1.6957059e-38 396 259
0.10287508 0.76200002 -0.02538476 1.6680833e-38 397 259
0.10421111 0.76200002 -0.02538476 1.5761432e-38 398 259
0.10554716 0.76200002 -0.02538476 1.6498997e-38 399 259
0.10716373 0.764 -0.025451386 1.7977775e-38 400 259
0.10878731 0.76599997 -0.025518013 1.8346918e-38 401 259
0.11013036 0.76599997 -0.025518013 1.815965e-38 402 259
-0.063782752 0.77399999 -0.027141599 1.6778863e-38 273 260
-0.06234502 0.773 -0.027106533 1.7143974e-38 274 260
-0.060989697 0.773 -0.027106533 1.6959224e-38 275 260
-0.059634373 0.773 -0.027106533 1.8522549e-38 276 260
-0.058279041 0.773 -0.027106533 1.8614745e-38 277 260
-0.056997359 0.77399999 -0.027141599 1.8982805e-38 278 260
-0.055568393 0.773 -0.027106533 1.9075e-38 279 260
-0.054213066 0.773 -0.027106533 1.9166477e-38 280 260
-0.052720979 0.77100003 -0.027036399 1.9166477e-38 281 260
-0.05136916 0.77100003 -0.027036399 1.9074284e-38 282 260
-0.050017338 0.77100003 -0.027036399 1.9074284e-38 283 260
-0.04866552 0.77100003 -0.027036399 1.8706944e-38 284 260
-0.047313701 0.77100003 -0.027036399 1.8706944e-38 285 260
-0.045961879 0.77100003 -0.027036399 1.8338869e-38 286 260
-0.044610061 0.77100003 -0.027036399 1.7324357e-38 287 260
-0.043258239 0.77100003 -0.027036399 1.7047031e-38 288 260
-0.04190642 0.77100003 -0.027036399 1.6217271e-38 289 260
-0.040554602 0.77100003 -0.027036399 1.5939961e-38 290 260
-0.039304473 0.773 -0.027106533 1.5847765e-38 291 260
-0.037949149 0.773 -0.027106533 1.5480434e-38 292 260
-0.036593821 0.773 -0.027106533 1.5295684e-38 293 260
-0.035238493 0.773 -0.027106533 1.4835796e-38 294 260
-0.033927001 0.77399999 -0.027141599 1.4835796e-38 295 260
-0.032569919 0.77399999 -0.027141599 1.4191879e-38 296 260
-0.031212838 0.77399999 -0.027141599 1.437627e-38 297 260
-0.029855758 0.77399999 -0.027141599 1.4468118e-38 298 260
-0.028498679 0.77399999 -0.027141599 1.4375564e-38 299 260
-0.027141599 0.77399999 -0.027141599 1.4558879e-38 300 260
-0.025784519 0.77399999 -0.027141599 1.4558879e-38 301 260
-0.02442744 0.77399999 -0.027141599 1.4375566e-38 302 260
-0.02307036 0.77399999 -0.027141599 1.4283371e-38 303 260
-0.021713279 0.77399999 -0.027141599 1.4099703e-38 304 260
-0.0204088 0.77600002 -0.027211733 1.4099703e-38 305 260
-0.019048214 0.77600002 -0.027211733 1.3915674e-38 306 260
-0.017733213 0.778 -0.027281865 1.3915674e-38 307 260
-0.016411198 0.77999997 -0.027351998 1.3732362e-38 308 260
-0.0150436 0.77999997 -0.027351998 1.3732362e-38 309 260
-0.013675999 0.77999997 -0.027351998 1.3823479e-38 310 260
-0.01232418 0.78100002 -0.027387068 1.3823479e-38 311 260
-0.010954826 0.78100002 -0.027387068 1.3640166e-38 312 260
-0.0095854728 0.78100002 -0.027387068 1.3640166e-38 313 260
-0.0082161194 0.78100002 -0.027387068 1.3547971e-38 314 260
-0.0068642995 0.78299999 -0.027457198 1.3547971e-38 315 260
-0.0054914397 0.78299999 -0.027457198 1.3547968e-38 316 260
-0.0041185799 0.78299999 -0.027457198 1.3547968e-38 317 260
-0.0027457199 0.78299999 -0.027457198 1.3547968e-38 318 260
-0.0013728599 0.78299999 -0.027457198 1.3455771e-38 319 260
0 0.78299999 -0.027457198 1.3455775e-38 320 260
0.0013763667 0.78500003 -0.027527334 1.3455775e-38 321 260
0.0027527334 0.78500003 -0.027527334 1.3455419e-38 322 260
0.0041291001 0.78500003 -0.027527334 1.3455419e-38 323 260
0.0055054668 0.78500003 -0.027527334 1.3730211e-38 324 260
0.0068993662 0.787 -0.027597465 1.3730211e-38 325 260
0.0082792398 0.787 -0.027597465 1.363837e-38 326 260
0.0096591124 0.787 -0.027597465 1.363837e-38 327 260
0.011038986 0.787 -0.027597465 1.336214e-38 328 260
0.01241886 0.787 -0.027597465 1.3269945e-38 329 260
0.013798732 0.787 -0.027597465 1.3176677e-38 330 260
0.015178605 0.787 -0.027597465 1.3084121e-38 331 260
0.01655848 0.787 -0.027597465 1.3174174e-38 332 260
0.017892767 0.78500003 -0.027527334 1.2897229e-38 333 260
0.019269135 0.78500003 -0.027527334 1.2897957e-38 334 260
0.020645501 0.78500003 -0.027527334 1.2805762e-38 335 260
0.022021867 0.78500003 -0.027527334 1.2806115e-38 336 260
0.023398234 0.78500003 -0.027527334 1.2898311e-38 337 260
0.0247746 0.78500003 -0.027527334 1.2624235e-38 338 260
0.026217593 0.787 -0.027597465 1.2808626e-38 339 260
0.027597465 0.787 -0.027597465 1.2901182e-38 340 260
0.02905098 0.78899997 -0.027667599 1.2901182e-38 341 260
0.03035721 0.787 -0.027597465 1.2901901e-38 342 260
0.031737085 0.787 -0.027597465 1.2994096e-38 343 260
0.033116959 0.787 -0.027597465 1.326996e-38 344 260
0.034496833 0.787 -0.027597465 1.3362156e-38 345 260
0.035876706 0.787 -0.027597465 1.345363e-38 346 260
0.037161902 0.78500003 -0.027527334 1.3637661e-38 347 260
0.03853827 0.78500003 -0.027527334 1.3178841e-38 348 260
0.039914634 0.78500003 -0.027527334 1.3271036e-38 349 260
0.041291002 0.78500003 -0.027527334 1.3179557e-38 350 260
0.042667367 0.78500003 -0.027527334 1.3179557e-38 351 260
0.044043735 0.78500003 -0.027527334 1.3271034e-38 352 260
0.045420099 0.78500003 -0.027527334 1.3271034e-38 353 260
0.046677239 0.78299999 -0.027457198 1.2904046e-38 354 260
0.048050098 0.78299999 -0.027457198 1.281185e-38 355 260
0.049422957 0.78299999 -0.027457198 1.2994444e-38 356 260
0.05079582 0.78299999 -0.027457198 1.2994444e-38 357 260
0.052035429 0.78100002 -0.027387068 1.2811134e-38 358 260
0.053404782 0.78100002 -0.027387068 1.2811134e-38 359 260
0.054774135 0.78100002 -0.027387068 1.2811134e-38 360 260
0.056071598 0.77999997 -0.027351998 1.2995166e-38 361 260
0.057439197 0.77999997 -0.027351998 1.2995163e-38 362 260
0.058806792 0.77999997 -0.027351998 1.2995163e-38 363 260
0.0600201 0.778 -0.027281865 1.2904402e-38 364 260
0.061384194 0.778 -0.027281865 1.2904402e-38 365 260
0.062748291 0.778 -0.027281865 1.3179907e-38 366 260
0.063947573 0.77600002 -0.027211733 1.3179907e-38 367 260
0.065308161 0.77600002 -0.027211733 1.327211e-38 368 260
0.066668749 0.77600002 -0.027211733 1.327211e-38 369 260
0.067854002 0.77399999 -0.027141599 1.3456857e-38 370 260
0.069211073 0.77399999 -0.027141599 1.3456857e-38 371 260
0.070476986 0.773 -0.027106533 1.4007154e-38 372 260
0.071646459 0.77100003 -0.027036399 1.4375936e-38 373 260
0.072998285 0.77100003 -0.027036399 1.3826728e-38 374 260
0.074157231 0.76899999 -0.026966266 1.4195151e-38 375 260
0.07550554 0.76899999 -0.026966266 1.4656139e-38 376 260
0.07665398 0.76700002 -0.026896132 1.5301508e-38 377 260
0.077998787 0.76700002 -0.026896132 1.6128742e-38 378 260
0.079343595 0.76700002 -0.026896132 1.6220938e-38 379 260
0.080688395 0.76700002 -0.026896132 1.6864861e-38 380 260
0.08203321 0.76700002 -0.026896132 1.6957057e-38 381 260
0.083269298 0.76599997 -0.026861066 1.7324764e-38 382 260
0.084391437 0.764 -0.026790932 1.7509514e-38 383 260
0.085506558 0.76200002 -0.0267208 1.7510586e-38 384 260
0.086842604 0.76200002 -0.0267208 1.7787175e-38 385 260
0.088178635 0.76200002 -0.0267208 1.8611521e-38 386 260
0.08951468 0.76200002 -0.0267208 1.630699e-38 387 260
0.090850718 0.76200002 -0.0267208 1.4182505e-38 388 260
0.092186764 0.76200002 -0.0267208 1.2338242e-38 389 260
0.093522795 0.76200002 -0.0267208 1.0132038e-38 390 260
0.09485884 0.76200002 -0.0267208 1.2436559e-38 391 260
0.096194878 0.76200002 -0.0267208 1.3642683e-38 392 260
0.097530924 0.76200002 -0.0267208 1.5578791e-38 393 260
0.098866954 0.76200002 -0.0267208 1.6956338e-38 394 260
0.100203 0.76200002 -0.0267208 1.6864142e-38 395 260
0.10153904 0.76200002 -0.0267208 1.6864145e-38 396 260
0.10287508 0.76200002 -0.0267208 1.6771949e-38 397 260
0.10421111 0.76200002 -0.0267208 1.6311717e-38 398 260
0.10554716 0.76200002 -0.0267208 1.6680139e-38 399 260
0.1068832 0.76200002 -0.0267208 1.5767225e-38 400 260
0.10850327 0.764 -0.026790932 1.7057964e-38 401 260
0.10984282 0.764 -0.026790932 1.8622794e-38 402 260
0.11045474 0.759 -0.026615599 1.806962e-38 403 260
-0.064887367 0.77100003 -0.028388219 1.8989724e-38 272 261
-0.063535534 0.77100003 -0.028388219 1.6408248e-38 273 261
-0.06234502 0.773 -0.028461859 1.7418022e-38 274 261
-0.060989697 0.773 -0.028461859 1.7970837e-38 275 261
-0.059634373 0.773 -0.028461859 1.8338165e-38 276 261
-0.058279041 0.773 -0.028461859 1.8614392e-38 277 261
-0.056923717 0.773 -0.028461859 1.8706944e-38 278 261
-0.055424623 0.77100003 -0.028388219 1.8706944e-38 279 261
-0.054072797 0.77100003 -0.028388219 1.8706593e-38 280 261
-0.052584216 0.76899999 -0.028314579 1.8706593e-38 281 261
-0.051235907 0.76899999 -0.028314579 1.8614039e-38 282 261
-0.04988759 0.76899999 -0.028314579 1.8521843e-38 283 261
-0.048539277 0.76899999 -0.028314579 1.806302e-38 284 261
-0.047313701 0.77100003 -0.028388219 1.7786432e-38 285 261
-0.045842651 0.76899999 -0.028314579 1.6774801e-38 286 261
-0.044494338 0.76899999 -0.028314579 1.5852486e-38 287 261
-0.043258239 0.77100003 -0.028388219 1.6125819e-38 288 261
-0.04190642 0.77100003 -0.028388219 1.5387895e-38 289 261
-0.040554602 0.77100003 -0.028388219 1.529605e-38 290 261
-0.03920278 0.77100003 -0.028388219 1.5203854e-38 291 261
-0.037850961 0.77100003 -0.028388219 1.4743975e-38 292 261
-0.036593821 0.773 -0.028461859 1.4743975e-38 293 261
-0.035238493 0.773 -0.028461859 1.4376285e-38 294 261
-0.033927001 0.77399999 -0.028498679 1.428409e-38 295 261
-0.032569919 0.77399999 -0.028498679 1.4100068e-38 296 261
-0.031212838 0.77399999 -0.028498679 1.4007873e-38 297 261
-0.029855758 0.77399999 -0.028498679 1.4007873e-38 298 261
-0.028498679 0.77399999 -0.028498679 1.4007873e-38 299 261
-0.027141599 0.77399999 -0.028498679 1.4008229e-38 300 261
-0.025784519 0.77399999 -0.028498679 1.3915674e-38 301 261
-0.02442744 0.77399999 -0.028498679 1.4008229e-38 302 261
-0.02307036 0.77399999 -0.028498679 1.4008229e-38 303 261
-0.021713279 0.77399999 -0.028498679 1.3915677e-38 304 261
-0.0204088 0.77600002 -0.028572321 1.3915677e-38 305 261
-0.019097306 0.778 -0.028645959 1.3457576e-38 306 261
-0.017733213 0.778 -0.028645959 1.3457576e-38 307 261
-0.016411198 0.77999997 -0.028719598 1.3640888e-38 308 261
-0.0150436 0.77999997 -0.028719598 1.3456857e-38 309 261
-0.013675999 0.77999997 -0.028719598 1.3456857e-38 310 261
-0.01232418 0.78100002 -0.028756421 1.3364303e-38 311 261
-0.010954826 0.78100002 -0.028756421 1.3639094e-38 312 261
-0.0095854728 0.78100002 -0.028756421 1.3639094e-38 313 261
-0.0082161194 0.78100002 -0.028756421 1.3547618e-38 314 261
-0.0068642995 0.78299999 -0.028830061 1.3547618e-38 315 261
-0.0054914397 0.78299999 -0.028830061 1.327211e-38 316 261
-0.0041185799 0.78299999 -0.028830061 1.327211e-38 317 261
-0.0027457199 0.78299999 -0.028830061 1.3272107e-38 318 261
-0.0013728599 0.78299999 -0.028830061 1.3272107e-38 319 261
0 0.78299999 -0.028830061 1.3271389e-38 320 261
0.0013763667 0.78500003 -0.0289037 1.3271389e-38 321 261
0.0027527334 0.78500003 -0.0289037 1.3271034e-38 322 261
0.0041291001 0.78500003 -0.0289037 1.3271034e-38 323 261
0.0055054668 0.78500003 -0.0289037 1.3087364e-38 324 261
0.0068993662 0.787 -0.02897734 1.3087364e-38 325 261
0.0082792398 0.787 -0.02897734 1.3269957e-38 326 261
0.0096591124 0.787 -0.02897734 1.3177762e-38 327 261
0.011067039 0.78899997 -0.02905098 1.3177043e-38 328 261
0.012450419 0.78899997 -0.02905098 1.3084847e-38 329 261
0.013798732 0.787 -0.02897734 1.3083771e-38 330 261
0.015178605 0.787 -0.02897734 1.289938e-38 331 261
0.01655848 0.787 -0.02897734 1.2713561e-38 332 261
0.017892767 0.78500003 -0.0289037 1.2621364e-38 333 261
0.019269135 0.78500003 -0.0289037 1.2437702e-38 334 261
0.020645501 0.78500003 -0.0289037 1.2529898e-38 335 261
0.022021867 0.78500003 -0.0289037 1.2346223e-38 336 261
0.023398234 0.78500003 -0.0289037 1.2438418e-38 337 261
0.0247746 0.78500003 -0.0289037 1.2347655e-38 338 261
0.026217593 0.787 -0.02897734 1.2623882e-38 339 261
0.027597465 0.787 -0.02897734 1.2532765e-38 340 261
0.02905098 0.78899997 -0.02905098 1.2625319e-38 341 261
0.030434359 0.78899997 -0.02905098 1.2625681e-38 342 261
0.031737085 0.787 -0.02897734 1.2718235e-38 343 261
0.033116959 0.787 -0.02897734 1.2810428e-38 344 261
0.034496833 0.787 -0.02897734 1.2994459e-38 345 261
0.035876706 0.787 -0.02897734 1.2810428e-38 346 261
0.037161902 0.78500003 -0.0289037 1.2994459e-38 347 261
0.03853827 0.78500003 -0.0289037 1.2994459e-38 348 261
0.039914634 0.78500003 -0.0289037 1.2994459e-38 349 261
0.041291002 0.78500003 -0.0289037 1.2994459e-38 350 261
0.042667367 0.78500003 -0.0289037 1.2994459e-38 351 261
0.044043735 0.78500003 -0.0289037 1.2994812e-38 352 261
0.045420099 0.78500003 -0.0289037 1.2994812e-38 353 261
0.046796467 0.78500003 -0.0289037 1.2995166e-38 354 261
0.048050098 0.78299999 -0.028830061 1.2811134e-38 355 261
0.049422957 0.78299999 -0.028830061 1.2995166e-38 356 261
0.05079582 0.78299999 -0.028830061 1.2811134e-38 357 261
0.052035429 0.78100002 -0.028756421 1.2719658e-38 358 261
0.053404782 0.78100002 -0.028756421 1.2719658e-38 359 261
0.054774135 0.78100002 -0.028756421 1.2719302e-38 360 261
0.056071598 0.77999997 -0.028719598 1.2811497e-38 361 261
0.057439197 0.77999997 -0.028719598 1.2811497e-38 362 261
0.058806792 0.77999997 -0.028719598 1.2811497e-38 363 261
0.0600201 0.778 -0.028645959 1.28115e-38 364 261
0.061384194 0.778 -0.028645959 1.28115e-38 365 261
0.062748291 0.778 -0.028645959 1.2812219e-38 366 261
0.063947573 0.77600002 -0.028572321 1.2904415e-38 367 261
0.065308161 0.77600002 -0.028572321 1.2996968e-38 368 261
0.066668749 0.77600002 -0.028572321 1.2996968e-38 369 261
0.067854002 0.77399999 -0.028498679 1.3364308e-38 370 261
0.069211073 0.77399999 -0.028498679 1.3456504e-38 371 261
0.070476986 0.773 -0.028461859 1.3456504e-38 372 261
0.071646459 0.77100003 -0.028388219 1.3732731e-38 373 261
0.072998285 0.77100003 -0.028388219 1.3916406e-38 374 261
0.074157231 0.76899999 -0.028314579 1.3916406e-38 375 261
0.07550554 0.76899999 -0.028314579 1.3918927e-38 376 261
0.07665398 0.76700002 -0.02824094 1.4379546e-38 377 261
0.077998787 0.76700002 -0.02824094 1.5024199e-38 378 261
0.079240143 0.76599997 -0.028204117 1.5485176e-38 379 261
0.080583192 0.76599997 -0.028204117 1.6036193e-38 380 261
0.081926249 0.76599997 -0.028204117 1.6313139e-38 381 261
0.08305189 0.764 -0.028130481 1.6680843e-38 382 261
0.084391437 0.764 -0.028130481 1.6865594e-38 383 261
0.085506558 0.76200002 -0.028056841 1.7141099e-38 384 261
0.086842604 0.76200002 -0.028056841 1.7786468e-38 385 261
0.088178635 0.76200002 -0.028056841 1.8154162e-38 386 261
0.08951468 0.76200002 -0.028056841 1.7508793e-38 387 261
0.090850718 0.76200002 -0.028056841 1.630664e-38 388 261
0.092186764 0.76200002 -0.028056841 1.4278336e-38 389 261
0.093400061 0.76099998 -0.028020019 1.1884505e-38 390 261
0.094734348 0.76099998 -0.028020019 1.3082689e-38 391 261
0.096068636 0.76099998 -0.028020019 1.3916055e-38 392 261
0.097530924 0.76200002 -0.028056841 1.6220587e-38 393 261
0.098866954 0.76200002 -0.028056841 1.6865214e-38 394 261
0.10007149 0.76099998 -0.028020019 1.6681183e-38 395 261
0.10140578 0.76099998 -0.028020019 1.6588278e-38 396 261
0.10274007 0.76099998 -0.028020019 1.6496083e-38 397 261
0.10407435 0.76099998 -0.028020019 1.6220587e-38 398 261
0.10540864 0.76099998 -0.028020019 1.6312783e-38 399 261
0.1064624 0.759 -0.027946379 1.4659783e-38 400 261
0.10779317 0.759 -0.027946379 1.6227468e-38 401 261
0.10912395 0.759 -0.027946379 1.8162183e-38 402 261
0.11045474 0.759 -0.027946379 1.8254738e-38 403 261
-0.064887367 0.77100003 -0.029740039 1.6959604e-38 272 262
-0.063535534 0.77100003 -0.029740039 1.6683016e-38 273 262
-0.06234502 0.773 -0.029817186 1.7970823e-38 274 262
-0.060989697 0.773 -0.029817186 1.7970823e-38 275 262
-0.059634373 0.773 -0.029817186 1.8246316e-38 276 262
-0.058128256 0.77100003 -0.029740039 1.8338513e-38 277 262
-0.056776438 0.77100003 -0.029740039 1.8614379e-38 278 262
-0.055424623 0.77100003 -0.029740039 1.8614379e-38 279 262
-0.053932533 0.76899999 -0.02966289 1.8521831e-38 280 262
-0.052584216 0.76899999 -0.02966289 1.8614026e-38 281 262
-0.051235907 0.76899999 -0.02966289 1.8429981e-38 282 262
-0.04988759 0.76899999 -0.02966289 1.8061559e-38 283 262
-0.048539277 0.76899999 -0.02966289 1.7509457e-38 284 262
-0.047190964 0.76899999 -0.02966289 1.6864088e-38 285 262
-0.045842651 0.76899999 -0.02966289 1.5942854e-38 286 262
-0.044494338 0.76899999 -0.02966289 1.5205289e-38 287 262
-0.043146025 0.76899999 -0.02966289 1.4652481e-38 288 262
-0.041797712 0.76899999 -0.02966289 1.4652481e-38 289 262
-0.0404494 0.76899999 -0.02966289 1.5019485e-38 290 262
-0.039101087 0.76899999 -0.02966289 1.492729e-38 291 262
-0.037850961 0.77100003 -0.029740039 1.4100421e-38 292 262
-0.036499143 0.77100003 -0.029740039 1.4192617e-38 293 262
-0.035238493 0.773 -0.029817186 1.4375569e-38 294 262
-0.033883166 0.773 -0.029817186 1.4283015e-38 295 262
-0.032527838 0.773 -0.029817186 1.4008229e-38 296 262
-0.031212838 0.77399999 -0.029855758 1.3915674e-38 297 262
-0.029855758 0.77399999 -0.029855758 1.3915674e-38 298 262
-0.028498679 0.77399999 -0.029855758 1.3915674e-38 299 262
-0.027141599 0.77399999 -0.029855758 1.391603e-38 300 262
-0.025784519 0.77399999 -0.029855758 1.391603e-38 301 262
-0.02442744 0.77399999 -0.029855758 1.3732362e-38 302 262
-0.02307036 0.77399999 -0.029855758 1.3732362e-38 303 262
-0.021713279 0.77399999 -0.029855758 1.3640169e-38 304 262
-0.0204088 0.77600002 -0.029932907 1.3732365e-38 305 262
-0.019097306 0.778 -0.03001005 1.3456501e-38 306 262
-0.017733213 0.778 -0.03001005 1.3456501e-38 307 262
-0.016411198 0.77999997 -0.030087199 1.3456504e-38 308 262
-0.0150436 0.77999997 -0.030087199 1.3364308e-38 309 262
-0.013675999 0.77999997 -0.030087199 1.3363952e-38 310 262
-0.01232418 0.78100002 -0.030125774 1.3271757e-38 311 262
-0.010954826 0.78100002 -0.030125774 1.3271754e-38 312 262
-0.0095854728 0.78100002 -0.030125774 1.3271754e-38 313 262
-0.0082371598 0.78299999 -0.03020292 1.3179913e-38 314 262
-0.0068642995 0.78299999 -0.03020292 1.3179913e-38 315 262
-0.0054914397 0.78299999 -0.03020292 1.3271389e-38 316 262
-0.0041185799 0.78299999 -0.03020292 1.3271389e-38 317 262
-0.0027527334 0.78500003 -0.030280067 1.3179194e-38 318 262
-0.0013763667 0.78500003 -0.030280067 1.3179194e-38 319 262
0 0.78500003 -0.030280067 1.3178841e-38 320 262
0.0013763667 0.78500003 -0.030280067 1.3178841e-38 321 262
0.0027527334 0.78500003 -0.030280067 1.3086292e-38 322 262
0.0041396199 0.787 -0.03035721 1.3178488e-38 323 262
0.005519493 0.787 -0.03035721 1.2994459e-38 324 262
0.0069168997 0.78899997 -0.030434359 1.2810428e-38 325 262
0.0083002793 0.78899997 -0.030434359 1.3177058e-38 326 262
0.0096836593 0.78899997 -0.030434359 1.2900473e-38 327 262
0.011067039 0.78899997 -0.030434359 1.2808632e-38 328 262
0.012450419 0.78899997 -0.030434359 1.2716436e-38 329 262
0.013833799 0.78899997 -0.030434359 1.2348727e-38 330 262
0.015217179 0.78899997 -0.030434359 1.2256531e-38 331 262
0.016600559 0.78899997 -0.030434359 1.2348361e-38 332 262
