# .PCD v.7 - Point Cloud Data file format
FIELDS x y z rgb imX imY
SIZE 4 4 4 4 4 4
TYPE F F F F F F
COUNT 1 1 1 1 1 1
WIDTH 829
HEIGHT 1
VIEWPOINT 0 0 0 1 0 0 0
POINTS 829
DATA ascii
-0.057991501 0.67500001 -0.043789499 1.6959196e-38 271 277
-0.056808002 0.67500001 -0.043789499 1.7142509e-38 272 277
-0.055542093 0.67400002 -0.043724626 1.7142509e-38 273 277
-0.054360349 0.67400002 -0.043724626 1.7234704e-38 274 277
-0.053020798 0.67199999 -0.043594878 1.7234704e-38 275 277
-0.051842555 0.67199999 -0.043594878 1.7234704e-38 276 277
-0.050664317 0.67199999 -0.043594878 1.7234704e-38 277 277
-0.049486078 0.67199999 -0.043594878 1.7234707e-38 278 277
-0.048235953 0.671 -0.043530006 1.7326903e-38 279 277
-0.047059465 0.671 -0.043530006 1.7326552e-38 280 277
-0.045677837 0.66799998 -0.043335386 1.7510584e-38 281 277
-0.044439986 0.667 -0.04327051 1.7602063e-38 282 277
-0.04327051 0.667 -0.04327051 1.7786456e-38 283 277
-0.042101037 0.667 -0.04327051 1.7604216e-38 284 277
-0.040931564 0.667 -0.04327051 1.7788247e-38 285 277
-0.039762091 0.667 -0.04327051 1.7879723e-38 286 277
-0.038592618 0.667 -0.04327051 1.7879723e-38 287 277
-0.037367038 0.66600001 -0.043205637 1.7972275e-38 288 277
-0.03619932 0.66600001 -0.043205637 1.8156306e-38 289 277
-0.035031598 0.66600001 -0.043205637 1.7881888e-38 290 277
-0.03386388 0.66600001 -0.043205637 1.7881888e-38 291 277
-0.032696161 0.66600001 -0.043205637 1.8156683e-38 292 277
-0.031528439 0.66600001 -0.043205637 1.8156683e-38 293 277
-0.030406304 0.667 -0.04327051 1.8432544e-38 294 277
-0.029236831 0.667 -0.04327051 1.8432544e-38 295 277
-0.028025279 0.66600001 -0.043205637 1.852474e-38 296 277
-0.026776904 0.66399997 -0.043075889 1.852474e-38 297 277
-0.025612691 0.66399997 -0.043075889 1.8616935e-38 298 277
-0.024411658 0.66299999 -0.043011017 1.8616935e-38 299 277
-0.0232492 0.66299999 -0.043011017 1.8893521e-38 300 277
-0.022053426 0.662 -0.042946145 1.8616935e-38 301 277
-0.02086116 0.66100001 -0.042881273 1.8617291e-38 302 277
-0.019642593 0.65899998 -0.042751525 1.8801322e-38 303 277
-0.018487146 0.65899998 -0.042751525 1.8618007e-38 304 277
-0.017331699 0.65899998 -0.042751525 1.8618007e-38 305 277
-0.016176252 0.65899998 -0.042751525 1.8618005e-38 306 277
-0.015020805 0.65899998 -0.042751525 1.8525809e-38 307 277
-0.013865359 0.65899998 -0.042751525 1.8525814e-38 308 277
-0.012709912 0.65899998 -0.042751525 1.843326e-38 309 277
-0.011589534 0.66100001 -0.042881273 1.8249232e-38 310 277
-0.01043058 0.66100001 -0.042881273 1.8249232e-38 311 277
-0.0092716264 0.66100001 -0.042881273 1.806448e-38 312 277
-0.0081249457 0.662 -0.042946145 1.806448e-38 313 277
-0.0069642398 0.662 -0.042946145 1.7881188e-38 314 277
-0.0058035329 0.662 -0.042946145 1.7973383e-38 315 277
-0.0046428265 0.662 -0.042946145 1.7881935e-38 316 277
-0.00347686 0.66100001 -0.042881273 1.8065966e-38 317 277
-0.0023179066 0.66100001 -0.042881273 1.7789048e-38 318 277
-0.0011589533 0.66100001 -0.042881273 1.7881245e-38 319 277
-0.079776667 0.69999999 -0.046638668 1.3827477e-38 255 278
-0.078324907 0.69800001 -0.046505414 1.4011473e-38 256 278
-0.076880157 0.69599998 -0.046372157 1.3827081e-38 257 278
-0.075116299 0.69099998 -0.046039023 1.3917106e-38 258 278
-0.0737978 0.69 -0.045972396 1.3456127e-38 259 278
-0.07227239 0.68699998 -0.045772515 1.3270661e-38 260 278
-0.070964411 0.68599999 -0.045705888 1.4008226e-38 261 278
-0.06955824 0.68400002 -0.045572639 1.373488e-38 262 278
-0.068259016 0.68300003 -0.045506012 1.391963e-38 263 278
-0.067061491 0.68300003 -0.045506012 1.4287687e-38 264 278
-0.065767527 0.68199998 -0.045439381 1.4287687e-38 265 278
-0.064382397 0.68000001 -0.045306131 1.4655745e-38 266 278
-0.063097201 0.67900002 -0.045239504 1.5116722e-38 267 278
-0.061815511 0.67799997 -0.045172878 1.5669545e-38 268 278
-0.06044792 0.676 -0.045039624 1.6038329e-38 269 278
-0.059262663 0.676 -0.045039624 1.6774098e-38 270 278
-0.057991501 0.67500001 -0.044972997 1.6774098e-38 271 278
-0.056723841 0.67400002 -0.044906374 1.6957407e-38 272 278
-0.055542093 0.67400002 -0.044906374 1.6957407e-38 273 278
-0.054199036 0.67199999 -0.044773117 1.6591503e-38 274 278
-0.053020798 0.67199999 -0.044773117 1.6591503e-38 275 278
-0.051765412 0.671 -0.044706494 1.6775171e-38 276 278
-0.050588924 0.671 -0.044706494 1.6775171e-38 277 278
-0.049412437 0.671 -0.044706494 1.6866648e-38 278 278
-0.048235953 0.671 -0.044706494 1.6866648e-38 279 278
-0.046778932 0.667 -0.044439986 1.6958493e-38 280 278
-0.045609459 0.667 -0.044439986 1.7142524e-38 281 278
-0.044439986 0.667 -0.044439986 1.7233648e-38 282 278
-0.04327051 0.667 -0.044439986 1.7326202e-38 283 278
-0.042101037 0.667 -0.044439986 1.7143606e-38 284 278
-0.040870197 0.66600001 -0.04437336 1.7143606e-38 285 278
-0.039702479 0.66600001 -0.04437336 1.7326915e-38 286 278
-0.03853476 0.66600001 -0.04437336 1.7326915e-38 287 278
-0.037367038 0.66600001 -0.04437336 1.7695332e-38 288 278
-0.03619932 0.66600001 -0.04437336 1.7787528e-38 289 278
-0.035031598 0.66600001 -0.04437336 1.7512383e-38 290 278
-0.03386388 0.66600001 -0.04437336 1.7604578e-38 291 278
-0.032696161 0.66600001 -0.04437336 1.7696427e-38 292 278
-0.031528439 0.66600001 -0.04437336 1.7788622e-38 293 278
-0.030360719 0.66600001 -0.04437336 1.7971937e-38 294 278
-0.029192999 0.66600001 -0.04437336 1.8064133e-38 295 278
-0.027899038 0.66299999 -0.044173479 1.8156327e-38 296 278
-0.026696252 0.662 -0.044106852 1.8156327e-38 297 278
-0.025535546 0.662 -0.044106852 1.8339998e-38 298 278
-0.024374841 0.662 -0.044106852 1.8524389e-38 299 278
-0.023214132 0.662 -0.044106852 1.8341793e-38 300 278
-0.022053426 0.662 -0.044106852 1.8249598e-38 301 278
-0.020798039 0.65899998 -0.043906972 1.8525108e-38 302 278
-0.019642593 0.65899998 -0.043906972 1.8617304e-38 303 278
-0.018487146 0.65899998 -0.043906972 1.8433989e-38 304 278
-0.017305398 0.65799999 -0.043840345 1.8433989e-38 305 278
-0.016151706 0.65799999 -0.043840345 1.8616938e-38 306 278
-0.015020805 0.65899998 -0.043906972 1.8524743e-38 307 278
-0.013865359 0.65899998 -0.043906972 1.8616935e-38 308 278
-0.012709912 0.65899998 -0.043906972 1.852474e-38 309 278
-0.011589534 0.66100001 -0.044040225 1.8525096e-38 310 278
-0.01043058 0.66100001 -0.044040225 1.8525096e-38 311 278
-0.0092716264 0.66100001 -0.044040225 1.8248876e-38 312 278
-0.0081126727 0.66100001 -0.044040225 1.8248876e-38 313 278
-0.00695372 0.66100001 -0.044040225 1.8248891e-38 314 278
-0.0057947668 0.66100001 -0.044040225 1.8156696e-38 315 278
-0.0046358132 0.66100001 -0.044040225 1.8065582e-38 316 278
-0.00347686 0.66100001 -0.044040225 1.7973386e-38 317 278
-0.0023179066 0.66100001 -0.044040225 1.7603525e-38 318 278
-0.0011589533 0.66100001 -0.044040225 1.7326938e-38 319 278
0 0.65899998 -0.043906972 1.695962e-38 320 278
0.0011554466 0.65899998 -0.043906972 1.7420596e-38 321 278
-0.079548739 0.69800001 -0.047729239 1.3643827e-38 255 279
-0.078324907 0.69800001 -0.047729239 1.4194806e-38 256 279
-0.076880157 0.69599998 -0.047592476 1.4010416e-38 257 279
-0.075116299 0.69099998 -0.047250576 1.4102592e-38 258 279
-0.0737978 0.69 -0.047182199 1.3641614e-38 259 279
-0.07227239 0.68699998 -0.046977058 1.3733084e-38 260 279
-0.070964411 0.68599999 -0.046908677 1.3917476e-38 261 279
-0.06955824 0.68400002 -0.046771921 1.4010025e-38 262 279
-0.068259016 0.68300003 -0.04670354 1.4102221e-38 263 279
-0.067061491 0.68300003 -0.04670354 1.4378082e-38 264 279
-0.065767527 0.68199998 -0.046635158 1.4378082e-38 265 279
-0.064382397 0.68000001 -0.046498399 1.4745425e-38 266 279
-0.063097201 0.67900002 -0.046430022 1.5021652e-38 267 279
-0.061815511 0.67799997 -0.046361636 1.4379882e-38 268 279
-0.06044792 0.676 -0.046224877 1.4933056e-38 269 279
-0.059262663 0.676 -0.046224877 1.5668826e-38 270 279
-0.057905588 0.67400002 -0.046088122 1.5761022e-38 271 279
-0.056723841 0.67400002 -0.046088122 1.5853933e-38 272 279
-0.055377278 0.67199999 -0.045951359 1.5946131e-38 273 279
-0.054199036 0.67199999 -0.045951359 1.6497139e-38 274 279
-0.052941896 0.671 -0.045882981 1.6589335e-38 275 279
-0.051765412 0.671 -0.045882981 1.6589691e-38 276 279
-0.050588924 0.671 -0.045882981 1.6865918e-38 277 279
-0.04919152 0.66799998 -0.045677837 1.6957397e-38 278 279
-0.048020288 0.66799998 -0.045677837 1.6957397e-38 279 279
-0.046778932 0.667 -0.045609459 1.6956688e-38 280 279
-0.045609459 0.667 -0.045609459 1.7049242e-38 281 279
-0.044439986 0.667 -0.045609459 1.7232922e-38 282 279
-0.04327051 0.667 -0.045609459 1.7325118e-38 283 279
-0.042037919 0.66600001 -0.045541082 1.7141802e-38 284 279
-0.040870197 0.66600001 -0.045541082 1.7141802e-38 285 279
-0.039702479 0.66600001 -0.045541082 1.7325468e-38 286 279
-0.038419038 0.66399997 -0.045404319 1.7325468e-38 287 279
-0.037254825 0.66399997 -0.045404319 1.7326906e-38 288 279
-0.036090612 0.66399997 -0.045404319 1.7326906e-38 289 279
-0.0349264 0.66399997 -0.045404319 1.7509862e-38 290 279
-0.033762183 0.66399997 -0.045404319 1.7602058e-38 291 279
-0.03259797 0.66399997 -0.045404319 1.7694256e-38 292 279
-0.031339079 0.662 -0.04526756 1.7786453e-38 293 279
-0.030178372 0.662 -0.04526756 1.806232e-38 294 279
-0.029017664 0.662 -0.04526756 1.8154515e-38 295 279
-0.027856959 0.662 -0.04526756 1.8063038e-38 296 279
-0.026696252 0.662 -0.04526756 1.8155234e-38 297 279
-0.025496973 0.66100001 -0.045199182 1.7971566e-38 298 279
-0.02433802 0.66100001 -0.045199182 1.8248151e-38 299 279
-0.023179067 0.66100001 -0.045199182 1.8248151e-38 300 279
-0.022020113 0.66100001 -0.045199182 1.8248151e-38 301 279
-0.020798039 0.65899998 -0.045062415 1.8432547e-38 302 279
-0.019612785 0.65799999 -0.044994038 1.8432547e-38 303 279
-0.018459093 0.65799999 -0.044994038 1.8615503e-38 304 279
-0.0172791 0.65700001 -0.04492566 1.8708058e-38 305 279
-0.01612716 0.65700001 -0.04492566 1.8615859e-38 306 279
-0.014998012 0.65799999 -0.044994038 1.8708055e-38 307 279
-0.01384432 0.65799999 -0.044994038 1.8708055e-38 308 279
-0.012709912 0.65899998 -0.045062415 1.8615859e-38 309 279
-0.011554466 0.65899998 -0.045062415 1.8248879e-38 310 279
-0.01043058 0.66100001 -0.045199182 1.8248879e-38 311 279
-0.0092716264 0.66100001 -0.045199182 1.8156683e-38 312 279
-0.0081126727 0.66100001 -0.045199182 1.8156683e-38 313 279
-0.00695372 0.66100001 -0.045199182 1.8156683e-38 314 279
-0.0057947668 0.66100001 -0.045199182 1.8156683e-38 315 279
-0.0046358132 0.66100001 -0.045199182 1.7973006e-38 316 279
-0.00347686 0.66100001 -0.045199182 1.8065203e-38 317 279
-0.0023179066 0.66100001 -0.045199182 1.7788619e-38 318 279
-0.0011554466 0.65899998 -0.045062415 1.7604228e-38 319 279
0 0.65899998 -0.045062415 1.7419857e-38 320 279
0.0011554466 0.65899998 -0.045062415 1.7696442e-38 321 279
0.0023108933 0.65899998 -0.045062415 1.7512793e-38 322 279
-0.078324907 0.69800001 -0.048953064 1.3734921e-38 256 280
-0.076880157 0.69599998 -0.048812799 1.3642725e-38 257 280
-0.075116299 0.69099998 -0.04846213 1.4101873e-38 258 280
-0.0737978 0.69 -0.048391998 1.4101873e-38 259 280
-0.0723776 0.68800002 -0.048251733 1.4010028e-38 260 280
-0.070964411 0.68599999 -0.048111461 1.4010028e-38 261 280
-0.06955824 0.68400002 -0.0479712 1.4010025e-38 262 280
-0.068259016 0.68300003 -0.047901068 1.4102221e-38 263 280
-0.067061491 0.68300003 -0.047901068 1.4286608e-38 264 280
-0.065767527 0.68199998 -0.047830928 1.4286608e-38 265 280
-0.064382397 0.68000001 -0.047690667 1.4285902e-38 266 280
-0.063097201 0.67900002 -0.047620531 1.4470652e-38 267 280
-0.061815511 0.67799997 -0.047550395 1.4195138e-38 268 280
-0.06044792 0.676 -0.047410134 1.4195138e-38 269 280
-0.059175 0.67500001 -0.047339998 1.4747943e-38 270 280
-0.057905588 0.67400002 -0.047269866 1.502417e-38 271 280
-0.056555521 0.67199999 -0.047129598 1.4932703e-38 272 280
-0.055377278 0.67199999 -0.047129598 1.5024899e-38 273 280
-0.054118387 0.671 -0.047059465 1.5301486e-38 274 280
-0.052941896 0.671 -0.047059465 1.5670268e-38 275 280
-0.051688269 0.67000002 -0.046989333 1.5946133e-38 276 280
-0.050513536 0.67000002 -0.046989333 1.6130525e-38 277 280
-0.04919152 0.66799998 -0.046849065 1.631384e-38 278 280
-0.047948405 0.667 -0.046778932 1.6406035e-38 279 280
-0.046778932 0.667 -0.046778932 1.6405685e-38 280 280
-0.045609459 0.667 -0.046778932 1.6497881e-38 281 280
-0.04437336 0.66600001 -0.046708796 1.6497886e-38 282 280
-0.043205637 0.66600001 -0.046708796 1.6681919e-38 283 280
-0.042037919 0.66600001 -0.046708796 1.6681915e-38 284 280
-0.040870197 0.66600001 -0.046708796 1.6497883e-38 285 280
-0.039702479 0.66600001 -0.046708796 1.6498599e-38 286 280
-0.038419038 0.66399997 -0.046568532 1.6406404e-38 287 280
-0.037254825 0.66399997 -0.046568532 1.6682268e-38 288 280
-0.036090612 0.66399997 -0.046568532 1.6774465e-38 289 280
-0.0349264 0.66399997 -0.046568532 1.6774095e-38 290 280
-0.033711337 0.66299999 -0.046498399 1.6958846e-38 291 280
-0.032548878 0.66299999 -0.046498399 1.6958859e-38 292 280
-0.031339079 0.662 -0.046428263 1.7051054e-38 293 280
-0.030178372 0.662 -0.046428263 1.7050701e-38 294 280
-0.029017664 0.662 -0.046428263 1.7050701e-38 295 280
-0.02781488 0.66100001 -0.046358135 1.7326552e-38 296 280
-0.026655925 0.66100001 -0.046358135 1.7602779e-38 297 280
-0.025496973 0.66100001 -0.046358135 1.7419831e-38 298 280
-0.02433802 0.66100001 -0.046358135 1.7512386e-38 299 280
-0.023179067 0.66100001 -0.046358135 1.7511677e-38 300 280
-0.022020113 0.66100001 -0.046358135 1.7604231e-38 301 280
-0.02076648 0.65799999 -0.04614773 1.7420566e-38 302 280
-0.019612785 0.65799999 -0.04614773 1.7696792e-38 303 280
-0.01843104 0.65700001 -0.046077598 1.7788272e-38 304 280
-0.0172791 0.65700001 -0.046077598 1.80645e-38 305 280
-0.01612716 0.65700001 -0.046077598 1.7881541e-38 306 280
-0.014998012 0.65799999 -0.04614773 1.7973737e-38 307 280
-0.01384432 0.65799999 -0.04614773 1.8064497e-38 308 280
-0.012690626 0.65799999 -0.04614773 1.8064497e-38 309 280
-0.011554466 0.65899998 -0.046217863 1.8064497e-38 310 280
-0.010399019 0.65899998 -0.046217863 1.8064497e-38 311 280
-0.0092435731 0.65899998 -0.046217863 1.79723e-38 312 280
-0.0081126727 0.66100001 -0.046358135 1.7788269e-38 313 280
-0.00695372 0.66100001 -0.046358135 1.7972304e-38 314 280
-0.0057947668 0.66100001 -0.046358135 1.7696076e-38 315 280
-0.0046358132 0.66100001 -0.046358135 1.7696795e-38 316 280
-0.0034663398 0.65899998 -0.046217863 1.7604241e-38 317 280
-0.0023108933 0.65899998 -0.046217863 1.7604241e-38 318 280
-0.0011554466 0.65899998 -0.046217863 1.7604241e-38 319 280
0 0.65899998 -0.046217863 1.7420928e-38 320 280
0.0011554466 0.65899998 -0.046217863 1.7420928e-38 321 280
0.0023108933 0.65899998 -0.046217863 1.7604597e-38 322 280
0.0034663398 0.65899998 -0.046217863 1.7420566e-38 323 280
0.0046217865 0.65899998 -0.046217863 1.6960676e-38 324 280
0.0057772328 0.65899998 -0.046217863 1.6960676e-38 325 280
0.0069326796 0.65899998 -0.046217863 1.7052181e-38 326 280
0.0081126727 0.66100001 -0.046358135 1.769755e-38 327 280
-0.078100473 0.69599998 -0.050033119 1.364239e-38 256 281
-0.076880157 0.69599998 -0.050033119 1.364239e-38 257 281
-0.075007595 0.69 -0.049601797 1.3918223e-38 258 281
-0.0737978 0.69 -0.049601797 1.3918223e-38 259 281
-0.0723776 0.68800002 -0.049458027 1.4102589e-38 260 281
-0.071067855 0.68699998 -0.049386136 1.4010394e-38 261 281
-0.06955824 0.68400002 -0.049170479 1.40111e-38 262 281
-0.068259016 0.68300003 -0.049098592 1.40111e-38 263 281
-0.067061491 0.68300003 -0.049098592 1.4285886e-38 264 281
-0.065767527 0.68199998 -0.049026705 1.4378082e-38 265 281
-0.064382397 0.68000001 -0.048882935 1.4285533e-38 266 281
-0.063097201 0.67900002 -0.048811045 1.4285533e-38 267 281
-0.061815511 0.67799997 -0.048739154 1.4286255e-38 268 281
-0.06044792 0.676 -0.048595384 1.4286255e-38 269 281
-0.059175 0.67500001 -0.048523501 1.4378806e-38 270 281
-0.057905588 0.67400002 -0.048451614 1.4286252e-38 271 281
-0.056555521 0.67199999 -0.04830784 1.40111e-38 272 281
-0.055377278 0.67199999 -0.04830784 1.3918546e-38 273 281
-0.054118387 0.671 -0.048235953 1.4563918e-38 274 281
-0.052941896 0.671 -0.048235953 1.5025255e-38 275 281
-0.051688269 0.67000002 -0.048164066 1.5301483e-38 276 281
-0.050362743 0.66799998 -0.048020288 1.5578428e-38 277 281
-0.049117878 0.667 -0.047948405 1.6128725e-38 278 281
-0.047948405 0.667 -0.047948405 1.6128725e-38 279 281
-0.046778932 0.667 -0.047948405 1.6403873e-38 280 281
-0.045609459 0.667 -0.047948405 1.6587906e-38 281 281
-0.04437336 0.66600001 -0.047876518 1.6679748e-38 282 281
-0.043205637 0.66600001 -0.047876518 1.6771944e-38 283 281
-0.042037919 0.66600001 -0.047876518 1.6497155e-38 284 281
-0.040870197 0.66600001 -0.047876518 1.6313124e-38 285 281
-0.039583251 0.66399997 -0.047732744 1.6313124e-38 286 281
-0.038361177 0.66299999 -0.047660857 1.6220928e-38 287 281
-0.037198719 0.66299999 -0.047660857 1.6496789e-38 288 281
-0.036036257 0.66299999 -0.047660857 1.6404593e-38 289 281
-0.034821201 0.662 -0.047588971 1.6496786e-38 290 281
-0.033660494 0.662 -0.047588971 1.6681536e-38 291 281
-0.032499783 0.662 -0.047588971 1.6956691e-38 292 281
-0.031291738 0.66100001 -0.047517084 1.7048887e-38 293 281
-0.030132787 0.66100001 -0.047517084 1.6956688e-38 294 281
-0.028973831 0.66100001 -0.047517084 1.6956688e-38 295 281
-0.02781488 0.66100001 -0.047517084 1.6681533e-38 296 281
-0.026575271 0.65899998 -0.04737331 1.695776e-38 297 281
-0.025419824 0.65899998 -0.04737331 1.6682265e-38 298 281
-0.024264378 0.65899998 -0.04737331 1.6774462e-38 299 281
-0.023108931 0.65899998 -0.04737331 1.6591518e-38 300 281
-0.021953486 0.65899998 -0.04737331 1.6683714e-38 301 281
-0.020734919 0.65700001 -0.04722954 1.695958e-38 302 281
-0.019582979 0.65700001 -0.04722954 1.7051776e-38 303 281
-0.01843104 0.65700001 -0.04722954 1.7326932e-38 304 281
-0.0172791 0.65700001 -0.04722954 1.7511682e-38 305 281
-0.01612716 0.65700001 -0.04722954 1.7696071e-38 306 281
-0.01497522 0.65700001 -0.04722954 1.7603875e-38 307 281
-0.013823279 0.65700001 -0.04722954 1.7970134e-38 308 281
-0.01267134 0.65700001 -0.04722954 1.7970134e-38 309 281
-0.011536933 0.65799999 -0.047301427 1.7788975e-38 310 281
-0.01038324 0.65799999 -0.047301427 1.7788975e-38 311 281
-0.0092435731 0.65899998 -0.04737331 1.7971572e-38 312 281
-0.0080881258 0.65899998 -0.04737331 1.7971572e-38 313 281
-0.0069326796 0.65899998 -0.04737331 1.7787543e-38 314 281
-0.0057772328 0.65899998 -0.04737331 1.7510958e-38 315 281
-0.0046217865 0.65899998 -0.04737331 1.7418763e-38 316 281
-0.0034663398 0.65899998 -0.04737331 1.7510961e-38 317 281
-0.0023108933 0.65899998 -0.04737331 1.7419131e-38 318 281
-0.0011536933 0.65799999 -0.047301427 1.7419131e-38 319 281
0 0.65799999 -0.047301427 1.7235818e-38 320 281
0.0011554466 0.65899998 -0.04737331 1.7235818e-38 321 281
0.0023108933 0.65899998 -0.04737331 1.7235821e-38 322 281
0.0034663398 0.65899998 -0.04737331 1.7235821e-38 323 281
0.0046217865 0.65899998 -0.04737331 1.7235821e-38 324 281
0.0057772328 0.65899998 -0.04737331 1.7328017e-38 325 281
0.0069326796 0.65899998 -0.04737331 1.6959957e-38 326 281
0.0081126727 0.66100001 -0.047517084 1.6959957e-38 327 281
0.0092716264 0.66100001 -0.047517084 1.6591912e-38 328 281
-0.075996481 0.68800002 -0.050664321 1.3366176e-38 257 282
-0.074790187 0.68800002 -0.050664321 1.3550527e-38 258 282
-0.073583893 0.68800002 -0.050664321 1.3458331e-38 259 282
-0.07227239 0.68699998 -0.050590675 1.4010391e-38 260 282
-0.070964411 0.68599999 -0.050517038 1.4102586e-38 261 282
-0.06955824 0.68400002 -0.050369758 1.4011097e-38 262 282
-0.068259016 0.68300003 -0.05029612 1.4011097e-38 263 282
-0.067061491 0.68300003 -0.05029612 1.4286605e-38 264 282
-0.065767527 0.68199998 -0.050222475 1.4286605e-38 265 282
-0.064382397 0.68000001 -0.050075196 1.4102224e-38 266 282
-0.063097201 0.67900002 -0.050001562 1.4102224e-38 267 282
-0.061815511 0.67799997 -0.049927916 1.4010391e-38 268 282
-0.06044792 0.676 -0.049780637 1.4010391e-38 269 282
-0.059175 0.67500001 -0.049706999 1.4010391e-38 270 282
-0.057905588 0.67400002 -0.049633358 1.3918195e-38 271 282
-0.056555521 0.67199999 -0.049486078 1.4010394e-38 272 282
-0.055377278 0.67199999 -0.049486078 1.4010394e-38 273 282
-0.054118387 0.671 -0.049412437 1.4102224e-38 274 282
-0.052863002 0.67000002 -0.049338799 1.437845e-38 275 282
-0.051533967 0.66799998 -0.04919152 1.4656111e-38 276 282
-0.050362743 0.66799998 -0.04919152 1.4933056e-38 277 282
-0.049117878 0.667 -0.049117878 1.520857e-38 278 282
-0.047948405 0.667 -0.049117878 1.520857e-38 279 282
-0.046778932 0.667 -0.049117878 1.5483726e-38 280 282
-0.045609459 0.667 -0.049117878 1.5760671e-38 281 282
-0.04437336 0.66600001 -0.04904424 1.5853234e-38 282 282
-0.043205637 0.66600001 -0.04904424 1.594543e-38 283 282
-0.042037919 0.66600001 -0.04904424 1.6128745e-38 284 282
-0.040870197 0.66600001 -0.04904424 1.5852517e-38 285 282
-0.039583251 0.66399997 -0.048896957 1.5668123e-38 286 282
-0.038361177 0.66299999 -0.048823316 1.5575927e-38 287 282
-0.037142612 0.662 -0.048749682 1.5760669e-38 288 282
-0.035981905 0.662 -0.048749682 1.5852864e-38 289 282
-0.034821201 0.662 -0.048749682 1.6129092e-38 290 282
-0.033609647 0.66100001 -0.04867604 1.6129092e-38 291 282
-0.032450691 0.66100001 -0.04867604 1.6220575e-38 292 282
-0.031291738 0.66100001 -0.04867604 1.6496802e-38 293 282
-0.030132787 0.66100001 -0.04867604 1.6496086e-38 294 282
-0.028973831 0.66100001 -0.04867604 1.6588281e-38 295 282
-0.027730718 0.65899998 -0.048528757 1.6497158e-38 296 282
-0.026575271 0.65899998 -0.048528757 1.6497158e-38 297 282
-0.025381252 0.65799999 -0.048455119 1.6588631e-38 298 282
-0.02422756 0.65799999 -0.048455119 1.6588631e-38 299 282
-0.023073865 0.65799999 -0.048455119 1.658935e-38 300 282
-0.021920172 0.65799999 -0.048455119 1.6497155e-38 301 282
-0.020734919 0.65700001 -0.048381478 1.6406041e-38 302 282
-0.019523365 0.65499997 -0.048234195 1.6498237e-38 303 282
-0.018374931 0.65499997 -0.048234195 1.6681915e-38 304 282
-0.017226499 0.65499997 -0.048234195 1.6774112e-38 305 282
-0.016078066 0.65499997 -0.048234195 1.6866313e-38 306 282
-0.01497522 0.65700001 -0.048381478 1.6866313e-38 307 282
-0.013823279 0.65700001 -0.048381478 1.7142174e-38 308 282
-0.01267134 0.65700001 -0.048381478 1.7234369e-38 309 282
-0.011519399 0.65700001 -0.048381478 1.7602779e-38 310 282
-0.01036746 0.65700001 -0.048381478 1.7602779e-38 311 282
-0.0092295464 0.65799999 -0.048455119 1.7419111e-38 312 282
-0.0080758529 0.65799999 -0.048455119 1.7511667e-38 313 282
-0.0069221598 0.65799999 -0.048455119 1.7602429e-38 314 282
-0.0057684663 0.65799999 -0.048455119 1.7326202e-38 315 282
-0.0046147732 0.65799999 -0.048455119 1.7050704e-38 316 282
-0.0034610799 0.65799999 -0.048455119 1.71429e-38 317 282
-0.0023073866 0.65799999 -0.048455119 1.6867404e-38 318 282
-0.00115194 0.65700001 -0.048381478 1.6867404e-38 319 282
0 0.65700001 -0.048381478 1.6958524e-38 320 282
0.0011536933 0.65799999 -0.048455119 1.6774493e-38 321 282
0.0023073866 0.65799999 -0.048455119 1.6590096e-38 322 282
0.0034610799 0.65799999 -0.048455119 1.6590096e-38 323 282
0.0046147732 0.65799999 -0.048455119 1.6498253e-38 324 282
0.0057684663 0.65799999 -0.048455119 1.6406056e-38 325 282
0.0069326796 0.65899998 -0.048528757 1.6130177e-38 326 282
0.0080881258 0.65899998 -0.048528757 1.6314208e-38 327 282
0.0092435731 0.65899998 -0.048528757 1.613054e-38 328 282
0.010399019 0.65899998 -0.048528757 1.6223094e-38 329 282
-0.074790187 0.68800002 -0.051870614 1.345763e-38 258 283
-0.073476933 0.68699998 -0.051795214 1.3365435e-38 259 283
-0.07227239 0.68699998 -0.051795214 1.345939e-38 260 283
-0.070964411 0.68599999 -0.051719822 1.3551586e-38 261 283
-0.06955824 0.68400002 -0.051569041 1.40111e-38 262 283
-0.068259016 0.68300003 -0.051493648 1.40111e-38 263 283
-0.067061491 0.68300003 -0.051493648 1.4102577e-38 264 283
-0.065767527 0.68199998 -0.051418249 1.4102577e-38 265 283
-0.064382397 0.68000001 -0.051267464 1.4285533e-38 266 283
-0.063097201 0.67900002 -0.051192071 1.4285533e-38 267 283
-0.061815511 0.67799997 -0.051116679 1.4010025e-38 268 283
-0.060626756 0.67799997 -0.051116679 1.4010025e-38 269 283
-0.059262663 0.676 -0.050965894 1.4010381e-38 270 283
-0.057905588 0.67400002 -0.050815105 1.3917825e-38 271 283
-0.056723841 0.67400002 -0.050815105 1.3734869e-38 272 283
-0.055377278 0.67199999 -0.050664317 1.3734869e-38 273 283
-0.054118387 0.671 -0.050588924 1.4010025e-38 274 283
-0.052863002 0.67000002 -0.050513536 1.4010025e-38 275 283
-0.051533967 0.66799998 -0.050362743 1.4010744e-38 276 283
-0.050362743 0.66799998 -0.050362743 1.410294e-38 277 283
-0.049117878 0.667 -0.050287351 1.4286252e-38 278 283
-0.047948405 0.667 -0.050287351 1.4378806e-38 279 283
-0.046778932 0.667 -0.050287351 1.4654691e-38 280 283
-0.045541082 0.66600001 -0.050211959 1.5207865e-38 281 283
-0.04437336 0.66600001 -0.050211959 1.5577369e-38 282 283
-0.043205637 0.66600001 -0.050211959 1.5577369e-38 283 283
-0.041911677 0.66399997 -0.05006117 1.5943628e-38 284 283
-0.040747464 0.66399997 -0.05006117 1.5575205e-38 285 283
-0.039523639 0.66299999 -0.049985778 1.5206047e-38 286 283
-0.038303319 0.662 -0.049910385 1.5113852e-38 287 283
-0.037142612 0.662 -0.049910385 1.5298962e-38 288 283
-0.035981905 0.662 -0.049910385 1.575994e-38 289 283
-0.034821201 0.662 -0.049910385 1.5668473e-38 290 283
-0.033609647 0.66100001 -0.049834993 1.5760669e-38 291 283
-0.032450691 0.66100001 -0.049834993 1.6035458e-38 292 283
-0.031197058 0.65899998 -0.049684204 1.6219848e-38 293 283
-0.030041611 0.65899998 -0.049684204 1.6219492e-38 294 283
-0.028886165 0.65899998 -0.049684204 1.6219492e-38 295 283
-0.027730718 0.65899998 -0.049684204 1.6219845e-38 296 283
-0.026534945 0.65799999 -0.049608808 1.6219845e-38 297 283
-0.025381252 0.65799999 -0.049608808 1.6219845e-38 298 283
-0.02422756 0.65799999 -0.049608808 1.631204e-38 299 283
-0.023073865 0.65799999 -0.049608808 1.6128375e-38 300 283
-0.021920172 0.65799999 -0.049608808 1.6036179e-38 301 283
-0.020671798 0.65499997 -0.049382631 1.6036547e-38 302 283
-0.019523365 0.65499997 -0.049382631 1.6128742e-38 303 283
-0.018374931 0.65499997 -0.049382631 1.6037278e-38 304 283
-0.017200198 0.65399998 -0.049307238 1.6037278e-38 305 283
-0.01605352 0.65399998 -0.049307238 1.631242e-38 306 283
-0.014929632 0.65499997 -0.049382631 1.6496451e-38 307 283
-0.013781199 0.65499997 -0.049382631 1.6588278e-38 308 283
-0.012632766 0.65499997 -0.049382631 1.6588278e-38 309 283
-0.011484332 0.65499997 -0.049382631 1.6681549e-38 310 283
-0.010335899 0.65499997 -0.049382631 1.6773744e-38 311 283
-0.0092155198 0.65700001 -0.049533416 1.6773391e-38 312 283
-0.0080635799 0.65700001 -0.049533416 1.6865588e-38 313 283
-0.0069116396 0.65700001 -0.049533416 1.6681919e-38 314 283
-0.0057596997 0.65700001 -0.049533416 1.6681919e-38 315 283
-0.0046077599 0.65700001 -0.049533416 1.6774117e-38 316 283
-0.0034558198 0.65700001 -0.049533416 1.6866313e-38 317 283
-0.0023038799 0.65700001 -0.049533416 1.6683016e-38 318 283
-0.00115194 0.65700001 -0.049533416 1.6683016e-38 319 283
0 0.65700001 -0.049533416 1.6589743e-38 320 283
0.00115194 0.65700001 -0.049533416 1.640535e-38 321 283
0.0023073866 0.65799999 -0.049608808 1.5759965e-38 322 283
0.0034610799 0.65799999 -0.049608808 1.5390824e-38 323 283
0.0046147732 0.65799999 -0.049608808 1.5115302e-38 324 283
0.0057684663 0.65799999 -0.049608808 1.4930552e-38 325 283
0.0069221598 0.65799999 -0.049608808 1.4838003e-38 326 283
0.0080881258 0.65899998 -0.049684204 1.5483373e-38 327 283
0.0092435731 0.65899998 -0.049684204 1.5760331e-38 328 283
0.010399019 0.65899998 -0.049684204 1.5852528e-38 329 283
0.011589534 0.66100001 -0.049834993 1.5118929e-38 330 283
0.012748486 0.66100001 -0.049834993 1.5211124e-38 331 283
0.01390744 0.66100001 -0.049834993 1.5027477e-38 332 283
0.015066394 0.66100001 -0.049834993 1.6041629e-38 333 283
-0.073476933 0.68699998 -0.052999757 1.2813723e-38 259 284
-0.07227239 0.68699998 -0.052999757 1.3088472e-38 260 284
-0.070757523 0.68400002 -0.05276832 1.3273222e-38 261 284
-0.06955824 0.68400002 -0.05276832 1.3917123e-38 262 284
-0.068259016 0.68300003 -0.052691177 1.4101873e-38 263 284
-0.067061491 0.68300003 -0.052691177 1.4102224e-38 264 284
-0.065767527 0.68199998 -0.052614026 1.4010028e-38 265 284
-0.064382397 0.68000001 -0.052459732 1.4010381e-38 266 284
-0.063097201 0.67900002 -0.052382588 1.4010381e-38 267 284
-0.061815511 0.67799997 -0.052305438 1.4010025e-38 268 284
-0.060626756 0.67799997 -0.052305438 1.3917828e-38 269 284
-0.059175 0.67500001 -0.052074 1.3734516e-38 270 284
-0.057905588 0.67400002 -0.051996857 1.3734516e-38 271 284
-0.056723841 0.67400002 -0.051996857 1.3642317e-38 272 284
-0.055377278 0.67199999 -0.051842555 1.3642317e-38 273 284
-0.054118387 0.671 -0.051765412 1.364232e-38 274 284
-0.052863002 0.67000002 -0.051688269 1.364232e-38 275 284
-0.051533967 0.66799998 -0.051533967 1.3734516e-38 276 284
-0.050362743 0.66799998 -0.051533967 1.364232e-38 277 284
-0.049117878 0.667 -0.051456824 1.3917112e-38 278 284
-0.047948405 0.667 -0.051456824 1.3917112e-38 279 284
-0.046778932 0.667 -0.051456824 1.3917845e-38 280 284
-0.045541082 0.66600001 -0.051379681 1.4286986e-38 281 284
-0.04437336 0.66600001 -0.051379681 1.4472098e-38 282 284
-0.043075889 0.66399997 -0.051225383 1.4564293e-38 283 284
-0.041911677 0.66399997 -0.051225383 1.5206419e-38 284 284
-0.040686097 0.66299999 -0.051148236 1.4653245e-38 285 284
-0.039523639 0.66299999 -0.051148236 1.3917106e-38 286 284
-0.038303319 0.662 -0.051071092 1.3917106e-38 287 284
-0.037086505 0.66100001 -0.050993945 1.4470649e-38 288 284
-0.035927553 0.66100001 -0.050993945 1.5023823e-38 289 284
-0.0347686 0.66100001 -0.050993945 1.5483729e-38 290 284
-0.033609647 0.66100001 -0.050993945 1.5575924e-38 291 284
-0.032352503 0.65899998 -0.050839648 1.5850713e-38 292 284
-0.031197058 0.65899998 -0.050839648 1.5942909e-38 293 284
-0.030041611 0.65899998 -0.050839648 1.5851432e-38 294 284
-0.028886165 0.65899998 -0.050839648 1.5851432e-38 295 284
-0.027688639 0.65799999 -0.050762504 1.5851066e-38 296 284
-0.026534945 0.65799999 -0.050762504 1.5851066e-38 297 284
-0.025342681 0.65700001 -0.050685361 1.5943618e-38 298 284
-0.024190739 0.65700001 -0.050685361 1.5943618e-38 299 284
-0.023038799 0.65700001 -0.050685361 1.5851785e-38 300 284
-0.021886859 0.65700001 -0.050685361 1.5851785e-38 301 284
-0.020671798 0.65499997 -0.050531063 1.5667767e-38 302 284
-0.019523365 0.65499997 -0.050531063 1.5759962e-38 303 284
-0.018374931 0.65499997 -0.050531063 1.594328e-38 304 284
-0.017200198 0.65399998 -0.050453916 1.594328e-38 305 284
-0.01605352 0.65399998 -0.050453916 1.5851079e-38 306 284
-0.014906839 0.65399998 -0.050453916 1.5943633e-38 307 284
-0.013781199 0.65499997 -0.050531063 1.5760671e-38 308 284
-0.012632766 0.65499997 -0.050531063 1.5760671e-38 309 284
-0.011484332 0.65499997 -0.050531063 1.5761034e-38 310 284
-0.010335899 0.65499997 -0.050531063 1.585323e-38 311 284
-0.0091874655 0.65499997 -0.050531063 1.6128745e-38 312 284
-0.008039033 0.65499997 -0.050531063 1.6128745e-38 313 284
-0.0068905996 0.65499997 -0.050531063 1.5670288e-38 314 284
-0.0057421662 0.65499997 -0.050531063 1.5854679e-38 315 284
-0.0045937328 0.65499997 -0.050531063 1.6129827e-38 316 284
-0.0034452998 0.65499997 -0.050531063 1.6406053e-38 317 284
-0.0022968664 0.65499997 -0.050531063 1.6222391e-38 318 284
-0.0011484332 0.65499997 -0.050531063 1.6222391e-38 319 284
0 0.65499997 -0.050531063 1.6405347e-38 320 284
0.00115194 0.65700001 -0.050685361 1.612912e-38 321 284
0.0023038799 0.65700001 -0.050685361 1.5484457e-38 322 284
0.0034558198 0.65700001 -0.050685361 1.5115315e-38 323 284
0.0046077599 0.65700001 -0.050685361 1.4838003e-38 324 284
0.0057596997 0.65700001 -0.050685361 1.446958e-38 325 284
0.0069221598 0.65799999 -0.050762504 1.4467063e-38 326 284
0.0080758529 0.65799999 -0.050762504 1.474329e-38 327 284
0.0092295464 0.65799999 -0.050762504 1.4655057e-38 328 284
0.01038324 0.65799999 -0.050762504 1.4932002e-38 329 284
0.011554466 0.65899998 -0.050839648 1.4841253e-38 330 284
0.012748486 0.66100001 -0.050993945 1.511748e-38 331 284
0.01390744 0.66100001 -0.050993945 1.5302246e-38 332 284
0.015066394 0.66100001 -0.050993945 1.5763583e-38 333 284
0.016225345 0.66100001 -0.050993945 1.5856534e-38 334 284
-0.070757523 0.68400002 -0.053967599 1.2536044e-38 261 285
-0.06955824 0.68400002 -0.053967599 1.2997712e-38 262 285
-0.068358958 0.68400002 -0.053967599 1.3182104e-38 263 285
-0.067061491 0.68300003 -0.053888701 1.3641981e-38 264 285
-0.065767527 0.68199998 -0.053809796 1.3641981e-38 265 285
-0.064571753 0.68199998 -0.053809796 1.3917842e-38 266 285
-0.063190132 0.68000001 -0.053652 1.3733811e-38 267 285
-0.061906695 0.67900002 -0.053573098 1.3917476e-38 268 285
-0.06044792 0.676 -0.053336397 1.3917476e-38 269 285
-0.059175 0.67500001 -0.053257499 1.3917109e-38 270 285
-0.057991501 0.67500001 -0.053257499 1.3917109e-38 271 285
-0.056723841 0.67400002 -0.053178601 1.3733434e-38 272 285
-0.055377278 0.67199999 -0.053020798 1.3733434e-38 273 285
-0.054118387 0.671 -0.052941896 1.3733437e-38 274 285
-0.052863002 0.67000002 -0.052863002 1.3640882e-38 275 285
-0.051533967 0.66799998 -0.052705199 1.3640885e-38 276 285
-0.050362743 0.66799998 -0.052705199 1.3640885e-38 277 285
-0.049117878 0.667 -0.052626297 1.3640535e-38 278 285
-0.047948405 0.667 -0.052626297 1.3640535e-38 279 285
-0.046778932 0.667 -0.052626297 1.3549421e-38 280 285
-0.045541082 0.66600001 -0.052547399 1.3549421e-38 281 285
-0.04437336 0.66600001 -0.052547399 1.3734164e-38 282 285
-0.043075889 0.66399997 -0.052389596 1.4010391e-38 283 285
-0.041911677 0.66399997 -0.052389596 1.4469933e-38 284 285
-0.040686097 0.66299999 -0.052310698 1.3916759e-38 285 285
-0.039523639 0.66299999 -0.052310698 1.3178488e-38 286 285
-0.038303319 0.662 -0.0522318 1.3639466e-38 287 285
-0.037086505 0.66100001 -0.052152898 1.3917139e-38 288 285
-0.035927553 0.66100001 -0.052152898 1.428628e-38 289 285
-0.0347686 0.66100001 -0.052152898 1.4746889e-38 290 285
-0.033507951 0.65899998 -0.051995095 1.5115312e-38 291 285
-0.032352503 0.65899998 -0.051995095 1.5207512e-38 292 285
-0.031197058 0.65899998 -0.051995095 1.5207512e-38 293 285
-0.029996024 0.65799999 -0.051916201 1.5207515e-38 294 285
-0.028842334 0.65799999 -0.051916201 1.5207515e-38 295 285
-0.027688639 0.65799999 -0.051916201 1.5115668e-38 296 285
-0.026534945 0.65799999 -0.051916201 1.5115668e-38 297 285
-0.025342681 0.65700001 -0.051837299 1.5207862e-38 298 285
-0.024190739 0.65700001 -0.051837299 1.5207862e-38 299 285
-0.023038799 0.65700001 -0.051837299 1.5391177e-38 300 285
-0.021886859 0.65700001 -0.051837299 1.5391177e-38 301 285
-0.020671798 0.65499997 -0.051679496 1.5390827e-38 302 285
-0.019523365 0.65499997 -0.051679496 1.5390827e-38 303 285
-0.018374931 0.65499997 -0.051679496 1.5114611e-38 304 285
-0.017200198 0.65399998 -0.051600594 1.5206808e-38 305 285
-0.01605352 0.65399998 -0.051600594 1.5114611e-38 306 285
-0.014906839 0.65399998 -0.051600594 1.5206808e-38 307 285
-0.013781199 0.65499997 -0.051679496 1.5207164e-38 308 285
-0.012632766 0.65499997 -0.051679496 1.529936e-38 309 285
-0.011484332 0.65499997 -0.051679496 1.5299723e-38 310 285
-0.010335899 0.65499997 -0.051679496 1.5299723e-38 311 285
-0.0091874655 0.65499997 -0.051679496 1.5575221e-38 312 285
-0.008039033 0.65499997 -0.051679496 1.5667416e-38 313 285
-0.0068905996 0.65499997 -0.051679496 1.5210031e-38 314 285
-0.0057421662 0.65499997 -0.051679496 1.5394424e-38 315 285
-0.0045937328 0.65499997 -0.051679496 1.5853252e-38 316 285
-0.0034452998 0.65499997 -0.051679496 1.5945448e-38 317 285
-0.0022968664 0.65499997 -0.051679496 1.5761783e-38 318 285
-0.0011484332 0.65499997 -0.051679496 1.5853978e-38 319 285
0 0.65499997 -0.051679496 1.6037647e-38 320 285
0.0011484332 0.65499997 -0.051679496 1.5852897e-38 321 285
0.0023038799 0.65700001 -0.051837299 1.548482e-38 322 285
0.0034558198 0.65700001 -0.051837299 1.5208233e-38 323 285
0.0046077599 0.65700001 -0.051837299 1.4839082e-38 324 285
0.0057596997 0.65700001 -0.051837299 1.4562495e-38 325 285
0.0069116396 0.65700001 -0.051837299 1.4559977e-38 326 285
0.0080635799 0.65700001 -0.051837299 1.4375586e-38 327 285
0.0092295464 0.65799999 -0.051916201 1.4100794e-38 328 285
0.01038324 0.65799999 -0.051916201 1.4377381e-38 329 285
0.011536933 0.65799999 -0.051916201 1.4378827e-38 330 285
0.012709912 0.65899998 -0.051995095 1.4839804e-38 331 285
0.013865359 0.65899998 -0.051995095 1.5301526e-38 332 285
0.015020805 0.65899998 -0.051995095 1.58547e-38 333 285
0.016176252 0.65899998 -0.051995095 1.5394092e-38 334 285
0.017331699 0.65899998 -0.051995095 1.5301896e-38 335 285
0.018543253 0.66100001 -0.052152898 1.5393386e-38 336 285
-0.070964411 0.68599999 -0.055328183 1.1800292e-38 261 286
-0.069761619 0.68599999 -0.055328183 1.1248175e-38 262 286
-0.068358958 0.68400002 -0.055166878 1.1893545e-38 263 286
-0.067061491 0.68300003 -0.055086225 1.3088826e-38 264 286
-0.065863967 0.68300003 -0.055086225 1.3365771e-38 265 286
-0.064571753 0.68199998 -0.055005573 1.3824929e-38 266 286
-0.063190132 0.68000001 -0.054844268 1.3917126e-38 267 286
-0.061906695 0.67900002 -0.054763615 1.3917112e-38 268 286
-0.06044792 0.676 -0.054521654 1.3917112e-38 269 286
-0.059262663 0.676 -0.054521654 1.3825632e-38 270 286
-0.058077414 0.676 -0.054521654 1.3825632e-38 271 286
-0.056723841 0.67400002 -0.054360349 1.3825632e-38 272 286
-0.055377278 0.67199999 -0.054199036 1.3733437e-38 273 286
-0.054118387 0.671 -0.054118387 1.3732718e-38 274 286
-0.052863002 0.67000002 -0.054037735 1.3732718e-38 275 286
-0.051533967 0.66799998 -0.053876422 1.364052e-38 276 286
-0.050362743 0.66799998 -0.053876422 1.364052e-38 277 286
-0.049117878 0.667 -0.05379577 1.3456851e-38 278 286
-0.047948405 0.667 -0.05379577 1.3272459e-38 279 286
-0.046778932 0.667 -0.05379577 1.3639448e-38 280 286
-0.045541082 0.66600001 -0.053715117 1.3639448e-38 281 286
-0.04437336 0.66600001 -0.053715117 1.3088792e-38 282 286
-0.043075889 0.66399997 -0.053553808 1.3088792e-38 283 286
-0.041911677 0.66399997 -0.053553808 1.3547618e-38 284 286
-0.040686097 0.66299999 -0.053473156 1.3455422e-38 285 286
-0.039523639 0.66299999 -0.053473156 1.3455425e-38 286 286
-0.038303319 0.662 -0.053392503 1.354762e-38 287 286
-0.037086505 0.66100001 -0.053311851 1.3455425e-38 288 286
-0.035927553 0.66100001 -0.053311851 1.354762e-38 289 286
-0.0347686 0.66100001 -0.053311851 1.3826725e-38 290 286
-0.033507951 0.65899998 -0.053150542 1.4195507e-38 291 286
-0.032352503 0.65899998 -0.053150542 1.5389012e-38 292 286
-0.031149717 0.65799999 -0.05306989 1.5481208e-38 293 286
-0.029996024 0.65799999 -0.05306989 1.5389009e-38 294 286
-0.028842334 0.65799999 -0.05306989 1.5389009e-38 295 286
-0.027646558 0.65700001 -0.052989237 1.5205694e-38 296 286
-0.026494619 0.65700001 -0.052989237 1.5205694e-38 297 286
-0.025342681 0.65700001 -0.052989237 1.5114573e-38 298 286
-0.024190739 0.65700001 -0.052989237 1.5114573e-38 299 286
-0.023038799 0.65700001 -0.052989237 1.5023104e-38 300 286
-0.021886859 0.65700001 -0.052989237 1.5023104e-38 301 286
-0.020671798 0.65499997 -0.052827932 1.511387e-38 302 286
-0.019523365 0.65499997 -0.052827932 1.511387e-38 303 286
-0.018374931 0.65499997 -0.052827932 1.5112795e-38 304 286
-0.017200198 0.65399998 -0.052747279 1.5112795e-38 305 286
-0.01605352 0.65399998 -0.052747279 1.5204994e-38 306 286
-0.014906839 0.65399998 -0.052747279 1.5204994e-38 307 286
-0.013760159 0.65399998 -0.052747279 1.5113514e-38 308 286
-0.012613479 0.65399998 -0.052747279 1.5298264e-38 309 286
-0.011466799 0.65399998 -0.052747279 1.5023116e-38 310 286
-0.01032012 0.65399998 -0.052747279 1.5115312e-38 311 286
-0.0091734398 0.65399998 -0.052747279 1.5206791e-38 312 286
-0.0080267601 0.65399998 -0.052747279 1.5390824e-38 313 286
-0.0068800794 0.65399998 -0.052747279 1.5207868e-38 314 286
-0.0057333997 0.65399998 -0.052747279 1.5300063e-38 315 286
-0.0045867199 0.65399998 -0.052747279 1.5392256e-38 316 286
-0.0034400397 0.65399998 -0.052747279 1.5484452e-38 317 286
-0.00229336 0.65399998 -0.052747279 1.5484455e-38 318 286
-0.00114668 0.65399998 -0.052747279 1.5760681e-38 319 286
0 0.65499997 -0.052827932 1.5852161e-38 320 286
0.0011484332 0.65499997 -0.052827932 1.5759965e-38 321 286
0.0022968664 0.65499997 -0.052827932 1.5391906e-38 322 286
0.0034452998 0.65499997 -0.052827932 1.529971e-38 323 286
0.0045937328 0.65499997 -0.052827932 1.5024199e-38 324 286
0.0057421662 0.65499997 -0.052827932 1.4839807e-38 325 286
0.0068905996 0.65499997 -0.052827932 1.4838006e-38 326 286
0.008039033 0.65499997 -0.052827932 1.474581e-38 327 286
0.0092155198 0.65700001 -0.052989237 1.4378827e-38 328 286
0.01036746 0.65700001 -0.052989237 1.4563217e-38 329 286
0.011536933 0.65799999 -0.05306989 1.4562864e-38 330 286
0.012690626 0.65799999 -0.05306989 1.4931646e-38 331 286
0.013865359 0.65899998 -0.053150542 1.5118211e-38 332 286
0.015020805 0.65899998 -0.053150542 1.5394439e-38 333 286
0.016176252 0.65899998 -0.053150542 1.5852546e-38 334 286
0.0173843 0.66100001 -0.053311851 1.5944742e-38 335 286
0.018543253 0.66100001 -0.053311851 1.5761076e-38 336 286
0.019702207 0.66100001 -0.053311851 1.5207903e-38 337 286
0.022486499 0.67500001 -0.054441001 1.4195195e-38 339 286
0.023669999 0.67500001 -0.054441001 1.4378511e-38 340 286
0.0248535 0.67500001 -0.054441001 1.4562902e-38 341 286
0.026037 0.67500001 -0.054441001 1.4379959e-38 342 286
0.027220501 0.67500001 -0.054441001 1.4379959e-38 343 286
0.028446076 0.676 -0.054521654 1.4379236e-38 344 286
-0.069761619 0.68599999 -0.056530971 1.161411e-38 262 287
-0.068358958 0.68400002 -0.056366164 1.161411e-38 263 287
-0.067061491 0.68300003 -0.056283753 1.1523687e-38 264 287
-0.065863967 0.68300003 -0.056283753 1.1800633e-38 265 287
-0.064571753 0.68199998 -0.056201346 1.2904792e-38 266 287
-0.06235379 0.671 -0.055294871 1.3365768e-38 267 287
-0.061177302 0.671 -0.055294871 1.3273557e-38 268 287
-0.06044792 0.676 -0.055706903 1.3365753e-38 269 287
-0.059262663 0.676 -0.055706903 1.3641611e-38 270 287
-0.058077414 0.676 -0.055706903 1.3641611e-38 271 287
-0.056808002 0.67500001 -0.0556245 1.3733437e-38 272 287
-0.055542093 0.67400002 -0.055542093 1.3733437e-38 273 287
-0.054199036 0.67199999 -0.055377278 1.3640882e-38 274 287
-0.052941896 0.671 -0.055294871 1.3456851e-38 275 287
-0.051688269 0.67000002 -0.055212468 1.3640882e-38 276 287
-0.050362743 0.66799998 -0.05504765 1.3364656e-38 277 287
-0.04919152 0.66799998 -0.05504765 1.3364656e-38 278 287
-0.047948405 0.667 -0.054965243 1.3364656e-38 279 287
-0.046778932 0.667 -0.054965243 1.317991e-38 280 287
-0.045541082 0.66600001 -0.054882839 1.3272107e-38 281 287
-0.04437336 0.66600001 -0.054882839 1.2995894e-38 282 287
-0.043075889 0.66399997 -0.054718021 1.2995894e-38 283 287
-0.041911677 0.66399997 -0.054718021 1.2904064e-38 284 287
-0.040686097 0.66299999 -0.054635618 1.2904064e-38 285 287
-0.039523639 0.66299999 -0.054635618 1.2995891e-38 286 287
-0.038245458 0.66100001 -0.054470807 1.2995891e-38 287 287
-0.037086505 0.66100001 -0.054470807 1.2996612e-38 288 287
-0.035927553 0.66100001 -0.054470807 1.2996612e-38 289 287
-0.034663398 0.65899998 -0.054305989 1.3456867e-38 290 287
-0.033507951 0.65899998 -0.054305989 1.3733814e-38 291 287
-0.032352503 0.65899998 -0.054305989 1.4285536e-38 292 287
-0.031149717 0.65799999 -0.054223582 1.4377731e-38 293 287
-0.029996024 0.65799999 -0.054223582 1.4285167e-38 294 287
-0.028842334 0.65799999 -0.054223582 1.4285167e-38 295 287
-0.027646558 0.65700001 -0.054141179 1.4101493e-38 296 287
-0.026494619 0.65700001 -0.054141179 1.419369e-38 297 287
-0.025342681 0.65700001 -0.054141179 1.4286983e-38 298 287
-0.024190739 0.65700001 -0.054141179 1.437918e-38 299 287
-0.023038799 0.65700001 -0.054141179 1.4195884e-38 300 287
-0.021886859 0.65700001 -0.054141179 1.4011491e-38 301 287
-0.020671798 0.65499997 -0.053976361 1.4470296e-38 302 287
-0.019523365 0.65499997 -0.053976361 1.4101873e-38 303 287
-0.018374931 0.65499997 -0.053976361 1.428482e-38 304 287
-0.017200198 0.65399998 -0.053893957 1.428482e-38 305 287
-0.01605352 0.65399998 -0.053893957 1.3918574e-38 306 287
-0.014906839 0.65399998 -0.053893957 1.4010769e-38 307 287
-0.013760159 0.65399998 -0.053893957 1.4286647e-38 308 287
-0.012594193 0.653 -0.05381155 1.4378843e-38 309 287
-0.011449266 0.653 -0.05381155 1.4563593e-38 310 287
-0.01032012 0.65399998 -0.053893957 1.4563593e-38 311 287
-0.0091594132 0.653 -0.05381155 1.4655785e-38 312 287
-0.0080144862 0.653 -0.05381155 1.4655785e-38 313 287
-0.0068695596 0.653 -0.05381155 1.4840173e-38 314 287
-0.0057246331 0.653 -0.05381155 1.4840173e-38 315 287
-0.0045797066 0.653 -0.05381155 1.4932372e-38 316 287
-0.0034400397 0.65399998 -0.053893957 1.4932372e-38 317 287
-0.00229336 0.65399998 -0.053893957 1.4932016e-38 318 287
-0.00114668 0.65399998 -0.053893957 1.5116766e-38 319 287
0 0.65399998 -0.053893957 1.511641e-38 320 287
0.0011484332 0.65499997 -0.053976361 1.511641e-38 321 287
0.0022968664 0.65499997 -0.053976361 1.4932016e-38 322 287
0.0034400397 0.65399998 -0.053893957 1.4932016e-38 323 287
0.0045867199 0.65399998 -0.053893957 1.4932002e-38 324 287
0.0057421662 0.65499997 -0.053976361 1.4839807e-38 325 287
0.0068905996 0.65499997 -0.053976361 1.4839435e-38 326 287
0.008039033 0.65499997 -0.053976361 1.5116021e-38 327 287
0.0091874655 0.65499997 -0.053976361 1.4840154e-38 328 287
0.01036746 0.65700001 -0.054141179 1.4840154e-38 329 287
0.011519399 0.65700001 -0.054141179 1.484017e-38 330 287
0.012690626 0.65799999 -0.054223582 1.5024921e-38 331 287
0.013865359 0.65899998 -0.054305989 1.4933833e-38 332 287
0.015020805 0.65899998 -0.054305989 1.502603e-38 333 287
0.016176252 0.65899998 -0.054305989 1.5300468e-38 334 287
0.017331699 0.65899998 -0.054305989 1.5393023e-38 335 287
0.018543253 0.66100001 -0.054470807 1.5394092e-38 336 287
0.019791625 0.66399997 -0.054718021 1.5301896e-38 337 287
0.02101896 0.66600001 -0.054882839 1.4840547e-38 338 287
0.022219993 0.667 -0.054965243 1.4379567e-38 339 287
0.023564799 0.67199999 -0.055377278 1.4010416e-38 340 287
0.024816679 0.67400002 -0.055542093 1.4010416e-38 341 287
0.025998428 0.67400002 -0.055542093 1.4103335e-38 342 287
0.027180174 0.67400002 -0.055542093 1.419553e-38 343 287
0.028404001 0.67500001 -0.0556245 1.4379567e-38 344 287
0.029631332 0.676 -0.055706903 1.4195177e-38 345 287
-0.067159683 0.68400002 -0.057565439 9.6822956e-39 264 288
-0.065863967 0.68300003 -0.057481278 9.5900985e-39 265 288
-0.064571753 0.68199998 -0.05739712 1.1247081e-38 266 288
-0.06235379 0.671 -0.056471359 1.1616223e-38 267 288
-0.061177302 0.671 -0.056471359 1.2994815e-38 268 288
-0.06044792 0.676 -0.056892153 1.3363599e-38 269 288
-0.059262663 0.676 -0.056892153 1.3366103e-38 270 288
-0.058077414 0.676 -0.056892153 1.3366103e-38 271 288
-0.056808002 0.67500001 -0.056808002 1.3549769e-38 272 288
-0.0556245 0.67500001 -0.056808002 1.3549769e-38 273 288
-0.054199036 0.67199999 -0.056555521 1.3640882e-38 274 288
-0.052941896 0.671 -0.056471359 1.3640882e-38 275 288
-0.051688269 0.67000002 -0.056387197 1.3457204e-38 276 288
-0.050362743 0.66799998 -0.056218877 1.3365009e-38 277 288
-0.04919152 0.66799998 -0.056218877 1.3272812e-38 278 288
-0.047948405 0.667 -0.056134716 1.3272812e-38 279 288
-0.046778932 0.667 -0.056134716 1.3272459e-38 280 288
-0.045541082 0.66600001 -0.056050558 1.3088067e-38 281 288
-0.04437336 0.66600001 -0.056050558 1.2995163e-38 282 288
-0.043205637 0.66600001 -0.056050558 1.2811132e-38 283 288
-0.041911677 0.66399997 -0.055882234 1.2718583e-38 284 288
-0.040686097 0.66299999 -0.055798076 1.2810778e-38 285 288
-0.039523639 0.66299999 -0.055798076 1.2811853e-38 286 288
-0.038245458 0.66100001 -0.05562976 1.2811853e-38 287 288
-0.037086505 0.66100001 -0.05562976 1.3087361e-38 288 288
-0.035927553 0.66100001 -0.05562976 1.3087361e-38 289 288
-0.034663398 0.65899998 -0.055461437 1.3088442e-38 290 288
-0.033507951 0.65899998 -0.055461437 1.3272473e-38 291 288
-0.032352503 0.65899998 -0.055461437 1.3272478e-38 292 288
-0.031149717 0.65799999 -0.055377278 1.3364674e-38 293 288
-0.029996024 0.65799999 -0.055377278 1.3178838e-38 294 288
-0.028842334 0.65799999 -0.055377278 1.2994447e-38 295 288
