# .PCD v.7 - Point Cloud Data file format
FIELDS x y z rgb imX imY
SIZE 4 4 4 4 4 4
TYPE F F F F F F
COUNT 1 1 1 1 1 1
WIDTH 846
HEIGHT 1
VIEWPOINT 0 0 0 1 0 0 0
POINTS 846
DATA ascii
-0.066538997 0.759 -0.049238857 1.6220192e-38 270 277
-0.065208219 0.759 -0.049238857 1.6404944e-38 271 277
-0.063877434 0.759 -0.049238857 1.6497136e-38 272 277
-0.062546656 0.759 -0.049238857 1.6589691e-38 273 277
-0.061215881 0.759 -0.049238857 1.6957392e-38 274 277
-0.059885096 0.759 -0.049238857 1.6865196e-38 275 277
-0.058708608 0.76099998 -0.049368605 1.6957748e-38 276 277
-0.057374325 0.76099998 -0.049368605 1.6865552e-38 277 277
-0.056040037 0.76099998 -0.049368605 1.6865546e-38 278 277
-0.054561976 0.759 -0.049238857 1.6773351e-38 279 277
-0.053231198 0.759 -0.049238857 1.6497843e-38 280 277
-0.051900417 0.759 -0.049238857 1.6497843e-38 281 277
-0.050569639 0.759 -0.049238857 1.649749e-38 282 277
-0.049238857 0.759 -0.049238857 1.649749e-38 283 277
-0.047908079 0.759 -0.049238857 1.6405293e-38 284 277
-0.046577301 0.759 -0.049238857 1.6405293e-38 285 277
-0.045246519 0.759 -0.049238857 1.6404577e-38 286 277
-0.043915741 0.759 -0.049238857 1.6312022e-38 287 277
-0.042584959 0.759 -0.049238857 1.6036898e-38 288 277
-0.041254178 0.759 -0.049238857 1.6036898e-38 289 277
-0.088757239 0.76700002 -0.051102653 1.1705876e-38 254 278
-0.087412432 0.76700002 -0.051102653 1.1982463e-38 255 278
-0.086067624 0.76700002 -0.051102653 1.280933e-38 256 278
-0.084722824 0.76700002 -0.051102653 1.2994081e-38 257 278
-0.083269298 0.76599997 -0.051036026 1.3271011e-38 258 278
-0.081712343 0.764 -0.050902773 1.3455402e-38 259 278
-0.080372795 0.764 -0.050902773 1.3548674e-38 260 278
-0.07882636 0.76200002 -0.050769519 1.3733065e-38 261 278
-0.077490322 0.76200002 -0.050769519 1.4468115e-38 262 278
-0.076154284 0.76200002 -0.050769519 1.4836539e-38 263 278
-0.074720047 0.76099998 -0.050702889 1.4746144e-38 264 278
-0.07338576 0.76099998 -0.050702889 1.483834e-38 265 278
-0.071862116 0.759 -0.050569639 1.5206047e-38 266 278
-0.070531338 0.759 -0.050569639 1.5390797e-38 267 278
-0.069200553 0.759 -0.050569639 1.5666674e-38 268 278
-0.067869775 0.759 -0.050569639 1.5758871e-38 269 278
-0.066538997 0.759 -0.050569639 1.566847e-38 270 278
-0.065208219 0.759 -0.050569639 1.585322e-38 271 278
-0.063877434 0.759 -0.050569639 1.6220925e-38 272 278
-0.062546656 0.759 -0.050569639 1.6313121e-38 273 278
-0.061215881 0.759 -0.050569639 1.6588985e-38 274 278
-0.059885096 0.759 -0.050569639 1.668118e-38 275 278
-0.058708608 0.76099998 -0.050702889 1.6681531e-38 276 278
-0.057374325 0.76099998 -0.050702889 1.6589335e-38 277 278
-0.055892758 0.759 -0.050569639 1.6865552e-38 278 278
-0.054561976 0.759 -0.050569639 1.6773356e-38 279 278
-0.053231198 0.759 -0.050569639 1.6864833e-38 280 278
-0.051900417 0.759 -0.050569639 1.6864833e-38 281 278
-0.050569639 0.759 -0.050569639 1.6864833e-38 282 278
-0.049238857 0.759 -0.050569639 1.6772637e-38 283 278
-0.047908079 0.759 -0.050569639 1.6680082e-38 284 278
-0.046577301 0.759 -0.050569639 1.6680082e-38 285 278
-0.045246519 0.759 -0.050569639 1.6680438e-38 286 278
-0.043915741 0.759 -0.050569639 1.6680438e-38 287 278
-0.042584959 0.759 -0.050569639 1.6588609e-38 288 278
-0.041254178 0.759 -0.050569639 1.6404577e-38 289 278
-0.0399234 0.759 -0.050569639 1.5851432e-38 290 278
-0.036672719 0.74699998 -0.049770117 1.5669975e-38 292 278
-0.035362978 0.74699998 -0.049770117 1.6684127e-38 293 278
-0.034281172 0.75199997 -0.050103247 1.6962924e-38 294 278
-0.088757239 0.76700002 -0.052447457 1.1885948e-38 254 279
-0.087412432 0.76700002 -0.052447457 1.2254729e-38 255 279
-0.086067624 0.76700002 -0.052447457 1.2073917e-38 256 279
-0.084722824 0.76700002 -0.052447457 1.2442698e-38 257 279
-0.083269298 0.76599997 -0.052379075 1.3085528e-38 258 279
-0.081712343 0.764 -0.052242316 1.3362115e-38 259 279
-0.080372795 0.764 -0.052242316 1.354686e-38 260 279
-0.07882636 0.76200002 -0.052105557 1.3731251e-38 261 279
-0.077490322 0.76200002 -0.052105557 1.4282627e-38 262 279
-0.076154284 0.76200002 -0.052105557 1.4559214e-38 263 279
-0.074720047 0.76099998 -0.052037176 1.4100759e-38 264 279
-0.07338576 0.76099998 -0.052037176 1.4561737e-38 265 279
-0.071862116 0.759 -0.051900417 1.483869e-38 266 279
-0.070531338 0.759 -0.051900417 1.483869e-38 267 279
-0.069200553 0.759 -0.051900417 1.5664855e-38 268 279
-0.067869775 0.759 -0.051900417 1.5849605e-38 269 279
-0.066538997 0.759 -0.051900417 1.5942517e-38 270 279
-0.065208219 0.759 -0.051900417 1.6127268e-38 271 279
-0.063709125 0.75700003 -0.051763661 1.6403495e-38 272 279
-0.062381849 0.75700003 -0.051763661 1.6587886e-38 273 279
-0.061054576 0.75700003 -0.051763661 1.6588253e-38 274 279
-0.059885096 0.759 -0.051900417 1.6680807e-38 275 279
-0.058554318 0.759 -0.051900417 1.6772647e-38 276 279
-0.05722354 0.759 -0.051900417 1.6772647e-38 277 279
-0.055892758 0.759 -0.051900417 1.6773003e-38 278 279
-0.054418206 0.75700003 -0.051763661 1.6865199e-38 279 279
-0.053090934 0.75700003 -0.051763661 1.6865199e-38 280 279
-0.051900417 0.759 -0.051900417 1.6865199e-38 281 279
-0.050569639 0.759 -0.051900417 1.6864477e-38 282 279
-0.049238857 0.759 -0.051900417 1.6772281e-38 283 279
-0.047908079 0.759 -0.051900417 1.6680802e-38 284 279
-0.046577301 0.759 -0.051900417 1.6680802e-38 285 279
-0.045246519 0.759 -0.051900417 1.6681158e-38 286 279
-0.043915741 0.759 -0.051900417 1.6681158e-38 287 279
-0.042584959 0.759 -0.051900417 1.6772632e-38 288 279
-0.041254178 0.759 -0.051900417 1.6680435e-38 289 279
-0.039712999 0.755 -0.051626898 1.6220548e-38 290 279
-0.038389232 0.755 -0.051626898 1.6312744e-38 291 279
-0.036672719 0.74699998 -0.051079858 1.6403186e-38 292 279
-0.035362978 0.74699998 -0.051079858 1.6495382e-38 293 279
-0.034281172 0.75199997 -0.051421758 1.5669992e-38 294 279
-0.033050332 0.75400001 -0.051558517 1.6500111e-38 295 279
-0.089220122 0.77100003 -0.054072797 1.1425694e-38 254 280
-0.087640367 0.76899999 -0.053932533 1.1610087e-38 255 280
-0.086067624 0.76700002 -0.053792264 1.1519689e-38 256 280
-0.084722824 0.76700002 -0.053792264 1.1980667e-38 257 280
-0.083269298 0.76599997 -0.053722132 1.2074288e-38 258 280
-0.081712343 0.764 -0.053581864 1.2350875e-38 259 280
-0.080372795 0.764 -0.053581864 1.281005e-38 260 280
-0.07882636 0.76200002 -0.053441599 1.2902604e-38 261 280
-0.077490322 0.76200002 -0.053441599 1.3362856e-38 262 280
-0.076054335 0.76099998 -0.053371463 1.3639803e-38 263 280
-0.074720047 0.76099998 -0.053371463 1.3916378e-38 264 280
-0.073192894 0.759 -0.053231198 1.4101128e-38 265 280
-0.071862116 0.759 -0.053231198 1.428517e-38 266 280
-0.070531338 0.759 -0.053231198 1.4561397e-38 267 280
-0.069200553 0.759 -0.053231198 1.4928384e-38 268 280
-0.067869775 0.759 -0.053231198 1.5113134e-38 269 280
-0.06636367 0.75700003 -0.053090934 1.5023807e-38 270 280
-0.065036394 0.75700003 -0.053090934 1.5116003e-38 271 280
-0.063709125 0.75700003 -0.053090934 1.5391882e-38 272 280
-0.062381849 0.75700003 -0.053090934 1.5576275e-38 273 280
-0.060893264 0.755 -0.052950665 1.5760671e-38 274 280
-0.059569497 0.755 -0.052950665 1.6036898e-38 275 280
-0.058245733 0.755 -0.052950665 1.6129448e-38 276 280
-0.056921966 0.755 -0.052950665 1.631384e-38 277 280
-0.055745479 0.75700003 -0.053090934 1.6590054e-38 278 280
-0.054418206 0.75700003 -0.053090934 1.6590054e-38 279 280
-0.053090934 0.75700003 -0.053090934 1.6865196e-38 280 280
-0.051763661 0.75700003 -0.053090934 1.6865196e-38 281 280
-0.050436385 0.75700003 -0.053090934 1.6864833e-38 282 280
-0.049238857 0.759 -0.053231198 1.6772637e-38 283 280
-0.047908079 0.759 -0.053231198 1.6772635e-38 284 280
-0.046577301 0.759 -0.053231198 1.6772635e-38 285 280
-0.045246519 0.759 -0.053231198 1.6772985e-38 286 280
-0.043915741 0.759 -0.053231198 1.6680788e-38 287 280
-0.042584959 0.759 -0.053231198 1.6680788e-38 288 280
-0.041254178 0.759 -0.053231198 1.6680788e-38 289 280
-0.039712999 0.755 -0.052950665 1.6587886e-38 290 280
-0.038389232 0.755 -0.052950665 1.6680082e-38 291 280
-0.037065465 0.755 -0.052950665 1.6404941e-38 292 280
-0.035694357 0.75400001 -0.052880533 1.6036517e-38 293 280
-0.034372345 0.75400001 -0.052880533 1.5390457e-38 294 280
-0.033050332 0.75400001 -0.052880533 1.5943631e-38 295 280
-0.031644158 0.75199997 -0.052740261 1.6314997e-38 296 280
-0.030325651 0.75199997 -0.052740261 1.7052564e-38 297 280
-0.029007144 0.75199997 -0.052740261 1.6963646e-38 298 280
-0.027688639 0.75199997 -0.052740261 1.7424265e-38 299 280
-0.087640367 0.76899999 -0.055280842 1.1150549e-38 255 281
-0.086067624 0.76700002 -0.055137072 1.1701553e-38 256 281
-0.084722824 0.76700002 -0.055137072 1.1886304e-38 257 281
-0.083269298 0.76599997 -0.055065181 1.2071396e-38 258 281
-0.081712343 0.764 -0.054921411 1.2347981e-38 259 281
-0.080372795 0.764 -0.054921411 1.2533799e-38 260 281
-0.07882636 0.76200002 -0.054777641 1.271819e-38 261 281
-0.077490322 0.76200002 -0.054777641 1.3361395e-38 262 281
-0.076054335 0.76099998 -0.05470575 1.3545788e-38 263 281
-0.074720047 0.76099998 -0.05470575 1.3913494e-38 264 281
-0.073192894 0.759 -0.054561976 1.4282276e-38 265 281
-0.071862116 0.759 -0.054561976 1.4374116e-38 266 281
-0.070531338 0.759 -0.054561976 1.4558866e-38 267 281
-0.069200553 0.759 -0.054561976 1.4469186e-38 268 281
-0.067690939 0.75700003 -0.054418206 1.4561381e-38 269 281
-0.06636367 0.75700003 -0.054418206 1.4929441e-38 270 281
-0.065036394 0.75700003 -0.054418206 1.5113832e-38 271 281
-0.063709125 0.75700003 -0.054418206 1.5665208e-38 272 281
-0.062217031 0.755 -0.054274432 1.5849599e-38 273 281
-0.060893264 0.755 -0.054274432 1.594324e-38 274 281
-0.059569497 0.755 -0.054274432 1.6127631e-38 275 281
-0.058245733 0.755 -0.054274432 1.6312025e-38 276 281
-0.056921966 0.755 -0.054274432 1.6404221e-38 277 281
-0.055745479 0.75700003 -0.054418206 1.6680452e-38 278 281
-0.054418206 0.75700003 -0.054418206 1.6865202e-38 279 281
-0.053090934 0.75700003 -0.054418206 1.6865202e-38 280 281
-0.051763661 0.75700003 -0.054418206 1.6865202e-38 281 281
-0.050436385 0.75700003 -0.054418206 1.6864846e-38 282 281
-0.049109112 0.75700003 -0.054418206 1.6864846e-38 283 281
-0.04778184 0.75700003 -0.054418206 1.6773003e-38 284 281
-0.046454567 0.75700003 -0.054418206 1.6773003e-38 285 281
-0.045127295 0.75700003 -0.054418206 1.6681158e-38 286 281
-0.043915741 0.759 -0.054561976 1.6681158e-38 287 281
-0.042584959 0.759 -0.054561976 1.6680438e-38 288 281
-0.041254178 0.759 -0.054561976 1.6680438e-38 289 281
-0.039818201 0.75700003 -0.054418206 1.6588242e-38 290 281
-0.038389232 0.755 -0.054274432 1.6495688e-38 291 281
-0.037065465 0.755 -0.054274432 1.6220896e-38 292 281
-0.035694357 0.75400001 -0.054202545 1.6220896e-38 293 281
-0.034372345 0.75400001 -0.054202545 1.6311675e-38 294 281
-0.033050332 0.75400001 -0.054202545 1.6311675e-38 295 281
-0.031644158 0.75199997 -0.054058768 1.5759615e-38 296 281
-0.030325651 0.75199997 -0.054058768 1.5759615e-38 297 281
-0.029007144 0.75199997 -0.054058768 1.5394117e-38 298 281
-0.027688639 0.75199997 -0.054058768 1.659266e-38 299 281
-0.02637013 0.75199997 -0.054058768 1.6320074e-38 300 281
-0.086292051 0.76899999 -0.056629159 1.1150905e-38 256 282
-0.084722824 0.76700002 -0.056481879 1.1243101e-38 257 282
-0.083269298 0.76599997 -0.056408234 1.1335646e-38 258 282
-0.081712343 0.764 -0.056260962 1.1520396e-38 259 282
-0.080372795 0.764 -0.056260962 1.1706212e-38 260 282
-0.07882636 0.76200002 -0.056113683 1.1798409e-38 261 282
-0.077490322 0.76200002 -0.056113683 1.2625645e-38 262 282
-0.076054335 0.76099998 -0.056040037 1.2810036e-38 263 282
-0.074720047 0.76099998 -0.056040037 1.3177743e-38 264 282
-0.073192894 0.759 -0.055892758 1.3454689e-38 265 282
-0.071862116 0.759 -0.055892758 1.373055e-38 266 282
-0.070531338 0.759 -0.055892758 1.4006778e-38 267 282
-0.069200553 0.759 -0.055892758 1.4100406e-38 268 282
-0.067690939 0.75700003 -0.055745479 1.4284437e-38 269 282
-0.06636367 0.75700003 -0.055745479 1.4561031e-38 270 282
-0.065036394 0.75700003 -0.055745479 1.4653227e-38 271 282
-0.063709125 0.75700003 -0.055745479 1.5112403e-38 272 282
-0.062217031 0.755 -0.055598196 1.5296794e-38 273 282
-0.060893264 0.755 -0.055598196 1.5299315e-38 274 282
-0.059569497 0.755 -0.055598196 1.5391511e-38 275 282
-0.058245733 0.755 -0.055598196 1.5575553e-38 276 282
-0.056921966 0.755 -0.055598196 1.5852138e-38 277 282
-0.055598196 0.755 -0.055598196 1.6128728e-38 278 282
-0.054274432 0.755 -0.055598196 1.6220925e-38 279 282
-0.052950665 0.755 -0.055598196 1.6496786e-38 280 282
-0.051626898 0.755 -0.055598196 1.6681536e-38 281 282
-0.050436385 0.75700003 -0.055745479 1.677265e-38 282 282
-0.049109112 0.75700003 -0.055745479 1.6864846e-38 283 282
-0.047655597 0.755 -0.055598196 1.6864127e-38 284 282
-0.04633183 0.755 -0.055598196 1.6864127e-38 285 282
-0.045008067 0.755 -0.055598196 1.6680807e-38 286 282
-0.043684296 0.755 -0.055598196 1.6588253e-38 287 282
-0.042360533 0.755 -0.055598196 1.6680082e-38 288 282
-0.041036766 0.755 -0.055598196 1.6587886e-38 289 282
-0.039712999 0.755 -0.055598196 1.6588239e-38 290 282
-0.038389232 0.755 -0.055598196 1.6588239e-38 291 282
-0.037065465 0.755 -0.055598196 1.6312731e-38 292 282
-0.035741698 0.755 -0.055598196 1.6220177e-38 293 282
-0.034372345 0.75400001 -0.055524562 1.622018e-38 294 282
-0.033050332 0.75400001 -0.055524562 1.6127984e-38 295 282
-0.03172832 0.75400001 -0.055524562 1.6127268e-38 296 282
-0.030325651 0.75199997 -0.055377278 1.5942517e-38 297 282
-0.029007144 0.75199997 -0.055377278 1.5575218e-38 298 282
-0.027688639 0.75199997 -0.055377278 1.6220587e-38 299 282
-0.02637013 0.75199997 -0.055377278 1.5946587e-38 300 282
-0.084722824 0.76700002 -0.057826683 1.0875039e-38 257 283
-0.083269298 0.76599997 -0.057751291 1.124273e-38 258 283
-0.081926249 0.76599997 -0.057751291 1.124273e-38 259 283
-0.080372795 0.764 -0.057600506 1.1519311e-38 260 283
-0.07882636 0.76200002 -0.057449725 1.1704061e-38 261 283
-0.077490322 0.76200002 -0.057449725 1.2347981e-38 262 283
-0.076054335 0.76099998 -0.057374325 1.262457e-38 263 283
-0.074720047 0.76099998 -0.057374325 1.2992985e-38 264 283
-0.073192894 0.759 -0.05722354 1.3361409e-38 265 283
-0.071862116 0.759 -0.05722354 1.3728396e-38 266 283
-0.070531338 0.759 -0.05722354 1.3913146e-38 267 283
-0.069200553 0.759 -0.05722354 1.4006055e-38 268 283
-0.067690939 0.75700003 -0.057072755 1.4190807e-38 269 283
-0.06636367 0.75700003 -0.057072755 1.4284074e-38 270 283
-0.064864561 0.755 -0.056921966 1.4468465e-38 271 283
-0.063540794 0.755 -0.056921966 1.4561737e-38 272 283
-0.062217031 0.755 -0.056921966 1.4746129e-38 273 283
-0.060893264 0.755 -0.056921966 1.5022358e-38 274 283
-0.059569497 0.755 -0.056921966 1.5114555e-38 275 283
-0.058168583 0.75400001 -0.056846574 1.5481911e-38 276 283
-0.056846574 0.75400001 -0.056846574 1.5666302e-38 277 283
-0.055524562 0.75400001 -0.056846574 1.5852138e-38 278 283
-0.054202545 0.75400001 -0.056846574 1.603653e-38 279 283
-0.052950665 0.755 -0.056921966 1.6311677e-38 280 283
-0.051626898 0.755 -0.056921966 1.6680101e-38 281 283
-0.050303131 0.755 -0.056921966 1.6588985e-38 282 283
-0.048979364 0.755 -0.056921966 1.6588985e-38 283 283
-0.047655597 0.755 -0.056921966 1.6772653e-38 284 283
-0.046270464 0.75400001 -0.056846574 1.6680098e-38 285 283
-0.044948451 0.75400001 -0.056846574 1.6772284e-38 286 283
-0.043626439 0.75400001 -0.056846574 1.6680089e-38 287 283
-0.042304426 0.75400001 -0.056846574 1.6587886e-38 288 283
-0.041036766 0.755 -0.056921966 1.6587886e-38 289 283
-0.039712999 0.755 -0.056921966 1.6495688e-38 290 283
-0.038389232 0.755 -0.056921966 1.6403492e-38 291 283
-0.037065465 0.755 -0.056921966 1.6219461e-38 292 283
-0.035741698 0.755 -0.056921966 1.6219461e-38 293 283
-0.034372345 0.75400001 -0.056846574 1.6035435e-38 294 283
-0.033050332 0.75400001 -0.056846574 1.6035435e-38 295 283
-0.03172832 0.75400001 -0.056846574 1.5851767e-38 296 283
-0.030406307 0.75400001 -0.056846574 1.5851767e-38 297 283
-0.029007144 0.75199997 -0.056695782 1.6127281e-38 298 283
-0.027688639 0.75199997 -0.056695782 1.5758498e-38 299 283
-0.02637013 0.75199997 -0.056695782 1.5297911e-38 300 283
-0.025118252 0.75400001 -0.056846574 1.5390107e-38 301 283
-0.02379624 0.75400001 -0.056846574 1.5577796e-38 302 283
-0.083269298 0.76599997 -0.059094343 1.0874676e-38 258 284
-0.081926249 0.76599997 -0.059094343 1.0782121e-38 259 284
-0.080372795 0.764 -0.058940053 1.1058341e-38 260 284
-0.07882636 0.76200002 -0.058785759 1.1426764e-38 261 284
-0.077490322 0.76200002 -0.058785759 1.1886652e-38 262 284
-0.076054335 0.76099998 -0.058708608 1.2255433e-38 263 284
-0.074720047 0.76099998 -0.058708608 1.2807516e-38 264 284
-0.073192894 0.759 -0.058554318 1.3084102e-38 265 284
-0.071862116 0.759 -0.058554318 1.3267771e-38 266 284
-0.070531338 0.759 -0.058554318 1.3636554e-38 267 284
-0.069200553 0.759 -0.058554318 1.354579e-38 268 284
-0.067690939 0.75700003 -0.058400027 1.3822017e-38 269 284
-0.06636367 0.75700003 -0.058400027 1.3823446e-38 270 284
-0.064864561 0.755 -0.058245733 1.4100033e-38 271 284
-0.063540794 0.755 -0.058245733 1.4284422e-38 272 284
-0.062217031 0.755 -0.058245733 1.4469172e-38 273 284
-0.060893264 0.755 -0.058245733 1.4745047e-38 274 284
-0.059490599 0.75400001 -0.058168583 1.4929797e-38 275 284
-0.058168583 0.75400001 -0.058168583 1.5204954e-38 276 284
-0.056846574 0.75400001 -0.058168583 1.5481543e-38 277 284
-0.055524562 0.75400001 -0.058168583 1.5849615e-38 278 284
-0.054202545 0.75400001 -0.058168583 1.6126562e-38 279 284
-0.052880533 0.75400001 -0.058168583 1.5943612e-38 280 284
-0.051558517 0.75400001 -0.058168583 1.6220198e-38 281 284
-0.050236505 0.75400001 -0.058168583 1.6587903e-38 282 284
-0.048914492 0.75400001 -0.058168583 1.6680098e-38 283 284
-0.04759248 0.75400001 -0.058168583 1.6680454e-38 284 284
-0.046270464 0.75400001 -0.058168583 1.6680454e-38 285 284
-0.044948451 0.75400001 -0.058168583 1.6588253e-38 286 284
-0.043626439 0.75400001 -0.058168583 1.6404221e-38 287 284
-0.042304426 0.75400001 -0.058168583 1.6312022e-38 288 284
-0.040982414 0.75400001 -0.058168583 1.6219827e-38 289 284
-0.039660402 0.75400001 -0.058168583 1.6494971e-38 290 284
-0.038338386 0.75400001 -0.058168583 1.6402776e-38 291 284
-0.037016369 0.75400001 -0.058168583 1.6310577e-38 292 284
-0.035694357 0.75400001 -0.058168583 1.621838e-38 293 284
-0.034372345 0.75400001 -0.058168583 1.5942519e-38 294 284
-0.033050332 0.75400001 -0.058168583 1.5850324e-38 295 284
-0.03172832 0.75400001 -0.058168583 1.5849968e-38 296 284
-0.030406307 0.75400001 -0.058168583 1.6034719e-38 297 284
-0.029007144 0.75199997 -0.058014289 1.6127268e-38 298 284
-0.027688639 0.75199997 -0.058014289 1.5942517e-38 299 284
-0.02637013 0.75199997 -0.058014289 1.557446e-38 300 284
-0.025118252 0.75400001 -0.058168583 1.5666656e-38 301 284
-0.02379624 0.75400001 -0.058168583 1.520753e-38 302 284
-0.022474226 0.75400001 -0.058168583 1.5484117e-38 303 284
-0.081926249 0.76599997 -0.060437392 1.0414065e-38 259 285
-0.080372795 0.764 -0.0602796 1.050626e-38 260 285
-0.079033248 0.764 -0.0602796 1.069065e-38 261 285
-0.077490322 0.76200002 -0.060121801 1.1150187e-38 262 285
-0.076054335 0.76099998 -0.060042895 1.151861e-38 263 285
-0.074720047 0.76099998 -0.060042895 1.1979572e-38 264 285
-0.073192894 0.759 -0.059885096 1.225616e-38 265 285
-0.071862116 0.759 -0.059885096 1.2624575e-38 266 285
-0.070531338 0.759 -0.059885096 1.2900802e-38 267 285
-0.069200553 0.759 -0.059885096 1.3177023e-38 268 285
-0.067690939 0.75700003 -0.059727304 1.3361056e-38 269 285
-0.06636367 0.75700003 -0.059727304 1.3362844e-38 270 285
-0.064864561 0.755 -0.059569497 1.3639071e-38 271 285
-0.063540794 0.755 -0.059569497 1.3548671e-38 272 285
-0.062217031 0.755 -0.059569497 1.3733421e-38 273 285
-0.060893264 0.755 -0.059569497 1.4101128e-38 274 285
-0.059490599 0.75400001 -0.059490599 1.428552e-38 275 285
-0.058168583 0.75400001 -0.059490599 1.4561384e-38 276 285
-0.056846574 0.75400001 -0.059490599 1.4929807e-38 277 285
-0.055524562 0.75400001 -0.059490599 1.5297167e-38 278 285
-0.054202545 0.75400001 -0.059490599 1.5573754e-38 279 285
-0.052880533 0.75400001 -0.059490599 1.5573775e-38 280 285
-0.051558517 0.75400001 -0.059490599 1.5850363e-38 281 285
-0.050236505 0.75400001 -0.059490599 1.5942909e-38 282 285
-0.048914492 0.75400001 -0.059490599 1.6219494e-38 283 285
-0.04759248 0.75400001 -0.059490599 1.6220925e-38 284 285
-0.046270464 0.75400001 -0.059490599 1.6128728e-38 285 285
-0.044948451 0.75400001 -0.059490599 1.6219842e-38 286 285
-0.043626439 0.75400001 -0.059490599 1.6035811e-38 287 285
-0.042304426 0.75400001 -0.059490599 1.6036164e-38 288 285
-0.040982414 0.75400001 -0.059490599 1.5943968e-38 289 285
-0.039660402 0.75400001 -0.059490599 1.6126559e-38 290 285
-0.038338386 0.75400001 -0.059490599 1.6034363e-38 291 285
-0.037016369 0.75400001 -0.059490599 1.6125832e-38 292 285
-0.035694357 0.75400001 -0.059490599 1.5757409e-38 293 285
-0.034372345 0.75400001 -0.059490599 1.5480459e-38 294 285
-0.033050332 0.75400001 -0.059490599 1.5204233e-38 295 285
-0.03172832 0.75400001 -0.059490599 1.5204601e-38 296 285
-0.030406307 0.75400001 -0.059490599 1.5388994e-38 297 285
-0.029084291 0.75400001 -0.059490599 1.5758498e-38 298 285
-0.027762281 0.75400001 -0.059490599 1.5758498e-38 299 285
-0.026440267 0.75400001 -0.059490599 1.5575906e-38 300 285
-0.025118252 0.75400001 -0.059490599 1.5483709e-38 301 285
-0.02379624 0.75400001 -0.059490599 1.5573754e-38 302 285
-0.022474226 0.75400001 -0.059490599 1.5297167e-38 303 285
-0.021152213 0.75400001 -0.059490599 1.4010422e-38 304 285
-0.0198565 0.755 -0.059569497 1.4563237e-38 305 285
-0.080583192 0.76599997 -0.061780453 1.0597027e-38 260 286
-0.079033248 0.764 -0.061619148 1.0689222e-38 261 286
-0.077490322 0.76200002 -0.061457843 1.1239863e-38 262 286
-0.076054335 0.76099998 -0.061377186 1.1516089e-38 263 286
-0.074720047 0.76099998 -0.061377186 1.2068527e-38 264 286
-0.073192894 0.759 -0.061215881 1.2345114e-38 265 286
-0.071862116 0.759 -0.061215881 1.2804998e-38 266 286
-0.070531338 0.759 -0.061215881 1.3265976e-38 267 286
-0.069200553 0.759 -0.061215881 1.3451074e-38 268 286
-0.067869775 0.759 -0.061215881 1.3451074e-38 269 286
-0.06636367 0.75700003 -0.061054576 1.3361026e-38 270 286
-0.064864561 0.755 -0.060893264 1.3545057e-38 271 286
-0.063540794 0.755 -0.060893264 1.3729806e-38 272 286
-0.062217031 0.755 -0.060893264 1.3822002e-38 273 286
-0.060812615 0.75400001 -0.060812615 1.4190424e-38 274 286
-0.059490599 0.75400001 -0.060812615 1.4375175e-38 275 286
-0.058168583 0.75400001 -0.060812615 1.4559932e-38 276 286
-0.056846574 0.75400001 -0.060812615 1.4744682e-38 277 286
-0.055524562 0.75400001 -0.060812615 1.5294633e-38 278 286
-0.054202545 0.75400001 -0.060812615 1.5755251e-38 279 286
-0.052880533 0.75400001 -0.060812615 1.5480112e-38 280 286
-0.051558517 0.75400001 -0.060812615 1.57567e-38 281 286
-0.050236505 0.75400001 -0.060812615 1.6031845e-38 282 286
-0.048784744 0.75199997 -0.060651302 1.6308072e-38 283 286
-0.047466237 0.75199997 -0.060651302 1.603401e-38 284 286
-0.04614773 0.75199997 -0.060651302 1.6126565e-38 285 286
-0.044829223 0.75199997 -0.060651302 1.6218404e-38 286 286
-0.04351072 0.75199997 -0.060651302 1.6218404e-38 287 286
-0.04219221 0.75199997 -0.060651302 1.6127281e-38 288 286
-0.040873703 0.75199997 -0.060651302 1.6035085e-38 289 286
-0.039555199 0.75199997 -0.060651302 1.6034716e-38 290 286
-0.038236689 0.75199997 -0.060651302 1.5758128e-38 291 286
-0.036918186 0.75199997 -0.060651302 1.5294996e-38 292 286
-0.035599679 0.75199997 -0.060651302 1.5018769e-38 293 286
-0.034281172 0.75199997 -0.060651302 1.4279758e-38 294 286
-0.033050332 0.75400001 -0.060812615 1.4279758e-38 295 286
-0.03172832 0.75400001 -0.060812615 1.4281553e-38 296 286
-0.030406307 0.75400001 -0.060812615 1.4650336e-38 297 286
-0.029084291 0.75400001 -0.060812615 1.4743624e-38 298 286
-0.027762281 0.75400001 -0.060812615 1.5204601e-38 299 286
-0.026440267 0.75400001 -0.060812615 1.5849255e-38 300 286
-0.025118252 0.75400001 -0.060812615 1.57567e-38 301 286
-0.02379624 0.75400001 -0.060812615 1.5849968e-38 302 286
-0.022474226 0.75400001 -0.060812615 1.5573741e-38 303 286
-0.021152213 0.75400001 -0.060812615 1.5205694e-38 304 286
-0.0198565 0.755 -0.060893264 1.5113499e-38 305 286
-0.018581826 0.75700003 -0.061054576 1.3826767e-38 306 286
-0.079033248 0.764 -0.062958695 1.059703e-38 261 287
-0.077490322 0.76200002 -0.062793881 1.0780339e-38 262 287
-0.076154284 0.76200002 -0.062793881 1.0872893e-38 263 287
-0.074720047 0.76099998 -0.06271147 1.0965089e-38 264 287
-0.07338576 0.76099998 -0.06271147 1.114948e-38 265 287
-0.072051473 0.76099998 -0.06271147 1.1702286e-38 266 287
-0.070531338 0.759 -0.062546656 1.1978512e-38 267 287
-0.069200553 0.759 -0.062546656 1.2531308e-38 268 287
-0.067869775 0.759 -0.062546656 1.2715339e-38 269 287
-0.06636367 0.75700003 -0.062381849 1.2900434e-38 270 287
-0.064864561 0.755 -0.062217031 1.2992629e-38 271 287
-0.063540794 0.755 -0.062217031 1.3085544e-38 272 287
-0.062217031 0.755 -0.062217031 1.3178099e-38 273 287
-0.060812615 0.75400001 -0.062134624 1.3270658e-38 274 287
-0.059490599 0.75400001 -0.062134624 1.3455408e-38 275 287
-0.058168583 0.75400001 -0.062134624 1.3639803e-38 276 287
-0.056846574 0.75400001 -0.062134624 1.4008226e-38 277 287
-0.055524562 0.75400001 -0.062134624 1.4283386e-38 278 287
-0.054202545 0.75400001 -0.062134624 1.4559974e-38 279 287
-0.052740261 0.75199997 -0.061969809 1.5018785e-38 280 287
-0.051421758 0.75199997 -0.061969809 1.5203176e-38 281 287
-0.050103247 0.75199997 -0.061969809 1.5296075e-38 282 287
-0.048784744 0.75199997 -0.061969809 1.5480465e-38 283 287
-0.047466237 0.75199997 -0.061969809 1.538829e-38 284 287
-0.04614773 0.75199997 -0.061969809 1.5757072e-38 285 287
-0.044829223 0.75199997 -0.061969809 1.5390813e-38 286 287
-0.04351072 0.75199997 -0.061969809 1.548301e-38 287 287
-0.04219221 0.75199997 -0.061969809 1.585177e-38 288 287
-0.040873703 0.75199997 -0.061969809 1.585177e-38 289 287
-0.039555199 0.75199997 -0.061969809 1.594287e-38 290 287
-0.038236689 0.75199997 -0.061969809 1.5758478e-38 291 287
-0.036918186 0.75199997 -0.061969809 1.5663056e-38 292 287
-0.035599679 0.75199997 -0.061969809 1.5109882e-38 293 287
-0.034281172 0.75199997 -0.061969809 1.4464162e-38 294 287
-0.032962665 0.75199997 -0.061969809 1.4187935e-38 295 287
-0.031644158 0.75199997 -0.061969809 1.4005695e-38 296 287
-0.030325651 0.75199997 -0.061969809 1.4189726e-38 297 287
-0.029007144 0.75199997 -0.061969809 1.4374122e-38 298 287
-0.027688639 0.75199997 -0.061969809 1.4650709e-38 299 287
-0.026440267 0.75400001 -0.062134624 1.5294999e-38 300 287
-0.025118252 0.75400001 -0.062134624 1.5387195e-38 301 287
-0.02379624 0.75400001 -0.062134624 1.5297147e-38 302 287
-0.022474226 0.75400001 -0.062134624 1.5481899e-38 303 287
-0.021152213 0.75400001 -0.062134624 1.5297867e-38 304 287
-0.0198565 0.755 -0.062217031 1.5113835e-38 305 287
-0.018532733 0.755 -0.062217031 1.4561381e-38 306 287
-0.017208965 0.755 -0.062217031 1.4100762e-38 307 287
-0.015885198 0.755 -0.062217031 1.4010416e-38 308 287
-0.077693708 0.764 -0.064298242 1.0780695e-38 262 288
-0.076154284 0.76200002 -0.064129919 1.0780695e-38 263 288
-0.074720047 0.76099998 -0.064045757 1.1055837e-38 264 288
-0.07338576 0.76099998 -0.064045757 1.1148033e-38 265 288
-0.072051473 0.76099998 -0.064045757 1.1699036e-38 266 288
-0.070531338 0.759 -0.063877434 1.2068177e-38 267 288
-0.069200553 0.759 -0.063877434 1.2437295e-38 268 288
-0.067869775 0.759 -0.063877434 1.2621326e-38 269 288
-0.06636367 0.75700003 -0.063709125 1.2531275e-38 270 288
-0.064864561 0.755 -0.063540794 1.2808222e-38 271 288
-0.063540794 0.755 -0.063540794 1.2900418e-38 272 288
-0.062217031 0.755 -0.063540794 1.3084449e-38 273 288
-0.060812615 0.75400001 -0.06345664 1.3269199e-38 274 288
-0.059490599 0.75400001 -0.06345664 1.3453592e-38 275 288
-0.058168583 0.75400001 -0.06345664 1.3638705e-38 276 288
-0.056846574 0.75400001 -0.06345664 1.37309e-38 277 288
-0.055524562 0.75400001 -0.06345664 1.4189726e-38 278 288
-0.054202545 0.75400001 -0.06345664 1.4466315e-38 279 288
-0.052740261 0.75199997 -0.063288316 1.4466317e-38 280 288
-0.051421758 0.75199997 -0.063288316 1.483474e-38 281 288
-0.050103247 0.75199997 -0.063288316 1.4926222e-38 282 288
-0.048784744 0.75199997 -0.063288316 1.520245e-38 283 288
-0.047466237 0.75199997 -0.063288316 1.5111336e-38 284 288
-0.046024997 0.75 -0.06312 1.5018782e-38 285 288
-0.044709999 0.75 -0.06312 1.5113131e-38 286 288
-0.043394998 0.75 -0.06312 1.5297164e-38 287 288
-0.04208 0.75 -0.06312 1.5574463e-38 288 288
-0.040764999 0.75 -0.06312 1.5666658e-38 289 288
-0.039449997 0.75 -0.06312 1.5666653e-38 290 288
-0.038135 0.75 -0.06312 1.5666653e-38 291 288
-0.036819998 0.75 -0.06312 1.5665211e-38 292 288
-0.035505001 0.75 -0.06312 1.5112037e-38 293 288
-0.034189999 0.75 -0.06312 1.4375917e-38 294 288
-0.032874998 0.75 -0.06312 1.3822743e-38 295 288
-0.031644158 0.75199997 -0.063288316 1.4188651e-38 296 288
-0.030325651 0.75199997 -0.063288316 1.4096456e-38 297 288
-0.029007144 0.75199997 -0.063288316 1.4279055e-38 298 288
-0.027688639 0.75199997 -0.063288316 1.3910272e-38 299 288
-0.02637013 0.75199997 -0.063288316 1.3727324e-38 300 288
-0.025118252 0.75400001 -0.06345664 1.4096105e-38 301 288
-0.02379624 0.75400001 -0.06345664 1.4100059e-38 302 288
-0.022474226 0.75400001 -0.06345664 1.4745428e-38 303 288
-0.021152213 0.75400001 -0.06345664 1.5387197e-38 304 288
-0.0198565 0.755 -0.063540794 1.5479393e-38 305 288
-0.018532733 0.755 -0.063540794 1.5021289e-38 306 288
-0.017186172 0.75400001 -0.06345664 1.5297517e-38 307 288
-0.01586416 0.75400001 -0.06345664 1.5113864e-38 308 288
-0.014542146 0.75400001 -0.06345664 1.4929833e-38 309 288
-0.013220133 0.75400001 -0.06345664 1.4195551e-38 310 288
-0.01189812 0.75400001 -0.06345664 1.5025312e-38 311 288
-0.076154284 0.76200002 -0.065465957 1.0413361e-38 263 289
-0.074720047 0.76099998 -0.065380037 1.0779975e-38 264 289
-0.07338576 0.76099998 -0.065380037 1.0779975e-38 265 289
-0.072051473 0.76099998 -0.065380037 1.0872525e-38 266 289
-0.070531338 0.759 -0.065208219 1.096472e-38 267 289
-0.069200553 0.759 -0.065208219 1.1241288e-38 268 289
-0.067869775 0.759 -0.065208219 1.1701906e-38 269 289
-0.06636367 0.75700003 -0.065036394 1.1794806e-38 270 289
-0.064864561 0.755 -0.064864561 1.2071752e-38 271 289
-0.063540794 0.755 -0.064864561 1.2164666e-38 272 289
-0.062217031 0.755 -0.064864561 1.2256862e-38 273 289
-0.060812615 0.75400001 -0.064778648 1.2717118e-38 274 289
-0.059490599 0.75400001 -0.064778648 1.2993704e-38 275 289
-0.058168583 0.75400001 -0.064778648 1.2902231e-38 276 289
-0.056846574 0.75400001 -0.064778648 1.317846e-38 277 289
-0.055524562 0.75400001 -0.064778648 1.354545e-38 278 289
-0.054202545 0.75400001 -0.064778648 1.37302e-38 279 289
-0.052740261 0.75199997 -0.064606823 1.4281217e-38 280 289
-0.051421758 0.75199997 -0.064606823 1.4373413e-38 281 289
-0.050103247 0.75199997 -0.064606823 1.4190819e-38 282 289
-0.048784744 0.75199997 -0.064606823 1.4283015e-38 283 289
-0.047466237 0.75199997 -0.064606823 1.4375216e-38 284 289
-0.046024997 0.75 -0.064434998 1.4651444e-38 285 289
-0.044709999 0.75 -0.064434998 1.4468851e-38 286 289
-0.043394998 0.75 -0.064434998 1.4653242e-38 287 289
-0.04208 0.75 -0.064434998 1.5113134e-38 288 289
-0.040764999 0.75 -0.064434998 1.5297167e-38 289 289
-0.039449997 0.75 -0.064434998 1.5573741e-38 290 289
-0.038084153 0.74900001 -0.064349085 1.5757772e-38 291 289
-0.036770906 0.74900001 -0.064349085 1.5574445e-38 292 289
-0.03545766 0.74900001 -0.064349085 1.5297497e-38 293 289
-0.034144413 0.74900001 -0.064349085 1.5387895e-38 294 289
-0.032874998 0.75 -0.064434998 1.4927276e-38 295 289
-0.03156 0.75 -0.064434998 1.4741457e-38 296 289
-0.030244999 0.75 -0.064434998 1.4372673e-38 297 289
-0.028929999 0.75 -0.064434998 1.4095389e-38 298 289
-0.027615 0.75 -0.064434998 1.4002835e-38 299 289
-0.02637013 0.75199997 -0.064606823 1.3910655e-38 300 289
-0.025051624 0.75199997 -0.064606823 1.4095405e-38 301 289
-0.023733119 0.75199997 -0.064606823 1.4005722e-38 302 289
-0.022414612 0.75199997 -0.064606823 1.4374863e-38 303 289
-0.021152213 0.75400001 -0.064778648 1.4926233e-38 304 289
-0.019830201 0.75400001 -0.064778648 1.5203179e-38 305 289
-0.018508185 0.75400001 -0.064778648 1.5296444e-38 306 289
-0.017186172 0.75400001 -0.064778648 1.5481195e-38 307 289
-0.01586416 0.75400001 -0.064778648 1.5206398e-38 308 289
-0.014542146 0.75400001 -0.064778648 1.5022005e-38 309 289
-0.013220133 0.75400001 -0.064778648 1.4746513e-38 310 289
-0.011835 0.75 -0.064434998 1.4930905e-38 311 289
-0.010505973 0.74900001 -0.064349085 1.4564707e-38 312 289
-0.0091927266 0.74900001 -0.064349085 1.5394467e-38 313 289
-0.0078794798 0.74900001 -0.064349085 1.5858017e-38 314 289
-0.07338576 0.76099998 -0.066714332 1.0412987e-38 265 290
-0.072051473 0.76099998 -0.066714332 1.0688483e-38 266 290
-0.070717193 0.76099998 -0.066714332 1.0595928e-38 267 290
-0.069200553 0.759 -0.066538997 1.0687761e-38 268 290
-0.067869775 0.759 -0.066538997 1.1056183e-38 269 290
-0.06636367 0.75700003 -0.06636367 1.14246e-38 270 290
-0.065036394 0.75700003 -0.06636367 1.1701187e-38 271 290
-0.063540794 0.755 -0.066188328 1.1794809e-38 272 290
-0.062217031 0.755 -0.066188328 1.2071396e-38 273 290
-0.060812615 0.75400001 -0.066100664 1.2164664e-38 274 290
-0.059490599 0.75400001 -0.066100664 1.2533446e-38 275 290
-0.058168583 0.75400001 -0.066100664 1.2625645e-38 276 290
-0.056846574 0.75400001 -0.066100664 1.271784e-38 277 290
-0.055524562 0.75400001 -0.066100664 1.3360335e-38 278 290
-0.054202545 0.75400001 -0.066100664 1.3452533e-38 279 290
-0.052740261 0.75199997 -0.06592533 1.3728396e-38 280 290
-0.051421758 0.75199997 -0.06592533 1.3913146e-38 281 290
-0.049969997 0.75 -0.065749995 1.3913865e-38 282 290
-0.048655 0.75 -0.065749995 1.4098258e-38 283 290
-0.047339998 0.75 -0.065749995 1.4098255e-38 284 290
-0.046024997 0.75 -0.065749995 1.4190451e-38 285 290
-0.044709999 0.75 -0.065749995 1.4190456e-38 286 290
-0.043394998 0.75 -0.065749995 1.4466683e-38 287 290
-0.04208 0.75 -0.065749995 1.4651444e-38 288 290
-0.040710647 0.74900001 -0.065662332 1.492839e-38 289 290
-0.0393974 0.74900001 -0.065662332 1.5112778e-38 290 290
-0.038084153 0.74900001 -0.065662332 1.5296811e-38 291 290
-0.036770906 0.74900001 -0.065662332 1.5297164e-38 292 290
-0.035362978 0.74699998 -0.065486997 1.5297164e-38 293 290
-0.034053236 0.74699998 -0.065486997 1.5481908e-38 294 290
-0.032831166 0.74900001 -0.065662332 1.5389713e-38 295 290
-0.031517919 0.74900001 -0.065662332 1.5387551e-38 296 290
-0.030204674 0.74900001 -0.065662332 1.4926572e-38 297 290
-0.028891427 0.74900001 -0.065662332 1.4466317e-38 298 290
-0.027578179 0.74900001 -0.065662332 1.4374122e-38 299 290
-0.0263 0.75 -0.065749995 1.41901e-38 300 290
-0.024984999 0.75 -0.065749995 1.41901e-38 301 290
-0.023669999 0.75 -0.065749995 1.4374485e-38 302 290
-0.022414612 0.75199997 -0.06592533 1.446668e-38 303 290
-0.021096105 0.75199997 -0.06592533 1.4926937e-38 304 290
-0.0197776 0.75199997 -0.06592533 1.5296078e-38 305 290
-0.018459093 0.75199997 -0.06592533 1.5113485e-38 306 290
-0.017140586 0.75199997 -0.06592533 1.5389713e-38 307 290
-0.015822079 0.75199997 -0.06592533 1.5390066e-38 308 290
-0.014503572 0.75199997 -0.06592533 1.5390066e-38 309 290
-0.013185065 0.75199997 -0.06592533 1.5206047e-38 310 290
-0.011835 0.75 -0.065749995 1.5206047e-38 311 290
-0.010505973 0.74900001 -0.065662332 1.4562142e-38 312 290
-0.0091927266 0.74900001 -0.065662332 1.4101523e-38 313 290
-0.0078794798 0.74900001 -0.065662332 1.3922218e-38 314 290
-0.0065662335 0.74900001 -0.065662332 1.5397707e-38 315 290
-0.072051473 0.76099998 -0.068048611 1.0412987e-38 266 291
-0.070717193 0.76099998 -0.068048611 1.0228597e-38 267 291
-0.069200553 0.759 -0.067869775 1.04119e-38 268 291
-0.067869775 0.759 -0.067869775 1.04119e-38 269 291
-0.06636367 0.75700003 -0.067690939 1.0963272e-38 270 291
-0.065036394 0.75700003 -0.067690939 1.1055467e-38 271 291
-0.063709125 0.75700003 -0.067690939 1.1241288e-38 272 291
-0.062217031 0.755 -0.067512102 1.1425679e-38 273 291
-0.060893264 0.755 -0.067512102 1.1887361e-38 274 291
-0.059490599 0.75400001 -0.067422673 1.2255783e-38 275 291
-0.058168583 0.75400001 -0.067422673 1.2623126e-38 276 291
-0.056846574 0.75400001 -0.067422673 1.2807519e-38 277 291
-0.055524562 0.75400001 -0.067422673 1.2899712e-38 278 291
-0.054202545 0.75400001 -0.067422673 1.3084102e-38 279 291
-0.052740261 0.75199997 -0.067243837 1.326848e-38 280 291
-0.051421758 0.75199997 -0.067243837 1.3544707e-38 281 291
-0.049969997 0.75 -0.067065001 1.3636904e-38 282 291
-0.048655 0.75 -0.067065001 1.3821295e-38 283 291
-0.047339998 0.75 -0.067065001 1.3821301e-38 284 291
-0.046024997 0.75 -0.067065001 1.3913497e-38 285 291
-0.044709999 0.75 -0.067065001 1.4096456e-38 286 291
-0.04333714 0.74900001 -0.066975579 1.4188651e-38 287 291
-0.042023893 0.74900001 -0.066975579 1.4190456e-38 288 291
-0.040710647 0.74900001 -0.066975579 1.4651074e-38 289 291
-0.0393974 0.74900001 -0.066975579 1.4468851e-38 290 291
-0.03798246 0.74699998 -0.066796735 1.4653242e-38 291 291
-0.036672719 0.74699998 -0.066796735 1.5295728e-38 292 291
-0.035362978 0.74699998 -0.066796735 1.5479759e-38 293 291
-0.034053236 0.74699998 -0.066796735 1.5388994e-38 294 291
-0.032743499 0.74699998 -0.066796735 1.548119e-38 295 291
-0.031517919 0.74900001 -0.066975579 1.5388994e-38 296 291
-0.030204674 0.74900001 -0.066975579 1.5573744e-38 297 291
-0.028891427 0.74900001 -0.066975579 1.5573754e-38 298 291
-0.027578179 0.74900001 -0.066975579 1.5573754e-38 299 291
-0.026264934 0.74900001 -0.066975579 1.5481205e-38 300 291
-0.024984999 0.75 -0.067065001 1.5481205e-38 301 291
-0.02363844 0.74900001 -0.066975579 1.5572309e-38 302 291
-0.022325192 0.74900001 -0.066975579 1.5203885e-38 303 291
-0.021096105 0.75199997 -0.067243837 1.4929088e-38 304 291
-0.0197776 0.75199997 -0.067243837 1.5113838e-38 305 291
-0.018459093 0.75199997 -0.067243837 1.5206754e-38 306 291
-0.017140586 0.75199997 -0.067243837 1.5298949e-38 307 291
-0.015822079 0.75199997 -0.067243837 1.5390066e-38 308 291
-0.014503572 0.75199997 -0.067243837 1.529787e-38 309 291
-0.013185065 0.75199997 -0.067243837 1.5297514e-38 310 291
-0.011835 0.75 -0.067065001 1.5113482e-38 311 291
-0.01052 0.75 -0.067065001 1.4653946e-38 312 291
-0.0092049995 0.75 -0.067065001 1.4469554e-38 313 291
-0.00789 0.75 -0.067065001 1.4101533e-38 314 291
-0.006575 0.75 -0.067065001 1.4746902e-38 315 291
-0.00526 0.75 -0.067065001 1.4383943e-38 316 291
-0.070531338 0.759 -0.069200553 9.9534552e-39 267 292
-0.069200553 0.759 -0.069200553 1.0320067e-38 268 292
-0.067869775 0.759 -0.069200553 1.0320067e-38 269 292
-0.06636367 0.75700003 -0.069018215 1.0411547e-38 270 292
-0.065036394 0.75700003 -0.069018215 1.0411547e-38 271 292
-0.063709125 0.75700003 -0.069018215 1.0412631e-38 272 292
-0.062217031 0.755 -0.068835862 1.0689578e-38 273 292
-0.060893264 0.755 -0.068835862 1.0874676e-38 274 292
-0.059569497 0.755 -0.068835862 1.1335295e-38 275 292
-0.058168583 0.75400001 -0.068744689 1.188702e-38 276 292
-0.056846574 0.75400001 -0.068744689 1.1979216e-38 277 292
-0.055524562 0.75400001 -0.068744689 1.216396e-38 278 292
-0.054202545 0.75400001 -0.068744689 1.2256516e-38 279 292
-0.052740261 0.75199997 -0.068562344 1.2716042e-38 280 292
-0.051421758 0.75199997 -0.068562344 1.2808238e-38 281 292
-0.049969997 0.75 -0.068379998 1.2992629e-38 282 292
-0.048655 0.75 -0.068379998 1.3177379e-38 283 292
-0.047339998 0.75 -0.068379998 1.3360689e-38 284 292
-0.046024997 0.75 -0.068379998 1.3360689e-38 285 292
-0.044709999 0.75 -0.068379998 1.3452533e-38 286 292
-0.04333714 0.74900001 -0.068288825 1.3360335e-38 287 292
-0.042023893 0.74900001 -0.068288825 1.3454336e-38 288 292
-0.040710647 0.74900001 -0.068288825 1.400751e-38 289 292
-0.0393974 0.74900001 -0.068288825 1.4283386e-38 290 292
-0.03798246 0.74699998 -0.068106472 1.4467779e-38 291 292
-0.036672719 0.74699998 -0.068106472 1.4559624e-38 292 292
-0.035362978 0.74699998 -0.068106472 1.4744015e-38 293 292
-0.034053236 0.74699998 -0.068106472 1.4928753e-38 294 292
-0.032743499 0.74699998 -0.068106472 1.502095e-38 295 292
-0.031517919 0.74900001 -0.068288825 1.5113129e-38 296 292
-0.030204674 0.74900001 -0.068288825 1.5481911e-38 297 292
-0.028814279 0.74699998 -0.068106472 1.5298596e-38 298 292
-0.027504537 0.74699998 -0.068106472 1.5667377e-38 299 292
-0.026264934 0.74900001 -0.068288825 1.5574813e-38 300 292
-0.024951685 0.74900001 -0.068288825 1.5574813e-38 301 292
-0.02363844 0.74900001 -0.068288825 1.5665914e-38 302 292
-0.022325192 0.74900001 -0.068288825 1.5573717e-38 303 292
-0.021011947 0.74900001 -0.068288825 1.5390046e-38 304 292
-0.019724999 0.75 -0.068379998 1.5482602e-38 305 292
-0.018409999 0.75 -0.068379998 1.5482615e-38 306 292
-0.017140586 0.75199997 -0.068562344 1.5482615e-38 307 292
-0.015822079 0.75199997 -0.068562344 1.5481896e-38 308 292
-0.014503572 0.75199997 -0.068562344 1.53897e-38 309 292
-0.01315 0.75 -0.068379998 1.5021636e-38 310 292
-0.011835 0.75 -0.068379998 1.4929441e-38 311 292
-0.01052 0.75 -0.068379998 1.4745778e-38 312 292
-0.0092049995 0.75 -0.068379998 1.4561028e-38 313 292
-0.00789 0.75 -0.068379998 1.4468118e-38 314 292
-0.006575 0.75 -0.068379998 1.4283368e-38 315 292
-0.00526 0.75 -0.068379998 1.3460132e-38 316 292
-0.069200553 0.759 -0.070531338 1.0228603e-38 268 293
-0.067869775 0.759 -0.070531338 1.0136407e-38 269 293
-0.066538997 0.759 -0.070531338 1.0227872e-38 270 293
-0.065036394 0.75700003 -0.070345491 1.0227872e-38 271 293
-0.063709125 0.75700003 -0.070345491 1.0410098e-38 272 293
-0.062381849 0.75700003 -0.070345491 1.0410098e-38 273 293
-0.060893264 0.755 -0.070159629 1.0411897e-38 274 293
-0.059569497 0.755 -0.070159629 1.0595928e-38 275 293
-0.058168583 0.75400001 -0.070066705 1.1240935e-38 276 293
-0.056846574 0.75400001 -0.070066705 1.1701553e-38 277 293
-0.055524562 0.75400001 -0.070066705 1.234439e-38 278 293
-0.054202545 0.75400001 -0.070066705 1.2620975e-38 279 293
-0.052740261 0.75199997 -0.069880851 1.2805351e-38 280 293
-0.051421758 0.75199997 -0.069880851 1.2989382e-38 281 293
-0.050103247 0.75199997 -0.069880851 1.2898622e-38 282 293
-0.048655 0.75 -0.069694996 1.3267045e-38 283 293
-0.047339998 0.75 -0.069694996 1.3450718e-38 284 293
-0.046024997 0.75 -0.069694996 1.3543272e-38 285 293
-0.044709999 0.75 -0.069694996 1.3175932e-38 286 293
-0.04333714 0.74900001 -0.069602072 1.3175932e-38 287 293
-0.042023893 0.74900001 -0.069602072 1.3544001e-38 288 293
-0.040710647 0.74900001 -0.069602072 1.3913144e-38 289 293
-0.039292198 0.74699998 -0.069416218 1.4004986e-38 290 293
-0.03798246 0.74699998 -0.069416218 1.4281573e-38 291 293
-0.036672719 0.74699998 -0.069416218 1.4649632e-38 292 293
-0.035362978 0.74699998 -0.069416218 1.4834024e-38 293 293
-0.034053236 0.74699998 -0.069416218 1.5109885e-38 294 293
-0.032743499 0.74699998 -0.069416218 1.5294277e-38 295 293
-0.031433757 0.74699998 -0.069416218 1.5386832e-38 296 293
-0.030124018 0.74699998 -0.069416218 1.5663058e-38 297 293
-0.028814279 0.74699998 -0.069416218 1.5480112e-38 298 293
-0.027504537 0.74699998 -0.069416218 1.5480112e-38 299 293
-0.026194798 0.74699998 -0.069416218 1.5389716e-38 300 293
-0.024951685 0.74900001 -0.069602072 1.5481911e-38 301 293
-0.023575317 0.74699998 -0.069416218 1.5482261e-38 302 293
-0.022265578 0.74699998 -0.069416218 1.5482261e-38 303 293
-0.021011947 0.74900001 -0.069602072 1.5299302e-38 304 293
-0.0196987 0.74900001 -0.069602072 1.5299302e-38 305 293
-0.018385453 0.74900001 -0.069602072 1.5574091e-38 306 293
-0.017072206 0.74900001 -0.069602072 1.5574091e-38 307 293
-0.01578 0.75 -0.069694996 1.5481896e-38 308 293
-0.014465 0.75 -0.069694996 1.5297503e-38 309 293
-0.01315 0.75 -0.069694996 1.4929797e-38 310 293
-0.011835 0.75 -0.069694996 1.4837242e-38 311 293
-0.01052 0.75 -0.069694996 1.474505e-38 312 293
-0.0092049995 0.75 -0.069694996 1.4652854e-38 313 293
-0.00789 0.75 -0.069694996 1.4468468e-38 314 293
-0.006575 0.75 -0.069694996 1.4468468e-38 315 293
-0.00526 0.75 -0.069694996 1.419299e-38 316 293
-0.003945 0.75 -0.069694996 1.4469577e-38 317 293
-0.00263 0.75 -0.069694996 1.3553795e-38 318 293
-0.066538997 0.759 -0.071862116 1.0044206e-38 270 294
-0.065208219 0.759 -0.071862116 9.8598135e-39 271 294
-0.063709125 0.75700003 -0.07167276 1.0134602e-38 272 294
-0.062381849 0.75700003 -0.07167276 9.9502112e-39 273 294
-0.060893264 0.755 -0.071483396 9.5835965e-39 274 294
-0.059569497 0.755 -0.071483396 9.3070096e-39 275 294
-0.058168583 0.75400001 -0.071388714 9.7665458e-39 276 294
-0.056846574 0.75400001 -0.071388714 1.0411915e-38 277 294
-0.055524562 0.75400001 -0.071388714 1.0965071e-38 278 294
-0.054202545 0.75400001 -0.071388714 1.1426048e-38 279 294
-0.052740261 0.75199997 -0.071199358 1.170119e-38 280 294
-0.051421758 0.75199997 -0.071199358 1.2069613e-38 281 294
-0.050103247 0.75199997 -0.071199358 1.2071051e-38 282 294
-0.048655 0.75 -0.071010001 1.2347278e-38 283 294
-0.047339998 0.75 -0.071010001 1.2532374e-38 284 294
-0.046024997 0.75 -0.071010001 1.2532374e-38 285 294
-0.044709999 0.75 -0.071010001 1.2716042e-38 286 294
-0.04333714 0.74900001 -0.070915319 1.2808238e-38 287 294
-0.042023893 0.74900001 -0.070915319 1.2992282e-38 288 294
-0.040601939 0.74699998 -0.070725955 1.3176674e-38 289 294
-0.039292198 0.74699998 -0.070725955 1.3361434e-38 290 294
-0.03798246 0.74699998 -0.070725955 1.345363e-38 291 294
-0.036672719 0.74699998 -0.070725955 1.37302e-38 292 294
-0.035362978 0.74699998 -0.070725955 1.4006428e-38 293 294
-0.034053236 0.74699998 -0.070725955 1.4374487e-38 294 294
-0.032743499 0.74699998 -0.070725955 1.4558879e-38 295 294
-0.031433757 0.74699998 -0.070725955 1.4651091e-38 296 294
-0.030124018 0.74699998 -0.070725955 1.4651091e-38 297 294
-0.028814279 0.74699998 -0.070725955 1.474329e-38 298 294
-0.027504537 0.74699998 -0.070725955 1.4835485e-38 299 294
-0.026194798 0.74699998 -0.070725955 1.4562128e-38 300 294
-0.024885058 0.74699998 -0.070725955 1.4746161e-38 301 294
-0.023575317 0.74699998 -0.070725955 1.4746863e-38 302 294
-0.022265578 0.74699998 -0.070725955 1.483906e-38 303 294
-0.020955838 0.74699998 -0.070725955 1.5114205e-38 304 294
-0.0196987 0.74900001 -0.070915319 1.5114205e-38 305 294
-0.018385453 0.74900001 -0.070915319 1.5297517e-38 306 294
-0.017072206 0.74900001 -0.070915319 1.5297517e-38 307 294
-0.01578 0.75 -0.071010001 1.5113838e-38 308 294
-0.014465 0.75 -0.071010001 1.5021283e-38 309 294
-0.01315 0.75 -0.071010001 1.5112753e-38 310 294
-0.011835 0.75 -0.071010001 1.4928722e-38 311 294
-0.01052 0.75 -0.071010001 1.4652501e-38 312 294
-0.0092049995 0.75 -0.071010001 1.4468468e-38 313 294
-0.00789 0.75 -0.071010001 1.4468112e-38 314 294
-0.006575 0.75 -0.071010001 1.4375917e-38 315 294
-0.00526 0.75 -0.071010001 1.4284437e-38 316 294
-0.003945 0.75 -0.071010001 1.4100406e-38 317 294
-0.00263 0.75 -0.071010001 1.3549784e-38 318 294
-0.0013185065 0.75199997 -0.071199358 1.4011122e-38 319 294
0 0.75199997 -0.071199358 1.4382856e-38 320 294
-0.065036394 0.75700003 -0.073000036 9.7683577e-39 271 295
-0.063709125 0.75700003 -0.073000036 9.9520105e-39 272 295
-0.062381849 0.75700003 -0.073000036 9.8598135e-39 273 295
-0.061054576 0.75700003 -0.073000036 9.9505643e-39 274 295
-0.059569497 0.755 -0.07280717 9.4895862e-39 275 295
-0.058245733 0.755 -0.07280717 9.8537066e-39 276 295
-0.056846574 0.75400001 -0.07271073 1.0037738e-38 277 295
-0.055524562 0.75400001 -0.07271073 9.2162433e-39 278 295
-0.054202545 0.75400001 -0.07271073 9.7694171e-39 279 295
-0.052740261 0.75199997 -0.072517857 1.1421363e-38 280 295
-0.051421758 0.75199997 -0.072517857 1.1974537e-38 281 295
-0.050103247 0.75199997 -0.072517857 1.1794089e-38 282 295
-0.048655 0.75 -0.072324999 1.2070317e-38 283 295
-0.047339998 0.75 -0.072324999 1.2163222e-38 284 295
-0.046024997 0.75 -0.072324999 1.2347613e-38 285 295
-0.044650383 0.74900001 -0.072228566 1.2623477e-38 286 295
-0.04333714 0.74900001 -0.072228566 1.2623477e-38 287 295
