# .PCD v.7 - Point Cloud Data file format
FIELDS x y z rgb imX imY
SIZE 4 4 4 4 4 4
TYPE F F F F F F
COUNT 1 1 1 1 1 1
WIDTH 825
HEIGHT 1
VIEWPOINT 0 0 0 1 0 0 0
POINTS 825
DATA ascii
-0.0795312 0.72000003 -0.064382397 1.6035829e-38 257 291
-0.078268804 0.72000003 -0.064382397 1.6958101e-38 258 291
-0.076685533 0.71700001 -0.064114138 1.7234327e-38 259 291
-0.075323202 0.71600002 -0.064024724 1.7786063e-38 260 291
-0.073860914 0.71399999 -0.063845873 1.7878259e-38 261 291
-0.072609037 0.71399999 -0.063845873 1.8245968e-38 262 291
-0.071357153 0.71399999 -0.063845873 1.8522196e-38 263 291
-0.070007093 0.713 -0.063756458 1.8614748e-38 264 291
-0.068756968 0.713 -0.063756458 1.8706944e-38 265 291
-0.067506835 0.713 -0.063756458 1.8799142e-38 266 291
-0.066256717 0.713 -0.063756458 1.8153773e-38 267 291
-0.065006584 0.713 -0.063756458 1.6860877e-38 268 291
-0.063756458 0.713 -0.063756458 1.7137823e-38 269 291
-0.062506333 0.713 -0.063756458 1.7874309e-38 270 291
-0.061342116 0.71399999 -0.063845873 1.8427483e-38 271 291
-0.060090236 0.71399999 -0.063845873 1.8336729e-38 272 291
-0.059003171 0.71600002 -0.064024724 1.8429283e-38 273 291
-0.057747785 0.71600002 -0.064024724 1.8155922e-38 274 291
-0.056492399 0.71600002 -0.064024724 1.8063727e-38 275 291
-0.055237014 0.71600002 -0.064024724 1.806229e-38 276 291
-0.053981625 0.71600002 -0.064024724 1.7786063e-38 277 291
-0.052799881 0.71700001 -0.064114138 1.6864483e-38 278 291
-0.051542737 0.71700001 -0.064114138 1.6587536e-38 279 291
-0.050425861 0.71899998 -0.064292975 1.6036532e-38 280 291
-0.0492336 0.72000003 -0.064382397 1.5851783e-38 281 291
-0.0479712 0.72000003 -0.064382397 1.5575571e-38 282 291
-0.046838548 0.722 -0.064561233 1.4930202e-38 283 291
-0.045572639 0.722 -0.064561233 1.3088109e-38 284 291
-0.082283929 0.722 -0.065827139 1.5673945e-38 255 292
-0.080681384 0.71899998 -0.065553628 1.5113148e-38 256 292
-0.079199821 0.71700001 -0.065371275 1.6219494e-38 257 292
-0.077942684 0.71700001 -0.065371275 1.6865546e-38 258 292
-0.076578587 0.71600002 -0.06528011 1.7326524e-38 259 292
-0.075323202 0.71600002 -0.06528011 1.7693512e-38 260 292
-0.073860914 0.71399999 -0.065097757 1.7878262e-38 261 292
-0.072609037 0.71399999 -0.065097757 1.8245963e-38 262 292
-0.071257219 0.713 -0.065006584 1.8522549e-38 263 292
-0.069810718 0.71100003 -0.064824238 1.8614023e-38 264 292
-0.068564095 0.71100003 -0.064824238 1.8706578e-38 265 292
-0.067317478 0.71100003 -0.064824238 1.8706593e-38 266 292
-0.066070862 0.71100003 -0.064824238 1.7968669e-38 267 292
-0.065006584 0.713 -0.065006584 1.6214794e-38 268 292
-0.063756458 0.713 -0.065006584 1.6214794e-38 269 292
-0.062506333 0.713 -0.065006584 1.6768682e-38 270 292
-0.061256204 0.713 -0.065006584 1.7414051e-38 271 292
-0.060006075 0.713 -0.065006584 1.7600243e-38 272 292
-0.058755953 0.713 -0.065006584 1.8061221e-38 273 292
-0.057586476 0.71399999 -0.065097757 1.7971891e-38 274 292
-0.0563346 0.71399999 -0.065097757 1.7787858e-38 275 292
-0.05508272 0.71399999 -0.065097757 1.824524e-38 276 292
-0.053981625 0.71600002 -0.06528011 1.7968654e-38 277 292
-0.052726239 0.71600002 -0.06528011 1.714106e-38 278 292
-0.051470853 0.71600002 -0.06528011 1.6680082e-38 279 292
-0.0502856 0.71700001 -0.065371275 1.5944334e-38 280 292
-0.049165215 0.71899998 -0.065553628 1.5852138e-38 281 292
-0.04790457 0.71899998 -0.065553628 1.5668135e-38 282 292
-0.0467088 0.72000003 -0.065644801 1.4746539e-38 283 292
-0.045446403 0.72000003 -0.065644801 1.2995914e-38 284 292
-0.082056001 0.72000003 -0.066907197 1.5489197e-38 255 293
-0.080681384 0.71899998 -0.066814266 1.5663448e-38 256 293
-0.079199821 0.71700001 -0.066628419 1.6769796e-38 257 293
-0.077942684 0.71700001 -0.066628419 1.723289e-38 258 293
-0.076578587 0.71600002 -0.066535495 1.7416921e-38 259 293
-0.075323202 0.71600002 -0.066535495 1.7786414e-38 260 293
-0.073860914 0.71399999 -0.066349633 1.8062641e-38 261 293
-0.072507344 0.713 -0.066256717 1.8247389e-38 262 293
-0.071257219 0.713 -0.066256717 1.8339585e-38 263 293
-0.069810718 0.71100003 -0.066070862 1.8614377e-38 264 293
-0.068564095 0.71100003 -0.066070862 1.8614377e-38 265 293
-0.067222796 0.70999998 -0.065977924 1.8246688e-38 266 293
-0.065977924 0.70999998 -0.065977924 1.7693515e-38 267 293
-0.064824238 0.71100003 -0.066070862 1.6491024e-38 268 293
-0.063577622 0.71100003 -0.066070862 1.6306634e-38 269 293
-0.062331002 0.71100003 -0.066070862 1.6216961e-38 270 293
-0.061084379 0.71100003 -0.066070862 1.6585385e-38 271 293
-0.059837762 0.71100003 -0.066070862 1.7047795e-38 272 293
-0.058591139 0.71100003 -0.066070862 1.8061587e-38 273 293
-0.057344519 0.71100003 -0.066070862 1.7971176e-38 274 293
-0.056255698 0.713 -0.066256717 1.7971176e-38 275 293
-0.055005573 0.713 -0.066256717 1.7878981e-38 276 293
-0.053830836 0.71399999 -0.066349633 1.7418004e-38 277 293
-0.052578956 0.71399999 -0.066349633 1.6679733e-38 278 293
-0.05132708 0.71399999 -0.066349633 1.649534e-38 279 293
-0.050215468 0.71600002 -0.066535495 1.5943628e-38 280 293
-0.048960082 0.71600002 -0.066535495 1.5759237e-38 281 293
-0.04777132 0.71700001 -0.066628419 1.5667782e-38 282 293
-0.046514176 0.71700001 -0.066628419 1.4746186e-38 283 293
-0.045257039 0.71700001 -0.066628419 1.2811895e-38 284 293
-0.082056001 0.72000003 -0.068169601 1.5764341e-38 255 294
-0.080681384 0.71899998 -0.068074919 1.5296461e-38 256 294
-0.079199821 0.71700001 -0.067885563 1.6403167e-38 257 294
-0.077942684 0.71700001 -0.067885563 1.7141413e-38 258 294
-0.076364681 0.71399999 -0.067601517 1.7418001e-38 259 294
-0.075112797 0.71399999 -0.067601517 1.7511269e-38 260 294
-0.07375747 0.713 -0.067506835 1.7788214e-38 261 294
-0.072507344 0.713 -0.067506835 1.8247389e-38 262 294
-0.071057342 0.71100003 -0.067317478 1.8339585e-38 263 294
-0.069712527 0.70999998 -0.067222796 1.8614732e-38 264 294
-0.068467662 0.70999998 -0.067222796 1.8614732e-38 265 294
-0.067033432 0.708 -0.067033432 1.8429628e-38 266 294
-0.065792084 0.708 -0.067033432 1.7692063e-38 267 294
-0.064733058 0.70999998 -0.067222796 1.5846734e-38 268 294
-0.063488193 0.70999998 -0.067222796 1.6030766e-38 269 294
-0.062243331 0.70999998 -0.067222796 1.6307018e-38 270 294
-0.060998458 0.70999998 -0.067222796 1.649177e-38 271 294
-0.059753593 0.70999998 -0.067222796 1.7137486e-38 272 294
-0.058508728 0.70999998 -0.067222796 1.8243833e-38 273 294
-0.057263866 0.70999998 -0.067222796 1.8153767e-38 274 294
-0.056018997 0.70999998 -0.067222796 1.8153767e-38 275 294
-0.054851279 0.71100003 -0.067317478 1.8061208e-38 276 294
-0.053604662 0.71100003 -0.067317478 1.7692066e-38 277 294
-0.052505318 0.713 -0.067506835 1.6679733e-38 278 294
-0.05132708 0.71399999 -0.067601517 1.6403144e-38 279 294
-0.050075196 0.71399999 -0.067601517 1.5851435e-38 280 294
-0.048960082 0.71600002 -0.067790881 1.5851435e-38 281 294
-0.047704693 0.71600002 -0.067790881 1.5667782e-38 282 294
-0.046449307 0.71600002 -0.067790881 1.4561795e-38 283 294
-0.082056001 0.72000003 -0.069432005 1.5856537e-38 255 295
-0.080456957 0.71700001 -0.069142699 1.5388656e-38 256 295
-0.079089358 0.71600002 -0.069046266 1.6310971e-38 257 295
-0.07761655 0.71399999 -0.068853401 1.7232887e-38 258 295
-0.076364681 0.71399999 -0.068853401 1.7601669e-38 259 295
-0.075007595 0.713 -0.068756968 1.7787133e-38 260 295
-0.073550582 0.71100003 -0.068564095 1.7879328e-38 261 295
-0.072303966 0.71100003 -0.068564095 1.8247386e-38 262 295
-0.071057342 0.71100003 -0.068564095 1.8339941e-38 263 295
-0.069712527 0.70999998 -0.068467662 1.8615449e-38 264 295
-0.068467662 0.70999998 -0.068467662 1.8523253e-38 265 295
-0.066938758 0.70700002 -0.068178371 1.8707644e-38 266 295
-0.065699153 0.70700002 -0.068178371 1.7601297e-38 267 295
-0.064459547 0.70700002 -0.068178371 1.5936756e-38 268 295
-0.063219935 0.70700002 -0.068178371 1.6121147e-38 269 295
-0.061980337 0.70700002 -0.068178371 1.63974e-38 270 295
-0.060826641 0.708 -0.068274796 1.658215e-38 271 295
-0.059585281 0.708 -0.068274796 1.6494634e-38 272 295
-0.058343921 0.708 -0.068274796 1.7693177e-38 273 295
-0.057102561 0.708 -0.068274796 1.8337085e-38 274 295
-0.056018997 0.70999998 -0.068467662 1.8244889e-38 275 295
-0.054774132 0.70999998 -0.068467662 1.7693865e-38 276 295
-0.053529263 0.70999998 -0.068467662 1.7232887e-38 277 295
-0.052358042 0.71100003 -0.068564095 1.6587889e-38 278 295
-0.051255193 0.713 -0.068756968 1.6403139e-38 279 295
-0.050005067 0.713 -0.068756968 1.5851788e-38 280 295
-0.048960082 0.71600002 -0.069046266 1.5759234e-38 281 295
-0.047704693 0.71600002 -0.069046266 1.5391558e-38 282 295
-0.046449307 0.71600002 -0.069046266 1.4377046e-38 283 295
-0.081942029 0.71899998 -0.070596211 1.5673945e-38 255 296
-0.080456957 0.71700001 -0.070399836 1.5113867e-38 256 296
-0.078868434 0.71399999 -0.070105277 1.6128378e-38 257 296
-0.07761655 0.71399999 -0.070105277 1.6865902e-38 258 296
-0.076364681 0.71399999 -0.070105277 1.7234325e-38 259 296
-0.075007595 0.713 -0.070007093 1.7511269e-38 260 296
-0.073447131 0.70999998 -0.069712527 1.7696019e-38 261 296
-0.072202265 0.70999998 -0.069712527 1.8339588e-38 262 296
-0.070957392 0.70999998 -0.069712527 1.8431783e-38 263 296
-0.069516152 0.708 -0.069516152 1.8615451e-38 264 296
-0.068178371 0.70700002 -0.069417976 1.8522897e-38 265 296
-0.066938758 0.70700002 -0.069417976 1.8890956e-38 266 296
-0.065606222 0.70599997 -0.069319785 1.8430337e-38 267 296
-0.064368367 0.70599997 -0.069319785 1.7042731e-38 268 296
-0.063130513 0.70599997 -0.069319785 1.621333e-38 269 296
-0.061892662 0.70599997 -0.069319785 1.6120797e-38 270 296
-0.060740728 0.70700002 -0.069417976 1.6489581e-38 271 296
-0.059501119 0.70700002 -0.069417976 1.6309877e-38 272 296
-0.05826151 0.70700002 -0.069417976 1.750842e-38 273 296
-0.057021905 0.70700002 -0.069417976 1.7969378e-38 274 296
-0.055782299 0.70700002 -0.069417976 1.7969378e-38 275 296
-0.054542694 0.70700002 -0.069417976 1.7600946e-38 276 296
-0.053303085 0.70700002 -0.069417976 1.7324359e-38 277 296
-0.052137118 0.708 -0.069516152 1.6863753e-38 278 296
-0.051039528 0.70999998 -0.069712527 1.6587167e-38 279 296
-0.050005067 0.713 -0.070007093 1.575959e-38 280 296
-0.048823316 0.71399999 -0.070105277 1.575959e-38 281 296
-0.047571439 0.71399999 -0.070105277 1.529936e-38 282 296
-0.046449307 0.71600002 -0.070301652 1.4469239e-38 283 296
-0.081030294 0.71100003 -0.071057342 1.5673945e-38 255 297
-0.079783678 0.71100003 -0.071057342 1.5113867e-38 256 297
-0.078537062 0.71100003 -0.071057342 1.6128378e-38 257 297
-0.077290438 0.71100003 -0.071057342 1.6865902e-38 258 297
-0.076043822 0.71100003 -0.071057342 1.7234325e-38 259 297
-0.074797198 0.71100003 -0.071057342 1.7419076e-38 260 297
-0.073447131 0.70999998 -0.070957392 1.7695663e-38 261 297
-0.072202265 0.70999998 -0.070957392 1.8339234e-38 262 297
-0.070757516 0.708 -0.070757516 1.8339234e-38 263 297
-0.069516152 0.708 -0.070757516 1.8614379e-38 264 297
-0.068178371 0.70700002 -0.070657574 1.8614379e-38 265 297
-0.066844068 0.70599997 -0.070557632 1.8614023e-38 266 297
-0.065606222 0.70599997 -0.070557632 1.8982805e-38 267 297
-0.064186029 0.704 -0.070357755 1.8150154e-38 268 297
-0.062951677 0.704 -0.070357755 1.676722e-38 269 297
-0.061717331 0.704 -0.070357755 1.5753074e-38 270 297
-0.060482983 0.704 -0.070357755 1.6213693e-38 271 297
-0.059416957 0.70599997 -0.070557632 1.6123312e-38 272 297
-0.058014292 0.704 -0.070357755 1.7598801e-38 273 297
-0.056779943 0.704 -0.070357755 1.7877177e-38 274 297
-0.055703394 0.70599997 -0.070557632 1.7693146e-38 275 297
-0.054542694 0.70700002 -0.070657574 1.7509467e-38 276 297
-0.053303085 0.70700002 -0.070657574 1.7141044e-38 277 297
-0.05206348 0.70700002 -0.070657574 1.6955582e-38 278 297
-0.050895758 0.708 -0.070757516 1.6678637e-38 279 297
-0.049864799 0.71100003 -0.071057342 1.5759943e-38 280 297
-0.048754938 0.713 -0.071257219 1.5759943e-38 281 297
-0.047571439 0.71399999 -0.071357153 1.520788e-38 282 297
-0.046449307 0.71600002 -0.071557038 1.437848e-38 283 297
-0.082276918 0.71100003 -0.072303966 1.8348703e-38 254 298
-0.08091633 0.70999998 -0.072202265 1.5490999e-38 255 298
-0.079671465 0.70999998 -0.072202265 1.5022397e-38 256 298
-0.0784266 0.70999998 -0.072202265 1.5852517e-38 257 298
-0.077181734 0.70999998 -0.072202265 1.6865183e-38 258 298
-0.075936861 0.70999998 -0.072202265 1.714141e-38 259 298
-0.074691996 0.70999998 -0.072202265 1.7694218e-38 260 298
-0.073447131 0.70999998 -0.072202265 1.7878609e-38 261 298
-0.071998879 0.708 -0.071998879 1.8246672e-38 262 298
-0.070757516 0.708 -0.071998879 1.8338869e-38 263 298
-0.069319785 0.70599997 -0.071795486 1.8705496e-38 264 298
-0.06808193 0.70599997 -0.071795486 1.8797692e-38 265 298
-0.066654719 0.704 -0.071592107 1.8614379e-38 266 298
-0.065420374 0.704 -0.071592107 1.8890606e-38 267 298
-0.064094849 0.70300001 -0.071490414 1.8888794e-38 268 298
-0.062862262 0.70300001 -0.071490414 1.7782448e-38 269 298
-0.061629668 0.70300001 -0.071490414 1.6676456e-38 270 298
-0.06039707 0.70300001 -0.071490414 1.6399511e-38 271 298
-0.059248637 0.704 -0.071592107 1.6583552e-38 272 298
-0.058014292 0.704 -0.071592107 1.7689899e-38 273 298
-0.056779943 0.704 -0.071592107 1.7509107e-38 274 298
-0.055545598 0.704 -0.071592107 1.7509107e-38 275 298
-0.054465543 0.70599997 -0.071795486 1.7509107e-38 276 298
-0.053227689 0.70599997 -0.071795486 1.7232161e-38 277 298
-0.05206348 0.70700002 -0.071897186 1.6587523e-38 278 298
-0.050895758 0.708 -0.071998879 1.6402773e-38 279 298
-0.049794663 0.70999998 -0.072202265 1.585142e-38 280 298
-0.048754938 0.713 -0.072507344 1.5759224e-38 281 298
-0.047571439 0.71399999 -0.072609037 1.5207883e-38 282 298
-0.082276918 0.71100003 -0.073550582 1.8715696e-38 254 299
-0.08091633 0.70999998 -0.073447131 1.6041664e-38 255 299
-0.079671465 0.70999998 -0.073447131 1.4839819e-38 256 299
-0.0784266 0.70999998 -0.073447131 1.5577386e-38 257 299
-0.077181734 0.70999998 -0.073447131 1.6497136e-38 258 299
-0.075936861 0.70999998 -0.073447131 1.6865918e-38 259 299
-0.074691996 0.70999998 -0.073447131 1.7326527e-38 260 299
-0.073447131 0.70999998 -0.073447131 1.7510918e-38 261 299
-0.071998879 0.708 -0.073240235 1.7878978e-38 262 299
-0.070357755 0.704 -0.072826453 1.7971174e-38 263 299
-0.06912341 0.704 -0.072826453 1.8521831e-38 264 299
-0.067889065 0.704 -0.072826453 1.8614026e-38 265 299
-0.066560037 0.70300001 -0.072723009 1.8522897e-38 266 299
-0.065327443 0.70300001 -0.072723009 1.8338866e-38 267 299
-0.064094849 0.70300001 -0.072723009 1.8798042e-38 268 299
-0.062862262 0.70300001 -0.072723009 1.8337064e-38 269 299
-0.06145433 0.70099998 -0.072516106 1.7689897e-38 270 299
-0.060225245 0.70099998 -0.072516106 1.7137081e-38 271 299
-0.059164476 0.70300001 -0.072723009 1.6677541e-38 272 299
-0.057931885 0.70300001 -0.072723009 1.7415108e-38 273 299
-0.056699295 0.70300001 -0.072723009 1.7141042e-38 274 299
-0.055545598 0.704 -0.072826453 1.7417627e-38 275 299
-0.054311249 0.704 -0.072826453 1.7416189e-38 276 299
-0.053076904 0.704 -0.072826453 1.7139242e-38 277 299
-0.051989835 0.70599997 -0.07303334 1.6770833e-38 278 299
-0.050751984 0.70599997 -0.07303334 1.6586441e-38 279 299
-0.049794663 0.70999998 -0.073447131 1.5484076e-38 280 299
-0.082161188 0.70999998 -0.074691996 1.8714977e-38 254 300
-0.08091633 0.70999998 -0.074691996 1.61335e-38 255 300
-0.079671465 0.70999998 -0.074691996 1.4471044e-38 256 300
-0.078205675 0.708 -0.074481599 1.5300805e-38 257 300
-0.076964319 0.708 -0.074481599 1.7047426e-38 258 300
-0.07561601 0.70700002 -0.074376404 1.7231458e-38 259 300
-0.074271195 0.70599997 -0.074271195 1.7509823e-38 260 300
-0.072826453 0.704 -0.07406079 1.7694215e-38 261 300
-0.071592107 0.704 -0.07406079 1.8245593e-38 262 300
-0.070257813 0.70300001 -0.073955595 1.8337788e-38 263 300
-0.069025226 0.70300001 -0.073955595 1.8429984e-38 264 300
-0.067599766 0.70099998 -0.073745191 1.8614377e-38 265 300
-0.066370681 0.70099998 -0.073745191 1.8522903e-38 266 300
-0.065141588 0.70099998 -0.073745191 1.8615098e-38 267 300
-0.063821331 0.69999999 -0.073639996 1.8431783e-38 268 300
-0.062593997 0.69999999 -0.073639996 1.8154836e-38 269 300
-0.061191335 0.69800001 -0.073429599 1.8244505e-38 270 300
-0.059967503 0.69800001 -0.073429599 1.7875363e-38 271 300
-0.058911994 0.69999999 -0.073639996 1.7599855e-38 272 300
-0.057767071 0.70099998 -0.073745191 1.7599855e-38 273 300
-0.056537982 0.70099998 -0.073745191 1.7692416e-38 274 300
-0.0554667 0.70300001 -0.073955595 1.7692416e-38 275 300
-0.054234106 0.70300001 -0.073955595 1.7416555e-38 276 300
-0.053076904 0.704 -0.07406079 1.6955577e-38 277 300
-0.051842559 0.704 -0.07406079 1.6494971e-38 278 300
-0.050608214 0.704 -0.07406079 1.6218385e-38 279 300
-0.049373865 0.704 -0.07406079 1.5758868e-38 280 300
-0.048139516 0.704 -0.07406079 1.5666671e-38 281 300
-0.082161188 0.70999998 -0.075936861 1.8623142e-38 254 301
-0.080688395 0.708 -0.075722955 1.6134218e-38 255 301
-0.079447038 0.708 -0.075722955 1.4011861e-38 256 301
-0.07809522 0.70700002 -0.07561601 1.4749426e-38 257 301
-0.076855607 0.70700002 -0.07561601 1.6680805e-38 258 301
-0.075295143 0.704 -0.075295143 1.6773e-38 259 301
-0.073955595 0.70300001 -0.07518819 1.6958819e-38 260 301
-0.072723009 0.70300001 -0.07518819 1.7143212e-38 261 301
-0.071490414 0.70300001 -0.07518819 1.7694584e-38 262 301
-0.070057929 0.70099998 -0.074974284 1.7878975e-38 263 301
-0.068828844 0.70099998 -0.074974284 1.8246316e-38 264 301
-0.067503333 0.69999999 -0.07486733 1.8522903e-38 265 301
-0.066275999 0.69999999 -0.07486733 1.8339237e-38 266 301
-0.065141588 0.70099998 -0.074974284 1.8431433e-38 267 301
-0.063638985 0.69800001 -0.074653424 1.8615095e-38 268 301
-0.062415157 0.69800001 -0.074653424 1.85229e-38 269 301
-0.061191335 0.69800001 -0.074653424 1.8429968e-38 270 301
-0.059967503 0.69800001 -0.074653424 1.8153023e-38 271 301
-0.058743682 0.69800001 -0.074653424 1.8151224e-38 272 301
-0.05768466 0.69999999 -0.07486733 1.8243419e-38 273 301
-0.056457333 0.69999999 -0.07486733 1.7784965e-38 274 301
-0.055308893 0.70099998 -0.074974284 1.7784965e-38 275 301
-0.054234106 0.70300001 -0.07518819 1.7600218e-38 276 301
-0.053001512 0.70300001 -0.07518819 1.7139598e-38 277 301
-0.051768921 0.70300001 -0.07518819 1.6678637e-38 278 301
-0.050536323 0.70300001 -0.07518819 1.640241e-38 279 301
-0.049303733 0.70300001 -0.07518819 1.5758868e-38 280 301
-0.048139516 0.704 -0.075295143 1.5758868e-38 281 301
-0.082161188 0.70999998 -0.077181734 1.8530593e-38 254 302
-0.080688395 0.708 -0.076964319 1.6226062e-38 255 302
-0.079334825 0.70700002 -0.076855607 1.4102987e-38 256 302
-0.07798475 0.70599997 -0.076746903 1.4655802e-38 257 302
-0.076529488 0.704 -0.076529488 1.6037236e-38 258 302
-0.075295143 0.704 -0.076529488 1.6221629e-38 259 302
-0.073955595 0.70300001 -0.076420791 1.7141047e-38 260 302
-0.072723009 0.70300001 -0.076420791 1.750947e-38 261 302
-0.071490414 0.70300001 -0.076420791 1.7693862e-38 262 302
-0.070057929 0.70099998 -0.076203369 1.7878612e-38 263 302
-0.068828844 0.70099998 -0.076203369 1.815412e-38 264 302
-0.067503333 0.69999999 -0.076094657 1.8338513e-38 265 302
-0.066275999 0.69999999 -0.076094657 1.8522547e-38 266 302
-0.065048665 0.69999999 -0.076094657 1.8614742e-38 267 302
-0.063638985 0.69800001 -0.075877249 1.8431786e-38 268 302
-0.062415157 0.69800001 -0.075877249 1.8431786e-38 269 302
-0.061103668 0.69700003 -0.075768545 1.8339222e-38 270 302
-0.05988159 0.69700003 -0.075768545 1.8246666e-38 271 302
-0.058743682 0.69800001 -0.075877249 1.8245943e-38 272 302
-0.057519849 0.69800001 -0.075877249 1.8061912e-38 273 302
-0.056296028 0.69800001 -0.075877249 1.7877884e-38 274 302
-0.055229999 0.69999999 -0.076094657 1.7693852e-38 275 302
-0.054079808 0.70099998 -0.076203369 1.7509104e-38 276 302
-0.052850723 0.70099998 -0.076203369 1.7048127e-38 277 302
-0.051768921 0.70300001 -0.076420791 1.649569e-38 278 302
-0.050536323 0.70300001 -0.076420791 1.6127268e-38 279 302
-0.049303733 0.70300001 -0.076420791 1.5575556e-38 280 302
-0.048071139 0.70300001 -0.076420791 1.5575556e-38 281 302
-0.080574431 0.70700002 -0.07809522 1.6502292e-38 255 303
-0.079222605 0.70599997 -0.07798475 1.4377779e-38 256 303
-0.077763841 0.704 -0.077763841 1.456181e-38 257 303
-0.076529488 0.704 -0.077763841 1.5851417e-38 258 303
-0.07518819 0.70300001 -0.077653378 1.6312394e-38 259 303
-0.073955595 0.70300001 -0.077653378 1.6955597e-38 260 303
-0.072723009 0.70300001 -0.077653378 1.7232183e-38 261 303
-0.071287021 0.70099998 -0.077432454 1.7418007e-38 262 303
-0.070057929 0.70099998 -0.077432454 1.7694234e-38 263 303
-0.068730667 0.69999999 -0.077321991 1.8061571e-38 264 303
-0.067503333 0.69999999 -0.077321991 1.8245963e-38 265 303
-0.066086642 0.69800001 -0.077101074 1.8521831e-38 266 303
-0.06486281 0.69800001 -0.077101074 1.8614026e-38 267 303
-0.063638985 0.69800001 -0.077101074 1.8522903e-38 268 303
-0.062325738 0.69700003 -0.076990619 1.8522903e-38 269 303
-0.061103668 0.69700003 -0.076990619 1.8339219e-38 270 303
-0.05988159 0.69700003 -0.076990619 1.8247022e-38 271 303
-0.05865952 0.69700003 -0.076990619 1.8245587e-38 272 303
-0.057519849 0.69800001 -0.077101074 1.8245587e-38 273 303
-0.056296028 0.69800001 -0.077101074 1.787753e-38 274 303
-0.0550722 0.69800001 -0.077101074 1.7601302e-38 275 303
-0.053848371 0.69800001 -0.077101074 1.7692419e-38 276 303
-0.052775331 0.69999999 -0.077321991 1.7415833e-38 277 303
-0.051621638 0.70099998 -0.077432454 1.6770479e-38 278 303
-0.050392549 0.70099998 -0.077432454 1.6309861e-38 279 303
-0.049163464 0.70099998 -0.077432454 1.5758871e-38 280 303
-0.048071139 0.70300001 -0.077653378 1.5758871e-38 281 303
-0.046838548 0.70300001 -0.077653378 1.5207164e-38 282 303
-0.080460466 0.70599997 -0.079222605 1.6504093e-38 255 304
-0.078998186 0.704 -0.078998186 1.4562886e-38 256 304
-0.077763841 0.704 -0.078998186 1.4194104e-38 257 304
-0.076529488 0.704 -0.078998186 1.5667024e-38 258 304
-0.07518819 0.70300001 -0.078885972 1.6036167e-38 259 304
-0.073745191 0.70099998 -0.078661539 1.6404588e-38 260 304
-0.072516106 0.70099998 -0.078661539 1.6681533e-38 261 304
-0.071287021 0.70099998 -0.078661539 1.7049946e-38 262 304
-0.069957994 0.69999999 -0.078549333 1.7510565e-38 263 304
-0.068534292 0.69800001 -0.078324907 1.8244886e-38 264 304
-0.06731046 0.69800001 -0.078324907 1.8244886e-38 265 304
-0.066086642 0.69800001 -0.078324907 1.8337082e-38 266 304
-0.06486281 0.69800001 -0.078324907 1.8429278e-38 267 304
-0.06354782 0.69700003 -0.078212693 1.8246319e-38 268 304
-0.062325738 0.69700003 -0.078212693 1.8338516e-38 269 304
-0.061015997 0.69599998 -0.078100473 1.8247392e-38 270 304
-0.059795678 0.69599998 -0.078100473 1.8154836e-38 271 304
-0.058575355 0.69599998 -0.078100473 1.8154123e-38 272 304
-0.05743745 0.69700003 -0.078212693 1.8061927e-38 273 304
-0.056215372 0.69700003 -0.078212693 1.7693868e-38 274 304
-0.0550722 0.69800001 -0.078324907 1.7509116e-38 275 304
-0.053848371 0.69800001 -0.078324907 1.7417271e-38 276 304
-0.052624546 0.69800001 -0.078324907 1.723324e-38 277 304
-0.051547997 0.69999999 -0.078549333 1.6771188e-38 278 304
-0.050320663 0.69999999 -0.078549333 1.631021e-38 279 304
-0.049093332 0.69999999 -0.078549333 1.5759224e-38 280 304
-0.047865998 0.69999999 -0.078549333 1.5759224e-38 281 304
-0.080460466 0.70599997 -0.080460466 1.6503737e-38 255 305
-0.078885972 0.70300001 -0.080118567 1.4840199e-38 256 305
-0.077653378 0.70300001 -0.080118567 1.3917883e-38 257 305
-0.076420791 0.70300001 -0.080118567 1.5481914e-38 258 305
-0.074974284 0.70099998 -0.079890631 1.5942533e-38 259 305
-0.073745191 0.70099998 -0.079890631 1.649569e-38 260 305
-0.072412662 0.69999999 -0.079776667 1.6772637e-38 261 305
-0.071185328 0.69999999 -0.079776667 1.6958101e-38 262 305
-0.069758117 0.69800001 -0.079548739 1.7326524e-38 263 305
-0.068534292 0.69800001 -0.079548739 1.7968654e-38 264 305
-0.06731046 0.69800001 -0.079548739 1.8061208e-38 265 305
-0.06599196 0.69700003 -0.079434767 1.8061203e-38 266 305
-0.064769886 0.69700003 -0.079434767 1.8245593e-38 267 305
-0.063456632 0.69599998 -0.079320796 1.8245593e-38 268 305
-0.062236317 0.69599998 -0.079320796 1.8337788e-38 269 305
-0.061015997 0.69599998 -0.079320796 1.8154473e-38 270 305
-0.059795678 0.69599998 -0.079320796 1.8062278e-38 271 305
-0.058575355 0.69599998 -0.079320796 1.7970082e-38 272 305
-0.057355035 0.69599998 -0.079320796 1.7877528e-38 273 305
-0.056134716 0.69599998 -0.079320796 1.7601669e-38 274 305
-0.054993302 0.69700003 -0.079434767 1.7509472e-38 275 305
-0.053771228 0.69700003 -0.079434767 1.7417277e-38 276 305
-0.052624546 0.69800001 -0.079548739 1.7417277e-38 277 305
-0.051400717 0.69800001 -0.079548739 1.6680438e-38 278 305
-0.050320663 0.69999999 -0.079776667 1.6127265e-38 279 305
-0.048953064 0.69800001 -0.079548739 1.5575553e-38 280 305
-0.047729239 0.69800001 -0.079548739 1.5483356e-38 281 305
-0.078661539 0.70099998 -0.081119716 1.530154e-38 256 306
-0.077432454 0.70099998 -0.081119716 1.4010801e-38 257 306
-0.076203369 0.70099998 -0.081119716 1.4930539e-38 258 306
-0.07486733 0.69999999 -0.081004001 1.5483712e-38 259 306
-0.073639996 0.69999999 -0.081004001 1.6035435e-38 260 306
-0.072412662 0.69999999 -0.081004001 1.6588609e-38 261 306
-0.071185328 0.69999999 -0.081004001 1.6681886e-38 262 306
-0.069758117 0.69800001 -0.080772556 1.6958113e-38 263 306
-0.068534292 0.69800001 -0.080772556 1.7325454e-38 264 306
-0.067214034 0.69700003 -0.080656841 1.7509846e-38 265 306
-0.06599196 0.69700003 -0.080656841 1.7510202e-38 266 306
-0.064676955 0.69599998 -0.080541112 1.7510202e-38 267 306
-0.063456632 0.69599998 -0.080541112 1.7694231e-38 268 306
-0.062236317 0.69599998 -0.080541112 1.7786426e-38 269 306
-0.060840666 0.69400001 -0.080309682 1.7786061e-38 270 306
-0.059623852 0.69400001 -0.080309682 1.7693865e-38 271 306
-0.058407038 0.69400001 -0.080309682 1.7693865e-38 272 306
-0.057355035 0.69599998 -0.080541112 1.7601669e-38 273 306
-0.056134716 0.69599998 -0.080541112 1.7325804e-38 274 306
-0.054993302 0.69700003 -0.080656841 1.7233609e-38 275 306
-0.053771228 0.69700003 -0.080656841 1.7141763e-38 276 306
-0.052549154 0.69700003 -0.080656841 1.7049568e-38 277 306
-0.051400717 0.69800001 -0.080772556 1.6587517e-38 278 306
-0.050176892 0.69800001 -0.080772556 1.6218734e-38 279 306
-0.048953064 0.69800001 -0.080772556 1.5759224e-38 280 306
-0.047729239 0.69800001 -0.080772556 1.5667027e-38 281 306
-0.078661539 0.70099998 -0.082348801 1.5669975e-38 256 307
-0.077101074 0.69800001 -0.081996389 1.3826064e-38 257 307
-0.075877249 0.69800001 -0.081996389 1.492839e-38 258 307
-0.07486733 0.69999999 -0.082231328 1.5758151e-38 259 307
-0.073429599 0.69800001 -0.081996389 1.5760994e-38 260 307
-0.072205767 0.69800001 -0.081996389 1.5945385e-38 261 307
-0.07098195 0.69800001 -0.081996389 1.6680785e-38 262 307
-0.069758117 0.69800001 -0.081996389 1.6865536e-38 263 307
-0.068436109 0.69700003 -0.081878915 1.759987e-38 264 307
-0.067214034 0.69700003 -0.081878915 1.7692066e-38 265 307
-0.065897278 0.69599998 -0.081761435 1.7783898e-38 266 307
-0.064676955 0.69599998 -0.081761435 1.7876094e-38 267 307
-0.063456632 0.69599998 -0.081761435 1.7784259e-38 268 307
-0.06205748 0.69400001 -0.081526496 1.7784259e-38 269 307
-0.060840666 0.69400001 -0.081526496 1.7876094e-38 270 307
-0.059623852 0.69400001 -0.081526496 1.7876094e-38 271 307
-0.058407038 0.69400001 -0.081526496 1.760022e-38 272 307
-0.057190225 0.69400001 -0.081526496 1.760022e-38 273 307
-0.055973411 0.69400001 -0.081526496 1.7416552e-38 274 307
-0.054914396 0.69599998 -0.081761435 1.7416552e-38 275 307
-0.053694077 0.69599998 -0.081761435 1.7049565e-38 276 307
-0.052549154 0.69700003 -0.081878915 1.6773338e-38 277 307
-0.051327083 0.69700003 -0.081878915 1.6403126e-38 278 307
-0.050176892 0.69800001 -0.081996389 1.6218734e-38 279 307
-0.048953064 0.69800001 -0.081996389 1.5759221e-38 280 307
-0.047729239 0.69800001 -0.081996389 1.5574828e-38 281 307
-0.046505414 0.69800001 -0.081996389 1.5206441e-38 282 307
-0.077101074 0.69800001 -0.083220214 1.391935e-38 257 308
-0.075877249 0.69800001 -0.083220214 1.4561778e-38 258 308
-0.074653424 0.69800001 -0.083220214 1.5022397e-38 259 308
-0.073429599 0.69800001 -0.083220214 1.5209273e-38 260 308
-0.072205767 0.69800001 -0.083220214 1.5669893e-38 261 308
-0.070880257 0.69700003 -0.083100989 1.6312025e-38 262 308
-0.069658175 0.69700003 -0.083100989 1.6588253e-38 263 308
-0.068337917 0.69599998 -0.082981758 1.6955599e-38 264 308
-0.067117594 0.69599998 -0.082981758 1.7139991e-38 265 308
-0.065707922 0.69400001 -0.082743309 1.723146e-38 266 308
-0.064491108 0.69400001 -0.082743309 1.7415852e-38 267 308
-0.063274294 0.69400001 -0.082743309 1.7323656e-38 268 308
-0.06205748 0.69400001 -0.082743309 1.7415852e-38 269 308
-0.060840666 0.69400001 -0.082743309 1.7416205e-38 270 308
-0.05953794 0.69300002 -0.082624078 1.7324009e-38 271 308
-0.058322877 0.69300002 -0.082624078 1.7324359e-38 272 308
-0.057190225 0.69400001 -0.082743309 1.7232164e-38 273 308
-0.055973411 0.69400001 -0.082743309 1.7048493e-38 274 308
-0.054756597 0.69400001 -0.082743309 1.7048493e-38 275 308
-0.053539783 0.69400001 -0.082743309 1.7048493e-38 276 308
-0.052473757 0.69599998 -0.082981758 1.68641e-38 277 308
-0.051253434 0.69599998 -0.082981758 1.6495678e-38 278 308
-0.050105009 0.69700003 -0.083100989 1.6310928e-38 279 308
-0.048882935 0.69700003 -0.083100989 1.5667021e-38 280 308
-0.047660861 0.69700003 -0.083100989 1.5574826e-38 281 308
-0.046505414 0.69800001 -0.083220214 1.5206088e-38 282 308
-0.077101074 0.69800001 -0.084444039 1.3828956e-38 257 309
-0.075877249 0.69800001 -0.084444039 1.4559993e-38 258 309
-0.074546471 0.69700003 -0.084323063 1.5113166e-38 259 309
-0.073324397 0.69700003 -0.084323063 1.5207845e-38 260 309
-0.072102323 0.69700003 -0.084323063 1.5484432e-38 261 309
-0.070880257 0.69700003 -0.084323063 1.6310224e-38 262 309
-0.069658175 0.69700003 -0.084323063 1.6494974e-38 263 309
-0.068141542 0.69400001 -0.083960123 1.6954148e-38 264 309
-0.066924736 0.69400001 -0.083960123 1.7138539e-38 265 309
-0.06561324 0.69300002 -0.083839141 1.7138895e-38 266 309
-0.064398177 0.69300002 -0.083839141 1.7138895e-38 267 309
-0.063183114 0.69300002 -0.083839141 1.695558e-38 268 309
-0.061968062 0.69300002 -0.083839141 1.7047777e-38 269 309
-0.060752999 0.69300002 -0.083839141 1.7048493e-38 270 309
-0.05953794 0.69300002 -0.083839141 1.6956297e-38 271 309
-0.058322877 0.69300002 -0.083839141 1.6864456e-38 272 309
-0.057107817 0.69300002 -0.083839141 1.6864456e-38 273 309
-0.055892758 0.69300002 -0.083839141 1.6955933e-38 274 309
-0.054756597 0.69400001 -0.083960123 1.6955933e-38 275 309
-0.053539783 0.69400001 -0.083960123 1.68641e-38 276 309
-0.052322973 0.69400001 -0.083960123 1.6771905e-38 277 309
-0.051253434 0.69599998 -0.084202074 1.6220177e-38 278 309
-0.050033119 0.69599998 -0.084202074 1.5943589e-38 279 309
-0.048812799 0.69599998 -0.084202074 1.5667024e-38 280 309
-0.047660861 0.69700003 -0.084323063 1.5390797e-38 281 309
-0.075877249 0.69800001 -0.085667863 1.42845e-38 258 310
-0.074546471 0.69700003 -0.08554513 1.4561089e-38 259 310
-0.073219195 0.69599998 -0.085422389 1.4930189e-38 260 310
-0.071998879 0.69599998 -0.085422389 1.5298612e-38 261 310
-0.070778556 0.69599998 -0.085422389 1.5850321e-38 262 310
-0.069558233 0.69599998 -0.085422389 1.6034714e-38 263 310
-0.068141542 0.69400001 -0.085176937 1.6402054e-38 264 310
-0.066924736 0.69400001 -0.085176937 1.6770835e-38 265 310
-0.06561324 0.69300002 -0.085054204 1.6770835e-38 266 310
-0.064398177 0.69300002 -0.085054204 1.6770835e-38 267 310
-0.063000768 0.69099998 -0.08480873 1.6863384e-38 268 310
-0.061789215 0.69099998 -0.08480873 1.6771188e-38 269 310
-0.060752999 0.69300002 -0.085054204 1.6771905e-38 270 310
-0.05953794 0.69300002 -0.085054204 1.6771905e-38 271 310
-0.058322877 0.69300002 -0.085054204 1.6496394e-38 272 310
-0.057107817 0.69300002 -0.085054204 1.6496394e-38 273 310
-0.055892758 0.69300002 -0.085054204 1.6587871e-38 274 310
-0.054677699 0.69300002 -0.085054204 1.6587871e-38 275 310
-0.053462639 0.69300002 -0.085054204 1.6771902e-38 276 310
-0.052322973 0.69400001 -0.085176937 1.6587871e-38 277 310
-0.051106159 0.69400001 -0.085176937 1.6127981e-38 278 310
-0.049889345 0.69400001 -0.085176937 1.5759557e-38 279 310
-0.048672531 0.69400001 -0.085176937 1.5207845e-38 280 310
-0.047455717 0.69400001 -0.085176937 1.5207845e-38 281 310
-0.074439511 0.69599998 -0.08664272 1.4009718e-38 259 311
-0.073219195 0.69599998 -0.08664272 1.4469577e-38 260 311
-0.071998879 0.69599998 -0.08664272 1.4838359e-38 261 311
-0.07057517 0.69400001 -0.086393744 1.5298952e-38 262 311
-0.069358356 0.69400001 -0.086393744 1.5575179e-38 263 311
-0.068043359 0.69300002 -0.086269259 1.5942517e-38 264 311
-0.06663543 0.69099998 -0.086020276 1.6127268e-38 265 311
-0.065423876 0.69099998 -0.086020276 1.631058e-38 266 311
-0.06421233 0.69099998 -0.086020276 1.6402776e-38 267 311
-0.063000768 0.69099998 -0.086020276 1.6402773e-38 268 311
-0.061789215 0.69099998 -0.086020276 1.6402773e-38 269 311
-0.060577665 0.69099998 -0.086020276 1.6403845e-38 270 311
-0.059366114 0.69099998 -0.086020276 1.6403845e-38 271 311
-0.058322877 0.69300002 -0.086269259 1.6403842e-38 272 311
-0.057107817 0.69300002 -0.086269259 1.6219811e-38 273 311
-0.055892758 0.69300002 -0.086269259 1.6219811e-38 274 311
-0.054677699 0.69300002 -0.086269259 1.6219811e-38 275 311
-0.053462639 0.69300002 -0.086269259 1.6403842e-38 276 311
-0.05224758 0.69300002 -0.086269259 1.6403842e-38 277 311
-0.051032521 0.69300002 -0.086269259 1.6127262e-38 278 311
-0.049817458 0.69300002 -0.086269259 1.594287e-38 279 311
-0.048672531 0.69400001 -0.086393744 1.511565e-38 280 311
-0.047455717 0.69400001 -0.086393744 1.511565e-38 281 311
-0.074225612 0.69400001 -0.087610558 1.3365788e-38 259 312
-0.073008798 0.69400001 -0.087610558 1.4560325e-38 260 312
-0.071791984 0.69400001 -0.087610558 1.4745075e-38 261 312
-0.07057517 0.69400001 -0.087610558 1.52975e-38 262 312
-0.069358356 0.69400001 -0.087610558 1.5574447e-38 263 312
-0.068043359 0.69300002 -0.087484315 1.5850308e-38 264 312
-0.06663543 0.69099998 -0.087231837 1.6126535e-38 265 312
-0.065423876 0.69099998 -0.087231837 1.6218015e-38 266 312
-0.06421233 0.69099998 -0.087231837 1.631021e-38 267 312
-0.063000768 0.69099998 -0.087231837 1.631021e-38 268 312
-0.061789215 0.69099998 -0.087231837 1.631021e-38 269 312
-0.060577665 0.69099998 -0.087231837 1.6310928e-38 270 312
-0.059366114 0.69099998 -0.087231837 1.6218731e-38 271 312
-0.058154557 0.69099998 -0.087231837 1.6311284e-38 272 312
-0.056942999 0.69099998 -0.087231837 1.6219087e-38 273 312
-0.055731449 0.69099998 -0.087231837 1.6218731e-38 274 312
-0.054519895 0.69099998 -0.087231837 1.6310928e-38 275 312
-0.053308345 0.69099998 -0.087231837 1.6219811e-38 276 312
-0.05224758 0.69300002 -0.087484315 1.6219811e-38 277 312
-0.051032521 0.69300002 -0.087484315 1.575992e-38 278 312
-0.049817458 0.69300002 -0.087484315 1.5575529e-38 279 312
-0.048672531 0.69400001 -0.087610558 1.5115652e-38 280 312
-0.047455717 0.69400001 -0.087610558 1.5115652e-38 281 312
-0.074225612 0.69400001 -0.088827372 1.3181769e-38 259 313
-0.073008798 0.69400001 -0.088827372 1.4009324e-38 260 313
-0.071791984 0.69400001 -0.088827372 1.410152e-38 261 313
-0.07057517 0.69400001 -0.088827372 1.4470633e-38 262 313
-0.069358356 0.69400001 -0.088827372 1.4839057e-38 263 313
-0.068043359 0.69300002 -0.088699378 1.5482612e-38 264 313
-0.06663543 0.69099998 -0.088443391 1.5574807e-38 265 313
-0.065423876 0.69099998 -0.088443391 1.5850318e-38 266 313
-0.06421233 0.69099998 -0.088443391 1.5942873e-38 267 313
-0.063000768 0.69099998 -0.088443391 1.5850318e-38 268 313
-0.061789215 0.69099998 -0.088443391 1.5942873e-38 269 313
-0.060489997 0.69 -0.088315398 1.594287e-38 270 313
-0.059280202 0.69 -0.088315398 1.6035065e-38 271 313
-0.058154557 0.69099998 -0.088443391 1.6035065e-38 272 313
-0.056942999 0.69099998 -0.088443391 1.6035065e-38 273 313
-0.055731449 0.69099998 -0.088443391 1.5943589e-38 274 313
-0.054519895 0.69099998 -0.088443391 1.6035786e-38 275 313
-0.053308345 0.69099998 -0.088443391 1.5852471e-38 276 313
-0.052096792 0.69099998 -0.088443391 1.5945025e-38 277 313
-0.050885238 0.69099998 -0.088443391 1.5943591e-38 278 313
-0.049673684 0.69099998 -0.088443391 1.5759202e-38 279 313
-0.048602402 0.69300002 -0.088699378 1.5115652e-38 280 313
-0.047387339 0.69300002 -0.088699378 1.5023457e-38 281 313
-0.074439511 0.69599998 -0.090303674 1.3181782e-38 259 314
-0.073219195 0.69599998 -0.090303674 1.419193e-38 260 314
-0.071998879 0.69599998 -0.090303674 1.419193e-38 261 314
-0.07057517 0.69400001 -0.090044186 1.4285523e-38 262 314
-0.069358356 0.69400001 -0.090044186 1.456175e-38 263 314
-0.068043359 0.69300002 -0.089914441 1.5297132e-38 264 314
-0.06663543 0.69099998 -0.089654945 1.5573717e-38 265 314
-0.065423876 0.69099998 -0.089654945 1.584958e-38 266 314
-0.064119399 0.69 -0.0895252 1.5941775e-38 267 314
-0.062909603 0.69 -0.0895252 1.5850306e-38 268 314
-0.061699796 0.69 -0.0895252 1.5850306e-38 269 314
-0.060489997 0.69 -0.0895252 1.5942501e-38 270 314
-0.059108373 0.68800002 -0.089265712 1.5850306e-38 271 314
-0.057902083 0.68800002 -0.089265712 1.5759908e-38 272 314
-0.056695789 0.68800002 -0.089265712 1.5759908e-38 273 314
-0.055650797 0.69 -0.0895252 1.5759911e-38 274 314
-0.054440998 0.69 -0.0895252 1.5759911e-38 275 314
-0.053231198 0.69 -0.0895252 1.5943942e-38 276 314
-0.052096792 0.69099998 -0.089654945 1.6036139e-38 277 314
-0.050885238 0.69099998 -0.089654945 1.5576612e-38 278 314
-0.049673684 0.69099998 -0.089654945 1.5299665e-38 279 314
-0.04846213 0.69099998 -0.089654945 1.5024176e-38 280 314
-0.047250576 0.69099998 -0.089654945 1.4839786e-38 281 314
-0.073219195 0.69599998 -0.09152399 1.3916435e-38 260 315
-0.071998879 0.69599998 -0.09152399 1.3640208e-38 261 315
-0.07057517 0.69400001 -0.091260992 1.3916759e-38 262 315
-0.069358356 0.69400001 -0.091260992 1.4192987e-38 263 315
-0.068043359 0.69300002 -0.091129504 1.4562103e-38 264 315
-0.06663543 0.69099998 -0.090866491 1.4746494e-38 265 315
-0.065329194 0.69 -0.090734996 1.5114185e-38 266 315
-0.064119399 0.69 -0.090734996 1.5390772e-38 267 315
-0.062909603 0.69 -0.090734996 1.5482968e-38 268 315
-0.06152096 0.68800002 -0.090471998 1.5482968e-38 269 315
-0.060314666 0.68800002 -0.090471998 1.5299655e-38 270 315
-0.059108373 0.68800002 -0.090471998 1.5299655e-38 271 315
-0.057817914 0.68699998 -0.090340495 1.5300372e-38 272 315
-0.056613375 0.68699998 -0.090340495 1.5300372e-38 273 315
-0.055489492 0.68800002 -0.090471998 1.5484763e-38 274 315
-0.054283202 0.68800002 -0.090471998 1.5484763e-38 275 315
-0.053076908 0.68800002 -0.090471998 1.5576958e-38 276 315
-0.052021399 0.69 -0.090734996 1.5576958e-38 277 315
-0.050811596 0.69 -0.090734996 1.5667725e-38 278 315
-0.049601797 0.69 -0.090734996 1.5391498e-38 279 315
-0.048391998 0.69 -0.090734996 1.4839786e-38 280 315
-0.047250576 0.69099998 -0.090866491 1.474759e-38 281 315
-0.07168854 0.69300002 -0.09234456 1.3731701e-38 261 316
-0.070473477 0.69300002 -0.09234456 1.4006804e-38 262 316
-0.069258414 0.69300002 -0.09234456 1.4006804e-38 263 316
-0.068043359 0.69300002 -0.09234456 1.4100772e-38 264 316
-0.06663543 0.69099998 -0.092078045 1.4469554e-38 265 316
-0.065329194 0.69 -0.091944791 1.5113109e-38 266 316
-0.064119399 0.69 -0.091944791 1.5389696e-38 267 316
-0.06272725 0.68800002 -0.091678292 1.5114904e-38 268 316
-0.06152096 0.68800002 -0.091678292 1.5114904e-38 269 316
-0.060314666 0.68800002 -0.091678292 1.5115624e-38 270 316
-0.059022456 0.68699998 -0.09154503 1.5115624e-38 271 316
-0.057817914 0.68699998 -0.09154503 1.4932665e-38 272 316
-0.056613375 0.68699998 -0.09154503 1.5024861e-38 273 316
-0.055408835 0.68699998 -0.09154503 1.5025583e-38 274 316
-0.054204296 0.68699998 -0.09154503 1.5117778e-38 275 316
-0.053076908 0.68800002 -0.091678292 1.5393289e-38 276 316
-0.051870614 0.68800002 -0.091678292 1.5393289e-38 277 316
-0.050664321 0.68800002 -0.091678292 1.5391861e-38 278 316
-0.049458027 0.68800002 -0.091678292 1.520747e-38 279 316
-0.048251733 0.68800002 -0.091678292 1.4747593e-38 280 316
-0.070473477 0.69300002 -0.093559615 1.3639831e-38 262 317
-0.069258414 0.69300002 -0.093559615 1.34558e-38 263 317
-0.068043359 0.69300002 -0.093559615 1.391603e-38 264 317
-0.066538997 0.69 -0.093154602 1.4100421e-38 265 317
-0.065329194 0.69 -0.093154602 1.4378788e-38 266 317
-0.063933544 0.68800002 -0.092884585 1.4563179e-38 267 317
-0.06272725 0.68800002 -0.092884585 1.4746482e-38 268 317
-0.061431535 0.68699998 -0.092749573 1.4930513e-38 269 317
-0.060226995 0.68699998 -0.092749573 1.456353e-38 270 317
-0.059022456 0.68699998 -0.092749573 1.456353e-38 271 317
-0.057817914 0.68699998 -0.092749573 1.4747914e-38 272 317
-0.056613375 0.68699998 -0.092749573 1.4840468e-38 273 317
-0.055408835 0.68699998 -0.092749573 1.4749353e-38 274 317
-0.054204296 0.68699998 -0.092749573 1.4749353e-38 275 317
-0.052999757 0.68699998 -0.092749573 1.5024508e-38 276 317
-0.051795214 0.68699998 -0.092749573 1.5024508e-38 277 317
-0.050590675 0.68699998 -0.092749573 1.520747e-38 278 317
-0.049386136 0.68699998 -0.092749573 1.4931243e-38 279 317
-0.048251733 0.68800002 -0.092884585 1.4655395e-38 280 317
-0.047045439 0.68800002 -0.092884585 1.4655395e-38 281 317
-0.07057517 0.69400001 -0.094911434 1.3272851e-38 262 318
-0.069358356 0.69400001 -0.094911434 1.308846e-38 263 318
-0.068043359 0.69300002 -0.094774678 1.3364658e-38 264 318
-0.066538997 0.69 -0.094364397 1.3272463e-38 265 318
-0.065329194 0.69 -0.094364397 1.336716e-38 266 318
-0.063933544 0.68800002 -0.094090879 1.3735584e-38 267 318
-0.062636077 0.68699998 -0.093954116 1.3919252e-38 268 318
-0.061431535 0.68699998 -0.093954116 1.4103643e-38 269 318
-0.060226995 0.68699998 -0.093954116 1.4103999e-38 270 318
-0.058936544 0.68599999 -0.093817353 1.4103999e-38 271 318
-0.057733759 0.68599999 -0.093817353 1.3921037e-38 272 318
-0.056530971 0.68599999 -0.093817353 1.4013233e-38 273 318
-0.055328183 0.68599999 -0.093817353 1.4105797e-38 274 318
-0.054125395 0.68599999 -0.093817353 1.4105797e-38 275 318
-0.052999757 0.68699998 -0.093954116 1.456497e-38 276 318
-0.051795214 0.68699998 -0.093954116 1.456497e-38 277 318
-0.050590675 0.68699998 -0.093954116 1.4839393e-38 278 318
-0.049386136 0.68699998 -0.093954116 1.4747198e-38 279 318
-0.048181597 0.68699998 -0.093954116 1.419621e-38 280 318
-0.046977058 0.68699998 -0.093954116 1.419621e-38 281 318
-0.069358356 0.69400001 -0.096128248 1.2904444e-38 263 319
-0.068043359 0.69300002 -0.095989741 1.317956e-38 264 319
-0.066538997 0.69 -0.095574193 1.3087364e-38 265 319
-0.065329194 0.69 -0.095574193 1.2630311e-38 266 319
-0.063933544 0.68800002 -0.095297173 1.3091289e-38 267 319
-0.062636077 0.68699998 -0.095158651 1.4009986e-38 268 319
-0.061431535 0.68699998 -0.095158651 1.4102181e-38 269 319
-0.060139328 0.68599999 -0.095020145 1.41029e-38 270 319
-0.058936544 0.68599999 -0.095020145 1.41029e-38 271 319
-0.057733759 0.68599999 -0.095020145 1.364444e-38 272 319
-0.056530971 0.68599999 -0.095020145 1.3736636e-38 273 319
-0.055328183 0.68599999 -0.095020145 1.4011428e-38 274 319
-0.054125395 0.68599999 -0.095020145 1.4011428e-38 275 319
-0.05292261 0.68599999 -0.095020145 1.3919951e-38 276 319
-0.051719822 0.68599999 -0.095020145 1.3643724e-38 277 319
-0.050590675 0.68699998 -0.095158651 1.3458977e-38 278 319
-0.049386136 0.68699998 -0.095158651 1.3735923e-38 279 319
-0.048181597 0.68699998 -0.095158651 1.4285889e-38 280 319
-0.046977058 0.68699998 -0.095158651 1.4378085e-38 281 319
-0.069258414 0.69300002 -0.097204804 1.2904444e-38 263 320
-0.068043359 0.69300002 -0.097204804 1.2903696e-38 264 320
-0.066538997 0.69 -0.096783996 1.28115e-38 265 320
-0.065329194 0.69 -0.096783996 1.2444866e-38 266 320
-0.063933544 0.68800002 -0.096503466 1.2537061e-38 267 320
-0.062636077 0.68699998 -0.096363194 1.2539197e-38 268 320
-0.061342116 0.68599999 -0.096222922 1.2539197e-38 269 320
-0.060139328 0.68599999 -0.096222922 1.3184188e-38 270 320
-0.058936544 0.68599999 -0.096222922 1.3276384e-38 271 320
-0.057565439 0.68400002 -0.0959424 1.309344e-38 272 320
-0.056366164 0.68400002 -0.0959424 1.3000886e-38 273 320
-0.055166878 0.68400002 -0.0959424 1.2724674e-38 274 320
-0.053967599 0.68400002 -0.0959424 1.2724674e-38 275 320
-0.05276832 0.68400002 -0.0959424 1.2632128e-38 276 320
-0.051719822 0.68599999 -0.096222922 1.2632128e-38 277 320
-0.050517038 0.68599999 -0.096222922 1.263176e-38 278 320
-0.049314249 0.68599999 -0.096222922 1.2539563e-38 279 320
-0.048181597 0.68699998 -0.096363194 1.309168e-38 280 320
-0.046977058 0.68699998 -0.096363194 1.3368268e-38 281 320
-0.067846984 0.69099998 -0.098135822 1.2812222e-38 264 321
-0.066538997 0.69 -0.097993799 1.2443441e-38 265 321
-0.065139838 0.68800002 -0.09770976 1.2352302e-38 266 321
-0.063933544 0.68800002 -0.09770976 1.2259746e-38 267 321
-0.062636077 0.68699998 -0.097567737 1.2351932e-38 268 321
-0.061342116 0.68599999 -0.097425714 1.2444127e-38 269 321
-0.060139328 0.68599999 -0.097425714 1.2812907e-38 270 321
-0.058764715 0.68400002 -0.097141676 1.3273885e-38 271 321
-0.057565439 0.68400002 -0.097141676 1.2632463e-38 272 321
-0.056366164 0.68400002 -0.097141676 1.2540266e-38 273 321
-0.055166878 0.68400002 -0.097141676 1.25399e-38 274 321
-0.053967599 0.68400002 -0.097141676 1.235515e-38 275 321
-0.05276832 0.68400002 -0.097141676 1.2262602e-38 276 321
-0.051569041 0.68400002 -0.097141676 1.2170406e-38 277 321
-0.050517038 0.68599999 -0.097425714 1.2720355e-38 278 321
-0.049314249 0.68599999 -0.097425714 1.2905105e-38 279 321
-0.048111461 0.68599999 -0.097425714 1.3089163e-38 280 321
-0.046977058 0.68699998 -0.097567737 1.3549781e-38 281 321
-0.066538997 0.69 -0.099203594 1.2260491e-38 265 322
-0.065045156 0.68699998 -0.098772272 1.2076801e-38 266 322
-0.06384062 0.68699998 -0.098772272 1.1800573e-38 267 322
-0.062544905 0.68599999 -0.098628499 1.1248841e-38 268 322
-0.061163284 0.68400002 -0.098340958 1.106481e-38 269 322
-0.059964001 0.68400002 -0.098340958 1.1524333e-38 270 322
-0.05867881 0.68300003 -0.098197185 1.1709083e-38 271 322
-0.057481278 0.68300003 -0.098197185 1.1802698e-38 272 322
-0.056283753 0.68300003 -0.098197185 1.1894894e-38 273 322
-0.055086225 0.68300003 -0.098197185 1.2169689e-38 274 322
-0.053888701 0.68300003 -0.098197185 1.1800547e-38 275 322
-0.052691177 0.68300003 -0.098197185 1.0788916e-38 276 322
-0.051493648 0.68300003 -0.098197185 1.0604525e-38 277 322
-0.050369758 0.68400002 -0.098340958 1.0787497e-38 278 322
-0.049170479 0.68400002 -0.098340958 1.1340671e-38 279 322
-0.048111461 0.68599999 -0.098628499 1.1712361e-38 280 322
-0.046977058 0.68699998 -0.098772272 1.217298e-38 281 322
-0.065045156 0.68699998 -0.099976815 1.1893494e-38 266 323
-0.06384062 0.68699998 -0.099976815 1.1432516e-38 267 323
-0.062544905 0.68599999 -0.099831291 1.1155925e-38 268 323
-0.061163284 0.68400002 -0.099540241 1.0787144e-38 269 323
-0.059964001 0.68400002 -0.099540241 1.041944e-38 270 323
-0.05867881 0.68300003 -0.099394716 1.0327243e-38 271 323
-0.057481278 0.68300003 -0.099394716 1.0327238e-38 272 323
-0.056283753 0.68300003 -0.099394716 1.0419793e-38 273 323
-0.055086225 0.68300003 -0.099394716 1.0970443e-38 274 323
-0.053888701 0.68300003 -0.099394716 1.0693855e-38 275 323
-0.052691177 0.68300003 -0.099394716 9.7726219e-39 276 323
-0.051493648 0.68300003 -0.099394716 9.2194481e-39 277 323
-0.05029612 0.68300003 -0.099394716 8.7592112e-39 278 323
-0.049098592 0.68300003 -0.099394716 9.2198306e-39 279 323
-0.0479712 0.68400002 -0.099540241 1.0330522e-38 280 323
-0.046771921 0.68400002 -0.099540241 1.1436511e-38 281 323
-0.065045156 0.68699998 -0.10118135 1.2535283e-38 266 324
-0.06384062 0.68699998 -0.10118135 1.1982468e-38 267 324
-0.062544905 0.68599999 -0.10103408 1.0787509e-38 268 324
-0.061163284 0.68400002 -0.10073952 1.032689e-38 269 324
-0.059876334 0.68300003 -0.10059224 9.9573957e-39 270 324
-0.058592889 0.68199998 -0.10044495 9.5889719e-39 271 324
-0.05739712 0.68199998 -0.10044495 9.5871712e-39 272 324
-0.056201346 0.68199998 -0.10044495 8.573378e-39 273 324
