# .PCD v.7 - Point Cloud Data file format
FIELDS x y z rgb imX imY
SIZE 4 4 4 4 4 4
TYPE F F F F F F
COUNT 1 1 1 1 1 1
WIDTH 831
HEIGHT 1
VIEWPOINT 0 0 0 1 0 0 0
POINTS 831
DATA ascii
0.063032329 0.71899998 -0.03403746 9.131333e-39 370 267
0.064292975 0.71899998 -0.03403746 1.1620615e-38 371 267
0.065553628 0.71899998 -0.03403746 1.6322605e-38 372 267
-0.1123536 0.72000003 -0.035347197 1.2631467e-38 231 268
-0.1110912 0.72000003 -0.035347197 1.2902601e-38 232 268
-0.10937118 0.71700001 -0.035199918 1.3271743e-38 233 268
-0.10796325 0.71600002 -0.035150826 1.3272443e-38 234 268
-0.1064098 0.71399999 -0.035052639 1.3272443e-38 235 268
-0.10501064 0.713 -0.035003547 1.3548657e-38 236 268
-0.10288735 0.70700002 -0.034708988 1.3640854e-38 237 268
-0.10164775 0.70700002 -0.034708988 1.3825239e-38 238 268
-0.10026611 0.70599997 -0.034659892 1.3641206e-38 239 268
-0.09874773 0.704 -0.034561705 1.3827034e-38 240 268
-0.097374871 0.70300001 -0.034512613 1.4288012e-38 241 268
-0.096142277 0.70300001 -0.034512613 1.5116331e-38 242 268
-0.094639666 0.70099998 -0.034414422 1.57617e-38 243 268
-0.093277335 0.69999999 -0.034365334 1.658894e-38 244 268
-0.091787003 0.69800001 -0.034267146 1.6773691e-38 245 268
-0.090433426 0.69700003 -0.034218054 1.7142114e-38 246 268
-0.089083351 0.69599998 -0.034168959 1.7142114e-38 247 268
-0.087610558 0.69400001 -0.034070771 1.7051e-38 248 268
-0.086393744 0.69400001 -0.034070771 1.7235031e-38 249 268
-0.085176937 0.69400001 -0.034070771 1.75109e-38 250 268
-0.083960123 0.69400001 -0.034070771 1.7787486e-38 251 268
-0.082624078 0.69300002 -0.034021679 1.8062996e-38 252 268
-0.081174068 0.69099998 -0.033923492 1.8062996e-38 253 268
-0.079846799 0.69 -0.0338744 1.8246666e-38 254 268
-0.078636996 0.69 -0.0338744 1.8246666e-38 255 268
-0.077427194 0.69 -0.0338744 1.8247386e-38 256 268
-0.075996481 0.68800002 -0.033776212 1.8247386e-38 257 268
-0.074790187 0.68800002 -0.033776212 1.815627e-38 258 268
-0.073583893 0.68800002 -0.033776212 1.834066e-38 259 268
-0.07227239 0.68699998 -0.033727121 1.8432852e-38 260 268
-0.071067855 0.68699998 -0.033727121 1.8617244e-38 261 268
-0.069761619 0.68599999 -0.033678025 1.8433931e-38 262 268
-0.068558842 0.68599999 -0.033678025 1.8617962e-38 263 268
-0.06735605 0.68599999 -0.033678025 1.8709795e-38 264 268
-0.066153266 0.68599999 -0.033678025 1.8709795e-38 265 268
-0.064761117 0.68400002 -0.033579841 1.8802343e-38 266 268
-0.063561834 0.68400002 -0.033579841 1.8710146e-38 267 268
-0.062362559 0.68400002 -0.033579841 1.8893095e-38 268 268
-0.061073858 0.68300003 -0.033530746 1.8893095e-38 269 268
-0.059876334 0.68300003 -0.033530746 1.9076054e-38 270 268
-0.05867881 0.68300003 -0.033530746 1.9076054e-38 271 268
-0.05739712 0.68199998 -0.03348165 1.8892391e-38 272 268
-0.056201346 0.68199998 -0.03348165 1.8800196e-38 273 268
-0.054844268 0.68000001 -0.033383466 1.8708363e-38 274 268
-0.053652 0.68000001 -0.033383466 1.8432136e-38 275 268
-0.052382588 0.67900002 -0.033334374 1.8523606e-38 276 268
-0.051116679 0.67799997 -0.033285279 1.8339215e-38 277 268
-0.049780637 0.676 -0.033187091 1.7879331e-38 278 268
-0.048523501 0.67500001 -0.033137999 1.8063724e-38 279 268
-0.047339998 0.67500001 -0.033137999 1.7973004e-38 280 268
-0.046088122 0.67400002 -0.033088908 1.8157755e-38 281 268
-0.044906374 0.67400002 -0.033088908 1.8157793e-38 282 268
0.055314157 0.71700001 -0.035199918 1.2903012e-38 364 268
0.056571297 0.71700001 -0.035199918 9.6761649e-39 365 268
0.057828441 0.71700001 -0.035199918 6.1752673e-39 366 268
0.059085581 0.71700001 -0.035199918 5.6224537e-39 367 268
0.060342718 0.71700001 -0.035199918 5.6239166e-39 368 268
0.061599858 0.71700001 -0.035199918 6.7299054e-39 369 268
0.062856995 0.71700001 -0.035199918 6.8300394e-39 370 268
0.064114138 0.71700001 -0.035199918 9.13457e-39 371 268
0.065371275 0.71700001 -0.035199918 1.5492128e-38 372 268
-0.1110912 0.72000003 -0.036609601 1.2996598e-38 232 269
-0.10921864 0.71600002 -0.036406212 1.3088795e-38 233 269
-0.10766167 0.71399999 -0.036304519 1.3271008e-38 234 269
-0.10581366 0.70999998 -0.036101133 1.3363563e-38 235 269
-0.10456879 0.70999998 -0.036101133 1.3639777e-38 236 269
-0.10288735 0.70700002 -0.035948593 1.3731972e-38 237 269
-0.10150397 0.70599997 -0.035897743 1.364085e-38 238 269
-0.099982075 0.704 -0.035796054 1.3825241e-38 239 269
-0.09874773 0.704 -0.035796054 1.3457528e-38 240 269
-0.097374871 0.70300001 -0.035745207 1.3549724e-38 241 269
-0.096142277 0.70300001 -0.035745207 1.4102535e-38 242 269
-0.094504662 0.69999999 -0.035592664 1.48401e-38 243 269
-0.093010828 0.69800001 -0.035490975 1.5759905e-38 244 269
-0.0916555 0.69700003 -0.035440128 1.6220883e-38 245 269
-0.090303674 0.69599998 -0.035389278 1.6773688e-38 246 269
-0.088827372 0.69400001 -0.035287585 1.6773688e-38 247 269
-0.087610558 0.69400001 -0.035287585 1.7050624e-38 248 269
-0.086269259 0.69300002 -0.035236739 1.7235015e-38 249 269
-0.085054204 0.69300002 -0.035236739 1.7419409e-38 250 269
-0.083839141 0.69300002 -0.035236739 1.7511607e-38 251 269
-0.082385622 0.69099998 -0.035135046 1.7694568e-38 252 269
-0.081174068 0.69099998 -0.035135046 1.787896e-38 253 269
-0.079846799 0.69 -0.035084199 1.8062994e-38 254 269
-0.078636996 0.69 -0.035084199 1.8062994e-38 255 269
-0.077202775 0.68800002 -0.03498251 1.8062991e-38 256 269
-0.075996481 0.68800002 -0.03498251 1.8155545e-38 257 269
-0.074681476 0.68699998 -0.034931656 1.8064423e-38 258 269
-0.073369987 0.68599999 -0.034880809 1.8156979e-38 259 269
-0.072167195 0.68599999 -0.034880809 1.8156976e-38 260 269
-0.070964411 0.68599999 -0.034880809 1.8433203e-38 261 269
-0.06955824 0.68400002 -0.03477912 1.8341733e-38 262 269
-0.068358958 0.68400002 -0.03477912 1.8434287e-38 263 269
-0.067159683 0.68400002 -0.03477912 1.8617246e-38 264 269
-0.065863967 0.68300003 -0.034728274 1.8709443e-38 265 269
-0.064666435 0.68300003 -0.034728274 1.8709443e-38 266 269
-0.063468911 0.68300003 -0.034728274 1.8801639e-38 267 269
-0.06227139 0.68300003 -0.034728274 1.8709443e-38 268 269
-0.061073858 0.68300003 -0.034728274 1.8709443e-38 269 269
-0.059788663 0.68199998 -0.034677424 1.8709798e-38 270 269
-0.058592889 0.68199998 -0.034677424 1.8709798e-38 271 269
-0.057228796 0.68000001 -0.034575731 1.8800915e-38 272 269
-0.056036532 0.68000001 -0.034575731 1.8800915e-38 273 269
-0.054844268 0.68000001 -0.034575731 1.8617249e-38 274 269
-0.053573098 0.67900002 -0.034524884 1.8709446e-38 275 269
-0.052305438 0.67799997 -0.034474038 1.8525054e-38 276 269
-0.051116679 0.67799997 -0.034474038 1.8525054e-38 277 269
-0.049780637 0.676 -0.034372345 1.8341388e-38 278 269
-0.048523501 0.67500001 -0.034321502 1.8433584e-38 279 269
-0.047339998 0.67500001 -0.034321502 1.8433234e-38 280 269
-0.046088122 0.67400002 -0.034270655 1.8340679e-38 281 269
-0.044906374 0.67400002 -0.034270655 1.8155935e-38 282 269
-0.043594878 0.67199999 -0.034168959 1.8063739e-38 283 269
-0.042416636 0.67199999 -0.034168959 1.7787528e-38 284 269
0.054057021 0.71700001 -0.036457058 1.2164724e-38 363 269
0.055314157 0.71700001 -0.036457058 1.1888455e-38 364 269
0.056492399 0.71600002 -0.036406212 8.3846624e-39 365 269
0.057747785 0.71600002 -0.036406212 4.8884591e-39 366 269
0.059085581 0.71700001 -0.036457058 5.257243e-39 367 269
0.060342718 0.71700001 -0.036457058 6.1727688e-39 368 269
0.061599858 0.71700001 -0.036457058 6.35716e-39 369 269
0.062856995 0.71700001 -0.036457058 5.7218898e-39 370 269
0.064114138 0.71700001 -0.036457058 7.1048256e-39 371 269
0.065371275 0.71700001 -0.036457058 1.337307e-38 372 269
-0.11047403 0.71600002 -0.037661601 1.3273554e-38 232 270
-0.10921864 0.71600002 -0.037661601 1.2996968e-38 233 270
-0.10751089 0.713 -0.037503798 1.336321e-38 234 270
-0.10581366 0.70999998 -0.037345998 1.336321e-38 235 270
-0.10456879 0.70999998 -0.037345998 1.3363557e-38 236 270
-0.10288735 0.70700002 -0.037188202 1.3456111e-38 237 270
-0.10150397 0.70599997 -0.037135597 1.3548657e-38 238 270
-0.099982075 0.704 -0.037030395 1.3640854e-38 239 270
-0.09874773 0.704 -0.037030395 1.3825236e-38 240 270
-0.097374871 0.70300001 -0.036977798 1.3549008e-38 241 270
-0.096142277 0.70300001 -0.036977798 1.3641556e-38 242 270
-0.094504662 0.69999999 -0.036819998 1.400998e-38 243 270
-0.093010828 0.69800001 -0.0367148 1.4654636e-38 244 270
-0.09152399 0.69599998 -0.036609598 1.5576233e-38 245 270
-0.090303674 0.69599998 -0.036609598 1.5761344e-38 246 270
-0.088827372 0.69400001 -0.036504399 1.5946094e-38 247 270
-0.087484315 0.69300002 -0.036451802 1.6590015e-38 248 270
-0.086269259 0.69300002 -0.036451802 1.6774407e-38 249 270
-0.085054204 0.69300002 -0.036451802 1.7142467e-38 250 270
-0.083597176 0.69099998 -0.036346599 1.7234662e-38 251 270
-0.082385622 0.69099998 -0.036346599 1.7510176e-38 252 270
-0.081056595 0.69 -0.036293998 1.7602373e-38 253 270
-0.079615362 0.68800002 -0.0361888 1.7694568e-38 254 270
-0.078295097 0.68699998 -0.036136195 1.7786764e-38 255 270
-0.077090554 0.68699998 -0.036136195 1.778712e-38 256 270
-0.075886011 0.68699998 -0.036136195 1.7879316e-38 257 270
-0.074572764 0.68599999 -0.036083598 1.7880032e-38 258 270
-0.073156074 0.68400002 -0.035978399 1.7972227e-38 259 270
-0.071851604 0.68300003 -0.035925802 1.8064423e-38 260 270
-0.070654072 0.68300003 -0.035925802 1.8064423e-38 261 270
-0.069456547 0.68300003 -0.035925802 1.8340654e-38 262 270
-0.068259016 0.68300003 -0.035925802 1.8433208e-38 263 270
-0.067061491 0.68300003 -0.035925802 1.8525051e-38 264 270
-0.065767527 0.68199998 -0.035873197 1.8525051e-38 265 270
-0.064571753 0.68199998 -0.035873197 1.8708366e-38 266 270
-0.063375987 0.68199998 -0.035873197 1.8800561e-38 267 270
-0.062180214 0.68199998 -0.035873197 1.8800559e-38 268 270
-0.0608056 0.68000001 -0.035767999 1.8800559e-38 269 270
-0.059525665 0.67900002 -0.035715401 1.86176e-38 270 270
-0.058335152 0.67900002 -0.035715401 1.86176e-38 271 270
-0.057144642 0.67900002 -0.035715401 1.8617244e-38 272 270
-0.055954125 0.67900002 -0.035715401 1.8617244e-38 273 270
-0.054763615 0.67900002 -0.035715401 1.8617249e-38 274 270
-0.053494196 0.67799997 -0.0356628 1.8525054e-38 275 270
-0.052305438 0.67799997 -0.0356628 1.8707294e-38 276 270
-0.050965894 0.676 -0.035557602 1.8707294e-38 277 270
-0.049780637 0.676 -0.035557602 1.85247e-38 278 270
-0.048523501 0.67500001 -0.035505001 1.8616896e-38 279 270
-0.047339998 0.67500001 -0.035505001 1.8433578e-38 280 270
-0.046088122 0.67400002 -0.035452399 1.8433578e-38 281 270
-0.044906374 0.67400002 -0.035452399 1.8433208e-38 282 270
-0.043594878 0.67199999 -0.035347197 1.8340654e-38 283 270
-0.042353518 0.671 -0.0352946 1.8156626e-38 284 270
-0.041177034 0.671 -0.0352946 1.8156626e-38 285 270
0.054057021 0.71700001 -0.037714198 1.2900478e-38 363 270
0.055237014 0.71600002 -0.037661601 1.2900452e-38 364 270
0.056492399 0.71600002 -0.037661601 1.1609713e-38 365 270
0.057747785 0.71600002 -0.037661601 9.218058e-39 366 270
0.059003171 0.71600002 -0.037661601 9.4950036e-39 367 270
0.06025856 0.71600002 -0.037661601 9.4932408e-39 368 270
0.061599858 0.71700001 -0.037714198 9.4932408e-39 369 270
0.062856995 0.71700001 -0.037714198 8.5723817e-39 370 270
0.064114138 0.71700001 -0.037714198 6.9125016e-39 371 270
0.065371275 0.71700001 -0.037714198 8.2169395e-39 372 270
-0.10845594 0.71100003 -0.038645219 1.2630003e-38 233 271
-0.10720932 0.71100003 -0.038645219 1.327174e-38 234 271
-0.10581366 0.70999998 -0.038590867 1.3179544e-38 235 271
-0.10456879 0.70999998 -0.038590867 1.3271011e-38 236 271
-0.10288735 0.70700002 -0.038427804 1.3455402e-38 237 271
-0.10164775 0.70700002 -0.038427804 1.3456111e-38 238 271
-0.10026611 0.70599997 -0.038373452 1.3548307e-38 239 271
-0.09874773 0.704 -0.038264744 1.3548301e-38 240 271
-0.097374871 0.70300001 -0.038210396 1.3548301e-38 241 271
-0.095868751 0.70099998 -0.038101684 1.3549025e-38 242 271
-0.094504662 0.69999999 -0.038047329 1.3549025e-38 243 271
-0.093010828 0.69800001 -0.037938625 1.382597e-38 244 271
-0.09152399 0.69599998 -0.037829921 1.447134e-38 245 271
-0.090303674 0.69599998 -0.037829921 1.4932312e-38 246 271
-0.088827372 0.69400001 -0.037721213 1.5208899e-38 247 271
-0.087231837 0.69099998 -0.03755815 1.5946094e-38 248 271
-0.085895799 0.69 -0.037503798 1.6222681e-38 249 271
-0.084440529 0.68800002 -0.037395094 1.6773688e-38 250 271
-0.083234236 0.68800002 -0.037395094 1.7049915e-38 251 271
-0.082266398 0.69 -0.037503798 1.7234299e-38 252 271
-0.081056595 0.69 -0.037503798 1.741833e-38 253 271
-0.079615362 0.68800002 -0.037395094 1.7234665e-38 254 271
-0.078295097 0.68699998 -0.037340738 1.7419058e-38 255 271
-0.077090554 0.68699998 -0.037340738 1.7327231e-38 256 271
-0.075886011 0.68699998 -0.037340738 1.7419426e-38 257 271
-0.074572764 0.68599999 -0.037286382 1.7695285e-38 258 271
-0.073049128 0.68300003 -0.037123326 1.7695285e-38 259 271
-0.071851604 0.68300003 -0.037123326 1.7787839e-38 260 271
-0.070654072 0.68300003 -0.037123326 1.7880035e-38 261 271
-0.069354847 0.68199998 -0.037068974 1.7788932e-38 262 271
-0.068159081 0.68199998 -0.037068974 1.7881128e-38 263 271
-0.0669633 0.68199998 -0.037068974 1.8340306e-38 264 271
-0.065574668 0.68000001 -0.036960267 1.8340306e-38 265 271
-0.064382397 0.68000001 -0.036960267 1.8432136e-38 266 271
-0.063097201 0.67900002 -0.036905911 1.8524332e-38 267 271
-0.061906695 0.67900002 -0.036905911 1.8432499e-38 268 271
-0.060626756 0.67799997 -0.036851559 1.8432499e-38 269 271
-0.059437994 0.67799997 -0.036851559 1.8433578e-38 270 271
-0.058077414 0.676 -0.036742851 1.8433578e-38 271 271
-0.056892153 0.676 -0.036742851 1.8433934e-38 272 271
-0.055706903 0.676 -0.036742851 1.8341739e-38 273 271
-0.054521654 0.676 -0.036742851 1.8523982e-38 274 271
-0.053336397 0.676 -0.036742851 1.8431786e-38 275 271
-0.052151144 0.676 -0.036742851 1.8338165e-38 276 271
-0.050890498 0.67500001 -0.036688499 1.8522196e-38 277 271
-0.049706999 0.67500001 -0.036688499 1.8523275e-38 278 271
-0.048523501 0.67500001 -0.036688499 1.8707306e-38 279 271
-0.047339998 0.67500001 -0.036688499 1.8709093e-38 280 271
-0.046088122 0.67400002 -0.036634147 1.8801289e-38 281 271
-0.044906374 0.67400002 -0.036634147 1.8801992e-38 282 271
-0.043594878 0.67199999 -0.036525436 1.8801992e-38 283 271
-0.042353518 0.671 -0.036471087 1.8986379e-38 284 271
-0.041177034 0.671 -0.036471087 1.8802348e-38 285 271
-0.040000543 0.671 -0.036471087 1.8985307e-38 286 271
-0.038824059 0.671 -0.036471087 1.8985307e-38 287 271
-0.037647571 0.671 -0.036471087 1.8892756e-38 288 271
-0.036471087 0.671 -0.036471087 1.8892756e-38 289 271
-0.035241999 0.67000002 -0.036416732 1.8708363e-38 290 271
-0.034067266 0.67000002 -0.036416732 1.8708363e-38 291 271
-0.032941625 0.671 -0.036471087 1.8432502e-38 292 271
-0.0317178 0.67000002 -0.036416732 1.8156275e-38 293 271
-0.030543067 0.67000002 -0.036416732 1.7788231e-38 294 271
-0.029236831 0.667 -0.036253672 1.7696034e-38 295 271
-0.028067358 0.667 -0.036253672 1.7787162e-38 296 271
-0.026897885 0.667 -0.036253672 1.7971193e-38 297 271
0.0081494926 0.66399997 -0.036090612 1.8068879e-38 327 271
0.0093137063 0.66399997 -0.036090612 1.7976681e-38 328 271
0.01046214 0.66299999 -0.036036257 1.7700094e-38 329 271
0.011589534 0.66100001 -0.035927553 1.7791564e-38 330 271
0.012748486 0.66100001 -0.035927553 1.7883759e-38 331 271
0.013970559 0.66399997 -0.036090612 1.7883749e-38 332 271
0.015134773 0.66399997 -0.036090612 1.7791195e-38 333 271
0.016225345 0.66100001 -0.035927553 1.7699708e-38 334 271
0.0173843 0.66100001 -0.035927553 1.7607153e-38 335 271
0.052726239 0.71600002 -0.038916986 1.3455094e-38 362 271
0.053981625 0.71600002 -0.038916986 1.3455094e-38 363 271
0.055237014 0.71600002 -0.038916986 1.3546564e-38 364 271
0.056492399 0.71600002 -0.038916986 1.299339e-38 365 271
0.057747785 0.71600002 -0.038916986 1.207686e-38 366 271
0.059003171 0.71600002 -0.038916986 1.2169057e-38 367 271
0.06025856 0.71600002 -0.038916986 1.1710235e-38 368 271
0.061599858 0.71700001 -0.038971342 1.1157063e-38 369 271
0.062856995 0.71700001 -0.038971342 1.0137882e-38 370 271
0.064114138 0.71700001 -0.038971342 7.0957845e-39 371 271
-0.10845594 0.71100003 -0.039891839 1.2170839e-38 233 272
-0.10720932 0.71100003 -0.039891839 1.3272107e-38 234 272
-0.10581366 0.70999998 -0.039835732 1.317991e-38 235 272
-0.10427424 0.708 -0.039723519 1.3271014e-38 236 272
-0.10303288 0.708 -0.039723519 1.3271014e-38 237 272
-0.10164775 0.70700002 -0.039667413 1.3362838e-38 238 272
-0.10026611 0.70599997 -0.039611302 1.3455393e-38 239 272
-0.09874773 0.704 -0.039499093 1.3455387e-38 240 272
-0.097374871 0.70300001 -0.039442986 1.3639777e-38 241 272
-0.095868751 0.70099998 -0.039330769 1.3548655e-38 242 272
-0.094504662 0.69999999 -0.039274666 1.364085e-38 243 272
-0.093010828 0.69800001 -0.039162453 1.3916718e-38 244 272
-0.09152399 0.69599998 -0.039050236 1.4008914e-38 245 272
-0.090303674 0.69599998 -0.039050236 1.419438e-38 246 272
-0.088699378 0.69300002 -0.03888192 1.4286576e-38 247 272
-0.087231837 0.69099998 -0.038769703 1.4564589e-38 248 272
-0.085895799 0.69 -0.038713597 1.5209958e-38 249 272
-0.084440529 0.68800002 -0.038601387 1.6036839e-38 250 272
-0.083234236 0.68800002 -0.038601387 1.6313785e-38 251 272
-0.081908718 0.68699998 -0.038545277 1.6590365e-38 252 272
-0.080704175 0.68699998 -0.038545277 1.6682561e-38 253 272
-0.079615362 0.68800002 -0.038601387 1.686659e-38 254 272
-0.078295097 0.68699998 -0.038545277 1.7142817e-38 255 272
-0.077090554 0.68699998 -0.038545277 1.7233943e-38 256 272
-0.075775556 0.68599999 -0.03848917 1.7417975e-38 257 272
-0.074572764 0.68599999 -0.03848917 1.741833e-38 258 272
-0.073049128 0.68300003 -0.038320854 1.7234299e-38 259 272
-0.071851604 0.68300003 -0.038320854 1.7602722e-38 260 272
-0.070654072 0.68300003 -0.038320854 1.7602722e-38 261 272
-0.069354847 0.68199998 -0.038264744 1.7786764e-38 262 272
-0.068159081 0.68199998 -0.038264744 1.8062991e-38 263 272
-0.0669633 0.68199998 -0.038264744 1.7878963e-38 264 272
-0.065574668 0.68000001 -0.038152531 1.8062994e-38 265 272
-0.064287722 0.67900002 -0.038096428 1.7788562e-38 266 272
-0.063097201 0.67900002 -0.038096428 1.7972594e-38 267 272
-0.061815511 0.67799997 -0.038040318 1.8339935e-38 268 272
-0.060626756 0.67799997 -0.038040318 1.8432489e-38 269 272
-0.059437994 0.67799997 -0.038040318 1.8432852e-38 270 272
-0.058077414 0.676 -0.037928104 1.8432852e-38 271 272
-0.056892153 0.676 -0.037928104 1.8432852e-38 272 272
-0.0556245 0.67500001 -0.037871998 1.8340657e-38 273 272
-0.054441001 0.67500001 -0.037871998 1.8432136e-38 274 272
-0.053257499 0.67500001 -0.037871998 1.8339941e-38 275 272
-0.052074 0.67500001 -0.037871998 1.8339234e-38 276 272
-0.050890498 0.67500001 -0.037871998 1.8339234e-38 277 272
-0.049633358 0.67400002 -0.037815895 1.8614748e-38 278 272
-0.048451614 0.67400002 -0.037815895 1.8891335e-38 279 272
-0.047269866 0.67400002 -0.037815895 1.8800211e-38 280 272
-0.046088122 0.67400002 -0.037815895 1.8984604e-38 281 272
-0.044906374 0.67400002 -0.037815895 1.8985673e-38 282 272
-0.043530006 0.671 -0.037647571 1.9170064e-38 283 272
-0.042290401 0.67000002 -0.037591465 1.9170064e-38 284 272
-0.041115668 0.67000002 -0.037591465 1.9077869e-38 285 272
-0.039940935 0.67000002 -0.037591465 1.9170067e-38 286 272
-0.038766202 0.67000002 -0.037591465 1.9077871e-38 287 272
-0.037647571 0.671 -0.037647571 1.9078225e-38 288 272
-0.036416732 0.67000002 -0.037591465 1.9078225e-38 289 272
-0.035241999 0.67000002 -0.037591465 1.8986379e-38 290 272
-0.034067266 0.67000002 -0.037591465 1.8986379e-38 291 272
-0.032892533 0.67000002 -0.037591465 1.9078225e-38 292 272
-0.0317178 0.67000002 -0.037591465 1.8986029e-38 293 272
-0.030543067 0.67000002 -0.037591465 1.8526144e-38 294 272
-0.029236831 0.667 -0.037423145 1.8433948e-38 295 272
-0.028067358 0.667 -0.037423145 1.8801292e-38 296 272
-0.026897885 0.667 -0.037423145 1.8801292e-38 297 272
-0.025766984 0.66799998 -0.037479252 1.8433584e-38 298 272
-0.02459576 0.66799998 -0.037479252 1.8433584e-38 299 272
-0.023389466 0.667 -0.037423145 1.8341751e-38 300 272
-0.022219993 0.667 -0.037423145 1.8433948e-38 301 272
-0.01284492 0.66600001 -0.037367038 1.8524405e-38 309 272
-0.011677199 0.66600001 -0.037367038 1.8248894e-38 310 272
-0.01050948 0.66600001 -0.037367038 1.8156698e-38 311 272
-0.0093417596 0.66600001 -0.037367038 1.8156696e-38 312 272
-0.0081740404 0.66600001 -0.037367038 1.8156696e-38 313 272
-0.0070063197 0.66600001 -0.037367038 1.8156345e-38 314 272
0.0023424532 0.66799998 -0.037479252 1.8249993e-38 322 272
0.0034926396 0.66399997 -0.037254825 1.8157796e-38 323 272
0.0046568532 0.66399997 -0.037254825 1.8157796e-38 324 272
0.0058210664 0.66399997 -0.037254825 1.8065241e-38 325 272
0.0069852793 0.66399997 -0.037254825 1.8065597e-38 326 272
0.0081494926 0.66399997 -0.037254825 1.8065597e-38 327 272
0.0093137063 0.66399997 -0.037254825 1.8341461e-38 328 272
0.01046214 0.66299999 -0.037198719 1.8341461e-38 329 272
0.0116246 0.66299999 -0.037198719 1.8341461e-38 330 272
0.012787059 0.66299999 -0.037198719 1.8433658e-38 331 272
0.013970559 0.66399997 -0.037254825 1.8158143e-38 332 272
0.015134773 0.66399997 -0.037254825 1.8158143e-38 333 272
0.016225345 0.66100001 -0.037086505 1.8066298e-38 334 272
0.0173843 0.66100001 -0.037086505 1.8158494e-38 335 272
0.018543253 0.66100001 -0.037086505 1.8342165e-38 336 272
0.019970467 0.67000002 -0.037591465 1.8342165e-38 337 272
0.0211452 0.67000002 -0.037591465 1.8341446e-38 338 272
0.024706218 0.671 -0.037647571 1.8249966e-38 341 272
0.025882706 0.671 -0.037647571 1.8066298e-38 342 272
0.027059194 0.671 -0.037647571 1.7974102e-38 343 272
0.028235679 0.671 -0.037647571 1.7973749e-38 344 272
0.029368332 0.67000002 -0.037591465 1.7973749e-38 345 272
0.030543067 0.67000002 -0.037591465 1.7605327e-38 346 272
0.031765141 0.671 -0.037647571 1.7605327e-38 347 272
0.032892533 0.67000002 -0.037591465 1.7604974e-38 348 272
0.034067266 0.67000002 -0.037591465 1.7604974e-38 349 272
0.041974798 0.68400002 -0.038376961 1.6869965e-38 355 272
0.043174081 0.68400002 -0.038376961 1.6781387e-38 356 272
0.044503104 0.68599999 -0.03848917 1.7334561e-38 357 272
0.045705888 0.68599999 -0.03848917 1.8253286e-38 358 272
0.051470853 0.71600002 -0.040172372 1.3828586e-38 361 272
0.052726239 0.71600002 -0.040172372 1.3549808e-38 362 272
0.053981625 0.71600002 -0.040172372 1.3734198e-38 363 272
0.055237014 0.71600002 -0.040172372 1.3733123e-38 364 272
0.056492399 0.71600002 -0.040172372 1.2257993e-38 365 272
0.057747785 0.71600002 -0.040172372 1.0880121e-38 366 272
0.059003171 0.71600002 -0.040172372 1.1525491e-38 367 272
-0.10705853 0.70999998 -0.041080594 1.2997318e-38 234 273
-0.10581366 0.70999998 -0.041080594 1.2812925e-38 235 273
-0.10427424 0.708 -0.040964879 1.3087343e-38 236 273
-0.10288735 0.70700002 -0.040907022 1.3087343e-38 237 273
-0.10150397 0.70599997 -0.040849157 1.3087343e-38 238 273
-0.10026611 0.70599997 -0.040849157 1.3087343e-38 239 273
-0.098607466 0.70300001 -0.040675577 1.3179894e-38 240 273
-0.097374871 0.70300001 -0.040675577 1.327209e-38 241 273
-0.095868751 0.70099998 -0.040559858 1.327244e-38 242 273
-0.094504662 0.69999999 -0.040502001 1.345683e-38 243 273
-0.093010828 0.69800001 -0.040386278 1.3365359e-38 244 273
-0.09152399 0.69599998 -0.040270556 1.3457555e-38 245 273
-0.090303674 0.69599998 -0.040270556 1.3732323e-38 246 273
-0.088699378 0.69300002 -0.04009698 1.3732323e-38 247 273
-0.087231837 0.69099998 -0.039981257 1.3735176e-38 248 273
-0.085895799 0.69 -0.0399234 1.4380545e-38 249 273
-0.084440529 0.68800002 -0.039807681 1.5208511e-38 250 273
-0.083234236 0.68800002 -0.039807681 1.5669488e-38 251 273
-0.081908718 0.68699998 -0.039749816 1.6037188e-38 252 273
-0.080704175 0.68699998 -0.039749816 1.622194e-38 253 273
-0.079499632 0.68699998 -0.039749816 1.6497448e-38 254 273
-0.078295097 0.68699998 -0.039749816 1.6774393e-38 255 273
-0.076978341 0.68599999 -0.039691959 1.63156e-38 256 273
-0.075554639 0.68400002 -0.03957624 1.63156e-38 257 273
-0.074246652 0.68300003 -0.039518382 1.6591464e-38 258 273
-0.073049128 0.68300003 -0.039518382 1.6498909e-38 259 273
-0.071851604 0.68300003 -0.039518382 1.6958804e-38 260 273
-0.070550621 0.68199998 -0.039460517 1.7051e-38 261 273
-0.069354847 0.68199998 -0.039460517 1.7142859e-38 262 273
-0.067959204 0.68000001 -0.039344799 1.732725e-38 263 273
-0.066766933 0.68000001 -0.039344799 1.7510568e-38 264 273
-0.065478235 0.67900002 -0.039286941 1.7602764e-38 265 273
-0.06419304 0.67799997 -0.039229076 1.7511284e-38 266 273
-0.063004278 0.67799997 -0.039229076 1.7696034e-38 267 273
-0.061633173 0.676 -0.039113361 1.7696029e-38 268 273
-0.06044792 0.676 -0.039113361 1.7788584e-38 269 273
-0.059262663 0.676 -0.039113361 1.7972973e-38 270 273
-0.057991501 0.67500001 -0.039055496 1.7972973e-38 271 273
-0.056723841 0.67400002 -0.038997639 1.7973326e-38 272 273
-0.055542093 0.67400002 -0.038997639 1.788113e-38 273 273
-0.054360349 0.67400002 -0.038997639 1.8064796e-38 274 273
-0.053178601 0.67400002 -0.038997639 1.8064796e-38 275 273
-0.051996857 0.67400002 -0.038997639 1.8155919e-38 276 273
-0.050815105 0.67400002 -0.038997639 1.833995e-38 277 273
-0.049633358 0.67400002 -0.038997639 1.8248484e-38 278 273
-0.048451614 0.67400002 -0.038997639 1.8433234e-38 279 273
-0.047129598 0.67199999 -0.03888192 1.8432878e-38 280 273
-0.045951359 0.67199999 -0.03888192 1.8709106e-38 281 273
-0.044706494 0.671 -0.038824059 1.8618345e-38 282 273
-0.043465134 0.67000002 -0.038766202 1.8618345e-38 283 273
-0.042164158 0.66799998 -0.038650475 1.8801654e-38 284 273
-0.040992931 0.66799998 -0.038650475 1.8894209e-38 285 273
-0.039821707 0.66799998 -0.038650475 1.9170067e-38 286 273
-0.038650475 0.66799998 -0.038650475 1.9170067e-38 287 273
-0.037479252 0.66799998 -0.038650475 1.9078219e-38 288 273
-0.036308024 0.66799998 -0.038650475 1.9078219e-38 289 273
-0.035136797 0.66799998 -0.038650475 1.9078928e-38 290 273
-0.033965573 0.66799998 -0.038650475 1.8986732e-38 291 273
-0.032794341 0.66799998 -0.038650475 1.8895257e-38 292 273
-0.0317178 0.67000002 -0.038766202 1.8803061e-38 293 273
-0.030543067 0.67000002 -0.038766202 1.8895263e-38 294 273
-0.029280664 0.66799998 -0.038650475 1.8803067e-38 295 273
-0.028067358 0.667 -0.038592618 1.9078219e-38 296 273
-0.026897885 0.667 -0.038592618 1.8986023e-38 297 273
-0.025728412 0.667 -0.038592618 1.8801992e-38 298 273
-0.024558939 0.667 -0.038592618 1.8986023e-38 299 273
-0.023389466 0.667 -0.038592618 1.8801639e-38 300 273
-0.022219993 0.667 -0.038592618 1.8986029e-38 301 273
-0.021050518 0.667 -0.038592618 1.8802008e-38 302 273
-0.013970559 0.66399997 -0.038419038 1.8341398e-38 308 273
-0.012806346 0.66399997 -0.038419038 1.8249202e-38 309 273
-0.011642133 0.66399997 -0.038419038 1.8341385e-38 310 273
-0.010477919 0.66399997 -0.038419038 1.8341385e-38 311 273
-0.0093137063 0.66399997 -0.038419038 1.8341385e-38 312 273
-0.0081494926 0.66399997 -0.038419038 1.8433581e-38 313 273
-0.0069852793 0.66399997 -0.038419038 1.8157357e-38 314 273
-0.0058210664 0.66399997 -0.038419038 1.8249553e-38 315 273
-0.0046708798 0.66600001 -0.03853476 1.8341388e-38 316 273
-0.0035031599 0.66600001 -0.03853476 1.8341388e-38 317 273
-0.0023354399 0.66600001 -0.03853476 1.8249558e-38 318 273
-0.0011694733 0.667 -0.038592618 1.8157004e-38 319 273
0.0011694733 0.667 -0.038592618 1.8065893e-38 321 273
0.0023354399 0.66600001 -0.03853476 1.8250288e-38 322 273
0.0034926396 0.66399997 -0.038419038 1.8250288e-38 323 273
0.0046568532 0.66399997 -0.038419038 1.8249932e-38 324 273
0.0058210664 0.66399997 -0.038419038 1.8249932e-38 325 273
0.0069852793 0.66399997 -0.038419038 1.8434317e-38 326 273
0.0081494926 0.66399997 -0.038419038 1.8250286e-38 327 273
0.0093137063 0.66399997 -0.038419038 1.8433951e-38 328 273
0.01046214 0.66299999 -0.038361177 1.8526147e-38 329 273
0.0116246 0.66299999 -0.038361177 1.8617989e-38 330 273
0.012787059 0.66299999 -0.038361177 1.8617989e-38 331 273
0.013970559 0.66399997 -0.038419038 1.8433964e-38 332 273
0.015134773 0.66399997 -0.038419038 1.8433964e-38 333 273
0.016274439 0.66299999 -0.038361177 1.834105e-38 334 273
0.017436899 0.66299999 -0.038361177 1.8433248e-38 335 273
0.018683519 0.66600001 -0.03853476 1.8249951e-38 336 273
0.019910853 0.66799998 -0.038650475 1.8249951e-38 337 273
0.0211452 0.67000002 -0.038766202 1.8341796e-38 338 273
0.022319933 0.67000002 -0.038766202 1.82496e-38 339 273
0.023494666 0.67000002 -0.038766202 1.8249598e-38 340 273
0.024706218 0.671 -0.038824059 1.8157402e-38 341 273
0.025882706 0.671 -0.038824059 1.7974087e-38 342 273
0.027059194 0.671 -0.038824059 1.7789694e-38 343 273
0.028235679 0.671 -0.038824059 1.7697499e-38 344 273
0.029368332 0.67000002 -0.038766202 1.7789694e-38 345 273
0.030543067 0.67000002 -0.038766202 1.7514184e-38 346 273
0.031765141 0.671 -0.038824059 1.7514184e-38 347 273
0.032892533 0.67000002 -0.038766202 1.7236519e-38 348 273
0.034067266 0.67000002 -0.038766202 1.7144322e-38 349 273
0.0352946 0.671 -0.038824059 1.6961013e-38 350 273
0.039055496 0.67500001 -0.039055496 1.6498955e-38 353 273
0.040238999 0.67500001 -0.039055496 1.5853953e-38 354 273
0.041729335 0.68000001 -0.039344799 1.5577725e-38 355 273
0.043047838 0.68199998 -0.039460517 1.5488806e-38 356 273
0.044243611 0.68199998 -0.039460517 1.6410762e-38 357 273
0.045439381 0.68199998 -0.039460517 1.6686292e-38 358 273
0.046635158 0.68199998 -0.039460517 1.6133118e-38 359 273
0.047830928 0.68199998 -0.039460517 1.4378858e-38 360 273
-0.10581366 0.70999998 -0.042325463 1.2444888e-38 235 274
-0.10427424 0.708 -0.042206239 1.2995869e-38 236 274
-0.10288735 0.70700002 -0.042146627 1.2811838e-38 237 274
-0.10150397 0.70599997 -0.042087011 1.317846e-38 238 274
-0.099982075 0.704 -0.041967787 1.3271014e-38 239 274
-0.098607466 0.70300001 -0.041908171 1.3271011e-38 240 274
-0.097097836 0.70099998 -0.041788943 1.3271011e-38 241 274
-0.095731996 0.69999999 -0.041729331 1.3455039e-38 242 274
-0.094234653 0.69800001 -0.041610107 1.3639071e-38 243 274
-0.093010828 0.69800001 -0.041610107 1.3456106e-38 244 274
-0.0916555 0.69700003 -0.041550495 1.3456106e-38 245 274
-0.090303674 0.69599998 -0.041490879 1.3456446e-38 246 274
-0.088699378 0.69300002 -0.041312039 1.3456446e-38 247 274
-0.087231837 0.69099998 -0.041192811 1.3457513e-38 248 274
-0.085895799 0.69 -0.041133199 1.3549708e-38 249 274
-0.084440529 0.68800002 -0.041013971 1.3827371e-38 250 274
-0.083234236 0.68800002 -0.041013971 1.4196153e-38 251 274
-0.082027942 0.68800002 -0.041013971 1.4930845e-38 252 274
-0.080704175 0.68699998 -0.040954359 1.5391823e-38 253 274
-0.079499632 0.68699998 -0.040954359 1.5668416e-38 254 274
-0.078181133 0.68599999 -0.040894743 1.6036839e-38 255 274
-0.076753922 0.68400002 -0.040775519 1.6129391e-38 256 274
-0.075554639 0.68400002 -0.040775519 1.6129391e-38 257 274
-0.074246652 0.68300003 -0.040715907 1.6680397e-38 258 274
-0.072942168 0.68199998 -0.040656291 1.6864788e-38 259 274
-0.071746394 0.68199998 -0.040656291 1.686551e-38 260 274
-0.070550621 0.68199998 -0.040656291 1.6957705e-38 261 274
-0.069151461 0.68000001 -0.040537067 1.7141748e-38 262 274
-0.067859262 0.67900002 -0.040477451 1.7417975e-38 263 274
-0.066668749 0.67900002 -0.040477451 1.7326508e-38 264 274
-0.065381795 0.67799997 -0.040417835 1.7326508e-38 265 274
-0.06419304 0.67799997 -0.040417835 1.750982e-38 266 274
-0.062818423 0.676 -0.040298611 1.7602017e-38 267 274
-0.061633173 0.676 -0.040298611 1.7878237e-38 268 274
-0.060358498 0.67500001 -0.040238999 1.7878237e-38 269 274
-0.059087332 0.67400002 -0.040179387 1.7787836e-38 270 274
-0.057905588 0.67400002 -0.040179387 1.7787836e-38 271 274
-0.056555521 0.67199999 -0.040060159 1.7880035e-38 272 274
-0.055377278 0.67199999 -0.040060159 1.797223e-38 273 274
-0.054199036 0.67199999 -0.040060159 1.797223e-38 274 274
-0.053020798 0.67199999 -0.040060159 1.797223e-38 275 274
-0.051842555 0.67199999 -0.040060159 1.7972594e-38 276 274
-0.050664317 0.67199999 -0.040060159 1.7972594e-38 277 274
-0.049486078 0.67199999 -0.040060159 1.8156272e-38 278 274
-0.04830784 0.67199999 -0.040060159 1.8340304e-38 279 274
-0.047129598 0.67199999 -0.040060159 1.8615451e-38 280 274
-0.045882981 0.671 -0.040000543 1.8799843e-38 281 274
-0.044706494 0.671 -0.040000543 1.8616893e-38 282 274
-0.043465134 0.67000002 -0.039940935 1.870909e-38 283 274
-0.042164158 0.66799998 -0.039821707 1.8800936e-38 284 274
-0.040992931 0.66799998 -0.039821707 1.8800936e-38 285 274
-0.039821707 0.66799998 -0.039821707 1.8802008e-38 286 274
-0.038650475 0.66799998 -0.039821707 1.8802008e-38 287 274
-0.037479252 0.66799998 -0.039821707 1.8802364e-38 288 274
-0.036253672 0.667 -0.039762091 1.8802364e-38 289 274
-0.035084199 0.667 -0.039762091 1.8894203e-38 290 274
-0.033914726 0.667 -0.039762091 1.8986758e-38 291 274
-0.032745253 0.667 -0.039762091 1.8894209e-38 292 274
-0.03157578 0.667 -0.039762091 1.8986404e-38 293 274
-0.030406304 0.667 -0.039762091 1.8893853e-38 294 274
-0.029236831 0.667 -0.039762091 1.8893853e-38 295 274
-0.028067358 0.667 -0.039762091 1.8986402e-38 296 274
-0.026897885 0.667 -0.039762091 1.8894206e-38 297 274
-0.025728412 0.667 -0.039762091 1.8894559e-38 298 274
-0.024558939 0.667 -0.039762091 1.8894559e-38 299 274
-0.023354398 0.66600001 -0.039702479 1.8802364e-38 300 274
-0.02218668 0.66600001 -0.039702479 1.8802364e-38 301 274
-0.020955838 0.66399997 -0.039583251 1.8894203e-38 302 274
-0.019791625 0.66399997 -0.039583251 1.8802008e-38 303 274
-0.018571306 0.662 -0.039464023 1.8618698e-38 304 274
-0.017410601 0.662 -0.039464023 1.8802729e-38 305 274
-0.013949519 0.66299999 -0.039523639 1.8526863e-38 308 274
-0.012787059 0.66299999 -0.039523639 1.8526863e-38 309 274
-0.011642133 0.66399997 -0.039583251 1.8618698e-38 310 274
-0.01046214 0.66299999 -0.039523639 1.8618698e-38 311 274
-0.0092996797 0.66299999 -0.039523639 1.8618698e-38 312 274
-0.0081494926 0.66399997 -0.039583251 1.8618698e-38 313 274
-0.0069747595 0.66299999 -0.039523639 1.8526147e-38 314 274
-0.0058122999 0.66299999 -0.039523639 1.8618342e-38 315 274
-0.0046568532 0.66399997 -0.039583251 1.8527219e-38 316 274
-0.0034926396 0.66399997 -0.039583251 1.8527219e-38 317 274
-0.0023354399 0.66600001 -0.039702479 1.8619414e-38 318 274
-0.00116772 0.66600001 -0.039702479 1.8619414e-38 319 274
0 0.66600001 -0.039702479 1.8435749e-38 320 274
0.0011694733 0.667 -0.039762091 1.8435749e-38 321 274
0.0023354399 0.66600001 -0.039702479 1.8526512e-38 322 274
0.0035031599 0.66600001 -0.039702479 1.8526512e-38 323 274
0.0046568532 0.66399997 -0.039583251 1.8526515e-38 324 274
0.0058210664 0.66399997 -0.039583251 1.8618711e-38 325 274
0.0069852793 0.66399997 -0.039583251 1.8526515e-38 326 274
0.0081494926 0.66399997 -0.039583251 1.843432e-38 327 274
0.0093137063 0.66399997 -0.039583251 1.8525796e-38 328 274
0.01046214 0.66299999 -0.039523639 1.8525796e-38 329 274
0.0116246 0.66299999 -0.039523639 1.8434317e-38 330 274
0.012787059 0.66299999 -0.039523639 1.8434317e-38 331 274
0.013970559 0.66399997 -0.039583251 1.8434317e-38 332 274
0.015134773 0.66399997 -0.039583251 1.8250286e-38 333 274
0.016298985 0.66399997 -0.039583251 1.8250286e-38 334 274
0.0174632 0.66399997 -0.039583251 1.8158089e-38 335 274
0.018683519 0.66600001 -0.039702479 1.8341048e-38 336 274
0.019910853 0.66799998 -0.039821707 1.8433245e-38 337 274
0.021082079 0.66799998 -0.039821707 1.8249582e-38 338 274
0.022319933 0.67000002 -0.039940935 1.8249582e-38 339 274
0.023494666 0.67000002 -0.039940935 1.8157387e-38 340 274
0.024669399 0.67000002 -0.039940935 1.8157387e-38 341 274
0.025844134 0.67000002 -0.039940935 1.8064834e-38 342 274
0.027018867 0.67000002 -0.039940935 1.7972638e-38 343 274
0.028193599 0.67000002 -0.039940935 1.7697496e-38 344 274
0.029368332 0.67000002 -0.039940935 1.76053e-38 345 274
0.030588651 0.671 -0.040000543 1.7421269e-38 346 274
0.031765141 0.671 -0.040000543 1.7328715e-38 347 274
0.032892533 0.67000002 -0.039940935 1.7236166e-38 348 274
0.034067266 0.67000002 -0.039940935 1.7143969e-38 349 274
0.0352946 0.671 -0.040000543 1.6868464e-38 350 274
0.036634147 0.67400002 -0.040179387 1.6775909e-38 351 274
0.037871998 0.67500001 -0.040238999 1.6316347e-38 352 274
0.039055496 0.67500001 -0.040238999 1.5025608e-38 353 274
0.040238999 0.67500001 -0.040238999 1.474685e-38 354 274
0.041606598 0.67799997 -0.040417835 1.4654296e-38 355 274
0.042858478 0.67900002 -0.040477451 1.4195504e-38 356 274
0.043984115 0.67799997 -0.040417835 1.4472451e-38 357 274
0.045172878 0.67799997 -0.040417835 1.4565755e-38 358 274
0.046361636 0.67799997 -0.040417835 1.4750505e-38 359 274
0.047339998 0.67500001 -0.040238999 1.5117485e-38 360 274
0.048523501 0.67500001 -0.040238999 1.48409e-38 361 274
0.049706999 0.67500001 -0.040238999 1.5300432e-38 362 274
0.050890498 0.67500001 -0.040238999 1.5023846e-38 363 274
-0.10427424 0.708 -0.043447599 1.2904396e-38 236 275
-0.10288735 0.70700002 -0.043386232 1.2720005e-38 237 275
-0.10150397 0.70599997 -0.043324865 1.2811482e-38 238 275
-0.099982075 0.704 -0.043202132 1.2719286e-38 239 275
-0.098607466 0.70300001 -0.043140765 1.2902599e-38 240 275
-0.09695933 0.69999999 -0.042956665 1.2995153e-38 241 275
-0.095731996 0.69999999 -0.042956665 1.3087699e-38 242 275
-0.094234653 0.69800001 -0.042833932 1.327209e-38 243 275
-0.093010828 0.69800001 -0.042833932 1.3180601e-38 244 275
-0.0916555 0.69700003 -0.042772565 1.3180601e-38 245 275
-0.090303674 0.69599998 -0.042711195 1.3272068e-38 246 275
-0.088699378 0.69300002 -0.042527102 1.3272068e-38 247 275
-0.087231837 0.69099998 -0.042404365 1.3089469e-38 248 275
-0.085895799 0.69 -0.042342998 1.3182023e-38 249 275
-0.084440529 0.68800002 -0.042220265 1.3457884e-38 250 275
-0.083234236 0.68800002 -0.042220265 1.3734472e-38 251 275
-0.082027942 0.68800002 -0.042220265 1.4285844e-38 252 275
-0.080704175 0.68699998 -0.042158898 1.4562791e-38 253 275
-0.079383917 0.68599999 -0.042097531 1.4747901e-38 254 275
-0.077953197 0.68400002 -0.041974798 1.5116684e-38 255 275
-0.076641709 0.68300003 -0.041913435 1.5208511e-38 256 275
-0.075444184 0.68300003 -0.041913435 1.5392902e-38 257 275
-0.074137948 0.68199998 -0.041852064 1.5760962e-38 258 275
-0.072942168 0.68199998 -0.041852064 1.6129744e-38 259 275
-0.071535997 0.68000001 -0.041729335 1.6313785e-38 260 275
-0.070343733 0.68000001 -0.041729335 1.6405981e-38 261 275
-0.069049768 0.67900002 -0.041667968 1.6498543e-38 262 275
-0.06775932 0.67799997 -0.041606598 1.6590739e-38 263 275
-0.066570558 0.67799997 -0.041606598 1.686625e-38 264 275
-0.065381795 0.67799997 -0.041606598 1.6958804e-38 265 275
-0.064003684 0.676 -0.041483864 1.6958095e-38 266 275
-0.062818423 0.676 -0.041483864 1.7050649e-38 267 275
-0.061542001 0.67500001 -0.041422497 1.7234665e-38 268 275
-0.060358498 0.67500001 -0.041422497 1.7142469e-38 269 275
-0.059087332 0.67400002 -0.041361131 1.7235381e-38 270 275
-0.057733759 0.67199999 -0.041238401 1.7327577e-38 271 275
-0.056555521 0.67199999 -0.041238401 1.7510903e-38 272 275
-0.055377278 0.67199999 -0.041238401 1.7694934e-38 273 275
-0.054199036 0.67199999 -0.041238401 1.7512344e-38 274 275
-0.052941896 0.671 -0.041177034 1.7512344e-38 275 275
-0.051765412 0.671 -0.041177034 1.7604539e-38 276 275
-0.050588924 0.671 -0.041177034 1.7696735e-38 277 275
-0.049412437 0.671 -0.041177034 1.7787858e-38 278 275
-0.048235953 0.671 -0.041177034 1.7971891e-38 279 275
-0.047059465 0.671 -0.041177034 1.7972247e-38 280 275
-0.0458146 0.67000002 -0.041115668 1.8064443e-38 281 275
-0.044639867 0.67000002 -0.041115668 1.8156641e-38 282 275
-0.043335386 0.66799998 -0.040992931 1.8248837e-38 283 275
-0.042101037 0.667 -0.040931564 1.8340679e-38 284 275
-0.040931564 0.667 -0.040931564 1.8433234e-38 285 275
-0.039762091 0.667 -0.040931564 1.8341754e-38 286 275
-0.038592618 0.667 -0.040931564 1.8341754e-38 287 275
-0.037423145 0.667 -0.040931564 1.8433951e-38 288 275
-0.036253672 0.667 -0.040931564 1.8433951e-38 289 275
-0.035031598 0.66600001 -0.040870197 1.8526515e-38 290 275
-0.03386388 0.66600001 -0.040870197 1.8526515e-38 291 275
-0.032696161 0.66600001 -0.040870197 1.8617995e-38 292 275
-0.031528439 0.66600001 -0.040870197 1.8617995e-38 293 275
-0.030360719 0.66600001 -0.040870197 1.8617989e-38 294 275
-0.029192999 0.66600001 -0.040870197 1.8617989e-38 295 275
-0.028025279 0.66600001 -0.040870197 1.8801654e-38 296 275
-0.026857559 0.66600001 -0.040870197 1.8801654e-38 297 275
-0.025728412 0.667 -0.040931564 1.880201e-38 298 275
-0.02452212 0.66600001 -0.040870197 1.880201e-38 299 275
-0.023354398 0.66600001 -0.040870197 1.880201e-38 300 275
-0.02218668 0.66600001 -0.040870197 1.880201e-38 301 275
-0.02086116 0.66100001 -0.040563367 1.8801654e-38 302 275
-0.019702207 0.66100001 -0.040563367 1.8801654e-38 303 275
-0.018571306 0.662 -0.04062473 1.8802373e-38 304 275
-0.017410601 0.662 -0.04062473 1.8618342e-38 305 275
-0.016249891 0.662 -0.04062473 1.8802726e-38 306 275
-0.015111978 0.66299999 -0.040686097 1.8802726e-38 307 275
-0.013949519 0.66299999 -0.040686097 1.8802726e-38 308 275
-0.012787059 0.66299999 -0.040686097 1.8618695e-38 309 275
-0.0116246 0.66299999 -0.040686097 1.880201e-38 310 275
-0.01046214 0.66299999 -0.040686097 1.880201e-38 311 275
-0.0092996797 0.66299999 -0.040686097 1.8618342e-38 312 275
-0.0081372196 0.66299999 -0.040686097 1.8618342e-38 313 275
-0.0069747595 0.66299999 -0.040686097 1.8618342e-38 314 275
-0.0058122999 0.66299999 -0.040686097 1.8618342e-38 315 275
-0.0046498398 0.66299999 -0.040686097 1.8618342e-38 316 275
-0.0034926396 0.66399997 -0.040747464 1.8618342e-38 317 275
-0.0023284266 0.66399997 -0.040747464 1.8619417e-38 318 275
-0.0011607066 0.662 -0.04062473 1.8526863e-38 319 275
0 0.662 -0.04062473 1.8619061e-38 320 275
0.0011607066 0.662 -0.04062473 1.8526865e-38 321 275
0.0023284266 0.66399997 -0.040747464 1.8617989e-38 322 275
0.0034926396 0.66399997 -0.040747464 1.8617989e-38 323 275
0.0046568532 0.66399997 -0.040747464 1.8617995e-38 324 275
0.0058210664 0.66399997 -0.040747464 1.8617995e-38 325 275
0.0069852793 0.66399997 -0.040747464 1.8433964e-38 326 275
0.0081494926 0.66399997 -0.040747464 1.8433964e-38 327 275
0.0093137063 0.66399997 -0.040747464 1.843432e-38 328 275
0.01046214 0.66299999 -0.040686097 1.8250288e-38 329 275
0.0116246 0.66299999 -0.040686097 1.8433964e-38 330 275
0.012787059 0.66299999 -0.040686097 1.8249932e-38 331 275
0.013949519 0.66299999 -0.040686097 1.8433245e-38 332 275
0.015111978 0.66299999 -0.040686097 1.8341048e-38 333 275
0.016274439 0.66299999 -0.040686097 1.8341048e-38 334 275
0.017515799 0.66600001 -0.040870197 1.8248852e-38 335 275
0.018711573 0.667 -0.040931564 1.8157384e-38 336 275
0.019881045 0.667 -0.040931564 1.8065187e-38 337 275
0.021082079 0.66799998 -0.040992931 1.7789326e-38 338 275
0.022253305 0.66799998 -0.040992931 1.7789326e-38 339 275
0.023494666 0.67000002 -0.041115668 1.7789328e-38 340 275
0.024669399 0.67000002 -0.041115668 1.7696774e-38 341 275
0.025844134 0.67000002 -0.041115668 1.7696777e-38 342 275
0.027018867 0.67000002 -0.041115668 1.7604581e-38 343 275
0.028193599 0.67000002 -0.041115668 1.7236885e-38 344 275
0.029368332 0.67000002 -0.041115668 1.7236885e-38 345 275
0.030588651 0.671 -0.041177034 1.6960657e-38 346 275
0.031765141 0.671 -0.041177034 1.6868461e-38 347 275
0.032941625 0.671 -0.041177034 1.6775909e-38 348 275
0.034118112 0.671 -0.041177034 1.6868464e-38 349 275
0.0352946 0.671 -0.041177034 1.65926e-38 350 275
0.036525436 0.67199999 -0.041238401 1.6408209e-38 351 275
0.037815895 0.67400002 -0.041361131 1.6223795e-38 352 275
0.039055496 0.67500001 -0.041422497 1.5209284e-38 353 275
0.040298611 0.676 -0.041483864 1.483834e-38 354 275
0.041483864 0.676 -0.041483864 1.5114568e-38 355 275
0.042795356 0.67799997 -0.041606598 1.4287334e-38 356 275
0.043984115 0.67799997 -0.041606598 1.4102942e-38 357 275
0.045172878 0.67799997 -0.041606598 1.4196584e-38 358 275
0.0461565 0.67500001 -0.041422497 1.4841954e-38 359 275
0.047339998 0.67500001 -0.041422497 1.5118189e-38 360 275
0.048523501 0.67500001 -0.041422497 1.5118189e-38 361 275
0.049706999 0.67500001 -0.041422497 1.4841603e-38 362 275
-0.10150397 0.70599997 -0.044562716 1.2810406e-38 238 276
-0.099982075 0.704 -0.044436477 1.2626373e-38 239 276
-0.098607466 0.70300001 -0.04437336 1.2626373e-38 240 276
-0.09695933 0.69999999 -0.044183996 1.2810406e-38 241 276
-0.095731996 0.69999999 -0.044183996 1.299515e-38 242 276
-0.094504662 0.69999999 -0.044183996 1.3179541e-38 243 276
-0.093010828 0.69800001 -0.04405776 1.3088046e-38 244 276
-0.0916555 0.69700003 -0.043994639 1.3088046e-38 245 276
-0.090044186 0.69400001 -0.043805279 1.3179869e-38 246 276
-0.088699378 0.69300002 -0.043742158 1.3179869e-38 247 276
-0.087231837 0.69099998 -0.043615919 1.3272421e-38 248 276
-0.085895799 0.69 -0.043552797 1.3272421e-38 249 276
-0.084440529 0.68800002 -0.043426562 1.3180948e-38 250 276
-0.083234236 0.68800002 -0.043426562 1.3457175e-38 251 276
-0.081908718 0.68699998 -0.043363437 1.3457528e-38 252 276
-0.080704175 0.68699998 -0.043363437 1.3549724e-38 253 276
-0.079383917 0.68599999 -0.043300316 1.4009617e-38 254 276
-0.077953197 0.68400002 -0.043174081 1.4285844e-38 255 276
-0.076641709 0.68300003 -0.043110959 1.4287649e-38 256 276
-0.075333714 0.68199998 -0.043047838 1.4564236e-38 257 276
-0.074137948 0.68199998 -0.043047838 1.5208161e-38 258 276
-0.072728261 0.68000001 -0.042921599 1.5576583e-38 259 276
-0.071535997 0.68000001 -0.042921599 1.5669485e-38 260 276
-0.070240289 0.67900002 -0.042858478 1.5853876e-38 261 276
-0.069049768 0.67900002 -0.042858478 1.622194e-38 262 276
-0.06775932 0.67799997 -0.042795356 1.6314135e-38 263 276
-0.066570558 0.67799997 -0.042795356 1.6589649e-38 264 276
-0.065381795 0.67799997 -0.042795356 1.6681844e-38 265 276
-0.064003684 0.676 -0.042669121 1.6773688e-38 266 276
-0.062818423 0.676 -0.042669121 1.6865884e-38 267 276
-0.061542001 0.67500001 -0.042606 1.6865531e-38 268 276
-0.06026908 0.67400002 -0.042542879 1.7049921e-38 269 276
-0.059087332 0.67400002 -0.042542879 1.6958448e-38 270 276
-0.057733759 0.67199999 -0.042416636 1.6958448e-38 271 276
-0.056471359 0.671 -0.042353518 1.6959167e-38 272 276
-0.055294871 0.671 -0.042353518 1.6959167e-38 273 276
-0.054118387 0.671 -0.042353518 1.714356e-38 274 276
-0.052941896 0.671 -0.042353518 1.714356e-38 275 276
-0.051765412 0.671 -0.042353518 1.741907e-38 276 276
-0.050513536 0.67000002 -0.042290401 1.7511625e-38 277 276
-0.049338799 0.67000002 -0.042290401 1.769529e-38 278 276
-0.048164066 0.67000002 -0.042290401 1.7787486e-38 279 276
-0.046989333 0.67000002 -0.042290401 1.7604524e-38 280 276
-0.045677837 0.66799998 -0.042164158 1.7696719e-38 281 276
-0.044439986 0.667 -0.042101037 1.8063347e-38 282 276
-0.04327051 0.667 -0.042101037 1.8155542e-38 283 276
-0.042037919 0.66600001 -0.042037919 1.8064074e-38 284 276
-0.040870197 0.66600001 -0.042037919 1.815627e-38 285 276
-0.039702479 0.66600001 -0.042037919 1.833995e-38 286 276
-0.03853476 0.66600001 -0.042037919 1.833995e-38 287 276
-0.037367038 0.66600001 -0.042037919 1.8248837e-38 288 276
-0.03619932 0.66600001 -0.042037919 1.8248837e-38 289 276
-0.035031598 0.66600001 -0.042037919 1.8158442e-38 290 276
-0.033762183 0.66399997 -0.041911677 1.8250639e-38 291 276
-0.03259797 0.66399997 -0.041911677 1.8433598e-38 292 276
-0.031433757 0.66399997 -0.041911677 1.8433598e-38 293 276
-0.030269546 0.66399997 -0.041911677 1.8617263e-38 294 276
-0.02910533 0.66399997 -0.041911677 1.8617263e-38 295 276
-0.028025279 0.66600001 -0.042037919 1.8709093e-38 296 276
-0.026857559 0.66600001 -0.042037919 1.8801289e-38 297 276
-0.02568984 0.66600001 -0.042037919 1.898532e-38 298 276
-0.02452212 0.66600001 -0.042037919 1.8801289e-38 299 276
-0.023354398 0.66600001 -0.042037919 1.8526149e-38 300 276
-0.022053426 0.662 -0.041785441 1.8526149e-38 301 276
-0.02086116 0.66100001 -0.04172232 1.8617992e-38 302 276
-0.019702207 0.66100001 -0.04172232 1.8617992e-38 303 276
-0.018571306 0.662 -0.041785441 1.8526515e-38 304 276
-0.017410601 0.662 -0.041785441 1.8618711e-38 305 276
-0.016249891 0.662 -0.041785441 1.8617989e-38 306 276
-0.015089186 0.662 -0.041785441 1.8617989e-38 307 276
-0.01392848 0.662 -0.041785441 1.8617989e-38 308 276
