# .PCD v.7 - Point Cloud Data file format
FIELDS x y z rgb imX imY
SIZE 4 4 4 4 4 4
TYPE F F F F F F
COUNT 1 1 1 1 1 1
WIDTH 855
HEIGHT 1
VIEWPOINT 0 0 0 1 0 0 0
POINTS 855
DATA ascii
-0.018895673 0.829 0.062501073 1.7510565e-38 307 197
-0.017442159 0.829 0.062501073 1.7510565e-38 308 197
-0.015988646 0.829 0.062501073 1.7510565e-38 309 197
-0.014535133 0.829 0.062501073 1.7510565e-38 310 197
-0.01308162 0.829 0.062501073 1.741837e-38 311 197
-0.011628106 0.829 0.062501073 1.7326174e-38 312 197
-0.010174593 0.829 0.062501073 1.7233977e-38 313 197
-0.0087210797 0.829 0.062501073 1.7233977e-38 314 197
-0.0072850995 0.83099997 0.062651858 1.7049946e-38 315 197
-0.0058280798 0.83099997 0.062651858 1.705031e-38 316 197
-0.0043710601 0.83099997 0.062651858 1.6958113e-38 317 197
-0.0029140399 0.83099997 0.062651858 1.6958116e-38 318 197
-0.0014570199 0.83099997 0.062651858 1.6865562e-38 319 197
0 0.829 0.062501073 1.6865562e-38 320 197
0.0014535133 0.829 0.062501073 1.6589335e-38 321 197
0.0029070266 0.829 0.062501073 1.6497136e-38 322 197
0.0043605398 0.829 0.062501073 1.6589691e-38 323 197
0.0058140531 0.829 0.062501073 1.6589688e-38 324 197
0.0072675664 0.829 0.062501073 1.6497492e-38 325 197
0.0087210797 0.829 0.062501073 1.6589685e-38 326 197
0.010174593 0.829 0.062501073 1.6681881e-38 327 197
0.011628106 0.829 0.062501073 1.659041e-38 328 197
0.01308162 0.829 0.062501073 1.659041e-38 329 197
0.014535133 0.829 0.062501073 1.6865211e-38 330 197
0.015950073 0.82700002 0.062350284 1.6865211e-38 331 197
0.017400078 0.82700002 0.062350284 1.6865217e-38 332 197
0.018850086 0.82700002 0.062350284 1.6865217e-38 333 197
0.020300092 0.82700002 0.062350284 1.6774098e-38 334 197
0.0217501 0.82700002 0.062350284 1.6774098e-38 335 197
0.023200106 0.82700002 0.062350284 1.6775168e-38 336 197
0.024650112 0.82700002 0.062350284 1.6959559e-38 337 197
0.02610012 0.82700002 0.062350284 1.6959915e-38 338 197
0.027616752 0.829 0.062501073 1.7052111e-38 339 197
0.029070266 0.829 0.062501073 1.7143228e-38 340 197
0.030523779 0.829 0.062501073 1.7235423e-38 341 197
0.031900145 0.82700002 0.062350284 1.7235779e-38 342 197
0.033350151 0.82700002 0.062350284 1.7327975e-38 343 197
0.034800157 0.82700002 0.062350284 1.742017e-38 344 197
0.036250167 0.82700002 0.062350284 1.742017e-38 345 197
0.037700173 0.82700002 0.062350284 1.7328691e-38 346 197
0.039150178 0.82700002 0.062350284 1.7328691e-38 347 197
0.040600184 0.82700002 0.062350284 1.7144657e-38 348 197
0.04205019 0.82700002 0.062350284 1.6960266e-38 349 197
0.0435002 0.82700002 0.062350284 1.7050659e-38 350 197
0.044950206 0.82700002 0.062350284 1.6866268e-38 351 197
0.046400212 0.82700002 0.062350284 1.6773707e-38 352 197
0.04796594 0.829 0.062501073 1.6773707e-38 353 197
0.049419452 0.829 0.062501073 1.6498196e-38 354 197
0.050750233 0.82700002 0.062350284 1.6405999e-38 355 197
0.052200239 0.82700002 0.062350284 1.6405999e-38 356 197
0.053650245 0.82700002 0.062350284 1.6313444e-38 357 197
0.055100251 0.82700002 0.062350284 1.6037937e-38 358 197
0.056550261 0.82700002 0.062350284 1.576135e-38 359 197
0.058000267 0.82700002 0.062350284 1.5485131e-38 360 197
0.059450272 0.82700002 0.062350284 1.5024155e-38 361 197
0.060900278 0.82700002 0.062350284 1.4472098e-38 362 197
-0.058000267 0.82700002 0.060900278 1.7791943e-38 280 198
-0.056550261 0.82700002 0.060900278 1.6777431e-38 281 198
-0.055100251 0.82700002 0.060900278 1.6130558e-38 282 198
-0.053650245 0.82700002 0.060900278 1.5208962e-38 283 198
-0.052200239 0.82700002 0.060900278 1.6035788e-38 284 198
-0.050750233 0.82700002 0.060900278 1.622018e-38 285 198
-0.049300224 0.82700002 0.060900278 1.6221249e-38 286 198
-0.047850218 0.82700002 0.060900278 1.6405999e-38 287 198
-0.046400212 0.82700002 0.060900278 1.6681508e-38 288 198
-0.044950206 0.82700002 0.060900278 1.6773704e-38 289 198
-0.0435002 0.82700002 0.060900278 1.6958451e-38 290 198
-0.04205019 0.82700002 0.060900278 1.6958451e-38 291 198
-0.040600184 0.82700002 0.060900278 1.7235034e-38 292 198
-0.039150178 0.82700002 0.060900278 1.7327231e-38 293 198
-0.037700173 0.82700002 0.060900278 1.7419426e-38 294 198
-0.036337834 0.829 0.061047558 1.7511622e-38 295 198
-0.034884319 0.829 0.061047558 1.7328675e-38 296 198
-0.033350151 0.82700002 0.060900278 1.7420871e-38 297 198
-0.031900145 0.82700002 0.060900278 1.7329044e-38 298 198
-0.030450139 0.82700002 0.060900278 1.7329044e-38 299 198
-0.029000133 0.82700002 0.060900278 1.7511637e-38 300 198
-0.027550125 0.82700002 0.060900278 1.7327606e-38 301 198
-0.02610012 0.82700002 0.060900278 1.7510565e-38 302 198
-0.024650112 0.82700002 0.060900278 1.7510565e-38 303 198
-0.023200106 0.82700002 0.060900278 1.7418019e-38 304 198
-0.0217501 0.82700002 0.060900278 1.7418019e-38 305 198
-0.020300092 0.82700002 0.060900278 1.6958841e-38 306 198
-0.018895673 0.829 0.061047558 1.6958841e-38 307 198
-0.017442159 0.829 0.061047558 1.7142512e-38 308 198
-0.015988646 0.829 0.061047558 1.7142512e-38 309 198
-0.014535133 0.829 0.061047558 1.7049957e-38 310 198
-0.01308162 0.829 0.061047558 1.695776e-38 311 198
-0.011628106 0.829 0.061047558 1.6682956e-38 312 198
-0.010174593 0.829 0.061047558 1.659076e-38 313 198
-0.0087210797 0.829 0.061047558 1.6773e-38 314 198
-0.0072850995 0.83099997 0.061194837 1.6773e-38 315 198
-0.0058280798 0.83099997 0.061194837 1.6497152e-38 316 198
-0.0043605398 0.829 0.061047558 1.6589706e-38 317 198
-0.0029070266 0.829 0.061047558 1.631384e-38 318 198
-0.0014535133 0.829 0.061047558 1.6221644e-38 319 198
0 0.829 0.061047558 1.6221631e-38 320 198
0.0014535133 0.829 0.061047558 1.603688e-38 321 198
0.0029070266 0.829 0.061047558 1.6037236e-38 322 198
0.0043605398 0.829 0.061047558 1.6037236e-38 323 198
0.0058140531 0.829 0.061047558 1.603688e-38 324 198
0.0072675664 0.829 0.061047558 1.5944684e-38 325 198
0.0087210797 0.829 0.061047558 1.6036164e-38 326 198
0.010174593 0.829 0.061047558 1.6312391e-38 327 198
0.011628106 0.829 0.061047558 1.6036895e-38 328 198
0.01308162 0.829 0.061047558 1.6036895e-38 329 198
0.014535133 0.829 0.061047558 1.6220578e-38 330 198
0.015950073 0.82700002 0.060900278 1.6220578e-38 331 198
0.017400078 0.82700002 0.060900278 1.6219869e-38 332 198
0.018850086 0.82700002 0.060900278 1.6496454e-38 333 198
0.020300092 0.82700002 0.060900278 1.6313139e-38 334 198
0.0217501 0.82700002 0.060900278 1.6405335e-38 335 198
0.023200106 0.82700002 0.060900278 1.640676e-38 336 198
0.024650112 0.82700002 0.060900278 1.6498955e-38 337 198
0.02610012 0.82700002 0.060900278 1.6499673e-38 338 198
0.027616752 0.829 0.061047558 1.6499673e-38 339 198
0.029070266 0.829 0.061047558 1.6683701e-38 340 198
0.030523779 0.829 0.061047558 1.6683701e-38 341 198
0.031900145 0.82700002 0.060900278 1.6684417e-38 342 198
0.033350151 0.82700002 0.060900278 1.6776613e-38 343 198
0.034800157 0.82700002 0.060900278 1.7143956e-38 344 198
0.036250167 0.82700002 0.060900278 1.7143956e-38 345 198
0.037700173 0.82700002 0.060900278 1.7052477e-38 346 198
0.039150178 0.82700002 0.060900278 1.7052477e-38 347 198
0.040600184 0.82700002 0.060900278 1.7052114e-38 348 198
0.04205019 0.82700002 0.060900278 1.6959559e-38 349 198
0.0435002 0.82700002 0.060900278 1.705031e-38 350 198
0.044950206 0.82700002 0.060900278 1.6958113e-38 351 198
0.046400212 0.82700002 0.060900278 1.6865549e-38 352 198
0.047850218 0.82700002 0.060900278 1.6773353e-38 353 198
0.049300224 0.82700002 0.060900278 1.668259e-38 354 198
0.050750233 0.82700002 0.060900278 1.668259e-38 355 198
0.052200239 0.82700002 0.060900278 1.6591464e-38 356 198
0.053650245 0.82700002 0.060900278 1.6314878e-38 357 198
0.055100251 0.82700002 0.060900278 1.6590012e-38 358 198
0.056550261 0.82700002 0.060900278 1.6313785e-38 359 198
0.058000267 0.82700002 0.060900278 1.6037924e-38 360 198
0.059450272 0.82700002 0.060900278 1.594537e-38 361 198
0.060900278 0.82700002 0.060900278 1.5760276e-38 362 198
0.062350284 0.82700002 0.060900278 1.5391495e-38 363 198
0.06380029 0.82700002 0.060900278 1.4564268e-38 364 198
0.0652503 0.82700002 0.060900278 1.410329e-38 365 198
-0.059450272 0.82700002 0.059450272 1.6133144e-38 279 199
-0.058000267 0.82700002 0.059450272 1.5853994e-38 280 199
-0.056550261 0.82700002 0.059450272 1.5761798e-38 281 199
-0.055100251 0.82700002 0.059450272 1.631277e-38 282 199
-0.053650245 0.82700002 0.059450272 1.631277e-38 283 199
-0.052200239 0.82700002 0.059450272 1.649749e-38 284 199
-0.050750233 0.82700002 0.059450272 1.649749e-38 285 199
-0.049300224 0.82700002 0.059450272 1.6866255e-38 286 199
-0.047850218 0.82700002 0.059450272 1.6958451e-38 287 199
-0.046400212 0.82700002 0.059450272 1.6866618e-38 288 199
-0.044950206 0.82700002 0.059450272 1.6958814e-38 289 199
-0.0435002 0.82700002 0.059450272 1.7051015e-38 290 199
-0.04205019 0.82700002 0.059450272 1.7051015e-38 291 199
-0.040600184 0.82700002 0.059450272 1.7325451e-38 292 199
-0.039150178 0.82700002 0.059450272 1.7418007e-38 293 199
-0.037700173 0.82700002 0.059450272 1.7417654e-38 294 199
-0.036250167 0.82700002 0.059450272 1.769388e-38 295 199
-0.034800157 0.82700002 0.059450272 1.7694231e-38 296 199
-0.033350151 0.82700002 0.059450272 1.7694231e-38 297 199
-0.031900145 0.82700002 0.059450272 1.7235408e-38 298 199
-0.030450139 0.82700002 0.059450272 1.7327603e-38 299 199
-0.029000133 0.82700002 0.059450272 1.7418001e-38 300 199
-0.027550125 0.82700002 0.059450272 1.7510197e-38 301 199
-0.02610012 0.82700002 0.059450272 1.7326171e-38 302 199
-0.024650112 0.82700002 0.059450272 1.7233974e-38 303 199
-0.023200106 0.82700002 0.059450272 1.7416217e-38 304 199
-0.0217501 0.82700002 0.059450272 1.7416217e-38 305 199
-0.020300092 0.82700002 0.059450272 1.7232908e-38 306 199
-0.018895673 0.829 0.059594043 1.7140354e-38 307 199
-0.017442159 0.829 0.059594043 1.7048508e-38 308 199
-0.015988646 0.829 0.059594043 1.7048508e-38 309 199
-0.014535133 0.829 0.059594043 1.6772632e-38 310 199
-0.01308162 0.829 0.059594043 1.6680435e-38 311 199
-0.011628106 0.829 0.059594043 1.640528e-38 312 199
-0.010174593 0.829 0.059594043 1.6128334e-38 313 199
-0.0087210797 0.829 0.059594043 1.6495688e-38 314 199
-0.0072675664 0.829 0.059594043 1.6495688e-38 315 199
-0.0058140531 0.829 0.059594043 1.6036517e-38 316 199
-0.0043605398 0.829 0.059594043 1.6036517e-38 317 199
-0.0029070266 0.829 0.059594043 1.6220182e-38 318 199
-0.0014535133 0.829 0.059594043 1.6127987e-38 319 199
0 0.829 0.059594043 1.6219108e-38 320 199
0.0014535133 0.829 0.059594043 1.6034716e-38 321 199
0.0029070266 0.829 0.059594043 1.5942884e-38 322 199
0.0043605398 0.829 0.059594043 1.5942884e-38 323 199
0.0058140531 0.829 0.059594043 1.5942887e-38 324 199
0.0072675664 0.829 0.059594043 1.5758854e-38 325 199
0.0087210797 0.829 0.059594043 1.5758851e-38 326 199
0.010174593 0.829 0.059594043 1.5942884e-38 327 199
0.011628106 0.829 0.059594043 1.6035085e-38 328 199
0.01308162 0.829 0.059594043 1.6035085e-38 329 199
0.014535133 0.829 0.059594043 1.6034732e-38 330 199
0.015950073 0.82700002 0.059450272 1.6126927e-38 331 199
0.017400078 0.82700002 0.059450272 1.5575921e-38 332 199
0.018850086 0.82700002 0.059450272 1.5852867e-38 333 199
0.020300092 0.82700002 0.059450272 1.6311324e-38 334 199
0.0217501 0.82700002 0.059450272 1.640352e-38 335 199
0.023200106 0.82700002 0.059450272 1.6220928e-38 336 199
0.024650112 0.82700002 0.059450272 1.6497155e-38 337 199
0.02610012 0.82700002 0.059450272 1.6589706e-38 338 199
0.027550125 0.82700002 0.059450272 1.6589706e-38 339 199
0.029000133 0.82700002 0.059450272 1.6589703e-38 340 199
0.030523779 0.829 0.059594043 1.6774095e-38 341 199
0.031900145 0.82700002 0.059450272 1.6774451e-38 342 199
0.033350151 0.82700002 0.059450272 1.6866648e-38 343 199
0.034800157 0.82700002 0.059450272 1.7142512e-38 344 199
0.036250167 0.82700002 0.059450272 1.7234707e-38 345 199
0.037700173 0.82700002 0.059450272 1.714323e-38 346 199
0.039150178 0.82700002 0.059450272 1.714323e-38 347 199
0.040600184 0.82700002 0.059450272 1.7234704e-38 348 199
0.04205019 0.82700002 0.059450272 1.7234704e-38 349 199
0.0435002 0.82700002 0.059450272 1.7050313e-38 350 199
0.044950206 0.82700002 0.059450272 1.6958116e-38 351 199
0.046400212 0.82700002 0.059450272 1.695811e-38 352 199
0.047850218 0.82700002 0.059450272 1.6865915e-38 353 199
0.049300224 0.82700002 0.059450272 1.6683319e-38 354 199
0.050750233 0.82700002 0.059450272 1.6683319e-38 355 199
0.052200239 0.82700002 0.059450272 1.6683672e-38 356 199
0.053650245 0.82700002 0.059450272 1.6499641e-38 357 199
0.055100251 0.82700002 0.059450272 1.6683306e-38 358 199
0.056550261 0.82700002 0.059450272 1.6498915e-38 359 199
0.058000267 0.82700002 0.059450272 1.6682584e-38 360 199
0.059450272 0.82700002 0.059450272 1.63138e-38 361 199
0.060900278 0.82700002 0.059450272 1.5670949e-38 362 199
0.062350284 0.82700002 0.059450272 1.5394722e-38 363 199
0.06380029 0.82700002 0.059450272 1.5668078e-38 364 199
0.065092497 0.82499999 0.059306499 1.5299655e-38 365 199
0.066538997 0.82499999 0.059306499 1.4472463e-38 366 199
0.067985497 0.82499999 0.059306499 1.4472463e-38 367 199
-0.063645996 0.82499999 0.057859998 1.7792312e-38 276 200
-0.062199496 0.82499999 0.057859998 1.6685964e-38 277 200
-0.060752995 0.82499999 0.057859998 1.6499716e-38 278 200
-0.059306499 0.82499999 0.057859998 1.5301174e-38 279 200
-0.057859998 0.82499999 0.057859998 1.5942887e-38 280 200
-0.056550261 0.82700002 0.058000267 1.6404223e-38 281 200
-0.054966997 0.82499999 0.057859998 1.6865546e-38 282 200
-0.053520497 0.82499999 0.057859998 1.6958101e-38 283 200
-0.052200239 0.82700002 0.058000267 1.714141e-38 284 200
-0.050750233 0.82700002 0.058000267 1.7233606e-38 285 200
-0.049300224 0.82700002 0.058000267 1.6957748e-38 286 200
-0.047850218 0.82700002 0.058000267 1.7049943e-38 287 200
-0.046400212 0.82700002 0.058000267 1.7048514e-38 288 200
-0.044950206 0.82700002 0.058000267 1.7140709e-38 289 200
-0.0435002 0.82700002 0.058000267 1.6865567e-38 290 200
-0.04205019 0.82700002 0.058000267 1.6957763e-38 291 200
-0.040600184 0.82700002 0.058000267 1.7232922e-38 292 200
-0.039150178 0.82700002 0.058000267 1.7232922e-38 293 200
-0.037700173 0.82700002 0.058000267 1.7141802e-38 294 200
-0.036250167 0.82700002 0.058000267 1.7141802e-38 295 200
-0.034800157 0.82700002 0.058000267 1.714323e-38 296 200
-0.033269498 0.82499999 0.057859998 1.6958841e-38 297 200
-0.031822998 0.82499999 0.057859998 1.7142509e-38 298 200
-0.030450139 0.82700002 0.058000267 1.7050313e-38 299 200
-0.029000133 0.82700002 0.058000267 1.705031e-38 300 200
-0.027550125 0.82700002 0.058000267 1.6958113e-38 301 200
-0.02610012 0.82700002 0.058000267 1.6958116e-38 302 200
-0.024590498 0.82499999 0.057859998 1.6681531e-38 303 200
-0.023143999 0.82499999 0.057859998 1.668083e-38 304 200
-0.021697499 0.82499999 0.057859998 1.6588634e-38 305 200
-0.020300092 0.82700002 0.058000267 1.631277e-38 306 200
-0.018850086 0.82700002 0.058000267 1.631277e-38 307 200
-0.017400078 0.82700002 0.058000267 1.6220925e-38 308 200
-0.015988646 0.829 0.058140531 1.6128728e-38 309 200
-0.014535133 0.829 0.058140531 1.6220195e-38 310 200
-0.01305006 0.82700002 0.058000267 1.6036164e-38 311 200
-0.011600053 0.82700002 0.058000267 1.6036167e-38 312 200
-0.010174593 0.829 0.058140531 1.5851417e-38 313 200
-0.0087210797 0.829 0.058140531 1.5576277e-38 314 200
-0.0072675664 0.829 0.058140531 1.5484082e-38 315 200
-0.0058140531 0.829 0.058140531 1.5575203e-38 316 200
-0.0043605398 0.829 0.058140531 1.5483006e-38 317 200
-0.0029070266 0.829 0.058140531 1.5483362e-38 318 200
-0.0014535133 0.829 0.058140531 1.5483362e-38 319 200
0 0.829 0.058140531 1.5390088e-38 320 200
0.0014535133 0.829 0.058140531 1.5574478e-38 321 200
0.0029070266 0.829 0.058140531 1.5115302e-38 322 200
0.0043605398 0.829 0.058140531 1.5207498e-38 323 200
0.0058140531 0.829 0.058140531 1.5022748e-38 324 200
0.0072675664 0.829 0.058140531 1.5022748e-38 325 200
0.0087210797 0.829 0.058140531 1.5022751e-38 326 200
0.010174593 0.829 0.058140531 1.5022751e-38 327 200
0.011628106 0.829 0.058140531 1.5114949e-38 328 200
0.01308162 0.829 0.058140531 1.5114949e-38 329 200
0.014535133 0.829 0.058140531 1.5206791e-38 330 200
0.015950073 0.82700002 0.058000267 1.5390824e-38 331 200
0.017400078 0.82700002 0.058000267 1.5390474e-38 332 200
0.018850086 0.82700002 0.058000267 1.5482669e-38 333 200
0.020300092 0.82700002 0.058000267 1.5483025e-38 334 200
0.0217501 0.82700002 0.058000267 1.5667416e-38 335 200
0.023200106 0.82700002 0.058000267 1.5484808e-38 336 200
0.024650112 0.82700002 0.058000267 1.5668839e-38 337 200
0.02610012 0.82700002 0.058000267 1.5577722e-38 338 200
0.027550125 0.82700002 0.058000267 1.5669918e-38 339 200
0.029000133 0.82700002 0.058000267 1.5578445e-38 340 200
0.030450139 0.82700002 0.058000267 1.5762836e-38 341 200
0.031900145 0.82700002 0.058000267 1.5946502e-38 342 200
0.033350151 0.82700002 0.058000267 1.6038697e-38 343 200
0.034800157 0.82700002 0.058000267 1.6130893e-38 344 200
0.036250167 0.82700002 0.058000267 1.6223089e-38 345 200
0.037700173 0.82700002 0.058000267 1.6498599e-38 346 200
0.039150178 0.82700002 0.058000267 1.6591155e-38 347 200
0.040600184 0.82700002 0.058000267 1.6683348e-38 348 200
0.04205019 0.82700002 0.058000267 1.6591152e-38 349 200
0.0435002 0.82700002 0.058000267 1.6775171e-38 350 200
0.044950206 0.82700002 0.058000267 1.6682615e-38 351 200
0.046400212 0.82700002 0.058000267 1.6958113e-38 352 200
0.047850218 0.82700002 0.058000267 1.705031e-38 353 200
0.049300224 0.82700002 0.058000267 1.686735e-38 354 200
0.050750233 0.82700002 0.058000267 1.686735e-38 355 200
0.052200239 0.82700002 0.058000267 1.6775867e-38 356 200
0.053650245 0.82700002 0.058000267 1.6775867e-38 357 200
0.055100251 0.82700002 0.058000267 1.7051363e-38 358 200
0.056413498 0.82499999 0.057859998 1.6866971e-38 359 200
0.057859998 0.82499999 0.057859998 1.6867675e-38 360 200
0.059450272 0.82700002 0.058000267 1.6591448e-38 361 200
0.060752995 0.82499999 0.057859998 1.6681839e-38 362 200
0.062199496 0.82499999 0.057859998 1.6589643e-38 363 200
0.063645996 0.82499999 0.057859998 1.6403827e-38 364 200
0.065092497 0.82499999 0.057859998 1.6219434e-38 365 200
0.066538997 0.82499999 0.057859998 1.5299653e-38 366 200
0.067985497 0.82499999 0.057859998 1.493051e-38 367 200
0.069431998 0.82499999 0.057859998 1.3827444e-38 368 200
-0.0652503 0.82700002 0.056550261 1.5857999e-38 275 201
-0.063645996 0.82499999 0.056413498 1.5395171e-38 276 201
-0.062199496 0.82499999 0.056413498 1.4749801e-38 277 201
-0.060752995 0.82499999 0.056413498 1.5760316e-38 278 201
-0.059306499 0.82499999 0.056413498 1.6221294e-38 279 201
-0.057859998 0.82499999 0.056413498 1.6681884e-38 280 201
-0.056413498 0.82499999 0.056413498 1.6681884e-38 281 201
-0.054966997 0.82499999 0.056413498 1.6866618e-38 282 201
-0.053520497 0.82499999 0.056413498 1.7051368e-38 283 201
-0.052073997 0.82499999 0.056413498 1.7418001e-38 284 201
-0.0506275 0.82499999 0.056413498 1.7233609e-38 285 201
-0.049180996 0.82499999 0.056413498 1.6771551e-38 286 201
-0.047734499 0.82499999 0.056413498 1.6126182e-38 287 201
-0.046400212 0.82700002 0.056550261 1.5758125e-38 288 201
-0.044950206 0.82700002 0.056550261 1.5942517e-38 289 201
-0.0435002 0.82700002 0.056550261 1.6311675e-38 290 201
-0.041948497 0.82499999 0.056413498 1.6864848e-38 291 201
-0.040502001 0.82499999 0.056413498 1.6956691e-38 292 201
-0.039055496 0.82499999 0.056413498 1.7232919e-38 293 201
-0.037608996 0.82499999 0.056413498 1.704996e-38 294 201
-0.036162499 0.82499999 0.056413498 1.704996e-38 295 201
-0.034715999 0.82499999 0.056413498 1.6958113e-38 296 201
-0.033269498 0.82499999 0.056413498 1.6958113e-38 297 201
-0.031822998 0.82499999 0.056413498 1.6957392e-38 298 201
-0.030376498 0.82499999 0.056413498 1.6865196e-38 299 201
-0.028929999 0.82499999 0.056413498 1.6865552e-38 300 201
-0.027483499 0.82499999 0.056413498 1.6773356e-38 301 201
-0.026036998 0.82499999 0.056413498 1.6588605e-38 302 201
-0.024590498 0.82499999 0.056413498 1.6404574e-38 303 201
-0.023143999 0.82499999 0.056413498 1.6495337e-38 304 201
-0.021697499 0.82499999 0.056413498 1.6403142e-38 305 201
-0.020300092 0.82700002 0.056550261 1.6402788e-38 306 201
-0.018850086 0.82700002 0.056550261 1.6218757e-38 307 201
-0.017400078 0.82700002 0.056550261 1.6126915e-38 308 201
-0.015988646 0.829 0.05668702 1.6034719e-38 309 201
-0.014535133 0.829 0.05668702 1.5942519e-38 310 201
-0.01305006 0.82700002 0.056550261 1.5850324e-38 311 201
-0.011600053 0.82700002 0.056550261 1.5391145e-38 312 201
-0.010174593 0.829 0.05668702 1.5391145e-38 313 201
-0.0087210797 0.829 0.05668702 1.5390419e-38 314 201
-0.0072675664 0.829 0.05668702 1.5390419e-38 315 201
-0.0058140531 0.829 0.05668702 1.5481896e-38 316 201
-0.0043605398 0.829 0.05668702 1.53897e-38 317 201
-0.0029070266 0.829 0.05668702 1.5481899e-38 318 201
-0.0014535133 0.829 0.05668702 1.5297147e-38 319 201
0 0.829 0.05668702 1.5389347e-38 320 201
0.0014535133 0.829 0.05668702 1.529715e-38 321 201
0.0029070266 0.829 0.05668702 1.5114202e-38 322 201
0.0043605398 0.829 0.05668702 1.5114202e-38 323 201
0.0058140531 0.829 0.05668702 1.4929809e-38 324 201
0.0072675664 0.829 0.05668702 1.4929809e-38 325 201
0.0087210797 0.829 0.05668702 1.4929456e-38 326 201
0.010174593 0.829 0.05668702 1.4929456e-38 327 201
0.011628106 0.829 0.05668702 1.4745791e-38 328 201
0.01308162 0.829 0.05668702 1.4837987e-38 329 201
0.014535133 0.829 0.05668702 1.4930189e-38 330 201
0.015950073 0.82700002 0.056550261 1.4930189e-38 331 201
0.017400078 0.82700002 0.056550261 1.5296816e-38 332 201
0.018850086 0.82700002 0.056550261 1.5389012e-38 333 201
0.020300092 0.82700002 0.056550261 1.5205697e-38 334 201
0.0217501 0.82700002 0.056550261 1.5390088e-38 335 201
0.023200106 0.82700002 0.056550261 1.5390797e-38 336 201
0.024650112 0.82700002 0.056550261 1.5574828e-38 337 201
0.02610012 0.82700002 0.056550261 1.5392229e-38 338 201
0.027550125 0.82700002 0.056550261 1.5392229e-38 339 201
0.029000133 0.82700002 0.056550261 1.5484427e-38 340 201
0.030450139 0.82700002 0.056550261 1.5576981e-38 341 201
0.031900145 0.82700002 0.056550261 1.5668826e-38 342 201
0.033350151 0.82700002 0.056550261 1.5761022e-38 343 201
0.034800157 0.82700002 0.056550261 1.5577719e-38 344 201
0.036250167 0.82700002 0.056550261 1.5946502e-38 345 201
0.037700173 0.82700002 0.056550261 1.6496439e-38 346 201
0.039150178 0.82700002 0.056550261 1.6588634e-38 347 201
0.040600184 0.82700002 0.056550261 1.6314561e-38 348 201
0.04205019 0.82700002 0.056550261 1.6406757e-38 349 201
0.0435002 0.82700002 0.056550261 1.6682265e-38 350 201
0.044950206 0.82700002 0.056550261 1.6774462e-38 351 201
0.046400212 0.82700002 0.056550261 1.6591506e-38 352 201
0.047850218 0.82700002 0.056550261 1.6683701e-38 353 201
0.049300224 0.82700002 0.056550261 1.6867367e-38 354 201
0.050750233 0.82700002 0.056550261 1.6867367e-38 355 201
0.052200239 0.82700002 0.056550261 1.6684773e-38 356 201
0.053650245 0.82700002 0.056550261 1.6684773e-38 357 201
0.054966997 0.82499999 0.056413498 1.6776247e-38 358 201
0.056413498 0.82499999 0.056413498 1.6684051e-38 359 201
0.057859998 0.82499999 0.056413498 1.6592205e-38 360 201
0.059306499 0.82499999 0.056413498 1.6500009e-38 361 201
0.060752995 0.82499999 0.056413498 1.6499287e-38 362 201
0.062199496 0.82499999 0.056413498 1.6407092e-38 363 201
0.063645996 0.82499999 0.056413498 1.640529e-38 364 201
0.064934701 0.82300001 0.056276739 1.6036867e-38 365 201
0.066377692 0.82300001 0.056276739 1.5759204e-38 366 201
0.067985497 0.82499999 0.056413498 1.5667009e-38 367 201
0.069431998 0.82499999 0.056413498 1.5206766e-38 368 201
0.070878498 0.82499999 0.056413498 1.5114571e-38 369 201
-0.066700302 0.82700002 0.055100251 1.6410414e-38 274 202
-0.0652503 0.82700002 0.055100251 1.502748e-38 275 202
-0.063645996 0.82499999 0.054966997 1.539331e-38 276 202
-0.062199496 0.82499999 0.054966997 1.5485864e-38 277 202
-0.060752995 0.82499999 0.054966997 1.6588955e-38 278 202
-0.059306499 0.82499999 0.054966997 1.6865902e-38 279 202
-0.057859998 0.82499999 0.054966997 1.6958101e-38 280 202
-0.056413498 0.82499999 0.054966997 1.6958101e-38 281 202
-0.054966997 0.82499999 0.054966997 1.7234678e-38 282 202
-0.053520497 0.82499999 0.054966997 1.6866255e-38 283 202
-0.052073997 0.82499999 0.054966997 1.6863381e-38 284 202
-0.0506275 0.82499999 0.054966997 1.6218012e-38 285 202
-0.049180996 0.82499999 0.054966997 1.5482246e-38 286 202
-0.047734499 0.82499999 0.054966997 1.4929072e-38 287 202
-0.046287999 0.82499999 0.054966997 1.5021639e-38 288 202
-0.044841498 0.82499999 0.054966997 1.5482617e-38 289 202
-0.043394998 0.82499999 0.054966997 1.6219123e-38 290 202
-0.041948497 0.82499999 0.054966997 1.6772297e-38 291 202
-0.040502001 0.82499999 0.054966997 1.6680827e-38 292 202
-0.039055496 0.82499999 0.054966997 1.6865217e-38 293 202
-0.037608996 0.82499999 0.054966997 1.6681899e-38 294 202
-0.036162499 0.82499999 0.054966997 1.6589703e-38 295 202
-0.034715999 0.82499999 0.054966997 1.6590057e-38 296 202
-0.033269498 0.82499999 0.054966997 1.6497861e-38 297 202
-0.031822998 0.82499999 0.054966997 1.6313827e-38 298 202
-0.030376498 0.82499999 0.054966997 1.6221631e-38 299 202
-0.028929999 0.82499999 0.054966997 1.6221631e-38 300 202
-0.027483499 0.82499999 0.054966997 1.603688e-38 301 202
-0.026036998 0.82499999 0.054966997 1.5944684e-38 302 202
-0.024590498 0.82499999 0.054966997 1.5944684e-38 303 202
-0.023143999 0.82499999 0.054966997 1.575994e-38 304 202
-0.021697499 0.82499999 0.054966997 1.5575909e-38 305 202
-0.020300092 0.82700002 0.055100251 1.5483356e-38 306 202
-0.018850086 0.82700002 0.055100251 1.5483356e-38 307 202
-0.017400078 0.82700002 0.055100251 1.557411e-38 308 202
-0.015950073 0.82700002 0.055100251 1.557411e-38 309 202
-0.014535133 0.829 0.055233505 1.5206403e-38 310 202
-0.01308162 0.829 0.055233505 1.5206403e-38 311 202
-0.011628106 0.829 0.055233505 1.483869e-38 312 202
-0.010174593 0.829 0.055233505 1.4654299e-38 313 202
-0.0087210797 0.829 0.055233505 1.4562088e-38 314 202
-0.0072675664 0.829 0.055233505 1.4562088e-38 315 202
-0.0058140531 0.829 0.055233505 1.4469891e-38 316 202
-0.0043605398 0.829 0.055233505 1.4469891e-38 317 202
-0.0029070266 0.829 0.055233505 1.4285874e-38 318 202
-0.0014535133 0.829 0.055233505 1.4193676e-38 319 202
0 0.829 0.055233505 1.4376633e-38 320 202
0.0014535133 0.829 0.055233505 1.4376633e-38 321 202
0.0029070266 0.829 0.055233505 1.4193323e-38 322 202
0.0043605398 0.829 0.055233505 1.4101128e-38 323 202
0.0058140531 0.829 0.055233505 1.3825617e-38 324 202
0.0072675664 0.829 0.055233505 1.3825617e-38 325 202
0.0087210797 0.829 0.055233505 1.3824914e-38 326 202
0.010174593 0.829 0.055233505 1.3824914e-38 327 202
0.011628106 0.829 0.055233505 1.3734177e-38 328 202
0.01308162 0.829 0.055233505 1.3734177e-38 329 202
0.014535133 0.829 0.055233505 1.4102242e-38 330 202
0.015988646 0.829 0.055233505 1.4194437e-38 331 202
0.017442159 0.829 0.055233505 1.437775e-38 332 202
0.018850086 0.82700002 0.055100251 1.4469945e-38 333 202
0.020300092 0.82700002 0.055100251 1.4745808e-38 334 202
0.0217501 0.82700002 0.055100251 1.4745808e-38 335 202
0.023200106 0.82700002 0.055100251 1.4837638e-38 336 202
0.024650112 0.82700002 0.055100251 1.5113864e-38 337 202
0.02610012 0.82700002 0.055100251 1.4656116e-38 338 202
0.027550125 0.82700002 0.055100251 1.4748312e-38 339 202
0.029000133 0.82700002 0.055100251 1.4840507e-38 340 202
0.030450139 0.82700002 0.055100251 1.4840507e-38 341 202
0.031900145 0.82700002 0.055100251 1.4933425e-38 342 202
0.033350151 0.82700002 0.055100251 1.5117817e-38 343 202
0.034800157 0.82700002 0.055100251 1.5392256e-38 344 202
0.036250167 0.82700002 0.055100251 1.5668842e-38 345 202
0.037700173 0.82700002 0.055100251 1.5852161e-38 346 202
0.039150178 0.82700002 0.055100251 1.6036193e-38 347 202
0.040600184 0.82700002 0.055100251 1.6220941e-38 348 202
0.04205019 0.82700002 0.055100251 1.6313136e-38 349 202
0.0435002 0.82700002 0.055100251 1.6130896e-38 350 202
0.044950206 0.82700002 0.055100251 1.6223092e-38 351 202
0.046400212 0.82700002 0.055100251 1.6498955e-38 352 202
0.047850218 0.82700002 0.055100251 1.6591152e-38 353 202
0.049300224 0.82700002 0.055100251 1.6591506e-38 354 202
0.050750233 0.82700002 0.055100251 1.6683701e-38 355 202
0.052073997 0.82499999 0.054966997 1.6684417e-38 356 202
0.053520497 0.82499999 0.054966997 1.6684417e-38 357 202
0.054966997 0.82499999 0.054966997 1.668477e-38 358 202
0.056276739 0.82300001 0.054833744 1.6592575e-38 359 202
0.057719734 0.82300001 0.054833744 1.6867717e-38 360 202
0.059162725 0.82300001 0.054833744 1.6867717e-38 361 202
0.06060572 0.82300001 0.054833744 1.6866994e-38 362 202
0.062048711 0.82300001 0.054833744 1.6682603e-38 363 202
0.06349171 0.82300001 0.054833744 1.6589685e-38 364 202
0.064934701 0.82300001 0.054833744 1.6405293e-38 365 202
0.066377692 0.82300001 0.054833744 1.6678634e-38 366 202
0.067985497 0.82499999 0.054966997 1.631021e-38 367 202
0.069431998 0.82499999 0.054966997 1.5850674e-38 368 202
0.070706673 0.82300001 0.054833744 1.5481893e-38 369 202
0.072149664 0.82300001 0.054833744 1.4286608e-38 370 202
-0.069431998 0.82499999 0.053520497 1.7148712e-38 272 203
-0.067985497 0.82499999 0.053520497 1.5212604e-38 273 203
-0.066700302 0.82700002 0.053650245 1.5301858e-38 274 203
-0.0652503 0.82700002 0.053650245 1.5209663e-38 275 203
-0.063645996 0.82499999 0.053520497 1.6130854e-38 276 203
-0.062199496 0.82499999 0.053520497 1.6407442e-38 277 203
-0.060752995 0.82499999 0.053520497 1.686625e-38 278 203
-0.059306499 0.82499999 0.053520497 1.7051e-38 279 203
-0.057859998 0.82499999 0.053520497 1.7051363e-38 280 203
-0.056413498 0.82499999 0.053520497 1.7051363e-38 281 203
-0.054966997 0.82499999 0.053520497 1.714141e-38 282 203
-0.053520497 0.82499999 0.053520497 1.5942867e-38 283 203
-0.052073997 0.82499999 0.053520497 1.4927273e-38 284 203
-0.0506275 0.82499999 0.053520497 1.4558491e-38 285 203
-0.049180996 0.82499999 0.053520497 1.4374469e-38 286 203
-0.047734499 0.82499999 0.053520497 1.4651415e-38 287 203
-0.046287999 0.82499999 0.053520497 1.4928369e-38 288 203
-0.044841498 0.82499999 0.053520497 1.5481543e-38 289 203
-0.043394998 0.82499999 0.053520497 1.6126559e-38 290 203
-0.041948497 0.82499999 0.053520497 1.6771928e-38 291 203
-0.040502001 0.82499999 0.053520497 1.6588987e-38 292 203
-0.039055496 0.82499999 0.053520497 1.6681183e-38 293 203
-0.037608996 0.82499999 0.053520497 1.6497505e-38 294 203
-0.036162499 0.82499999 0.053520497 1.6313474e-38 295 203
-0.034631841 0.82300001 0.053390753 1.6221631e-38 296 203
-0.033188846 0.82300001 0.053390753 1.6129076e-38 297 203
-0.031745855 0.82300001 0.053390753 1.6220192e-38 298 203
-0.030376498 0.82499999 0.053520497 1.6036161e-38 299 203
-0.028929999 0.82499999 0.053520497 1.5943966e-38 300 203
-0.027483499 0.82499999 0.053520497 1.585177e-38 301 203
-0.026036998 0.82499999 0.053520497 1.5758498e-38 302 203
-0.024590498 0.82499999 0.053520497 1.5666302e-38 303 203
-0.023143999 0.82499999 0.053520497 1.557446e-38 304 203
-0.021697499 0.82499999 0.053520497 1.5390069e-38 305 203
-0.020251 0.82499999 0.053520497 1.5481899e-38 306 203
-0.018850086 0.82700002 0.053650245 1.5389344e-38 307 203
-0.017400078 0.82700002 0.053650245 1.5204952e-38 308 203
-0.015950073 0.82700002 0.053650245 1.5112756e-38 309 203
-0.014500067 0.82700002 0.053650245 1.4837245e-38 310 203
-0.01308162 0.829 0.053779993 1.4652854e-38 311 203
-0.011628106 0.829 0.053779993 1.4376623e-38 312 203
-0.010174593 0.829 0.053779993 1.4099677e-38 313 203
-0.0087210797 0.829 0.053779993 1.3548657e-38 314 203
-0.0072675664 0.829 0.053779993 1.3456462e-38 315 203
-0.0058140531 0.829 0.053779993 1.3455387e-38 316 203
-0.0043605398 0.829 0.053779993 1.3363191e-38 317 203
-0.0029070266 0.829 0.053779993 1.3271717e-38 318 203
-0.0014535133 0.829 0.053779993 1.3179163e-38 319 203
0 0.829 0.053779993 1.3178447e-38 320 203
0.0014535133 0.829 0.053779993 1.3178447e-38 321 203
0.0029070266 0.829 0.053779993 1.3178094e-38 322 203
0.0043605398 0.829 0.053779993 1.3085897e-38 323 203
0.0058140531 0.829 0.053779993 1.271819e-38 324 203
0.0072675664 0.829 0.053779993 1.2625995e-38 325 203
0.0087210797 0.829 0.053779993 1.2626721e-38 326 203
0.010174593 0.829 0.053779993 1.2903308e-38 327 203
0.011628106 0.829 0.053779993 1.3179544e-38 328 203
0.01308162 0.829 0.053779993 1.3455771e-38 329 203
0.014535133 0.829 0.053779993 1.3364658e-38 330 203
0.015988646 0.829 0.053779993 1.3456854e-38 331 203
0.017442159 0.829 0.053779993 1.3733434e-38 332 203
0.018895673 0.829 0.053779993 1.382563e-38 333 203
0.020349186 0.829 0.053779993 1.4376282e-38 334 203
0.021802699 0.829 0.053779993 1.446848e-38 335 203
0.023200106 0.82700002 0.053650245 1.4469201e-38 336 203
0.024650112 0.82700002 0.053650245 1.4561397e-38 337 203
0.02610012 0.82700002 0.053650245 1.447028e-38 338 203
0.027550125 0.82700002 0.053650245 1.4562476e-38 339 203
0.029000133 0.82700002 0.053650245 1.4288406e-38 340 203
0.030450139 0.82700002 0.053650245 1.4380603e-38 341 203
0.031900145 0.82700002 0.053650245 1.474759e-38 342 203
0.033350151 0.82700002 0.053650245 1.4839786e-38 343 203
0.034800157 0.82700002 0.053650245 1.5298612e-38 344 203
0.036250167 0.82700002 0.053650245 1.5483362e-38 345 203
0.037700173 0.82700002 0.053650245 1.5666322e-38 346 203
0.039150178 0.82700002 0.053650245 1.5850713e-38 347 203
0.040600184 0.82700002 0.053650245 1.5760318e-38 348 203
0.041948497 0.82499999 0.053520497 1.6036547e-38 349 203
0.043394998 0.82499999 0.053520497 1.5946149e-38 350 203
0.044841498 0.82499999 0.053520497 1.6038344e-38 351 203
0.046287999 0.82499999 0.053520497 1.6130893e-38 352 203
0.047734499 0.82499999 0.053520497 1.6223089e-38 353 203
0.049180996 0.82499999 0.053520497 1.6682265e-38 354 203
0.0506275 0.82499999 0.053520497 1.6774462e-38 355 203
0.052073997 0.82499999 0.053520497 1.6591868e-38 356 203
0.053520497 0.82499999 0.053520497 1.6684064e-38 357 203
0.054833744 0.82300001 0.053390753 1.67759e-38 358 203
0.056276739 0.82300001 0.053390753 1.67759e-38 359 203
0.057719734 0.82300001 0.053390753 1.6775897e-38 360 203
0.059162725 0.82300001 0.053390753 1.6775897e-38 361 203
0.06060572 0.82300001 0.053390753 1.6959562e-38 362 203
0.062048711 0.82300001 0.053390753 1.6867367e-38 363 203
0.06349171 0.82300001 0.053390753 1.6774445e-38 364 203
0.064934701 0.82300001 0.053390753 1.6682249e-38 365 203
0.066377692 0.82300001 0.053390753 1.686483e-38 366 203
0.067820683 0.82300001 0.053390753 1.6495688e-38 367 203
0.069431998 0.82499999 0.053520497 1.5943586e-38 368 203
0.070706673 0.82300001 0.053390753 1.5667359e-38 369 203
0.072149664 0.82300001 0.053390753 1.5207472e-38 370 203
0.073592655 0.82300001 0.053390753 1.483869e-38 371 203
0.075035654 0.82300001 0.053390753 1.3734177e-38 372 203
-0.071050331 0.82700002 0.052200239 1.5951273e-38 271 204
-0.069431998 0.82499999 0.052073997 1.6040891e-38 272 204
-0.067985497 0.82499999 0.052073997 1.5303325e-38 273 204
-0.066700302 0.82700002 0.052200239 1.6129432e-38 274 204
-0.0652503 0.82700002 0.052200239 1.6221629e-38 275 204
-0.063645996 0.82499999 0.052073997 1.6591464e-38 276 204
-0.062199496 0.82499999 0.052073997 1.6775855e-38 277 204
-0.060752995 0.82499999 0.052073997 1.7051716e-38 278 204
-0.059306499 0.82499999 0.052073997 1.7051716e-38 279 204
-0.057859998 0.82499999 0.052073997 1.6959897e-38 280 204
-0.056413498 0.82499999 0.052073997 1.6498559e-38 281 204
-0.054966997 0.82499999 0.052073997 1.5667006e-38 282 204
-0.053520497 0.82499999 0.052073997 1.474505e-38 283 204
-0.052073997 0.82499999 0.052073997 1.4649617e-38 284 204
-0.0506275 0.82499999 0.052073997 1.4649617e-38 285 204
-0.049180996 0.82499999 0.052073997 1.446668e-38 286 204
-0.047734499 0.82499999 0.052073997 1.4743627e-38 287 204
-0.046287999 0.82499999 0.052073997 1.4838693e-38 288 204
-0.044841498 0.82499999 0.052073997 1.5299671e-38 289 204
-0.043394998 0.82499999 0.052073997 1.6127268e-38 290 204
-0.041948497 0.82499999 0.052073997 1.649569e-38 291 204
-0.040502001 0.82499999 0.052073997 1.6588256e-38 292 204
-0.039055496 0.82499999 0.052073997 1.6404223e-38 293 204
-0.037608996 0.82499999 0.052073997 1.6312747e-38 294 204
-0.036162499 0.82499999 0.052073997 1.6036161e-38 295 204
-0.034631841 0.82300001 0.051947758 1.6036161e-38 296 204
-0.033188846 0.82300001 0.051947758 1.585177e-38 297 204
-0.031745855 0.82300001 0.051947758 1.5851767e-38 298 204
-0.030376498 0.82499999 0.052073997 1.5759571e-38 299 204
-0.028929999 0.82499999 0.052073997 1.5667009e-38 300 204
-0.027483499 0.82499999 0.052073997 1.5574813e-38 301 204
-0.026036998 0.82499999 0.052073997 1.5482617e-38 302 204
-0.024590498 0.82499999 0.052073997 1.5113835e-38 303 204
-0.023143999 0.82499999 0.052073997 1.4836892e-38 304 204
-0.021697499 0.82499999 0.052073997 1.4652501e-38 305 204
-0.020251 0.82499999 0.052073997 1.437627e-38 306 204
-0.018850086 0.82700002 0.052200239 1.4191879e-38 307 204
-0.017400078 0.82700002 0.052200239 1.3730898e-38 308 204
-0.015950073 0.82700002 0.052200239 1.3638702e-38 309 204
-0.014500067 0.82700002 0.052200239 1.31788e-38 310 204
-0.01308162 0.829 0.052326478 1.3086603e-38 311 204
-0.011628106 0.829 0.052326478 1.2718541e-38 312 204
-0.010174593 0.829 0.052326478 1.2350118e-38 313 204
-0.0087210797 0.829 0.052326478 1.2256484e-38 314 204
-0.0072675664 0.829 0.052326478 1.2256484e-38 315 204
-0.0058140531 0.829 0.052326478 1.2256489e-38 316 204
-0.0043605398 0.829 0.052326478 1.2072099e-38 317 204
-0.0029070266 0.829 0.052326478 1.2072102e-38 318 204
-0.0014535133 0.829 0.052326478 1.1979907e-38 319 204
0 0.829 0.052326478 1.2071026e-38 320 204
0.0014535133 0.829 0.052326478 1.2163222e-38 321 204
0.0029070266 0.829 0.052326478 1.1979919e-38 322 204
0.0043605398 0.829 0.052326478 1.1703692e-38 323 204
0.0058140531 0.829 0.052326478 1.1887005e-38 324 204
0.0072675664 0.829 0.052326478 1.1887005e-38 325 204
0.0087210797 0.829 0.052326478 1.1427464e-38 326 204
0.010174593 0.829 0.052326478 1.1427464e-38 327 204
0.011628106 0.829 0.052326478 1.188737e-38 328 204
0.01308162 0.829 0.052326478 1.207212e-38 329 204
0.014535133 0.829 0.052326478 1.1982087e-38 330 204
0.015988646 0.829 0.052326478 1.2074283e-38 331 204
0.017442159 0.829 0.052326478 1.2350502e-38 332 204
0.018895673 0.829 0.052326478 1.2534894e-38 333 204
0.020349186 0.829 0.052326478 1.2443774e-38 334 204
0.021802699 0.829 0.052326478 1.2720361e-38 335 204
0.023200106 0.82700002 0.052200239 1.3180263e-38 336 204
0.024650112 0.82700002 0.052200239 1.3456851e-38 337 204
0.02610012 0.82700002 0.052200239 1.3366456e-38 338 204
0.027550125 0.82700002 0.052200239 1.3642683e-38 339 204
0.029000133 0.82700002 0.052200239 1.3735602e-38 340 204
0.030450139 0.82700002 0.052200239 1.3827797e-38 341 204
0.031900145 0.82700002 0.052200239 1.4470283e-38 342 204
0.033350151 0.82700002 0.052200239 1.474651e-38 343 204
0.034800157 0.82700002 0.052200239 1.4930184e-38 344 204
0.036250167 0.82700002 0.052200239 1.5206769e-38 345 204
0.037700173 0.82700002 0.052200239 1.5297893e-38 346 204
0.039150178 0.82700002 0.052200239 1.5574478e-38 347 204
0.040600184 0.82700002 0.052200239 1.5483729e-38 348 204
0.041948497 0.82499999 0.052073997 1.5575924e-38 349 204
0.043394998 0.82499999 0.052073997 1.5669192e-38 350 204
0.044841498 0.82499999 0.052073997 1.5853583e-38 351 204
0.046287999 0.82499999 0.052073997 1.5946131e-38 352 204
0.047734499 0.82499999 0.052073997 1.6038685e-38 353 204
0.049061771 0.82300001 0.051947758 1.6497861e-38 354 204
0.050504766 0.82300001 0.051947758 1.6590057e-38 355 204
0.051947758 0.82300001 0.051947758 1.6315991e-38 356 204
0.053390753 0.82300001 0.051947758 1.6500023e-38 357 204
0.054833744 0.82300001 0.051947758 1.6591506e-38 358 204
0.05613998 0.82099998 0.051821519 1.6683701e-38 359 204
0.057579465 0.82099998 0.051821519 1.6683698e-38 360 204
0.059018951 0.82099998 0.051821519 1.6775894e-38 361 204
0.060458437 0.82099998 0.051821519 1.677625e-38 362 204
0.061897919 0.82099998 0.051821519 1.677625e-38 363 204
0.063337415 0.82099998 0.051821519 1.6866645e-38 364 204
0.064776897 0.82099998 0.051821519 1.6866645e-38 365 204
0.066216379 0.82099998 0.051821519 1.6865562e-38 366 204
0.067820683 0.82300001 0.051947758 1.6589335e-38 367 204
0.069263682 0.82300001 0.051947758 1.6313094e-38 368 204
0.070706673 0.82300001 0.051947758 1.5944672e-38 369 204
0.072149664 0.82300001 0.051947758 1.5760276e-38 370 204
0.073413812 0.82099998 0.051821519 1.52993e-38 371 204
0.074853301 0.82099998 0.051821519 1.4380959e-38 372 204
0.07629279 0.82099998 0.051821519 1.4012176e-38 373 204
0.077921636 0.82300001 0.051947758 1.3642725e-38 374 204
0.079364628 0.82300001 0.051947758 1.4472845e-38 375 204
0.080807626 0.82300001 0.051947758 1.374254e-38 376 204
0.082250617 0.82300001 0.051947758 1.5125474e-38 377 204
-0.072324999 0.82499999 0.0506275 1.6963954e-38 270 205
-0.070878498 0.82499999 0.0506275 1.5027846e-38 271 205
-0.069431998 0.82499999 0.0506275 1.5668836e-38 272 205
-0.067985497 0.82499999 0.0506275 1.6130174e-38 273 205
-0.066700302 0.82700002 0.050750233 1.6682587e-38 274 205
-0.065092497 0.82499999 0.0506275 1.6866618e-38 275 205
-0.063645996 0.82499999 0.0506275 1.7235381e-38 276 205
-0.062199496 0.82499999 0.0506275 1.7327577e-38 277 205
-0.060752995 0.82499999 0.0506275 1.7051363e-38 278 205
-0.059306499 0.82499999 0.0506275 1.7051363e-38 279 205
-0.057859998 0.82499999 0.0506275 1.6865199e-38 280 205
-0.056413498 0.82499999 0.0506275 1.6035438e-38 281 205
-0.054966997 0.82499999 0.0506275 1.4468115e-38 282 205
-0.053520497 0.82499999 0.0506275 1.419117e-38 283 205
-0.052073997 0.82499999 0.0506275 1.4742178e-38 284 205
-0.0506275 0.82499999 0.0506275 1.4742178e-38 285 205
-0.049180996 0.82499999 0.0506275 1.4836529e-38 286 205
-0.047734499 0.82499999 0.0506275 1.5204952e-38 287 205
-0.046287999 0.82499999 0.0506275 1.5207107e-38 288 205
-0.044841498 0.82499999 0.0506275 1.5667725e-38 289 205
-0.043394998 0.82499999 0.0506275 1.5852123e-38 290 205
-0.041948497 0.82499999 0.0506275 1.6036514e-38 291 205
-0.040403813 0.82300001 0.050504766 1.6036167e-38 292 205
-0.038960818 0.82300001 0.050504766 1.6036167e-38 293 205
-0.037517827 0.82300001 0.050504766 1.5759943e-38 294 205
-0.036074832 0.82300001 0.050504766 1.5483356e-38 295 205
-0.034631841 0.82300001 0.050504766 1.5483712e-38 296 205
-0.033188846 0.82300001 0.050504766 1.5483712e-38 297 205
-0.031745855 0.82300001 0.050504766 1.5574807e-38 298 205
-0.030376498 0.82499999 0.0506275 1.5298219e-38 299 205
-0.028929999 0.82499999 0.0506275 1.5113807e-38 300 205
-0.027483499 0.82499999 0.0506275 1.4929776e-38 301 205
-0.026036998 0.82499999 0.0506275 1.4928698e-38 302 205
-0.024590498 0.82499999 0.0506275 1.4652113e-38 303 205
-0.023200106 0.82700002 0.050750233 1.4007479e-38 304 205
-0.0217501 0.82700002 0.050750233 1.3639055e-38 305 205
-0.020300092 0.82700002 0.050750233 1.3270645e-38 306 205
-0.018850086 0.82700002 0.050750233 1.3086253e-38 307 205
-0.017400078 0.82700002 0.050750233 1.2625276e-38 308 205
-0.015988646 0.829 0.050872963 1.2348329e-38 309 205
-0.014535133 0.829 0.050872963 1.188843e-38 310 205
-0.01308162 0.829 0.050872963 1.188843e-38 311 205
-0.011628106 0.829 0.050872963 1.1703339e-38 312 205
-0.010174593 0.829 0.050872963 1.1703339e-38 313 205
-0.0087210797 0.829 0.050872963 1.1610443e-38 314 205
-0.0072675664 0.829 0.050872963 1.1518246e-38 315 205
-0.0058140531 0.829 0.050872963 1.1518257e-38 316 205
-0.0043605398 0.829 0.050872963 1.1518257e-38 317 205
-0.0029140399 0.83099997 0.050995696 1.1426064e-38 318 205
-0.0014570199 0.83099997 0.050995696 1.1426064e-38 319 205
0 0.83099997 0.050995696 1.1242032e-38 320 205
0.0014535133 0.829 0.050872963 1.1426064e-38 321 205
0.0029070266 0.829 0.050872963 1.1150199e-38 322 205
0.0043605398 0.829 0.050872963 1.1150199e-38 323 205
0.0058140531 0.829 0.050872963 1.1425344e-38 324 205
0.0072675664 0.829 0.050872963 1.1425344e-38 325 205
0.0087210797 0.829 0.050872963 1.1058001e-38 326 205
0.010174593 0.829 0.050872963 1.087397e-38 327 205
0.011628106 0.829 0.050872963 1.1059087e-38 328 205
0.01308162 0.829 0.050872963 1.1151282e-38 329 205
0.014535133 0.829 0.050872963 1.10598e-38 330 205
0.015988646 0.829 0.050872963 1.1152354e-38 331 205
0.017442159 0.829 0.050872963 1.1243454e-38 332 205
0.018895673 0.829 0.050872963 1.1243454e-38 333 205
0.020349186 0.829 0.050872963 1.1520749e-38 334 205
0.021802699 0.829 0.050872963 1.1796975e-38 335 205
0.023200106 0.82700002 0.050750233 1.2073917e-38 336 205
0.024650112 0.82700002 0.050750233 1.2442698e-38 337 205
0.02610012 0.82700002 0.050750233 1.2720361e-38 338 205
0.027550125 0.82700002 0.050750233 1.2996948e-38 339 205
0.029000133 0.82700002 0.050750233 1.3365375e-38 340 205
0.030450139 0.82700002 0.050750233 1.3549766e-38 341 205
0.031900145 0.82700002 0.050750233 1.373416e-38 342 205
0.033350151 0.82700002 0.050750233 1.4010747e-38 343 205
0.034800157 0.82700002 0.050750233 1.4378806e-38 344 205
0.036250167 0.82700002 0.050750233 1.4471002e-38 345 205
0.037700173 0.82700002 0.050750233 1.4379529e-38 346 205
0.039150178 0.82700002 0.050750233 1.4563921e-38 347 205
0.040600184 0.82700002 0.050750233 1.5023467e-38 348 205
0.041948497 0.82499999 0.0506275 1.5208217e-38 349 205
0.043394998 0.82499999 0.0506275 1.5301132e-38 350 205
0.044841498 0.82499999 0.0506275 1.5393328e-38 351 205
0.046175785 0.82300001 0.050504766 1.5485524e-38 352 205
0.04761878 0.82300001 0.050504766 1.5577719e-38 353 205
0.049061771 0.82300001 0.050504766 1.5670268e-38 354 205
0.050504766 0.82300001 0.050504766 1.5946855e-38 355 205
0.051947758 0.82300001 0.050504766 1.5855382e-38 356 205
0.053390753 0.82300001 0.050504766 1.6131968e-38 357 205
0.05470049 0.82099998 0.050382029 1.6315287e-38 358 205
0.05613998 0.82099998 0.050382029 1.649932e-38 359 205
0.057579465 0.82099998 0.050382029 1.6591871e-38 360 205
0.059018951 0.82099998 0.050382029 1.6591871e-38 361 205
0.060458437 0.82099998 0.050382029 1.6684417e-38 362 205
0.061897919 0.82099998 0.050382029 1.6684417e-38 363 205
0.063337415 0.82099998 0.050382029 1.6867367e-38 364 205
0.064776897 0.82099998 0.050382029 1.6867367e-38 365 205
0.066216379 0.82099998 0.050382029 1.695776e-38 366 205
0.067655869 0.82099998 0.050382029 1.6865564e-38 367 205
0.069263682 0.82300001 0.050504766 1.6498562e-38 368 205
0.070534848 0.82099998 0.050382029 1.6037583e-38 369 205
0.07197433 0.82099998 0.050382029 1.6128334e-38 370 205
0.073413812 0.82099998 0.050382029 1.5943942e-38 371 205
0.074853301 0.82099998 0.050382029 1.5391864e-38 372 205
0.07629279 0.82099998 0.050382029 1.5115277e-38 373 205
0.077921636 0.82300001 0.050504766 1.4562476e-38 374 205
0.079364628 0.82300001 0.050504766 1.4193693e-38 375 205
0.080807626 0.82300001 0.050504766 1.2633265e-38 376 205
0.082250617 0.82300001 0.050504766 1.4384982e-38 377 205
0.083693616 0.82300001 0.050504766 1.5399927e-38 378 205
0.0851366 0.82300001 0.050504766 1.6045296e-38 379 205
-0.072324999 0.82499999 0.049180996 1.5486635e-38 270 206
-0.070878498 0.82499999 0.049180996 1.5394439e-38 271 206
-0.069431998 0.82499999 0.049180996 1.6313824e-38 272 206
-0.067985497 0.82499999 0.049180996 1.659041e-38 273 206
-0.066538997 0.82499999 0.049180996 1.695917e-38 274 206
-0.065092497 0.82499999 0.049180996 1.7143562e-38 275 206
-0.063645996 0.82499999 0.049180996 1.7236114e-38 276 206
-0.062199496 0.82499999 0.049180996 1.714356e-38 277 206
-0.060752995 0.82499999 0.049180996 1.7050659e-38 278 206
-0.059162725 0.82300001 0.049061771 1.6590041e-38 279 206
-0.057719734 0.82300001 0.049061771 1.5666656e-38 280 206
-0.056276739 0.82300001 0.049061771 1.5021286e-38 281 206
-0.054833744 0.82300001 0.049061771 1.4373766e-38 282 206
-0.053390753 0.82300001 0.049061771 1.492694e-38 283 206
-0.051947758 0.82300001 0.049061771 1.4929091e-38 284 206
-0.050504766 0.82300001 0.049061771 1.5021286e-38 285 206
-0.049061771 0.82300001 0.049061771 1.5393286e-38 286 206
-0.04761878 0.82300001 0.049061771 1.5117059e-38 287 206
-0.046175785 0.82300001 0.049061771 1.5577314e-38 288 206
-0.044732794 0.82300001 0.049061771 1.5577314e-38 289 206
-0.043394998 0.82499999 0.049180996 1.6036139e-38 290 206
