# .PCD v.7 - Point Cloud Data file format
FIELDS x y z rgb imX imY
SIZE 4 4 4 4 4 4
TYPE F F F F F F
COUNT 1 1 1 1 1 1
WIDTH 855
HEIGHT 1
VIEWPOINT 0 0 0 1 0 0 0
POINTS 855
DATA ascii
0.063624956 0.67199999 -0.088367991 1.8155935e-38 374 315
0.064803198 0.67199999 -0.088367991 1.8155935e-38 375 315
0.065883249 0.671 -0.088236496 1.815701e-38 376 315
0.06705974 0.671 -0.088236496 1.8249205e-38 377 315
0.068236224 0.671 -0.088236496 1.8340685e-38 378 315
0.069102369 0.66799998 -0.087841995 1.8340685e-38 379 315
0.070273593 0.66799998 -0.087841995 1.8340332e-38 380 315
0.071658738 0.67000002 -0.088105001 1.8248136e-38 381 315
0.072942175 0.671 -0.088236496 1.8339253e-38 382 315
0.074118659 0.671 -0.088236496 1.8154863e-38 383 315
0.075295143 0.671 -0.088236496 1.7971544e-38 384 315
0.076471634 0.671 -0.088236496 1.7695315e-38 385 315
0.077648118 0.671 -0.088236496 1.7510921e-38 386 315
0.078824602 0.671 -0.088236496 1.7326171e-38 387 315
0.080001086 0.671 -0.088236496 1.7049593e-38 388 315
0.081177577 0.671 -0.088236496 1.6957397e-38 389 315
0.082354069 0.671 -0.088236496 1.6771931e-38 390 315
0.083530545 0.671 -0.088236496 1.6587538e-38 391 315
0.084707037 0.671 -0.088236496 1.6403144e-38 392 315
0.086011514 0.67199999 -0.088367991 1.6034363e-38 393 315
0.087189756 0.67199999 -0.088367991 1.5849971e-38 394 315
0.088367991 0.67199999 -0.088367991 1.5757775e-38 395 315
0.089812748 0.67400002 -0.088631004 1.5298243e-38 396 315
0.090994492 0.67400002 -0.088631004 1.5113852e-38 397 315
0.092312999 0.67500001 -0.088762499 1.4929459e-38 398 315
0.093496501 0.67500001 -0.088762499 1.4745428e-38 399 315
0.094679996 0.67500001 -0.088762499 1.4469198e-38 400 315
0.095863499 0.67500001 -0.088762499 1.4008579e-38 401 315
0.097190768 0.676 -0.088893995 1.3455055e-38 402 315
0.098376028 0.676 -0.088893995 1.3178109e-38 403 315
0.099561274 0.676 -0.088893995 1.3084494e-38 404 315
0.10074653 0.676 -0.088893995 1.2992297e-38 405 315
0.10223336 0.67799997 -0.089156993 1.2350895e-38 406 315
0.10342211 0.67799997 -0.089156993 1.2350895e-38 407 315
0.057304189 0.667 -0.088879973 1.6959601e-38 369 316
0.058561329 0.66799998 -0.089013219 1.760386e-38 370 316
0.05973256 0.66799998 -0.089013219 1.7787891e-38 371 316
0.061086133 0.67000002 -0.089279734 1.8339247e-38 372 316
0.06235379 0.671 -0.089412987 1.8431801e-38 373 316
0.063530281 0.671 -0.089412987 1.8248484e-38 374 316
0.064706765 0.671 -0.089412987 1.8248484e-38 375 316
0.065785065 0.67000002 -0.089279734 1.8248849e-38 376 316
0.066759922 0.66799998 -0.089013219 1.8341404e-38 377 316
0.067931145 0.66799998 -0.089013219 1.8248855e-38 378 316
0.068998925 0.667 -0.088879973 1.8248855e-38 379 316
0.070168398 0.667 -0.088879973 1.824778e-38 380 316
0.071337871 0.667 -0.088879973 1.824778e-38 381 316
0.072507344 0.667 -0.088879973 1.8338897e-38 382 316
0.073787279 0.66799998 -0.089013219 1.806267e-38 383 316
0.074958503 0.66799998 -0.089013219 1.7694962e-38 384 316
0.076129727 0.66799998 -0.089013219 1.7602767e-38 385 316
0.077300951 0.66799998 -0.089013219 1.7417298e-38 386 316
0.078472182 0.66799998 -0.089013219 1.7232905e-38 387 316
0.079881869 0.67000002 -0.089279734 1.6864846e-38 388 316
0.081056595 0.67000002 -0.089279734 1.677265e-38 389 316
0.082231335 0.67000002 -0.089279734 1.6587538e-38 390 316
0.083406061 0.67000002 -0.089279734 1.6402788e-38 391 316
0.084707037 0.671 -0.089412987 1.6218029e-38 392 316
0.086011514 0.67199999 -0.089546233 1.5941801e-38 393 316
0.087189756 0.67199999 -0.089546233 1.5574094e-38 394 316
0.088367991 0.67199999 -0.089546233 1.5389344e-38 395 316
0.089546233 0.67199999 -0.089546233 1.5297517e-38 396 316
0.090994492 0.67400002 -0.089812748 1.5021289e-38 397 316
0.092176244 0.67400002 -0.089812748 1.465323e-38 398 316
0.093496501 0.67500001 -0.089945994 1.4561034e-38 399 316
0.094679996 0.67500001 -0.089945994 1.419297e-38 400 316
0.095863499 0.67500001 -0.089945994 1.3547601e-38 401 316
0.097190768 0.676 -0.090079248 1.2901529e-38 402 316
0.098376028 0.676 -0.090079248 1.2717137e-38 403 316
0.099561274 0.676 -0.090079248 1.271643e-38 404 316
0.10074653 0.676 -0.090079248 1.271643e-38 405 316
0.10223336 0.67799997 -0.090345755 1.2258698e-38 406 316
0.10342211 0.67799997 -0.090345755 1.2258698e-38 407 316
0.056134716 0.667 -0.090049446 1.7511311e-38 368 317
0.057304189 0.667 -0.090049446 1.7511311e-38 369 317
0.058473662 0.667 -0.090049446 1.7880077e-38 370 317
0.059643134 0.667 -0.090049446 1.7972272e-38 371 317
0.060903784 0.66799998 -0.090184443 1.824813e-38 372 317
0.062075011 0.66799998 -0.090184443 1.8340685e-38 373 317
0.063246235 0.66799998 -0.090184443 1.8340682e-38 374 317
0.064321034 0.667 -0.090049446 1.8432878e-38 375 317
0.065490507 0.667 -0.090049446 1.8341404e-38 376 317
0.066560037 0.66600001 -0.089914441 1.8248849e-38 377 317
0.067727759 0.66600001 -0.089914441 1.8340332e-38 378 317
0.068895474 0.66600001 -0.089914441 1.8248136e-38 379 317
0.069852799 0.66399997 -0.089644417 1.8338897e-38 380 317
0.071017005 0.66399997 -0.089644417 1.8154866e-38 381 317
0.07239864 0.66600001 -0.089914441 1.8245982e-38 382 317
0.073566355 0.66600001 -0.089914441 1.806159e-38 383 317
0.074734077 0.66600001 -0.089914441 1.769388e-38 384 317
0.076015763 0.667 -0.090049446 1.7417654e-38 385 317
0.077185236 0.667 -0.090049446 1.7049593e-38 386 317
0.078354709 0.667 -0.090049446 1.6865202e-38 387 317
0.079643413 0.66799998 -0.090184443 1.6680098e-38 388 317
0.080814637 0.66799998 -0.090184443 1.640387e-38 389 317
0.081985861 0.66799998 -0.090184443 1.6402791e-38 390 317
0.083157085 0.66799998 -0.090184443 1.6126565e-38 391 317
0.084580801 0.67000002 -0.090454467 1.5666656e-38 392 317
0.085883528 0.671 -0.090589471 1.5482264e-38 393 317
0.087060012 0.671 -0.090589471 1.5297514e-38 394 317
0.088236496 0.671 -0.090589471 1.5021286e-38 395 317
0.089546233 0.67199999 -0.090724476 1.4929456e-38 396 317
0.090724476 0.67199999 -0.090724476 1.4745425e-38 397 317
0.091902718 0.67199999 -0.090724476 1.4378085e-38 398 317
0.093357988 0.67400002 -0.090994492 1.4285889e-38 399 317
0.094679996 0.67500001 -0.091129504 1.3271743e-38 400 317
0.095863499 0.67500001 -0.091129504 1.2533819e-38 401 317
0.097190768 0.676 -0.091264501 1.2163613e-38 402 317
0.098376028 0.676 -0.091264501 1.2348005e-38 403 317
0.099561274 0.676 -0.091264501 1.234909e-38 404 317
0.10074653 0.676 -0.091264501 1.2441644e-38 405 317
0.10193179 0.676 -0.091264501 1.2075031e-38 406 317
0.10311703 0.676 -0.091264501 1.2075031e-38 407 317
0.054882839 0.66600001 -0.091082163 1.7970137e-38 367 318
0.056050558 0.66600001 -0.091082163 1.7972275e-38 368 318
0.057304189 0.667 -0.091218919 1.7879721e-38 369 318
0.058385998 0.66600001 -0.091082163 1.8155935e-38 370 318
0.059553716 0.66600001 -0.091082163 1.824813e-38 371 318
0.060812607 0.667 -0.091218919 1.8523994e-38 372 318
0.06198208 0.667 -0.091218919 1.8523994e-38 373 318
0.063056879 0.66600001 -0.091082163 1.843288e-38 374 318
0.064224601 0.66600001 -0.091082163 1.843288e-38 375 318
0.065392323 0.66600001 -0.091082163 1.8340332e-38 376 318
0.066360161 0.66399997 -0.090808637 1.8248136e-38 377 318
0.067524366 0.66399997 -0.090808637 1.8431095e-38 378 318
0.068688579 0.66399997 -0.090808637 1.8154868e-38 379 318
0.069852799 0.66399997 -0.090808637 1.8338181e-38 380 318
0.071017005 0.66399997 -0.090808637 1.8245985e-38 381 318
0.072181225 0.66399997 -0.090808637 1.7878274e-38 382 318
0.07334543 0.66399997 -0.090808637 1.7786079e-38 383 318
0.07450965 0.66399997 -0.090808637 1.7417654e-38 384 318
0.076015763 0.667 -0.091218919 1.7232902e-38 385 318
0.077185236 0.667 -0.091218919 1.6865202e-38 386 318
0.078354709 0.667 -0.091218919 1.6680452e-38 387 318
0.079524182 0.667 -0.091218919 1.6312394e-38 388 318
0.080693655 0.667 -0.091218919 1.6036167e-38 389 318
0.081863128 0.667 -0.091218919 1.6034732e-38 390 318
0.083032601 0.667 -0.091218919 1.5758504e-38 391 318
0.084328316 0.66799998 -0.091355674 1.5574107e-38 392 318
0.085755527 0.67000002 -0.0916292 1.5389716e-38 393 318
0.086930268 0.67000002 -0.0916292 1.5021652e-38 394 318
0.088236496 0.671 -0.091765963 1.4745425e-38 395 318
0.089412987 0.671 -0.091765963 1.4561397e-38 396 318
0.090724476 0.67199999 -0.091902718 1.4469201e-38 397 318
0.091902718 0.67199999 -0.091902718 1.3918181e-38 398 318
0.093357988 0.67400002 -0.092176244 1.3733431e-38 399 318
0.094679996 0.67500001 -0.092312999 1.2442345e-38 400 318
0.095863499 0.67500001 -0.092312999 1.170478e-38 401 318
0.097047001 0.67500001 -0.092312999 1.1979947e-38 402 318
0.098230496 0.67500001 -0.092312999 1.2348371e-38 403 318
0.099561274 0.676 -0.092449754 1.1982465e-38 404 318
0.10074653 0.676 -0.092449754 1.2258692e-38 405 318
0.10193179 0.676 -0.092449754 1.2166876e-38 406 318
0.054882839 0.66600001 -0.092249878 1.8154528e-38 367 319
0.056050558 0.66600001 -0.092249878 1.8155938e-38 368 319
0.057218276 0.66600001 -0.092249878 1.8155938e-38 369 319
0.058385998 0.66600001 -0.092249878 1.8248486e-38 370 319
0.059553716 0.66600001 -0.092249878 1.8340682e-38 371 319
0.060721438 0.66600001 -0.092249878 1.8432878e-38 372 319
0.061703302 0.66399997 -0.091972843 1.8432878e-38 373 319
0.062867515 0.66399997 -0.091972843 1.8341048e-38 374 319
0.064031735 0.66399997 -0.091972843 1.8341048e-38 375 319
0.065097757 0.66299999 -0.091834337 1.8431095e-38 376 319
0.066160277 0.662 -0.091695823 1.83389e-38 377 319
0.067320988 0.662 -0.091695823 1.8154868e-38 378 319
0.068585135 0.66299999 -0.091834337 1.8154868e-38 379 319
0.069747597 0.66299999 -0.091834337 1.8153789e-38 380 319
0.070910059 0.66299999 -0.091834337 1.8153789e-38 381 319
0.071963809 0.662 -0.091695823 1.7785004e-38 382 319
0.07312452 0.662 -0.091695823 1.7600613e-38 383 319
0.074397437 0.66299999 -0.091834337 1.7232539e-38 384 319
0.075901799 0.66600001 -0.092249878 1.7047789e-38 385 319
0.077069521 0.66600001 -0.092249878 1.6863753e-38 386 319
0.078237243 0.66600001 -0.092249878 1.6771198e-38 387 319
0.079524182 0.667 -0.092388391 1.6219832e-38 388 319
0.080693655 0.667 -0.092388391 1.6035082e-38 389 319
0.081863128 0.667 -0.092388391 1.5666308e-38 390 319
0.083032601 0.667 -0.092388391 1.5573754e-38 391 319
0.084202074 0.667 -0.092388391 1.5206047e-38 392 319
0.085499547 0.66799998 -0.092526905 1.5113852e-38 393 319
0.086670771 0.66799998 -0.092526905 1.4653948e-38 394 319
0.088105001 0.67000002 -0.092803933 1.4561753e-38 395 319
0.089412987 0.671 -0.092942439 1.4285889e-38 396 319
0.090589471 0.671 -0.092942439 1.4101496e-38 397 319
0.091765963 0.671 -0.092942439 1.3825279e-38 398 319
0.093080953 0.67199999 -0.093080953 1.3272107e-38 399 319
0.094539732 0.67400002 -0.093357988 1.0967943e-38 400 319
0.095863499 0.67500001 -0.093496501 1.1520759e-38 401 319
0.097047001 0.67500001 -0.093496501 1.2165415e-38 402 319
0.098230496 0.67500001 -0.093496501 1.2349446e-38 403 319
0.099413998 0.67500001 -0.093496501 1.2166499e-38 404 319
0.10059749 0.67500001 -0.093496501 1.2258695e-38 405 319
0.10193179 0.676 -0.093635008 1.1799536e-38 406 319
0.051148236 0.66299999 -0.092996798 1.7787894e-38 364 320
0.0522318 0.662 -0.092856526 1.7787894e-38 365 320
0.053392503 0.662 -0.092856526 1.8155584e-38 366 320
0.054718021 0.66399997 -0.093137063 1.824778e-38 367 320
0.055882234 0.66399997 -0.093137063 1.8431799e-38 368 320
0.057046451 0.66399997 -0.093137063 1.8431799e-38 369 320
0.05821066 0.66399997 -0.093137063 1.8523994e-38 370 320
0.059374876 0.66399997 -0.093137063 1.8523994e-38 371 320
0.060447913 0.66299999 -0.092996798 1.8432524e-38 372 320
0.061610378 0.66299999 -0.092996798 1.8432524e-38 373 320
0.062772833 0.66299999 -0.092996798 1.8339976e-38 374 320
0.063935295 0.66299999 -0.092996798 1.8339976e-38 375 320
0.064999565 0.662 -0.092856526 1.8247783e-38 376 320
0.066160277 0.662 -0.092856526 1.8063392e-38 377 320
0.067320988 0.662 -0.092856526 1.8154512e-38 378 320
0.068481691 0.662 -0.092856526 1.7970121e-38 379 320
0.069642402 0.662 -0.092856526 1.7969768e-38 380 320
0.070803106 0.662 -0.092856526 1.7785375e-38 381 320
0.071963809 0.662 -0.092856526 1.7509149e-38 382 320
0.07312452 0.662 -0.092856526 1.7232202e-38 383 320
0.074285224 0.662 -0.092856526 1.686413e-38 384 320
0.075559892 0.66299999 -0.092996798 1.667938e-38 385 320
0.076722354 0.66299999 -0.092996798 1.6036164e-38 386 320
0.077884816 0.66299999 -0.092996798 1.6036164e-38 387 320
0.079047278 0.66299999 -0.092996798 1.585142e-38 388 320
0.08057268 0.66600001 -0.093417592 1.5667027e-38 389 320
0.081740394 0.66600001 -0.093417592 1.5390444e-38 390 320
0.083032601 0.667 -0.093557864 1.5205694e-38 391 320
0.084202074 0.667 -0.093557864 1.4930539e-38 392 320
0.085499547 0.66799998 -0.093698129 1.4653592e-38 393 320
0.086670771 0.66799998 -0.093698129 1.4378085e-38 394 320
0.087841995 0.66799998 -0.093698129 1.4285889e-38 395 320
0.089279734 0.67000002 -0.093978666 1.410114e-38 396 320
0.090589471 0.671 -0.09411893 1.3917109e-38 397 320
0.091765963 0.671 -0.09411893 1.3456501e-38 398 320
0.093080953 0.67199999 -0.094259195 1.3087358e-38 399 320
0.094539732 0.67400002 -0.094539732 1.2624941e-38 400 320
0.095863499 0.67500001 -0.094679996 1.2717137e-38 401 320
0.097047001 0.67500001 -0.094679996 1.2073932e-38 402 320
0.098230496 0.67500001 -0.094679996 1.2166128e-38 403 320
0.099413998 0.67500001 -0.094679996 1.2166143e-38 404 320
0.10059749 0.67500001 -0.094679996 1.2166143e-38 405 320
0.044106852 0.662 -0.094017237 1.7419524e-38 358 321
0.045404319 0.66399997 -0.094301268 1.6958548e-38 359 321
0.046568532 0.66399997 -0.094301268 1.7325508e-38 360 321
0.047732744 0.66399997 -0.094301268 1.7602456e-38 361 321
0.048823316 0.66299999 -0.094159253 1.778754e-38 362 321
0.049985778 0.66299999 -0.094159253 1.7603509e-38 363 321
0.051071092 0.662 -0.094017237 1.83389e-38 364 321
0.0522318 0.662 -0.094017237 1.8431095e-38 365 321
0.053311851 0.66100001 -0.093875214 1.8706956e-38 366 321
0.054470807 0.66100001 -0.093875214 1.8706956e-38 367 321
0.05562976 0.66100001 -0.093875214 1.8706956e-38 368 321
0.056788713 0.66100001 -0.093875214 1.8522925e-38 369 321
0.057947662 0.66100001 -0.093875214 1.8523644e-38 370 321
0.059106622 0.66100001 -0.093875214 1.8523644e-38 371 321
0.060265575 0.66100001 -0.093875214 1.8523647e-38 372 321
0.061424527 0.66100001 -0.093875214 1.8523647e-38 373 321
0.062583476 0.66100001 -0.093875214 1.8522928e-38 374 321
0.063838862 0.662 -0.094017237 1.8522928e-38 375 321
0.064999565 0.662 -0.094017237 1.8338897e-38 376 321
0.066060342 0.66100001 -0.093875214 1.806267e-38 377 321
0.067219295 0.66100001 -0.093875214 1.8061234e-38 378 321
0.068378247 0.66100001 -0.093875214 1.8061234e-38 379 321
0.0695372 0.66100001 -0.093875214 1.7784654e-38 380 321
0.070696153 0.66100001 -0.093875214 1.7508067e-38 381 321
0.071963809 0.662 -0.094017237 1.7231836e-38 382 321
0.07312452 0.662 -0.094017237 1.695489e-38 383 321
0.074285224 0.662 -0.094017237 1.6495337e-38 384 321
0.075445928 0.662 -0.094017237 1.6403142e-38 385 321
0.076606639 0.662 -0.094017237 1.6126912e-38 386 321
0.077767342 0.662 -0.094017237 1.6034716e-38 387 321
0.079047278 0.66299999 -0.094159253 1.5666305e-38 388 321
0.080209732 0.66299999 -0.094159253 1.557411e-38 389 321
0.081372194 0.66299999 -0.094159253 1.520605e-38 390 321
0.082908116 0.66600001 -0.094585314 1.5021657e-38 391 321
0.084075838 0.66600001 -0.094585314 1.4745428e-38 392 321
0.085371546 0.667 -0.094727337 1.4652874e-38 393 321
0.086541019 0.667 -0.094727337 1.4285886e-38 394 321
0.087841995 0.66799998 -0.094869353 1.4101493e-38 395 321
0.089279734 0.67000002 -0.095153399 1.3917106e-38 396 321
0.090589471 0.671 -0.095295422 1.3732715e-38 397 321
0.091765963 0.671 -0.095295422 1.3272463e-38 398 321
0.093080953 0.67199999 -0.095437437 1.2811485e-38 399 321
0.094259195 0.67199999 -0.095437437 1.2443428e-38 400 321
0.095721483 0.67400002 -0.095721483 1.2166481e-38 401 321
0.096903227 0.67400002 -0.095721483 1.2166134e-38 402 321
0.098084971 0.67400002 -0.095721483 1.2258329e-38 403 321
0.099561274 0.676 -0.096005514 1.1982834e-38 404 321
0.10074653 0.676 -0.096005514 1.1890638e-38 405 321
0.042946145 0.662 -0.095177941 1.7144017e-38 357 322
0.044106852 0.662 -0.095177941 1.7326935e-38 358 322
0.045404319 0.66399997 -0.095465489 1.7050707e-38 359 322
0.046568532 0.66399997 -0.095465489 1.7602426e-38 360 322
0.047588971 0.662 -0.095177941 1.7787177e-38 361 322
0.048749682 0.662 -0.095177941 1.7970487e-38 362 322
0.049834993 0.66100001 -0.095034167 1.7970487e-38 363 322
0.050993945 0.66100001 -0.095034167 1.861297e-38 364 322
0.051995095 0.65899998 -0.094746619 1.8428578e-38 365 322
0.053150542 0.65899998 -0.094746619 1.8245263e-38 366 322
0.054305989 0.65899998 -0.094746619 1.8245263e-38 367 322
0.055461437 0.65899998 -0.094746619 1.7970837e-38 368 322
0.056616884 0.65899998 -0.094746619 1.8155587e-38 369 322
0.057772331 0.65899998 -0.094746619 1.8338544e-38 370 322
0.058927774 0.65899998 -0.094746619 1.8431098e-38 371 322
0.060083222 0.65899998 -0.094746619 1.8431098e-38 372 322
0.061424527 0.66100001 -0.095034167 1.8431098e-38 373 322
0.062583476 0.66100001 -0.095034167 1.8155587e-38 374 322
0.063742429 0.66100001 -0.095034167 1.8063392e-38 375 322
0.064901382 0.66100001 -0.095034167 1.797119e-38 376 322
0.066060342 0.66100001 -0.095034167 1.7602767e-38 377 322
0.067219295 0.66100001 -0.095034167 1.7600616e-38 378 322
0.068378247 0.66100001 -0.095034167 1.750842e-38 379 322
0.0695372 0.66100001 -0.095034167 1.7232202e-38 380 322
0.070696153 0.66100001 -0.095034167 1.704781e-38 381 322
0.071855105 0.66100001 -0.095034167 1.6680452e-38 382 322
0.073014058 0.66100001 -0.095034167 1.6312028e-38 383 322
0.074173011 0.66100001 -0.095034167 1.6127987e-38 384 322
0.075445928 0.662 -0.095177941 1.6035432e-38 385 322
0.076606639 0.662 -0.095177941 1.5942887e-38 386 322
0.077767342 0.662 -0.095177941 1.5666658e-38 387 322
0.078928046 0.662 -0.095177941 1.5298246e-38 388 322
0.080088757 0.662 -0.095177941 1.520605e-38 389 322
0.081372194 0.66299999 -0.095321715 1.4837989e-38 390 322
0.08265914 0.66399997 -0.095465489 1.4653598e-38 391 322
0.083823353 0.66399997 -0.095465489 1.4469204e-38 392 322
0.08524356 0.66600001 -0.095753036 1.4285173e-38 393 322
0.086541019 0.667 -0.09589681 1.3917106e-38 394 322
0.0877105 0.667 -0.09589681 1.3824911e-38 395 322
0.089279734 0.67000002 -0.096328132 1.3640882e-38 396 322
0.090454467 0.67000002 -0.096328132 1.3272459e-38 397 322
0.091765963 0.671 -0.096471906 1.2995519e-38 398 322
0.093080953 0.67199999 -0.09661568 1.2626738e-38 399 322
0.094259195 0.67199999 -0.09661568 1.2441992e-38 400 322
0.095721483 0.67400002 -0.096903227 1.2349796e-38 401 322
0.096471906 0.671 -0.096471906 1.2073582e-38 402 322
0.09764839 0.671 -0.096471906 1.2165778e-38 403 322
0.099413998 0.67500001 -0.097047001 1.1981765e-38 404 322
0.10074653 0.676 -0.097190768 1.1797015e-38 405 322
0.044173479 0.66299999 -0.096484177 1.7786824e-38 358 323
0.045335937 0.66299999 -0.096484177 1.787902e-38 359 323
0.046428263 0.662 -0.096338652 1.8153436e-38 360 323
0.047517084 0.66100001 -0.096193127 1.8153436e-38 361 323
0.04867604 0.66100001 -0.096193127 1.7877205e-38 362 323
0.049684204 0.65899998 -0.09590207 1.7692814e-38 363 323
0.050839648 0.65899998 -0.09590207 1.7875036e-38 364 323
0.051995095 0.65899998 -0.09590207 1.7506252e-38 365 323
0.05306989 0.65799999 -0.095756538 1.6863401e-38 366 323
0.054223582 0.65799999 -0.095756538 1.7139988e-38 367 323
0.055377278 0.65799999 -0.095756538 1.7142512e-38 368 323
0.056530971 0.65799999 -0.095756538 1.760313e-38 369 323
0.057684667 0.65799999 -0.095756538 1.8062673e-38 370 323
0.058838356 0.65799999 -0.095756538 1.8154868e-38 371 323
0.060083222 0.65899998 -0.09590207 1.8337828e-38 372 323
0.061238669 0.65899998 -0.09590207 1.8337828e-38 373 323
0.062394116 0.65899998 -0.09590207 1.797084e-38 374 323
0.063549563 0.65899998 -0.09590207 1.7694612e-38 375 323
0.064705007 0.65899998 -0.09590207 1.769353e-38 376 323
0.065860458 0.65899998 -0.09590207 1.7232552e-38 377 323
0.067219295 0.66100001 -0.096193127 1.7139284e-38 378 323
0.068378247 0.66100001 -0.096193127 1.7047089e-38 379 323
0.069326796 0.65899998 -0.09590207 1.6771228e-38 380 323
0.070482239 0.65899998 -0.09590207 1.6679032e-38 381 323
0.071855105 0.66100001 -0.096193127 1.6219479e-38 382 323
0.073014058 0.66100001 -0.096193127 1.6127283e-38 383 323
0.074173011 0.66100001 -0.096193127 1.5942887e-38 384 323
0.075331964 0.66100001 -0.096193127 1.5758854e-38 385 323
0.076606639 0.662 -0.096338652 1.5390795e-38 386 323
0.077767342 0.662 -0.096338652 1.5206403e-38 387 323
0.078928046 0.662 -0.096338652 1.4930184e-38 388 323
0.080088757 0.662 -0.096338652 1.4745791e-38 389 323
0.081372194 0.66299999 -0.096484177 1.4377734e-38 390 323
0.082534656 0.66299999 -0.096484177 1.4285539e-38 391 323
0.083823353 0.66399997 -0.096629702 1.4193337e-38 392 323
0.08524356 0.66600001 -0.096920758 1.3917109e-38 393 323
0.086411275 0.66600001 -0.096920758 1.3733434e-38 394 323
0.0877105 0.667 -0.097066283 1.3641238e-38 395 323
0.089013219 0.66799998 -0.097211808 1.3547971e-38 396 323
0.090454467 0.67000002 -0.097502865 1.3179188e-38 397 323
0.091765963 0.671 -0.09764839 1.2718939e-38 398 323
0.092942439 0.671 -0.09764839 1.2441992e-38 399 323
0.094259195 0.67199999 -0.097793922 1.2073582e-38 400 323
0.095437437 0.67199999 -0.097793922 1.2073582e-38 401 323
0.096471906 0.671 -0.09764839 1.1889919e-38 402 323
0.09764839 0.671 -0.09764839 1.1982115e-38 403 323
0.099413998 0.67500001 -0.098230496 1.1613349e-38 404 323
0.031386416 0.66299999 -0.097646631 1.6783202e-38 347 324
0.032548878 0.66299999 -0.097646631 1.7790144e-38 348 324
0.033711337 0.66299999 -0.097646631 1.7605753e-38 349 324
0.034821201 0.662 -0.097499363 1.7880522e-38 350 324
0.035981905 0.662 -0.097499363 1.751174e-38 351 324
0.039165959 0.65700001 -0.096762955 1.7509883e-38 354 324
0.040563367 0.66100001 -0.09735208 1.7509883e-38 355 324
0.04172232 0.66100001 -0.09735208 1.7785019e-38 356 324
0.042881273 0.66100001 -0.09735208 1.7692824e-38 357 324
0.044040225 0.66100001 -0.09735208 1.75077e-38 358 324
0.045199182 0.66100001 -0.09735208 1.686233e-38 359 324
0.046358135 0.66100001 -0.09735208 1.6858359e-38 360 324
0.047517084 0.66100001 -0.09735208 1.6489937e-38 361 324
0.04867604 0.66100001 -0.09735208 1.6031472e-38 362 324
0.049684204 0.65899998 -0.097057514 1.5754886e-38 363 324
0.050762504 0.65799999 -0.096910238 1.5662321e-38 364 324
0.051916201 0.65799999 -0.096910238 1.5662321e-38 365 324
0.052989237 0.65700001 -0.096762955 1.5390416e-38 366 324
0.054141179 0.65700001 -0.096762955 1.6220177e-38 367 324
0.055377278 0.65799999 -0.096910238 1.6958113e-38 368 324
0.056530971 0.65799999 -0.096910238 1.7511287e-38 369 324
0.057684667 0.65799999 -0.096910238 1.7970474e-38 370 324
0.058838356 0.65799999 -0.096910238 1.806267e-38 371 324
0.059992049 0.65799999 -0.096910238 1.8338183e-38 372 324
0.061145745 0.65799999 -0.096910238 1.8245629e-38 373 324
0.062299434 0.65799999 -0.096910238 1.7877924e-38 374 324
0.063549563 0.65899998 -0.097057514 1.7416947e-38 375 324
0.064705007 0.65899998 -0.097057514 1.723148e-38 376 324
0.065860458 0.65899998 -0.097057514 1.7139284e-38 377 324
0.067219295 0.66100001 -0.09735208 1.695454e-38 378 324
0.068378247 0.66100001 -0.09735208 1.6862344e-38 379 324
0.069326796 0.65899998 -0.097057514 1.6586835e-38 380 324
0.070482239 0.65899998 -0.097057514 1.6494639e-38 381 324
0.07163769 0.65899998 -0.097057514 1.6126927e-38 382 324
0.072793134 0.65899998 -0.097057514 1.6034732e-38 383 324
0.074173011 0.66100001 -0.09735208 1.5666302e-38 384 324
0.075331964 0.66100001 -0.09735208 1.5481911e-38 385 324
0.076490916 0.66100001 -0.09735208 1.5114205e-38 386 324
0.077767342 0.662 -0.097499363 1.5022008e-38 387 324
0.078928046 0.662 -0.097499363 1.4746147e-38 388 324
0.080088757 0.662 -0.097499363 1.4561397e-38 389 324
0.081249461 0.662 -0.097499363 1.428482e-38 390 324
0.082534656 0.66299999 -0.097646631 1.4192624e-38 391 324
0.083697118 0.66299999 -0.097646631 1.3916756e-38 392 324
0.084987566 0.66399997 -0.097793914 1.382456e-38 393 324
0.086411275 0.66600001 -0.098088481 1.3640522e-38 394 324
0.0877105 0.667 -0.098235756 1.3455771e-38 395 324
0.089013219 0.66799998 -0.098383039 1.3270308e-38 396 324
0.090184443 0.66799998 -0.098383039 1.2901885e-38 397 324
0.0916292 0.67000002 -0.098677598 1.2533121e-38 398 324
0.092942439 0.671 -0.098824874 1.2256175e-38 399 324
0.094259195 0.67199999 -0.098972157 1.1980314e-38 400 324
0.095437437 0.67199999 -0.098972157 1.207251e-38 401 324
0.096471906 0.671 -0.098824874 1.1797724e-38 402 324
0.09764839 0.671 -0.098824874 1.1889919e-38 403 324
0.029061496 0.66299999 -0.098809093 1.217412e-38 345 325
0.030178372 0.662 -0.098660067 1.5674311e-38 346 325
0.031339079 0.662 -0.098660067 1.631968e-38 347 325
0.032499783 0.662 -0.098660067 1.7602118e-38 348 325
0.033660494 0.662 -0.098660067 1.7325531e-38 349 325
0.0347686 0.66100001 -0.098511033 1.7508826e-38 350 325
0.035927553 0.66100001 -0.098511033 1.7508826e-38 351 325
0.037086505 0.66100001 -0.098511033 1.6683756e-38 352 325
0.038014017 0.65700001 -0.097914897 1.6130582e-38 353 325
0.039165959 0.65700001 -0.097914897 1.7875796e-38 354 325
0.040379263 0.65799999 -0.098063931 1.7691404e-38 355 325
0.041596077 0.65899998 -0.098212965 1.7598816e-38 356 325
0.042751525 0.65899998 -0.098212965 1.6769057e-38 357 325
0.044040225 0.66100001 -0.098511033 1.6215163e-38 358 325
0.045199182 0.66100001 -0.098511033 1.5385044e-38 359 325
0.046358135 0.66100001 -0.098511033 1.4831507e-38 360 325
0.04737331 0.65899998 -0.098212965 1.455456e-38 361 325
0.048528757 0.65899998 -0.098212965 1.4186856e-38 362 325
0.049608808 0.65799999 -0.098063931 1.4094661e-38 363 325
0.050685361 0.65700001 -0.097914897 1.3911699e-38 364 325
0.051837299 0.65700001 -0.097914897 1.4649264e-38 365 325
0.052989237 0.65700001 -0.097914897 1.4652145e-38 366 325
0.054141179 0.65700001 -0.097914897 1.6312025e-38 367 325
0.055293117 0.65700001 -0.097914897 1.7232189e-38 368 325
0.056445058 0.65700001 -0.097914897 1.7785004e-38 369 325
0.057596996 0.65700001 -0.097914897 1.7694612e-38 370 325
0.058748938 0.65700001 -0.097914897 1.797084e-38 371 325
0.05990088 0.65700001 -0.097914897 1.7786456e-38 372 325
0.061145745 0.65799999 -0.098063931 1.7694259e-38 373 325
0.062299434 0.65799999 -0.098063931 1.7416597e-38 374 325
0.06345313 0.65799999 -0.098063931 1.7140009e-38 375 325
0.064606823 0.65799999 -0.098063931 1.6864142e-38 376 325
0.065760516 0.65799999 -0.098063931 1.6679751e-38 377 325
0.066914216 0.65799999 -0.098063931 1.6586835e-38 378 325
0.068067901 0.65799999 -0.098063931 1.6494639e-38 379 325
0.069221593 0.65799999 -0.098063931 1.603546e-38 380 325
0.070375293 0.65799999 -0.098063931 1.5943265e-38 381 325
0.071528979 0.65799999 -0.098063931 1.5758515e-38 382 325
0.072682679 0.65799999 -0.098063931 1.5666318e-38 383 325
0.073948584 0.65899998 -0.098212965 1.5205694e-38 384 325
0.075104028 0.65899998 -0.098212965 1.5113499e-38 385 325
0.076490916 0.66100001 -0.098511033 1.4471355e-38 386 325
0.077649876 0.66100001 -0.098511033 1.4378801e-38 387 325
0.078808829 0.66100001 -0.098511033 1.4285533e-38 388 325
0.080088757 0.662 -0.098660067 1.4193337e-38 389 325
0.081249461 0.662 -0.098660067 1.3916756e-38 390 325
0.082534656 0.66299999 -0.098809093 1.382456e-38 391 325
0.083697118 0.66299999 -0.098809093 1.3733084e-38 392 325
0.084987566 0.66399997 -0.098958127 1.3456857e-38 393 325
0.086411275 0.66600001 -0.099256195 1.3455419e-38 394 325
0.087578997 0.66600001 -0.099256195 1.3086995e-38 395 325
0.088879973 0.667 -0.099405229 1.2809699e-38 396 325
0.090184443 0.66799998 -0.099554263 1.234908e-38 397 325
0.0916292 0.67000002 -0.099852331 1.1981033e-38 398 325
0.092803933 0.67000002 -0.099852331 1.1797002e-38 399 325
0.09411893 0.671 -0.10000136 1.1796652e-38 400 325
0.095437437 0.67199999 -0.10015039 1.1980683e-38 401 325
0.096471906 0.671 -0.10000136 1.1613702e-38 402 325
0.09764839 0.671 -0.10000136 1.1521507e-38 403 325
0.026696252 0.662 -0.09982077 1.2908442e-38 343 326
0.027856959 0.662 -0.09982077 1.3644545e-38 344 326
0.029017664 0.662 -0.09982077 1.4474306e-38 345 326
0.030178372 0.662 -0.09982077 1.6590843e-38 346 326
0.031339079 0.662 -0.09982077 1.6959267e-38 347 326
0.032499783 0.662 -0.09982077 1.7418427e-38 348 326
0.033660494 0.662 -0.09982077 1.7326232e-38 349 326
0.0347686 0.66100001 -0.099669985 1.7784672e-38 350 326
0.035818845 0.65899998 -0.099368408 1.7692476e-38 351 326
0.036918186 0.65799999 -0.099217616 1.7047091e-38 352 326
0.038014017 0.65700001 -0.099066831 1.5571603e-38 353 326
0.039165959 0.65700001 -0.099066831 1.5567973e-38 354 326
0.0403179 0.65700001 -0.099066831 1.4277235e-38 355 326
0.041469838 0.65700001 -0.099066831 1.3811565e-38 356 326
0.042686652 0.65799999 -0.099217616 1.2889973e-38 357 326
0.043840345 0.65799999 -0.099217616 1.224641e-38 358 326
0.045062415 0.65899998 -0.099368408 1.2891779e-38 359 326
0.04614773 0.65799999 -0.099217616 1.2897212e-38 360 326
0.047301427 0.65799999 -0.099217616 1.3450386e-38 361 326
0.048455119 0.65799999 -0.099217616 1.4181859e-38 362 326
0.049533416 0.65700001 -0.099066831 1.4735033e-38 363 326
0.050685361 0.65700001 -0.099066831 1.4556027e-38 364 326
0.051679496 0.65499997 -0.098765261 1.5662735e-38 365 326
0.052827932 0.65499997 -0.098765261 1.6216972e-38 366 326
0.053976361 0.65499997 -0.098765261 1.7415514e-38 367 326
0.055124797 0.65499997 -0.098765261 1.7509496e-38 368 326
0.056273226 0.65499997 -0.098765261 1.7693527e-38 369 326
0.057421666 0.65499997 -0.098765261 1.7603132e-38 370 326
0.058570094 0.65499997 -0.098765261 1.7603132e-38 371 326
0.05990088 0.65700001 -0.099066831 1.7876849e-38 372 326
0.061052818 0.65700001 -0.099066831 1.7692458e-38 373 326
0.06220476 0.65700001 -0.099066831 1.6956691e-38 374 326
0.063356705 0.65700001 -0.099066831 1.67723e-38 375 326
0.064508639 0.65700001 -0.099066831 1.6586829e-38 376 326
0.065660581 0.65700001 -0.099066831 1.6494634e-38 377 326
0.066812515 0.65700001 -0.099066831 1.6402438e-38 378 326
0.067964457 0.65700001 -0.099066831 1.6218407e-38 379 326
0.069116399 0.65700001 -0.099066831 1.5758868e-38 380 326
0.07026834 0.65700001 -0.099066831 1.5666671e-38 381 326
0.071528979 0.65799999 -0.099217616 1.5481205e-38 382 326
0.072682679 0.65799999 -0.099217616 1.5389009e-38 383 326
0.073948584 0.65899998 -0.099368408 1.5021655e-38 384 326
0.075104028 0.65899998 -0.099368408 1.4745428e-38 385 326
0.076259479 0.65899998 -0.099368408 1.4378082e-38 386 326
0.077649876 0.66100001 -0.099669985 1.419369e-38 387 326
0.078808829 0.66100001 -0.099669985 1.4192973e-38 388 326
0.080088757 0.662 -0.09982077 1.4100777e-38 389 326
0.081249461 0.662 -0.09982077 1.3733437e-38 390 326
0.082534656 0.66299999 -0.099971555 1.3640882e-38 391 326
0.083697118 0.66299999 -0.099971555 1.3547248e-38 392 326
0.084987566 0.66399997 -0.10012234 1.3455052e-38 393 326
0.086411275 0.66600001 -0.10042392 1.2809685e-38 394 326
0.087578997 0.66600001 -0.10042392 1.2348709e-38 395 326
0.088879973 0.667 -0.1005747 1.2348005e-38 396 326
0.090049446 0.667 -0.1005747 1.2163613e-38 397 326
0.091355674 0.66799998 -0.10072549 1.1887401e-38 398 326
0.092526905 0.66799998 -0.10072549 1.1979598e-38 399 326
0.093978666 0.67000002 -0.10102707 1.1705172e-38 400 326
0.095437437 0.67199999 -0.10132863 1.1705172e-38 401 326
0.096471906 0.671 -0.10117785 1.1703753e-38 402 326
0.09764839 0.671 -0.10117785 1.133461e-38 403 326
0.025535546 0.662 -0.10098148 1.5947288e-38 342 327
0.026696252 0.662 -0.10098148 1.4748745e-38 343 327
0.027856959 0.662 -0.10098148 1.5577386e-38 344 327
0.028973831 0.66100001 -0.10082894 1.6222755e-38 345 327
0.030132787 0.66100001 -0.10082894 1.6958158e-38 346 327
0.031339079 0.662 -0.10098148 1.7050354e-38 347 327
0.032450691 0.66100001 -0.10082894 1.6776631e-38 348 327
0.033609647 0.66100001 -0.10082894 1.6408209e-38 349 327
0.034663398 0.65899998 -0.10052385 1.6769763e-38 350 327
0.035492726 0.653 -0.099608615 1.5847807e-38 351 327
0.036637653 0.653 -0.099608615 1.5293535e-38 352 327
0.037898298 0.65499997 -0.099913694 1.4094991e-38 353 327
0.039046731 0.65499997 -0.099913694 1.3263455e-38 354 327
0.040195163 0.65499997 -0.099913694 1.2157466e-38 355 327
0.041343596 0.65499997 -0.099913694 1.1235898e-38 356 327
0.042492028 0.65499997 -0.099913694 1.1696518e-38 357 327
0.043640465 0.65499997 -0.099913694 1.2340483e-38 358 327
0.044788897 0.65499997 -0.099913694 1.3078048e-38 359 327
0.046077598 0.65700001 -0.10021878 1.2805424e-38 360 327
0.04722954 0.65700001 -0.10021878 1.3358598e-38 361 327
0.048381478 0.65700001 -0.10021878 1.3543339e-38 362 327
0.049382631 0.65499997 -0.099913694 1.4281263e-38 363 327
0.050453916 0.65399998 -0.099761158 1.5112813e-38 364 327
0.051600594 0.65399998 -0.099761158 1.5850378e-38 365 327
0.052747279 0.65399998 -0.099761158 1.6678679e-38 366 327
0.053893957 0.65399998 -0.099761158 1.7692829e-38 367 327
0.055040635 0.65399998 -0.099761158 1.7602782e-38 368 327
0.056187313 0.65399998 -0.099761158 1.7510586e-38 369 327
0.057421666 0.65499997 -0.099913694 1.7326918e-38 370 327
0.058570094 0.65499997 -0.099913694 1.7234723e-38 371 327
0.059718527 0.65499997 -0.099913694 1.7141455e-38 372 327
0.061052818 0.65700001 -0.10021878 1.6957062e-38 373 327
0.06220476 0.65700001 -0.10021878 1.6588634e-38 374 327
0.063356705 0.65700001 -0.10021878 1.6311687e-38 375 327
0.064508639 0.65700001 -0.10021878 1.6035458e-38 376 327
0.065660581 0.65700001 -0.10021878 1.5851066e-38 377 327
0.066812515 0.65700001 -0.10021878 1.5758153e-38 378 327
0.067964457 0.65700001 -0.10021878 1.5758153e-38 379 327
0.069116399 0.65700001 -0.10021878 1.5114946e-38 380 327
0.07026834 0.65700001 -0.10021878 1.4930555e-38 381 327
0.071420282 0.65700001 -0.10021878 1.4929839e-38 382 327
0.072572216 0.65700001 -0.10021878 1.4745087e-38 383 327
0.073836371 0.65799999 -0.10037132 1.4285904e-38 384 327
0.074990064 0.65799999 -0.10037132 1.4285904e-38 385 327
0.076259479 0.65899998 -0.10052385 1.4009678e-38 386 327
0.077414922 0.65899998 -0.10052385 1.3917123e-38 387 327
0.078808829 0.66100001 -0.10082894 1.3732731e-38 388 327
0.079967782 0.66100001 -0.10082894 1.3640535e-38 389 327
0.081249461 0.662 -0.10098148 1.3272473e-38 390 327
0.082410172 0.662 -0.10098148 1.2996245e-38 391 327
0.083697118 0.66299999 -0.10113402 1.3087358e-38 392 327
0.084987566 0.66399997 -0.10128655 1.2534543e-38 393 327
0.086411275 0.66600001 -0.10159164 1.2165059e-38 394 327
0.087578997 0.66600001 -0.10159164 1.1796275e-38 395 327
0.088879973 0.667 -0.10174417 1.1703017e-38 396 327
0.090049446 0.667 -0.10174417 1.1518986e-38 397 327
0.091355674 0.66799998 -0.10189671 1.1336395e-38 398 327
0.092526905 0.66799998 -0.10189671 1.1520426e-38 399 327
0.093978666 0.67000002 -0.1022018 1.1337478e-38 400 327
0.095295422 0.671 -0.10235433 1.1337478e-38 401 327
0.096471906 0.671 -0.10235433 1.1243506e-38 402 327
0.09764839 0.671 -0.10235433 1.0782888e-38 403 327
0.02076648 0.65799999 -0.10152501 1.8343315e-38 338 328
0.021920172 0.65799999 -0.10152501 1.7697946e-38 339 328
0.023108931 0.65899998 -0.1016793 1.7236226e-38 340 328
0.024264378 0.65899998 -0.1016793 1.6683052e-38 341 328
0.025419824 0.65899998 -0.1016793 1.7050719e-38 342 328
0.026655925 0.66100001 -0.10198789 1.6958524e-38 343 328
0.02781488 0.66100001 -0.10198789 1.7326932e-38 344 328
0.028973831 0.66100001 -0.10198789 1.7326932e-38 345 328
0.030132787 0.66100001 -0.10198789 1.714325e-38 346 328
0.031291738 0.66100001 -0.10198789 1.6958859e-38 347 328
0.032450691 0.66100001 -0.10198789 1.6499306e-38 348 328
0.033609647 0.66100001 -0.10198789 1.474759e-38 349 328
0.034400396 0.65399998 -0.10090783 1.3722266e-38 350 328
0.035492726 0.653 -0.10075355 1.1786157e-38 351 328
0.036637653 0.653 -0.10075355 1.1140076e-38 352 328
0.037898298 0.65499997 -0.10106213 1.1508494e-38 353 328
0.038927507 0.653 -0.10075355 1.0590526e-38 354 328
0.04007243 0.653 -0.10075355 1.0959309e-38 355 328
0.041280478 0.65399998 -0.10090783 1.1330632e-38 356 328
0.04242716 0.65399998 -0.10090783 1.2252588e-38 357 328
0.043573838 0.65399998 -0.10090783 1.3267834e-38 358 328
0.044720516 0.65399998 -0.10090783 1.4281628e-38 359 328
0.04593733 0.65499997 -0.10106213 1.4561091e-38 360 328
0.047085766 0.65499997 -0.10106213 1.5021709e-38 361 328
0.048160557 0.65399998 -0.10090783 1.5850378e-38 362 328
0.049231846 0.653 -0.10075355 1.6127325e-38 363 328
0.050376773 0.653 -0.10075355 1.6588647e-38 364 328
0.0515217 0.653 -0.10075355 1.695779e-38 365 328
0.052666627 0.653 -0.10075355 1.7233653e-38 366 328
0.05381155 0.653 -0.10075355 1.750988e-38 367 328
0.054872319 0.65200001 -0.10059925 1.7234367e-38 368 328
0.056015491 0.65200001 -0.10059925 1.7234367e-38 369 328
0.057246335 0.653 -0.10075355 1.7325473e-38 370 328
0.05848068 0.65399998 -0.10090783 1.7048887e-38 371 328
0.059718527 0.65499997 -0.10106213 1.6957044e-38 372 328
0.060866963 0.65499997 -0.10106213 1.6311675e-38 373 328
0.062015396 0.65499997 -0.10106213 1.6127283e-38 374 328
0.063163824 0.65499997 -0.10106213 1.6034729e-38 375 328
0.064508639 0.65700001 -0.10137072 1.5941816e-38 376 328
0.065660581 0.65700001 -0.10137072 1.5573035e-38 377 328
0.066812515 0.65700001 -0.10137072 1.5481561e-38 378 328
0.067964457 0.65700001 -0.10137072 1.5389365e-38 379 328
0.069116399 0.65700001 -0.10137072 1.5021304e-38 380 328
0.07026834 0.65700001 -0.10137072 1.4929109e-38 381 328
0.071420282 0.65700001 -0.10137072 1.4744722e-38 382 328
0.072572216 0.65700001 -0.10137072 1.456033e-38 383 328
0.073836371 0.65799999 -0.10152501 1.4192271e-38 384 328
0.074990064 0.65799999 -0.10152501 1.4100074e-38 385 328
0.076143757 0.65799999 -0.10152501 1.4007876e-38 386 328
0.077414922 0.65899998 -0.1016793 1.391568e-38 387 328
0.078570373 0.65899998 -0.1016793 1.3639816e-38 388 328
0.079967782 0.66100001 -0.10198789 1.354762e-38 389 328
0.081249461 0.662 -0.10214218 1.3178841e-38 390 328
0.082410172 0.662 -0.10214218 1.2994449e-38 391 328
0.083823353 0.66399997 -0.10245077 1.2808982e-38 392 328
0.084987566 0.66399997 -0.10245077 1.2163613e-38 393 328
0.086411275 0.66600001 -0.10275936 1.2070348e-38 394 328
0.087578997 0.66600001 -0.10275936 1.1885598e-38 395 328
0.088879973 0.667 -0.10291365 1.1425708e-38 396 328
0.090049446 0.667 -0.10291365 1.1610458e-38 397 328
0.091218919 0.667 -0.10291365 1.1427506e-38 398 328
0.092526905 0.66799998 -0.10306793 1.1612256e-38 399 328
0.093698129 0.66799998 -0.10306793 1.1520073e-38 400 328
0.095295422 0.671 -0.10353082 1.1151651e-38 401 328
0.096471906 0.671 -0.10353082 1.0414474e-38 402 328
-0.0093417596 0.66600001 -0.10392708 1.5848959e-38 312 329
-0.0081740404 0.66600001 -0.10392708 1.3267481e-38 313 329
-0.0069852793 0.66399997 -0.10361498 1.2255475e-38 314 329
-0.0058210664 0.66399997 -0.10361498 1.234767e-38 315 329
-0.0046568532 0.66399997 -0.10361498 1.253425e-38 316 329
-0.0034873798 0.66299999 -0.10345893 1.3917186e-38 317 329
-0.0023214133 0.662 -0.10330289 1.4471464e-38 318 329
-0.0011607066 0.662 -0.10330289 1.5209388e-38 319 329
0 0.662 -0.10330289 1.5853683e-38 320 329
0.0011607066 0.662 -0.10330289 1.6499052e-38 321 329
0.0023179066 0.66100001 -0.10314685 1.6500851e-38 322 329
0.00347686 0.66100001 -0.10314685 1.6685241e-38 323 329
0.019612785 0.65799999 -0.1026787 1.7236597e-38 337 329
0.02076648 0.65799999 -0.1026787 1.7143663e-38 338 329
0.021920172 0.65799999 -0.1026787 1.6866718e-38 339 329
0.023073865 0.65799999 -0.1026787 1.6590815e-38 340 329
0.02422756 0.65799999 -0.1026787 1.6314588e-38 341 329
0.025381252 0.65799999 -0.1026787 1.6958856e-38 342 329
0.026575271 0.65899998 -0.10283475 1.6958856e-38 343 329
0.027730718 0.65899998 -0.10283475 1.7051407e-38 344 329
0.028886165 0.65899998 -0.10283475 1.7143603e-38 345 329
0.030041611 0.65899998 -0.10283475 1.7235076e-38 346 329
0.031197058 0.65899998 -0.10283475 1.695849e-38 347 329
0.03210704 0.65399998 -0.10205451 1.6404588e-38 348 329
0.033253718 0.65399998 -0.10205451 1.465323e-38 349 329
0.034400396 0.65399998 -0.10205451 1.3353853e-38 350 329
0.035492726 0.653 -0.10189847 1.2800679e-38 351 329
0.036637653 0.653 -0.10189847 1.1607572e-38 352 329
0.03778258 0.653 -0.10189847 1.2436972e-38 353 329
0.038927507 0.653 -0.10189847 1.2529195e-38 354 329
0.04007243 0.653 -0.10189847 1.2990171e-38 355 329
0.041217357 0.653 -0.10189847 1.3452943e-38 356 329
0.042362284 0.653 -0.10189847 1.4190508e-38 357 329
0.043507211 0.653 -0.10189847 1.4928795e-38 358 329
0.044652138 0.653 -0.10189847 1.5574164e-38 359 329
0.045797065 0.653 -0.10189847 1.6127335e-38 360 329
0.046941992 0.653 -0.10189847 1.6312085e-38 361 329
0.048086919 0.653 -0.10189847 1.7047834e-38 362 329
0.049156453 0.65200001 -0.10174242 1.6863442e-38 363 329
0.050299626 0.65200001 -0.10174242 1.658935e-38 364 329
0.051442798 0.65200001 -0.10174242 1.6866297e-38 365 329
0.052585974 0.65200001 -0.10174242 1.6684064e-38 366 329
0.053729147 0.65200001 -0.10174242 1.6776618e-38 367 329
0.054872319 0.65200001 -0.10174242 1.695814e-38 368 329
0.056015491 0.65200001 -0.10174242 1.6865944e-38 369 329
0.057158668 0.65200001 -0.10174242 1.67723e-38 370 329
0.058391262 0.653 -0.10189847 1.6680104e-38 371 329
0.059536185 0.653 -0.10189847 1.6403867e-38 372 329
0.060774036 0.65399998 -0.10205451 1.6127281e-38 373 329
0.062015396 0.65499997 -0.10221056 1.5942533e-38 374 329
0.063163824 0.65499997 -0.10221056 1.5666305e-38 375 329
0.064312264 0.65499997 -0.10221056 1.5390444e-38 376 329
0.065460697 0.65499997 -0.10221056 1.5205694e-38 377 329
0.066812515 0.65700001 -0.10252266 1.5112778e-38 378 329
0.067964457 0.65700001 -0.10252266 1.4928387e-38 379 329
0.069116399 0.65700001 -0.10252266 1.4653242e-38 380 329
0.07026834 0.65700001 -0.10252266 1.4468851e-38 381 329
0.071420282 0.65700001 -0.10252266 1.4284464e-38 382 329
0.072572216 0.65700001 -0.10252266 1.4100071e-38 383 329
0.073724158 0.65700001 -0.10252266 1.4007522e-38 384 329
0.0748761 0.65700001 -0.10252266 1.3915327e-38 385 329
0.076143757 0.65799999 -0.1026787 1.3639816e-38 386 329
0.077297449 0.65799999 -0.1026787 1.354762e-38 387 329
0.078570373 0.65899998 -0.10283475 1.3271036e-38 388 329
0.079967782 0.66100001 -0.10314685 1.3086645e-38 389 329
0.081249461 0.662 -0.10330289 1.2626034e-38 390 329
0.082410172 0.662 -0.10330289 1.2349446e-38 391 329
0.083697118 0.66299999 -0.10345893 1.2163627e-38 392 329
0.084987566 0.66399997 -0.10361498 1.1795203e-38 393 329
0.086411275 0.66600001 -0.10392708 1.1609384e-38 394 329
0.087578997 0.66600001 -0.10392708 1.1517188e-38 395 329
0.088879973 0.667 -0.10408312 1.1335313e-38 396 329
0.090049446 0.667 -0.10408312 1.1427509e-38 397 329
0.091218919 0.667 -0.10408312 1.1336392e-38 398 329
0.092526905 0.66799998 -0.10423917 1.1520424e-38 399 329
0.093698129 0.66799998 -0.10423917 1.1243496e-38 400 329
0.094869353 0.66799998 -0.10423917 1.0966551e-38 401 329
-0.01050948 0.66600001 -0.1050948 1.4095459e-38 311 330
-0.0093137063 0.66399997 -0.10477919 1.381885e-38 312 330
-0.0081494926 0.66399997 -0.10477919 1.2159689e-38 313 330
-0.0069852793 0.66399997 -0.10477919 1.124134e-38 314 330
-0.0058210664 0.66399997 -0.10477919 1.1979263e-38 315 330
-0.0046498398 0.66299999 -0.1046214 1.2348063e-38 316 330
-0.0034873798 0.66299999 -0.1046214 1.2809039e-38 317 330
-0.0023214133 0.662 -0.1044636 1.2903034e-38 318 330
-0.0011607066 0.662 -0.1044636 1.3271817e-38 319 330
0 0.662 -0.1044636 1.3731716e-38 320 330
0.0011607066 0.662 -0.1044636 1.4192694e-38 321 330
0.0023179066 0.66100001 -0.1043058 1.401153e-38 322 330
0.00347686 0.66100001 -0.1043058 1.4103726e-38 323 330
0.0046217865 0.65899998 -0.10399019 1.4838764e-38 324 330
0.0057772328 0.65899998 -0.10399019 1.4931319e-38 325 330
0.019612785 0.65799999 -0.1038324 1.5208612e-38 337 330
0.020734919 0.65700001 -0.1036746 1.5392277e-38 338 330
0.021886859 0.65700001 -0.1036746 1.5668865e-38 339 330
0.023073865 0.65799999 -0.1038324 1.6313505e-38 340 330
0.024190739 0.65700001 -0.1036746 1.6497897e-38 341 330
0.025342681 0.65700001 -0.1036746 1.6775193e-38 342 330
0.026534945 0.65799999 -0.1038324 1.705142e-38 343 330
0.027646558 0.65700001 -0.1036746 1.7051776e-38 344 330
0.028798498 0.65700001 -0.1036746 1.7051776e-38 345 330
0.029859263 0.65499997 -0.10335899 1.7234723e-38 346 330
0.031007698 0.65499997 -0.10335899 1.6865941e-38 347 330
0.03210704 0.65399998 -0.10320119 1.6496786e-38 348 330
0.033202872 0.653 -0.1030434 1.5298243e-38 349 330
0.034347799 0.653 -0.1030434 1.4004986e-38 350 330
0.035492726 0.653 -0.1030434 1.4004986e-38 351 330
0.036581546 0.65200001 -0.1028856 1.3823509e-38 352 330
0.037724718 0.65200001 -0.1028856 1.4561075e-38 353 330
0.038867895 0.65200001 -0.1028856 1.5113192e-38 354 330
0.040011063 0.65200001 -0.1028856 1.5850758e-38 355 330
0.041154239 0.65200001 -0.1028856 1.6312082e-38 356 330
0.042297412 0.65200001 -0.1028856 1.6773061e-38 357 330
0.043440588 0.65200001 -0.1028856 1.6957802e-38 358 330
0.044583756 0.65200001 -0.1028856 1.7142552e-38 359 330
0.045726933 0.65200001 -0.1028856 1.7142547e-38 360 330
0.046870105 0.65200001 -0.1028856 1.7142547e-38 361 330
0.048013281 0.65200001 -0.1028856 1.7233651e-38 362 330
0.049005665 0.64999998 -0.10256999 1.6864508e-38 363 330
0.050145328 0.64999998 -0.10256999 1.6773744e-38 364 330
0.051284995 0.64999998 -0.10256999 1.6773744e-38 365 330
0.052424666 0.64999998 -0.10256999 1.6499323e-38 366 330
0.053564329 0.64999998 -0.10256999 1.6499323e-38 367 330
0.054703996 0.64999998 -0.10256999 1.6680477e-38 368 330
0.055843662 0.64999998 -0.10256999 1.640389e-38 369 330
0.057158668 0.65200001 -0.1028856 1.621842e-38 370 330
0.058301836 0.65200001 -0.1028856 1.621842e-38 371 330
0.059445009 0.65200001 -0.1028856 1.6034026e-38 372 330
0.060681112 0.653 -0.1030434 1.5757799e-38 373 330
0.061826039 0.653 -0.1030434 1.5573759e-38 374 330
0.063067392 0.65399998 -0.10320119 1.5481205e-38 375 330
0.064214081 0.65399998 -0.10320119 1.5113499e-38 376 330
0.065460697 0.65499997 -0.10335899 1.4929106e-38 377 330
0.066609129 0.65499997 -0.10335899 1.4745072e-38 378 330
0.067757562 0.65499997 -0.10335899 1.4560681e-38 379 330
0.068905994 0.65499997 -0.10335899 1.4193337e-38 380 330
0.070054427 0.65499997 -0.10335899 1.410114e-38 381 330
0.071202859 0.65499997 -0.10335899 1.3917112e-38 382 330
0.072351299 0.65499997 -0.10335899 1.3824558e-38 383 330
0.073724158 0.65700001 -0.1036746 1.3823484e-38 384 330
0.0748761 0.65700001 -0.1036746 1.3639094e-38 385 330
0.076028034 0.65700001 -0.1036746 1.3271034e-38 386 330
0.077297449 0.65799999 -0.1038324 1.3086642e-38 387 330
0.078570373 0.65899998 -0.10399019 1.3084844e-38 388 330
0.079967782 0.66100001 -0.1043058 1.2900452e-38 389 330
0.081126735 0.66100001 -0.1043058 1.2165415e-38 390 330
0.082410172 0.662 -0.1044636 1.1888468e-38 391 330
0.083697118 0.66299999 -0.1046214 1.1701935e-38 392 330
0.084987566 0.66399997 -0.10477919 1.1517544e-38 393 330
0.086151779 0.66399997 -0.10477919 1.1150202e-38 394 330
0.087578997 0.66600001 -0.1050948 1.1242399e-38 395 330
0.088746719 0.66600001 -0.1050948 1.1152001e-38 396 330
0.090049446 0.667 -0.10525259 1.1244197e-38 397 330
0.091218919 0.667 -0.10525259 1.1336395e-38 398 330
0.092388391 0.667 -0.10525259 1.12442e-38 399 330
0.093557864 0.667 -0.10525259 1.0691411e-38 400 330
-0.011694733 0.667 -0.10642207 1.3636634e-38 310 331
-0.01050948 0.66600001 -0.10626251 1.262248e-38 311 331
-0.0092996797 0.66299999 -0.10578386 1.197674e-38 312 331
-0.0081372196 0.66299999 -0.10578386 1.0686001e-38 313 331
-0.0069642398 0.662 -0.1056243 1.1606531e-38 314 331
-0.0058035329 0.662 -0.1056243 1.2436293e-38 315 331
-0.0046498398 0.66299999 -0.10578386 1.2071825e-38 316 331
-0.0034873798 0.66299999 -0.10578386 1.2624999e-38 317 331
-0.0023214133 0.662 -0.1056243 1.2902292e-38 318 331
-0.0011607066 0.662 -0.1056243 1.3362911e-38 319 331
0 0.662 -0.1056243 1.373241e-38 320 331
0.0011607066 0.662 -0.1056243 1.4100832e-38 321 331
0.0023214133 0.662 -0.1056243 1.4469245e-38 322 331
0.00347686 0.66100001 -0.10546475 1.4653637e-38 323 331
0.0046217865 0.65899998 -0.10514564 1.4471041e-38 324 331
0.0057772328 0.65899998 -0.10514564 1.4655791e-38 325 331
0.00695372 0.66100001 -0.10546475 1.4380643e-38 326 331
0.0080881258 0.65899998 -0.10514564 1.4472839e-38 327 331
