# .PCD v.7 - Point Cloud Data file format
FIELDS x y z rgb imX imY
SIZE 4 4 4 4 4 4
TYPE F F F F F F
COUNT 1 1 1 1 1 1
WIDTH 836
HEIGHT 1
VIEWPOINT 0 0 0 1 0 0 0
POINTS 836
DATA ascii
0.051758397 0.73799998 -0.0077637597 1.8707644e-38 360 246
0.052908584 0.736 -0.0077427197 1.879984e-38 361 246
0.05419904 0.736 -0.0077427197 1.8708713e-38 362 246
0.055489492 0.736 -0.0077427197 1.8708713e-38 363 246
0.056779943 0.736 -0.0077427197 1.8433208e-38 364 246
0.058070395 0.736 -0.0077427197 1.8433208e-38 365 246
0.059360851 0.736 -0.0077427197 1.8157344e-38 366 246
0.060486492 0.73400003 -0.0077216802 1.8065149e-38 367 246
0.061773442 0.73400003 -0.0077216802 1.8524332e-38 368 246
0.062974468 0.73299998 -0.0077111595 1.8524332e-38 369 246
0.064259663 0.73299998 -0.0077111595 1.8246683e-38 370 246
0.065544859 0.73299998 -0.0077111595 1.8154486e-38 371 246
0.066830046 0.73299998 -0.0077111595 1.7876849e-38 372 246
0.067929395 0.73100001 -0.00769012 1.7139284e-38 373 246
0.069211073 0.73100001 -0.00769012 1.7133915e-38 374 246
-0.065749995 0.75 -0.0092049995 1.613019e-38 270 247
-0.064434998 0.75 -0.0092049995 1.6591168e-38 271 247
-0.06312 0.75 -0.0092049995 1.760565e-38 272 247
-0.061804999 0.75 -0.0092049995 1.8343216e-38 273 247
-0.060489997 0.75 -0.0092049995 1.8527241e-38 274 247
-0.059175 0.75 -0.0092049995 1.834285e-38 275 247
-0.057859998 0.75 -0.0092049995 1.8435048e-38 276 247
-0.056544997 0.75 -0.0092049995 1.8342853e-38 277 247
-0.055229999 0.75 -0.0092049995 1.8342497e-38 278 247
-0.053843111 0.74900001 -0.0091927266 1.8158105e-38 279 247
-0.052529868 0.74900001 -0.0091927266 1.7972623e-38 280 247
-0.051216617 0.74900001 -0.0091927266 1.7880427e-38 281 247
-0.04990337 0.74900001 -0.0091927266 1.7604916e-38 282 247
-0.048655 0.75 -0.0092049995 1.7604916e-38 283 247
-0.047339998 0.75 -0.0092049995 1.6961713e-38 284 247
-0.046024997 0.75 -0.0092049995 1.6869518e-38 285 247
-0.044650383 0.74900001 -0.0091927266 1.7052461e-38 286 247
-0.04333714 0.74900001 -0.0091927266 1.6775873e-38 287 247
-0.04208 0.75 -0.0092049995 1.68677e-38 288 247
-0.040764999 0.75 -0.0092049995 1.6775504e-38 289 247
-0.039449997 0.75 -0.0092049995 1.6591108e-38 290 247
-0.038236689 0.75199997 -0.0092295464 1.6314881e-38 291 247
-0.036918186 0.75199997 -0.0092295464 1.6223048e-38 292 247
-0.035599679 0.75199997 -0.0092295464 1.6130851e-38 293 247
-0.034281172 0.75199997 -0.0092295464 1.5762441e-38 294 247
-0.033050332 0.75400001 -0.0092540924 1.5486215e-38 295 247
-0.03172832 0.75400001 -0.0092540924 1.5209991e-38 296 247
-0.030406307 0.75400001 -0.0092540924 1.4933762e-38 297 247
-0.029122867 0.755 -0.0092663663 1.4657548e-38 298 247
-0.027799098 0.755 -0.0092663663 1.4657548e-38 299 247
-0.026475333 0.755 -0.0092663663 1.4381697e-38 300 247
-0.025151566 0.755 -0.0092663663 1.410511e-38 301 247
-0.023827799 0.755 -0.0092663663 1.4195857e-38 302 247
-0.022504034 0.755 -0.0092663663 1.438025e-38 303 247
-0.021180267 0.755 -0.0092663663 1.4380974e-38 304 247
-0.0198565 0.755 -0.0092663663 1.447317e-38 305 247
-0.018459093 0.75199997 -0.0092295464 1.4472451e-38 306 247
-0.017140586 0.75199997 -0.0092295464 1.4287701e-38 307 247
-0.015822079 0.75199997 -0.0092295464 1.4563921e-38 308 247
-0.014503572 0.75199997 -0.0092295464 1.4748312e-38 309 247
-0.013185065 0.75199997 -0.0092295464 1.4472817e-38 310 247
-0.011866559 0.75199997 -0.0092295464 1.4380621e-38 311 247
-0.010548052 0.75199997 -0.0092295464 1.4472098e-38 312 247
-0.0092295464 0.75199997 -0.0092295464 1.4287706e-38 313 247
-0.0079110395 0.75199997 -0.0092295464 1.4380255e-38 314 247
-0.0065925326 0.75199997 -0.0092295464 1.4472451e-38 315 247
-0.0052740262 0.75199997 -0.0092295464 1.4472814e-38 316 247
-0.0039555198 0.75199997 -0.0092295464 1.4565009e-38 317 247
-0.0026370131 0.75199997 -0.0092295464 1.4472819e-38 318 247
-0.0013185065 0.75199997 -0.0092295464 1.4472819e-38 319 247
0 0.75 -0.0092049995 1.4655413e-38 320 247
0.001315 0.75 -0.0092049995 1.4747608e-38 321 247
0.00263 0.75 -0.0092049995 1.4380252e-38 322 247
0.003945 0.75 -0.0092049995 1.4288055e-38 323 247
0.00526 0.75 -0.0092049995 1.4563565e-38 324 247
0.0065662335 0.74900001 -0.0091927266 1.4747956e-38 325 247
0.0078794798 0.74900001 -0.0091927266 1.4472814e-38 326 247
0.0091927266 0.74900001 -0.0091927266 1.4196587e-38 327 247
0.010505973 0.74900001 -0.0091927266 1.4565009e-38 328 247
0.01181922 0.74900001 -0.0091927266 1.4565009e-38 329 247
0.013132467 0.74900001 -0.0091927266 1.4656489e-38 330 247
0.014445714 0.74900001 -0.0091927266 1.4656489e-38 331 247
0.015716879 0.74699998 -0.0091681797 1.4747956e-38 332 247
0.017026618 0.74699998 -0.0091681797 1.4563565e-38 333 247
0.018336359 0.74699998 -0.0091681797 1.4931611e-38 334 247
0.019646099 0.74699998 -0.0091681797 1.5116003e-38 335 247
0.020927785 0.74599999 -0.0091559067 1.5117072e-38 336 247
0.022235774 0.74599999 -0.0091559067 1.5117072e-38 337 247
0.023543758 0.74599999 -0.0091559067 1.5208899e-38 338 247
0.024851745 0.74599999 -0.0091559067 1.5485484e-38 339 247
0.026159734 0.74599999 -0.0091559067 1.5854622e-38 340 247
0.027467718 0.74599999 -0.0091559067 1.6038653e-38 341 247
0.02869856 0.74400002 -0.0091313599 1.6315953e-38 342 247
0.030003037 0.74400002 -0.0091313599 1.6500344e-38 343 247
0.031307522 0.74400002 -0.0091313599 1.6866969e-38 344 247
0.032612 0.74400002 -0.0091313599 1.7051719e-38 345 247
0.033825304 0.74199998 -0.009106813 1.7144284e-38 346 247
0.03512628 0.74199998 -0.009106813 1.723648e-38 347 247
0.036378156 0.741 -0.0090945391 1.7512363e-38 348 247
0.037677377 0.741 -0.0090945391 1.7604919e-38 349 247
0.038976599 0.741 -0.0090945391 1.7513089e-38 350 247
0.04027582 0.741 -0.0090945391 1.7513089e-38 351 247
0.041462827 0.73900002 -0.0090699932 1.7971541e-38 352 247
0.042758539 0.73900002 -0.0090699932 1.7971541e-38 353 247
0.044054255 0.73900002 -0.0090699932 1.7880777e-38 354 247
0.045349967 0.73900002 -0.0090699932 1.7972973e-38 355 247
0.046645679 0.73900002 -0.0090699932 1.7972973e-38 356 247
0.047941394 0.73900002 -0.0090699932 1.8157004e-38 357 247
0.049170475 0.73799998 -0.0090577193 1.8156641e-38 358 247
0.050327681 0.736 -0.0090331733 1.8248837e-38 359 247
0.051618133 0.736 -0.0090331733 1.8523979e-38 360 247
0.052764814 0.73400003 -0.0090086265 1.8523979e-38 361 247
0.054051761 0.73400003 -0.0090086265 1.8249187e-38 362 247
0.055338707 0.73400003 -0.0090086265 1.8249187e-38 363 247
0.056625653 0.73400003 -0.0090086265 1.8340657e-38 364 247
0.057912603 0.73400003 -0.0090086265 1.8340657e-38 365 247
0.059199546 0.73400003 -0.0090086265 1.8340654e-38 366 247
0.060486492 0.73400003 -0.0090086265 1.8340654e-38 367 247
0.061689276 0.73299998 -0.0089963535 1.8523606e-38 368 247
0.062974468 0.73299998 -0.0089963535 1.8523606e-38 369 247
0.064084329 0.73100001 -0.0089718066 1.8247738e-38 370 247
0.065366022 0.73100001 -0.0089718066 1.8247738e-38 371 247
0.066830046 0.73299998 -0.0089963535 1.8062278e-38 372 247
0.067929395 0.73100001 -0.0089718066 1.7877528e-38 373 247
0.069211073 0.73100001 -0.0089718066 1.7322584e-38 374 247
-0.069602072 0.74900001 -0.010505973 1.6962897e-38 267 248
-0.068379998 0.75 -0.01052 1.5850732e-38 268 248
-0.067065001 0.75 -0.01052 1.5758536e-38 269 248
-0.065662332 0.74900001 -0.010505973 1.6774818e-38 270 248
-0.064349085 0.74900001 -0.010505973 1.8157752e-38 271 248
-0.06312 0.75 -0.01052 1.8894601e-38 272 248
-0.061722592 0.74900001 -0.010505973 1.8802406e-38 273 248
-0.060409348 0.74900001 -0.010505973 1.8526888e-38 274 248
-0.059096102 0.74900001 -0.010505973 1.8434692e-38 275 248
-0.057782855 0.74900001 -0.010505973 1.8525443e-38 276 248
-0.056469604 0.74900001 -0.010505973 1.834105e-38 277 248
-0.055156358 0.74900001 -0.010505973 1.8248852e-38 278 248
-0.053843111 0.74900001 -0.010505973 1.7972625e-38 279 248
-0.052529868 0.74900001 -0.010505973 1.7603483e-38 280 248
-0.051216617 0.74900001 -0.010505973 1.7603483e-38 281 248
-0.04990337 0.74900001 -0.010505973 1.7142506e-38 282 248
-0.048590127 0.74900001 -0.010505973 1.7142506e-38 283 248
-0.047276881 0.74900001 -0.010505973 1.686772e-38 284 248
-0.045963634 0.74900001 -0.010505973 1.6406742e-38 285 248
-0.044650383 0.74900001 -0.010505973 1.6221626e-38 286 248
-0.04333714 0.74900001 -0.010505973 1.5852842e-38 287 248
-0.04208 0.75 -0.01052 1.5484766e-38 288 248
-0.040764999 0.75 -0.01052 1.5300374e-38 289 248
-0.039449997 0.75 -0.01052 1.520782e-38 290 248
-0.038135 0.75 -0.01052 1.5115624e-38 291 248
-0.036819998 0.75 -0.01052 1.4839763e-38 292 248
-0.035505001 0.75 -0.01052 1.4931959e-38 293 248
-0.034281172 0.75199997 -0.010548052 1.4381309e-38 294 248
-0.033050332 0.75400001 -0.010576107 1.4289112e-38 295 248
-0.03172832 0.75400001 -0.010576107 1.4196563e-38 296 248
-0.030406307 0.75400001 -0.010576107 1.4196563e-38 297 248
-0.029084291 0.75400001 -0.010576107 1.4379882e-38 298 248
-0.027762281 0.75400001 -0.010576107 1.4379882e-38 299 248
-0.026440267 0.75400001 -0.010576107 1.4288055e-38 300 248
-0.025118252 0.75400001 -0.010576107 1.4288055e-38 301 248
-0.02379624 0.75400001 -0.010576107 1.4288055e-38 302 248
-0.022474226 0.75400001 -0.010576107 1.4288055e-38 303 248
-0.021152213 0.75400001 -0.010576107 1.4379529e-38 304 248
-0.019830201 0.75400001 -0.010576107 1.4379529e-38 305 248
-0.018459093 0.75199997 -0.010548052 1.4379529e-38 306 248
-0.017140586 0.75199997 -0.010548052 1.4379529e-38 307 248
-0.015822079 0.75199997 -0.010548052 1.4563565e-38 308 248
-0.014503572 0.75199997 -0.010548052 1.4563565e-38 309 248
-0.013185065 0.75199997 -0.010548052 1.4563565e-38 310 248
-0.011866559 0.75199997 -0.010548052 1.4379532e-38 311 248
-0.010548052 0.75199997 -0.010548052 1.4379529e-38 312 248
-0.0092295464 0.75199997 -0.010548052 1.4379529e-38 313 248
-0.0079110395 0.75199997 -0.010548052 1.4379882e-38 314 248
-0.0065925326 0.75199997 -0.010548052 1.4379882e-38 315 248
-0.0052740262 0.75199997 -0.010548052 1.4380605e-38 316 248
-0.0039555198 0.75199997 -0.010548052 1.4380605e-38 317 248
-0.0026370131 0.75199997 -0.010548052 1.4656116e-38 318 248
-0.0013185065 0.75199997 -0.010548052 1.4563921e-38 319 248
0 0.75 -0.01052 1.4563918e-38 320 248
0.001315 0.75 -0.01052 1.4379885e-38 321 248
0.0026264933 0.74900001 -0.010505973 1.45632e-38 322 248
0.0039397399 0.74900001 -0.010505973 1.45632e-38 323 248
0.0052529867 0.74900001 -0.010505973 1.4563565e-38 324 248
0.0065486995 0.74699998 -0.010477919 1.4563565e-38 325 248
0.0078584393 0.74699998 -0.010477919 1.4563918e-38 326 248
0.0091681797 0.74699998 -0.010477919 1.4563918e-38 327 248
0.010477919 0.74699998 -0.010477919 1.4656464e-38 328 248
0.011787659 0.74699998 -0.010477919 1.4656464e-38 329 248
0.013097399 0.74699998 -0.010477919 1.483906e-38 330 248
0.014407139 0.74699998 -0.010477919 1.4931256e-38 331 248
0.015716879 0.74699998 -0.010477919 1.4839063e-38 332 248
0.017026618 0.74699998 -0.010477919 1.4839063e-38 333 248
0.018336359 0.74699998 -0.010477919 1.5113849e-38 334 248
0.019646099 0.74699998 -0.010477919 1.5021652e-38 335 248
0.020927785 0.74599999 -0.010463892 1.4747213e-38 336 248
0.022235774 0.74599999 -0.010463892 1.4747213e-38 337 248
0.023543758 0.74599999 -0.010463892 1.4563532e-38 338 248
0.024851745 0.74599999 -0.010463892 1.4563532e-38 339 248
0.026159734 0.74599999 -0.010463892 1.456353e-38 340 248
0.027394081 0.74400002 -0.01043584 1.4840115e-38 341 248
0.02869856 0.74400002 -0.01043584 1.5025229e-38 342 248
0.030003037 0.74400002 -0.01043584 1.5117425e-38 343 248
0.031223357 0.74199998 -0.010407786 1.5485129e-38 344 248
0.032524332 0.74199998 -0.010407786 1.5762076e-38 345 248
0.033779722 0.741 -0.010393759 1.631345e-38 346 248
0.035078939 0.741 -0.010393759 1.6590038e-38 347 248
0.036378156 0.741 -0.010393759 1.6774798e-38 348 248
0.037677377 0.741 -0.010393759 1.7143581e-38 349 248
0.0388714 0.73900002 -0.010365707 1.732725e-38 350 248
0.040167112 0.73900002 -0.010365707 1.751164e-38 351 248
0.041462827 0.73900002 -0.010365707 1.7879684e-38 352 248
0.042758539 0.73900002 -0.010365707 1.7879684e-38 353 248
0.044054255 0.73900002 -0.010365707 1.7788565e-38 354 248
0.0452886 0.73799998 -0.010351679 1.7696369e-38 355 248
0.046582557 0.73799998 -0.010351679 1.7788565e-38 356 248
0.047876518 0.73799998 -0.010351679 1.7972597e-38 357 248
0.049037226 0.736 -0.010323626 1.8247742e-38 358 248
0.050190922 0.73400003 -0.010295574 1.8339938e-38 359 248
0.051477864 0.73400003 -0.010295574 1.8523253e-38 360 248
0.052764814 0.73400003 -0.010295574 1.8523253e-38 361 248
0.054051761 0.73400003 -0.010295574 1.8523253e-38 362 248
0.055338707 0.73400003 -0.010295574 1.8523253e-38 363 248
0.056625653 0.73400003 -0.010295574 1.8432133e-38 364 248
0.057912603 0.73400003 -0.010295574 1.8432133e-38 365 248
0.059118889 0.73299998 -0.010281546 1.834066e-38 366 248
0.060404085 0.73299998 -0.010281546 1.834066e-38 367 248
0.061689276 0.73299998 -0.010281546 1.843178e-38 368 248
0.062802643 0.73100001 -0.010253493 1.8339585e-38 369 248
0.064084329 0.73100001 -0.010253493 1.8156626e-38 370 248
0.065366022 0.73100001 -0.010253493 1.806443e-38 371 248
0.066647708 0.73100001 -0.010253493 1.8154821e-38 372 248
0.067836471 0.73000002 -0.010239467 1.8062625e-38 373 248
0.069116399 0.73000002 -0.010239467 1.8062641e-38 374 248
0.070396334 0.73000002 -0.010239467 1.7786414e-38 375 248
-0.070915319 0.74900001 -0.01181922 1.7604273e-38 266 249
-0.069602072 0.74900001 -0.01181922 1.6128783e-38 267 249
-0.068288825 0.74900001 -0.01181922 1.5021652e-38 268 249
-0.066975579 0.74900001 -0.01181922 1.5851773e-38 269 249
-0.065662332 0.74900001 -0.01181922 1.7787875e-38 270 249
-0.064349085 0.74900001 -0.01181922 1.8802026e-38 271 249
-0.063035838 0.74900001 -0.01181922 1.8985718e-38 272 249
-0.061722592 0.74900001 -0.01181922 1.8893521e-38 273 249
-0.060409348 0.74900001 -0.01181922 1.8618007e-38 274 249
-0.059096102 0.74900001 -0.01181922 1.8433616e-38 275 249
-0.057782855 0.74900001 -0.01181922 1.8065189e-38 276 249
-0.056469604 0.74900001 -0.01181922 1.7880439e-38 277 249
-0.055156358 0.74900001 -0.01181922 1.7880077e-38 278 249
-0.053699337 0.74699998 -0.011787659 1.7695327e-38 279 249
-0.052389596 0.74699998 -0.011787659 1.714323e-38 280 249
-0.051079858 0.74699998 -0.011787659 1.6866645e-38 281 249
-0.049770117 0.74699998 -0.011787659 1.6497858e-38 282 249
-0.048590127 0.74900001 -0.01181922 1.603688e-38 283 249
-0.047276881 0.74900001 -0.01181922 1.5668081e-38 284 249
-0.045963634 0.74900001 -0.01181922 1.5022711e-38 285 249
-0.044650383 0.74900001 -0.01181922 1.4654649e-38 286 249
-0.04333714 0.74900001 -0.01181922 1.483904e-38 287 249
-0.042023893 0.74900001 -0.01181922 1.4747213e-38 288 249
-0.040710647 0.74900001 -0.01181922 1.4747213e-38 289 249
-0.039449997 0.75 -0.011835 1.4746513e-38 290 249
-0.038135 0.75 -0.011835 1.483871e-38 291 249
-0.036819998 0.75 -0.011835 1.4563567e-38 292 249
-0.035505001 0.75 -0.011835 1.4379536e-38 293 249
-0.034281172 0.75199997 -0.011866559 1.419621e-38 294 249
-0.033050332 0.75400001 -0.01189812 1.419621e-38 295 249
-0.03172832 0.75400001 -0.01189812 1.4012189e-38 296 249
-0.030406307 0.75400001 -0.01189812 1.4012189e-38 297 249
-0.029084291 0.75400001 -0.01189812 1.4012192e-38 298 249
-0.027762281 0.75400001 -0.01189812 1.3919996e-38 299 249
-0.026440267 0.75400001 -0.01189812 1.4012189e-38 300 249
-0.025118252 0.75400001 -0.01189812 1.4012189e-38 301 249
-0.02379624 0.75400001 -0.01189812 1.3828879e-38 302 249
-0.022474226 0.75400001 -0.01189812 1.3828879e-38 303 249
-0.021152213 0.75400001 -0.01189812 1.4012192e-38 304 249
-0.019830201 0.75400001 -0.01189812 1.4012192e-38 305 249
-0.018459093 0.75199997 -0.011866559 1.437918e-38 306 249
-0.017140586 0.75199997 -0.011866559 1.437918e-38 307 249
-0.015822079 0.75199997 -0.011866559 1.437918e-38 308 249
-0.014503572 0.75199997 -0.011866559 1.437918e-38 309 249
-0.013185065 0.75199997 -0.011866559 1.4287704e-38 310 249
-0.011866559 0.75199997 -0.011866559 1.4287704e-38 311 249
-0.010548052 0.75199997 -0.011866559 1.4379536e-38 312 249
-0.0092295464 0.75199997 -0.011866559 1.4379536e-38 313 249
-0.0079110395 0.75199997 -0.011866559 1.410474e-38 314 249
-0.0065925326 0.75199997 -0.011866559 1.410474e-38 315 249
-0.0052740262 0.75199997 -0.011866559 1.4104743e-38 316 249
-0.0039555198 0.75199997 -0.011866559 1.4104743e-38 317 249
-0.0026370131 0.75199997 -0.011866559 1.4104389e-38 318 249
-0.0013185065 0.75199997 -0.011866559 1.4104389e-38 319 249
0 0.75 -0.011835 1.4379532e-38 320 249
0.001315 0.75 -0.011835 1.4379532e-38 321 249
0.0026264933 0.74900001 -0.01181922 1.4379536e-38 322 249
0.0039397399 0.74900001 -0.01181922 1.4379536e-38 323 249
0.0052529867 0.74900001 -0.01181922 1.4379536e-38 324 249
0.0065486995 0.74699998 -0.011787659 1.4379536e-38 325 249
0.0078584393 0.74699998 -0.011787659 1.4379529e-38 326 249
0.0091681797 0.74699998 -0.011787659 1.4563921e-38 327 249
0.010477919 0.74699998 -0.011787659 1.4563918e-38 328 249
0.011787659 0.74699998 -0.011787659 1.4656113e-38 329 249
0.013097399 0.74699998 -0.011787659 1.465575e-38 330 249
0.014407139 0.74699998 -0.011787659 1.4563195e-38 331 249
0.015716879 0.74699998 -0.011787659 1.4563195e-38 332 249
0.017026618 0.74699998 -0.011787659 1.4563195e-38 333 249
0.018336359 0.74699998 -0.011787659 1.4746866e-38 334 249
0.019646099 0.74699998 -0.011787659 1.4839063e-38 335 249
0.020927785 0.74599999 -0.011771879 1.4655748e-38 336 249
0.022235774 0.74599999 -0.011771879 1.4747943e-38 337 249
0.023543758 0.74599999 -0.011771879 1.4840139e-38 338 249
0.024851745 0.74599999 -0.011771879 1.4655748e-38 339 249
0.026159734 0.74599999 -0.011771879 1.474651e-38 340 249
0.027394081 0.74400002 -0.011740319 1.4930902e-38 341 249
0.02869856 0.74400002 -0.011740319 1.4839791e-38 342 249
0.029922385 0.74199998 -0.01170876 1.5116018e-38 343 249
0.031223357 0.74199998 -0.01170876 1.5208567e-38 344 249
0.032524332 0.74199998 -0.01170876 1.5208567e-38 345 249
0.033779722 0.741 -0.01169298 1.5484062e-38 346 249
0.035078939 0.741 -0.01169298 1.5576259e-38 347 249
0.036378156 0.741 -0.01169298 1.566953e-38 348 249
0.037575684 0.73900002 -0.01166142 1.5761725e-38 349 249
0.0388714 0.73900002 -0.01166142 1.6130135e-38 350 249
0.040167112 0.73900002 -0.01166142 1.6314528e-38 351 249
0.041462827 0.73900002 -0.01166142 1.6775858e-38 352 249
0.042700678 0.73799998 -0.011645639 1.7144281e-38 353 249
0.043994635 0.73799998 -0.011645639 1.7143565e-38 354 249
0.0452886 0.73799998 -0.011645639 1.7235761e-38 355 249
0.046582557 0.73799998 -0.011645639 1.7511988e-38 356 249
0.047746774 0.736 -0.01161408 1.7604183e-38 357 249
0.048903972 0.73400003 -0.011582521 1.7604183e-38 358 249
0.050190922 0.73400003 -0.011582521 1.7696738e-38 359 249
0.051477864 0.73400003 -0.011582521 1.8154836e-38 360 249
0.052692924 0.73299998 -0.011566739 1.8247392e-38 361 249
0.053978115 0.73299998 -0.011566739 1.8155192e-38 362 249
0.055263311 0.73299998 -0.011566739 1.8247389e-38 363 249
0.056548502 0.73299998 -0.011566739 1.8064074e-38 364 249
0.057833698 0.73299998 -0.011566739 1.8064074e-38 365 249
0.058957584 0.73100001 -0.01153518 1.8064796e-38 366 249
0.06023927 0.73100001 -0.01153518 1.8064796e-38 367 249
0.061689276 0.73299998 -0.011566739 1.8156272e-38 368 249
0.062802643 0.73100001 -0.01153518 1.8156272e-38 369 249
0.063996665 0.73000002 -0.011519399 1.8156626e-38 370 249
0.0652766 0.73000002 -0.011519399 1.806443e-38 371 249
0.066556528 0.73000002 -0.011519399 1.8248441e-38 372 249
0.067650609 0.72799999 -0.01148784 1.806405e-38 373 249
0.068927035 0.72799999 -0.01148784 1.8156246e-38 374 249
0.070203468 0.72799999 -0.01148784 1.806405e-38 375 249
0.071381703 0.727 -0.01147206 1.7970429e-38 376 249
0.072656378 0.727 -0.01147206 1.7970429e-38 377 249
-0.072324999 0.75 -0.01315 1.6134569e-38 265 250
-0.070915319 0.74900001 -0.013132467 1.5757451e-38 266 250
-0.069602072 0.74900001 -0.013132467 1.5664896e-38 267 250
-0.068288825 0.74900001 -0.013132467 1.5944684e-38 268 250
-0.066975579 0.74900001 -0.013132467 1.6959196e-38 269 250
-0.065486997 0.74699998 -0.013097399 1.8249229e-38 270 250
-0.06417726 0.74699998 -0.013097399 1.861801e-38 271 250
-0.062867515 0.74699998 -0.013097399 1.8250314e-38 272 250
-0.061557774 0.74699998 -0.013097399 1.8066282e-38 273 250
-0.060248036 0.74699998 -0.013097399 1.8432894e-38 274 250
-0.058938295 0.74699998 -0.013097399 1.8248502e-38 275 250
-0.057628557 0.74699998 -0.013097399 1.7788247e-38 276 250
-0.056318816 0.74699998 -0.013097399 1.7511661e-38 277 250
-0.055009075 0.74699998 -0.013097399 1.7603132e-38 278 250
-0.053699337 0.74699998 -0.013097399 1.7234351e-38 279 250
-0.052389596 0.74699998 -0.013097399 1.6681533e-38 280 250
-0.051079858 0.74699998 -0.013097399 1.6497142e-38 281 250
-0.049770117 0.74699998 -0.013097399 1.5667374e-38 282 250
-0.048460379 0.74699998 -0.013097399 1.4561028e-38 283 250
-0.047276881 0.74900001 -0.013132467 1.3179153e-38 284 250
-0.045963634 0.74900001 -0.013132467 1.2718175e-38 285 250
-0.044650383 0.74900001 -0.013132467 1.3268124e-38 286 250
-0.04333714 0.74900001 -0.013132467 1.4651059e-38 287 250
-0.042023893 0.74900001 -0.013132467 1.391963e-38 288 250
-0.040710647 0.74900001 -0.013132467 1.4195857e-38 289 250
-0.0393974 0.74900001 -0.013132467 1.4287334e-38 290 250
-0.038135 0.75 -0.01315 1.4287334e-38 291 250
-0.036819998 0.75 -0.01315 1.4195141e-38 292 250
-0.035505001 0.75 -0.01315 1.4195141e-38 293 250
-0.034189999 0.75 -0.01315 1.4011473e-38 294 250
-0.033050332 0.75400001 -0.013220133 1.4011473e-38 295 250
-0.03172832 0.75400001 -0.013220133 1.3919996e-38 296 250
-0.030406307 0.75400001 -0.013220133 1.38278e-38 297 250
-0.029084291 0.75400001 -0.013220133 1.3644485e-38 298 250
-0.027762281 0.75400001 -0.013220133 1.3644485e-38 299 250
-0.026440267 0.75400001 -0.013220133 1.3736684e-38 300 250
-0.025118252 0.75400001 -0.013220133 1.3736684e-38 301 250
-0.02379624 0.75400001 -0.013220133 1.3919643e-38 302 250
-0.022474226 0.75400001 -0.013220133 1.3919643e-38 303 250
-0.021152213 0.75400001 -0.013220133 1.3919643e-38 304 250
-0.019830201 0.75400001 -0.013220133 1.3919643e-38 305 250
-0.018459093 0.75199997 -0.013185065 1.4011841e-38 306 250
-0.017140586 0.75199997 -0.013185065 1.4011841e-38 307 250
-0.015822079 0.75199997 -0.013185065 1.4195153e-38 308 250
-0.014503572 0.75199997 -0.013185065 1.4195153e-38 309 250
-0.013185065 0.75199997 -0.013185065 1.4195153e-38 310 250
-0.011866559 0.75199997 -0.013185065 1.4195153e-38 311 250
-0.010548052 0.75199997 -0.013185065 1.4012194e-38 312 250
-0.0092295464 0.75199997 -0.013185065 1.4012194e-38 313 250
-0.0079110395 0.75199997 -0.013185065 1.4011473e-38 314 250
-0.0065925326 0.75199997 -0.013185065 1.4011473e-38 315 250
-0.0052740262 0.75199997 -0.013185065 1.4011475e-38 316 250
-0.0039555198 0.75199997 -0.013185065 1.4195507e-38 317 250
-0.0026370131 0.75199997 -0.013185065 1.4195151e-38 318 250
-0.0013185065 0.75199997 -0.013185065 1.4195151e-38 319 250
0 0.75 -0.01315 1.4195151e-38 320 250
0.001315 0.75 -0.01315 1.4195151e-38 321 250
0.0026264933 0.74900001 -0.013132467 1.4195151e-38 322 250
0.0039397399 0.74900001 -0.013132467 1.4195151e-38 323 250
0.0052529867 0.74900001 -0.013132467 1.4195151e-38 324 250
0.0065486995 0.74699998 -0.013097399 1.4287706e-38 325 250
0.0078584393 0.74699998 -0.013097399 1.4287704e-38 326 250
0.0091681797 0.74699998 -0.013097399 1.4287704e-38 327 250
0.010477919 0.74699998 -0.013097399 1.4287701e-38 328 250
0.011787659 0.74699998 -0.013097399 1.4287701e-38 329 250
0.013097399 0.74699998 -0.013097399 1.45632e-38 330 250
0.014407139 0.74699998 -0.013097399 1.45632e-38 331 250
0.015716879 0.74699998 -0.013097399 1.4563195e-38 332 250
0.017026618 0.74699998 -0.013097399 1.4563195e-38 333 250
0.018336359 0.74699998 -0.013097399 1.4655745e-38 334 250
0.019619798 0.74599999 -0.013079867 1.4655745e-38 335 250
0.020927785 0.74599999 -0.013079867 1.4748296e-38 336 250
0.022235774 0.74599999 -0.013079867 1.4748296e-38 337 250
0.023543758 0.74599999 -0.013079867 1.4748296e-38 338 250
0.024851745 0.74599999 -0.013079867 1.4840492e-38 339 250
0.026089599 0.74400002 -0.0130448 1.4747943e-38 340 250
0.027394081 0.74400002 -0.0130448 1.4840139e-38 341 250
0.028621411 0.74199998 -0.013009733 1.4840142e-38 342 250
0.029922385 0.74199998 -0.013009733 1.4840142e-38 343 250
0.03118128 0.741 -0.0129922 1.4839786e-38 344 250
0.032480497 0.741 -0.0129922 1.5024176e-38 345 250
0.033779722 0.741 -0.0129922 1.4839789e-38 346 250
0.034984261 0.73900002 -0.012957133 1.502382e-38 347 250
0.036279973 0.73900002 -0.012957133 1.4839789e-38 348 250
0.037575684 0.73900002 -0.012957133 1.4839789e-38 349 250
0.0388714 0.73900002 -0.012957133 1.5025252e-38 350 250
0.040167112 0.73900002 -0.012957133 1.530148e-38 351 250
0.041462827 0.73900002 -0.012957133 1.5669174e-38 352 250
0.042700678 0.73799998 -0.012939599 1.6130152e-38 353 250
0.043994635 0.73799998 -0.012939599 1.6498559e-38 354 250
0.045165867 0.736 -0.012904533 1.6590754e-38 355 250
0.046456318 0.736 -0.012904533 1.6958814e-38 356 250
0.047617026 0.73400003 -0.012869466 1.7235761e-38 357 250
0.048903972 0.73400003 -0.012869466 1.723648e-38 358 250
0.050122537 0.73299998 -0.012851933 1.723648e-38 359 250
0.051407732 0.73299998 -0.012851933 1.778713e-38 360 250
0.052692924 0.73299998 -0.012851933 1.7879684e-38 361 250
0.053978115 0.73299998 -0.012851933 1.7879681e-38 362 250
0.055263311 0.73299998 -0.012851933 1.7879681e-38 363 250
0.056548502 0.73299998 -0.012851933 1.7788209e-38 364 250
0.057833698 0.73299998 -0.012851933 1.7788209e-38 365 250
0.058957584 0.73100001 -0.012816866 1.7788209e-38 366 250
0.06023927 0.73100001 -0.012816866 1.7788209e-38 367 250
0.06152096 0.73100001 -0.012816866 1.8064077e-38 368 250
0.06271673 0.73000002 -0.012799333 1.8064077e-38 369 250
0.063821331 0.72799999 -0.012764266 1.8064074e-38 370 250
0.065097757 0.72799999 -0.012764266 1.8064074e-38 371 250
0.066374183 0.72799999 -0.012764266 1.8064423e-38 372 250
0.067650609 0.72799999 -0.012764266 1.8064423e-38 373 250
0.06883236 0.727 -0.012746733 1.8065852e-38 374 250
0.069914162 0.72500002 -0.012711667 1.7789265e-38 375 250
0.070988953 0.72299999 -0.012676599 1.815553e-38 376 250
0.072256617 0.72299999 -0.012676599 1.815553e-38 377 250
0.073524274 0.72299999 -0.012676599 1.7879681e-38 378 250
0.074688487 0.722 -0.012659066 1.7879681e-38 379 250
0.0759544 0.722 -0.012659066 1.723507e-38 380 250
0.077220306 0.722 -0.012659066 1.6774451e-38 381 250
-0.072324999 0.75 -0.014465 1.4935269e-38 265 251
-0.070915319 0.74900001 -0.014445714 1.5391163e-38 266 251
-0.069602072 0.74900001 -0.014445714 1.6036532e-38 267 251
-0.068106472 0.74699998 -0.014407139 1.677625e-38 268 251
-0.066796735 0.74699998 -0.014407139 1.7421619e-38 269 251
-0.065486997 0.74699998 -0.014407139 1.797444e-38 270 251
-0.06417726 0.74699998 -0.014407139 1.7882244e-38 271 251
-0.062867515 0.74699998 -0.014407139 1.7790042e-38 272 251
-0.061557774 0.74699998 -0.014407139 1.7421619e-38 273 251
-0.060248036 0.74699998 -0.014407139 1.7787881e-38 274 251
-0.058938295 0.74699998 -0.014407139 1.760313e-38 275 251
-0.057628557 0.74699998 -0.014407139 1.7143953e-38 276 251
-0.056318816 0.74699998 -0.014407139 1.6959562e-38 277 251
-0.055009075 0.74699998 -0.014407139 1.6682618e-38 278 251
-0.053699337 0.74699998 -0.014407139 1.6406391e-38 279 251
-0.052389596 0.74699998 -0.014407139 1.5943966e-38 280 251
-0.051079858 0.74699998 -0.014407139 1.4745422e-38 281 251
-0.049770117 0.74699998 -0.014407139 1.2901134e-38 282 251
-0.048460379 0.74699998 -0.014407139 1.2716743e-38 283 251
-0.047150634 0.74699998 -0.014407139 1.2349412e-38 284 251
-0.045840897 0.74699998 -0.014407139 1.2994782e-38 285 251
-0.044531155 0.74699998 -0.014407139 1.3546899e-38 286 251
-0.04333714 0.74900001 -0.014445714 1.4284464e-38 287 251
-0.042023893 0.74900001 -0.014445714 1.3827797e-38 288 251
-0.040710647 0.74900001 -0.014445714 1.3919993e-38 289 251
-0.0393974 0.74900001 -0.014445714 1.4011475e-38 290 251
-0.038135 0.75 -0.014465 1.4011475e-38 291 251
-0.036819998 0.75 -0.014465 1.401112e-38 292 251
-0.035505001 0.75 -0.014465 1.3918924e-38 293 251
-0.034189999 0.75 -0.014465 1.3826728e-38 294 251
-0.032962665 0.75199997 -0.014503572 1.3826728e-38 295 251
-0.03172832 0.75400001 -0.014542146 1.3735249e-38 296 251
-0.030406307 0.75400001 -0.014542146 1.3735249e-38 297 251
-0.029084291 0.75400001 -0.014542146 1.3551936e-38 298 251
-0.027762281 0.75400001 -0.014542146 1.3551936e-38 299 251
-0.026440267 0.75400001 -0.014542146 1.3551583e-38 300 251
-0.025118252 0.75400001 -0.014542146 1.3551583e-38 301 251
-0.02379624 0.75400001 -0.014542146 1.3734896e-38 302 251
-0.022474226 0.75400001 -0.014542146 1.382745e-38 303 251
-0.021152213 0.75400001 -0.014542146 1.382745e-38 304 251
-0.019830201 0.75400001 -0.014542146 1.382745e-38 305 251
-0.018459093 0.75199997 -0.014503572 1.3918571e-38 306 251
-0.017140586 0.75199997 -0.014503572 1.4011125e-38 307 251
-0.015822079 0.75199997 -0.014503572 1.4011125e-38 308 251
-0.014503572 0.75199997 -0.014503572 1.4011125e-38 309 251
-0.013185065 0.75199997 -0.014503572 1.4011122e-38 310 251
-0.011866559 0.75199997 -0.014503572 1.4011122e-38 311 251
-0.010548052 0.75199997 -0.014503572 1.3919643e-38 312 251
-0.0092295464 0.75199997 -0.014503572 1.3827447e-38 313 251
-0.0079110395 0.75199997 -0.014503572 1.4102592e-38 314 251
-0.0065925326 0.75199997 -0.014503572 1.4102592e-38 315 251
-0.0052740262 0.75199997 -0.014503572 1.4102592e-38 316 251
-0.0039555198 0.75199997 -0.014503572 1.4194788e-38 317 251
-0.0026370131 0.75199997 -0.014503572 1.4011475e-38 318 251
-0.0013185065 0.75199997 -0.014503572 1.4011475e-38 319 251
0 0.75 -0.014465 1.4011475e-38 320 251
0.0013132467 0.74900001 -0.014445714 1.4011475e-38 321 251
0.0026264933 0.74900001 -0.014445714 1.4194432e-38 322 251
0.0039397399 0.74900001 -0.014445714 1.4194432e-38 323 251
0.0052529867 0.74900001 -0.014445714 1.4194432e-38 324 251
0.0065486995 0.74699998 -0.014407139 1.4286986e-38 325 251
0.0078584393 0.74699998 -0.014407139 1.4195504e-38 326 251
0.0091681797 0.74699998 -0.014407139 1.4287701e-38 327 251
0.010477919 0.74699998 -0.014407139 1.419586e-38 328 251
0.011787659 0.74699998 -0.014407139 1.4288055e-38 329 251
0.013097399 0.74699998 -0.014407139 1.4471002e-38 330 251
0.014407139 0.74699998 -0.014407139 1.4471002e-38 331 251
0.015716879 0.74699998 -0.014407139 1.4562476e-38 332 251
0.017026618 0.74699998 -0.014407139 1.4839063e-38 333 251
0.018336359 0.74699998 -0.014407139 1.4564271e-38 334 251
0.019619798 0.74599999 -0.014387853 1.4656467e-38 335 251
0.020927785 0.74599999 -0.014387853 1.474794e-38 336 251
0.022235774 0.74599999 -0.014387853 1.474794e-38 337 251
0.023543758 0.74599999 -0.014387853 1.4748662e-38 338 251
0.024851745 0.74599999 -0.014387853 1.4748662e-38 339 251
0.026089599 0.74400002 -0.01434928 1.4748665e-38 340 251
0.027320439 0.74199998 -0.014310705 1.4748665e-38 341 251
0.028621411 0.74199998 -0.014310705 1.4748309e-38 342 251
0.029922385 0.74199998 -0.014310705 1.4748309e-38 343 251
0.03118128 0.741 -0.01429142 1.4748309e-38 344 251
0.032480497 0.741 -0.01429142 1.4748309e-38 345 251
0.033779722 0.741 -0.01429142 1.4839786e-38 346 251
0.034984261 0.73900002 -0.014252847 1.5024176e-38 347 251
0.036279973 0.73900002 -0.014252847 1.4839786e-38 348 251
0.037575684 0.73900002 -0.014252847 1.4839786e-38 349 251
0.0388714 0.73900002 -0.014252847 1.511565e-38 350 251
0.040167112 0.73900002 -0.014252847 1.5207845e-38 351 251
0.041406717 0.73799998 -0.014233559 1.5299668e-38 352 251
0.042700678 0.73799998 -0.014233559 1.5299668e-38 353 251
0.043875411 0.736 -0.014194986 1.5209255e-38 354 251
0.045043133 0.73400003 -0.014156413 1.5577679e-38 355 251
0.046330083 0.73400003 -0.014156413 1.6037215e-38 356 251
0.047617026 0.73400003 -0.014156413 1.6405996e-38 357 251
0.048837345 0.73299998 -0.014137126 1.6315965e-38 358 251
0.050122537 0.73299998 -0.014137126 1.6500357e-38 359 251
0.051407732 0.73299998 -0.014137126 1.6960969e-38 360 251
0.052692924 0.73299998 -0.014137126 1.7053165e-38 361 251
0.053978115 0.73299998 -0.014137126 1.7786764e-38 362 251
0.055112526 0.73100001 -0.014098554 1.787896e-38 363 251
0.056162767 0.72799999 -0.014040692 1.7696369e-38 364 251
0.057439197 0.72799999 -0.014040692 1.7696369e-38 365 251
0.058715623 0.72799999 -0.014040692 1.7696369e-38 366 251
0.059992049 0.72799999 -0.014040692 1.7696369e-38 367 251
0.061268479 0.72799999 -0.014040692 1.7971877e-38 368 251
0.062544905 0.72799999 -0.014040692 1.7971877e-38 369 251
0.06373366 0.727 -0.014021406 1.7971874e-38 370 251
0.065008335 0.727 -0.014021406 1.7971874e-38 371 251
0.06628301 0.727 -0.014021406 1.8155542e-38 372 251
0.067371838 0.72500002 -0.013982833 1.8247738e-38 373 251
0.068643004 0.72500002 -0.013982833 1.8248091e-38 374 251
0.069721296 0.72299999 -0.01394426 1.8248091e-38 375 251
0.070890769 0.722 -0.013924973 1.8156249e-38 376 251
0.072156675 0.722 -0.013924973 1.8063694e-38 377 251
0.073422581 0.722 -0.013924973 1.8063344e-38 378 251
0.074481606 0.72000003 -0.0138864 1.8063344e-38 379 251
0.075743996 0.72000003 -0.0138864 1.7511269e-38 380 251
0.077220306 0.722 -0.013924973 1.7326878e-38 381 251
-0.073541813 0.74900001 -0.01575896 1.5578075e-38 264 252
-0.072228566 0.74900001 -0.01575896 1.4932706e-38 265 252
-0.070915319 0.74900001 -0.01575896 1.5762078e-38 266 252
-0.069416218 0.74699998 -0.015716879 1.6499643e-38 267 252
-0.068106472 0.74699998 -0.015716879 1.7329424e-38 268 252
-0.066796735 0.74699998 -0.015716879 1.7697846e-38 269 252
-0.065486997 0.74699998 -0.015716879 1.7422704e-38 270 252
-0.06417726 0.74699998 -0.015716879 1.7238673e-38 271 252
-0.062867515 0.74699998 -0.015716879 1.7603506e-38 272 252
-0.06147537 0.74599999 -0.015695838 1.7326918e-38 273 252
-0.06016738 0.74599999 -0.015695838 1.7051407e-38 274 252
-0.058859397 0.74599999 -0.015695838 1.6867016e-38 275 252
-0.057551414 0.74599999 -0.015695838 1.6775171e-38 276 252
-0.056243423 0.74599999 -0.015695838 1.6498584e-38 277 252
-0.054935437 0.74599999 -0.015695838 1.613053e-38 278 252
-0.053699337 0.74699998 -0.015716879 1.5761388e-38 279 252
-0.052319467 0.74599999 -0.015695838 1.4746866e-38 280 252
-0.051011477 0.74599999 -0.015695838 1.3179541e-38 281 252
-0.049770117 0.74699998 -0.015716879 1.2349768e-38 282 252
-0.048460379 0.74699998 -0.015716879 1.271819e-38 283 252
-0.047150634 0.74699998 -0.015716879 1.2628889e-38 284 252
-0.045840897 0.74699998 -0.015716879 1.3182062e-38 285 252
-0.044531155 0.74699998 -0.015716879 1.3367542e-38 286 252
-0.04333714 0.74900001 -0.01575896 1.3551934e-38 287 252
-0.042023893 0.74900001 -0.01575896 1.3644132e-38 288 252
-0.040710647 0.74900001 -0.01575896 1.3644132e-38 289 252
-0.0393974 0.74900001 -0.01575896 1.382745e-38 290 252
-0.038084153 0.74900001 -0.01575896 1.382745e-38 291 252
-0.036770906 0.74900001 -0.01575896 1.3551586e-38 292 252
-0.035505001 0.75 -0.01578 1.3551586e-38 293 252
-0.034189999 0.75 -0.01578 1.345939e-38 294 252
-0.032962665 0.75199997 -0.015822079 1.3551586e-38 295 252
-0.031644158 0.75199997 -0.015822079 1.3275719e-38 296 252
-0.030406307 0.75400001 -0.01586416 1.3275719e-38 297 252
-0.029084291 0.75400001 -0.01586416 1.3183529e-38 298 252
-0.027688639 0.75199997 -0.015822079 1.3183529e-38 299 252
-0.02637013 0.75199997 -0.015822079 1.2999861e-38 300 252
-0.025118252 0.75400001 -0.01586416 1.3183892e-38 301 252
-0.02379624 0.75400001 -0.01586416 1.318389e-38 302 252
-0.022474226 0.75400001 -0.01586416 1.3276444e-38 303 252
-0.021152213 0.75400001 -0.01586416 1.3458684e-38 304 252
-0.019830201 0.75400001 -0.01586416 1.3458684e-38 305 252
-0.018459093 0.75199997 -0.015822079 1.3550883e-38 306 252
-0.017140586 0.75199997 -0.015822079 1.3643078e-38 307 252
-0.015822079 0.75199997 -0.015822079 1.3734192e-38 308 252
-0.014503572 0.75199997 -0.015822079 1.3826746e-38 309 252
-0.013185065 0.75199997 -0.015822079 1.3643785e-38 310 252
-0.011866559 0.75199997 -0.015822079 1.355123e-38 311 252
-0.010548052 0.75199997 -0.015822079 1.3551583e-38 312 252
-0.0092295464 0.75199997 -0.015822079 1.3551583e-38 313 252
-0.0079110395 0.75199997 -0.015822079 1.3734896e-38 314 252
-0.0065925326 0.75199997 -0.015822079 1.3734896e-38 315 252
-0.0052740262 0.75199997 -0.015822079 1.382745e-38 316 252
-0.0039555198 0.75199997 -0.015822079 1.3734896e-38 317 252
-0.0026370131 0.75199997 -0.015822079 1.3551586e-38 318 252
-0.0013185065 0.75199997 -0.015822079 1.3643782e-38 319 252
0 0.75 -0.01578 1.3643782e-38 320 252
0.0013132467 0.74900001 -0.01575896 1.3643782e-38 321 252
0.0026264933 0.74900001 -0.01575896 1.3827094e-38 322 252
0.0039397399 0.74900001 -0.01575896 1.3827094e-38 323 252
0.0052529867 0.74900001 -0.01575896 1.391929e-38 324 252
0.0065486995 0.74699998 -0.015716879 1.3827094e-38 325 252
0.0078584393 0.74699998 -0.015716879 1.3919643e-38 326 252
0.0091681797 0.74699998 -0.015716879 1.3919643e-38 327 252
0.010477919 0.74699998 -0.015716879 1.3919643e-38 328 252
0.011787659 0.74699998 -0.015716879 1.3919643e-38 329 252
0.013097399 0.74699998 -0.015716879 1.4011475e-38 330 252
0.014407139 0.74699998 -0.015716879 1.4195507e-38 331 252
0.015716879 0.74699998 -0.015716879 1.4195857e-38 332 252
0.017026618 0.74699998 -0.015716879 1.4288053e-38 333 252
0.018336359 0.74699998 -0.015716879 1.4380605e-38 334 252
0.019646099 0.74699998 -0.015716879 1.4472801e-38 335 252
0.020927785 0.74599999 -0.015695838 1.4656116e-38 336 252
0.022235774 0.74599999 -0.015695838 1.4656116e-38 337 252
0.023543758 0.74599999 -0.015695838 1.4472804e-38 338 252
0.024851745 0.74599999 -0.015695838 1.4565e-38 339 252
0.026089599 0.74400002 -0.015653761 1.4564644e-38 340 252
0.027320439 0.74199998 -0.015611678 1.4472448e-38 341 252
0.028582839 0.741 -0.01559064 1.4472448e-38 342 252
0.029882059 0.741 -0.01559064 1.4564644e-38 343 252
0.03118128 0.741 -0.01559064 1.4472801e-38 344 252
0.032480497 0.741 -0.01559064 1.4472801e-38 345 252
0.033779722 0.741 -0.01559064 1.4472798e-38 346 252
0.034984261 0.73900002 -0.01554856 1.4472798e-38 347 252
0.036279973 0.73900002 -0.01554856 1.4656111e-38 348 252
0.037575684 0.73900002 -0.01554856 1.4748665e-38 349 252
0.0388714 0.73900002 -0.01554856 1.4840142e-38 350 252
0.040112756 0.73799998 -0.015527519 1.4840142e-38 351 252
0.041406717 0.73799998 -0.015527519 1.5024176e-38 352 252
0.042700678 0.73799998 -0.015527519 1.4839786e-38 353 252
0.043875411 0.736 -0.015485439 1.4840505e-38 354 252
0.045043133 0.73400003 -0.01544336 1.5025255e-38 355 252
0.046330083 0.73400003 -0.01544336 1.5208549e-38 356 252
0.04755215 0.73299998 -0.015422319 1.5208549e-38 357 252
0.048837345 0.73299998 -0.015422319 1.5577679e-38 358 252
0.050122537 0.73299998 -0.015422319 1.6038655e-38 359 252
0.051407732 0.73299998 -0.015422319 1.6498915e-38 360 252
0.052477267 0.73000002 -0.0153592 1.6683306e-38 361 252
0.053609919 0.72799999 -0.01531712 1.7051363e-38 362 252
0.054886345 0.72799999 -0.01531712 1.732831e-38 363 252
0.056085624 0.727 -0.015296079 1.7327954e-38 364 252
0.057360299 0.727 -0.015296079 1.7327954e-38 365 252
0.058634974 0.727 -0.015296079 1.7328675e-38 366 252
0.059909642 0.727 -0.015296079 1.7420871e-38 367 252
0.061184317 0.727 -0.015296079 1.7696013e-38 368 252
0.062458992 0.727 -0.015296079 1.7696013e-38 369 252
0.063558333 0.72500002 -0.015254001 1.7879684e-38 370 252
0.064829499 0.72500002 -0.015254001 1.797188e-38 371 252
0.066100664 0.72500002 -0.015254001 1.7971529e-38 372 252
0.067371838 0.72500002 -0.015254001 1.7971529e-38 373 252
0.068643004 0.72500002 -0.015254001 1.7788212e-38 374 252
0.069721296 0.72299999 -0.015211919 1.7788212e-38 375 252
0.070890769 0.722 -0.015190879 1.7971874e-38 376 252
0.072156675 0.722 -0.015190879 1.7879679e-38 377 252
0.073422581 0.722 -0.015190879 1.8063347e-38 378 252
0.074481606 0.72000003 -0.0151488 1.8063347e-38 379 252
0.075743996 0.72000003 -0.0151488 1.7878963e-38 380 252
0.0770064 0.72000003 -0.0151488 1.7786767e-38 381 252
0.078160092 0.71899998 -0.01512776 1.7511637e-38 382 252
0.079199821 0.71700001 -0.015085679 1.7050659e-38 383 252
0.080456957 0.71700001 -0.015085679 1.6222741e-38 384 252
-0.07596492 0.74699998 -0.017026618 1.6504399e-38 262 253
-0.074655175 0.74699998 -0.017026618 1.4937432e-38 263 253
-0.073345438 0.74699998 -0.017026618 1.6774815e-38 264 253
-0.072035693 0.74699998 -0.017026618 1.6498587e-38 265 253
-0.070725955 0.74699998 -0.017026618 1.6316347e-38 266 253
-0.069323286 0.74599999 -0.017003827 1.6776966e-38 267 253
-0.068015307 0.74599999 -0.017003827 1.7053913e-38 268 253
-0.066707321 0.74599999 -0.017003827 1.7053913e-38 269 253
-0.065399326 0.74599999 -0.017003827 1.7144309e-38 270 253
-0.064091347 0.74599999 -0.017003827 1.6867364e-38 271 253
-0.062783353 0.74599999 -0.017003827 1.695849e-38 272 253
-0.06147537 0.74599999 -0.017003827 1.695849e-38 273 253
-0.06016738 0.74599999 -0.017003827 1.6681183e-38 274 253
-0.058859397 0.74599999 -0.017003827 1.6496433e-38 275 253
-0.057551414 0.74599999 -0.017003827 1.6497152e-38 276 253
-0.056243423 0.74599999 -0.017003827 1.6036532e-38 277 253
-0.054935437 0.74599999 -0.017003827 1.5208214e-38 278 253
-0.053627454 0.74599999 -0.017003827 1.4655041e-38 279 253
-0.052319467 0.74599999 -0.017003827 1.3456857e-38 280 253
-0.051011477 0.74599999 -0.017003827 1.3733084e-38 281 253
-0.04970349 0.74599999 -0.017003827 1.3274629e-38 282 253
-0.048460379 0.74699998 -0.017026618 1.3274629e-38 283 253
-0.047150634 0.74699998 -0.017026618 1.3092033e-38 284 253
-0.045840897 0.74699998 -0.017026618 1.318423e-38 285 253
-0.044531155 0.74699998 -0.017026618 1.3551936e-38 286 253
-0.04333714 0.74900001 -0.017072206 1.3551936e-38 287 253
-0.042023893 0.74900001 -0.017072206 1.3643782e-38 288 253
-0.040710647 0.74900001 -0.017072206 1.3643782e-38 289 253
-0.0393974 0.74900001 -0.017072206 1.3827097e-38 290 253
-0.038084153 0.74900001 -0.017072206 1.3734901e-38 291 253
-0.036770906 0.74900001 -0.017072206 1.355123e-38 292 253
-0.03545766 0.74900001 -0.017072206 1.355123e-38 293 253
-0.034144413 0.74900001 -0.017072206 1.3459035e-38 294 253
-0.032874998 0.75 -0.017095 1.3459035e-38 295 253
-0.031644158 0.75199997 -0.017140586 1.3366842e-38 296 253
-0.030325651 0.75199997 -0.017140586 1.3182809e-38 297 253
-0.029007144 0.75199997 -0.017140586 1.327357e-38 298 253
-0.027688639 0.75199997 -0.017140586 1.327357e-38 299 253
-0.02637013 0.75199997 -0.017140586 1.3090255e-38 300 253
-0.025118252 0.75400001 -0.017186172 1.3090255e-38 301 253
-0.02379624 0.75400001 -0.017186172 1.3366475e-38 302 253
-0.022474226 0.75400001 -0.017186172 1.3366475e-38 303 253
-0.021152213 0.75400001 -0.017186172 1.3549431e-38 304 253
-0.019830201 0.75400001 -0.017186172 1.3641628e-38 305 253
-0.018459093 0.75199997 -0.017140586 1.3641628e-38 306 253
-0.017140586 0.75199997 -0.017140586 1.3641628e-38 307 253
-0.015822079 0.75199997 -0.017140586 1.3550867e-38 308 253
-0.014503572 0.75199997 -0.017140586 1.3550867e-38 309 253
-0.013185065 0.75199997 -0.017140586 1.3734177e-38 310 253
-0.011866559 0.75199997 -0.017140586 1.3641981e-38 311 253
-0.010548052 0.75199997 -0.017140586 1.3734886e-38 312 253
-0.0092295464 0.75199997 -0.017140586 1.3734886e-38 313 253
-0.0079110395 0.75199997 -0.017140586 1.3734164e-38 314 253
-0.0065925326 0.75199997 -0.017140586 1.3734164e-38 315 253
-0.0052740262 0.75199997 -0.017140586 1.373453e-38 316 253
-0.0039555198 0.75199997 -0.017140586 1.373453e-38 317 253
-0.0026370131 0.75199997 -0.017140586 1.3734533e-38 318 253
-0.0013185065 0.75199997 -0.017140586 1.3734533e-38 319 253
0 0.75 -0.017095 1.373453e-38 320 253
0.001315 0.75 -0.017095 1.373453e-38 321 253
0.0026264933 0.74900001 -0.017072206 1.373453e-38 322 253
0.0039397399 0.74900001 -0.017072206 1.373453e-38 323 253
0.0052529867 0.74900001 -0.017072206 1.3917845e-38 324 253
0.0065662335 0.74900001 -0.017072206 1.3917845e-38 325 253
0.0078794798 0.74900001 -0.017072206 1.373453e-38 326 253
0.0091927266 0.74900001 -0.017072206 1.3826725e-38 327 253
0.010505973 0.74900001 -0.017072206 1.4286257e-38 328 253
0.011787659 0.74699998 -0.017026618 1.4102226e-38 329 253
0.013097399 0.74699998 -0.017026618 1.4285536e-38 330 253
0.014407139 0.74699998 -0.017026618 1.4377731e-38 331 253
0.015716879 0.74699998 -0.017026618 1.4378806e-38 332 253
0.017026618 0.74699998 -0.017026618 1.4378806e-38 333 253
0.018336359 0.74699998 -0.017026618 1.4471002e-38 334 253
0.019646099 0.74699998 -0.017026618 1.4563197e-38 335 253
0.020927785 0.74599999 -0.017003827 1.4746513e-38 336 253
0.022235774 0.74599999 -0.017003827 1.483871e-38 337 253
0.023543758 0.74599999 -0.017003827 1.4563565e-38 338 253
0.02478512 0.74400002 -0.016958239 1.4563565e-38 339 253
0.026089599 0.74400002 -0.016958239 1.465576e-38 340 253
0.027320439 0.74199998 -0.016912652 1.4563565e-38 341 253
0.028582839 0.741 -0.016889861 1.4563918e-38 342 253
0.029882059 0.741 -0.016889861 1.4563918e-38 343 253
0.03118128 0.741 -0.016889861 1.4564271e-38 344 253
0.032480497 0.741 -0.016889861 1.4656467e-38 345 253
0.033688545 0.73900002 -0.016844273 1.4656467e-38 346 253
0.034984261 0.73900002 -0.016844273 1.4656467e-38 347 253
0.036279973 0.73900002 -0.016844273 1.4656111e-38 348 253
0.037575684 0.73900002 -0.016844273 1.4748665e-38 349 253
0.0388714 0.73900002 -0.016844273 1.4840139e-38 350 253
0.040112756 0.73799998 -0.016821479 1.4840139e-38 351 253
0.041294504 0.736 -0.016775893 1.4840495e-38 352 253
0.042584959 0.736 -0.016775893 1.4840495e-38 353 253
0.043756187 0.73400003 -0.016730307 1.5023807e-38 354 253
0.044981763 0.73299998 -0.016707512 1.5023807e-38 355 253
0.046266954 0.73299998 -0.016707512 1.520747e-38 356 253
0.04755215 0.73299998 -0.016707512 1.4931243e-38 357 253
0.048704091 0.73100001 -0.016661927 1.4839393e-38 358 253
0.049985781 0.73100001 -0.016661927 1.511598e-38 359 253
0.051197331 0.73000002 -0.016639132 1.5208899e-38 360 253
0.052333489 0.72799999 -0.016593546 1.5577682e-38 361 253
0.053609919 0.72799999 -0.016593546 1.5854274e-38 362 253
0.054886345 0.72799999 -0.016593546 1.6314893e-38 363 253
0.056085624 0.727 -0.016570752 1.6683321e-38 364 253
0.057360299 0.727 -0.016570752 1.6867714e-38 365 253
0.058634974 0.727 -0.016570752 1.741872e-38 366 253
0.059744831 0.72500002 -0.016525166 1.7510916e-38 367 253
0.061016005 0.72500002 -0.016525166 1.7786764e-38 368 253
0.062287167 0.72500002 -0.016525166 1.7786764e-38 369 253
0.063382991 0.72299999 -0.01647958 1.7970076e-38 370 253
0.064650662 0.72299999 -0.01647958 1.8062631e-38 371 253
0.065918319 0.72299999 -0.01647958 1.8062631e-38 372 253
0.067185976 0.72299999 -0.01647958 1.8062631e-38 373 253
0.06845364 0.72299999 -0.01647958 1.7970432e-38 374 253
0.069721296 0.72299999 -0.01647958 1.7970432e-38 375 253
0.070890769 0.722 -0.016456785 1.7970432e-38 376 253
0.072156675 0.722 -0.016456785 1.8062628e-38 377 253
0.073219202 0.72000003 -0.0164112 1.8062628e-38 378 253
0.074481606 0.72000003 -0.0164112 1.8062628e-38 379 253
0.075743996 0.72000003 -0.0164112 1.7786767e-38 380 253
0.0770064 0.72000003 -0.0164112 1.7786767e-38 381 253
0.078160092 0.71899998 -0.016388407 1.7327954e-38 382 253
0.079199821 0.71700001 -0.016342819 1.7327954e-38 383 253
0.080120318 0.71399999 -0.016274439 1.7052108e-38 384 253
0.081372194 0.71399999 -0.016274439 1.7328694e-38 385 253
-0.077481553 0.74900001 -0.018385453 1.6045267e-38 261 254
-0.07596492 0.74699998 -0.018336359 1.5948692e-38 262 254
-0.074655175 0.74699998 -0.018336359 1.5672104e-38 263 254
-0.073345438 0.74699998 -0.018336359 1.6959196e-38 264 254
-0.072035693 0.74699998 -0.018336359 1.6959196e-38 265 254
-0.070631281 0.74599999 -0.018311813 1.6685121e-38 266 254
-0.069137439 0.74400002 -0.01826272 1.6777316e-38 267 254
-0.067832954 0.74400002 -0.01826272 1.6777688e-38 268 254
-0.066528477 0.74400002 -0.01826272 1.6593657e-38 269 254
-0.065223999 0.74400002 -0.01826272 1.6499673e-38 270 254
-0.063747689 0.74199998 -0.018213626 1.631564e-38 271 254
-0.062446713 0.74199998 -0.018213626 1.6223094e-38 272 254
-0.061145745 0.74199998 -0.018213626 1.613054e-38 273 254
-0.05984477 0.74199998 -0.018213626 1.5946502e-38 274 254
-0.058701597 0.74400002 -0.01826272 1.5670274e-38 275 254
-0.05739712 0.74400002 -0.01826272 1.5577719e-38 276 254
