# .PCD v.7 - Point Cloud Data file format
FIELDS x y z rgb imX imY
SIZE 4 4 4 4 4 4
TYPE F F F F F F
COUNT 1 1 1 1 1 1
WIDTH 851
HEIGHT 1
VIEWPOINT 0 0 0 1 0 0 0
POINTS 851
DATA ascii
0.029585747 0.64899999 -0.10468803 1.5575161e-38 346 332
0.030723657 0.64899999 -0.10468803 1.5298572e-38 347 332
0.03186157 0.64899999 -0.10468803 1.5298207e-38 348 332
0.032999486 0.64899999 -0.10468803 1.5205652e-38 349 332
0.034137398 0.64899999 -0.10468803 1.465358e-38 350 332
0.035329666 0.64999998 -0.10484933 1.4745775e-38 351 332
0.036469329 0.64999998 -0.10484933 1.446993e-38 352 332
0.037608996 0.64999998 -0.10484933 1.4285539e-38 353 332
0.038748663 0.64999998 -0.10484933 1.428482e-38 354 332
0.039888334 0.64999998 -0.10484933 1.4192624e-38 355 332
0.041154239 0.65200001 -0.10517195 1.4100777e-38 356 332
0.042297412 0.65200001 -0.10517195 1.4008223e-38 357 332
0.043440588 0.65200001 -0.10517195 1.3916027e-38 358 332
0.044583756 0.65200001 -0.10517195 1.3916027e-38 359 332
0.045726933 0.65200001 -0.10517195 1.3823835e-38 360 332
0.046941992 0.653 -0.10533325 1.3639803e-38 361 332
0.048086919 0.653 -0.10533325 1.3455052e-38 362 332
0.049307238 0.65399998 -0.10549456 1.3455052e-38 363 332
0.050453916 0.65399998 -0.10549456 1.3362859e-38 364 332
0.051600594 0.65399998 -0.10549456 1.3270305e-38 365 332
0.052827932 0.65499997 -0.10565586 1.3086995e-38 366 332
0.053976361 0.65499997 -0.10565586 1.2902604e-38 367 332
0.055124797 0.65499997 -0.10565586 1.2810055e-38 368 332
0.056273226 0.65499997 -0.10565586 1.2533469e-38 369 332
0.057596996 0.65700001 -0.10597847 1.2256526e-38 370 332
0.058748938 0.65700001 -0.10597847 1.1980298e-38 371 332
0.05990088 0.65700001 -0.10597847 1.1704074e-38 372 332
0.061145745 0.65799999 -0.10613978 1.1335651e-38 373 332
0.062394116 0.65899998 -0.10630108 1.1425697e-38 374 332
0.063742429 0.66100001 -0.1066237 1.1240947e-38 375 332
0.064901382 0.66100001 -0.1066237 1.1240231e-38 376 332
0.066160277 0.662 -0.10678501 1.1240231e-38 377 332
0.067320988 0.662 -0.10678501 1.0965792e-38 378 332
0.068585135 0.66299999 -0.10694631 1.1057988e-38 379 332
0.069747597 0.66299999 -0.10694631 1.0783196e-38 380 332
0.070910059 0.66299999 -0.10694631 1.0875392e-38 381 332
0.072181225 0.66399997 -0.10710762 1.0875039e-38 382 332
0.07334543 0.66399997 -0.10710762 1.0967234e-38 383 332
0.074734077 0.66600001 -0.10743023 1.1058354e-38 384 332
0.075901799 0.66600001 -0.10743023 1.1058354e-38 385 332
0.077069521 0.66600001 -0.10743023 1.0506629e-38 386 332
0.078354709 0.667 -0.10759154 1.0506629e-38 387 332
0.079524182 0.667 -0.10759154 1.0046025e-38 388 332
-0.058561329 0.66799998 -0.10892407 1.428776e-38 270 333
-0.057304189 0.667 -0.10876101 1.2443848e-38 271 333
-0.056050558 0.66600001 -0.10859796 1.2626403e-38 272 333
-0.054882839 0.66600001 -0.10859796 1.2995544e-38 273 333
-0.053715117 0.66600001 -0.10859796 1.2811497e-38 274 333
-0.052389596 0.66399997 -0.10827184 1.2811497e-38 275 333
-0.051225383 0.66399997 -0.10827184 1.2812925e-38 276 333
-0.049985778 0.66299999 -0.10810877 1.3089514e-38 277 333
-0.048749682 0.662 -0.10794572 1.327498e-38 278 333
-0.047517084 0.66100001 -0.10778265 1.3735599e-38 279 333
-0.046217863 0.65899998 -0.10745654 1.410474e-38 280 333
-0.045062415 0.65899998 -0.10745654 1.4565718e-38 281 333
-0.043840345 0.65799999 -0.10729348 1.5025255e-38 282 333
-0.04262178 0.65700001 -0.10713042 1.5209287e-38 283 333
-0.041469838 0.65700001 -0.10713042 1.5759937e-38 284 333
-0.040195163 0.65499997 -0.10680429 1.5852492e-38 285 333
-0.039046731 0.65499997 -0.10680429 1.5852492e-38 286 333
-0.037840437 0.65399998 -0.10664123 1.5944687e-38 287 333
-0.036693759 0.65399998 -0.10664123 1.6127283e-38 288 333
-0.035547078 0.65399998 -0.10664123 1.6127283e-38 289 333
-0.034347799 0.653 -0.10647818 1.6127281e-38 290 333
-0.033152029 0.65200001 -0.10631512 1.6127281e-38 291 333
-0.032008853 0.65200001 -0.10631512 1.640207e-38 292 333
-0.030865679 0.65200001 -0.10631512 1.6494624e-38 293 333
-0.029722504 0.65200001 -0.10631512 1.6494624e-38 294 333
-0.028579334 0.65200001 -0.10631512 1.6494624e-38 295 333
-0.027351998 0.64999998 -0.10598899 1.6586464e-38 296 333
-0.026212333 0.64999998 -0.10598899 1.6586464e-38 297 333
-0.025072664 0.64999998 -0.10598899 1.6311677e-38 298 333
-0.023932999 0.64999998 -0.10598899 1.6403873e-38 299 333
-0.022863466 0.65200001 -0.10631512 1.6680101e-38 300 333
-0.021720294 0.65200001 -0.10631512 1.6680101e-38 301 333
-0.02057712 0.65200001 -0.10631512 1.6588256e-38 302 333
-0.019433947 0.65200001 -0.10631512 1.6404223e-38 303 333
-0.018290773 0.65200001 -0.10631512 1.6587886e-38 304 333
-0.017147599 0.65200001 -0.10631512 1.6680082e-38 305 333
-0.016004426 0.65200001 -0.10631512 1.6587903e-38 306 333
-0.014861252 0.65200001 -0.10631512 1.6864848e-38 307 333
-0.01371808 0.65200001 -0.10631512 1.6587552e-38 308 333
-0.012536332 0.64999998 -0.10598899 1.6587552e-38 309 333
-0.011396666 0.64999998 -0.10598899 1.6772653e-38 310 333
-0.01028856 0.65200001 -0.10631512 1.6864848e-38 311 333
-0.0091173323 0.64999998 -0.10598899 1.6772653e-38 312 333
-0.0079776663 0.64999998 -0.10598899 1.6864848e-38 313 333
-0.0068379994 0.64999998 -0.10598899 1.6588256e-38 314 333
-0.005698333 0.64999998 -0.10598899 1.6772647e-38 315 333
-0.0045516533 0.64899999 -0.10582593 1.6865199e-38 316 333
-0.0034137398 0.64899999 -0.10582593 1.6773003e-38 317 333
-0.0022758266 0.64899999 -0.10582593 1.6680805e-38 318 333
-0.0011379133 0.64899999 -0.10582593 1.6588609e-38 319 333
0 0.64899999 -0.10582593 1.6680086e-38 320 333
0.0011379133 0.64899999 -0.10582593 1.6680086e-38 321 333
0.0022758266 0.64899999 -0.10582593 1.6679735e-38 322 333
0.0034189997 0.64999998 -0.10598899 1.6864127e-38 323 333
0.0045586661 0.64999998 -0.10598899 1.7140356e-38 324 333
0.0056895665 0.64899999 -0.10582593 1.686413e-38 325 333
0.0068274797 0.64899999 -0.10582593 1.6589691e-38 326 333
0.0079653924 0.64899999 -0.10582593 1.6404941e-38 327 333
0.0091033066 0.64899999 -0.10582593 1.6221978e-38 328 333
0.01024122 0.64899999 -0.10582593 1.6221978e-38 329 333
0.011379133 0.64899999 -0.10582593 1.658752e-38 330 333
0.012517046 0.64899999 -0.10582593 1.6771551e-38 331 333
0.013654959 0.64899999 -0.10582593 1.713819e-38 332 333
0.014770079 0.648 -0.10566287 1.7045993e-38 333 333
0.015906241 0.648 -0.10566287 1.6220195e-38 334 333
0.0170424 0.648 -0.10566287 1.6036164e-38 335 333
0.018206613 0.64899999 -0.10582593 1.5944321e-38 336 333
0.019344525 0.64899999 -0.10582593 1.5851767e-38 337 333
0.02048244 0.64899999 -0.10582593 1.6219113e-38 338 333
0.021620352 0.64899999 -0.10582593 1.6219113e-38 339 333
0.022758266 0.64899999 -0.10582593 1.5942536e-38 340 333
0.023932999 0.64999998 -0.10598899 1.5942536e-38 341 333
0.025034092 0.64899999 -0.10582593 1.5666305e-38 342 333
0.026172007 0.64899999 -0.10582593 1.557411e-38 343 333
0.027309919 0.64899999 -0.10582593 1.538935e-38 344 333
0.028447833 0.64899999 -0.10582593 1.5296794e-38 345 333
0.029585747 0.64899999 -0.10582593 1.5480459e-38 346 333
0.030723657 0.64899999 -0.10582593 1.5019841e-38 347 333
0.03186157 0.64899999 -0.10582593 1.4100759e-38 348 333
0.032999486 0.64899999 -0.10582593 1.4100759e-38 349 333
0.034137398 0.64899999 -0.10582593 1.428444e-38 350 333
0.03527531 0.64899999 -0.10582593 1.4376636e-38 351 333
0.036469329 0.64999998 -0.10598899 1.4283015e-38 352 333
0.037608996 0.64999998 -0.10598899 1.4283015e-38 353 333
0.038748663 0.64999998 -0.10598899 1.4007504e-38 354 333
0.039888334 0.64999998 -0.10598899 1.3915309e-38 355 333
0.041154239 0.65200001 -0.10631512 1.4098255e-38 356 333
0.042297412 0.65200001 -0.10631512 1.4006058e-38 357 333
0.043440588 0.65200001 -0.10631512 1.3822746e-38 358 333
0.044583756 0.65200001 -0.10631512 1.3638355e-38 359 333
0.045726933 0.65200001 -0.10631512 1.3821311e-38 360 333
0.046941992 0.653 -0.10647818 1.3545084e-38 361 333
0.048086919 0.653 -0.10647818 1.3453607e-38 362 333
0.049307238 0.65399998 -0.10664123 1.3361412e-38 363 333
0.050453916 0.65399998 -0.10664123 1.3085897e-38 364 333
0.051600594 0.65399998 -0.10664123 1.2993701e-38 365 333
0.052827932 0.65499997 -0.10680429 1.2900434e-38 366 333
0.053976361 0.65499997 -0.10680429 1.2900434e-38 367 333
0.055124797 0.65499997 -0.10680429 1.2439828e-38 368 333
0.056445058 0.65700001 -0.10713042 1.2255077e-38 369 333
0.057596996 0.65700001 -0.10713042 1.2069619e-38 370 333
0.058748938 0.65700001 -0.10713042 1.1885229e-38 371 333
0.059992049 0.65799999 -0.10729348 1.1700483e-38 372 333
0.061238669 0.65899998 -0.10745654 1.1516092e-38 373 333
0.062583476 0.66100001 -0.10778265 1.1423541e-38 374 333
0.063742429 0.66100001 -0.10778265 1.1239509e-38 375 333
0.064901382 0.66100001 -0.10778265 1.1148386e-38 376 333
0.066160277 0.662 -0.10794572 1.1148386e-38 377 333
0.067320988 0.662 -0.10794572 1.0782477e-38 378 333
0.068585135 0.66299999 -0.10810877 1.0874673e-38 379 333
0.069852799 0.66399997 -0.10827184 1.0783196e-38 380 333
0.071017005 0.66399997 -0.10827184 1.0875392e-38 381 333
0.072181225 0.66399997 -0.10827184 1.0875395e-38 382 333
0.073566355 0.66600001 -0.10859796 1.0875395e-38 383 333
0.074734077 0.66600001 -0.10859796 1.0875042e-38 384 333
0.075901799 0.66600001 -0.10859796 1.069065e-38 385 333
0.077069521 0.66600001 -0.10859796 1.0414083e-38 386 333
0.078237243 0.66600001 -0.10859796 1.0045301e-38 387 333
-0.057304189 0.667 -0.10993049 1.2630047e-38 271 334
-0.056050558 0.66600001 -0.10976568 1.2809725e-38 272 334
-0.054882839 0.66600001 -0.10976568 1.2809725e-38 273 334
-0.053715117 0.66600001 -0.10976568 1.2901192e-38 274 334
-0.052389596 0.66399997 -0.10943604 1.2901192e-38 275 334
-0.051225383 0.66399997 -0.10943604 1.2443806e-38 276 334
-0.049985778 0.66299999 -0.10927124 1.2536002e-38 277 334
-0.048749682 0.662 -0.10910642 1.2905498e-38 278 334
-0.047517084 0.66100001 -0.10894161 1.327392e-38 279 334
-0.046217863 0.65899998 -0.10861198 1.3641984e-38 280 334
-0.045062415 0.65899998 -0.10861198 1.4011125e-38 281 334
-0.043840345 0.65799999 -0.10844716 1.4104035e-38 282 334
-0.04262178 0.65700001 -0.10828236 1.4472817e-38 283 334
-0.041469838 0.65700001 -0.10828236 1.5023467e-38 284 334
-0.040195163 0.65499997 -0.10795272 1.5208217e-38 285 334
-0.039046731 0.65499997 -0.10795272 1.5024904e-38 286 334
-0.037840437 0.65399998 -0.10778791 1.5024904e-38 287 334
-0.036693759 0.65399998 -0.10778791 1.5300416e-38 288 334
-0.035547078 0.65399998 -0.10778791 1.5207862e-38 289 334
-0.034295198 0.65200001 -0.10745829 1.5575205e-38 290 334
-0.033050328 0.64999998 -0.10712866 1.5575205e-38 291 334
-0.031910665 0.64999998 -0.10712866 1.5758518e-38 292 334
-0.030770998 0.64999998 -0.10712866 1.5758518e-38 293 334
-0.029722504 0.65200001 -0.10745829 1.575852e-38 294 334
-0.028579334 0.65200001 -0.10745829 1.575852e-38 295 334
-0.027351998 0.64999998 -0.10712866 1.575852e-38 296 334
-0.026212333 0.64999998 -0.10712866 1.5942912e-38 297 334
-0.025072664 0.64999998 -0.10712866 1.5851783e-38 298 334
-0.023932999 0.64999998 -0.10712866 1.5759587e-38 299 334
-0.022793332 0.64999998 -0.10712866 1.5760666e-38 300 334
-0.021653665 0.64999998 -0.10712866 1.566847e-38 301 334
-0.02057712 0.65200001 -0.10745829 1.5760669e-38 302 334
-0.019433947 0.65200001 -0.10745829 1.5760669e-38 303 334
-0.018290773 0.65200001 -0.10745829 1.5761372e-38 304 334
-0.017147599 0.65200001 -0.10745829 1.5761372e-38 305 334
-0.016004426 0.65200001 -0.10745829 1.5760671e-38 306 334
-0.014815666 0.64999998 -0.10712866 1.6036898e-38 307 334
-0.013675999 0.64999998 -0.10712866 1.6035123e-38 308 334
-0.012536332 0.64999998 -0.10712866 1.612732e-38 309 334
-0.011396666 0.64999998 -0.10712866 1.6036193e-38 310 334
-0.010256999 0.64999998 -0.10712866 1.6036193e-38 311 334
-0.0091173323 0.64999998 -0.10712866 1.6128378e-38 312 334
-0.0079776663 0.64999998 -0.10712866 1.6036182e-38 313 334
-0.0068274797 0.64899999 -0.10696385 1.6128375e-38 314 334
-0.0056895665 0.64899999 -0.10696385 1.6128375e-38 315 334
-0.0045516533 0.64899999 -0.10696385 1.6129098e-38 316 334
-0.0034137398 0.64899999 -0.10696385 1.6129098e-38 317 334
-0.00227232 0.648 -0.10679904 1.6129078e-38 318 334
-0.00113616 0.648 -0.10679904 1.5944687e-38 319 334
0 0.64899999 -0.10696385 1.667864e-38 320 334
0.0011379133 0.64899999 -0.10696385 1.6586085e-38 321 334
0.0022758266 0.64899999 -0.10696385 1.6219845e-38 322 334
0.0034137398 0.64899999 -0.10696385 1.631204e-38 323 334
0.0045516533 0.64899999 -0.10696385 1.6036549e-38 324 334
0.0056895665 0.64899999 -0.10696385 1.6036549e-38 325 334
0.0068274797 0.64899999 -0.10696385 1.6036547e-38 326 334
0.0079653924 0.64899999 -0.10696385 1.5852514e-38 327 334
0.0091033066 0.64899999 -0.10696385 1.6036886e-38 328 334
0.010225439 0.648 -0.10679904 1.5852136e-38 329 334
0.0113616 0.648 -0.10679904 1.6127281e-38 330 334
0.01249776 0.648 -0.10679904 1.6219476e-38 331 334
0.01363392 0.648 -0.10679904 1.5942909e-38 332 334
0.014770079 0.648 -0.10679904 1.6035463e-38 333 334
0.015906241 0.648 -0.10679904 1.5758883e-38 334 334
0.0170424 0.648 -0.10679904 1.5758883e-38 335 334
0.01817856 0.648 -0.10679904 1.5574852e-38 336 334
0.019314719 0.648 -0.10679904 1.5482657e-38 337 334
0.020450879 0.648 -0.10679904 1.5666325e-38 338 334
0.02158704 0.648 -0.10679904 1.5389738e-38 339 334
0.0227232 0.648 -0.10679904 1.5298614e-38 340 334
0.023896178 0.64899999 -0.10696385 1.5113864e-38 341 334
0.024995521 0.648 -0.10679904 1.511422e-38 342 334
0.02613168 0.648 -0.10679904 1.4837992e-38 343 334
0.027309919 0.64899999 -0.10696385 1.5112406e-38 344 334
0.028404001 0.648 -0.10679904 1.483582e-38 345 334
0.029540159 0.648 -0.10679904 1.419297e-38 346 334
0.030723657 0.64899999 -0.10696385 1.419297e-38 347 334
0.03186157 0.64899999 -0.10696385 1.400752e-38 348 334
0.032999486 0.64899999 -0.10696385 1.3915324e-38 349 334
0.034137398 0.64899999 -0.10696385 1.3732012e-38 350 334
0.03527531 0.64899999 -0.10696385 1.3732012e-38 351 334
0.036413226 0.64899999 -0.10696385 1.3639094e-38 352 334
0.037608996 0.64999998 -0.10712866 1.3639094e-38 353 334
0.038748663 0.64999998 -0.10712866 1.3364303e-38 354 334
0.039888334 0.64999998 -0.10712866 1.317991e-38 355 334
0.041027997 0.64999998 -0.10712866 1.3454699e-38 356 334
0.042297412 0.65200001 -0.10745829 1.3270308e-38 357 334
0.043440588 0.65200001 -0.10745829 1.3178109e-38 358 334
0.044583756 0.65200001 -0.10745829 1.3178109e-38 359 334
0.045726933 0.65200001 -0.10745829 1.2994081e-38 360 334
0.046941992 0.653 -0.1076231 1.2901885e-38 361 334
0.048086919 0.653 -0.1076231 1.2717137e-38 362 334
0.049307238 0.65399998 -0.10778791 1.2717137e-38 363 334
0.050453916 0.65399998 -0.10778791 1.2441629e-38 364 334
0.051679496 0.65499997 -0.10795272 1.2256879e-38 365 334
0.052827932 0.65499997 -0.10795272 1.2256163e-38 366 334
0.053976361 0.65499997 -0.10795272 1.1979216e-38 367 334
0.055124797 0.65499997 -0.10795272 1.1702283e-38 368 334
0.056273226 0.65499997 -0.10795272 1.1610087e-38 369 334
0.057596996 0.65700001 -0.10828236 1.1333148e-38 370 334
0.058748938 0.65700001 -0.10828236 1.1333148e-38 371 334
0.060083222 0.65899998 -0.10861198 1.1056563e-38 372 334
0.061424527 0.66100001 -0.10894161 1.1056563e-38 373 334
0.062583476 0.66100001 -0.10894161 1.0964723e-38 374 334
0.063838862 0.662 -0.10910642 1.0964723e-38 375 334
0.064999565 0.662 -0.10910642 1.0965437e-38 376 334
0.066160277 0.662 -0.10910642 1.1057632e-38 377 334
0.067422673 0.66299999 -0.10927124 1.0783196e-38 378 334
0.068585135 0.66299999 -0.10927124 1.0783196e-38 379 334
0.069747597 0.66299999 -0.10927124 1.0783196e-38 380 334
0.071017005 0.66399997 -0.10943604 1.0783196e-38 381 334
0.07239864 0.66600001 -0.10976568 1.0782846e-38 382 334
0.073566355 0.66600001 -0.10976568 1.0782846e-38 383 334
0.074734077 0.66600001 -0.10976568 1.0322964e-38 384 334
0.075901799 0.66600001 -0.10976568 1.0138572e-38 385 334
0.077069521 0.66600001 -0.10976568 9.6772565e-39 386 334
-0.056050558 0.66600001 -0.1109334 1.3454741e-38 272 335
-0.054882839 0.66600001 -0.1109334 1.2348392e-38 273 335
-0.053715117 0.66600001 -0.1109334 1.2899745e-38 274 335
-0.052389596 0.66399997 -0.11060026 1.2899745e-38 275 335
-0.051225383 0.66399997 -0.11060026 1.2349093e-38 276 335
-0.049985778 0.66299999 -0.1104337 1.2533484e-38 277 335
-0.04867604 0.66100001 -0.11010057 1.2901548e-38 278 335
-0.047517084 0.66100001 -0.11010057 1.3178134e-38 279 335
-0.046217863 0.65899998 -0.10976743 1.26282e-38 280 335
-0.044994038 0.65799999 -0.10960086 1.2905148e-38 281 335
-0.043840345 0.65799999 -0.10960086 1.3182806e-38 282 335
-0.04262178 0.65700001 -0.1094343 1.3459035e-38 283 335
-0.041343596 0.65499997 -0.10910116 1.4194432e-38 284 335
-0.040195163 0.65499997 -0.10910116 1.4563214e-38 285 335
-0.039046731 0.65499997 -0.10910116 1.4930905e-38 286 335
-0.037840437 0.65399998 -0.10893459 1.4930905e-38 287 335
-0.036693759 0.65399998 -0.10893459 1.5206766e-38 288 335
-0.035547078 0.65399998 -0.10893459 1.5298962e-38 289 335
-0.034295198 0.65200001 -0.10860147 1.5298965e-38 290 335
-0.033050328 0.64999998 -0.10826832 1.539116e-38 291 335
-0.031910665 0.64999998 -0.10826832 1.5574473e-38 292 335
-0.030770998 0.64999998 -0.10826832 1.5574473e-38 293 335
-0.029631332 0.64999998 -0.10826832 1.5390441e-38 294 335
-0.028491667 0.64999998 -0.10826832 1.5574473e-38 295 335
-0.027351998 0.64999998 -0.10826832 1.5574828e-38 296 335
-0.026212333 0.64999998 -0.10826832 1.5574828e-38 297 335
-0.025072664 0.64999998 -0.10826832 1.5391516e-38 298 335
-0.023932999 0.64999998 -0.10826832 1.5298962e-38 299 335
-0.022793332 0.64999998 -0.10826832 1.5574473e-38 300 335
-0.021653665 0.64999998 -0.10826832 1.5574473e-38 301 335
-0.020513998 0.64999998 -0.10826832 1.539116e-38 302 335
-0.019374331 0.64999998 -0.10826832 1.5483356e-38 303 335
-0.018234665 0.64999998 -0.10826832 1.5574473e-38 304 335
-0.017095 0.64999998 -0.10826832 1.5667027e-38 305 335
-0.015955333 0.64999998 -0.10826832 1.5758151e-38 306 335
-0.014815666 0.64999998 -0.10826832 1.5758151e-38 307 335
-0.013675999 0.64999998 -0.10826832 1.5942183e-38 308 335
-0.012536332 0.64999998 -0.10826832 1.5758151e-38 309 335
-0.011396666 0.64999998 -0.10826832 1.5758868e-38 310 335
-0.010256999 0.64999998 -0.10826832 1.5758868e-38 311 335
-0.0091173323 0.64999998 -0.10826832 1.5759224e-38 312 335
-0.0079653924 0.64899999 -0.10810176 1.5759224e-38 313 335
-0.0068274797 0.64899999 -0.10810176 1.5759218e-38 314 335
-0.0056895665 0.64899999 -0.10810176 1.5759218e-38 315 335
-0.00454464 0.648 -0.1079352 1.5759574e-38 316 335
-0.00340848 0.648 -0.1079352 1.5759574e-38 317 335
-0.00227232 0.648 -0.1079352 1.5942887e-38 318 335
-0.00113616 0.648 -0.1079352 1.5942887e-38 319 335
0 0.648 -0.1079352 1.6309511e-38 320 335
0.00113616 0.648 -0.1079352 1.6216955e-38 321 335
0.00227232 0.648 -0.1079352 1.5942166e-38 322 335
0.00340848 0.648 -0.1079352 1.5942166e-38 323 335
0.00454464 0.648 -0.1079352 1.5758854e-38 324 335
0.0056807999 0.648 -0.1079352 1.5758854e-38 325 335
0.0068169599 0.648 -0.1079352 1.557411e-38 326 335
0.0079531204 0.648 -0.1079352 1.5758501e-38 327 335
0.0090892799 0.648 -0.1079352 1.5666305e-38 328 335
0.01020966 0.64700001 -0.10776863 1.5758501e-38 329 335
0.011344067 0.64700001 -0.10776863 1.5849971e-38 330 335
0.012478473 0.64700001 -0.10776863 1.5757775e-38 331 335
0.01363392 0.648 -0.1079352 1.5756703e-38 332 335
0.014747286 0.64700001 -0.10776863 1.5756703e-38 333 335
0.015881693 0.64700001 -0.10776863 1.5481561e-38 334 335
0.0170424 0.648 -0.1079352 1.5481561e-38 335 335
0.01817856 0.648 -0.1079352 1.5389362e-38 336 335
0.019284913 0.64700001 -0.10776863 1.5297167e-38 337 335
0.02041932 0.64700001 -0.10776863 1.5297167e-38 338 335
0.021553727 0.64700001 -0.10776863 1.5113134e-38 339 335
0.022688134 0.64700001 -0.10776863 1.5020936e-38 340 335
0.023859359 0.648 -0.1079352 1.492874e-38 341 335
0.024995521 0.648 -0.1079352 1.4928019e-38 342 335
0.02613168 0.648 -0.1079352 1.4835823e-38 343 335
0.02726784 0.648 -0.1079352 1.4375566e-38 344 335
0.028404001 0.648 -0.1079352 1.4283371e-38 345 335
0.029540159 0.648 -0.1079352 1.4374487e-38 346 335
0.03067632 0.648 -0.1079352 1.4190456e-38 347 335
0.03186157 0.64899999 -0.10810176 1.3822395e-38 348 335
0.032999486 0.64899999 -0.10810176 1.3822395e-38 349 335
0.034137398 0.64899999 -0.10810176 1.363837e-38 350 335
0.03527531 0.64899999 -0.10810176 1.363837e-38 351 335
0.036413226 0.64899999 -0.10810176 1.3453983e-38 352 335
0.037608996 0.64999998 -0.10826832 1.3453983e-38 353 335
0.038748663 0.64999998 -0.10826832 1.3362506e-38 354 335
0.039888334 0.64999998 -0.10826832 1.3178115e-38 355 335
0.041027997 0.64999998 -0.10826832 1.317739e-38 356 335
0.042297412 0.65200001 -0.10860147 1.3085195e-38 357 335
0.043440588 0.65200001 -0.10860147 1.2810039e-38 358 335
0.044583756 0.65200001 -0.10860147 1.2717484e-38 359 335
0.045726933 0.65200001 -0.10860147 1.2717487e-38 360 335
0.046870105 0.65200001 -0.10860147 1.2533096e-38 361 335
0.048013281 0.65200001 -0.10860147 1.2531671e-38 362 335
0.049231846 0.653 -0.10876803 1.2439475e-38 363 335
0.050453916 0.65399998 -0.10893459 1.2254008e-38 364 335
0.051600594 0.65399998 -0.10893459 1.2161812e-38 365 335
0.052827932 0.65499997 -0.10910116 1.1793388e-38 366 335
0.053976361 0.65499997 -0.10910116 1.1793388e-38 367 335
0.055124797 0.65499997 -0.10910116 1.1425329e-38 368 335
0.056273226 0.65499997 -0.10910116 1.1333133e-38 369 335
0.057596996 0.65700001 -0.1094343 1.1057269e-38 370 335
0.058748938 0.65700001 -0.1094343 1.1057269e-38 371 335
0.060083222 0.65899998 -0.10976743 1.0965792e-38 372 335
0.061238669 0.65899998 -0.10976743 1.0965792e-38 373 335
0.062583476 0.66100001 -0.11010057 1.0965437e-38 374 335
0.063838862 0.662 -0.11026713 1.0965437e-38 375 335
0.064999565 0.662 -0.11026713 1.0782124e-38 376 335
0.066160277 0.662 -0.11026713 1.087432e-38 377 335
0.067320988 0.662 -0.11026713 1.0691727e-38 378 335
0.068585135 0.66299999 -0.1104337 1.0599531e-38 379 335
0.069747597 0.66299999 -0.1104337 1.0782846e-38 380 335
0.070910059 0.66299999 -0.1104337 1.0782846e-38 381 335
0.072181225 0.66399997 -0.11060026 1.0414436e-38 382 335
0.073566355 0.66600001 -0.1109334 1.0321882e-38 383 335
0.074734077 0.66600001 -0.1109334 9.9531203e-39 384 335
0.075901799 0.66600001 -0.1109334 9.8609247e-39 385 335
-0.056050558 0.66600001 -0.11210112 1.4008286e-38 272 336
-0.054882839 0.66600001 -0.11210112 1.2348766e-38 273 336
-0.053715117 0.66600001 -0.11210112 1.2715008e-38 274 336
-0.052389596 0.66399997 -0.11176447 1.2622812e-38 275 336
-0.051225383 0.66399997 -0.11176447 1.2255472e-38 276 336
-0.049910385 0.662 -0.11142784 1.2440222e-38 277 336
-0.04867604 0.66100001 -0.11125952 1.2348742e-38 278 336
-0.047517084 0.66100001 -0.11125952 1.2533135e-38 279 336
-0.046217863 0.65899998 -0.11092287 1.2626405e-38 280 336
-0.044994038 0.65799999 -0.11075456 1.2718601e-38 281 336
-0.043840345 0.65799999 -0.11075456 1.2904067e-38 282 336
-0.04262178 0.65700001 -0.11058623 1.2996264e-38 283 336
-0.041343596 0.65499997 -0.11024959 1.3273557e-38 284 336
-0.040195163 0.65499997 -0.11024959 1.3549784e-38 285 336
-0.039046731 0.65499997 -0.11024959 1.3827435e-38 286 336
-0.037840437 0.65399998 -0.11008127 1.3827435e-38 287 336
-0.036693759 0.65399998 -0.11008127 1.4287687e-38 288 336
-0.035547078 0.65399998 -0.11008127 1.4563915e-38 289 336
-0.034295198 0.65200001 -0.10974464 1.474759e-38 290 336
-0.033152029 0.65200001 -0.10974464 1.4839786e-38 291 336
-0.031910665 0.64999998 -0.10940799 1.5023101e-38 292 336
-0.030770998 0.64999998 -0.10940799 1.5023101e-38 293 336
-0.029631332 0.64999998 -0.10940799 1.4930905e-38 294 336
-0.028491667 0.64999998 -0.10940799 1.5023101e-38 295 336
-0.027351998 0.64999998 -0.10940799 1.5023101e-38 296 336
-0.026212333 0.64999998 -0.10940799 1.4930905e-38 297 336
-0.025072664 0.64999998 -0.10940799 1.4747596e-38 298 336
-0.023932999 0.64999998 -0.10940799 1.4655041e-38 299 336
-0.022793332 0.64999998 -0.10940799 1.4930905e-38 300 336
-0.021653665 0.64999998 -0.10940799 1.4930905e-38 301 336
-0.020513998 0.64999998 -0.10940799 1.4747593e-38 302 336
-0.019374331 0.64999998 -0.10940799 1.4747593e-38 303 336
-0.018234665 0.64999998 -0.10940799 1.5022748e-38 304 336
-0.017095 0.64999998 -0.10940799 1.4930552e-38 305 336
-0.015955333 0.64999998 -0.10940799 1.5206063e-38 306 336
-0.014792874 0.64899999 -0.10923968 1.5206063e-38 307 336
-0.013654959 0.64899999 -0.10923968 1.5206419e-38 308 336
-0.012517046 0.64899999 -0.10923968 1.5206419e-38 309 336
-0.011379133 0.64899999 -0.10923968 1.4839791e-38 310 336
-0.01024122 0.64899999 -0.10923968 1.4839791e-38 311 336
-0.0091033066 0.64899999 -0.10923968 1.5115299e-38 312 336
-0.0079653924 0.64899999 -0.10923968 1.5023104e-38 313 336
-0.0068274797 0.64899999 -0.10923968 1.5115296e-38 314 336
-0.0056807999 0.648 -0.10907136 1.5115296e-38 315 336
-0.00454464 0.648 -0.10907136 1.5298965e-38 316 336
-0.00340848 0.648 -0.10907136 1.5298965e-38 317 336
-0.00227232 0.648 -0.10907136 1.5206766e-38 318 336
-0.00113616 0.648 -0.10907136 1.5298962e-38 319 336
0 0.64700001 -0.10890304 1.5481914e-38 320 336
0.0011344067 0.64700001 -0.10890304 1.5481914e-38 321 336
0.00227232 0.648 -0.10907136 1.5481914e-38 322 336
0.00340848 0.648 -0.10907136 1.5481914e-38 323 336
0.00454464 0.648 -0.10907136 1.5298243e-38 324 336
0.0056720334 0.64700001 -0.10890304 1.5206047e-38 325 336
0.0068064397 0.64700001 -0.10890304 1.5206047e-38 326 336
0.0079408465 0.64700001 -0.10890304 1.5206047e-38 327 336
0.0090752533 0.64700001 -0.10890304 1.5114573e-38 328 336
0.01020966 0.64700001 -0.10890304 1.4930184e-38 329 336
0.011344067 0.64700001 -0.10890304 1.5113852e-38 330 336
0.012478473 0.64700001 -0.10890304 1.5113852e-38 331 336
0.013612879 0.64700001 -0.10890304 1.5203895e-38 332 336
0.014747286 0.64700001 -0.10890304 1.5203895e-38 333 336
0.015881693 0.64700001 -0.10890304 1.4744722e-38 334 336
0.0170161 0.64700001 -0.10890304 1.4928753e-38 335 336
0.01817856 0.648 -0.10907136 1.4653598e-38 336 336
0.019284913 0.64700001 -0.10890304 1.4653598e-38 337 336
0.02041932 0.64700001 -0.10890304 1.4653595e-38 338 336
0.021553727 0.64700001 -0.10890304 1.4469204e-38 339 336
0.022688134 0.64700001 -0.10890304 1.4560325e-38 340 336
0.023859359 0.648 -0.10907136 1.4468129e-38 341 336
0.024956945 0.64700001 -0.10890304 1.4467765e-38 342 336
0.026091354 0.64700001 -0.10890304 1.4375569e-38 343 336
0.02726784 0.648 -0.10907136 1.4190822e-38 344 336
0.028404001 0.648 -0.10907136 1.4006431e-38 345 336
0.029540159 0.648 -0.10907136 1.3730564e-38 346 336
0.03067632 0.648 -0.10907136 1.3638367e-38 347 336
0.031812482 0.648 -0.10907136 1.345398e-38 348 336
0.032999486 0.64899999 -0.10923968 1.3361784e-38 349 336
0.034137398 0.64899999 -0.10923968 1.3269589e-38 350 336
0.03527531 0.64899999 -0.10923968 1.3269589e-38 351 336
0.036413226 0.64899999 -0.10923968 1.3178115e-38 352 336
0.037608996 0.64999998 -0.10940799 1.3178115e-38 353 336
0.038748663 0.64999998 -0.10940799 1.2902248e-38 354 336
0.039888334 0.64999998 -0.10940799 1.2810053e-38 355 336
0.041027997 0.64999998 -0.10940799 1.262602e-38 356 336
0.042297412 0.65200001 -0.10974464 1.2441629e-38 357 336
0.043440588 0.65200001 -0.10974464 1.2349074e-38 358 336
0.044583756 0.65200001 -0.10974464 1.2164683e-38 359 336
0.045726933 0.65200001 -0.10974464 1.2163963e-38 360 336
0.046870105 0.65200001 -0.10974464 1.2071767e-38 361 336
0.048013281 0.65200001 -0.10974464 1.1979219e-38 362 336
0.049231846 0.653 -0.10991295 1.1887023e-38 363 336
0.050453916 0.65399998 -0.11008127 1.1793752e-38 364 336
0.051600594 0.65399998 -0.11008127 1.160936e-38 365 336
0.052827932 0.65499997 -0.11024959 1.1333852e-38 366 336
0.053976361 0.65499997 -0.11024959 1.1333852e-38 367 336
0.055124797 0.65499997 -0.11024959 1.0965792e-38 368 336
0.056445058 0.65700001 -0.11058623 1.0965792e-38 369 336
0.057596996 0.65700001 -0.11058623 1.0782477e-38 370 336
0.058748938 0.65700001 -0.11058623 1.0782477e-38 371 336
0.060083222 0.65899998 -0.11092287 1.0782477e-38 372 336
0.061238669 0.65899998 -0.11092287 1.0782477e-38 373 336
0.062583476 0.66100001 -0.11125952 1.0782121e-38 374 336
0.063838862 0.662 -0.11142784 1.0782121e-38 375 336
0.064999565 0.662 -0.11142784 1.0690648e-38 376 336
0.066160277 0.662 -0.11142784 1.0782843e-38 377 336
0.067320988 0.662 -0.11142784 1.0506979e-38 378 336
0.068481691 0.662 -0.11142784 1.0506979e-38 379 336
0.069747597 0.66299999 -0.11159615 1.0505913e-38 380 336
0.070910059 0.66299999 -0.11159615 1.0321162e-38 381 336
0.072181225 0.66399997 -0.11176447 1.0044953e-38 382 336
-0.054882839 0.66600001 -0.11326883 1.2443135e-38 273 337
-0.053715117 0.66600001 -0.11326883 1.2623178e-38 274 337
-0.052389596 0.66399997 -0.11292868 1.2346951e-38 275 337
-0.051225383 0.66399997 -0.11292868 1.2529898e-38 276 337
-0.049910385 0.662 -0.11258854 1.2529898e-38 277 337
-0.04867604 0.66100001 -0.11241848 1.2163632e-38 278 337
-0.04737331 0.65899998 -0.11207832 1.2255828e-38 279 337
-0.046217863 0.65899998 -0.11207832 1.234767e-38 280 337
-0.044994038 0.65799999 -0.11190825 1.2439866e-38 281 337
-0.043773718 0.65700001 -0.11173818 1.2349472e-38 282 337
-0.04262178 0.65700001 -0.11173818 1.2441668e-38 283 337
-0.041343596 0.65499997 -0.11139803 1.2535639e-38 284 337
-0.040195163 0.65499997 -0.11139803 1.2811866e-38 285 337
-0.039046731 0.65499997 -0.11139803 1.2905845e-38 286 337
-0.037840437 0.65399998 -0.11122796 1.3182431e-38 287 337
-0.036637653 0.653 -0.11105788 1.3641611e-38 288 337
-0.035492726 0.653 -0.11105788 1.4010394e-38 289 337
-0.034295198 0.65200001 -0.11088781 1.4194788e-38 290 337
-0.033152029 0.65200001 -0.11088781 1.437918e-38 291 337
-0.031910665 0.64999998 -0.11054766 1.4287706e-38 292 337
-0.030770998 0.64999998 -0.11054766 1.4287706e-38 293 337
-0.029631332 0.64999998 -0.11054766 1.4379183e-38 294 337
-0.028491667 0.64999998 -0.11054766 1.4379183e-38 295 337
-0.027309919 0.64899999 -0.11037759 1.4562849e-38 296 337
-0.026172007 0.64899999 -0.11037759 1.4562849e-38 297 337
-0.025034092 0.64899999 -0.11037759 1.4562844e-38 298 337
-0.023896178 0.64899999 -0.11037759 1.4470649e-38 299 337
-0.022758266 0.64899999 -0.11037759 1.4470283e-38 300 337
-0.021620352 0.64899999 -0.11037759 1.4562479e-38 301 337
-0.020513998 0.64999998 -0.11054766 1.4563197e-38 302 337
-0.019374331 0.64999998 -0.11054766 1.4563197e-38 303 337
-0.018234665 0.64999998 -0.11054766 1.4562125e-38 304 337
-0.017095 0.64999998 -0.11054766 1.4746157e-38 305 337
-0.015930785 0.64899999 -0.11037759 1.4745438e-38 306 337
-0.014792874 0.64899999 -0.11037759 1.4837992e-38 307 337
-0.013654959 0.64899999 -0.11037759 1.4745794e-38 308 337
-0.012517046 0.64899999 -0.11037759 1.4745794e-38 309 337
-0.011379133 0.64899999 -0.11037759 1.4471002e-38 310 337
-0.01024122 0.64899999 -0.11037759 1.4471002e-38 311 337
-0.0090892799 0.648 -0.11020751 1.4746513e-38 312 337
-0.0079408465 0.64700001 -0.11003745 1.4746513e-38 313 337
-0.0068064397 0.64700001 -0.11003745 1.474651e-38 314 337
-0.0056720334 0.64700001 -0.11003745 1.474651e-38 315 337
-0.00454464 0.648 -0.11020751 1.4838342e-38 316 337
-0.00340848 0.648 -0.11020751 1.4838342e-38 317 337
-0.00227232 0.648 -0.11020751 1.5021657e-38 318 337
-0.00113616 0.648 -0.11020751 1.5021657e-38 319 337
0 0.64700001 -0.11003745 1.5021657e-38 320 337
0.0011344067 0.64700001 -0.11003745 1.5021657e-38 321 337
0.00227232 0.648 -0.11020751 1.4929103e-38 322 337
0.00340848 0.648 -0.11020751 1.5021657e-38 323 337
0.0045376266 0.64700001 -0.11003745 1.4929456e-38 324 337
0.0056720334 0.64700001 -0.11003745 1.4929456e-38 325 337
0.0068064397 0.64700001 -0.11003745 1.4745425e-38 326 337
0.0079408465 0.64700001 -0.11003745 1.4745425e-38 327 337
0.0090752533 0.64700001 -0.11003745 1.447028e-38 328 337
0.01020966 0.64700001 -0.11003745 1.4378085e-38 329 337
0.011344067 0.64700001 -0.11003745 1.4652874e-38 330 337
0.012478473 0.64700001 -0.11003745 1.4560678e-38 331 337
0.013612879 0.64700001 -0.11003745 1.4743274e-38 332 337
0.014747286 0.64700001 -0.11003745 1.4743274e-38 333 337
0.015881693 0.64700001 -0.11003745 1.4284817e-38 334 337
0.0170161 0.64700001 -0.11003745 1.4284817e-38 335 337
0.018150507 0.64700001 -0.11003745 1.4192973e-38 336 337
0.019284913 0.64700001 -0.11003745 1.4192973e-38 337 337
0.02041932 0.64700001 -0.11003745 1.4192973e-38 338 337
0.021553727 0.64700001 -0.11003745 1.4100777e-38 339 337
0.022688134 0.64700001 -0.11003745 1.4283734e-38 340 337
0.023822539 0.64700001 -0.11003745 1.4099703e-38 341 337
0.024956945 0.64700001 -0.11003745 1.4007507e-38 342 337
0.026091354 0.64700001 -0.11003745 1.3915311e-38 343 337
0.027225759 0.64700001 -0.11003745 1.3730919e-38 344 337
0.028360168 0.64700001 -0.11003745 1.3638364e-38 345 337
0.029540159 0.648 -0.11020751 1.3270661e-38 346 337
0.03067632 0.648 -0.11020751 1.3270661e-38 347 337
0.031812482 0.648 -0.11020751 1.317739e-38 348 337
0.032999486 0.64899999 -0.11037759 1.3085195e-38 349 337
0.034137398 0.64899999 -0.11037759 1.280933e-38 350 337
0.03527531 0.64899999 -0.11037759 1.280933e-38 351 337
0.036413226 0.64899999 -0.11037759 1.2625664e-38 352 337
0.037608996 0.64999998 -0.11054766 1.2533469e-38 353 337
0.038748663 0.64999998 -0.11054766 1.2533471e-38 354 337
0.039888334 0.64999998 -0.11054766 1.234908e-38 355 337
0.041027997 0.64999998 -0.11054766 1.2256526e-38 356 337
0.042167664 0.64999998 -0.11054766 1.1980298e-38 357 337
0.043440588 0.65200001 -0.11088781 1.2071414e-38 358 337
0.044583756 0.65200001 -0.11088781 1.1887023e-38 359 337
0.045726933 0.65200001 -0.11088781 1.1611156e-38 360 337
0.046870105 0.65200001 -0.11088781 1.1518961e-38 361 337
0.048086919 0.653 -0.11105788 1.1426764e-38 362 337
0.049307238 0.65399998 -0.11122796 1.1242732e-38 363 337
0.050453916 0.65399998 -0.11122796 1.1333846e-38 364 337
0.051679496 0.65499997 -0.11139803 1.1241651e-38 365 337
0.052827932 0.65499997 -0.11139803 1.0966143e-38 366 337
0.053976361 0.65499997 -0.11139803 1.0966143e-38 367 337
0.055293117 0.65700001 -0.11173818 1.0966143e-38 368 337
0.056445058 0.65700001 -0.11173818 1.0966143e-38 369 337
0.057596996 0.65700001 -0.11173818 1.0782475e-38 370 337
0.058748938 0.65700001 -0.11173818 1.0782475e-38 371 337
0.060265575 0.66100001 -0.11241848 1.0691001e-38 372 337
0.061424527 0.66100001 -0.11241848 1.0783196e-38 373 337
0.062583476 0.66100001 -0.11241848 1.0782843e-38 374 337
0.063838862 0.662 -0.11258854 1.0782843e-38 375 337
0.064999565 0.662 -0.11258854 1.0599178e-38 376 337
0.066160277 0.662 -0.11258854 1.0506982e-38 377 337
0.067320988 0.662 -0.11258854 1.0230768e-38 378 337
0.068481691 0.662 -0.11258854 1.0046375e-38 379 337
0.069747597 0.66299999 -0.11275861 9.8609219e-39 380 337
0.070910059 0.66299999 -0.11275861 9.6768908e-39 381 337
-0.053715117 0.66600001 -0.11443655 1.2992339e-38 274 338
-0.052389596 0.66399997 -0.1140929 1.1978189e-38 275 338
-0.051225383 0.66399997 -0.1140929 1.2437705e-38 276 338
-0.049910385 0.662 -0.11374925 1.2345149e-38 277 338
-0.04867604 0.66100001 -0.11357743 1.2254026e-38 278 338
-0.04737331 0.65899998 -0.11323377 1.2254026e-38 279 338
-0.046217863 0.65899998 -0.11323377 1.1979598e-38 280 338
-0.044994038 0.65799999 -0.11306194 1.1979598e-38 281 338
-0.043773718 0.65700001 -0.11289012 1.1980317e-38 282 338
-0.04262178 0.65700001 -0.11289012 1.2164708e-38 283 338
-0.041343596 0.65499997 -0.11254645 1.2166131e-38 284 338
-0.040195163 0.65499997 -0.11254645 1.2258326e-38 285 338
-0.039046731 0.65499997 -0.11254645 1.2719655e-38 286 338
-0.037840437 0.65399998 -0.11237463 1.281185e-38 287 338
-0.036637653 0.653 -0.11220281 1.317991e-38 288 338
-0.035492726 0.653 -0.11220281 1.3272107e-38 289 338
-0.034295198 0.65200001 -0.11203098 1.3182065e-38 290 338
-0.033152029 0.65200001 -0.11203098 1.3274261e-38 291 338
-0.031910665 0.64999998 -0.11168732 1.3366819e-38 292 338
-0.030770998 0.64999998 -0.11168732 1.3366819e-38 293 338
-0.029631332 0.64999998 -0.11168732 1.3551571e-38 294 338
-0.028491667 0.64999998 -0.11168732 1.3735602e-38 295 338
-0.027309919 0.64899999 -0.1115155 1.4377734e-38 296 338
-0.026172007 0.64899999 -0.1115155 1.4377734e-38 297 338
-0.025034092 0.64899999 -0.1115155 1.4378087e-38 298 338
-0.023896178 0.64899999 -0.1115155 1.4285533e-38 299 338
-0.022758266 0.64899999 -0.1115155 1.4285886e-38 300 338
-0.021620352 0.64899999 -0.1115155 1.4285886e-38 301 338
-0.02048244 0.64899999 -0.1115155 1.4378082e-38 302 338
-0.019344525 0.64899999 -0.1115155 1.4378082e-38 303 338
-0.018234665 0.64999998 -0.11168732 1.4378087e-38 304 338
-0.017068699 0.64899999 -0.1115155 1.4470283e-38 305 338
-0.015930785 0.64899999 -0.1115155 1.4378087e-38 306 338
-0.014792874 0.64899999 -0.1115155 1.4470283e-38 307 338
-0.013654959 0.64899999 -0.1115155 1.4378085e-38 308 338
-0.012517046 0.64899999 -0.1115155 1.4285889e-38 309 338
-0.011379133 0.64899999 -0.1115155 1.4102577e-38 310 338
-0.010225439 0.648 -0.11134368 1.4102577e-38 311 338
-0.0090892799 0.648 -0.11134368 1.4286252e-38 312 338
-0.0079408465 0.64700001 -0.11117186 1.4286252e-38 313 338
-0.0068064397 0.64700001 -0.11117186 1.4378085e-38 314 338
-0.0056720334 0.64700001 -0.11117186 1.4378085e-38 315 338
-0.00454464 0.648 -0.11134368 1.4653948e-38 316 338
-0.00340848 0.648 -0.11134368 1.4561753e-38 317 338
-0.00227232 0.648 -0.11134368 1.465323e-38 318 338
-0.00113616 0.648 -0.11134368 1.465323e-38 319 338
0 0.64700001 -0.11117186 1.4653227e-38 320 338
0.0011344067 0.64700001 -0.11117186 1.4653227e-38 321 338
0.00227232 0.648 -0.11134368 1.4561034e-38 322 338
0.00340848 0.648 -0.11134368 1.465323e-38 323 338
0.0045376266 0.64700001 -0.11117186 1.4561034e-38 324 338
0.0056720334 0.64700001 -0.11117186 1.4561034e-38 325 338
0.0068064397 0.64700001 -0.11117186 1.4468835e-38 326 338
0.0079408465 0.64700001 -0.11117186 1.4561031e-38 327 338
0.0090752533 0.64700001 -0.11117186 1.4285523e-38 328 338
0.01020966 0.64700001 -0.11117186 1.4285523e-38 329 338
0.011344067 0.64700001 -0.11117186 1.4376282e-38 330 338
0.012459187 0.64600003 -0.11100002 1.4284087e-38 331 338
0.01359184 0.64600003 -0.11100002 1.4375566e-38 332 338
0.014724494 0.64600003 -0.11100002 1.4283371e-38 333 338
0.015857147 0.64600003 -0.11100002 1.4008223e-38 334 338
0.016989801 0.64600003 -0.11100002 1.4008223e-38 335 338
0.018150507 0.64700001 -0.11117186 1.4008223e-38 336 338
0.019284913 0.64700001 -0.11117186 1.4008223e-38 337 338
0.020387759 0.64600003 -0.11100002 1.4007504e-38 338 338
0.021520413 0.64600003 -0.11100002 1.3915309e-38 339 338
0.022688134 0.64700001 -0.11117186 1.382311e-38 340 338
0.023822539 0.64700001 -0.11117186 1.382311e-38 341 338
0.024956945 0.64700001 -0.11117186 1.3822746e-38 342 338
0.026091354 0.64700001 -0.11117186 1.373055e-38 343 338
0.027225759 0.64700001 -0.11117186 1.3454686e-38 344 338
0.028360168 0.64700001 -0.11117186 1.3270295e-38 345 338
0.029540159 0.648 -0.11134368 1.3085546e-38 346 338
0.03067632 0.648 -0.11134368 1.2993351e-38 347 338
0.031812482 0.648 -0.11134368 1.2992276e-38 348 338
0.032999486 0.64899999 -0.1115155 1.2807885e-38 349 338
0.034137398 0.64899999 -0.1115155 1.2532021e-38 350 338
0.03527531 0.64899999 -0.1115155 1.2532021e-38 351 338
0.036413226 0.64899999 -0.1115155 1.2256516e-38 352 338
0.037608996 0.64999998 -0.11168732 1.216396e-38 353 338
0.038748663 0.64999998 -0.11168732 1.2347278e-38 354 338
0.039888334 0.64999998 -0.11168732 1.2071051e-38 355 338
0.041027997 0.64999998 -0.11168732 1.1702992e-38 356 338
0.042167664 0.64999998 -0.11168732 1.1610437e-38 357 338
0.043440588 0.65200001 -0.11203098 1.1519317e-38 358 338
0.044583756 0.65200001 -0.11203098 1.124273e-38 359 338
0.045726933 0.65200001 -0.11203098 1.1243086e-38 360 338
0.046941992 0.653 -0.11220281 1.115089e-38 361 338
0.048086919 0.653 -0.11220281 1.1059054e-38 362 338
0.049307238 0.65399998 -0.11237463 1.0875023e-38 363 338
0.050453916 0.65399998 -0.11237463 1.1058338e-38 364 338
0.051679496 0.65499997 -0.11254645 1.0966143e-38 365 338
0.052827932 0.65499997 -0.11254645 1.0875026e-38 366 338
0.053976361 0.65499997 -0.11254645 1.0782831e-38 367 338
0.055293117 0.65700001 -0.11289012 1.087467e-38 368 338
0.056445058 0.65700001 -0.11289012 1.087467e-38 369 338
0.057684667 0.65799999 -0.11306194 1.0599884e-38 370 338
0.058927774 0.65899998 -0.11323377 1.0599884e-38 371 338
0.060265575 0.66100001 -0.11357743 1.0782843e-38 372 338
0.061424527 0.66100001 -0.11357743 1.0782843e-38 373 338
0.062583476 0.66100001 -0.11357743 1.0874323e-38 374 338
0.063838862 0.662 -0.11374925 1.0782127e-38 375 338
0.064999565 0.662 -0.11374925 1.0506632e-38 376 338
0.066160277 0.662 -0.11374925 1.0321882e-38 377 338
-0.052389596 0.66399997 -0.11525711 1.2348066e-38 275 339
-0.051225383 0.66399997 -0.11525711 1.2436622e-38 276 339
-0.049684204 0.65899998 -0.11438921 1.2528818e-38 277 339
-0.048528757 0.65899998 -0.11438921 1.2436619e-38 278 339
-0.04737331 0.65899998 -0.11438921 1.2252588e-38 279 339
-0.046217863 0.65899998 -0.11438921 1.1885966e-38 280 339
-0.044994038 0.65799999 -0.11421563 1.1978162e-38 281 339
-0.043840345 0.65799999 -0.11421563 1.1703373e-38 282 339
-0.04262178 0.65700001 -0.11404206 1.1887766e-38 283 339
-0.041469838 0.65700001 -0.11404206 1.1522213e-38 284 339
-0.040195163 0.65499997 -0.11369488 1.1522213e-38 285 339
-0.039046731 0.65499997 -0.11369488 1.1707323e-38 286 339
-0.037840437 0.65399998 -0.11352132 1.1707323e-38 287 339
-0.036637653 0.653 -0.11334774 1.2168283e-38 288 339
-0.035492726 0.653 -0.11334774 1.2168283e-38 289 339
-0.034295198 0.65200001 -0.11317416 1.2536708e-38 290 339
-0.033152029 0.65200001 -0.11317416 1.27211e-38 291 339
-0.031910665 0.64999998 -0.112827 1.272147e-38 292 339
-0.030770998 0.64999998 -0.112827 1.2537437e-38 293 339
-0.029631332 0.64999998 -0.112827 1.309023e-38 294 339
-0.028491667 0.64999998 -0.112827 1.3367175e-38 295 339
-0.027309919 0.64899999 -0.11265341 1.3642315e-38 296 339
-0.026172007 0.64899999 -0.11265341 1.3734869e-38 297 339
-0.025034092 0.64899999 -0.11265341 1.428552e-38 298 339
-0.023896178 0.64899999 -0.11265341 1.428552e-38 299 339
-0.022758266 0.64899999 -0.11265341 1.3734513e-38 300 339
-0.021620352 0.64899999 -0.11265341 1.3642317e-38 301 339
-0.02048244 0.64899999 -0.11265341 1.3733811e-38 302 339
-0.019344525 0.64899999 -0.11265341 1.3733811e-38 303 339
-0.018206613 0.64899999 -0.11265341 1.3917492e-38 304 339
-0.017068699 0.64899999 -0.11265341 1.3917492e-38 305 339
-0.015906241 0.648 -0.11247984 1.3917848e-38 306 339
-0.014770079 0.648 -0.11247984 1.3917848e-38 307 339
-0.01363392 0.648 -0.11247984 1.3918195e-38 308 339
-0.01249776 0.648 -0.11247984 1.3918195e-38 309 339
-0.0113616 0.648 -0.11247984 1.3734164e-38 310 339
-0.010225439 0.648 -0.11247984 1.3918195e-38 311 339
-0.0090892799 0.648 -0.11247984 1.3918198e-38 312 339
-0.0079408465 0.64700001 -0.11230626 1.3918198e-38 313 339
-0.0068064397 0.64700001 -0.11230626 1.4010028e-38 314 339
-0.0056807999 0.648 -0.11247984 1.4010028e-38 315 339
-0.00454464 0.648 -0.11247984 1.4010025e-38 316 339
-0.00340848 0.648 -0.11247984 1.4010025e-38 317 339
-0.00227232 0.648 -0.11247984 1.4193693e-38 318 339
-0.00113616 0.648 -0.11247984 1.4193693e-38 319 339
0 0.64700001 -0.11230626 1.4193337e-38 320 339
0.0011344067 0.64700001 -0.11230626 1.4193337e-38 321 339
0.00227232 0.648 -0.11247984 1.419262e-38 322 339
0.0034032199 0.64700001 -0.11230626 1.419262e-38 323 339
0.0045376266 0.64700001 -0.11230626 1.4101143e-38 324 339
0.0056720334 0.64700001 -0.11230626 1.3917112e-38 325 339
0.0068064397 0.64700001 -0.11230626 1.3733081e-38 326 339
0.0079408465 0.64700001 -0.11230626 1.3733081e-38 327 339
0.0090752533 0.64700001 -0.11230626 1.3640532e-38 328 339
0.01020966 0.64700001 -0.11230626 1.3640532e-38 329 339
0.011344067 0.64700001 -0.11230626 1.3456504e-38 330 339
0.012459187 0.64600003 -0.11213268 1.3456504e-38 331 339
0.01359184 0.64600003 -0.11213268 1.3456148e-38 332 339
0.014724494 0.64600003 -0.11213268 1.3456148e-38 333 339
0.015857147 0.64600003 -0.11213268 1.3271757e-38 334 339
0.016989801 0.64600003 -0.11213268 1.3271757e-38 335 339
0.018122453 0.64600003 -0.11213268 1.3271759e-38 336 339
0.019284913 0.64700001 -0.11230626 1.3271759e-38 337 339
0.020387759 0.64600003 -0.11213268 1.3546902e-38 338 339
0.021520413 0.64600003 -0.11213268 1.3454705e-38 339 339
0.022688134 0.64700001 -0.11230626 1.3179913e-38 340 339
0.023822539 0.64700001 -0.11230626 1.3087358e-38 341 339
0.024956945 0.64700001 -0.11230626 1.3270308e-38 342 339
0.026091354 0.64700001 -0.11230626 1.3178112e-38 343 339
0.027225759 0.64700001 -0.11230626 1.2810053e-38 344 339
0.028360168 0.64700001 -0.11230626 1.262602e-38 345 339
0.029540159 0.648 -0.11247984 1.244092e-38 346 339
0.03067632 0.648 -0.11247984 1.2348724e-38 347 339
0.031812482 0.648 -0.11247984 1.225581e-38 348 339
0.032999486 0.64899999 -0.11265341 1.2071417e-38 349 339
0.034137398 0.64899999 -0.11265341 1.2071417e-38 350 339
0.03527531 0.64899999 -0.11265341 1.1979221e-38 351 339
0.036413226 0.64899999 -0.11265341 1.1520045e-38 352 339
0.037551139 0.64899999 -0.11265341 1.1427491e-38 353 339
0.038748663 0.64999998 -0.112827 1.1610087e-38 354 339
0.039888334 0.64999998 -0.112827 1.151789e-38 355 339
0.041027997 0.64999998 -0.112827 1.1243101e-38 356 339
0.042167664 0.64999998 -0.112827 1.1150905e-38 357 339
0.043440588 0.65200001 -0.11317416 1.105906e-38 358 339
0.044583756 0.65200001 -0.11317416 1.105906e-38 359 339
0.045726933 0.65200001 -0.11317416 1.0783549e-38 360 339
0.046870105 0.65200001 -0.11317416 1.0783549e-38 361 339
0.048086919 0.653 -0.11334774 1.1058341e-38 362 339
0.049231846 0.653 -0.11334774 1.1058341e-38 363 339
0.050453916 0.65399998 -0.11352132 1.1058341e-38 364 339
0.051600594 0.65399998 -0.11352132 1.1058341e-38 365 339
0.052827932 0.65499997 -0.11369488 1.0783193e-38 366 339
0.053976361 0.65499997 -0.11369488 1.0783193e-38 367 339
0.055293117 0.65700001 -0.11404206 1.0874673e-38 368 339
0.056445058 0.65700001 -0.11404206 1.0874673e-38 369 339
0.057772331 0.65899998 -0.11438921 1.0599531e-38 370 339
0.058927774 0.65899998 -0.11438921 1.0599531e-38 371 339
0.060265575 0.66100001 -0.11473638 1.0506982e-38 372 339
0.061424527 0.66100001 -0.11473638 1.0506982e-38 373 339
0.062583476 0.66100001 -0.11473638 1.0230765e-38 374 339
0.063742429 0.66100001 -0.11473638 1.0046373e-38 375 339
0.064901382 0.66100001 -0.11473638 9.9531203e-39 376 339
-0.050839648 0.65899998 -0.11554466 1.2899069e-38 276 340
-0.049684204 0.65899998 -0.11554466 1.2069308e-38 277 340
-0.048528757 0.65899998 -0.11554466 1.1886695e-38 278 340
-0.04737331 0.65899998 -0.11554466 1.1702304e-38 279 340
-0.046217863 0.65899998 -0.11554466 1.1977443e-38 280 340
-0.044994038 0.65799999 -0.11536933 1.1885247e-38 281 340
-0.043773718 0.65700001 -0.11519399 1.1702286e-38 282 340
-0.04262178 0.65700001 -0.11519399 1.1886317e-38 283 340
-0.041469838 0.65700001 -0.11519399 1.1519689e-38 284 340
-0.040195163 0.65499997 -0.11484333 1.170372e-38 285 340
-0.039046731 0.65499997 -0.11484333 1.1704074e-38 286 340
-0.037840437 0.65399998 -0.114668 1.1796269e-38 287 340
-0.036693759 0.65399998 -0.114668 1.1614026e-38 288 340
-0.035492726 0.653 -0.11449267 1.1706223e-38 289 340
-0.034295198 0.65200001 -0.11431734 1.2441629e-38 290 340
-0.033152029 0.65200001 -0.11431734 1.2441629e-38 291 340
-0.031910665 0.64999998 -0.11396667 1.198209e-38 292 340
-0.030770998 0.64999998 -0.11396667 1.198209e-38 293 340
-0.029631332 0.64999998 -0.11396667 1.2258679e-38 294 340
-0.028491667 0.64999998 -0.11396667 1.2443072e-38 295 340
-0.027309919 0.64899999 -0.11379133 1.2534543e-38 296 340
-0.026172007 0.64899999 -0.11379133 1.2718936e-38 297 340
-0.025034092 0.64899999 -0.11379133 1.3088067e-38 298 340
-0.023896178 0.64899999 -0.11379133 1.3272459e-38 299 340
-0.022758266 0.64899999 -0.11379133 1.3730564e-38 300 340
-0.021620352 0.64899999 -0.11379133 1.3730564e-38 301 340
-0.02048244 0.64899999 -0.11379133 1.3639803e-38 302 340
-0.019344525 0.64899999 -0.11379133 1.3823835e-38 303 340
-0.018206613 0.64899999 -0.11379133 1.3914958e-38 304 340
-0.017068699 0.64899999 -0.11379133 1.4007154e-38 305 340
-0.015906241 0.648 -0.113616 1.4007873e-38 306 340
-0.014770079 0.648 -0.113616 1.4007873e-38 307 340
-0.01363392 0.648 -0.113616 1.3824911e-38 308 340
-0.01249776 0.648 -0.113616 1.3824911e-38 309 340
