# .PCD v.7 - Point Cloud Data file format
FIELDS x y z rgb imX imY
SIZE 4 4 4 4 4 4
TYPE F F F F F F
COUNT 1 1 1 1 1 1
WIDTH 833
HEIGHT 1
VIEWPOINT 0 0 0 1 0 0 0
POINTS 833
DATA ascii
0.0081372196 0.66299999 -0.040686097 1.8158453e-38 327 275
0.0092996797 0.66299999 -0.040686097 1.8158459e-38 328 275
0.01046214 0.66299999 -0.040686097 1.8158459e-38 329 275
0.0116246 0.66299999 -0.040686097 1.8157752e-38 330 275
0.018711573 0.667 -0.040931564 1.7697876e-38 336 275
0.019851239 0.66600001 -0.040870197 1.7697876e-38 337 275
0.02101896 0.66600001 -0.040870197 1.7422377e-38 338 275
0.02218668 0.66600001 -0.040870197 1.7422377e-38 339 275
0.023354398 0.66600001 -0.040870197 1.7514226e-38 340 275
0.024448479 0.66399997 -0.040747464 1.7790452e-38 341 275
0.025612691 0.66399997 -0.040747464 1.7606807e-38 342 275
0.026776904 0.66399997 -0.040747464 1.7791198e-38 343 275
0.027899038 0.66299999 -0.040686097 1.7607904e-38 344 275
0.029061496 0.66299999 -0.040686097 1.7976328e-38 345 275
0.046638668 0.69999999 -0.042956665 1.8347299e-38 358 275
0.047865998 0.69999999 -0.042956665 1.7978518e-38 359 275
0.049093332 0.69999999 -0.042956665 1.4658364e-38 360 275
0.050320663 0.69999999 -0.042956665 1.2814451e-38 361 275
0.051547997 0.69999999 -0.042956665 1.1887045e-38 362 275
0.052775331 0.69999999 -0.042956665 1.0227524e-38 363 275
0.054079808 0.70099998 -0.043018032 7.2783386e-39 364 275
0.055308893 0.70099998 -0.043018032 7.0935886e-39 365 275
0.056699295 0.70300001 -0.043140765 6.9103156e-39 366 275
0.057931885 0.70300001 -0.043140765 6.5415317e-39 367 275
0.059416957 0.70599997 -0.043324865 7.0036014e-39 368 275
-0.090822659 0.69999999 -0.044183996 1.3273554e-38 246 276
-0.087140664 0.69999999 -0.044183996 1.3458276e-38 249 276
-0.08591333 0.69999999 -0.044183996 1.3641939e-38 250 276
-0.084444039 0.69800001 -0.04405776 1.3457908e-38 251 276
-0.083100989 0.69700003 -0.043994639 1.364122e-38 252 276
-0.081174068 0.69099998 -0.043615919 1.364122e-38 253 276
-0.079846799 0.69 -0.043552797 1.3641223e-38 254 276
-0.078409068 0.68800002 -0.043426562 1.3641223e-38 255 276
-0.077202775 0.68800002 -0.043426562 1.3733416e-38 256 276
-0.075886011 0.68699998 -0.043363437 1.3918166e-38 257 276
-0.074572764 0.68599999 -0.043300316 1.3918879e-38 258 276
-0.073156074 0.68400002 -0.043174081 1.4287662e-38 259 276
-0.071851604 0.68300003 -0.043110959 1.4289091e-38 260 276
-0.070654072 0.68300003 -0.043110959 1.4565676e-38 261 276
-0.069354847 0.68199998 -0.043047838 1.5300725e-38 262 276
-0.068159081 0.68199998 -0.043047838 1.5577312e-38 263 276
-0.066766933 0.68000001 -0.042921599 1.6128332e-38 264 276
-0.065478235 0.67900002 -0.042858478 1.6313082e-38 265 276
-0.064287722 0.67900002 -0.042858478 1.6314881e-38 266 276
-0.063004278 0.67799997 -0.042795356 1.6498912e-38 267 276
-0.061633173 0.676 -0.042669121 1.6590389e-38 268 276
-0.06044792 0.676 -0.042669121 1.6682584e-38 269 276
-0.059175 0.67500001 -0.042606 1.6866618e-38 270 276
-0.057991501 0.67500001 -0.042606 1.6866618e-38 271 276
-0.056723841 0.67400002 -0.042542879 1.6958817e-38 272 276
-0.055377278 0.67199999 -0.042416636 1.6866621e-38 273 276
-0.054118387 0.671 -0.042353518 1.6866621e-38 274 276
-0.052941896 0.671 -0.042353518 1.6958817e-38 275 276
-0.051765412 0.671 -0.042353518 1.7418354e-38 276 276
-0.050588924 0.671 -0.042353518 1.7418354e-38 277 276
-0.049338799 0.67000002 -0.042290401 1.7143562e-38 278 276
-0.048164066 0.67000002 -0.042290401 1.7235758e-38 279 276
-0.047059465 0.671 -0.042353518 1.7052814e-38 280 276
-0.0458146 0.67000002 -0.042290401 1.714501e-38 281 276
-0.044439986 0.667 -0.042101037 1.7511635e-38 282 276
-0.04327051 0.667 -0.042101037 1.7788582e-38 283 276
-0.042101037 0.667 -0.042101037 1.8064089e-38 284 276
-0.040931564 0.667 -0.042101037 1.8064089e-38 285 276
-0.039762091 0.667 -0.042101037 1.8156291e-38 286 276
-0.038592618 0.667 -0.042101037 1.8248486e-38 287 276
-0.037423145 0.667 -0.042101037 1.8157007e-38 288 276
-0.036253672 0.667 -0.042101037 1.8249202e-38 289 276
-0.035084199 0.667 -0.042101037 1.8341398e-38 290 276
-0.03386388 0.66600001 -0.042037919 1.8341398e-38 291 276
-0.032696161 0.66600001 -0.042037919 1.8341398e-38 292 276
-0.031528439 0.66600001 -0.042037919 1.8433954e-38 293 276
-0.030406304 0.667 -0.042101037 1.8433601e-38 294 276
-0.029236831 0.667 -0.042101037 1.8525796e-38 295 276
-0.028067358 0.667 -0.042101037 1.8525443e-38 296 276
-0.026857559 0.66600001 -0.042037919 1.8525443e-38 297 276
-0.02568984 0.66600001 -0.042037919 1.8617995e-38 298 276
-0.024558939 0.667 -0.042101037 1.8617995e-38 299 276
-0.023389466 0.667 -0.042101037 1.8617992e-38 300 276
-0.02218668 0.66600001 -0.042037919 1.8617992e-38 301 276
-0.02101896 0.66600001 -0.042037919 1.8802026e-38 302 276
-0.019851239 0.66600001 -0.042037919 1.8802026e-38 303 276
-0.018627413 0.66399997 -0.041911677 1.880167e-38 304 276
-0.0173843 0.66100001 -0.04172232 1.880167e-38 305 276
-0.016225345 0.66100001 -0.04172232 1.8618358e-38 306 276
-0.015066394 0.66100001 -0.04172232 1.8618358e-38 307 276
-0.01390744 0.66100001 -0.04172232 1.8894224e-38 308 276
-0.012748486 0.66100001 -0.04172232 1.880167e-38 309 276
-0.011607066 0.662 -0.041785441 1.8801673e-38 310 276
-0.01044636 0.662 -0.041785441 1.8801673e-38 311 276
-0.009285653 0.662 -0.041785441 1.861836e-38 312 276
-0.0081249457 0.662 -0.041785441 1.861836e-38 313 276
-0.0069642398 0.662 -0.041785441 1.8618358e-38 314 276
-0.0058035329 0.662 -0.041785441 1.8618358e-38 315 276
-0.0046358132 0.66100001 -0.04172232 1.8618358e-38 316 276
-0.00347686 0.66100001 -0.04172232 1.8526162e-38 317 276
-0.0023179066 0.66100001 -0.04172232 1.8618358e-38 318 276
-0.0011589533 0.66100001 -0.04172232 1.8618358e-38 319 276
0 0.66100001 -0.04172232 1.8526165e-38 320 276
0.0011589533 0.66100001 -0.04172232 1.861836e-38 321 276
0.0023179066 0.66100001 -0.04172232 1.8526162e-38 322 276
0.00347686 0.66100001 -0.04172232 1.8618358e-38 323 276
0.0046498398 0.66299999 -0.041848559 1.8526162e-38 324 276
0.0058122999 0.66299999 -0.041848559 1.8433966e-38 325 276
0.0069642398 0.662 -0.041785441 1.8526162e-38 326 276
0.0081249457 0.662 -0.041785441 1.8433966e-38 327 276
0.009285653 0.662 -0.041785441 1.8342499e-38 328 276
0.01046214 0.66299999 -0.041848559 1.8250304e-38 329 276
0.011607066 0.662 -0.041785441 1.8249948e-38 330 276
0.012767773 0.662 -0.041785441 1.8249948e-38 331 276
0.01392848 0.662 -0.041785441 1.8157749e-38 332 276
0.0175421 0.667 -0.042101037 1.8065201e-38 335 276
0.018683519 0.66600001 -0.042037919 1.7881538e-38 336 276
0.019851239 0.66600001 -0.042037919 1.7881538e-38 337 276
0.02101896 0.66600001 -0.042037919 1.760568e-38 338 276
0.02218668 0.66600001 -0.042037919 1.760568e-38 339 276
0.023354398 0.66600001 -0.042037919 1.7696442e-38 340 276
0.024448479 0.66399997 -0.041911677 1.7604246e-38 341 276
0.025612691 0.66399997 -0.041911677 1.7144714e-38 342 276
0.026776904 0.66399997 -0.041911677 1.7144714e-38 343 276
0.027899038 0.66299999 -0.041848559 1.7052168e-38 344 276
0.029061496 0.66299999 -0.041848559 1.7144364e-38 345 276
0.030223956 0.66299999 -0.041848559 1.6685203e-38 346 276
0.045022093 0.69400001 -0.043805279 1.7979227e-38 357 276
0.046238903 0.69400001 -0.043805279 1.7700462e-38 358 276
0.047865998 0.69999999 -0.044183996 1.6501921e-38 359 276
0.049093332 0.69999999 -0.044183996 1.3181048e-38 360 276
0.050320663 0.69999999 -0.044183996 1.2351286e-38 361 276
0.051547997 0.69999999 -0.044183996 1.2809002e-38 362 276
0.052775331 0.69999999 -0.044183996 1.2348023e-38 363 276
0.054234106 0.70300001 -0.04437336 1.1794497e-38 364 276
0.0554667 0.70300001 -0.04437336 1.1241323e-38 365 276
0.056699295 0.70300001 -0.04437336 1.0412661e-38 366 276
0.057931885 0.70300001 -0.04437336 1.0412661e-38 367 276
0.059416957 0.70599997 -0.044562716 1.004425e-38 368 276
-0.088367991 0.69999999 -0.04541133 1.3457923e-38 248 277
-0.087140664 0.69999999 -0.04541133 1.3457923e-38 249 277
-0.08591333 0.69999999 -0.04541133 1.3457911e-38 250 277
-0.084444039 0.69800001 -0.045281585 1.3457911e-38 251 277
-0.082743309 0.69400001 -0.045022093 1.3457908e-38 252 277
-0.081174068 0.69099998 -0.044827472 1.3457908e-38 253 277
-0.079846799 0.69 -0.0447626 1.3457908e-38 254 277
-0.078409068 0.68800002 -0.044632856 1.3365712e-38 255 277
-0.077202775 0.68800002 -0.044632856 1.3365709e-38 256 277
-0.075886011 0.68699998 -0.044567976 1.3457905e-38 257 277
-0.074572764 0.68599999 -0.044503104 1.3642289e-38 258 277
-0.073156074 0.68400002 -0.04437336 1.3734844e-38 259 277
-0.071851604 0.68300003 -0.044308487 1.3919588e-38 260 277
-0.070654072 0.68300003 -0.044308487 1.4011784e-38 261 277
-0.069354847 0.68199998 -0.044243611 1.4379489e-38 262 277
-0.067959204 0.68000001 -0.044113863 1.4472043e-38 263 277
-0.066766933 0.68000001 -0.044113863 1.4749353e-38 264 277
-0.065478235 0.67900002 -0.044048995 1.502558e-38 265 277
-0.06419304 0.67799997 -0.043984115 1.5761347e-38 266 277
-0.063004278 0.67799997 -0.043984115 1.5945738e-38 267 277
-0.061633173 0.676 -0.043854371 1.6130132e-38 268 277
-0.060358498 0.67500001 -0.043789499 1.6222328e-38 269 277
-0.059175 0.67500001 -0.043789499 1.649784e-38 270 277
-0.057905588 0.67400002 -0.043724626 1.6590036e-38 271 277
-0.056555521 0.67199999 -0.043594878 1.6590036e-38 272 277
-0.055377278 0.67199999 -0.043594878 1.6590036e-38 273 277
-0.054118387 0.671 -0.043530006 1.6590757e-38 274 277
-0.052941896 0.671 -0.043530006 1.6590757e-38 275 277
-0.051688269 0.67000002 -0.043465134 1.6590754e-38 276 277
-0.050513536 0.67000002 -0.043465134 1.6590754e-38 277 277
-0.04919152 0.66799998 -0.043335386 1.6866618e-38 278 277
-0.048020288 0.66799998 -0.043335386 1.6958814e-38 279 277
-0.046778932 0.667 -0.04327051 1.7234327e-38 280 277
-0.045609459 0.667 -0.04327051 1.7326524e-38 281 277
-0.044439986 0.667 -0.04327051 1.7050293e-38 282 277
-0.04327051 0.667 -0.04327051 1.7419076e-38 283 277
-0.042101037 0.667 -0.04327051 1.7235405e-38 284 277
-0.040870197 0.66600001 -0.043205637 1.7327959e-38 285 277
-0.039702479 0.66600001 -0.043205637 1.7787861e-38 286 277
-0.03853476 0.66600001 -0.043205637 1.7787861e-38 287 277
-0.037367038 0.66600001 -0.043205637 1.7513072e-38 288 277
-0.03619932 0.66600001 -0.043205637 1.7605269e-38 289 277
-0.035031598 0.66600001 -0.043205637 1.7788579e-38 290 277
-0.03386388 0.66600001 -0.043205637 1.7880774e-38 291 277
-0.03259797 0.66399997 -0.043075889 1.7788582e-38 292 277
-0.031433757 0.66399997 -0.043075889 1.8157004e-38 293 277
-0.030406304 0.667 -0.04327051 1.8065537e-38 294 277
-0.029192999 0.66600001 -0.043205637 1.8065537e-38 295 277
-0.028025279 0.66600001 -0.043205637 1.7973344e-38 296 277
-0.026857559 0.66600001 -0.043205637 1.806554e-38 297 277
-0.02568984 0.66600001 -0.043205637 1.8341404e-38 298 277
-0.024448479 0.66399997 -0.043075889 1.8341404e-38 299 277
-0.023284266 0.66399997 -0.043075889 1.8433964e-38 300 277
-0.02208674 0.66299999 -0.043011017 1.8249932e-38 301 277
-0.020892721 0.662 -0.042946145 1.8433966e-38 302 277
-0.019702207 0.66100001 -0.042881273 1.8433966e-38 303 277
-0.018543253 0.66100001 -0.042881273 1.8617642e-38 304 277
-0.0173843 0.66100001 -0.042881273 1.8617642e-38 305 277
-0.016225345 0.66100001 -0.042881273 1.8526165e-38 306 277
-0.015066394 0.66100001 -0.042881273 1.8526165e-38 307 277
-0.01390744 0.66100001 -0.042881273 1.8801673e-38 308 277
-0.012748486 0.66100001 -0.042881273 1.8617642e-38 309 277
-0.011589534 0.66100001 -0.042881273 1.8617642e-38 310 277
-0.01043058 0.66100001 -0.042881273 1.8617642e-38 311 277
-0.0092716264 0.66100001 -0.042881273 1.8526162e-38 312 277
-0.0081126727 0.66100001 -0.042881273 1.8526162e-38 313 277
-0.00695372 0.66100001 -0.042881273 1.8526162e-38 314 277
-0.0057947668 0.66100001 -0.042881273 1.8526162e-38 315 277
-0.0046358132 0.66100001 -0.042881273 1.8525443e-38 316 277
-0.00347686 0.66100001 -0.042881273 1.8617639e-38 317 277
-0.0023179066 0.66100001 -0.042881273 1.8617642e-38 318 277
-0.0011554466 0.65899998 -0.042751525 1.8525446e-38 319 277
0 0.65899998 -0.042751525 1.8433969e-38 320 277
0.0011554466 0.65899998 -0.042751525 1.8433969e-38 321 277
0.0023108933 0.65899998 -0.042751525 1.8525443e-38 322 277
0.00347686 0.66100001 -0.042881273 1.8525443e-38 323 277
0.0046428265 0.662 -0.042946145 1.8433966e-38 324 277
0.0057947668 0.66100001 -0.042881273 1.8433966e-38 325 277
0.00695372 0.66100001 -0.042881273 1.8433969e-38 326 277
0.0081126727 0.66100001 -0.042881273 1.8433969e-38 327 277
0.009285653 0.662 -0.042946145 1.8249585e-38 328 277
0.01044636 0.662 -0.042946145 1.8157031e-38 329 277
0.011589534 0.66100001 -0.042881273 1.8157033e-38 330 277
0.012748486 0.66100001 -0.042881273 1.8157033e-38 331 277
0.01390744 0.66100001 -0.042881273 1.7789689e-38 332 277
0.015066394 0.66100001 -0.042881273 1.7789689e-38 333 277
0.016298985 0.66399997 -0.043075889 1.7789694e-38 334 277
0.0174632 0.66399997 -0.043075889 1.7697499e-38 335 277
0.018627413 0.66399997 -0.043075889 1.7696427e-38 336 277
0.019791625 0.66399997 -0.043075889 1.7604231e-38 337 277
0.020955838 0.66399997 -0.043075889 1.7329083e-38 338 277
0.022120051 0.66399997 -0.043075889 1.7236888e-38 339 277
0.023284266 0.66399997 -0.043075889 1.7236888e-38 340 277
0.024448479 0.66399997 -0.043075889 1.7052856e-38 341 277
0.025612691 0.66399997 -0.043075889 1.7051773e-38 342 277
0.026776904 0.66399997 -0.043075889 1.6775546e-38 343 277
0.027941117 0.66399997 -0.043075889 1.668227e-38 344 277
0.02910533 0.66399997 -0.043075889 1.6497881e-38 345 277
0.030269546 0.66399997 -0.043075889 1.6129474e-38 346 277
0.045022093 0.69400001 -0.045022093 1.6500111e-38 357 277
0.046238903 0.69400001 -0.045022093 1.5300824e-38 358 277
0.047865998 0.69999999 -0.04541133 1.4563258e-38 359 277
0.049093332 0.69999999 -0.04541133 1.3364696e-38 360 277
0.050320663 0.69999999 -0.04541133 1.3180305e-38 361 277
0.051547997 0.69999999 -0.04541133 1.3269981e-38 362 277
0.052775331 0.69999999 -0.04541133 1.2901197e-38 363 277
0.054234106 0.70300001 -0.04560595 1.2992321e-38 364 277
0.0554667 0.70300001 -0.04560595 1.2715733e-38 365 277
0.056699295 0.70300001 -0.04560595 1.2622112e-38 366 277
0.057931885 0.70300001 -0.04560595 1.2437721e-38 367 277
-0.088367991 0.69999999 -0.046638668 1.3181712e-38 248 278
-0.087140664 0.69999999 -0.046638668 1.3181712e-38 249 278
-0.085667863 0.69800001 -0.046505414 1.3457558e-38 250 278
-0.084323063 0.69700003 -0.046438783 1.3457558e-38 251 278
-0.082743309 0.69400001 -0.046238903 1.3365359e-38 252 278
-0.081174068 0.69099998 -0.046039023 1.3457555e-38 253 278
-0.079962514 0.69099998 -0.046039023 1.3365712e-38 254 278
-0.078409068 0.68800002 -0.045839146 1.3365712e-38 255 278
-0.077202775 0.68800002 -0.045839146 1.3366061e-38 256 278
-0.075996481 0.68800002 -0.045839146 1.3366061e-38 257 278
-0.074572764 0.68599999 -0.045705888 1.3458261e-38 258 278
-0.073156074 0.68400002 -0.045572639 1.3458261e-38 259 278
-0.071851604 0.68300003 -0.045506012 1.3550822e-38 260 278
-0.070654072 0.68300003 -0.045506012 1.3550822e-38 261 278
-0.069354847 0.68199998 -0.045439381 1.3825965e-38 262 278
-0.067959204 0.68000001 -0.045306131 1.3918519e-38 263 278
-0.066766933 0.68000001 -0.045306131 1.4011431e-38 264 278
-0.065478235 0.67900002 -0.045239504 1.4380213e-38 265 278
-0.06419304 0.67799997 -0.045172878 1.5024511e-38 266 278
-0.063004278 0.67799997 -0.045172878 1.5485129e-38 267 278
-0.061633173 0.676 -0.045039624 1.5760997e-38 268 278
-0.060358498 0.67500001 -0.044972997 1.5945388e-38 269 278
-0.059087332 0.67400002 -0.044906374 1.6221249e-38 270 278
-0.057733759 0.67199999 -0.044773117 1.6313444e-38 271 278
-0.056555521 0.67199999 -0.044773117 1.6313444e-38 272 278
-0.055294871 0.671 -0.044706494 1.6405999e-38 273 278
-0.054118387 0.671 -0.044706494 1.6221626e-38 274 278
-0.052863002 0.67000002 -0.044639867 1.6221626e-38 275 278
-0.051688269 0.67000002 -0.044639867 1.5946486e-38 276 278
-0.050362743 0.66799998 -0.044506609 1.6038682e-38 277 278
-0.04919152 0.66799998 -0.044506609 1.6497858e-38 278 278
-0.047948405 0.667 -0.044439986 1.6497858e-38 279 278
-0.046778932 0.667 -0.044439986 1.659041e-38 280 278
-0.045609459 0.667 -0.044439986 1.6682605e-38 281 278
-0.04437336 0.66600001 -0.04437336 1.6682249e-38 282 278
-0.043205637 0.66600001 -0.04437336 1.6867001e-38 283 278
-0.042037919 0.66600001 -0.04437336 1.686772e-38 284 278
-0.040870197 0.66600001 -0.04437336 1.686772e-38 285 278
-0.039702479 0.66600001 -0.04437336 1.7235776e-38 286 278
-0.03853476 0.66600001 -0.04437336 1.7235776e-38 287 278
-0.037367038 0.66600001 -0.04437336 1.7327256e-38 288 278
-0.03619932 0.66600001 -0.04437336 1.7511287e-38 289 278
-0.035031598 0.66600001 -0.04437336 1.7327619e-38 290 278
-0.03386388 0.66600001 -0.04437336 1.7419814e-38 291 278
-0.03259797 0.66399997 -0.044240102 1.7327253e-38 292 278
-0.031433757 0.66399997 -0.044240102 1.760348e-38 293 278
-0.030360719 0.66600001 -0.04437336 1.7604916e-38 294 278
-0.02910533 0.66399997 -0.044240102 1.7604916e-38 295 278
-0.027941117 0.66399997 -0.044240102 1.7788228e-38 296 278
-0.026696252 0.662 -0.044106852 1.7880424e-38 297 278
-0.025535546 0.662 -0.044106852 1.7972625e-38 298 278
-0.024374841 0.662 -0.044106852 1.8156656e-38 299 278
-0.023214132 0.662 -0.044106852 1.7790045e-38 300 278
-0.022053426 0.662 -0.044106852 1.7790045e-38 301 278
-0.02086116 0.66100001 -0.044040225 1.7882242e-38 302 278
-0.019642593 0.65899998 -0.043906972 1.7882242e-38 303 278
-0.018487146 0.65899998 -0.043906972 1.8340696e-38 304 278
-0.017331699 0.65899998 -0.043906972 1.8340696e-38 305 278
-0.016176252 0.65899998 -0.043906972 1.8433966e-38 306 278
-0.015020805 0.65899998 -0.043906972 1.8433966e-38 307 278
-0.013865359 0.65899998 -0.043906972 1.8433969e-38 308 278
-0.012709912 0.65899998 -0.043906972 1.8433969e-38 309 278
-0.011554466 0.65899998 -0.043906972 1.8433966e-38 310 278
-0.01043058 0.66100001 -0.044040225 1.8433966e-38 311 278
-0.0092716264 0.66100001 -0.044040225 1.8525446e-38 312 278
-0.0081126727 0.66100001 -0.044040225 1.843325e-38 313 278
-0.00695372 0.66100001 -0.044040225 1.8157749e-38 314 278
-0.0057947668 0.66100001 -0.044040225 1.8250304e-38 315 278
-0.0046358132 0.66100001 -0.044040225 1.8157749e-38 316 278
-0.00347686 0.66100001 -0.044040225 1.8250304e-38 317 278
-0.0023179066 0.66100001 -0.044040225 1.8249229e-38 318 278
-0.0011554466 0.65899998 -0.043906972 1.8249229e-38 319 278
0 0.65899998 -0.043906972 1.7974084e-38 320 278
0.0011554466 0.65899998 -0.043906972 1.7974084e-38 321 278
0.0023108933 0.65899998 -0.043906972 1.8157749e-38 322 278
0.00347686 0.66100001 -0.044040225 1.8157749e-38 323 278
0.0046358132 0.66100001 -0.044040225 1.8158103e-38 324 278
0.0057947668 0.66100001 -0.044040225 1.8065907e-38 325 278
0.00695372 0.66100001 -0.044040225 1.8157749e-38 326 278
0.0081126727 0.66100001 -0.044040225 1.8065554e-38 327 278
0.0092716264 0.66100001 -0.044040225 1.8064483e-38 328 278
0.01044636 0.662 -0.044106852 1.8064483e-38 329 278
0.011589534 0.66100001 -0.044040225 1.7973009e-38 330 278
0.012748486 0.66100001 -0.044040225 1.7788619e-38 331 278
0.01390744 0.66100001 -0.044040225 1.751383e-38 332 278
0.015066394 0.66100001 -0.044040225 1.7421635e-38 333 278
0.016249891 0.662 -0.044106852 1.760495e-38 334 278
0.017436899 0.66299999 -0.044173479 1.742056e-38 335 278
0.018627413 0.66399997 -0.044240102 1.7236888e-38 336 278
0.019791625 0.66399997 -0.044240102 1.7052856e-38 337 278
0.020955838 0.66399997 -0.044240102 1.6960659e-38 338 278
0.022120051 0.66399997 -0.044240102 1.6868464e-38 339 278
0.023284266 0.66399997 -0.044240102 1.6776984e-38 340 278
0.024448479 0.66399997 -0.044240102 1.6592953e-38 341 278
0.025612691 0.66399997 -0.044240102 1.6683351e-38 342 278
0.026776904 0.66399997 -0.044240102 1.6406404e-38 343 278
0.027941117 0.66399997 -0.044240102 1.6037251e-38 344 278
0.029192999 0.66600001 -0.04437336 1.5484079e-38 345 278
0.030360719 0.66600001 -0.04437336 1.5208214e-38 346 278
0.031528439 0.66600001 -0.04437336 1.5300411e-38 347 278
0.032696161 0.66600001 -0.04437336 1.4751574e-38 348 278
0.046638668 0.69999999 -0.046638668 1.3917139e-38 358 278
0.047729239 0.69800001 -0.046505414 1.3733108e-38 359 278
0.048953064 0.69800001 -0.046505414 1.3825674e-38 360 278
0.050320663 0.69999999 -0.046638668 1.3641283e-38 361 278
0.051547997 0.69999999 -0.046638668 1.2626052e-38 362 278
0.052850723 0.70099998 -0.046705291 1.2072879e-38 363 278
-0.088115521 0.69800001 -0.047729239 1.3087738e-38 248 279
-0.086891696 0.69800001 -0.047729239 1.3271769e-38 249 279
-0.085667863 0.69800001 -0.047729239 1.3457207e-38 250 279
-0.084202074 0.69599998 -0.047592476 1.3365012e-38 251 279
-0.082743309 0.69400001 -0.047455717 1.3365356e-38 252 279
-0.081174068 0.69099998 -0.047250576 1.3365356e-38 253 279
-0.079846799 0.69 -0.047182199 1.3365356e-38 254 279
-0.078636996 0.69 -0.047182199 1.3365356e-38 255 279
-0.077202775 0.68800002 -0.047045439 1.3366065e-38 256 279
-0.075996481 0.68800002 -0.047045439 1.3366065e-38 257 279
-0.074681476 0.68699998 -0.046977058 1.3641206e-38 258 279
-0.073156074 0.68400002 -0.046771921 1.3641206e-38 259 279
-0.071851604 0.68300003 -0.04670354 1.3549373e-38 260 279
-0.070654072 0.68300003 -0.04670354 1.3549373e-38 261 279
-0.069354847 0.68199998 -0.046635158 1.364085e-38 262 279
-0.067959204 0.68000001 -0.046498399 1.3917437e-38 263 279
-0.066766933 0.68000001 -0.046498399 1.3549729e-38 264 279
-0.065478235 0.67900002 -0.046430022 1.3734122e-38 265 279
-0.06419304 0.67799997 -0.046361636 1.3919954e-38 266 279
-0.063004278 0.67799997 -0.046361636 1.4196542e-38 267 279
-0.061633173 0.676 -0.046224877 1.4288741e-38 268 279
-0.060358498 0.67500001 -0.0461565 1.4657523e-38 269 279
-0.059087332 0.67400002 -0.046088122 1.5117059e-38 270 279
-0.057733759 0.67199999 -0.045951359 1.5393286e-38 271 279
-0.056471359 0.671 -0.045882981 1.5668078e-38 272 279
-0.055294871 0.671 -0.045882981 1.5852471e-38 273 279
-0.054118387 0.671 -0.045882981 1.5852839e-38 274 279
-0.052863002 0.67000002 -0.0458146 1.5945035e-38 275 279
-0.051533967 0.66799998 -0.045677837 1.6036514e-38 276 279
-0.050362743 0.66799998 -0.045677837 1.6312741e-38 277 279
-0.049117878 0.667 -0.045609459 1.6313094e-38 278 279
-0.047948405 0.667 -0.045609459 1.6313094e-38 279 279
-0.046778932 0.667 -0.045609459 1.6588961e-38 280 279
-0.045541082 0.66600001 -0.045541082 1.6773353e-38 281 279
-0.04437336 0.66600001 -0.045541082 1.6773353e-38 282 279
-0.043205637 0.66600001 -0.045541082 1.6957745e-38 283 279
-0.042037919 0.66600001 -0.045541082 1.6866265e-38 284 279
-0.040870197 0.66600001 -0.045541082 1.6866265e-38 285 279
-0.039583251 0.66399997 -0.045404319 1.7050293e-38 286 279
-0.038419038 0.66399997 -0.045404319 1.7050293e-38 287 279
-0.037254825 0.66399997 -0.045404319 1.7233606e-38 288 279
-0.036090612 0.66399997 -0.045404319 1.732616e-38 289 279
-0.0349264 0.66399997 -0.045404319 1.7326524e-38 290 279
-0.033711337 0.66299999 -0.045335937 1.7326524e-38 291 279
-0.032499783 0.662 -0.04526756 1.723433e-38 292 279
-0.031339079 0.662 -0.04526756 1.723433e-38 293 279
-0.030178372 0.662 -0.04526756 1.7235408e-38 294 279
-0.029017664 0.662 -0.04526756 1.7143212e-38 295 279
-0.027856959 0.662 -0.04526756 1.7234325e-38 296 279
-0.026696252 0.662 -0.04526756 1.7419076e-38 297 279
-0.025496973 0.66100001 -0.045199182 1.7236127e-38 298 279
-0.02433802 0.66100001 -0.045199182 1.7236127e-38 299 279
-0.023179067 0.66100001 -0.045199182 1.7235779e-38 300 279
-0.022020113 0.66100001 -0.045199182 1.742017e-38 301 279
-0.020798039 0.65899998 -0.045062415 1.7787881e-38 302 279
-0.019642593 0.65899998 -0.045062415 1.7787881e-38 303 279
-0.018459093 0.65799999 -0.044994038 1.7787511e-38 304 279
-0.017305398 0.65799999 -0.044994038 1.7787511e-38 305 279
-0.016151706 0.65799999 -0.044994038 1.7787511e-38 306 279
-0.015020805 0.65899998 -0.045062415 1.8155935e-38 307 279
-0.013865359 0.65899998 -0.045062415 1.7880793e-38 308 279
-0.012709912 0.65899998 -0.045062415 1.7788597e-38 309 279
-0.011554466 0.65899998 -0.045062415 1.769748e-38 310 279
-0.010399019 0.65899998 -0.045062415 1.769748e-38 311 279
-0.0092435731 0.65899998 -0.045062415 1.8156656e-38 312 279
-0.0080881258 0.65899998 -0.045062415 1.7972625e-38 313 279
-0.00695372 0.66100001 -0.045199182 1.7972625e-38 314 279
-0.0057947668 0.66100001 -0.045199182 1.8156656e-38 315 279
-0.0046358132 0.66100001 -0.045199182 1.8156301e-38 316 279
-0.00347686 0.66100001 -0.045199182 1.8248855e-38 317 279
-0.0023108933 0.65899998 -0.045062415 1.8339976e-38 318 279
-0.0011554466 0.65899998 -0.045062415 1.8339976e-38 319 279
0 0.65899998 -0.045062415 1.8065189e-38 320 279
0.0011554466 0.65899998 -0.045062415 1.8065189e-38 321 279
0.0023073866 0.65799999 -0.044994038 1.8248499e-38 322 279
0.0034610799 0.65799999 -0.044994038 1.8248499e-38 323 279
0.0046217865 0.65899998 -0.045062415 1.8248855e-38 324 279
0.0057772328 0.65899998 -0.045062415 1.8248855e-38 325 279
0.0069221598 0.65799999 -0.044994038 1.8156303e-38 326 279
0.0080758529 0.65799999 -0.044994038 1.7972272e-38 327 279
0.0092435731 0.65899998 -0.045062415 1.7879726e-38 328 279
0.010399019 0.65899998 -0.045062415 1.7879726e-38 329 279
0.011554466 0.65899998 -0.045062415 1.7787177e-38 330 279
0.012709912 0.65899998 -0.045062415 1.7787177e-38 331 279
0.013865359 0.65899998 -0.045062415 1.7511314e-38 332 279
0.015020805 0.65899998 -0.045062415 1.7511314e-38 333 279
0.016225345 0.66100001 -0.045199182 1.7143606e-38 334 279
0.0173843 0.66100001 -0.045199182 1.7143606e-38 335 279
0.018571306 0.662 -0.04526756 1.705141e-38 336 279
0.019732011 0.662 -0.04526756 1.705141e-38 337 279
0.020924279 0.66299999 -0.045335937 1.6958856e-38 338 279
0.02208674 0.66299999 -0.045335937 1.6958856e-38 339 279
0.0232492 0.66299999 -0.045335937 1.668407e-38 340 279
0.024411658 0.66299999 -0.045335937 1.668407e-38 341 279
0.025574118 0.66299999 -0.045335937 1.6223092e-38 342 279
0.026776904 0.66399997 -0.045404319 1.5577722e-38 343 279
0.027941117 0.66399997 -0.045404319 1.4380238e-38 344 279
0.02910533 0.66399997 -0.045404319 1.4195488e-38 345 279
0.030269546 0.66399997 -0.045404319 1.4011445e-38 346 279
0.031433757 0.66399997 -0.045404319 1.4103999e-38 347 279
0.03259797 0.66399997 -0.045404319 1.419621e-38 348 279
0.03386388 0.66600001 -0.045541082 1.419621e-38 349 279
0.035031598 0.66600001 -0.045541082 1.4105498e-38 350 279
0.03619932 0.66600001 -0.045541082 1.5304042e-38 351 279
0.037367038 0.66600001 -0.045541082 1.6038039e-38 352 279
0.039055496 0.67500001 -0.0461565 1.5484865e-38 353 279
0.041422497 0.67500001 -0.0461565 1.447249e-38 355 279
0.046505414 0.69800001 -0.047729239 1.4473192e-38 358 279
0.047729239 0.69800001 -0.047729239 1.4380996e-38 359 279
0.048953064 0.69800001 -0.047729239 1.4010785e-38 360 279
-0.085422389 0.69599998 -0.048812799 1.2813299e-38 250 280
-0.084202074 0.69599998 -0.048812799 1.2813299e-38 251 280
-0.082743309 0.69400001 -0.048672531 1.2906552e-38 252 280
-0.081174068 0.69099998 -0.04846213 1.2906552e-38 253 280
-0.079846799 0.69 -0.048391998 1.3273885e-38 254 280
-0.078636996 0.69 -0.048391998 1.3273885e-38 255 280
-0.077202775 0.68800002 -0.048251733 1.3549022e-38 256 280
-0.075996481 0.68800002 -0.048251733 1.3549022e-38 257 280
-0.074681476 0.68699998 -0.048181597 1.3457181e-38 258 280
-0.073369987 0.68599999 -0.048111461 1.3549378e-38 259 280
-0.071956798 0.68400002 -0.0479712 1.3640857e-38 260 280
-0.070654072 0.68300003 -0.047901068 1.3548301e-38 261 280
-0.069354847 0.68199998 -0.047830928 1.3365712e-38 262 280
-0.067959204 0.68000001 -0.047690667 1.3457908e-38 263 280
-0.066668749 0.67900002 -0.047620531 1.3457202e-38 264 280
-0.065478235 0.67900002 -0.047620531 1.3641592e-38 265 280
-0.06419304 0.67799997 -0.047550395 1.3641236e-38 266 280
-0.062818423 0.676 -0.047410134 1.3918181e-38 267 280
-0.061542001 0.67500001 -0.047339998 1.3919602e-38 268 280
-0.06026908 0.67400002 -0.047269866 1.3919602e-38 269 280
-0.058911994 0.67199999 -0.047129598 1.4654631e-38 270 280
-0.057733759 0.67199999 -0.047129598 1.4747185e-38 271 280
-0.056471359 0.671 -0.047059465 1.4839747e-38 272 280
-0.055294871 0.671 -0.047059465 1.4839747e-38 273 280
-0.054037735 0.67000002 -0.046989333 1.4656095e-38 274 280
-0.052705199 0.66799998 -0.046849065 1.5117072e-38 275 280
-0.051533967 0.66799998 -0.046849065 1.5301833e-38 276 280
-0.050362743 0.66799998 -0.046849065 1.5486583e-38 277 280
-0.049117878 0.667 -0.046778932 1.5486583e-38 278 280
-0.047948405 0.667 -0.046778932 1.5670974e-38 279 280
-0.046708796 0.66600001 -0.046708796 1.6129076e-38 280 280
-0.045541082 0.66600001 -0.046708796 1.6313827e-38 281 280
-0.04437336 0.66600001 -0.046708796 1.6221629e-38 282 280
-0.043205637 0.66600001 -0.046708796 1.6313824e-38 283 280
-0.042037919 0.66600001 -0.046708796 1.6314896e-38 284 280
-0.040747464 0.66399997 -0.046568532 1.6314896e-38 285 280
-0.039583251 0.66399997 -0.046568532 1.6407445e-38 286 280
-0.038361177 0.66299999 -0.046498399 1.6407445e-38 287 280
-0.037198719 0.66299999 -0.046498399 1.6499643e-38 288 280
-0.036036257 0.66299999 -0.046498399 1.6499643e-38 289 280
-0.034873798 0.66299999 -0.046498399 1.6682605e-38 290 280
-0.033660494 0.662 -0.046428263 1.6774801e-38 291 280
-0.032499783 0.662 -0.046428263 1.6682255e-38 292 280
-0.031339079 0.662 -0.046428263 1.6774451e-38 293 280
-0.030178372 0.662 -0.046428263 1.6682618e-38 294 280
-0.029017664 0.662 -0.046428263 1.6774815e-38 295 280
-0.027856959 0.662 -0.046428263 1.6774815e-38 296 280
-0.026696252 0.662 -0.046428263 1.6774815e-38 297 280
-0.025496973 0.66100001 -0.046358135 1.686772e-38 298 280
-0.02433802 0.66100001 -0.046358135 1.6682968e-38 299 280
-0.023179067 0.66100001 -0.046358135 1.6959194e-38 300 280
-0.022020113 0.66100001 -0.046358135 1.6959194e-38 301 280
-0.020798039 0.65899998 -0.046217863 1.6958856e-38 302 280
-0.019642593 0.65899998 -0.046217863 1.705141e-38 303 280
-0.018459093 0.65799999 -0.04614773 1.6958871e-38 304 280
-0.017305398 0.65799999 -0.04614773 1.7051426e-38 305 280
-0.016151706 0.65799999 -0.04614773 1.7326903e-38 306 280
-0.014998012 0.65799999 -0.04614773 1.7326903e-38 307 280
-0.01384432 0.65799999 -0.04614773 1.7235411e-38 308 280
-0.012690626 0.65799999 -0.04614773 1.7327606e-38 309 280
-0.011554466 0.65899998 -0.046217863 1.7144309e-38 310 280
-0.010399019 0.65899998 -0.046217863 1.7052114e-38 311 280
-0.0092435731 0.65899998 -0.046217863 1.7327622e-38 312 280
-0.0080881258 0.65899998 -0.046217863 1.7327622e-38 313 280
-0.0069326796 0.65899998 -0.046217863 1.751164e-38 314 280
-0.0057772328 0.65899998 -0.046217863 1.7603836e-38 315 280
-0.0046217865 0.65899998 -0.046217863 1.7696031e-38 316 280
-0.0034663398 0.65899998 -0.046217863 1.7788228e-38 317 280
-0.0023073866 0.65799999 -0.04614773 1.760421e-38 318 280
-0.0011536933 0.65799999 -0.04614773 1.7419817e-38 319 280
0 0.65799999 -0.04614773 1.751237e-38 320 280
0.0011536933 0.65799999 -0.04614773 1.7604566e-38 321 280
0.0023073866 0.65799999 -0.04614773 1.7604563e-38 322 280
0.0034610799 0.65799999 -0.04614773 1.7512366e-38 323 280
0.0046147732 0.65799999 -0.04614773 1.7328338e-38 324 280
0.0057684663 0.65799999 -0.04614773 1.7328338e-38 325 280
0.0069116396 0.65700001 -0.046077598 1.7144307e-38 326 280
0.0080635799 0.65700001 -0.046077598 1.7144307e-38 327 280
0.0092295464 0.65799999 -0.04614773 1.7327622e-38 328 280
0.01038324 0.65799999 -0.04614773 1.7235426e-38 329 280
0.011536933 0.65799999 -0.04614773 1.6960284e-38 330 280
0.012690626 0.65799999 -0.04614773 1.6960284e-38 331 280
0.01384432 0.65799999 -0.04614773 1.6775897e-38 332 280
0.014998012 0.65799999 -0.04614773 1.6591506e-38 333 280
0.016176252 0.65899998 -0.046217863 1.6682621e-38 334 280
0.0173843 0.66100001 -0.046358135 1.6867013e-38 335 280
0.018543253 0.66100001 -0.046358135 1.649932e-38 336 280
0.019702207 0.66100001 -0.046358135 1.649932e-38 337 280
0.020892721 0.662 -0.046428263 1.6223462e-38 338 280
0.02208674 0.66299999 -0.046498399 1.6315657e-38 339 280
0.0232492 0.66299999 -0.046498399 1.6040865e-38 340 280
0.024411658 0.66299999 -0.046498399 1.6040865e-38 341 280
0.025574118 0.66299999 -0.046498399 1.6223094e-38 342 280
0.026776904 0.66399997 -0.046568532 1.5946149e-38 343 280
0.027941117 0.66399997 -0.046568532 1.5118524e-38 344 280
0.02910533 0.66399997 -0.046568532 1.456535e-38 345 280
0.030269546 0.66399997 -0.046568532 1.447134e-38 346 280
0.031433757 0.66399997 -0.046568532 1.4194394e-38 347 280
0.03259797 0.66399997 -0.046568532 1.4011097e-38 348 280
0.03386388 0.66600001 -0.046708796 1.4287684e-38 349 280
0.035031598 0.66600001 -0.046708796 1.4196234e-38 350 280
0.03619932 0.66600001 -0.046708796 1.4841603e-38 351 280
0.037367038 0.66600001 -0.046708796 1.5578465e-38 352 280
0.039055496 0.67500001 -0.047339998 1.5301877e-38 353 280
0.040238999 0.67500001 -0.047339998 1.4748701e-38 354 280
-0.086269259 0.69300002 -0.049817458 1.152404e-38 249 281
-0.085054204 0.69300002 -0.049817458 1.2443806e-38 250 281
-0.083960123 0.69400001 -0.049889345 1.2628556e-38 251 281
-0.082624078 0.69300002 -0.049817458 1.2812922e-38 252 281
-0.081056595 0.69 -0.049601797 1.2997315e-38 253 281
-0.079846799 0.69 -0.049601797 1.3089494e-38 254 281
-0.078636996 0.69 -0.049601797 1.3273885e-38 255 281
-0.077202775 0.68800002 -0.049458027 1.3548671e-38 256 281
-0.075996481 0.68800002 -0.049458027 1.3548671e-38 257 281
-0.074681476 0.68699998 -0.049386136 1.3640857e-38 258 281
-0.073369987 0.68599999 -0.049314249 1.3548301e-38 259 281
-0.071956798 0.68400002 -0.049170479 1.3366061e-38 260 281
-0.070654072 0.68300003 -0.049098592 1.3366061e-38 261 281
-0.069354847 0.68199998 -0.049026705 1.3273866e-38 262 281
-0.067959204 0.68000001 -0.048882935 1.3273866e-38 263 281
-0.066668749 0.67900002 -0.048811045 1.3457181e-38 264 281
-0.065478235 0.67900002 -0.048811045 1.3457181e-38 265 281
-0.06419304 0.67799997 -0.048739154 1.327244e-38 266 281
-0.062818423 0.676 -0.048595384 1.3641223e-38 267 281
-0.061542001 0.67500001 -0.048523501 1.3824538e-38 268 281
-0.06026908 0.67400002 -0.048451614 1.3824538e-38 269 281
-0.058911994 0.67199999 -0.04830784 1.3549008e-38 270 281
-0.057647847 0.671 -0.048235953 1.3456812e-38 271 281
-0.056471359 0.671 -0.048235953 1.3364598e-38 272 281
-0.055294871 0.671 -0.048235953 1.290326e-38 273 281
-0.054037735 0.67000002 -0.048164066 1.2720689e-38 274 281
-0.052705199 0.66799998 -0.048020288 1.3642645e-38 275 281
-0.051533967 0.66799998 -0.048020288 1.3920346e-38 276 281
-0.050362743 0.66799998 -0.048020288 1.447352e-38 277 281
-0.049117878 0.667 -0.047948405 1.5208917e-38 278 281
-0.047948405 0.667 -0.047948405 1.5669895e-38 279 281
-0.046708796 0.66600001 -0.047876518 1.6219458e-38 280 281
-0.045541082 0.66600001 -0.047876518 1.6496043e-38 281 281
-0.04437336 0.66600001 -0.047876518 1.6313447e-38 282 281
-0.043075889 0.66399997 -0.047732744 1.6405643e-38 283 281
-0.041911677 0.66399997 -0.047732744 1.6498196e-38 284 281
-0.040747464 0.66399997 -0.047732744 1.6498196e-38 285 281
-0.039523639 0.66299999 -0.047660857 1.6498193e-38 286 281
-0.038361177 0.66299999 -0.047660857 1.6498193e-38 287 281
-0.037142612 0.662 -0.047588971 1.6498193e-38 288 281
-0.035981905 0.662 -0.047588971 1.6498193e-38 289 281
-0.034821201 0.662 -0.047588971 1.6773351e-38 290 281
-0.033660494 0.662 -0.047588971 1.6773351e-38 291 281
-0.032499783 0.662 -0.047588971 1.6773356e-38 292 281
-0.031291738 0.66100001 -0.047517084 1.6773356e-38 293 281
-0.030132787 0.66100001 -0.047517084 1.6590041e-38 294 281
-0.028973831 0.66100001 -0.047517084 1.6590041e-38 295 281
-0.02781488 0.66100001 -0.047517084 1.6773353e-38 296 281
-0.026655925 0.66100001 -0.047517084 1.6773353e-38 297 281
-0.025496973 0.66100001 -0.047517084 1.6681884e-38 298 281
-0.02433802 0.66100001 -0.047517084 1.6589688e-38 299 281
-0.023179067 0.66100001 -0.047517084 1.6131234e-38 300 281
-0.022020113 0.66100001 -0.047517084 1.6131234e-38 301 281
-0.02076648 0.65799999 -0.047301427 1.6682255e-38 302 281
-0.019612785 0.65799999 -0.047301427 1.6774451e-38 303 281
-0.01843104 0.65700001 -0.04722954 1.6681899e-38 304 281
-0.0172791 0.65700001 -0.04722954 1.6774095e-38 305 281
-0.01612716 0.65700001 -0.04722954 1.6590057e-38 306 281
-0.01497522 0.65700001 -0.04722954 1.6497861e-38 307 281
-0.013823279 0.65700001 -0.04722954 1.6313824e-38 308 281
-0.01267134 0.65700001 -0.04722954 1.6497855e-38 309 281
-0.011519399 0.65700001 -0.04722954 1.649894e-38 310 281
-0.01038324 0.65799999 -0.047301427 1.6406744e-38 311 281
-0.0092295464 0.65799999 -0.047301427 1.6590057e-38 312 281
-0.0080758529 0.65799999 -0.047301427 1.6590057e-38 313 281
-0.0069326796 0.65899998 -0.04737331 1.6498211e-38 314 281
-0.0057772328 0.65899998 -0.04737331 1.6498211e-38 315 281
-0.0046217865 0.65899998 -0.04737331 1.6865549e-38 316 281
-0.0034610799 0.65799999 -0.047301427 1.6957745e-38 317 281
-0.0023073866 0.65799999 -0.047301427 1.66826e-38 318 281
-0.0011536933 0.65799999 -0.047301427 1.6590404e-38 319 281
0 0.65799999 -0.047301427 1.66826e-38 320 281
0.00115194 0.65700001 -0.04722954 1.6590404e-38 321 281
0.0023038799 0.65700001 -0.04722954 1.6315612e-38 322 281
0.0034558198 0.65700001 -0.04722954 1.6131581e-38 323 281
0.0046077599 0.65700001 -0.04722954 1.6314899e-38 324 281
0.0057596997 0.65700001 -0.04722954 1.6314899e-38 325 281
0.0069116396 0.65700001 -0.04722954 1.6039754e-38 326 281
0.0080635799 0.65700001 -0.04722954 1.5947558e-38 327 281
0.0092155198 0.65700001 -0.04722954 1.6222347e-38 328 281
0.01036746 0.65700001 -0.04722954 1.6222347e-38 329 281
0.011519399 0.65700001 -0.04722954 1.585501e-38 330 281
0.01267134 0.65700001 -0.04722954 1.585501e-38 331 281
0.01384432 0.65799999 -0.047301427 1.6039048e-38 332 281
0.014998012 0.65799999 -0.047301427 1.5946852e-38 333 281
0.016176252 0.65899998 -0.04737331 1.5854306e-38 334 281
0.017331699 0.65899998 -0.04737331 1.5946502e-38 335 281
0.018543253 0.66100001 -0.047517084 1.6221294e-38 336 281
0.019702207 0.66100001 -0.047517084 1.6221294e-38 337 281
0.02086116 0.66100001 -0.047517084 1.5946505e-38 338 281
0.022053426 0.662 -0.047588971 1.6130896e-38 339 281
0.023214132 0.662 -0.047588971 1.5947949e-38 340 281
0.024374841 0.662 -0.047588971 1.5947949e-38 341 281
0.025535546 0.662 -0.047588971 1.5947947e-38 342 281
0.026736578 0.66299999 -0.047660857 1.5763555e-38 343 281
0.027899038 0.66299999 -0.047660857 1.5670991e-38 344 281
0.02910533 0.66399997 -0.047732744 1.5302209e-38 345 281
0.030269546 0.66399997 -0.047732744 1.5210016e-38 346 281
0.031433757 0.66399997 -0.047732744 1.511782e-38 347 281
0.03259797 0.66399997 -0.047732744 1.5025634e-38 348 281
0.03386388 0.66600001 -0.047876518 1.5118189e-38 349 281
0.035031598 0.66600001 -0.047876518 1.4934523e-38 350 281
0.03619932 0.66600001 -0.047876518 1.5026719e-38 351 281
0.037367038 0.66600001 -0.047876518 1.5211477e-38 352 281
0.039055496 0.67500001 -0.048523501 1.5211477e-38 353 281
0.040238999 0.67500001 -0.048523501 1.5301874e-38 354 281
0.041422497 0.67500001 -0.048523501 1.5117482e-38 355 281
-0.086269259 0.69300002 -0.051032521 1.1985391e-38 249 282
-0.085054204 0.69300002 -0.051032521 1.1616221e-38 250 282
-0.083960123 0.69400001 -0.051106159 1.1524024e-38 251 282
-0.082385622 0.69099998 -0.050885238 1.1986055e-38 252 282
-0.081056595 0.69 -0.050811596 1.2170447e-38 253 282
-0.079846799 0.69 -0.050811596 1.2996595e-38 254 282
-0.078636996 0.69 -0.050811596 1.3088792e-38 255 282
-0.077202775 0.68800002 -0.050664321 1.3456121e-38 256 282
-0.075996481 0.68800002 -0.050664321 1.3456121e-38 257 282
-0.074681476 0.68699998 -0.050590675 1.3456827e-38 258 282
-0.073369987 0.68599999 -0.050517038 1.3549025e-38 259 282
-0.071956798 0.68400002 -0.050369758 1.3549373e-38 260 282
-0.070654072 0.68300003 -0.05029612 1.3549373e-38 261 282
-0.069354847 0.68199998 -0.050222475 1.3549729e-38 262 282
-0.067959204 0.68000001 -0.050075196 1.3549729e-38 263 282
-0.066668749 0.67900002 -0.050001562 1.3457181e-38 264 282
-0.065381795 0.67799997 -0.049927916 1.3457181e-38 265 282
-0.06419304 0.67799997 -0.049927916 1.3273165e-38 266 282
-0.062818423 0.676 -0.049780637 1.3273165e-38 267 282
-0.061542001 0.67500001 -0.049706999 1.3272456e-38 268 282
-0.06026908 0.67400002 -0.049633358 1.3272456e-38 269 282
-0.058911994 0.67199999 -0.049486078 1.3273162e-38 270 282
-0.057647847 0.671 -0.049412437 1.2812185e-38 271 282
-0.056471359 0.671 -0.049412437 1.2628496e-38 272 282
-0.055294871 0.671 -0.049412437 1.1706181e-38 273 282
-0.054037735 0.67000002 -0.049338799 1.1705115e-38 274 282
-0.052705199 0.66799998 -0.04919152 1.2811461e-38 275 282
-0.051456824 0.667 -0.049117878 1.2906917e-38 276 282
-0.050287351 0.667 -0.049117878 1.3460091e-38 277 282
-0.049117878 0.667 -0.049117878 1.419621e-38 278 282
-0.047876518 0.66600001 -0.04904424 1.4564994e-38 279 282
-0.046708796 0.66600001 -0.04904424 1.5024876e-38 280 282
-0.045541082 0.66600001 -0.04904424 1.5209268e-38 281 282
-0.044240102 0.66399997 -0.048896957 1.5394013e-38 282 282
-0.043075889 0.66399997 -0.048896957 1.5670599e-38 283 282
-0.041911677 0.66399997 -0.048896957 1.6037949e-38 284 282
-0.040747464 0.66399997 -0.048896957 1.6130504e-38 285 282
-0.039523639 0.66299999 -0.048823316 1.622198e-38 286 282
-0.038303319 0.662 -0.048749682 1.622198e-38 287 282
-0.037142612 0.662 -0.048749682 1.631453e-38 288 282
-0.035981905 0.662 -0.048749682 1.6222333e-38 289 282
-0.034821201 0.662 -0.048749682 1.6590041e-38 290 282
-0.033609647 0.66100001 -0.04867604 1.6497846e-38 291 282
-0.032450691 0.66100001 -0.04867604 1.6405297e-38 292 282
-0.031291738 0.66100001 -0.04867604 1.6405297e-38 293 282
-0.030132787 0.66100001 -0.04867604 1.6129432e-38 294 282
-0.028973831 0.66100001 -0.04867604 1.6221629e-38 295 282
-0.02781488 0.66100001 -0.04867604 1.6312744e-38 296 282
-0.026655925 0.66100001 -0.04867604 1.6404941e-38 297 282
-0.025496973 0.66100001 -0.04867604 1.6221631e-38 298 282
-0.02433802 0.66100001 -0.04867604 1.6221631e-38 299 282
-0.023108931 0.65899998 -0.048528757 1.6129802e-38 300 282
-0.021953486 0.65899998 -0.048528757 1.6129802e-38 301 282
-0.02076648 0.65799999 -0.048455119 1.6129446e-38 302 282
-0.019582979 0.65700001 -0.048381478 1.6314196e-38 303 282
-0.01843104 0.65700001 -0.048381478 1.6313124e-38 304 282
-0.0172791 0.65700001 -0.048381478 1.6497155e-38 305 282
-0.01612716 0.65700001 -0.048381478 1.6220572e-38 306 282
-0.01497522 0.65700001 -0.048381478 1.6220572e-38 307 282
-0.013823279 0.65700001 -0.048381478 1.6220928e-38 308 282
-0.01267134 0.65700001 -0.048381478 1.6220928e-38 309 282
-0.011519399 0.65700001 -0.048381478 1.594578e-38 310 282
-0.01036746 0.65700001 -0.048381478 1.594578e-38 311 282
-0.0092155198 0.65700001 -0.048381478 1.6037976e-38 312 282
-0.0080635799 0.65700001 -0.048381478 1.594578e-38 313 282
-0.0069116396 0.65700001 -0.048381478 1.6130527e-38 314 282
-0.0057596997 0.65700001 -0.048381478 1.6038332e-38 315 282
-0.0046077599 0.65700001 -0.048381478 1.6221631e-38 316 282
-0.0034558198 0.65700001 -0.048381478 1.6129076e-38 317 282
-0.0023038799 0.65700001 -0.048381478 1.6312741e-38 318 282
-0.00115194 0.65700001 -0.048381478 1.6405297e-38 319 282
0 0.65700001 -0.048381478 1.6037952e-38 320 282
0.00115194 0.65700001 -0.048381478 1.6037952e-38 321 282
0.0023038799 0.65700001 -0.048381478 1.6037949e-38 322 282
0.0034452998 0.65499997 -0.048234195 1.6037949e-38 323 282
0.0045937328 0.65499997 -0.048234195 1.5853568e-38 324 282
0.0057421662 0.65499997 -0.048234195 1.5853568e-38 325 282
0.0068905996 0.65499997 -0.048234195 1.5761738e-38 326 282
0.008039033 0.65499997 -0.048234195 1.5761738e-38 327 282
0.0091874655 0.65499997 -0.048234195 1.5853217e-38 328 282
0.010335899 0.65499997 -0.048234195 1.5853217e-38 329 282
0.011484332 0.65499997 -0.048234195 1.548588e-38 330 282
0.012632766 0.65499997 -0.048234195 1.5393325e-38 331 282
0.013823279 0.65700001 -0.048381478 1.5668123e-38 332 282
0.01497522 0.65700001 -0.048381478 1.5852514e-38 333 282
0.016151706 0.65799999 -0.048455119 1.5484101e-38 334 282
0.017305398 0.65799999 -0.048455119 1.5668133e-38 335 282
0.018487146 0.65899998 -0.048528757 1.5485176e-38 336 282
0.019642593 0.65899998 -0.048528757 1.5577372e-38 337 282
0.02086116 0.66100001 -0.04867604 1.5485176e-38 338 282
0.022020113 0.66100001 -0.04867604 1.5669569e-38 339 282
0.023179067 0.66100001 -0.04867604 1.5395146e-38 340 282
0.024374841 0.662 -0.048749682 1.5395146e-38 341 282
0.025535546 0.662 -0.048749682 1.5211828e-38 342 282
0.026696252 0.662 -0.048749682 1.5119632e-38 343 282
0.027856959 0.662 -0.048749682 1.5210382e-38 344 282
0.029061496 0.66299999 -0.048823316 1.5118186e-38 345 282
0.030223956 0.66299999 -0.048823316 1.5118189e-38 346 282
0.031433757 0.66399997 -0.048896957 1.5210384e-38 347 282
0.03259797 0.66399997 -0.048896957 1.5026716e-38 348 282
0.03386388 0.66600001 -0.04904424 1.5118912e-38 349 282
0.035031598 0.66600001 -0.04904424 1.4935239e-38 350 282
0.03619932 0.66600001 -0.04904424 1.5027435e-38 351 282
0.037703678 0.67199999 -0.049486078 1.5027082e-38 352 282
0.03888192 0.67199999 -0.049486078 1.5027082e-38 353 282
0.040179387 0.67400002 -0.049633358 1.5026363e-38 354 282
0.041361131 0.67400002 -0.049633358 1.5026363e-38 355 282
0.042542879 0.67400002 -0.049633358 1.502564e-38 356 282
-0.089135952 0.68699998 -0.051795214 1.3275076e-38 246 283
-0.087931409 0.68699998 -0.051795214 1.3090684e-38 247 283
-0.086726874 0.68699998 -0.051795214 1.2722612e-38 248 283
-0.08564683 0.68800002 -0.051870614 1.2353469e-38 249 283
-0.084440529 0.68800002 -0.051870614 1.1615883e-38 250 283
-0.083597176 0.69099998 -0.052096792 1.0786122e-38 251 283
-0.082385622 0.69099998 -0.052096792 1.161549e-38 252 283
-0.081056595 0.69 -0.052021399 1.2076829e-38 253 283
-0.079846799 0.69 -0.052021399 1.2995163e-38 254 283
-0.078636996 0.69 -0.052021399 1.3179913e-38 255 283
-0.077202775 0.68800002 -0.051870614 1.3272093e-38 256 283
-0.075996481 0.68800002 -0.051870614 1.3456124e-38 257 283
-0.074681476 0.68699998 -0.051795214 1.3365356e-38 258 283
-0.073369987 0.68599999 -0.051719822 1.3365356e-38 259 283
-0.071956798 0.68400002 -0.051569041 1.3366065e-38 260 283
-0.070654072 0.68300003 -0.051493648 1.3366065e-38 261 283
-0.069354847 0.68199998 -0.051418249 1.3366058e-38 262 283
-0.067959204 0.68000001 -0.051267464 1.3366058e-38 263 283
-0.066668749 0.67900002 -0.051192071 1.3457175e-38 264 283
-0.065381795 0.67799997 -0.051116679 1.3273144e-38 265 283
-0.06419304 0.67799997 -0.051116679 1.3273512e-38 266 283
-0.062818423 0.676 -0.050965894 1.3181317e-38 267 283
-0.061450824 0.67400002 -0.050815105 1.3180964e-38 268 283
-0.06026908 0.67400002 -0.050815105 1.3180964e-38 269 283
-0.058911994 0.67199999 -0.050664317 1.3180598e-38 270 283
-0.057733759 0.67199999 -0.050664317 1.2903652e-38 271 283
-0.056471359 0.671 -0.050588924 1.2534522e-38 272 283
-0.055294871 0.671 -0.050588924 1.1612566e-38 273 283
-0.054037735 0.67000002 -0.050513536 1.1702986e-38 274 283
-0.052705199 0.66799998 -0.050362743 1.2163963e-38 275 283
-0.051456824 0.667 -0.050287351 1.2260476e-38 276 283
-0.050287351 0.667 -0.050287351 1.3090235e-38 277 283
-0.049117878 0.667 -0.050287351 1.3550841e-38 278 283
-0.047876518 0.66600001 -0.050211959 1.3827429e-38 279 283
-0.046708796 0.66600001 -0.050211959 1.4286958e-38 280 283
-0.045541082 0.66600001 -0.050211959 1.4379154e-38 281 283
-0.044240102 0.66399997 -0.05006117 1.4656095e-38 282 283
-0.043075889 0.66399997 -0.05006117 1.4840845e-38 283 283
-0.041911677 0.66399997 -0.05006117 1.5208551e-38 284 283
-0.040686097 0.66299999 -0.049985778 1.5576975e-38 285 283
-0.039523639 0.66299999 -0.049985778 1.5852839e-38 286 283
-0.038303319 0.662 -0.049910385 1.5945035e-38 287 283
-0.037142612 0.662 -0.049910385 1.6129779e-38 288 283
-0.035981905 0.662 -0.049910385 1.6129779e-38 289 283
-0.0347686 0.66100001 -0.049834993 1.640529e-38 290 283
-0.033609647 0.66100001 -0.049834993 1.6313094e-38 291 283
-0.032450691 0.66100001 -0.049834993 1.6037233e-38 292 283
-0.031291738 0.66100001 -0.049834993 1.5945038e-38 293 283
-0.030132787 0.66100001 -0.049834993 1.5945038e-38 294 283
-0.028973831 0.66100001 -0.049834993 1.5945038e-38 295 283
-0.02781488 0.66100001 -0.049834993 1.5945038e-38 296 283
-0.026575271 0.65899998 -0.049684204 1.5945038e-38 297 283
