# .PCD v.7 - Point Cloud Data file format
FIELDS x y z rgb imX imY
SIZE 4 4 4 4 4 4
TYPE F F F F F F
COUNT 1 1 1 1 1 1
WIDTH 838
HEIGHT 1
VIEWPOINT 0 0 0 1 0 0 0
POINTS 838
DATA ascii
-0.091515228 0.80299997 0.026750606 1.5585012e-38 255 221
-0.090107299 0.80299997 0.026750606 1.4749423e-38 256 221
-0.08914122 0.80699998 0.026883857 1.4473195e-38 257 221
-0.08772628 0.80699998 0.026883857 1.5853545e-38 258 221
-0.086525239 0.80900002 0.026950486 1.6130132e-38 259 221
-0.085106798 0.80900002 0.026950486 1.6498196e-38 260 221
-0.083688356 0.80900002 0.026950486 1.6866618e-38 261 221
-0.082269907 0.80900002 0.026950486 1.7050659e-38 262 221
-0.080851458 0.80900002 0.026950486 1.7235411e-38 263 221
-0.079433009 0.80900002 0.026950486 1.7235055e-38 264 221
-0.077821694 0.80699998 0.026883857 1.732725e-38 265 221
-0.076406755 0.80699998 0.026883857 1.7235057e-38 266 221
-0.074991815 0.80699998 0.026883857 1.7142862e-38 267 221
-0.073576882 0.80699998 0.026883857 1.695811e-38 268 221
-0.072161935 0.80699998 0.026883857 1.6589688e-38 269 221
-0.07092233 0.80900002 0.026950486 1.6680082e-38 270 221
-0.069503881 0.80900002 0.026950486 1.6403495e-38 271 221
-0.06808544 0.80900002 0.026950486 1.6127265e-38 272 221
-0.066666998 0.80900002 0.026950486 1.5850318e-38 273 221
-0.065248549 0.80900002 0.026950486 1.5482965e-38 274 221
-0.063830093 0.80900002 0.026950486 1.4837596e-38 275 221
-0.062565938 0.81099999 0.027017111 1.3824532e-38 276 221
-0.061143994 0.81099999 0.027017111 1.3179163e-38 277 221
-0.059869319 0.81300002 0.02708374 1.225651e-38 278 221
-0.058587633 0.815 0.027150365 1.1703695e-38 279 221
-0.057158664 0.815 0.027150365 1.1610791e-38 280 221
-0.055866458 0.81699997 0.027216991 1.1518594e-38 281 221
-0.054433983 0.81699997 0.027216991 1.124273e-38 282 221
-0.053131256 0.81900001 0.027283618 1.124273e-38 283 221
-0.05169528 0.81900001 0.027283618 1.0967588e-38 284 221
-0.0502593 0.81900001 0.027283618 1.0783196e-38 285 221
-0.048942544 0.82099998 0.027350245 1.0596662e-38 286 221
-0.047503054 0.82099998 0.027350245 9.028978e-39 287 221
-0.093743719 0.79799998 0.025184877 1.7520061e-38 253 222
-0.092344552 0.79799998 0.025184877 1.6597712e-38 254 222
-0.091515228 0.80299997 0.025342679 1.4938191e-38 255 222
-0.090107299 0.80299997 0.025342679 1.5023469e-38 256 222
-0.088699371 0.80299997 0.025342679 1.5392612e-38 257 222
-0.087508865 0.80500001 0.025405798 1.6220883e-38 258 222
-0.086097427 0.80500001 0.025405798 1.6405274e-38 259 222
-0.084896393 0.80699998 0.025468919 1.6865181e-38 260 222
-0.083481453 0.80699998 0.025468919 1.7049212e-38 261 222
-0.082066514 0.80699998 0.025468919 1.723433e-38 262 222
-0.080651581 0.80699998 0.025468919 1.7326527e-38 263 222
-0.079433009 0.80900002 0.025532039 1.7418367e-38 264 222
-0.077821694 0.80699998 0.025468919 1.7418367e-38 265 222
-0.076406755 0.80699998 0.025468919 1.7326171e-38 266 222
-0.074991815 0.80699998 0.025468919 1.7049943e-38 267 222
-0.073576882 0.80699998 0.025468919 1.6865552e-38 268 222
-0.072161935 0.80699998 0.025468919 1.6680802e-38 269 222
-0.070746996 0.80699998 0.025468919 1.6587523e-38 270 222
-0.069332056 0.80699998 0.025468919 1.6402773e-38 271 222
-0.067917116 0.80699998 0.025468919 1.5943589e-38 272 222
-0.066502176 0.80699998 0.025468919 1.5574807e-38 273 222
-0.065248549 0.80900002 0.025532039 1.5022358e-38 274 222
-0.063830093 0.80900002 0.025532039 1.4376989e-38 275 222
-0.062411651 0.80900002 0.025532039 1.3178815e-38 276 222
-0.061143994 0.81099999 0.025595158 1.2257218e-38 277 222
-0.05972204 0.81099999 0.025595158 1.225543e-38 278 222
-0.058587633 0.815 0.025721399 1.1887007e-38 279 222
-0.057158664 0.815 0.025721399 1.1518591e-38 280 222
-0.055866458 0.81699997 0.025784519 1.1426395e-38 281 222
-0.054433983 0.81699997 0.025784519 1.1426401e-38 282 222
-0.053131256 0.81900001 0.02584764 1.1333846e-38 283 222
-0.05169528 0.81900001 0.02584764 1.087432e-38 284 222
-0.0502593 0.81900001 0.02584764 1.0597733e-38 285 222
-0.048942544 0.82099998 0.025910759 9.583249e-39 286 222
-0.095142879 0.79799998 0.02378572 1.7796999e-38 252 223
-0.093743719 0.79799998 0.02378572 1.7428218e-38 253 223
-0.092575997 0.80000001 0.023845334 1.5950522e-38 254 223
-0.091515228 0.80299997 0.023934752 1.4752338e-38 255 223
-0.090107299 0.80299997 0.023934752 1.5574828e-38 256 223
-0.088699371 0.80299997 0.023934752 1.5851417e-38 257 223
-0.087291449 0.80299997 0.023934752 1.6404198e-38 258 223
-0.085883521 0.80299997 0.023934752 1.6680785e-38 259 223
-0.084896393 0.80699998 0.02405398 1.6773707e-38 260 223
-0.083274566 0.80500001 0.023994366 1.6958098e-38 261 223
-0.081863128 0.80500001 0.023994366 1.704994e-38 262 223
-0.080451705 0.80500001 0.023994366 1.7326527e-38 263 223
-0.079040267 0.80500001 0.023994366 1.7326174e-38 264 223
-0.077821694 0.80699998 0.02405398 1.7233977e-38 265 223
-0.076406755 0.80699998 0.02405398 1.7049946e-38 266 223
-0.074991815 0.80699998 0.02405398 1.6957392e-38 267 223
-0.07339453 0.80500001 0.023994366 1.6864833e-38 268 223
-0.071983099 0.80500001 0.023994366 1.6587886e-38 269 223
-0.070571661 0.80500001 0.023994366 1.6495325e-38 270 223
-0.069332056 0.80699998 0.02405398 1.6310933e-38 271 223
-0.067917116 0.80699998 0.02405398 1.5850674e-38 272 223
-0.066502176 0.80699998 0.02405398 1.5574447e-38 273 223
-0.065087236 0.80699998 0.02405398 1.4744696e-38 274 223
-0.063830093 0.80900002 0.024113594 1.3730903e-38 275 223
-0.062411651 0.80900002 0.024113594 1.2534175e-38 276 223
-0.061143994 0.81099999 0.024173206 1.1888805e-38 277 223
-0.05972204 0.81099999 0.024173206 1.2071048e-38 278 223
-0.058587633 0.815 0.024292432 1.1794103e-38 279 223
-0.057298932 0.81699997 0.024352046 1.1518596e-38 280 223
-0.055866458 0.81699997 0.024352046 1.1426401e-38 281 223
-0.054567236 0.81900001 0.02441166 1.1242732e-38 282 223
-0.053131256 0.81900001 0.02441166 1.1150537e-38 283 223
-0.05169528 0.81900001 0.02441166 1.0689576e-38 284 223
-0.0502593 0.81900001 0.02441166 9.214444e-39 285 223
-0.095142879 0.79799998 0.022386558 1.7796275e-38 252 224
-0.093743719 0.79799998 0.022386558 1.6966514e-38 253 224
-0.092575997 0.80000001 0.022442667 1.5118944e-38 254 224
-0.091515228 0.80299997 0.022526825 1.4566129e-38 255 224
-0.090107299 0.80299997 0.022526825 1.5576256e-38 256 224
-0.088699371 0.80299997 0.022526825 1.5852842e-38 257 224
-0.087291449 0.80299997 0.022526825 1.6312726e-38 258 224
-0.085883521 0.80299997 0.022526825 1.6589311e-38 259 224
-0.084685996 0.80500001 0.022582933 1.668259e-38 260 224
-0.083274566 0.80500001 0.022582933 1.6866621e-38 261 224
-0.081863128 0.80500001 0.022582933 1.7049943e-38 262 224
-0.080451705 0.80500001 0.022582933 1.7049943e-38 263 224
-0.079040267 0.80500001 0.022582933 1.7049593e-38 264 224
-0.077821694 0.80699998 0.022639038 1.7049593e-38 265 224
-0.076406755 0.80699998 0.022639038 1.6865918e-38 266 224
-0.074991815 0.80699998 0.022639038 1.6589691e-38 267 224
-0.07339453 0.80500001 0.022582933 1.6680438e-38 268 224
-0.071983099 0.80500001 0.022582933 1.6403492e-38 269 224
-0.070571661 0.80500001 0.022582933 1.6127618e-38 270 224
-0.06916023 0.80500001 0.022582933 1.5850671e-38 271 224
-0.0677488 0.80500001 0.022582933 1.5574447e-38 272 224
-0.066337362 0.80500001 0.022582933 1.5205305e-38 273 224
-0.065087236 0.80699998 0.022639038 1.428479e-38 274 224
-0.063830093 0.80900002 0.022695147 1.2901856e-38 275 224
-0.062411651 0.80900002 0.022695147 1.2257218e-38 276 224
-0.061143994 0.81099999 0.022751253 1.1980272e-38 277 224
-0.05972204 0.81099999 0.022751253 1.1886654e-38 278 224
-0.058443859 0.81300002 0.02280736 1.1702262e-38 279 224
-0.057158664 0.815 0.022863466 1.1426401e-38 280 224
-0.055866458 0.81699997 0.022919571 1.1426401e-38 281 224
-0.054567236 0.81900001 0.022975679 1.0874673e-38 282 224
-0.053131256 0.81900001 0.022975679 1.0690282e-38 283 224
-0.051569037 0.81699997 0.022919571 9.677597e-39 284 224
-0.050136562 0.81699997 0.022919571 8.1099126e-39 285 224
-0.095142879 0.79799998 0.020987399 1.6966144e-38 252 225
-0.093743719 0.79799998 0.020987399 1.5767602e-38 253 225
-0.092923149 0.80299997 0.0211189 1.4656507e-38 254 225
-0.091515228 0.80299997 0.0211189 1.4656507e-38 255 225
-0.090107299 0.80299997 0.0211189 1.5667728e-38 256 225
-0.088699371 0.80299997 0.0211189 1.585212e-38 257 225
-0.087291449 0.80299997 0.0211189 1.6404927e-38 258 225
-0.085883521 0.80299997 0.0211189 1.6588958e-38 259 225
-0.084685996 0.80500001 0.021171499 1.6958101e-38 260 225
-0.083274566 0.80500001 0.021171499 1.6958101e-38 261 225
-0.081863128 0.80500001 0.021171499 1.7141063e-38 262 225
-0.080451705 0.80500001 0.021171499 1.7048508e-38 263 225
-0.079040267 0.80500001 0.021171499 1.6865202e-38 264 225
-0.077628836 0.80500001 0.021171499 1.6865202e-38 265 225
-0.076217398 0.80500001 0.021171499 1.6773e-38 266 225
-0.074805968 0.80500001 0.021171499 1.6588609e-38 267 225
-0.07339453 0.80500001 0.021171499 1.6495688e-38 268 225
-0.071983099 0.80500001 0.021171499 1.6219461e-38 269 225
-0.070571661 0.80500001 0.021171499 1.5942873e-38 270 225
-0.06916023 0.80500001 0.021171499 1.5850318e-38 271 225
-0.0677488 0.80500001 0.021171499 1.5207107e-38 272 225
-0.066337362 0.80500001 0.021171499 1.3916368e-38 273 225
-0.065087236 0.80699998 0.021224098 1.400461e-38 274 225
-0.063672297 0.80699998 0.021224098 1.2990817e-38 275 225
-0.062411651 0.80900002 0.021276699 1.2347979e-38 276 225
-0.061143994 0.81099999 0.021329299 1.1979556e-38 277 225
-0.05972204 0.81099999 0.021329299 1.1610791e-38 278 225
-0.058443859 0.81300002 0.0213819 1.1426398e-38 279 225
-0.057158664 0.815 0.021434501 1.1242732e-38 280 225
-0.055729698 0.815 0.021434501 1.1150537e-38 281 225
-0.054433983 0.81699997 0.021487098 1.1058357e-38 282 225
-0.053001508 0.81699997 0.021487098 9.8598135e-39 283 225
-0.051569037 0.81699997 0.021487098 8.1099308e-39 284 225
-0.050136562 0.81699997 0.021487098 7.6489526e-39 285 225
-0.096783996 0.80000001 0.019637333 1.7611177e-38 251 226
-0.095381334 0.80000001 0.019637333 1.6044538e-38 252 226
-0.094331078 0.80299997 0.019710973 1.4753799e-38 253 226
-0.092923149 0.80299997 0.019710973 1.511352e-38 254 226
-0.091515228 0.80299997 0.019710973 1.5574499e-38 255 226
-0.090107299 0.80299997 0.019710973 1.6035786e-38 256 226
-0.088699371 0.80299997 0.019710973 1.6220177e-38 257 226
-0.087291449 0.80299997 0.019710973 1.6404924e-38 258 226
-0.085883521 0.80299997 0.019710973 1.6773707e-38 259 226
-0.084475599 0.80299997 0.019710973 1.6865196e-38 260 226
-0.08306767 0.80299997 0.019710973 1.6865196e-38 261 226
-0.081863128 0.80500001 0.019760067 1.67723e-38 262 226
-0.080451705 0.80500001 0.019760067 1.67723e-38 263 226
-0.079040267 0.80500001 0.019760067 1.6313121e-38 264 226
-0.077628836 0.80500001 0.019760067 1.6497152e-38 265 226
-0.076217398 0.80500001 0.019760067 1.6587536e-38 266 226
-0.074805968 0.80500001 0.019760067 1.6587536e-38 267 226
-0.07339453 0.80500001 0.019760067 1.6127987e-38 268 226
-0.071983099 0.80500001 0.019760067 1.5943237e-38 269 226
-0.070571661 0.80500001 0.019760067 1.5850324e-38 270 226
-0.06916023 0.80500001 0.019760067 1.5573738e-38 271 226
-0.0677488 0.80500001 0.019760067 1.4838696e-38 272 226
-0.066337362 0.80500001 0.019760067 1.3271011e-38 273 226
-0.065087236 0.80699998 0.019809159 1.2901152e-38 274 226
-0.063672297 0.80699998 0.019809159 1.2347979e-38 275 226
-0.062565938 0.81099999 0.019907346 1.1796257e-38 276 226
-0.061143994 0.81099999 0.019907346 1.1519311e-38 277 226
-0.059869319 0.81300002 0.01995644 1.1426761e-38 278 226
-0.058587633 0.815 0.020005532 1.124273e-38 279 226
-0.057158664 0.815 0.020005532 1.1150184e-38 280 226
-0.055729698 0.815 0.020005532 1.1150184e-38 281 226
-0.054433983 0.81699997 0.020054625 1.0411928e-38 282 226
-0.053001508 0.81699997 0.020054625 9.3059404e-39 283 226
-0.051569037 0.81699997 0.020054625 7.0050378e-39 284 226
-0.096783996 0.80000001 0.018234666 1.7059078e-38 251 227
-0.095381334 0.80000001 0.018234666 1.4476471e-38 252 227
-0.094331078 0.80299997 0.018303044 1.3554513e-38 253 227
-0.092923149 0.80299997 0.018303044 1.5483712e-38 254 227
-0.091515228 0.80299997 0.018303044 1.575994e-38 255 227
-0.090107299 0.80299997 0.018303044 1.6220883e-38 256 227
-0.088699371 0.80299997 0.018303044 1.6405274e-38 257 227
-0.087291449 0.80299997 0.018303044 1.6589661e-38 258 227
-0.085883521 0.80299997 0.018303044 1.6774054e-38 259 227
-0.084475599 0.80299997 0.018303044 1.6865183e-38 260 227
-0.08306767 0.80299997 0.018303044 1.6588236e-38 261 227
-0.081659742 0.80299997 0.018303044 1.676941e-38 262 227
-0.08025182 0.80299997 0.018303044 1.6953441e-38 263 227
-0.079040267 0.80500001 0.018348632 1.6587538e-38 264 227
-0.077628836 0.80500001 0.018348632 1.6587538e-38 265 227
-0.076217398 0.80500001 0.018348632 1.6771201e-38 266 227
-0.074805968 0.80500001 0.018348632 1.6402779e-38 267 227
-0.073212177 0.80299997 0.018303044 1.6127262e-38 268 227
-0.071804255 0.80299997 0.018303044 1.594287e-38 269 227
-0.070396326 0.80299997 0.018303044 1.557481e-38 270 227
-0.06916023 0.80500001 0.018348632 1.4837245e-38 271 227
-0.0677488 0.80500001 0.018348632 1.3642668e-38 272 227
-0.066666998 0.80900002 0.018439807 1.2075342e-38 273 227
-0.065248549 0.80900002 0.018439807 1.2990115e-38 274 227
-0.063987896 0.81099999 0.018485393 1.2620973e-38 275 227
-0.062565938 0.81099999 0.018485393 1.1887023e-38 276 227
-0.061143994 0.81099999 0.018485393 1.1610437e-38 277 227
-0.059869319 0.81300002 0.01853098 1.142641e-38 278 227
-0.058587633 0.815 0.018576566 1.1242379e-38 279 227
-0.057158664 0.815 0.018576566 1.1058357e-38 280 227
-0.055729698 0.815 0.018576566 1.0412987e-38 281 227
-0.097146936 0.80299997 0.016895119 1.6689207e-38 251 228
-0.095739007 0.80299997 0.016895119 1.4474284e-38 252 228
-0.094331078 0.80299997 0.016895119 1.392111e-38 253 228
-0.092923149 0.80299997 0.016895119 1.5944669e-38 254 228
-0.091515228 0.80299997 0.016895119 1.6036865e-38 255 228
-0.090107299 0.80299997 0.016895119 1.640563e-38 256 228
-0.088588916 0.80199999 0.016874079 1.6589661e-38 257 228
-0.087182745 0.80199999 0.016874079 1.6773701e-38 258 228
-0.085776575 0.80199999 0.016874079 1.6681505e-38 259 228
-0.084475599 0.80299997 0.016895119 1.622018e-38 260 228
-0.08306767 0.80299997 0.016895119 1.5390419e-38 261 228
-0.081659742 0.80299997 0.016895119 1.52064e-38 262 228
-0.08025182 0.80299997 0.016895119 1.5575182e-38 263 228
-0.078843892 0.80299997 0.016895119 1.5851783e-38 264 228
-0.077435955 0.80299997 0.016895119 1.5851783e-38 265 228
-0.076028034 0.80299997 0.016895119 1.6127281e-38 266 228
-0.074620105 0.80299997 0.016895119 1.6035085e-38 267 228
-0.073212177 0.80299997 0.016895119 1.5759202e-38 268 228
-0.071804255 0.80299997 0.016895119 1.557481e-38 269 228
-0.070396326 0.80299997 0.016895119 1.53897e-38 270 228
-0.06916023 0.80500001 0.0169372 1.4559579e-38 271 228
-0.0677488 0.80500001 0.0169372 1.3547601e-38 272 228
-0.066666998 0.80900002 0.01702136 1.2810036e-38 273 228
-0.065248549 0.80900002 0.01702136 1.271462e-38 274 228
-0.063987896 0.81099999 0.017063441 1.2437673e-38 275 228
-0.062565938 0.81099999 0.017063441 1.1702636e-38 276 228
-0.061143994 0.81099999 0.017063441 1.1518243e-38 277 228
-0.059869319 0.81300002 0.01710552 1.11509e-38 278 228
-0.058587633 0.815 0.017147599 1.0874673e-38 279 228
-0.097146936 0.80299997 0.015487193 1.5398818e-38 251 229
-0.095739007 0.80299997 0.015487193 1.4656504e-38 252 229
-0.094331078 0.80299997 0.015487193 1.4841256e-38 253 229
-0.092923149 0.80299997 0.015487193 1.5853189e-38 254 229
-0.091515228 0.80299997 0.015487193 1.6037939e-38 255 229
-0.090107299 0.80299997 0.015487193 1.6498549e-38 256 229
-0.088588916 0.80199999 0.015467905 1.6498549e-38 257 229
-0.087182745 0.80199999 0.015467905 1.6772635e-38 258 229
-0.085776575 0.80199999 0.015467905 1.6588242e-38 259 229
-0.084370397 0.80199999 0.015467905 1.5759574e-38 260 229
-0.082964227 0.80199999 0.015467905 1.4100053e-38 261 229
-0.081558049 0.80199999 0.015467905 1.4559235e-38 262 229
-0.080151878 0.80199999 0.015467905 1.52968e-38 263 229
-0.0787457 0.80199999 0.015467905 1.5390797e-38 264 229
-0.07733953 0.80199999 0.015467905 1.5759221e-38 265 229
-0.076028034 0.80299997 0.015487193 1.594324e-38 266 229
-0.074620105 0.80299997 0.015487193 1.594324e-38 267 229
-0.073212177 0.80299997 0.015487193 1.557481e-38 268 229
-0.071804255 0.80299997 0.015487193 1.5390419e-38 269 229
-0.070396326 0.80299997 0.015487193 1.4654301e-38 270 229
-0.06916023 0.80500001 0.015525767 1.3455758e-38 271 229
-0.0677488 0.80500001 0.015525767 1.280933e-38 272 229
-0.066666998 0.80900002 0.015602913 1.2532743e-38 273 229
-0.065248549 0.80900002 0.015602913 1.2346206e-38 274 229
-0.063830093 0.80900002 0.015602913 1.2069619e-38 275 229
-0.062411651 0.80900002 0.015602913 1.1518243e-38 276 229
-0.061143994 0.81099999 0.015641484 1.1426048e-38 277 229
-0.059869319 0.81300002 0.01568006 1.1058704e-38 278 229
-0.058443859 0.81300002 0.01568006 1.0690282e-38 279 229
-0.057018399 0.81300002 0.01568006 9.5843154e-39 280 229
-0.055729698 0.815 0.015718633 8.3857736e-39 281 229
-0.097025953 0.80199999 0.014061732 1.4293177e-38 251 230
-0.095619783 0.80199999 0.014061732 1.4656492e-38 252 230
-0.094213605 0.80199999 0.014061732 1.5209666e-38 253 230
-0.092807434 0.80199999 0.014061732 1.6220533e-38 254 230
-0.091401257 0.80199999 0.014061732 1.6588955e-38 255 230
-0.089995086 0.80199999 0.014061732 1.6681508e-38 256 230
-0.088588916 0.80199999 0.014061732 1.6773704e-38 257 230
-0.087182745 0.80199999 0.014061732 1.6865202e-38 258 230
-0.085776575 0.80199999 0.014061732 1.6127278e-38 259 230
-0.084370397 0.80199999 0.014061732 1.5298249e-38 260 230
-0.082964227 0.80199999 0.014061732 1.4099705e-38 261 230
-0.081558049 0.80199999 0.014061732 1.4833671e-38 262 230
-0.080151878 0.80199999 0.014061732 1.5386844e-38 263 230
-0.0787457 0.80199999 0.014061732 1.5572306e-38 264 230
-0.07733953 0.80199999 0.014061732 1.5849252e-38 265 230
-0.075933352 0.80199999 0.014061732 1.5850321e-38 266 230
-0.074527182 0.80199999 0.014061732 1.5850321e-38 267 230
-0.073121011 0.80199999 0.014061732 1.5298946e-38 268 230
-0.071804255 0.80299997 0.014079265 1.4746131e-38 269 230
-0.070396326 0.80299997 0.014079265 1.4007504e-38 270 230
-0.068988405 0.80299997 0.014079265 1.3085546e-38 271 230
-0.0677488 0.80500001 0.014114333 1.2807537e-38 272 230
-0.066337362 0.80500001 0.014114333 1.2346559e-38 273 230
-0.065087236 0.80699998 0.014149399 1.1978149e-38 274 230
-0.063672297 0.80699998 0.014149399 1.1793399e-38 275 230
-0.062411651 0.80900002 0.014184467 1.1518246e-38 276 230
-0.061143994 0.81099999 0.014219533 1.1425692e-38 277 230
-0.05972204 0.81099999 0.014219533 1.0507335e-38 278 230
-0.058443859 0.81300002 0.0142546 9.8619658e-39 279 230
-0.057018399 0.81300002 0.0142546 7.4663466e-39 280 230
-0.098554865 0.80299997 0.012671339 1.5399872e-38 250 231
-0.097025953 0.80199999 0.01265556 1.3187537e-38 251 231
-0.095619783 0.80199999 0.01265556 1.502382e-38 252 231
-0.094213605 0.80199999 0.01265556 1.5392962e-38 253 231
-0.092807434 0.80199999 0.01265556 1.6221252e-38 254 231
-0.091401257 0.80199999 0.01265556 1.649784e-38 255 231
-0.089995086 0.80199999 0.01265556 1.6773704e-38 256 231
-0.088588916 0.80199999 0.01265556 1.6773704e-38 257 231
-0.087182745 0.80199999 0.01265556 1.6590054e-38 258 231
-0.085776575 0.80199999 0.01265556 1.5299315e-38 259 231
-0.084370397 0.80199999 0.01265556 1.4743287e-38 260 231
-0.082964227 0.80199999 0.01265556 1.4374863e-38 261 231
-0.081558049 0.80199999 0.01265556 1.4926236e-38 262 231
-0.080151878 0.80199999 0.01265556 1.5110627e-38 263 231
-0.0787457 0.80199999 0.01265556 1.52968e-38 264 231
-0.07733953 0.80199999 0.01265556 1.5573388e-38 265 231
-0.075933352 0.80199999 0.01265556 1.5758478e-38 266 231
-0.074527182 0.80199999 0.01265556 1.5574447e-38 267 231
-0.073121011 0.80199999 0.01265556 1.5114555e-38 268 231
-0.071714841 0.80199999 0.01265556 1.4469186e-38 269 231
-0.070396326 0.80299997 0.012671339 1.3362859e-38 270 231
-0.068988405 0.80299997 0.012671339 1.253274e-38 271 231
-0.0677488 0.80500001 0.012702899 1.2438402e-38 272 231
-0.066337362 0.80500001 0.012702899 1.225401e-38 273 231
-0.065087236 0.80699998 0.01273446 1.1885954e-38 274 231
-0.063672297 0.80699998 0.01273446 1.1701202e-38 275 231
-0.062411651 0.80900002 0.012766019 1.1242735e-38 276 231
-0.061143994 0.81099999 0.012797579 1.1150181e-38 277 231
-0.05972204 0.81099999 0.012797579 1.0137123e-38 278 231
-0.058443859 0.81300002 0.01282914 9.3995584e-39 279 231
-0.099962786 0.80299997 0.011263412 1.6506983e-38 249 232
-0.098554865 0.80299997 0.011263412 1.438678e-38 250 232
-0.097146936 0.80299997 0.011263412 1.3003845e-38 251 232
-0.095739007 0.80299997 0.011263412 1.5576259e-38 252 232
-0.094213605 0.80199999 0.011249386 1.594504e-38 253 232
-0.092807434 0.80199999 0.011249386 1.640528e-38 254 232
-0.091401257 0.80199999 0.011249386 1.6681508e-38 255 232
-0.089995086 0.80199999 0.011249386 1.6681508e-38 256 232
-0.088588916 0.80199999 0.011249386 1.6773704e-38 257 232
-0.087182745 0.80199999 0.011249386 1.6314546e-38 258 232
-0.085776575 0.80199999 0.011249386 1.4286242e-38 259 232
-0.084370397 0.80199999 0.011249386 1.4372346e-38 260 232
-0.082964227 0.80199999 0.011249386 1.4740769e-38 261 232
-0.081558049 0.80199999 0.011249386 1.4650008e-38 262 232
-0.080151878 0.80199999 0.011249386 1.5110627e-38 263 232
-0.078549333 0.80000001 0.011221333 1.5296794e-38 264 232
-0.077146664 0.80000001 0.011221333 1.5481545e-38 265 232
-0.075743996 0.80000001 0.011221333 1.5758473e-38 266 232
-0.074527182 0.80199999 0.011249386 1.5390049e-38 267 232
-0.073121011 0.80199999 0.011249386 1.5021992e-38 268 232
-0.071714841 0.80199999 0.011249386 1.4099677e-38 269 232
-0.070308663 0.80199999 0.011249386 1.2809683e-38 270 232
-0.068988405 0.80299997 0.011263412 1.225651e-38 271 232
-0.067917116 0.80699998 0.011319519 1.225401e-38 272 232
-0.066502176 0.80699998 0.011319519 1.2069619e-38 273 232
-0.065087236 0.80699998 0.011319519 1.1610087e-38 274 232
-0.063672297 0.80699998 0.011319519 1.1425694e-38 275 232
-0.062411651 0.80900002 0.011347573 1.1149833e-38 276 232
-0.060993209 0.80900002 0.011347573 1.0965083e-38 277 232
-0.05972204 0.81099999 0.011375627 9.2137406e-39 278 232
-0.100992 0.80000001 0.0098186666 1.7150905e-38 248 233
-0.099838302 0.80199999 0.0098432126 1.5952721e-38 249 233
-0.098554865 0.80299997 0.0098554865 1.4384962e-38 250 233
-0.097146936 0.80299997 0.0098554865 1.3463006e-38 251 233
-0.095739007 0.80299997 0.0098554865 1.5852473e-38 252 233
-0.094213605 0.80199999 0.0098432126 1.6036865e-38 253 233
-0.092807434 0.80199999 0.0098432126 1.640529e-38 254 233
-0.091401257 0.80199999 0.0098432126 1.6497846e-38 255 233
-0.089770667 0.80000001 0.0098186666 1.6773356e-38 256 233
-0.088367999 0.80000001 0.0098186666 1.6773356e-38 257 233
-0.087182745 0.80199999 0.0098432126 1.6404591e-38 258 233
-0.085562661 0.80000001 0.0098186666 1.4100059e-38 259 233
-0.08416 0.80000001 0.0098186666 1.4187954e-38 260 233
-0.082964227 0.80199999 0.0098432126 1.4648573e-38 261 233
-0.08135467 0.80000001 0.0098186666 1.465108e-38 262 233
-0.079952002 0.80000001 0.0098186666 1.5111699e-38 263 233
-0.078549333 0.80000001 0.0098186666 1.5389347e-38 264 233
-0.077146664 0.80000001 0.0098186666 1.5573738e-38 265 233
-0.075743996 0.80000001 0.0098186666 1.5115271e-38 266 233
-0.074341334 0.80000001 0.0098186666 1.4746847e-38 267 233
-0.073121011 0.80199999 0.0098432126 1.4101481e-38 268 233
-0.071714841 0.80199999 0.0098432126 1.3363557e-38 269 233
-0.070308663 0.80199999 0.0098432126 1.2256866e-38 270 233
-0.068988405 0.80299997 0.0098554865 1.2072115e-38 271 233
-0.067917116 0.80699998 0.0099045793 1.1978497e-38 272 233
-0.066502176 0.80699998 0.0099045793 1.1886301e-38 273 233
-0.065087236 0.80699998 0.0099045793 1.1793755e-38 274 233
-0.063672297 0.80699998 0.0099045793 1.1609363e-38 275 233
-0.062257357 0.80699998 0.0099045793 1.0964014e-38 276 233
-0.060993209 0.80900002 0.0099291261 1.0411199e-38 277 233
-0.05972204 0.81099999 0.009953673 8.2928801e-39 278 233
-0.10239466 0.80000001 0.0084159998 1.7520061e-38 247 234
-0.100992 0.80000001 0.0084159998 1.6783199e-38 248 234
-0.099838302 0.80199999 0.0084370393 1.4754894e-38 249 234
-0.098432131 0.80199999 0.0084370393 1.4474278e-38 250 234
-0.097025953 0.80199999 0.0084370393 1.4290247e-38 251 234
-0.095619783 0.80199999 0.0084370393 1.6035788e-38 252 234
-0.094213605 0.80199999 0.0084370393 1.6312375e-38 253 234
-0.092807434 0.80199999 0.0084370393 1.6588239e-38 254 234
-0.091401257 0.80199999 0.0084370393 1.6772632e-38 255 234
-0.089770667 0.80000001 0.0084159998 1.6680802e-38 256 234
-0.088367999 0.80000001 0.0084159998 1.6773356e-38 257 234
-0.086965337 0.80000001 0.0084159998 1.6404944e-38 258 234
-0.085562661 0.80000001 0.0084159998 1.4100053e-38 259 234
-0.08416 0.80000001 0.0084159998 1.4096105e-38 260 234
-0.082757331 0.80000001 0.0084159998 1.4649279e-38 261 234
-0.081151277 0.79799998 0.0083949603 1.483547e-38 262 234
-0.079752117 0.79799998 0.0083949603 1.5388644e-38 263 234
-0.078549333 0.80000001 0.0084159998 1.5115277e-38 264 234
-0.077146664 0.80000001 0.0084159998 1.5115277e-38 265 234
-0.075743996 0.80000001 0.0084159998 1.5206398e-38 266 234
-0.074341334 0.80000001 0.0084159998 1.4653583e-38 267 234
-0.073121011 0.80199999 0.0084370393 1.2994428e-38 268 234
-0.071714841 0.80199999 0.0084370393 1.2533449e-38 269 234
-0.070308663 0.80199999 0.0084370393 1.2438023e-38 270 234
-0.068988405 0.80299997 0.0084475596 1.2253992e-38 271 234
-0.067917116 0.80699998 0.0084896395 1.1794106e-38 272 234
-0.066502176 0.80699998 0.0084896395 1.1794106e-38 273 234
-0.065087236 0.80699998 0.0084896395 1.1243101e-38 274 234
-0.063672297 0.80699998 0.0084896395 1.1058351e-38 275 234
-0.062257357 0.80699998 0.0084896395 1.0136054e-38 276 234
-0.060993209 0.80900002 0.0085106799 8.8453154e-39 277 234
-0.05972204 0.81099999 0.0085317204 7.0965005e-39 278 234
-0.10124448 0.80199999 0.0070308661 1.6506964e-38 248 235
-0.099838302 0.80199999 0.0070308661 1.3925486e-38 249 235
-0.098432131 0.80199999 0.0070308661 1.4473548e-38 250 235
-0.097025953 0.80199999 0.0070308661 1.4473548e-38 251 235
-0.095619783 0.80199999 0.0070308661 1.6127984e-38 252 235
-0.094213605 0.80199999 0.0070308661 1.6312375e-38 253 235
-0.092807434 0.80199999 0.0070308661 1.6680438e-38 254 235
-0.091173328 0.80000001 0.007013333 1.6772635e-38 255 235
-0.089770667 0.80000001 0.007013333 1.6772635e-38 256 235
-0.088367999 0.80000001 0.007013333 1.6772635e-38 257 235
-0.086965337 0.80000001 0.007013333 1.6312741e-38 258 235
-0.085562661 0.80000001 0.007013333 1.4469189e-38 259 235
-0.083949596 0.79799998 0.0069957995 1.4555639e-38 260 235
-0.082550429 0.79799998 0.0069957995 1.5016617e-38 261 235
-0.081151277 0.79799998 0.0069957995 1.4561034e-38 262 235
-0.079752117 0.79799998 0.0069957995 1.5021652e-38 263 235
-0.078352958 0.79799998 0.0069957995 1.5115277e-38 264 235
-0.076953799 0.79799998 0.0069957995 1.4930887e-38 265 235
-0.075554639 0.79799998 0.0069957995 1.4653948e-38 266 235
-0.074341334 0.80000001 0.007013333 1.419297e-38 267 235
-0.072938666 0.80000001 0.007013333 1.2624935e-38 268 235
-0.071714841 0.80199999 0.0070308661 1.2256513e-38 269 235
-0.070396326 0.80299997 0.0070396326 1.2346556e-38 270 235
-0.068988405 0.80299997 0.0070396326 1.2162165e-38 271 235
-0.0677488 0.80500001 0.0070571667 1.1518963e-38 272 235
-0.066502176 0.80699998 0.0070746993 1.1426766e-38 273 235
-0.065087236 0.80699998 0.0070746993 1.1150187e-38 274 235
-0.063672297 0.80699998 0.0070746993 1.0873241e-38 275 235
-0.062257357 0.80699998 0.0070746993 9.5818014e-39 276 235
-0.060993209 0.80900002 0.0070922333 8.2910626e-39 277 235
-0.10239466 0.80000001 0.0056106667 1.7428584e-38 247 236
-0.100992 0.80000001 0.0056106667 1.6045614e-38 248 236
-0.099589325 0.80000001 0.0056106667 1.318755e-38 249 236
-0.098186664 0.80000001 0.0056106667 1.4747255e-38 250 236
-0.096783996 0.80000001 0.0056106667 1.5208233e-38 251 236
-0.095619783 0.80199999 0.0056246929 1.6127631e-38 252 236
-0.094213605 0.80199999 0.0056246929 1.6312022e-38 253 236
-0.092575997 0.80000001 0.0056106667 1.6863747e-38 254 236
-0.091173328 0.80000001 0.0056106667 1.6956303e-38 255 236
-0.089770667 0.80000001 0.0056106667 1.6681155e-38 256 236
-0.088367999 0.80000001 0.0056106667 1.6588958e-38 257 236
-0.086965337 0.80000001 0.0056106667 1.622018e-38 258 236
-0.085348755 0.79799998 0.0055966396 1.4837245e-38 259 236
-0.083949596 0.79799998 0.0055966396 1.4831857e-38 260 236
-0.082550429 0.79799998 0.0055966396 1.520028e-38 261 236
-0.081151277 0.79799998 0.0055966396 1.4744696e-38 262 236
-0.079752117 0.79799998 0.0055966396 1.5021283e-38 263 236
-0.078352958 0.79799998 0.0055966396 1.5022358e-38 264 236
-0.076953799 0.79799998 0.0055966396 1.4930163e-38 265 236
-0.075554639 0.79799998 0.0055966396 1.4284443e-38 266 236
-0.074341334 0.80000001 0.0056106667 1.3639073e-38 267 236
-0.072938666 0.80000001 0.0056106667 1.2256516e-38 268 236
-0.071714841 0.80199999 0.0056246929 1.2071764e-38 269 236
-0.070396326 0.80299997 0.0056317062 1.1978497e-38 270 236
-0.06916023 0.80500001 0.0056457333 1.1886301e-38 271 236
-0.0677488 0.80500001 0.0056457333 1.1518246e-38 272 236
-0.066502176 0.80699998 0.0056597595 1.1425692e-38 273 236
-0.065248549 0.80900002 0.0056737866 1.0964367e-38 274 236
-0.063830093 0.80900002 0.0056737866 1.0318998e-38 275 236
-0.062411651 0.80900002 0.0056737866 8.7531324e-39 276 236
-0.10239466 0.80000001 0.0042079999 1.7152358e-38 247 237
-0.100992 0.80000001 0.0042079999 1.5217276e-38 248 237
-0.099589325 0.80000001 0.0042079999 1.2359572e-38 249 237
-0.098186664 0.80000001 0.0042079999 1.5206063e-38 250 237
-0.096783996 0.80000001 0.0042079999 1.5759237e-38 251 237
-0.095381334 0.80000001 0.0042079999 1.5944321e-38 252 237
-0.093978666 0.80000001 0.0042079999 1.6312744e-38 253 237
-0.092575997 0.80000001 0.0042079999 1.6772632e-38 254 237
-0.091173328 0.80000001 0.0042079999 1.6864827e-38 255 237
-0.089770667 0.80000001 0.0042079999 1.6772988e-38 256 237
-0.088367999 0.80000001 0.0042079999 1.6588236e-38 257 237
-0.086747915 0.79799998 0.0041974802 1.5760994e-38 258 237
-0.085348755 0.79799998 0.0041974802 1.4655005e-38 259 237
-0.083949596 0.79799998 0.0041974802 1.4742531e-38 260 237
-0.082550429 0.79799998 0.0041974802 1.4926923e-38 261 237
-0.081151277 0.79799998 0.0041974802 1.4744694e-38 262 237
-0.079552241 0.796 0.0041869599 1.4929444e-38 263 237
-0.078156583 0.796 0.0041869599 1.4929088e-38 264 237
-0.076953799 0.79799998 0.0041974802 1.4836892e-38 265 237
-0.075554639 0.79799998 0.0041974802 1.3638717e-38 266 237
-0.074155472 0.79799998 0.0041974802 1.2993348e-38 267 237
-0.072938666 0.80000001 0.0042079999 1.1979572e-38 268 237
-0.071535997 0.80000001 0.0042079999 1.1887376e-38 269 237
-0.070396326 0.80299997 0.0042237798 1.161044e-38 270 237
-0.06916023 0.80500001 0.0042343 1.161044e-38 271 237
-0.0677488 0.80500001 0.0042343 1.1150184e-38 272 237
-0.066502176 0.80699998 0.0042448197 1.1150184e-38 273 237
-0.10213868 0.79799998 0.0027983198 1.687541e-38 247 238
-0.10073951 0.79799998 0.0027983198 1.5031067e-38 248 238
-0.099589325 0.80000001 0.0028053334 1.244959e-38 249 238
-0.09794119 0.79799998 0.0027983198 1.5298599e-38 250 238
-0.096542038 0.79799998 0.0027983198 1.5759218e-38 251 238
-0.095381334 0.80000001 0.0028053334 1.5944321e-38 252 238
-0.093978666 0.80000001 0.0028053334 1.6312744e-38 253 238
-0.092575997 0.80000001 0.0028053334 1.6588961e-38 254 238
-0.091173328 0.80000001 0.0028053334 1.6681158e-38 255 238
-0.089546233 0.79799998 0.0027983198 1.6681508e-38 256 238
-0.088147074 0.79799998 0.0027983198 1.6312726e-38 257 238
-0.086747915 0.79799998 0.0027983198 1.5760624e-38 258 238
-0.085348755 0.79799998 0.0027983198 1.5023059e-38 259 238
-0.083739199 0.796 0.0027913067 1.5478646e-38 260 238
-0.082343549 0.796 0.0027913067 1.5478646e-38 261 238
-0.080947891 0.796 0.0027913067 1.4836879e-38 262 238
-0.079552241 0.796 0.0027913067 1.4929075e-38 263 238
-0.078156583 0.796 0.0027913067 1.4744696e-38 264 238
-0.076760925 0.796 0.0027913067 1.4376273e-38 265 238
-0.075365283 0.796 0.0027913067 1.3085551e-38 266 238
-0.074155472 0.79799998 0.0027983198 1.2347625e-38 267 238
-0.072938666 0.80000001 0.0028053334 1.1978853e-38 268 238
-0.071535997 0.80000001 0.0028053334 1.1886657e-38 269 238
-0.070396326 0.80299997 0.0028158531 1.1426764e-38 270 238
-0.06916023 0.80500001 0.0028228667 1.1242732e-38 271 238
-0.0677488 0.80500001 0.0028228667 1.1057632e-38 272 238
-0.066502176 0.80699998 0.0028298798 1.0781045e-38 273 238
-0.10213868 0.79799998 0.0013991599 1.6322592e-38 247 239
-0.10073951 0.79799998 0.0013991599 1.5029981e-38 248 239
-0.099340349 0.79799998 0.0013991599 1.3001677e-38 249 239
-0.09794119 0.79799998 0.0013991599 1.5850324e-38 250 239
-0.096542038 0.79799998 0.0013991599 1.6034716e-38 251 239
-0.095142879 0.79799998 0.0013991599 1.6219461e-38 252 239
-0.093743719 0.79799998 0.0013991599 1.6588242e-38 253 239
-0.092344552 0.79799998 0.0013991599 1.6680435e-38 254 239
-0.090945393 0.79799998 0.0013991599 1.6680435e-38 255 239
-0.089546233 0.79799998 0.0013991599 1.6588958e-38 256 239
-0.088147074 0.79799998 0.0013991599 1.6312731e-38 257 239
-0.086747915 0.79799998 0.0013991599 1.6035068e-38 258 239
-0.085134849 0.796 0.0013956534 1.5574091e-38 259 239
-0.083739199 0.796 0.0013956534 1.5297503e-38 260 239
-0.082343549 0.796 0.0013956534 1.5112753e-38 261 239
-0.080947891 0.796 0.0013956534 1.4746131e-38 262 239
-0.079552241 0.796 0.0013956534 1.4930163e-38 263 239
-0.078156583 0.796 0.0013956534 1.4191523e-38 264 239
-0.076760925 0.796 0.0013956534 1.3453958e-38 265 239
-0.075365283 0.796 0.0013956534 1.2531655e-38 266 239
-0.074155472 0.79799998 0.0013991599 1.2255067e-38 267 239
-0.072938666 0.80000001 0.0014026667 1.1886657e-38 268 239
-0.071535997 0.80000001 0.0014026667 1.1701906e-38 269 239
-0.070396326 0.80299997 0.0014079266 1.11509e-38 270 239
-0.06916023 0.80500001 0.0014114333 1.1058704e-38 271 239
-0.0677488 0.80500001 0.0014114333 1.0690297e-38 272 239
-0.10213868 0.79799998 -0 1.567722e-38 247 240
-0.10073951 0.79799998 -0 1.5121098e-38 248 240
-0.099340349 0.79799998 -0 1.3461578e-38 249 240
-0.097695731 0.796 -0 1.5667374e-38 250 240
-0.096300073 0.796 -0 1.5851767e-38 251 240
-0.095142879 0.79799998 -0 1.6036517e-38 252 240
-0.093743719 0.79799998 -0 1.6220548e-38 253 240
-0.092344552 0.79799998 -0 1.6405297e-38 254 240
-0.090945393 0.79799998 -0 1.6405297e-38 255 240
-0.089546233 0.79799998 -0 1.6680435e-38 256 240
-0.088147074 0.79799998 -0 1.6403848e-38 257 240
-0.086747915 0.79799998 -0 1.6310558e-38 258 240
-0.085134849 0.796 -0 1.6033971e-38 259 240
-0.083739199 0.796 -0 1.5665547e-38 260 240
-0.082343549 0.796 -0 1.5572993e-38 261 240
-0.080947891 0.796 -0 1.5113106e-38 262 240
-0.079552241 0.796 -0 1.4929075e-38 263 240
-0.078156583 0.796 -0 1.3363557e-38 264 240
-0.076760925 0.796 -0 1.2257568e-38 265 240
-0.075365283 0.796 -0 1.2071752e-38 266 240
-0.074155472 0.79799998 -0 1.1979556e-38 267 240
-0.072938666 0.80000001 -0 1.1426761e-38 268 240
-0.071535997 0.80000001 -0 1.1426761e-38 269 240
-0.070396326 0.80299997 -0 1.1150184e-38 270 240
-0.06916023 0.80500001 -0 1.0965792e-38 271 240
-0.10213868 0.79799998 -0.0013991599 1.5307714e-38 247 241
-0.10073951 0.79799998 -0.0013991599 1.5211846e-38 248 241
-0.099091381 0.796 -0.0013956534 1.3921107e-38 249 241
-0.097695731 0.796 -0.0013956534 1.5667362e-38 250 241
-0.096300073 0.796 -0.0013956534 1.5943589e-38 251 241
-0.094904423 0.796 -0.0013956534 1.6127262e-38 252 241
-0.093508773 0.796 -0.0013956534 1.6496043e-38 253 241
-0.092113115 0.796 -0.0013956534 1.6496043e-38 254 241
-0.090717465 0.796 -0.0013956534 1.6496043e-38 255 241
-0.089321814 0.796 -0.0013956534 1.6496041e-38 256 241
-0.087926157 0.796 -0.0013956534 1.6403845e-38 257 241
-0.086530507 0.796 -0.0013956534 1.6128337e-38 258 241
-0.085134849 0.796 -0.0013956534 1.5759555e-38 259 241
-0.083739199 0.796 -0.0013956534 1.5482612e-38 260 241
-0.082343549 0.796 -0.0013956534 1.5298219e-38 261 241
-0.080947891 0.796 -0.0013956534 1.4746129e-38 262 241
-0.079552241 0.796 -0.0013956534 1.4376986e-38 263 241
-0.078156583 0.796 -0.0013956534 1.2627074e-38 264 241
-0.076760925 0.796 -0.0013956534 1.1797313e-38 265 241
-0.075365283 0.796 -0.0013956534 1.1888079e-38 266 241
-0.074155472 0.79799998 -0.0013991599 1.1611494e-38 267 241
-0.072938666 0.80000001 -0.0014026667 1.1426764e-38 268 241
-0.071535997 0.80000001 -0.0014026667 1.1242732e-38 269 241
-0.070396326 0.80299997 -0.0014079266 1.1058354e-38 270 241
-0.10213868 0.79799998 -0.0027983198 1.5122601e-38 247 242
-0.10073951 0.79799998 -0.0027983198 1.4751221e-38 248 242
-0.099091381 0.796 -0.0027913067 1.3829265e-38 249 242
-0.097695731 0.796 -0.0027913067 1.5575526e-38 250 242
-0.096300073 0.796 -0.0027913067 1.5668081e-38 251 242
-0.094904423 0.796 -0.0027913067 1.6035432e-38 252 242
-0.093508773 0.796 -0.0027913067 1.6127987e-38 253 242
-0.092113115 0.796 -0.0027913067 1.622018e-38 254 242
-0.090717465 0.796 -0.0027913067 1.622018e-38 255 242
-0.089097388 0.79400003 -0.0027842934 1.6220533e-38 256 242
-0.08770524 0.79400003 -0.0027842934 1.6036142e-38 257 242
-0.086530507 0.796 -0.0027913067 1.6035421e-38 258 242
-0.085134849 0.796 -0.0027913067 1.5850671e-38 259 242
-0.083739199 0.796 -0.0027913067 1.5482246e-38 260 242
-0.082136653 0.79400003 -0.0027842934 1.5297853e-38 261 242
-0.080744505 0.79400003 -0.0027842934 1.4745403e-38 262 242
-0.079352364 0.79400003 -0.0027842934 1.4192229e-38 263 242
-0.078156583 0.796 -0.0027913067 1.2717474e-38 264 242
-0.076760925 0.796 -0.0027913067 1.1795158e-38 265 242
-0.075365283 0.796 -0.0027913067 1.1703339e-38 266 242
-0.074155472 0.79799998 -0.0027983198 1.1611144e-38 267 242
-0.072756313 0.79799998 -0.0027983198 1.1242735e-38 268 242
-0.071357153 0.79799998 -0.0027983198 1.1150181e-38 269 242
-0.070396326 0.80299997 -0.0028158531 1.0965083e-38 270 242
-0.1018827 0.796 -0.0041869599 1.484601e-38 247 243
-0.10048704 0.796 -0.0041869599 1.4381362e-38 248 243
-0.099091381 0.796 -0.0041869599 1.382819e-38 249 243
-0.097695731 0.796 -0.0041869599 1.5574457e-38 250 243
-0.096300073 0.796 -0.0041869599 1.5666653e-38 251 243
-0.094904423 0.796 -0.0041869599 1.5942884e-38 252 243
-0.093508773 0.796 -0.0041869599 1.6035438e-38 253 243
-0.091881685 0.79400003 -0.0041764397 1.6035435e-38 254 243
-0.090489529 0.79400003 -0.0041764397 1.6035435e-38 255 243
-0.089097388 0.79400003 -0.0041764397 1.585212e-38 256 243
-0.08770524 0.79400003 -0.0041764397 1.5667728e-38 257 243
-0.086313091 0.79400003 -0.0041764397 1.5666653e-38 258 243
-0.08492095 0.79400003 -0.0041764397 1.5482261e-38 259 243
-0.083528802 0.79400003 -0.0041764397 1.5297867e-38 260 243
-0.082136653 0.79400003 -0.0041764397 1.5021639e-38 261 243
-0.080744505 0.79400003 -0.0041764397 1.4652501e-38 262 243
-0.079352364 0.79400003 -0.0041764397 1.4007131e-38 263 243
-0.078156583 0.796 -0.0041869599 1.2715689e-38 264 243
-0.076760925 0.796 -0.0041869599 1.1701537e-38 265 243
-0.075365283 0.796 -0.0041869599 1.1701909e-38 266 243
-0.074155472 0.79799998 -0.0041974802 1.1609713e-38 267 243
-0.072756313 0.79799998 -0.0041974802 1.1333496e-38 268 243
-0.071357153 0.79799998 -0.0041974802 1.1057269e-38 269 243
-0.070308663 0.80199999 -0.0042185197 1.0779622e-38 270 243
-0.10353784 0.79799998 -0.0055966396 1.752004e-38 246 244
-0.1018827 0.796 -0.0055826134 1.4661976e-38 247 244
-0.10048704 0.796 -0.0055826134 1.4288445e-38 248 244
-0.099091381 0.796 -0.0055826134 1.373563e-38 249 244
-0.097695731 0.796 -0.0055826134 1.5206751e-38 250 244
-0.096300073 0.796 -0.0055826134 1.5391501e-38 251 244
-0.094904423 0.796 -0.0055826134 1.5666656e-38 252 244
-0.093273826 0.79400003 -0.0055685868 1.5758851e-38 253 244
-0.091881685 0.79400003 -0.0055685868 1.5759207e-38 254 244
-0.090489529 0.79400003 -0.0055685868 1.5666653e-38 255 244
-0.089097388 0.79400003 -0.0055685868 1.557481e-38 256 244
-0.087484315 0.792 -0.0055545596 1.5482615e-38 257 244
-0.086095676 0.792 -0.0055545596 1.5390066e-38 258 244
-0.084707037 0.792 -0.0055545596 1.5113838e-38 259 244
-0.083318397 0.792 -0.0055545596 1.5021283e-38 260 244
-0.082136653 0.79400003 -0.0055685868 1.5021283e-38 261 244
-0.080744505 0.79400003 -0.0055685868 1.4284087e-38 262 244
-0.079352364 0.79400003 -0.0055685868 1.3362491e-38 263 244
-0.078156583 0.796 -0.0055826134 1.216396e-38 264 244
-0.076760925 0.796 -0.0055826134 1.1518591e-38 265 244
-0.075365283 0.796 -0.0055826134 1.1518596e-38 266 244
-0.074155472 0.79799998 -0.0055966396 1.1333846e-38 267 244
-0.072756313 0.79799998 -0.0055966396 1.1057985e-38 268 244
-0.071357153 0.79799998 -0.0055966396 1.0781397e-38 269 244
-0.070308663 0.80199999 -0.0056246929 1.0318648e-38 270 244
-0.10327834 0.796 -0.0069782664 1.752004e-38 246 245
-0.1018827 0.796 -0.0069782664 1.4569781e-38 247 245
-0.10048704 0.796 -0.0069782664 1.4104054e-38 248 245
-0.099091381 0.796 -0.0069782664 1.373563e-38 249 245
-0.097695731 0.796 -0.0069782664 1.493089e-38 250 245
-0.096300073 0.796 -0.0069782664 1.5207117e-38 251 245
-0.094665974 0.79400003 -0.0069607338 1.5298599e-38 252 245
-0.093273826 0.79400003 -0.0069607338 1.5390795e-38 253 245
-0.091881685 0.79400003 -0.0069607338 1.5390792e-38 254 245
-0.090489529 0.79400003 -0.0069607338 1.5298596e-38 255 245
-0.088872954 0.792 -0.0069431998 1.5206754e-38 256 245
-0.087484315 0.792 -0.0069431998 1.5114558e-38 257 245
-0.086095676 0.792 -0.0069431998 1.5022002e-38 258 245
-0.084707037 0.792 -0.0069431998 1.4929807e-38 259 245
-0.083318397 0.792 -0.0069431998 1.4654296e-38 260 245
-0.082136653 0.79400003 -0.0069607338 1.45621e-38 261 245
-0.080744505 0.79400003 -0.0069607338 1.3915309e-38 262 245
-0.079352364 0.79400003 -0.0069607338 1.2901155e-38 263 245
-0.078156583 0.796 -0.0069782664 1.207177e-38 264 245
-0.076760925 0.796 -0.0069782664 1.1610793e-38 265 245
-0.075365283 0.796 -0.0069782664 1.124273e-38 266 245
-0.074155472 0.79799998 -0.0069957995 1.124273e-38 267 245
-0.072756313 0.79799998 -0.0069957995 1.096579e-38 268 245
-0.071357153 0.79799998 -0.0069957995 1.0412616e-38 269 245
-0.10301885 0.79400003 -0.0083528794 1.7612237e-38 246 246
-0.10162671 0.79400003 -0.0083528794 1.4477585e-38 247 246
-0.10048704 0.796 -0.0083739199 1.3735624e-38 248 246
-0.099091381 0.796 -0.0083739199 1.3551233e-38 249 246
-0.097695731 0.796 -0.0083739199 1.5022355e-38 250 246
-0.096300073 0.796 -0.0083739199 1.5114552e-38 251 246
-0.094665974 0.79400003 -0.0083528794 1.5297503e-38 252 246
-0.093273826 0.79400003 -0.0083528794 1.53897e-38 253 246
-0.091881685 0.79400003 -0.0083528794 1.52975e-38 254 246
-0.090489529 0.79400003 -0.0083528794 1.52975e-38 255 246
-0.088872954 0.792 -0.0083318399 1.502199e-38 256 246
-0.087484315 0.792 -0.0083318399 1.4929794e-38 257 246
-0.086095676 0.792 -0.0083318399 1.4837598e-38 258 246
-0.084707037 0.792 -0.0083318399 1.4837598e-38 259 246
-0.083318397 0.792 -0.0083318399 1.4193674e-38 260 246
-0.082136653 0.79400003 -0.0083528794 1.4101478e-38 261 246
-0.080744505 0.79400003 -0.0083528794 1.2995147e-38 262 246
-0.079352364 0.79400003 -0.0083528794 1.1889158e-38 263 246
-0.078156583 0.796 -0.0083739199 1.2161449e-38 264 246
-0.076760925 0.796 -0.0083739199 1.1976698e-38 265 246
-0.075365283 0.796 -0.0083739199 1.1426401e-38 266 246
-0.074155472 0.79799998 -0.0083949603 1.1241651e-38 267 246
-0.072756313 0.79799998 -0.0083949603 1.0781771e-38 268 246
-0.071357153 0.79799998 -0.0083949603 9.5835867e-39 269 246
-0.10301885 0.79400003 -0.0097450269 1.7337445e-38 246 247
-0.10162671 0.79400003 -0.0097450269 1.383437e-38 247 247
-0.10048704 0.796 -0.0097695729 1.3826741e-38 248 247
-0.099091381 0.796 -0.0097695729 1.3734545e-38 249 247
-0.097695731 0.796 -0.0097695729 1.474685e-38 250 247
-0.096058123 0.79400003 -0.0097450269 1.474685e-38 251 247
-0.094665974 0.79400003 -0.0097450269 1.5113838e-38 252 247
-0.093273826 0.79400003 -0.0097450269 1.5113838e-38 253 247
-0.091881685 0.79400003 -0.0097450269 1.4930163e-38 254 247
-0.090489529 0.79400003 -0.0097450269 1.4930163e-38 255 247
-0.088872954 0.792 -0.0097204801 1.4470984e-38 256 247
-0.087484315 0.792 -0.0097204801 1.4286592e-38 257 247
-0.086095676 0.792 -0.0097204801 1.4470258e-38 258 247
-0.084707037 0.792 -0.0097204801 1.4101475e-38 259 247
-0.083318397 0.792 -0.0097204801 1.4101112e-38 260 247
-0.082136653 0.79400003 -0.0097450269 1.3455743e-38 261 247
-0.080744505 0.79400003 -0.0097450269 1.2625642e-38 262 247
-0.079552241 0.796 -0.0097695729 1.1704046e-38 263 247
-0.078156583 0.796 -0.0097695729 1.1701906e-38 264 247
-0.076760925 0.796 -0.0097695729 1.160971e-38 265 247
-0.075554639 0.79799998 -0.0097941197 1.1150534e-38 266 247
-0.074155472 0.79799998 -0.0097941197 1.0966143e-38 267 247
-0.072756313 0.79799998 -0.0097941197 1.0594859e-38 268 247
-0.071357153 0.79799998 -0.0097941197 9.3963158e-39 269 247
-0.10162671 0.79400003 -0.011137174 1.3925486e-38 247 248
-0.10023456 0.79400003 -0.011137174 1.3826741e-38 248 248
-0.099091381 0.796 -0.011165227 1.3734545e-38 249 248
-0.097695731 0.796 -0.011165227 1.4746126e-38 250 248
-0.096058123 0.79400003 -0.011137174 1.465393e-38 251 248
-0.094665974 0.79400003 -0.011137174 1.4929075e-38 252 248
-0.093273826 0.79400003 -0.011137174 1.4929075e-38 253 248
-0.091881685 0.79400003 -0.011137174 1.4837242e-38 254 248
-0.090489529 0.79400003 -0.011137174 1.4745047e-38 255 248
-0.089097388 0.79400003 -0.011137174 1.4469902e-38 256 248
-0.087484315 0.792 -0.011109119 1.4285871e-38 257 248
-0.086095676 0.792 -0.011109119 1.4285141e-38 258 248
-0.084707037 0.792 -0.011109119 1.410111e-38 259 248
-0.083318397 0.792 -0.011109119 1.3823093e-38 260 248
-0.081929758 0.792 -0.011109119 1.2808941e-38 261 248
-0.080744505 0.79400003 -0.011137174 1.2439105e-38 262 248
-0.079352364 0.79400003 -0.011137174 1.1885933e-38 263 248
-0.078156583 0.796 -0.011165227 1.1701909e-38 264 248
-0.076760925 0.796 -0.011165227 1.1609713e-38 265 248
-0.075365283 0.796 -0.011165227 1.1058338e-38 266 248
-0.073969625 0.796 -0.011165227 1.078175e-38 267 248
-0.072756313 0.79799998 -0.011193279 9.6761481e-39 268 248
-0.10162671 0.79400003 -0.01252932 1.429319e-38 247 249
-0.10023456 0.79400003 -0.01252932 1.3826741e-38 248 249
-0.099091381 0.796 -0.01256088 1.3458318e-38 249 249
-0.097695731 0.796 -0.01256088 1.4653933e-38 250 249
-0.096058123 0.79400003 -0.01252932 1.4561737e-38 251 249
-0.094665974 0.79400003 -0.01252932 1.4837248e-38 252 249
-0.093273826 0.79400003 -0.01252932 1.4744694e-38 253 249
-0.091881685 0.79400003 -0.01252932 1.4561737e-38 254 249
-0.090261593 0.792 -0.012497759 1.4561737e-38 255 249
-0.088872954 0.792 -0.012497759 1.4193674e-38 256 249
-0.087484315 0.792 -0.012497759 1.4193674e-38 257 249
-0.086095676 0.792 -0.012497759 1.4008914e-38 258 249
-0.084707037 0.792 -0.012497759 1.3824521e-38 259 249
-0.083318397 0.792 -0.012497759 1.3455039e-38 260 249
-0.081929758 0.792 -0.012497759 1.2348332e-38 261 249
-0.080744505 0.79400003 -0.01252932 1.170443e-38 262 249
-0.079352364 0.79400003 -0.01252932 1.1335648e-38 263 249
-0.078156583 0.796 -0.01256088 1.1426045e-38 264 249
-0.076760925 0.796 -0.01256088 1.1333849e-38 265 249
-0.075365283 0.796 -0.01256088 1.096579e-38 266 249
-0.073969625 0.796 -0.01256088 1.0504812e-38 267 249
-0.10162671 0.79400003 -0.013921468 1.4660897e-38 247 250
-0.10023456 0.79400003 -0.013921468 1.3828546e-38 248 250
-0.099091381 0.796 -0.013956533 1.3090979e-38 249 250
-0.097695731 0.796 -0.013956533 1.4285518e-38 250 250
-0.096058123 0.79400003 -0.013921468 1.4285518e-38 251 250
-0.094665974 0.79400003 -0.013921468 1.4469186e-38 252 250
-0.093273826 0.79400003 -0.013921468 1.4376989e-38 253 250
-0.091881685 0.79400003 -0.013921468 1.4193671e-38 254 250
-0.090261593 0.792 -0.0138864 1.4193671e-38 255 250
-0.088872954 0.792 -0.0138864 1.4101475e-38 256 250
-0.087484315 0.792 -0.0138864 1.400928e-38 257 250
-0.086095676 0.792 -0.0138864 1.4008917e-38 258 250
-0.084707037 0.792 -0.0138864 1.373197e-38 259 250
-0.083318397 0.792 -0.0138864 1.2628163e-38 260 250
