# .PCD v.7 - Point Cloud Data file format
FIELDS x y z rgb imX imY
SIZE 4 4 4 4 4 4
TYPE F F F F F F
COUNT 1 1 1 1 1 1
WIDTH 847
HEIGHT 1
VIEWPOINT 0 0 0 1 0 0 0
POINTS 847
DATA ascii
-0.034964975 0.76700002 -0 1.8896374e-38 294 240
-0.033576332 0.76599997 -0 1.8988569e-38 295 240
-0.032233275 0.76599997 -0 1.8988567e-38 296 240
-0.030890226 0.76599997 -0 1.8896371e-38 297 240
-0.029470026 0.764 -0 1.8895305e-38 298 240
-0.028130481 0.764 -0 1.8803108e-38 299 240
-0.026790932 0.764 -0 1.8711279e-38 300 240
-0.025451386 0.764 -0 1.8526888e-38 301 240
-0.024111839 0.764 -0 1.862016e-38 302 240
-0.022772292 0.764 -0 1.862016e-38 303 240
-0.021432746 0.764 -0 1.852796e-38 304 240
-0.020093199 0.764 -0 1.8620157e-38 305 240
-0.018680012 0.76099998 -0 1.8803828e-38 306 240
-0.017345725 0.76099998 -0 1.8803828e-38 307 240
-0.016011439 0.76099998 -0 1.8803108e-38 308 240
-0.014677152 0.76099998 -0 1.8803108e-38 309 240
-0.0133078 0.759 -0 1.8711628e-38 310 240
-0.01197702 0.759 -0 1.8527597e-38 311 240
-0.01064624 0.759 -0 1.8711628e-38 312 240
-0.00931546 0.759 -0 1.8711628e-38 313 240
-0.0079846792 0.759 -0 1.8528316e-38 314 240
-0.0066363667 0.75700003 -0 1.8528316e-38 315 240
-0.0053090933 0.75700003 -0 1.8711625e-38 316 240
-0.0039818203 0.75700003 -0 1.8711625e-38 317 240
-0.0026545466 0.75700003 -0 1.8803455e-38 318 240
-0.0013272733 0.75700003 -0 1.8803455e-38 319 240
0 0.75700003 -0 1.8803455e-38 320 240
0.0013237667 0.755 -0 1.8895652e-38 321 240
0.0026440267 0.75400001 -0 1.9079683e-38 322 240
0.0039555198 0.75199997 -0 1.9079683e-38 323 240
0.0052740262 0.75199997 -0 1.907932e-38 324 240
0.0065925326 0.75199997 -0 1.907932e-38 325 240
0.0079110395 0.75199997 -0 1.8987118e-38 326 240
0.0092295464 0.75199997 -0 1.9079674e-38 327 240
0.01052 0.75 -0 1.9263339e-38 328 240
0.011835 0.75 -0 1.9078948e-38 329 240
0.01315 0.75 -0 1.9262969e-38 330 240
0.014465 0.75 -0 1.9170773e-38 331 240
0.01575896 0.74900001 -0 1.9446987e-38 332 240
0.017072206 0.74900001 -0 1.9446987e-38 333 240
0.018336359 0.74699998 -0 1.9446987e-38 334 240
0.019619798 0.74599999 -0 1.9262598e-38 335 240
0.02087168 0.74400002 -0 1.9170773e-38 336 240
0.022176161 0.74400002 -0 1.9078219e-38 337 240
0.023543758 0.74599999 -0 1.8986029e-38 338 240
0.024851745 0.74599999 -0 1.8801639e-38 339 240
0.026159734 0.74599999 -0 1.8801642e-38 340 240
0.027504537 0.74699998 -0 1.8709446e-38 341 240
0.028814279 0.74699998 -0 1.880201e-38 342 240
0.030124018 0.74699998 -0 1.880201e-38 343 240
0.031433757 0.74699998 -0 1.8526908e-38 344 240
0.032743499 0.74699998 -0 1.8987884e-38 345 240
0.033825304 0.74199998 -0 1.8987589e-38 346 240
0.03512628 0.74199998 -0 1.9632958e-38 347 240
-0.043146025 0.76899999 -0.0013483133 1.6870291e-38 288 241
-0.041689005 0.76700002 -0.0013448066 1.7331629e-38 289 241
-0.040344197 0.76700002 -0.0013448066 1.8433989e-38 290 241
-0.038999394 0.76700002 -0.0013448066 1.8433989e-38 291 241
-0.037605491 0.76599997 -0.0013430532 1.8526888e-38 292 241
-0.036262438 0.76599997 -0.0013430532 1.8526888e-38 293 241
-0.034919381 0.76599997 -0.0013430532 1.8710909e-38 294 241
-0.033576332 0.76599997 -0.0013430532 1.8710909e-38 295 241
-0.032233275 0.76599997 -0.0013430532 1.8894224e-38 296 241
-0.030890226 0.76599997 -0.0013430532 1.880167e-38 297 241
-0.029470026 0.764 -0.0013395466 1.8617642e-38 298 241
-0.028130481 0.764 -0.0013395466 1.8617642e-38 299 241
-0.026790932 0.764 -0.0013395466 1.8618358e-38 300 241
-0.025451386 0.764 -0.0013395466 1.8526162e-38 301 241
-0.024111839 0.764 -0.0013395466 1.8526159e-38 302 241
-0.022772292 0.764 -0.0013395466 1.8618714e-38 303 241
-0.021432746 0.764 -0.0013395466 1.8342847e-38 304 241
-0.0200406 0.76200002 -0.00133604 1.8342847e-38 305 241
-0.018680012 0.76099998 -0.0013342865 1.8617995e-38 306 241
-0.017345725 0.76099998 -0.0013342865 1.8802026e-38 307 241
-0.015969358 0.759 -0.00133078 1.8802023e-38 308 241
-0.014638579 0.759 -0.00133078 1.8617992e-38 309 241
-0.0133078 0.759 -0.00133078 1.8618345e-38 310 241
-0.01197702 0.759 -0.00133078 1.8618345e-38 311 241
-0.01064624 0.759 -0.00133078 1.8618342e-38 312 241
-0.00931546 0.759 -0.00133078 1.8618342e-38 313 241
-0.0079846792 0.759 -0.00133078 1.8617989e-38 314 241
-0.0066363667 0.75700003 -0.0013272733 1.8617989e-38 315 241
-0.0053090933 0.75700003 -0.0013272733 1.8617989e-38 316 241
-0.0039818203 0.75700003 -0.0013272733 1.8617989e-38 317 241
-0.0026545466 0.75700003 -0.0013272733 1.8801654e-38 318 241
-0.0013237667 0.755 -0.0013237667 1.8801654e-38 319 241
0 0.755 -0.0013237667 1.8618345e-38 320 241
0.0013220133 0.75400001 -0.0013220133 1.8894572e-38 321 241
0.0026440267 0.75400001 -0.0013220133 1.8986051e-38 322 241
0.0039555198 0.75199997 -0.0013185065 1.9078247e-38 323 241
0.0052740262 0.75199997 -0.0013185065 1.9078603e-38 324 241
0.0065925326 0.75199997 -0.0013185065 1.9078603e-38 325 241
0.0079110395 0.75199997 -0.0013185065 1.9078964e-38 326 241
0.0092049995 0.75 -0.001315 1.8986767e-38 327 241
0.01052 0.75 -0.001315 1.9078964e-38 328 241
0.01181922 0.74900001 -0.0013132467 1.9078964e-38 329 241
0.013132467 0.74900001 -0.0013132467 1.9262633e-38 330 241
0.014445714 0.74900001 -0.0013132467 1.9262633e-38 331 241
0.015716879 0.74699998 -0.0013097399 1.9262266e-38 332 241
0.017026618 0.74699998 -0.0013097399 1.9354463e-38 333 241
0.018311813 0.74599999 -0.0013079866 1.9354816e-38 334 241
0.019619798 0.74599999 -0.0013079866 1.9262619e-38 335 241
0.02087168 0.74400002 -0.00130448 1.8987471e-38 336 241
0.022176161 0.74400002 -0.00130448 1.8987471e-38 337 241
0.023543758 0.74599999 -0.0013079866 1.8895631e-38 338 241
0.024851745 0.74599999 -0.0013079866 1.8895631e-38 339 241
0.026159734 0.74599999 -0.0013079866 1.9445931e-38 340 241
0.027467718 0.74599999 -0.0013079866 1.92619e-38 341 241
0.028775707 0.74599999 -0.0013079866 1.8893853e-38 342 241
0.03008369 0.74599999 -0.0013079866 1.8801657e-38 343 241
0.031391677 0.74599999 -0.0013079866 1.8617288e-38 344 241
0.032524332 0.74199998 -0.0013009732 1.8617288e-38 345 241
0.033825304 0.74199998 -0.0013009732 1.8247099e-38 346 241
0.03512628 0.74199998 -0.0013009732 1.7970512e-38 347 241
0.036378156 0.741 -0.0012992199 1.7604636e-38 348 241
-0.04437862 0.76700002 -0.0026896133 1.7784696e-38 287 242
-0.042977702 0.76599997 -0.0026861064 1.806485e-38 288 242
-0.041525945 0.764 -0.0026790933 1.8526187e-38 289 242
-0.040186398 0.764 -0.0026790933 1.8527241e-38 290 242
-0.038846854 0.764 -0.0026790933 1.8527241e-38 291 242
-0.037507307 0.764 -0.0026790933 1.8435399e-38 292 242
-0.036167759 0.764 -0.0026790933 1.8435399e-38 293 242
-0.034828212 0.764 -0.0026790933 1.8526162e-38 294 242
-0.033488665 0.764 -0.0026790933 1.8433966e-38 295 242
-0.032149121 0.764 -0.0026790933 1.8249582e-38 296 242
-0.030809574 0.764 -0.0026790933 1.8249582e-38 297 242
-0.029470026 0.764 -0.0026790933 1.7973354e-38 298 242
-0.028130481 0.764 -0.0026790933 1.7973354e-38 299 242
-0.026790932 0.764 -0.0026790933 1.788259e-38 300 242
-0.025451386 0.764 -0.0026790933 1.788259e-38 301 242
-0.024111839 0.764 -0.0026790933 1.8065903e-38 302 242
-0.022772292 0.764 -0.0026790933 1.8158459e-38 303 242
-0.02137664 0.76200002 -0.00267208 1.8158105e-38 304 242
-0.0200406 0.76200002 -0.00267208 1.806591e-38 305 242
-0.01863092 0.759 -0.00266156 1.7790042e-38 306 242
-0.017300138 0.759 -0.00266156 1.7974793e-38 307 242
-0.015969358 0.759 -0.00266156 1.8066259e-38 308 242
-0.014638579 0.759 -0.00266156 1.8066259e-38 309 242
-0.013272733 0.75700003 -0.0026545466 1.7973692e-38 310 242
-0.01194546 0.75700003 -0.0026545466 1.7973692e-38 311 242
-0.010618187 0.75700003 -0.0026545466 1.7973692e-38 312 242
-0.0092909131 0.75700003 -0.0026545466 1.7973692e-38 313 242
-0.0079636406 0.75700003 -0.0026545466 1.8065537e-38 314 242
-0.0066188332 0.755 -0.0026475333 1.8065537e-38 315 242
-0.0052950666 0.755 -0.0026475333 1.8065907e-38 316 242
-0.0039712996 0.755 -0.0026475333 1.8065907e-38 317 242
-0.0026475333 0.755 -0.0026475333 1.8340696e-38 318 242
-0.0013237667 0.755 -0.0026475333 1.843325e-38 319 242
0 0.75400001 -0.0026440267 1.8249935e-38 320 242
0.0013220133 0.75400001 -0.0026440267 1.8433966e-38 321 242
0.0026370131 0.75199997 -0.0026370131 1.8525796e-38 322 242
0.0039555198 0.75199997 -0.0026370131 1.8617992e-38 323 242
0.0052740262 0.75199997 -0.0026370131 1.8802379e-38 324 242
0.0065925326 0.75199997 -0.0026370131 1.8802379e-38 325 242
0.0079110395 0.75199997 -0.0026370131 1.8618708e-38 326 242
0.0092049995 0.75 -0.00263 1.8618708e-38 327 242
0.01052 0.75 -0.00263 1.8894572e-38 328 242
0.01181922 0.74900001 -0.0026264933 1.8894572e-38 329 242
0.013132467 0.74900001 -0.0026264933 1.8894572e-38 330 242
0.014445714 0.74900001 -0.0026264933 1.8986767e-38 331 242
0.015716879 0.74699998 -0.0026194798 1.926191e-38 332 242
0.017026618 0.74699998 -0.0026194798 1.926191e-38 333 242
0.018311813 0.74599999 -0.0026159731 1.9262266e-38 334 242
0.019619798 0.74599999 -0.0026159731 1.9354463e-38 335 242
0.02087168 0.74400002 -0.00260896 1.907895e-38 336 242
0.022176161 0.74400002 -0.00260896 1.907895e-38 337 242
0.023543758 0.74599999 -0.0026159731 1.8987108e-38 338 242
0.024851745 0.74599999 -0.0026159731 1.8987108e-38 339 242
0.026159734 0.74599999 -0.0026159731 1.9170417e-38 340 242
0.027394081 0.74400002 -0.00260896 1.9078222e-38 341 242
0.02869856 0.74400002 -0.00260896 1.92619e-38 342 242
0.029922385 0.74199998 -0.0026019465 1.9169704e-38 343 242
0.031223357 0.74199998 -0.0026019465 1.9077521e-38 344 242
0.032524332 0.74199998 -0.0026019465 1.8800936e-38 345 242
0.033779722 0.741 -0.0025984398 1.8523997e-38 346 242
0.035078939 0.741 -0.0025984398 1.8339247e-38 347 242
0.036378156 0.741 -0.0025984398 1.7788247e-38 348 242
0.037423145 0.736 -0.0025809065 1.7880442e-38 349 242
-0.051102653 0.76700002 -0.00403442 1.8512195e-38 282 243
-0.049757849 0.76700002 -0.00403442 1.8328164e-38 283 243
-0.045723427 0.76700002 -0.00403442 1.7974102e-38 286 243
-0.044320758 0.76599997 -0.0040291594 1.8711667e-38 287 243
-0.042865492 0.764 -0.0040186401 1.9078635e-38 288 243
-0.041525945 0.764 -0.0040186401 1.880205e-38 289 243
-0.040186398 0.764 -0.0040186401 1.8435048e-38 290 243
-0.038846854 0.764 -0.0040186401 1.8342853e-38 291 243
-0.037507307 0.764 -0.0040186401 1.8433964e-38 292 243
-0.036167759 0.764 -0.0040186401 1.8249932e-38 293 243
-0.034828212 0.764 -0.0040186401 1.8432878e-38 294 243
-0.033488665 0.764 -0.0040186401 1.8248486e-38 295 243
-0.032149121 0.764 -0.0040186401 1.8155935e-38 296 243
-0.030809574 0.764 -0.0040186401 1.8155935e-38 297 243
-0.029392879 0.76200002 -0.0040081199 1.7605285e-38 298 243
-0.028056841 0.76200002 -0.0040081199 1.7420535e-38 299 243
-0.026790932 0.764 -0.0040186401 1.7237222e-38 300 243
-0.025451386 0.764 -0.0040186401 1.7145025e-38 301 243
-0.02404872 0.76200002 -0.0040081199 1.7604919e-38 302 243
-0.02271268 0.76200002 -0.0040081199 1.778895e-38 303 243
-0.02137664 0.76200002 -0.0040081199 1.7788228e-38 304 243
-0.0200406 0.76200002 -0.0040081199 1.7788228e-38 305 243
-0.01863092 0.759 -0.0039923396 1.7421242e-38 306 243
-0.017300138 0.759 -0.0039923396 1.7513439e-38 307 243
-0.015969358 0.759 -0.0039923396 1.7605985e-38 308 243
-0.014638579 0.759 -0.0039923396 1.751379e-38 309 243
-0.013272733 0.75700003 -0.0039818203 1.7511988e-38 310 243
-0.01194546 0.75700003 -0.0039818203 1.7604183e-38 311 243
-0.010590133 0.755 -0.0039712996 1.7145007e-38 312 243
-0.0092663663 0.755 -0.0039712996 1.7145007e-38 313 243
-0.0079425992 0.755 -0.0039712996 1.7328688e-38 314 243
-0.0066188332 0.755 -0.0039712996 1.7421242e-38 315 243
-0.0052950666 0.755 -0.0039712996 1.751237e-38 316 243
-0.0039712996 0.755 -0.0039712996 1.7604566e-38 317 243
-0.0026475333 0.755 -0.0039712996 1.788043e-38 318 243
-0.0013237667 0.755 -0.0039712996 1.788043e-38 319 243
0 0.75400001 -0.00396604 1.7881143e-38 320 243
0.0013220133 0.75400001 -0.00396604 1.7973339e-38 321 243
0.0026370131 0.75199997 -0.0039555198 1.8340679e-38 322 243
0.0039555198 0.75199997 -0.0039555198 1.8433234e-38 323 243
0.0052740262 0.75199997 -0.0039555198 1.8433598e-38 324 243
0.006575 0.75 -0.003945 1.8525793e-38 325 243
0.00789 0.75 -0.003945 1.8525793e-38 326 243
0.0092049995 0.75 -0.003945 1.8525793e-38 327 243
0.010505973 0.74900001 -0.0039397399 1.8525793e-38 328 243
0.011787659 0.74699998 -0.0039292197 1.8525793e-38 329 243
0.013097399 0.74699998 -0.0039292197 1.8617989e-38 330 243
0.014407139 0.74699998 -0.0039292197 1.8802379e-38 331 243
0.015695838 0.74599999 -0.0039239596 1.8893853e-38 332 243
0.017003827 0.74599999 -0.0039239596 1.8986049e-38 333 243
0.018311813 0.74599999 -0.0039239596 1.8893856e-38 334 243
0.019619798 0.74599999 -0.0039239596 1.8986051e-38 335 243
0.02087168 0.74400002 -0.0039134403 1.8986049e-38 336 243
0.022176161 0.74400002 -0.0039134403 1.8893853e-38 337 243
0.023480639 0.74400002 -0.0039134403 1.8986402e-38 338 243
0.02478512 0.74400002 -0.0039134403 1.8894206e-38 339 243
0.026089599 0.74400002 -0.0039134403 1.8894559e-38 340 243
0.027320439 0.74199998 -0.0039029196 1.8894559e-38 341 243
0.028621411 0.74199998 -0.0039029196 1.917007e-38 342 243
0.029922385 0.74199998 -0.0039029196 1.9077874e-38 343 243
0.031223357 0.74199998 -0.0039029196 1.917007e-38 344 243
0.032524332 0.74199998 -0.0039029196 1.9077874e-38 345 243
0.033688545 0.73900002 -0.00388714 1.9077153e-38 346 243
0.034936916 0.73799998 -0.0038818798 1.8892761e-38 347 243
0.036230877 0.73799998 -0.0038818798 1.8617263e-38 348 243
0.037423145 0.736 -0.0038713599 1.8433231e-38 349 243
0.038713597 0.736 -0.0038713599 1.8155584e-38 350 243
0.040004052 0.736 -0.0038713599 1.7694606e-38 351 243
0.041294504 0.736 -0.0038713599 1.7141452e-38 352 243
0.042584959 0.736 -0.0038713599 1.7049256e-38 353 243
0.043756187 0.73400003 -0.0038608401 1.6777023e-38 354 243
0.045043133 0.73400003 -0.0038608401 1.7699338e-38 355 243
-0.052379075 0.76599997 -0.0053722127 1.7597096e-38 281 244
-0.051036026 0.76599997 -0.0053722127 1.6952767e-38 282 244
-0.04969297 0.76599997 -0.0053722127 1.7413744e-38 283 244
-0.048349917 0.76599997 -0.0053722127 1.7510958e-38 284 244
-0.047006864 0.76599997 -0.0053722127 1.8248881e-38 285 244
-0.045425359 0.76200002 -0.0053441599 1.8342868e-38 286 244
-0.044089317 0.76200002 -0.0053441599 1.8435064e-38 287 244
-0.042753279 0.76200002 -0.0053441599 1.8710559e-38 288 244
-0.041417241 0.76200002 -0.0053441599 1.8525809e-38 289 244
-0.040081199 0.76200002 -0.0053441599 1.8249935e-38 290 244
-0.038745161 0.76200002 -0.0053441599 1.8065184e-38 291 244
-0.037409119 0.76200002 -0.0053441599 1.8156654e-38 292 244
-0.036073081 0.76200002 -0.0053441599 1.7880427e-38 293 244
-0.034737039 0.76200002 -0.0053441599 1.7971529e-38 294 244
-0.033401001 0.76200002 -0.0053441599 1.7786779e-38 295 244
-0.032064959 0.76200002 -0.0053441599 1.7510916e-38 296 244
-0.030728921 0.76200002 -0.0053441599 1.7510916e-38 297 244
-0.029392879 0.76200002 -0.0053441599 1.6867717e-38 298 244
-0.028056841 0.76200002 -0.0053441599 1.6406739e-38 299 244
-0.0267208 0.76200002 -0.0053441599 1.6406739e-38 300 244
-0.02538476 0.76200002 -0.0053441599 1.6314543e-38 301 244
-0.02404872 0.76200002 -0.0053441599 1.6314175e-38 302 244
-0.02271268 0.76200002 -0.0053441599 1.6314175e-38 303 244
-0.02137664 0.76200002 -0.0053441599 1.6498196e-38 304 244
-0.020014299 0.76099998 -0.0053371461 1.6682587e-38 305 244
-0.01863092 0.759 -0.0053231199 1.6408161e-38 306 244
-0.017300138 0.759 -0.0053231199 1.6408161e-38 307 244
-0.015927281 0.75700003 -0.0053090933 1.6684025e-38 308 244
-0.014600007 0.75700003 -0.0053090933 1.6499994e-38 309 244
-0.013237666 0.755 -0.0052950666 1.6315602e-38 310 244
-0.011913899 0.755 -0.0052950666 1.6407798e-38 311 244
-0.010590133 0.755 -0.0052950666 1.6132656e-38 312 244
-0.0092663663 0.755 -0.0052950666 1.6132656e-38 313 244
-0.0079425992 0.755 -0.0052950666 1.61323e-38 314 244
-0.0066100666 0.75400001 -0.0052880533 1.6224496e-38 315 244
-0.0052880533 0.75400001 -0.0052880533 1.6499287e-38 316 244
-0.0039712996 0.755 -0.0052950666 1.6683319e-38 317 244
-0.0026475333 0.755 -0.0052950666 1.6775154e-38 318 244
-0.0013220133 0.75400001 -0.0052880533 1.6959547e-38 319 244
0 0.75400001 -0.0052880533 1.7052461e-38 320 244
0.0013185065 0.75199997 -0.0052740262 1.7328688e-38 321 244
0.0026370131 0.75199997 -0.0052740262 1.7604919e-38 322 244
0.0039555198 0.75199997 -0.0052740262 1.7881146e-38 323 244
0.0052740262 0.75199997 -0.0052740262 1.7697478e-38 324 244
0.006575 0.75 -0.00526 1.7697478e-38 325 244
0.00789 0.75 -0.00526 1.8065537e-38 326 244
0.0091927266 0.74900001 -0.0052529867 1.8065537e-38 327 244
0.010477919 0.74699998 -0.0052389596 1.7974057e-38 328 244
0.011787659 0.74699998 -0.0052389596 1.8066612e-38 329 244
0.013097399 0.74699998 -0.0052389596 1.8251002e-38 330 244
0.014387853 0.74599999 -0.0052319462 1.8251002e-38 331 244
0.015695838 0.74599999 -0.0052319462 1.8801657e-38 332 244
0.017003827 0.74599999 -0.0052319462 1.8801657e-38 333 244
0.01826272 0.74400002 -0.0052179201 1.8801657e-38 334 244
0.019567199 0.74400002 -0.0052179201 1.8893853e-38 335 244
0.020815572 0.74199998 -0.0052038929 1.8893856e-38 336 244
0.022116546 0.74199998 -0.0052038929 1.880166e-38 337 244
0.023417519 0.74199998 -0.0052038929 1.8802729e-38 338 244
0.024718491 0.74199998 -0.0052038929 1.8618698e-38 339 244
0.026019465 0.74199998 -0.0052038929 1.8802364e-38 340 244
0.027320439 0.74199998 -0.0052038929 1.8894559e-38 341 244
0.028621411 0.74199998 -0.0052038929 1.9077518e-38 342 244
0.029922385 0.74199998 -0.0052038929 1.9169714e-38 343 244
0.031223357 0.74199998 -0.0052038929 1.917007e-38 344 244
0.032480497 0.741 -0.0051968796 1.917007e-38 345 244
0.033688545 0.73900002 -0.0051828534 1.9077869e-38 346 244
0.034936916 0.73799998 -0.0051758396 1.8985673e-38 347 244
0.036230877 0.73799998 -0.0051758396 1.8802364e-38 348 244
0.037423145 0.736 -0.005161813 1.8802364e-38 349 244
0.038713597 0.736 -0.005161813 1.8983888e-38 350 244
0.040004052 0.736 -0.005161813 1.8706941e-38 351 244
0.041294504 0.736 -0.005161813 1.8155569e-38 352 244
0.042584959 0.736 -0.005161813 1.8063373e-38 353 244
0.043756187 0.73400003 -0.0051477868 1.760386e-38 354 244
0.045043133 0.73400003 -0.0051477868 1.7972641e-38 355 244
0.046330083 0.73400003 -0.0051477868 1.7421677e-38 356 244
0.048903972 0.73400003 -0.0051477868 1.7975974e-38 358 244
0.050122537 0.73299998 -0.005140773 1.8345116e-38 359 244
0.051407732 0.73299998 -0.005140773 1.8347652e-38 360 244
-0.053722132 0.76599997 -0.0067152665 1.7971623e-38 280 245
-0.052379075 0.76599997 -0.0067152665 1.7234058e-38 281 245
-0.051036026 0.76599997 -0.0067152665 1.6865941e-38 282 245
-0.049563225 0.764 -0.006697733 1.7511311e-38 283 245
-0.048223678 0.764 -0.006697733 1.7514184e-38 284 245
-0.046884131 0.764 -0.006697733 1.8067357e-38 285 245
-0.045425359 0.76200002 -0.0066801999 1.8248876e-38 286 245
-0.044089317 0.76200002 -0.0066801999 1.815668e-38 287 245
-0.042753279 0.76200002 -0.0066801999 1.8249582e-38 288 245
-0.041417241 0.76200002 -0.0066801999 1.8065189e-38 289 245
-0.040081199 0.76200002 -0.0066801999 1.788079e-38 290 245
-0.038745161 0.76200002 -0.0066801999 1.7788594e-38 291 245
-0.037409119 0.76200002 -0.0066801999 1.7696031e-38 292 245
-0.036073081 0.76200002 -0.0066801999 1.751164e-38 293 245
-0.034737039 0.76200002 -0.0066801999 1.7234327e-38 294 245
-0.033401001 0.76200002 -0.0066801999 1.6865546e-38 295 245
-0.032064959 0.76200002 -0.0066801999 1.6681505e-38 296 245
-0.030728921 0.76200002 -0.0066801999 1.6313082e-38 297 245
-0.029392879 0.76200002 -0.0066801999 1.5394016e-38 298 245
-0.028056841 0.76200002 -0.0066801999 1.5117428e-38 299 245
-0.0267208 0.76200002 -0.0066801999 1.5024173e-38 300 245
-0.025351444 0.76099998 -0.0066714329 1.5116368e-38 301 245
-0.024017159 0.76099998 -0.0066714329 1.5208554e-38 302 245
-0.022682872 0.76099998 -0.0066714329 1.5208554e-38 303 245
-0.021348584 0.76099998 -0.0066714329 1.5392933e-38 304 245
-0.020014299 0.76099998 -0.0066714329 1.5392933e-38 305 245
-0.018581826 0.75700003 -0.0066363667 1.5577682e-38 306 245
-0.017254554 0.75700003 -0.0066363667 1.5577682e-38 307 245
-0.015885198 0.755 -0.0066188332 1.5577328e-38 308 245
-0.014561433 0.755 -0.0066188332 1.5577328e-38 309 245
-0.013237666 0.755 -0.0066188332 1.5394019e-38 310 245
-0.011913899 0.755 -0.0066188332 1.5301465e-38 311 245
-0.010576107 0.75400001 -0.0066100666 1.5302183e-38 312 245
-0.0092540924 0.75400001 -0.0066100666 1.5302183e-38 313 245
-0.00793208 0.75400001 -0.0066100666 1.5394382e-38 314 245
-0.0066100666 0.75400001 -0.0066100666 1.5394382e-38 315 245
-0.0052880533 0.75400001 -0.0066100666 1.5670248e-38 316 245
-0.00396604 0.75400001 -0.0066100666 1.5670248e-38 317 245
-0.0026440267 0.75400001 -0.0066100666 1.5853921e-38 318 245
-0.0013220133 0.75400001 -0.0066100666 1.6130149e-38 319 245
0 0.75199997 -0.0065925326 1.6131231e-38 320 245
0.0013185065 0.75199997 -0.0065925326 1.6407458e-38 321 245
0.0026370131 0.75199997 -0.0065925326 1.6684051e-38 322 245
0.0039555198 0.75199997 -0.0065925326 1.6960278e-38 323 245
0.00526 0.75 -0.006575 1.7052108e-38 324 245
0.0065662335 0.74900001 -0.0065662335 1.7144304e-38 325 245
0.0078794798 0.74900001 -0.0065662335 1.7328688e-38 326 245
0.0091681797 0.74699998 -0.0065486995 1.7513439e-38 327 245
0.010477919 0.74699998 -0.0065486995 1.7513439e-38 328 245
0.011787659 0.74699998 -0.0065486995 1.7605635e-38 329 245
0.013079867 0.74599999 -0.0065399334 1.7974766e-38 330 245
0.014387853 0.74599999 -0.0065399334 1.7974766e-38 331 245
0.015695838 0.74599999 -0.0065399334 1.8341751e-38 332 245
0.016958239 0.74400002 -0.0065223998 1.8341751e-38 333 245
0.01826272 0.74400002 -0.0065223998 1.8250286e-38 334 245
0.0195146 0.74199998 -0.0065048663 1.8434317e-38 335 245
0.020815572 0.74199998 -0.0065048663 1.8525443e-38 336 245
0.022116546 0.74199998 -0.0065048663 1.8525443e-38 337 245
0.023417519 0.74199998 -0.0065048663 1.8525793e-38 338 245
0.024718491 0.74199998 -0.0065048663 1.8525793e-38 339 245
0.026019465 0.74199998 -0.0065048663 1.8618345e-38 340 245
0.027320439 0.74199998 -0.0065048663 1.8618345e-38 341 245
0.028621411 0.74199998 -0.0065048663 1.8617989e-38 342 245
0.029882059 0.741 -0.0064960998 1.8802379e-38 343 245
0.03118128 0.741 -0.0064960998 1.8986049e-38 344 245
0.032480497 0.741 -0.0064960998 1.8986049e-38 345 245
0.033642959 0.73799998 -0.0064697997 1.8986758e-38 346 245
0.034936916 0.73799998 -0.0064697997 1.8986758e-38 347 245
0.036132693 0.736 -0.0064522666 1.9077869e-38 348 245
0.037423145 0.736 -0.0064522666 1.8985673e-38 349 245
0.038608398 0.73400003 -0.006434733 1.907715e-38 350 245
0.039895348 0.73400003 -0.006434733 1.8984954e-38 351 245
0.041182294 0.73400003 -0.006434733 1.8892035e-38 352 245
0.042469237 0.73400003 -0.006434733 1.8892035e-38 353 245
0.043756187 0.73400003 -0.006434733 1.843178e-38 354 245
0.045043133 0.73400003 -0.006434733 1.8247389e-38 355 245
0.046330083 0.73400003 -0.006434733 1.7787511e-38 356 245
0.047617026 0.73400003 -0.006434733 1.7787511e-38 357 245
0.048903972 0.73400003 -0.006434733 1.7328736e-38 358 245
0.050122537 0.73299998 -0.0064259665 1.769752e-38 359 245
0.051407732 0.73299998 -0.0064259665 1.8068876e-38 360 245
0.052764814 0.73400003 -0.006434733 1.8806441e-38 361 245
-0.055065181 0.76599997 -0.0080583189 1.7236244e-38 279 246
-0.053581864 0.764 -0.0080372803 1.6685181e-38 280 246
-0.052242316 0.764 -0.0080372803 1.6869572e-38 281 246
-0.050902773 0.764 -0.0080372803 1.7422704e-38 282 246
-0.049563225 0.764 -0.0080372803 1.7607097e-38 283 246
-0.048223678 0.764 -0.0080372803 1.7422701e-38 284 246
-0.046761397 0.76200002 -0.0080162399 1.723867e-38 285 246
-0.045425359 0.76200002 -0.0080162399 1.7420184e-38 286 246
-0.044089317 0.76200002 -0.0080162399 1.7327987e-38 287 246
-0.042753279 0.76200002 -0.0080162399 1.7419817e-38 288 246
-0.041417241 0.76200002 -0.0080162399 1.7327622e-38 289 246
-0.040081199 0.76200002 -0.0080162399 1.7143581e-38 290 246
-0.038694311 0.76099998 -0.0080057196 1.6866994e-38 291 246
-0.037360024 0.76099998 -0.0080057196 1.6682956e-38 292 246
-0.036025736 0.76099998 -0.0080057196 1.5945391e-38 293 246
-0.034691449 0.76099998 -0.0080057196 1.5114163e-38 294 246
-0.033357166 0.76099998 -0.0080057196 1.3454641e-38 295 246
-0.032022879 0.76099998 -0.0080057196 1.2992212e-38 296 246
-0.030688593 0.76099998 -0.0080057196 1.2807823e-38 297 246
-0.029354304 0.76099998 -0.0080057196 1.2074578e-38 298 246
-0.028020019 0.76099998 -0.0080057196 1.2719948e-38 299 246
-0.026685731 0.76099998 -0.0080057196 1.336751e-38 300 246
-0.025351444 0.76099998 -0.0080057196 1.3920684e-38 301 246
-0.024017159 0.76099998 -0.0080057196 1.4287684e-38 302 246
-0.02262326 0.759 -0.0079846792 1.4380238e-38 303 246
-0.02129248 0.759 -0.0079846792 1.4563548e-38 304 246
-0.0199617 0.759 -0.0079846792 1.4655745e-38 305 246
-0.018532733 0.755 -0.0079425992 1.4656098e-38 306 246
-0.017208965 0.755 -0.0079425992 1.4656098e-38 307 246
-0.015885198 0.755 -0.0079425992 1.4563535e-38 308 246
-0.014561433 0.755 -0.0079425992 1.4563535e-38 309 246
-0.013237666 0.755 -0.0079425992 1.4380942e-38 310 246
-0.01189812 0.75400001 -0.00793208 1.4564974e-38 311 246
-0.010576107 0.75400001 -0.00793208 1.4473149e-38 312 246
-0.0092540924 0.75400001 -0.00793208 1.4565703e-38 313 246
-0.00793208 0.75400001 -0.00793208 1.465682e-38 314 246
-0.0066100666 0.75400001 -0.00793208 1.4749015e-38 315 246
-0.0052880533 0.75400001 -0.00793208 1.5391867e-38 316 246
-0.00396604 0.75400001 -0.00793208 1.5391867e-38 317 246
-0.0026440267 0.75400001 -0.00793208 1.502416e-38 318 246
-0.0013185065 0.75199997 -0.0079110395 1.502416e-38 319 246
0 0.75199997 -0.0079110395 1.493376e-38 320 246
0.0013185065 0.75199997 -0.0079110395 1.493376e-38 321 246
0.00263 0.75 -0.00789 1.530147e-38 322 246
0.003945 0.75 -0.00789 1.5485861e-38 323 246
0.00526 0.75 -0.00789 1.5762088e-38 324 246
0.0065662335 0.74900001 -0.0078794798 1.5854284e-38 325 246
0.0078584393 0.74699998 -0.0078584393 1.5947556e-38 326 246
0.0091681797 0.74699998 -0.0078584393 1.6131947e-38 327 246
0.010477919 0.74699998 -0.0078584393 1.6499643e-38 328 246
0.011771879 0.74599999 -0.0078479191 1.677587e-38 329 246
0.013079867 0.74599999 -0.0078479191 1.714501e-38 330 246
0.014387853 0.74599999 -0.0078479191 1.7421237e-38 331 246
0.015653761 0.74400002 -0.0078268806 1.7695666e-38 332 246
0.016958239 0.74400002 -0.0078268806 1.8156285e-38 333 246
0.018213626 0.74199998 -0.0078058392 1.843143e-38 334 246
0.0195146 0.74199998 -0.0078058392 1.8523626e-38 335 246
0.020787518 0.741 -0.0077953199 1.8432149e-38 336 246
0.02208674 0.741 -0.0077953199 1.8432149e-38 337 246
0.023385961 0.741 -0.0077953199 1.8524345e-38 338 246
0.024685178 0.741 -0.0077953199 1.861654e-38 339 246
0.025984399 0.741 -0.0077953199 1.861726e-38 340 246
0.027283618 0.741 -0.0077953199 1.861726e-38 341 246
0.028582839 0.741 -0.0077953199 1.8800936e-38 342 246
0.029882059 0.741 -0.0077953199 1.8800936e-38 343 246
0.03118128 0.741 -0.0077953199 1.8985323e-38 344 246
0.032348998 0.73799998 -0.0077637597 1.9077518e-38 345 246
0.033551786 0.736 -0.0077427197 1.9077874e-38 346 246
0.034842238 0.736 -0.0077427197 1.9077874e-38 347 246
0.036034506 0.73400003 -0.0077216802 1.9077874e-38 348 246
0.037321456 0.73400003 -0.0077216802 1.9077874e-38 349 246
0.038608398 0.73400003 -0.0077216802 1.9077874e-38 350 246
0.039895348 0.73400003 -0.0077216802 1.917007e-38 351 246
0.041182294 0.73400003 -0.0077216802 1.9077153e-38 352 246
0.042469237 0.73400003 -0.0077216802 1.8984957e-38 353 246
0.043696571 0.73299998 -0.0077111595 1.9168266e-38 354 246
0.044981763 0.73299998 -0.0077111595 1.8892038e-38 355 246
0.046266954 0.73299998 -0.0077111595 1.8248837e-38 356 246
0.04755215 0.73299998 -0.0077111595 1.8248837e-38 357 246
0.048837345 0.73299998 -0.0077111595 1.8156306e-38 358 246
0.049985781 0.73100001 -0.00769012 1.8248502e-38 359 246
0.051267464 0.73100001 -0.00769012 1.7788289e-38 360 246
0.052692924 0.73299998 -0.0077111595 1.8064876e-38 361 246
0.053978115 0.73299998 -0.0077111595 1.733239e-38 362 246
-0.056260962 0.764 -0.0093768267 1.7421321e-38 278 247
-0.054921411 0.764 -0.0093768267 1.6038386e-38 279 247
-0.053581864 0.764 -0.0093768267 1.6776265e-38 280 247
-0.052105557 0.76200002 -0.0093522798 1.7236885e-38 281 247
-0.050769519 0.76200002 -0.0093522798 1.7421985e-38 282 247
-0.049433477 0.76200002 -0.0093522798 1.7514181e-38 283 247
-0.048097439 0.76200002 -0.0093522798 1.7236519e-38 284 247
-0.046761397 0.76200002 -0.0093522798 1.7144322e-38 285 247
-0.045425359 0.76200002 -0.0093522798 1.696101e-38 286 247
-0.044031456 0.76099998 -0.0093400059 1.6684064e-38 287 247
-0.042697169 0.76099998 -0.0093400059 1.6867367e-38 288 247
-0.041362885 0.76099998 -0.0093400059 1.6682615e-38 289 247
-0.040081199 0.76200002 -0.0093522798 1.6314899e-38 290 247
-0.038694311 0.76099998 -0.0093400059 1.6222345e-38 291 247
-0.037360024 0.76099998 -0.0093400059 1.5576612e-38 292 247
-0.036025736 0.76099998 -0.0093400059 1.5115274e-38 293 247
-0.034691449 0.76099998 -0.0093400059 1.3548655e-38 294 247
-0.033357166 0.76099998 -0.0093400059 1.2350113e-38 295 247
-0.032022879 0.76099998 -0.0093400059 1.1889114e-38 296 247
-0.030688593 0.76099998 -0.0093400059 1.1981311e-38 297 247
-0.029354304 0.76099998 -0.0093400059 1.1798382e-38 298 247
-0.028020019 0.76099998 -0.0093400059 1.3089121e-38 299 247
-0.026685731 0.76099998 -0.0093400059 1.373488e-38 300 247
-0.025351444 0.76099998 -0.0093400059 1.391963e-38 301 247
-0.024017159 0.76099998 -0.0093400059 1.4195156e-38 302 247
-0.02262326 0.759 -0.00931546 1.4287353e-38 303 247
-0.02129248 0.759 -0.00931546 1.4287e-38 304 247
-0.0199617 0.759 -0.00931546 1.4287e-38 305 247
-0.018532733 0.755 -0.0092663663 1.4287e-38 306 247
-0.017208965 0.755 -0.0092663663 1.4379196e-38 307 247
-0.015885198 0.755 -0.0092663663 1.4287353e-38 308 247
-0.014542146 0.75400001 -0.0092540924 1.4287353e-38 309 247
-0.013220133 0.75400001 -0.0092540924 1.410511e-38 310 247
-0.01189812 0.75400001 -0.0092540924 1.410511e-38 311 247
-0.010576107 0.75400001 -0.0092540924 1.4197303e-38 312 247
-0.0092540924 0.75400001 -0.0092540924 1.4105107e-38 313 247
-0.00793208 0.75400001 -0.0092540924 1.4380974e-38 314 247
-0.0066100666 0.75400001 -0.0092540924 1.447317e-38 315 247
-0.0052880533 0.75400001 -0.0092540924 1.4656842e-38 316 247
-0.00396604 0.75400001 -0.0092540924 1.4656842e-38 317 247
-0.0026440267 0.75400001 -0.0092540924 1.4839801e-38 318 247
-0.0013185065 0.75199997 -0.0092295464 1.4932356e-38 319 247
0 0.75199997 -0.0092295464 1.484017e-38 320 247
0.0013185065 0.75199997 -0.0092295464 1.4932367e-38 321 247
0.00263 0.75 -0.0092049995 1.4840876e-38 322 247
0.003945 0.75 -0.0092049995 1.4933073e-38 323 247
0.0052529867 0.74900001 -0.0091927266 1.5208917e-38 324 247
0.0065486995 0.74699998 -0.0091681797 1.5116722e-38 325 247
0.0078584393 0.74699998 -0.0091681797 1.5025955e-38 326 247
0.0091681797 0.74699998 -0.0091681797 1.5302183e-38 327 247
0.010477919 0.74699998 -0.0091681797 1.5854271e-38 328 247
0.011771879 0.74599999 -0.0091559067 1.6130498e-38 329 247
0.013079867 0.74599999 -0.0091559067 1.6315249e-38 330 247
0.014387853 0.74599999 -0.0091559067 1.6683672e-38 331 247
0.015653761 0.74400002 -0.0091313599 1.69599e-38 332 247
0.016912652 0.74199998 -0.009106813 1.7236127e-38 333 247
0.018213626 0.74199998 -0.009106813 1.7145363e-38 334 247
0.0195146 0.74199998 -0.009106813 1.7145363e-38 335 247
0.020787518 0.741 -0.0090945391 1.742159e-38 336 247
0.02208674 0.741 -0.0090945391 1.7605983e-38 337 247
0.023385961 0.741 -0.0090945391 1.7881496e-38 338 247
0.024685178 0.741 -0.0090945391 1.7973692e-38 339 247
0.025984399 0.741 -0.0090945391 1.8523997e-38 340 247
0.027209979 0.73900002 -0.0090699932 1.8523997e-38 341 247
0.028505694 0.73900002 -0.0090699932 1.8433248e-38 342 247
0.029801406 0.73900002 -0.0090699932 1.8525443e-38 343 247
0.03109712 0.73900002 -0.0090699932 1.8617992e-38 344 247
0.032261331 0.736 -0.0090331733 1.8617992e-38 345 247
0.033551786 0.736 -0.0090331733 1.8984972e-38 346 247
0.03474756 0.73400003 -0.0090086265 1.9077168e-38 347 247
0.036034506 0.73400003 -0.0090086265 1.8893856e-38 348 247
0.037321456 0.73400003 -0.0090086265 1.8893856e-38 349 247
0.038555797 0.73299998 -0.0089963535 1.8894209e-38 350 247
0.039840993 0.73299998 -0.0089963535 1.8894209e-38 351 247
0.041126184 0.73299998 -0.0089963535 1.9260821e-38 352 247
0.042411376 0.73299998 -0.0089963535 1.9260821e-38 353 247
0.043696571 0.73299998 -0.0089963535 1.898566e-38 354 247
0.044981763 0.73299998 -0.0089963535 1.8893463e-38 355 247
0.046140719 0.73100001 -0.0089718066 1.8892389e-38 356 247
0.047422405 0.73100001 -0.0089718066 1.8892389e-38 357 247
0.048704091 0.73100001 -0.0089718066 1.8708013e-38 358 247
0.049780637 0.72799999 -0.0089349858 1.8708013e-38 359 247
0.051057063 0.72799999 -0.0089349858 1.8063739e-38 360 247
0.052261602 0.727 -0.0089227129 1.7787511e-38 361 247
0.053168077 0.722 -0.0088613462 1.7145067e-38 362 247
0.054433983 0.722 -0.0088613462 1.7698241e-38 363 247
-0.057751291 0.76599997 -0.010744425 1.5950901e-38 277 248
-0.056260962 0.764 -0.010716373 1.6867407e-38 278 248
-0.054921411 0.764 -0.010716373 1.6867407e-38 279 248
-0.053441599 0.76200002 -0.01068832 1.7144325e-38 280 248
-0.052105557 0.76200002 -0.01068832 1.7144325e-38 281 248
-0.050769519 0.76200002 -0.01068832 1.7143956e-38 282 248
-0.049433477 0.76200002 -0.01068832 1.6959565e-38 283 248
-0.048097439 0.76200002 -0.01068832 1.6867364e-38 284 248
-0.046700031 0.76099998 -0.010674292 1.6682971e-38 285 248
-0.045365743 0.76099998 -0.010674292 1.6775171e-38 286 248
-0.044031456 0.76099998 -0.010674292 1.6406388e-38 287 248
-0.042697169 0.76099998 -0.010674292 1.6129081e-38 288 248
-0.041362885 0.76099998 -0.010674292 1.5944331e-38 289 248
-0.040081199 0.76200002 -0.01068832 1.5392583e-38 290 248
-0.038694311 0.76099998 -0.010674292 1.483941e-38 291 248
-0.037360024 0.76099998 -0.010674292 1.4101847e-38 292 248
-0.036025736 0.76099998 -0.010674292 1.364087e-38 293 248
-0.034691449 0.76099998 -0.010674292 1.2996948e-38 294 248
-0.033357166 0.76099998 -0.010674292 1.3089144e-38 295 248
-0.032022879 0.76099998 -0.010674292 1.3457207e-38 296 248
-0.030688593 0.76099998 -0.010674292 1.3365012e-38 297 248
-0.029277159 0.759 -0.01064624 1.3366809e-38 298 248
-0.027946379 0.759 -0.01064624 1.3735233e-38 299 248
-0.026615599 0.759 -0.01064624 1.3919627e-38 300 248
-0.025284819 0.759 -0.01064624 1.3919627e-38 301 248
-0.023954039 0.759 -0.01064624 1.4102589e-38 302 248
-0.02262326 0.759 -0.01064624 1.4194785e-38 303 248
-0.02129248 0.759 -0.01064624 1.4194435e-38 304 248
-0.019909101 0.75700003 -0.010618187 1.4194435e-38 305 248
-0.018532733 0.755 -0.010590133 1.4194437e-38 306 248
-0.017186172 0.75400001 -0.010576107 1.4286633e-38 307 248
-0.01586416 0.75400001 -0.010576107 1.4194788e-38 308 248
-0.014542146 0.75400001 -0.010576107 1.4194788e-38 309 248
-0.013220133 0.75400001 -0.010576107 1.4195854e-38 310 248
-0.01189812 0.75400001 -0.010576107 1.4195854e-38 311 248
-0.010576107 0.75400001 -0.010576107 1.4288408e-38 312 248
-0.0092540924 0.75400001 -0.010576107 1.4288408e-38 313 248
-0.00793208 0.75400001 -0.010576107 1.4288408e-38 314 248
-0.0066100666 0.75400001 -0.010576107 1.4380605e-38 315 248
-0.0052880533 0.75400001 -0.010576107 1.4747946e-38 316 248
-0.00396604 0.75400001 -0.010576107 1.4747946e-38 317 248
-0.0026440267 0.75400001 -0.010576107 1.4747946e-38 318 248
-0.0013185065 0.75199997 -0.010548052 1.5024173e-38 319 248
0 0.75199997 -0.010548052 1.4840142e-38 320 248
0.001315 0.75 -0.01052 1.5024173e-38 321 248
0.0026264933 0.74900001 -0.010505973 1.5024173e-38 322 248
0.0039397399 0.74900001 -0.010505973 1.5116368e-38 323 248
0.0052529867 0.74900001 -0.010505973 1.5116724e-38 324 248
0.0065486995 0.74699998 -0.010477919 1.502417e-38 325 248
0.0078584393 0.74699998 -0.010477919 1.5116e-38 326 248
0.0091681797 0.74699998 -0.010477919 1.5116e-38 327 248
0.010463892 0.74599999 -0.010463892 1.5117072e-38 328 248
0.011771879 0.74599999 -0.010463892 1.5209268e-38 329 248
0.013079867 0.74599999 -0.010463892 1.5484412e-38 330 248
0.014387853 0.74599999 -0.010463892 1.5576608e-38 331 248
0.015653761 0.74400002 -0.01043584 1.5760641e-38 332 248
0.016912652 0.74199998 -0.010407786 1.5853195e-38 333 248
0.018213626 0.74199998 -0.010407786 1.6130504e-38 334 248
0.0195146 0.74199998 -0.010407786 1.6407092e-38 335 248
0.020787518 0.741 -0.010393759 1.6500009e-38 336 248
0.02208674 0.741 -0.010393759 1.6960987e-38 337 248
0.023385961 0.741 -0.010393759 1.7144657e-38 338 248
0.024685178 0.741 -0.010393759 1.7421242e-38 339 248
0.025914267 0.73900002 -0.010365707 1.8064089e-38 340 248
0.027209979 0.73900002 -0.010365707 1.8064089e-38 341 248
0.028505694 0.73900002 -0.010365707 1.7973339e-38 342 248
0.029801406 0.73900002 -0.010365707 1.8158089e-38 343 248
0.030970879 0.736 -0.010323626 1.8433234e-38 344 248
0.032173667 0.73400003 -0.010295574 1.8617266e-38 345 248
0.033460613 0.73400003 -0.010295574 1.8892052e-38 346 248
0.034700219 0.73299998 -0.010281546 1.8984607e-38 347 248
0.035985414 0.73299998 -0.010281546 1.8984251e-38 348 248
0.037270606 0.73299998 -0.010281546 1.9076446e-38 349 248
0.038555797 0.73299998 -0.010281546 1.9076802e-38 350 248
0.039840993 0.73299998 -0.010281546 1.9076802e-38 351 248
0.041013971 0.73100001 -0.010253493 1.9077155e-38 352 248
0.042295661 0.73100001 -0.010253493 1.9077155e-38 353 248
0.043577347 0.73100001 -0.010253493 1.8894559e-38 354 248
0.044797666 0.73000002 -0.010239467 1.8802364e-38 355 248
0.046077598 0.73000002 -0.010239467 1.8802364e-38 356 248
0.047357533 0.73000002 -0.010239467 1.8709809e-38 357 248
0.048637468 0.73000002 -0.010239467 1.8617967e-38 358 248
0.049780637 0.72799999 -0.010211413 1.8433934e-38 359 248
0.050986931 0.727 -0.010197386 1.8342107e-38 360 248
0.052117832 0.72500002 -0.010169334 1.8249553e-38 361 248
0.053168077 0.722 -0.010127253 1.8157384e-38 362 248
0.054433983 0.722 -0.010127253 1.7880795e-38 363 248
0.055699892 0.722 -0.010127253 1.732838e-38 364 248
-0.059171494 0.76700002 -0.01210326 1.6965034e-38 276 249
-0.057751291 0.76599997 -0.012087479 1.5489903e-38 277 249
-0.056260962 0.764 -0.01205592 1.6958506e-38 278 249
-0.054921411 0.764 -0.01205592 1.6958506e-38 279 249
-0.053441599 0.76200002 -0.01202436 1.6959575e-38 280 249
-0.052105557 0.76200002 -0.01202436 1.6775544e-38 281 249
-0.050769519 0.76200002 -0.01202436 1.6591152e-38 282 249
-0.049433477 0.76200002 -0.01202436 1.6498955e-38 283 249
-0.048097439 0.76200002 -0.01202436 1.6314912e-38 284 249
-0.046700031 0.76099998 -0.012008579 1.6130881e-38 285 249
-0.045365743 0.76099998 -0.012008579 1.6221641e-38 286 249
-0.044031456 0.76099998 -0.012008579 1.5761022e-38 287 249
-0.042697169 0.76099998 -0.012008579 1.5392235e-38 288 249
-0.041362885 0.76099998 -0.012008579 1.5023454e-38 289 249
-0.040028598 0.76099998 -0.012008579 1.4380238e-38 290 249
-0.038694311 0.76099998 -0.012008579 1.4103293e-38 291 249
-0.037360024 0.76099998 -0.012008579 1.3459375e-38 292 249
-0.036025736 0.76099998 -0.012008579 1.3366819e-38 293 249
-0.034691449 0.76099998 -0.012008579 1.3366822e-38 294 249
-0.033357166 0.76099998 -0.012008579 1.3274626e-38 295 249
-0.032022879 0.76099998 -0.012008579 1.3274977e-38 296 249
-0.030688593 0.76099998 -0.012008579 1.3367172e-38 297 249
-0.029277159 0.759 -0.01197702 1.3642687e-38 298 249
-0.027946379 0.759 -0.01197702 1.3827079e-38 299 249
-0.026615599 0.759 -0.01197702 1.3735251e-38 300 249
-0.025284819 0.759 -0.01197702 1.3827447e-38 301 249
-0.023954039 0.759 -0.01197702 1.3827097e-38 302 249
-0.02262326 0.759 -0.01197702 1.3827097e-38 303 249
-0.021236373 0.75700003 -0.01194546 1.3826741e-38 304 249
-0.019909101 0.75700003 -0.01194546 1.3826741e-38 305 249
-0.018532733 0.755 -0.011913899 1.3826741e-38 306 249
-0.017186172 0.75400001 -0.01189812 1.3826741e-38 307 249
-0.01586416 0.75400001 -0.01189812 1.382745e-38 308 249
-0.014542146 0.75400001 -0.01189812 1.382745e-38 309 249
-0.013220133 0.75400001 -0.01189812 1.3827444e-38 310 249
-0.01189812 0.75400001 -0.01189812 1.3919999e-38 311 249
-0.010576107 0.75400001 -0.01189812 1.4011475e-38 312 249
-0.0092540924 0.75400001 -0.01189812 1.4011475e-38 313 249
-0.00793208 0.75400001 -0.01189812 1.4104389e-38 314 249
-0.0065925326 0.75199997 -0.011866559 1.4104389e-38 315 249
-0.0052740262 0.75199997 -0.011866559 1.4379529e-38 316 249
-0.00396604 0.75400001 -0.01189812 1.4656116e-38 317 249
-0.0026370131 0.75199997 -0.011866559 1.4747593e-38 318 249
-0.0013185065 0.75199997 -0.011866559 1.4839789e-38 319 249
0 0.75 -0.011835 1.4748312e-38 320 249
0.001315 0.75 -0.011835 1.4840507e-38 321 249
0.0026264933 0.74900001 -0.01181922 1.4840507e-38 322 249
0.0039397399 0.74900001 -0.01181922 1.4932703e-38 323 249
0.0052389596 0.74699998 -0.011787659 1.4840505e-38 324 249
0.0065486995 0.74699998 -0.011787659 1.4840505e-38 325 249
0.0078584393 0.74699998 -0.011787659 1.5116368e-38 326 249
0.0091559067 0.74599999 -0.011771879 1.5116368e-38 327 249
0.010463892 0.74599999 -0.011771879 1.520892e-38 328 249
0.011771879 0.74599999 -0.011771879 1.520892e-38 329 249
0.013079867 0.74599999 -0.011771879 1.5483709e-38 330 249
0.01434928 0.74400002 -0.011740319 1.5483709e-38 331 249
0.015653761 0.74400002 -0.011740319 1.5483709e-38 332 249
0.016912652 0.74199998 -0.01170876 1.5575906e-38 333 249
0.018213626 0.74199998 -0.01170876 1.5576625e-38 334 249
0.019488299 0.741 -0.01169298 1.5668821e-38 335 249
0.020787518 0.741 -0.01169298 1.5669893e-38 336 249
0.022027127 0.73900002 -0.01166142 1.594684e-38 337 249
0.023322839 0.73900002 -0.01166142 1.6131584e-38 338 249
0.024618553 0.73900002 -0.01166142 1.6592202e-38 339 249
0.025914267 0.73900002 -0.01166142 1.7235774e-38 340 249
0.027209979 0.73900002 -0.01166142 1.7420524e-38 341 249
0.028312827 0.73400003 -0.011582521 1.7420889e-38 342 249
0.029599773 0.73400003 -0.011582521 1.7697478e-38 343 249
0.030886721 0.73400003 -0.011582521 1.815701e-38 344 249
0.032173667 0.73400003 -0.011582521 1.8249205e-38 345 249
0.033415023 0.73299998 -0.011566739 1.8707662e-38 346 249
0.034700219 0.73299998 -0.011566739 1.8799858e-38 347 249
0.035887226 0.73100001 -0.01153518 1.8708387e-38 348 249
0.037168913 0.73100001 -0.01153518 1.8800941e-38 349 249
0.038450599 0.73100001 -0.01153518 1.870874e-38 350 249
0.039732285 0.73100001 -0.01153518 1.8800936e-38 351 249
0.041013971 0.73100001 -0.01153518 1.8801645e-38 352 249
0.0422378 0.73000002 -0.011519399 1.8801645e-38 353 249
0.043517731 0.73000002 -0.011519399 1.8710165e-38 354 249
0.044674929 0.72799999 -0.01148784 1.8802361e-38 355 249
0.045951359 0.72799999 -0.01148784 1.9078225e-38 356 249
0.047227785 0.72799999 -0.01148784 1.8986029e-38 357 249
0.048437584 0.727 -0.01147206 1.8986023e-38 358 249
0.049712259 0.727 -0.01147206 1.8801992e-38 359 249
0.050846666 0.72500002 -0.0114405 1.8709443e-38 360 249
0.051902171 0.722 -0.01139316 1.8617246e-38 361 249
0.053168077 0.722 -0.01139316 1.8341388e-38 362 249
0.054283202 0.72000003 -0.011361601 1.7972247e-38 363 249
0.055545598 0.72000003 -0.011361601 1.7787861e-38 364 249
-0.059171494 0.76700002 -0.013448066 1.6501869e-38 276 250
-0.057751291 0.76599997 -0.013430533 1.5856499e-38 277 250
-0.056260962 0.764 -0.013395466 1.6774112e-38 278 250
-0.054777641 0.76200002 -0.0133604 1.6774112e-38 279 250
-0.053441599 0.76200002 -0.0133604 1.6498602e-38 280 250
-0.052105557 0.76200002 -0.0133604 1.6498602e-38 281 250
-0.050769519 0.76200002 -0.0133604 1.6314205e-38 282 250
-0.049433477 0.76200002 -0.0133604 1.6037979e-38 283 250
-0.048097439 0.76200002 -0.0133604 1.5763184e-38 284 250
-0.046700031 0.76099998 -0.013342866 1.5302565e-38 285 250
-0.045365743 0.76099998 -0.013342866 1.5208214e-38 286 250
-0.044031456 0.76099998 -0.013342866 1.4839791e-38 287 250
-0.042697169 0.76099998 -0.013342866 1.4194788e-38 288 250
-0.041362885 0.76099998 -0.013342866 1.4010396e-38 289 250
-0.040028598 0.76099998 -0.013342866 1.3550864e-38 290 250
-0.038592618 0.759 -0.0133078 1.3458669e-38 291 250
-0.03726184 0.759 -0.0133078 1.3367192e-38 292 250
-0.036025736 0.76099998 -0.013342866 1.3367192e-38 293 250
-0.034691449 0.76099998 -0.013342866 1.3458666e-38 294 250
-0.033357166 0.76099998 -0.013342866 1.3366469e-38 295 250
-0.032022879 0.76099998 -0.013342866 1.318316e-38 296 250
-0.030607941 0.759 -0.0133078 1.3367192e-38 297 250
-0.029277159 0.759 -0.0133078 1.3550511e-38 298 250
-0.027946379 0.759 -0.0133078 1.3550511e-38 299 250
-0.026615599 0.759 -0.0133078 1.3826744e-38 300 250
-0.025284819 0.759 -0.0133078 1.3826744e-38 301 250
-0.02389092 0.75700003 -0.013272733 1.3826746e-38 302 250
-0.022563647 0.75700003 -0.013272733 1.3826746e-38 303 250
-0.021236373 0.75700003 -0.013272733 1.3643429e-38 304 250
-0.019909101 0.75700003 -0.013272733 1.3551233e-38 305 250
-0.018532733 0.755 -0.013237666 1.3827097e-38 306 250
-0.017186172 0.75400001 -0.013220133 1.3827097e-38 307 250
-0.01586416 0.75400001 -0.013220133 1.3827097e-38 308 250
-0.014542146 0.75400001 -0.013220133 1.3827097e-38 309 250
-0.013220133 0.75400001 -0.013220133 1.3918571e-38 310 250
-0.01189812 0.75400001 -0.013220133 1.3918571e-38 311 250
-0.010576107 0.75400001 -0.013220133 1.3827094e-38 312 250
-0.0092540924 0.75400001 -0.013220133 1.3827094e-38 313 250
-0.00793208 0.75400001 -0.013220133 1.3919643e-38 314 250
-0.0065925326 0.75199997 -0.013185065 1.3919643e-38 315 250
-0.0052740262 0.75199997 -0.013185065 1.4195151e-38 316 250
-0.0039555198 0.75199997 -0.013185065 1.4287706e-38 317 250
-0.0026370131 0.75199997 -0.013185065 1.4563214e-38 318 250
-0.0013185065 0.75199997 -0.013185065 1.465541e-38 319 250
0 0.75 -0.01315 1.4564293e-38 320 250
0.001315 0.75 -0.01315 1.4564293e-38 321 250
0.0026264933 0.74900001 -0.013132467 1.4656845e-38 322 250
0.0039397399 0.74900001 -0.013132467 1.4656845e-38 323 250
0.0052389596 0.74699998 -0.013097399 1.484051e-38 324 250
0.0065486995 0.74699998 -0.013097399 1.484051e-38 325 250
0.0078479191 0.74599999 -0.013079867 1.4840861e-38 326 250
0.0091559067 0.74599999 -0.013079867 1.4840861e-38 327 250
0.010463892 0.74599999 -0.013079867 1.502417e-38 328 250
0.011771879 0.74599999 -0.013079867 1.502417e-38 329 250
0.0130448 0.74400002 -0.0130448 1.520892e-38 330 250
0.01434928 0.74400002 -0.0130448 1.520892e-38 331 250
0.015611678 0.74199998 -0.013009733 1.5392235e-38 332 250
0.016889861 0.741 -0.0129922 1.5484432e-38 333 250
0.018189078 0.741 -0.0129922 1.5391879e-38 334 250
0.019488299 0.741 -0.0129922 1.5391879e-38 335 250
0.020787518 0.741 -0.0129922 1.520892e-38 336 250
0.022027127 0.73900002 -0.012957133 1.5116724e-38 337 250
0.023322839 0.73900002 -0.012957133 1.548478e-38 338 250
0.024618553 0.73900002 -0.012957133 1.5853921e-38 339 250
0.025914267 0.73900002 -0.012957133 1.6222347e-38 340 250
0.02702588 0.73400003 -0.012869466 1.6498934e-38 341 250
0.028312827 0.73400003 -0.012869466 1.6867717e-38 342 250
0.029599773 0.73400003 -0.012869466 1.7144304e-38 343 250
0.030886721 0.73400003 -0.012869466 1.7696034e-38 344 250
0.032129832 0.73299998 -0.012851933 1.7788231e-38 345 250
0.033415023 0.73299998 -0.012851933 1.8155569e-38 346 250
0.034700219 0.73299998 -0.012851933 1.8431796e-38 347 250
0.035887226 0.73100001 -0.012816866 1.852435e-38 348 250
0.037118066 0.73000002 -0.012799333 1.852435e-38 349 250
0.038398001 0.73000002 -0.012799333 1.8433228e-38 350 250
0.039677933 0.73000002 -0.012799333 1.8433228e-38 351 250
0.040957868 0.73000002 -0.012799333 1.8616893e-38 352 250
0.042122077 0.72799999 -0.012764266 1.8616893e-38 353 250
0.043398503 0.72799999 -0.012764266 1.8617616e-38 354 250
0.044613566 0.727 -0.012746733 1.8802008e-38 355 250
0.045761999 0.72500002 -0.012711667 1.8894203e-38 356 250
0.047033165 0.72500002 -0.012711667 1.8894203e-38 357 250
0.048304334 0.72500002 -0.012711667 1.8894912e-38 358 250
0.04937036 0.722 -0.012659066 1.8802358e-38 359 250
0.050636265 0.722 -0.012659066 1.8801639e-38 360 250
0.051902171 0.722 -0.012659066 1.8801639e-38 361 250
0.053020801 0.72000003 -0.012624 1.8616893e-38 362 250
0.054283202 0.72000003 -0.012624 1.8524698e-38 363 250
0.055545598 0.72000003 -0.012624 1.8432149e-38 364 250
