# .PCD v.7 - Point Cloud Data file format
FIELDS x y z rgb imX imY
SIZE 4 4 4 4 4 4
TYPE F F F F F F
COUNT 1 1 1 1 1 1
WIDTH 846
HEIGHT 1
VIEWPOINT 0 0 0 1 0 0 0
POINTS 846
DATA ascii
0.0029280665 0.83499998 0.049777132 1.0781045e-38 322 206
0.0043920996 0.83499998 0.049777132 1.0781045e-38 323 206
0.0058561331 0.83499998 0.049777132 1.0781048e-38 324 206
0.0073201661 0.83499998 0.049777132 1.0781048e-38 325 206
0.0087841991 0.83499998 0.049777132 1.059738e-38 326 206
0.010248233 0.83499998 0.049777132 1.0689576e-38 327 206
0.011712266 0.83499998 0.049777132 1.0689926e-38 328 206
0.0131763 0.83499998 0.049777132 1.0689926e-38 329 206
0.014640332 0.83499998 0.049777132 1.0965068e-38 330 206
0.016104365 0.83499998 0.049777132 1.0872871e-38 331 206
0.017568398 0.83499998 0.049777132 1.0597729e-38 332 206
0.018986847 0.833 0.049657907 1.0597729e-38 333 206
0.020447372 0.833 0.049657907 1.0597377e-38 334 206
0.0219079 0.833 0.049657907 1.0597377e-38 335 206
0.023368426 0.833 0.049657907 1.0597733e-38 336 206
0.024828954 0.833 0.049657907 1.0597733e-38 337 206
0.026226358 0.83099997 0.049538679 1.0689926e-38 338 206
0.027683379 0.83099997 0.049538679 1.0689926e-38 339 206
0.029140398 0.83099997 0.049538679 1.0690645e-38 340 206
0.030597419 0.83099997 0.049538679 1.0690645e-38 341 206
0.032054439 0.83099997 0.049538679 1.1057632e-38 342 206
0.033511456 0.83099997 0.049538679 1.1150187e-38 343 206
0.03496848 0.83099997 0.049538679 1.1242029e-38 344 206
0.036425497 0.83099997 0.049538679 1.1242029e-38 345 206
0.037791345 0.829 0.049419452 1.1517538e-38 346 206
0.039244857 0.829 0.049419452 1.1610093e-38 347 206
0.040698372 0.829 0.049419452 1.1244544e-38 348 206
0.042151887 0.829 0.049419452 1.1337099e-38 349 206
0.0435002 0.82700002 0.049300224 1.1339614e-38 350 206
0.044950206 0.82700002 0.049300224 1.2353765e-38 351 206
0.046400212 0.82700002 0.049300224 1.3273207e-38 352 206
0.047850218 0.82700002 0.049300224 1.3733826e-38 353 206
0.049300224 0.82700002 0.049300224 1.4377028e-38 354 206
0.0506275 0.82499999 0.049180996 1.474581e-38 355 206
0.052073997 0.82499999 0.049180996 1.4929833e-38 356 206
0.053520497 0.82499999 0.049180996 1.5206419e-38 357 206
0.054966997 0.82499999 0.049180996 1.5298612e-38 358 206
0.056276739 0.82300001 0.049061771 1.5575559e-38 359 206
0.057719734 0.82300001 0.049061771 1.6219848e-38 360 206
0.059162725 0.82300001 0.049061771 1.5666674e-38 361 206
0.06060572 0.82300001 0.049061771 1.5477239e-38 362 206
0.062048711 0.82300001 0.049061771 1.3172707e-38 363 206
0.06349171 0.82300001 0.049061771 1.1235517e-38 364 206
0.064934701 0.82300001 0.049061771 1.095929e-38 365 206
0.066377692 0.82300001 0.049061771 8.5744612e-39 366 206
0.067985497 0.82499999 0.049180996 1.19857e-38 367 206
0.069431998 0.82499999 0.049180996 1.4102239e-38 368 206
0.070878498 0.82499999 0.049180996 1.4839804e-38 369 206
0.072324999 0.82499999 0.049180996 1.5114217e-38 370 206
0.073771499 0.82499999 0.049180996 1.4561044e-38 371 206
0.075217992 0.82499999 0.049180996 1.4102224e-38 372 206
0.076664492 0.82499999 0.049180996 1.4010028e-38 373 206
-0.074670963 0.81900001 0.047387339 1.5671732e-38 268 207
-0.073234983 0.81900001 0.047387339 1.4841972e-38 269 207
-0.071799003 0.81900001 0.047387339 1.5759555e-38 270 207
-0.070363015 0.81900001 0.047387339 1.6404924e-38 271 207
-0.069095351 0.82099998 0.047503054 1.6774057e-38 272 207
-0.067655869 0.82099998 0.047503054 1.6866253e-38 273 207
-0.066216379 0.82099998 0.047503054 1.6865899e-38 274 207
-0.064776897 0.82099998 0.047503054 1.7050649e-38 275 207
-0.063337415 0.82099998 0.047503054 1.704959e-38 276 207
-0.061897919 0.82099998 0.047503054 1.7233623e-38 277 207
-0.060311157 0.81900001 0.047387339 1.7048887e-38 278 207
-0.058875177 0.81900001 0.047387339 1.7232919e-38 279 207
-0.057439201 0.81900001 0.047387339 1.7141805e-38 280 207
-0.056003217 0.81900001 0.047387339 1.7141805e-38 281 207
-0.054567236 0.81900001 0.047387339 1.7142158e-38 282 207
-0.053131256 0.81900001 0.047387339 1.7142158e-38 283 207
-0.05169528 0.81900001 0.047387339 1.6774451e-38 284 207
-0.0502593 0.81900001 0.047387339 1.6589701e-38 285 207
-0.048823319 0.81900001 0.047387339 1.6313474e-38 286 207
-0.047387339 0.81900001 0.047387339 1.6221278e-38 287 207
-0.045951359 0.81900001 0.047387339 1.6220195e-38 288 207
-0.044515379 0.81900001 0.047387339 1.6036164e-38 289 207
-0.043184597 0.82099998 0.047503054 1.5667372e-38 290 207
-0.041745111 0.82099998 0.047503054 1.5391145e-38 291 207
-0.040305622 0.82099998 0.047503054 1.5297514e-38 292 207
-0.03886614 0.82099998 0.047503054 1.5113482e-38 293 207
-0.037517827 0.82300001 0.04761878 1.5019488e-38 294 207
-0.036074832 0.82300001 0.04761878 1.4650706e-38 295 207
-0.034631841 0.82300001 0.04761878 1.419043e-38 296 207
-0.033269498 0.82499999 0.047734499 1.354506e-38 297 207
-0.031822998 0.82499999 0.047734499 1.2716373e-38 298 207
-0.030376498 0.82499999 0.047734499 1.2439786e-38 299 207
-0.028929999 0.82499999 0.047734499 1.1887361e-38 300 207
-0.027550125 0.82700002 0.047850218 1.1794806e-38 301 207
-0.02610012 0.82700002 0.047850218 1.1426417e-38 302 207
-0.024650112 0.82700002 0.047850218 1.1242026e-38 303 207
-0.023200106 0.82700002 0.047850218 1.1056919e-38 304 207
-0.0217501 0.82700002 0.047850218 1.124095e-38 305 207
-0.020300092 0.82700002 0.047850218 1.0872888e-38 306 207
-0.018895673 0.829 0.04796594 1.0872888e-38 307 207
-0.017442159 0.829 0.04796594 1.0780692e-38 308 207
-0.01602722 0.83099997 0.048081655 1.0780692e-38 309 207
-0.014570199 0.83099997 0.048081655 1.0780328e-38 310 207
-0.01314474 0.833 0.048197377 1.0687773e-38 311 207
-0.011684213 0.833 0.048197377 1.0688483e-38 312 207
-0.010223686 0.833 0.048197377 1.0688483e-38 313 207
-0.0087841991 0.83499998 0.048313096 1.0963993e-38 314 207
-0.0073201661 0.83499998 0.048313096 1.0687408e-38 315 207
-0.0058561331 0.83499998 0.048313096 1.0412263e-38 316 207
-0.0043920996 0.83499998 0.048313096 1.0412263e-38 317 207
-0.0029280665 0.83499998 0.048313096 1.0412263e-38 318 207
-0.0014640333 0.83499998 0.048313096 1.0504817e-38 319 207
0 0.83499998 0.048313096 1.059666e-38 320 207
0.0014640333 0.83499998 0.048313096 1.059666e-38 321 207
0.0029280665 0.83499998 0.048313096 1.050518e-38 322 207
0.0043920996 0.83499998 0.048313096 1.0597377e-38 323 207
0.0058561331 0.83499998 0.048313096 1.0597377e-38 324 207
0.0073201661 0.83499998 0.048313096 1.0597377e-38 325 207
0.0087841991 0.83499998 0.048313096 1.059738e-38 326 207
0.010248233 0.83499998 0.048313096 1.059738e-38 327 207
0.011712266 0.83499998 0.048313096 1.0781045e-38 328 207
0.013207859 0.83700001 0.048428819 1.0781045e-38 329 207
0.014640332 0.83499998 0.048313096 1.0597366e-38 330 207
0.016104365 0.83499998 0.048313096 1.0597366e-38 331 207
0.017568398 0.83499998 0.048313096 1.0321865e-38 332 207
0.019032432 0.83499998 0.048313096 1.0414421e-38 333 207
0.020496465 0.83499998 0.048313096 1.0321871e-38 334 207
0.021960499 0.83499998 0.048313096 1.0321871e-38 335 207
0.023424532 0.83499998 0.048313096 1.0322591e-38 336 207
0.024828954 0.833 0.048197377 1.0230035e-38 337 207
0.02628948 0.833 0.048197377 1.0322591e-38 338 207
0.027750006 0.833 0.048197377 1.0322591e-38 339 207
0.029210532 0.833 0.048197377 1.0322591e-38 340 207
0.030671058 0.833 0.048197377 1.0414786e-38 341 207
0.032131586 0.833 0.048197377 1.0690297e-38 342 207
0.033592112 0.833 0.048197377 1.0782493e-38 343 207
0.03496848 0.83099997 0.048081655 1.0874691e-38 344 207
0.036425497 0.83099997 0.048081655 1.0874691e-38 345 207
0.037882518 0.83099997 0.048081655 1.087541e-38 346 207
0.039244857 0.829 0.04796594 1.0967607e-38 347 207
0.040698372 0.829 0.04796594 1.1059437e-38 348 207
0.042151887 0.829 0.04796594 1.1151633e-38 349 207
0.0435002 0.82700002 0.047850218 1.12449e-38 350 207
0.044950206 0.82700002 0.047850218 1.189027e-38 351 207
0.046400212 0.82700002 0.047850218 1.2259775e-38 352 207
0.047850218 0.82700002 0.047850218 1.2905145e-38 353 207
0.049300224 0.82700002 0.047850218 1.3549431e-38 354 207
0.0506275 0.82499999 0.047734499 1.3826378e-38 355 207
0.052073997 0.82499999 0.047734499 1.4102242e-38 356 207
0.053390753 0.82300001 0.04761878 1.4286633e-38 357 207
0.054833744 0.82300001 0.04761878 1.4562864e-38 358 207
0.056276739 0.82300001 0.04761878 1.4839451e-38 359 207
0.057579465 0.82099998 0.047503054 1.5115317e-38 360 207
0.059018951 0.82099998 0.047503054 1.5484101e-38 361 207
0.060458437 0.82099998 0.047503054 1.575852e-38 362 207
0.061897919 0.82099998 0.047503054 1.4559977e-38 363 207
0.06349171 0.82300001 0.04761878 1.3266345e-38 364 207
0.064934701 0.82300001 0.04761878 1.169902e-38 365 207
0.066377692 0.82300001 0.04761878 9.5853565e-39 366 207
0.067985497 0.82499999 0.047734499 1.3365377e-38 367 207
0.069431998 0.82499999 0.047734499 1.4102224e-38 368 207
0.070878498 0.82499999 0.047734499 1.45632e-38 369 207
0.072324999 0.82499999 0.047734499 1.4562476e-38 370 207
0.073592655 0.82300001 0.04761878 1.4285889e-38 371 207
0.075035654 0.82300001 0.04761878 1.3918546e-38 372 207
0.076478645 0.82300001 0.04761878 1.3918546e-38 373 207
0.07773228 0.82099998 0.047503054 1.2998062e-38 374 207
0.079171762 0.82099998 0.047503054 1.2905866e-38 375 207
-0.074488603 0.81699997 0.045839142 1.5300767e-38 268 208
-0.073056139 0.81699997 0.045839142 1.5946136e-38 269 208
-0.071799003 0.81900001 0.045951359 1.6498196e-38 270 208
-0.070363015 0.81900001 0.045951359 1.6590392e-38 271 208
-0.068927035 0.81900001 0.045951359 1.6866974e-38 272 208
-0.067491055 0.81900001 0.045951359 1.695917e-38 273 208
-0.066055074 0.81900001 0.045951359 1.7050296e-38 274 208
-0.064619094 0.81900001 0.045951359 1.6773351e-38 275 208
-0.063183114 0.81900001 0.045951359 1.6772281e-38 276 208
-0.061747137 0.81900001 0.045951359 1.6864477e-38 277 208
-0.060311157 0.81900001 0.045951359 1.7047442e-38 278 208
-0.058875177 0.81900001 0.045951359 1.7415864e-38 279 208
-0.057439201 0.81900001 0.045951359 1.7049242e-38 280 208
-0.056003217 0.81900001 0.045951359 1.7233275e-38 281 208
-0.054567236 0.81900001 0.045951359 1.7049237e-38 282 208
-0.053131256 0.81900001 0.045951359 1.6864846e-38 283 208
-0.05169528 0.81900001 0.045951359 1.6680454e-38 284 208
-0.0502593 0.81900001 0.045951359 1.6588259e-38 285 208
-0.048823319 0.81900001 0.045951359 1.6311675e-38 286 208
-0.047387339 0.81900001 0.045951359 1.6219479e-38 287 208
-0.045951359 0.81900001 0.045951359 1.5759574e-38 288 208
-0.044515379 0.81900001 0.045951359 1.5667377e-38 289 208
-0.043184597 0.82099998 0.046063572 1.52993e-38 290 208
-0.041745111 0.82099998 0.046063572 1.5022711e-38 291 208
-0.040305622 0.82099998 0.046063572 1.4929428e-38 292 208
-0.03886614 0.82099998 0.046063572 1.4375894e-38 293 208
-0.037517827 0.82300001 0.046175785 1.4005317e-38 294 208
-0.036074832 0.82300001 0.046175785 1.3359947e-38 295 208
-0.034631841 0.82300001 0.046175785 1.2621679e-38 296 208
-0.033269498 0.82499999 0.046287999 1.2160701e-38 297 208
-0.031822998 0.82499999 0.046287999 1.142638e-38 298 208
-0.030376498 0.82499999 0.046287999 1.1334184e-38 299 208
-0.029000133 0.82700002 0.046400212 1.1334553e-38 300 208
-0.027550125 0.82700002 0.046400212 1.1334553e-38 301 208
-0.02610012 0.82700002 0.046400212 1.1057622e-38 302 208
-0.024650112 0.82700002 0.046400212 1.1057622e-38 303 208
-0.023200106 0.82700002 0.046400212 1.0872877e-38 304 208
-0.0217501 0.82700002 0.046400212 1.0872877e-38 305 208
-0.020349186 0.829 0.046512425 1.0781397e-38 306 208
-0.018941259 0.83099997 0.046624638 1.0781397e-38 307 208
-0.01748424 0.83099997 0.046624638 1.0780678e-38 308 208
-0.01602722 0.83099997 0.046624638 1.0688483e-38 309 208
-0.014605266 0.833 0.046736851 1.0688127e-38 310 208
-0.0131763 0.83499998 0.046849065 1.0688127e-38 311 208
-0.011684213 0.833 0.046736851 1.0595931e-38 312 208
-0.010223686 0.833 0.046736851 1.0595931e-38 313 208
-0.0087841991 0.83499998 0.046849065 1.0412266e-38 314 208
-0.0073201661 0.83499998 0.046849065 1.032007e-38 315 208
-0.0058561331 0.83499998 0.046849065 1.0227521e-38 316 208
-0.0043920996 0.83499998 0.046849065 1.0227521e-38 317 208
0.0043920996 0.83499998 0.046849065 1.0504108e-38 323 208
0.0058561331 0.83499998 0.046849065 1.0596657e-38 324 208
0.0073201661 0.83499998 0.046849065 1.0596657e-38 325 208
0.0087841991 0.83499998 0.046849065 1.0688129e-38 326 208
0.019032432 0.83499998 0.046849065 1.0412616e-38 333 208
0.020496465 0.83499998 0.046849065 1.0228951e-38 334 208
0.021960499 0.83499998 0.046849065 1.0228951e-38 335 208
0.023424532 0.83499998 0.046849065 9.9538083e-39 336 208
0.024888566 0.83499998 0.046849065 9.9538083e-39 337 208
0.026352599 0.83499998 0.046849065 1.0046004e-38 338 208
0.027816633 0.83499998 0.046849065 1.0046004e-38 339 208
0.029280664 0.83499998 0.046849065 1.0229672e-38 340 208
0.030744698 0.83499998 0.046849065 1.0229672e-38 341 208
0.032131586 0.833 0.046736851 1.0321871e-38 342 208
0.033592112 0.833 0.046736851 1.0414068e-38 343 208
0.035052639 0.833 0.046736851 1.0506982e-38 344 208
0.036425497 0.83099997 0.046624638 1.0599178e-38 345 208
0.037882518 0.83099997 0.046624638 1.0507698e-38 346 208
0.039244857 0.829 0.046512425 1.0599894e-38 347 208
0.040698372 0.829 0.046512425 1.1150549e-38 348 208
0.042151887 0.829 0.046512425 1.1242746e-38 349 208
0.0435002 0.82700002 0.046400212 1.1427496e-38 350 208
0.044950206 0.82700002 0.046400212 1.1519692e-38 351 208
0.046400212 0.82700002 0.046400212 1.1154149e-38 352 208
0.047850218 0.82700002 0.046400212 1.1799519e-38 353 208
0.049300224 0.82700002 0.046400212 1.2536008e-38 354 208
0.0506275 0.82499999 0.046287999 1.3088823e-38 355 208
0.052073997 0.82499999 0.046287999 1.3548712e-38 356 208
0.053390753 0.82300001 0.046175785 1.3917495e-38 357 208
0.054833744 0.82300001 0.046175785 1.456034e-38 358 208
0.056276739 0.82300001 0.046175785 1.4837287e-38 359 208
0.057579465 0.82099998 0.046063572 1.5113517e-38 360 208
0.059018951 0.82099998 0.046063572 1.5205712e-38 361 208
0.060458437 0.82099998 0.046063572 1.520788e-38 362 208
0.061897919 0.82099998 0.046063572 1.5300076e-38 363 208
0.06349171 0.82300001 0.046175785 1.5205359e-38 364 208
0.064934701 0.82300001 0.046175785 1.4467794e-38 365 208
0.066538997 0.82499999 0.046287999 1.3549781e-38 366 208
0.067985497 0.82499999 0.046287999 1.401112e-38 367 208
0.069431998 0.82499999 0.046287999 1.4380252e-38 368 208
0.070878498 0.82499999 0.046287999 1.4380252e-38 369 208
0.072324999 0.82499999 0.046287999 1.4195491e-38 370 208
0.073592655 0.82300001 0.046175785 1.40111e-38 371 208
0.075035654 0.82300001 0.046175785 1.4011097e-38 372 208
0.076478645 0.82300001 0.046175785 1.3734869e-38 373 208
0.07773228 0.82099998 0.046063572 1.3090958e-38 374 208
0.078978904 0.81900001 0.045951359 1.2445589e-38 375 208
0.080414876 0.81900001 0.045951359 1.0792605e-38 376 208
-0.075735234 0.815 0.044297963 1.5117132e-38 267 209
-0.074306265 0.815 0.044297963 1.5944316e-38 268 209
-0.073056139 0.81699997 0.044406671 1.6405293e-38 269 209
-0.071623661 0.81699997 0.044406671 1.6866255e-38 270 209
-0.07019119 0.81699997 0.044406671 1.6958451e-38 271 209
-0.068758719 0.81699997 0.044406671 1.732616e-38 272 209
-0.067491055 0.81900001 0.044515379 1.6865183e-38 273 209
-0.066055074 0.81900001 0.044515379 1.6403495e-38 274 209
-0.064619094 0.81900001 0.044515379 1.5850321e-38 275 209
-0.063183114 0.81900001 0.044515379 1.5484062e-38 276 209
-0.061747137 0.81900001 0.044515379 1.594504e-38 277 209
-0.060311157 0.81900001 0.044515379 1.667938e-38 278 209
-0.058875177 0.81900001 0.044515379 1.686413e-38 279 209
-0.057439201 0.81900001 0.044515379 1.6681183e-38 280 209
-0.056003217 0.81900001 0.044515379 1.6865214e-38 281 209
-0.054433983 0.81699997 0.044406671 1.67723e-38 282 209
-0.053001508 0.81699997 0.044406671 1.658755e-38 283 209
-0.05169528 0.81900001 0.044515379 1.6312038e-38 284 209
-0.0502593 0.81900001 0.044515379 1.6035811e-38 285 209
-0.048823319 0.81900001 0.044515379 1.5851417e-38 286 209
-0.047387339 0.81900001 0.044515379 1.5667024e-38 287 209
-0.045951359 0.81900001 0.044515379 1.5390792e-38 288 209
-0.044515379 0.81900001 0.044515379 1.5114205e-38 289 209
-0.043184597 0.82099998 0.044624086 1.4836879e-38 290 209
-0.041745111 0.82099998 0.044624086 1.4467737e-38 291 209
-0.040305622 0.82099998 0.044624086 1.3822002e-38 292 209
-0.038960818 0.82300001 0.044732794 1.3361024e-38 293 209
-0.037517827 0.82300001 0.044732794 1.2531275e-38 294 209
-0.036162499 0.82499999 0.044841498 1.2162853e-38 295 209
-0.034715999 0.82499999 0.044841498 1.1518591e-38 296 209
-0.033269498 0.82499999 0.044841498 1.1426395e-38 297 209
-0.031822998 0.82499999 0.044841498 1.1425694e-38 298 209
-0.030450139 0.82700002 0.044950206 1.1241303e-38 299 209
-0.029000133 0.82700002 0.044950206 1.0965792e-38 300 209
-0.027550125 0.82700002 0.044950206 1.0965792e-38 301 209
-0.02610012 0.82700002 0.044950206 1.0782121e-38 302 209
-0.024650112 0.82700002 0.044950206 1.0689926e-38 303 209
-0.023200106 0.82700002 0.044950206 1.0597733e-38 304 209
-0.021802699 0.829 0.04505891 1.0597733e-38 305 209
-0.020349186 0.829 0.04505891 1.050553e-38 306 209
-0.018941259 0.83099997 0.045167617 1.050553e-38 307 209
-0.01748424 0.83099997 0.045167617 1.0413335e-38 308 209
-0.016065793 0.833 0.045276325 1.0229304e-38 309 209
-0.0131763 0.83499998 0.045385033 1.0136752e-38 311 209
-0.011712266 0.83499998 0.045385033 1.0227874e-38 312 209
-0.010248233 0.83499998 0.045385033 1.0135679e-38 313 209
-0.0087841991 0.83499998 0.045385033 9.8583883e-39 314 209
0.026352599 0.83499998 0.045385033 9.6765152e-39 338 209
0.027816633 0.83499998 0.045385033 9.6765152e-39 339 209
0.029280664 0.83499998 0.045385033 9.6765124e-39 340 209
0.030744698 0.83499998 0.045385033 9.6765124e-39 341 209
0.03220873 0.83499998 0.045385033 9.4939218e-39 342 209
0.033672765 0.83499998 0.045385033 9.7705087e-39 343 209
0.035052639 0.833 0.045276325 1.0138925e-38 344 209
0.036513168 0.833 0.045276325 1.0323317e-38 345 209
0.037882518 0.83099997 0.045167617 1.0507701e-38 346 209
0.039244857 0.829 0.04505891 1.0507701e-38 347 209
0.040698372 0.829 0.04505891 1.0598825e-38 348 209
0.042151887 0.829 0.04505891 1.069102e-38 349 209
0.0435002 0.82700002 0.044950206 1.0876488e-38 350 209
0.044950206 0.82700002 0.044950206 1.0968683e-38 351 209
0.046400212 0.82700002 0.044950206 1.1245266e-38 352 209
0.047850218 0.82700002 0.044950206 1.1522213e-38 353 209
0.049300224 0.82700002 0.044950206 1.1797368e-38 354 209
0.0506275 0.82499999 0.044841498 1.2350542e-38 355 209
0.052073997 0.82499999 0.044841498 1.2721472e-38 356 209
0.053390753 0.82300001 0.044732794 1.3182809e-38 357 209
0.054833744 0.82300001 0.044732794 1.4008971e-38 358 209
0.056276739 0.82300001 0.044732794 1.4285198e-38 359 209
0.057579465 0.82099998 0.044624086 1.4469242e-38 360 209
0.059018951 0.82099998 0.044624086 1.4653634e-38 361 209
0.060458437 0.82099998 0.044624086 1.4655435e-38 362 209
0.061897919 0.82099998 0.044624086 1.4931663e-38 363 209
0.06349171 0.82300001 0.044732794 1.5114964e-38 364 209
0.064934701 0.82300001 0.044732794 1.4653988e-38 365 209
0.066377692 0.82300001 0.044732794 1.4011475e-38 366 209
0.067985497 0.82499999 0.044841498 1.4287704e-38 367 209
0.069431998 0.82499999 0.044841498 1.4563921e-38 368 209
0.070878498 0.82499999 0.044841498 1.4656116e-38 369 209
0.072324999 0.82499999 0.044841498 1.4471002e-38 370 209
0.073592655 0.82300001 0.044732794 1.4286252e-38 371 209
0.075035654 0.82300001 0.044732794 1.3735589e-38 372 209
0.076478645 0.82300001 0.044732794 1.3643033e-38 373 209
0.07773228 0.82099998 0.044624086 1.3274974e-38 374 209
0.078978904 0.81900001 0.044515379 1.2261182e-38 375 209
0.080414876 0.81900001 0.044515379 9.8706329e-39 376 209
0.081850857 0.81900001 0.044515379 1.2913447e-38 377 209
-0.078786023 0.81699997 0.042974196 1.4382829e-38 265 210
-0.077353559 0.81699997 0.042974196 1.585323e-38 266 210
-0.075735234 0.815 0.042869002 1.6037981e-38 267 210
-0.074306265 0.815 0.042869002 1.6773356e-38 268 210
-0.073056139 0.81699997 0.042974196 1.6865552e-38 269 210
-0.071623661 0.81699997 0.042974196 1.7050649e-38 270 210
-0.07019119 0.81699997 0.042974196 1.7234681e-38 271 210
-0.068758719 0.81699997 0.042974196 1.7325807e-38 272 210
-0.06732624 0.81699997 0.042974196 1.6127265e-38 273 210
-0.065893769 0.81699997 0.042974196 1.5389344e-38 274 210
-0.064619094 0.81900001 0.043079399 1.4743975e-38 275 210
-0.063183114 0.81900001 0.043079399 1.4745778e-38 276 210
-0.061747137 0.81900001 0.043079399 1.5759571e-38 277 210
-0.060311157 0.81900001 0.043079399 1.6219123e-38 278 210
-0.058875177 0.81900001 0.043079399 1.6680101e-38 279 210
-0.057439201 0.81900001 0.043079399 1.6680104e-38 280 210
-0.055866458 0.81699997 0.042974196 1.6680104e-38 281 210
-0.054433983 0.81699997 0.042974196 1.6403873e-38 282 210
-0.053001508 0.81699997 0.042974196 1.6311677e-38 283 210
-0.051569037 0.81699997 0.042974196 1.5943612e-38 284 210
-0.050136562 0.81699997 0.042974196 1.5759221e-38 285 210
-0.048704091 0.81699997 0.042974196 1.5574826e-38 286 210
-0.047387339 0.81900001 0.043079399 1.5298599e-38 287 210
-0.045951359 0.81900001 0.043079399 1.5021639e-38 288 210
-0.044515379 0.81900001 0.043079399 1.4468465e-38 289 210
-0.043184597 0.82099998 0.043184597 1.3913844e-38 290 210
-0.041846808 0.82300001 0.043289799 1.336067e-38 291 210
-0.040403813 0.82300001 0.043289799 1.2531278e-38 292 210
-0.038960818 0.82300001 0.043289799 1.20703e-38 293 210
-0.037608996 0.82499999 0.043394998 1.1426032e-38 294 210
-0.036162499 0.82499999 0.043394998 1.1333837e-38 295 210
-0.034715999 0.82499999 0.043394998 1.0874673e-38 296 210
-0.033350151 0.82700002 0.0435002 1.0874673e-38 297 210
-0.031900145 0.82700002 0.0435002 1.1057266e-38 298 210
-0.030450139 0.82700002 0.0435002 1.0965071e-38 299 210
-0.029000133 0.82700002 0.0435002 1.0873591e-38 300 210
-0.027616752 0.829 0.043605398 1.0873591e-38 301 210
-0.02610012 0.82700002 0.0435002 1.0506614e-38 302 210
-0.024650112 0.82700002 0.0435002 1.0506614e-38 303 210
-0.023256212 0.829 0.043605398 1.0505536e-38 304 210
-0.021802699 0.829 0.043605398 1.0505536e-38 305 210
-0.02039828 0.83099997 0.043710597 1.0321865e-38 306 210
-0.018941259 0.83099997 0.043710597 1.0137474e-38 307 210
-0.01748424 0.83099997 0.043710597 1.0136755e-38 308 210
-0.016065793 0.833 0.043815799 1.0044559e-38 309 210
0.03220873 0.83499998 0.043920998 8.572704e-39 342 210
0.033672765 0.83499998 0.043920998 8.9418467e-39 343 210
0.035136797 0.83499998 0.043920998 9.7701584e-39 344 210
0.036513168 0.833 0.043815799 1.0231137e-38 345 210
0.037973695 0.833 0.043815799 1.0047096e-38 346 210
0.039339535 0.83099997 0.043710597 1.0047096e-38 347 210
0.040698372 0.829 0.043605398 1.0139288e-38 348 210
0.042151887 0.829 0.043605398 1.0231484e-38 349 210
0.043605398 0.829 0.043605398 1.0508777e-38 350 210
0.044950206 0.82700002 0.0435002 1.0785364e-38 351 210
0.046400212 0.82700002 0.0435002 1.096939e-38 352 210
0.047850218 0.82700002 0.0435002 1.1153421e-38 353 210
0.049300224 0.82700002 0.0435002 1.1429661e-38 354 210
0.0506275 0.82499999 0.043394998 1.1521857e-38 355 210
0.052073997 0.82499999 0.043394998 1.1892084e-38 356 210
0.053520497 0.82499999 0.043394998 1.2629649e-38 357 210
0.054966997 0.82499999 0.043394998 1.3456163e-38 358 210
0.056276739 0.82300001 0.043289799 1.373311e-38 359 210
0.057579465 0.82099998 0.043184597 1.4008265e-38 360 210
0.059018951 0.82099998 0.043184597 1.4284851e-38 361 210
0.060458437 0.82099998 0.043184597 1.4010789e-38 362 210
0.061897919 0.82099998 0.043184597 1.419518e-38 363 210
0.06349171 0.82300001 0.043289799 1.4195886e-38 364 210
0.064934701 0.82300001 0.043289799 1.4379917e-38 365 210
0.066377692 0.82300001 0.043289799 1.4564296e-38 366 210
0.067820683 0.82300001 0.043289799 1.44721e-38 367 210
0.069263682 0.82300001 0.043289799 1.4472095e-38 368 210
0.070706673 0.82300001 0.043289799 1.4379899e-38 369 210
0.072149664 0.82300001 0.043289799 1.4379532e-38 370 210
0.073592655 0.82300001 0.043289799 1.4102586e-38 371 210
0.075035654 0.82300001 0.043289799 1.3735233e-38 372 210
0.076478645 0.82300001 0.043289799 1.3550841e-38 373 210
0.07773228 0.82099998 0.043184597 1.3090583e-38 374 210
0.078978904 0.81900001 0.043079399 1.1984594e-38 375 210
0.079825759 0.81300002 0.042763799 8.8568369e-39 376 210
0.081251219 0.81300002 0.042763799 1.217588e-38 377 210
-0.080414876 0.81900001 0.041643418 1.5485189e-38 264 211
-0.078786023 0.81699997 0.041541722 1.5301158e-38 265 211
-0.077353559 0.81699997 0.041541722 1.622235e-38 266 211
-0.075735234 0.815 0.041440032 1.6314546e-38 267 211
-0.074306265 0.815 0.041440032 1.6865549e-38 268 211
-0.072877295 0.815 0.041440032 1.6957745e-38 269 211
-0.071448334 0.815 0.041440032 1.7418001e-38 270 211
-0.070019364 0.815 0.041440032 1.6680435e-38 271 211
-0.068590395 0.815 0.041440032 1.6126185e-38 272 211
-0.067161433 0.815 0.041440032 1.5019839e-38 273 211
-0.065893769 0.81699997 0.041541722 1.529428e-38 274 211
-0.064461298 0.81699997 0.041541722 1.5109887e-38 275 211
-0.06302882 0.81699997 0.041541722 1.5112052e-38 276 211
-0.061596353 0.81699997 0.041541722 1.5849617e-38 277 211
-0.060163878 0.81699997 0.041541722 1.6127281e-38 278 211
-0.058875177 0.81900001 0.041643418 1.6403867e-38 279 211
-0.057298932 0.81699997 0.041541722 1.6587183e-38 280 211
-0.055866458 0.81699997 0.041541722 1.6494987e-38 281 211
-0.054433983 0.81699997 0.041541722 1.6219476e-38 282 211
-0.053001508 0.81699997 0.041541722 1.6035085e-38 283 211
-0.051569037 0.81699997 0.041541722 1.5575182e-38 284 211
-0.050136562 0.81699997 0.041541722 1.5390792e-38 285 211
-0.048704091 0.81699997 0.041541722 1.5297147e-38 286 211
-0.047271617 0.81699997 0.041541722 1.4375191e-38 287 211
-0.045951359 0.81900001 0.041643418 1.382237e-38 288 211
-0.044515379 0.81900001 0.041643418 1.3177001e-38 289 211
-0.043184597 0.82099998 0.041745111 1.271567e-38 290 211
-0.041745111 0.82099998 0.041745111 1.2439083e-38 291 211
-0.040305622 0.82099998 0.041745111 1.1701537e-38 292 211
-0.038960818 0.82300001 0.041846808 1.1701537e-38 293 211
-0.037608996 0.82499999 0.041948497 1.1425326e-38 294 211
-0.036162499 0.82499999 0.041948497 1.133313e-38 295 211
-0.034715999 0.82499999 0.041948497 1.096579e-38 296 211
-0.033350151 0.82700002 0.04205019 1.0873594e-38 297 211
-0.031900145 0.82700002 0.04205019 1.0873594e-38 298 211
-0.030450139 0.82700002 0.04205019 1.0873594e-38 299 211
-0.029070266 0.829 0.042151887 1.0690282e-38 300 211
-0.027616752 0.829 0.042151887 1.0598085e-38 301 211
-0.026163239 0.829 0.042151887 1.0414417e-38 302 211
-0.024709726 0.829 0.042151887 1.0414417e-38 303 211
-0.023256212 0.829 0.042151887 1.0505536e-38 304 211
-0.021855298 0.83099997 0.042253576 1.0412982e-38 305 211
-0.02039828 0.83099997 0.042253576 1.0412984e-38 306 211
-0.017526319 0.833 0.042355273 1.0042057e-38 308 211
0.039434217 0.833 0.042355273 9.4024549e-39 347 211
0.040796559 0.83099997 0.042253576 1.0137126e-38 348 211
0.042151887 0.829 0.042151887 1.0413715e-38 349 211
0.043605398 0.829 0.042151887 1.0507698e-38 350 211
0.044950206 0.82700002 0.04205019 1.0692448e-38 351 211
0.046400212 0.82700002 0.04205019 1.0876838e-38 352 211
0.047850218 0.82700002 0.04205019 1.0969392e-38 353 211
0.049300224 0.82700002 0.04205019 1.1244547e-38 354 211
0.050750233 0.82700002 0.04205019 1.1520774e-38 355 211
0.052073997 0.82499999 0.041948497 1.1521857e-38 356 211
0.053520497 0.82499999 0.041948497 1.2075031e-38 357 211
0.054966997 0.82499999 0.041948497 1.235269e-38 358 211
0.056413498 0.82499999 0.041948497 1.2813668e-38 359 211
0.057719734 0.82300001 0.041846808 1.391462e-38 360 211
0.059162725 0.82300001 0.041846808 1.4191568e-38 361 211
0.06060572 0.82300001 0.041846808 1.3734545e-38 362 211
0.062048711 0.82300001 0.041846808 1.3826741e-38 363 211
0.06349171 0.82300001 0.041846808 1.4194437e-38 364 211
0.064776897 0.82099998 0.041745111 1.437883e-38 365 211
0.066216379 0.82099998 0.041745111 1.4563217e-38 366 211
0.067655869 0.82099998 0.041745111 1.4563217e-38 367 211
0.069095351 0.82099998 0.041745111 1.4563214e-38 368 211
0.070534848 0.82099998 0.041745111 1.4379183e-38 369 211
0.07197433 0.82099998 0.041745111 1.4011473e-38 370 211
0.073413812 0.82099998 0.041745111 1.3827081e-38 371 211
0.074853301 0.82099998 0.041745111 1.3643039e-38 372 211
0.07629279 0.82099998 0.041745111 1.3366454e-38 373 211
0.07773228 0.82099998 0.041745111 1.2906554e-38 374 211
0.078978904 0.81900001 0.041643418 1.1799847e-38 375 211
0.079825759 0.81300002 0.041338343 8.3958629e-39 376 211
0.081251219 0.81300002 0.041338343 1.1437959e-38 377 211
-0.083286837 0.81900001 0.040207438 1.6041626e-38 262 212
-0.081850857 0.81900001 0.040207438 1.4197714e-38 263 212
-0.080414876 0.81900001 0.040207438 1.5576275e-38 264 212
-0.078978904 0.81900001 0.040207438 1.6221644e-38 265 212
-0.077353559 0.81699997 0.040109251 1.6589691e-38 266 212
-0.075735234 0.815 0.040011063 1.6681886e-38 267 212
-0.074306265 0.815 0.040011063 1.7232892e-38 268 212
-0.072877295 0.815 0.040011063 1.7509119e-38 269 212
-0.071448334 0.815 0.040011063 1.7326177e-38 270 212
-0.069847539 0.81300002 0.039912879 1.5942884e-38 271 212
-0.068422079 0.81300002 0.039912879 1.4832599e-38 272 212
-0.067161433 0.815 0.040011063 1.4832599e-38 273 212
-0.065732464 0.815 0.040011063 1.4833323e-38 274 212
-0.064461298 0.81699997 0.040109251 1.5201747e-38 275 212
-0.06302882 0.81699997 0.040109251 1.5113129e-38 276 212
-0.061596353 0.81699997 0.040109251 1.5574107e-38 277 212
-0.060163878 0.81699997 0.040109251 1.5759218e-38 278 212
-0.058731399 0.81699997 0.040109251 1.6036164e-38 279 212
-0.057298932 0.81699997 0.040109251 1.612693e-38 280 212
-0.055866458 0.81699997 0.040109251 1.612693e-38 281 212
-0.054433983 0.81699997 0.040109251 1.5758854e-38 282 212
-0.053001508 0.81699997 0.040109251 1.5666658e-38 283 212
-0.051569037 0.81699997 0.040109251 1.5390416e-38 284 212
-0.050136562 0.81699997 0.040109251 1.4837242e-38 285 212
-0.048704091 0.81699997 0.040109251 1.4652128e-38 286 212
-0.047271617 0.81699997 0.040109251 1.3546141e-38 287 212
-0.045951359 0.81900001 0.040207438 1.2717474e-38 288 212
-0.044515379 0.81900001 0.040207438 1.2348332e-38 289 212
-0.043184597 0.82099998 0.040305622 1.1887376e-38 290 212
-0.041745111 0.82099998 0.040305622 1.1610791e-38 291 212
-0.040305622 0.82099998 0.040305622 1.1425694e-38 292 212
-0.038960818 0.82300001 0.040403813 1.1241303e-38 293 212
-0.037608996 0.82499999 0.040502001 1.0873597e-38 294 212
-0.036162499 0.82499999 0.040502001 1.0873597e-38 295 212
-0.034715999 0.82499999 0.040502001 1.0781397e-38 296 212
-0.033350151 0.82700002 0.040600184 1.0873594e-38 297 212
-0.031900145 0.82700002 0.040600184 1.0872522e-38 298 212
-0.030523779 0.829 0.040698372 1.0964718e-38 299 212
-0.029140398 0.83099997 0.040796559 1.0873241e-38 300 212
-0.027683379 0.83099997 0.040796559 1.0781045e-38 301 212
-0.026226358 0.83099997 0.040796559 1.0414065e-38 302 212
-0.02476934 0.83099997 0.040796559 1.0321868e-38 303 212
-0.023312319 0.83099997 0.040796559 1.0137126e-38 304 212
0.042253576 0.83099997 0.040796559 9.2191524e-39 349 212
0.043605398 0.829 0.040698372 1.0323314e-38 350 212
0.044950206 0.82700002 0.040600184 1.0692095e-38 351 212
0.046400212 0.82700002 0.040600184 1.050878e-38 352 212
0.047850218 0.82700002 0.040600184 1.0692813e-38 353 212
0.049300224 0.82700002 0.040600184 1.0876844e-38 354 212
0.050750233 0.82700002 0.040600184 1.115307e-38 355 212
0.052200239 0.82700002 0.040600184 1.1154149e-38 356 212
0.053520497 0.82499999 0.040502001 1.1154149e-38 357 212
0.054966997 0.82499999 0.040502001 1.1615122e-38 358 212
0.056413498 0.82499999 0.040502001 1.2353046e-38 359 212
0.057719734 0.82300001 0.040403813 1.2995891e-38 360 212
0.059162725 0.82300001 0.040403813 1.3364674e-38 361 212
0.06060572 0.82300001 0.040403813 1.3182809e-38 362 212
0.062048711 0.82300001 0.040403813 1.3459037e-38 363 212
0.063337415 0.82099998 0.040305622 1.3458687e-38 364 212
0.064776897 0.82099998 0.040305622 1.3643078e-38 365 212
0.066216379 0.82099998 0.040305622 1.373563e-38 366 212
0.067655869 0.82099998 0.040305622 1.373563e-38 367 212
0.069095351 0.82099998 0.040305622 1.4010416e-38 368 212
0.070534848 0.82099998 0.040305622 1.391822e-38 369 212
0.07197433 0.82099998 0.040305622 1.3734898e-38 370 212
0.073413812 0.82099998 0.040305622 1.3458672e-38 371 212
0.074853301 0.82099998 0.040305622 1.3274626e-38 372 212
0.07629279 0.82099998 0.040305622 1.3090235e-38 373 212
0.077542923 0.81900001 0.040207438 1.2354468e-38 374 212
0.078786023 0.81699997 0.040109251 1.1248122e-38 375 212
0.080022126 0.815 0.040011063 8.2103927e-39 376 212
0.081451096 0.815 0.040011063 1.1252848e-38 377 212
-0.084722817 0.81900001 0.038771462 1.4661251e-38 261 213
-0.083286837 0.81900001 0.038771462 1.5209681e-38 262 213
-0.081850857 0.81900001 0.038771462 1.5024931e-38 263 213
-0.080414876 0.81900001 0.038771462 1.6220545e-38 264 213
-0.078786023 0.81699997 0.03867678 1.6497492e-38 265 213
-0.077353559 0.81699997 0.03867678 1.6773353e-38 266 213
-0.075921081 0.81699997 0.03867678 1.704994e-38 267 213
-0.074306265 0.815 0.038582098 1.7326174e-38 268 213
-0.072877295 0.815 0.038582098 1.7049946e-38 269 213
-0.071448334 0.815 0.038582098 1.6219832e-38 270 213
-0.069847539 0.81300002 0.038487419 1.4468115e-38 271 213
-0.068422079 0.81300002 0.038487419 1.5013746e-38 272 213
-0.067161433 0.815 0.038582098 1.5382528e-38 273 213
-0.065732464 0.815 0.038582098 1.4834038e-38 274 213
-0.064461298 0.81699997 0.03867678 1.5110983e-38 275 213
-0.06302882 0.81699997 0.03867678 1.5114205e-38 276 213
-0.061596353 0.81699997 0.03867678 1.5390792e-38 277 213
-0.060163878 0.81699997 0.03867678 1.5943237e-38 278 213
-0.058731399 0.81699997 0.03867678 1.5943237e-38 279 213
-0.057298932 0.81699997 0.03867678 1.6125832e-38 280 213
-0.055866458 0.81699997 0.03867678 1.5849605e-38 281 213
-0.054433983 0.81699997 0.03867678 1.5298219e-38 282 213
-0.053001508 0.81699997 0.03867678 1.4652851e-38 283 213
-0.051569037 0.81699997 0.03867678 1.4099661e-38 284 213
-0.050136562 0.81699997 0.03867678 1.3362096e-38 285 213
-0.048704091 0.81699997 0.03867678 1.290149e-38 286 213
-0.047271617 0.81699997 0.03867678 1.2256121e-38 287 213
-0.045951359 0.81900001 0.038771462 1.1886652e-38 288 213
-0.044515379 0.81900001 0.038771462 1.1702259e-38 289 213
-0.043184597 0.82099998 0.03886614 1.1976344e-38 290 213
-0.041846808 0.82300001 0.038960818 1.1791953e-38 291 213
-0.040403813 0.82300001 0.038960818 1.133313e-38 292 213
-0.039055496 0.82499999 0.039055496 1.1148739e-38 293 213
-0.037608996 0.82499999 0.039055496 1.0965421e-38 294 213
-0.036162499 0.82499999 0.039055496 1.0873224e-38 295 213
-0.034800157 0.82700002 0.039150178 1.0781394e-38 296 213
-0.033350151 0.82700002 0.039150178 1.0781394e-38 297 213
-0.031977292 0.829 0.039244857 1.0872877e-38 298 213
0.043605398 0.829 0.039244857 9.3099033e-39 350 213
0.04505891 0.829 0.039244857 9.8630771e-39 351 213
0.046512425 0.829 0.039244857 1.0874688e-38 352 213
0.04796594 0.829 0.039244857 1.0874688e-38 353 213
0.049300224 0.82700002 0.039150178 1.0967957e-38 354 213
0.050750233 0.82700002 0.039150178 1.1152349e-38 355 213
0.052200239 0.82700002 0.039150178 1.1244544e-38 356 213
0.053650245 0.82700002 0.039150178 1.1244544e-38 357 213
0.055100251 0.82700002 0.039150178 1.0969036e-38 358 213
0.056413498 0.82499999 0.039055496 1.1430013e-38 359 213
0.057859998 0.82499999 0.039055496 1.1983181e-38 360 213
0.059162725 0.82300001 0.038960818 1.244416e-38 361 213
0.06060572 0.82300001 0.038960818 1.3178838e-38 362 213
0.062048711 0.82300001 0.038960818 1.3455425e-38 363 213
0.063337415 0.82099998 0.03886614 1.3456148e-38 364 213
0.064776897 0.82099998 0.03886614 1.3363952e-38 365 213
0.066216379 0.82099998 0.03886614 1.3732377e-38 366 213
0.067655869 0.82099998 0.03886614 1.3824573e-38 367 213
0.068927035 0.81900001 0.038771462 1.4191918e-38 368 213
0.070363015 0.81900001 0.038771462 1.4191918e-38 369 213
0.071799003 0.81900001 0.038771462 1.3824926e-38 370 213
0.073234983 0.81900001 0.038771462 1.3456504e-38 371 213
0.074670963 0.81900001 0.038771462 1.3273182e-38 372 213
0.076106943 0.81900001 0.038771462 1.2904399e-38 373 213
0.077542923 0.81900001 0.038771462 1.2077885e-38 374 213
0.078786023 0.81699997 0.03867678 1.1063373e-38 375 213
0.080022126 0.815 0.038582098 7.9334499e-39 376 213
0.081451096 0.815 0.038582098 1.0791873e-38 377 213
-0.086158797 0.81900001 0.037335481 1.6595526e-38 260 214
-0.084515922 0.81699997 0.037244301 1.4014048e-38 261 214
-0.083083443 0.81699997 0.037244301 1.5575556e-38 262 214
-0.081850857 0.81900001 0.037335481 1.6220925e-38 263 214
-0.080414876 0.81900001 0.037335481 1.6681158e-38 264 214
-0.078786023 0.81699997 0.037244301 1.6865549e-38 265 214
-0.077353559 0.81699997 0.037244301 1.7050293e-38 266 214
-0.075735234 0.815 0.037153132 1.7234325e-38 267 214
-0.074123919 0.81300002 0.03706196 1.7418004e-38 268 214
-0.072698459 0.81300002 0.03706196 1.6680438e-38 269 214
-0.071272999 0.81300002 0.03706196 1.5389716e-38 270 214
-0.069847539 0.81300002 0.03706196 1.4744346e-38 271 214
-0.068422079 0.81300002 0.03706196 1.5108462e-38 272 214
-0.066996619 0.81300002 0.03706196 1.538469e-38 273 214
-0.065732464 0.815 0.037153132 1.4745422e-38 274 214
-0.064461298 0.81699997 0.037244301 1.5114205e-38 275 214
-0.06302882 0.81699997 0.037244301 1.5298946e-38 276 214
-0.061596353 0.81699997 0.037244301 1.5575532e-38 277 214
-0.060163878 0.81699997 0.037244301 1.5759207e-38 278 214
-0.058731399 0.81699997 0.037244301 1.5666653e-38 279 214
-0.057298932 0.81699997 0.037244301 1.5114568e-38 280 214
-0.055866458 0.81699997 0.037244301 1.483834e-38 281 214
-0.054433983 0.81699997 0.037244301 1.4376267e-38 282 214
-0.053001508 0.81699997 0.037244301 1.3730898e-38 283 214
-0.051569037 0.81699997 0.037244301 1.3361742e-38 284 214
-0.0502593 0.81900001 0.037335481 1.280857e-38 285 214
-0.048823319 0.81900001 0.037335481 1.2347625e-38 286 214
-0.047387339 0.81900001 0.037335481 1.1979203e-38 287 214
-0.045951359 0.81900001 0.037335481 1.161009e-38 288 214
-0.044624086 0.82099998 0.037426651 1.1425697e-38 289 214
-0.043289799 0.82300001 0.037517827 1.1149833e-38 290 214
-0.041846808 0.82300001 0.037517827 1.0965083e-38 291 214
-0.040502001 0.82499999 0.037608996 1.0873597e-38 292 214
-0.039055496 0.82499999 0.037608996 1.0873597e-38 293 214
-0.037608996 0.82499999 0.037608996 1.0598079e-38 294 214
-0.036162499 0.82499999 0.037608996 1.0598079e-38 295 214
-0.034800157 0.82700002 0.037700173 1.0598082e-38 296 214
-0.033430804 0.829 0.037791345 1.0505886e-38 297 214
0.046512425 0.829 0.037791345 8.9443634e-39 352 214
0.04796594 0.829 0.037791345 9.4975372e-39 353 214
0.049300224 0.82700002 0.037700173 1.0783942e-38 354 214
0.050750233 0.82700002 0.037700173 1.0783942e-38 355 214
0.052200239 0.82700002 0.037700173 1.0783939e-38 356 214
0.053650245 0.82700002 0.037700173 1.0876135e-38 357 214
0.055100251 0.82700002 0.037700173 1.1151648e-38 358 214
0.056550261 0.82700002 0.037700173 1.1336039e-38 359 214
0.057859998 0.82499999 0.037608996 1.1521507e-38 360 214
0.059306499 0.82499999 0.037608996 1.1613702e-38 361 214
0.06060572 0.82300001 0.037517827 1.2075027e-38 362 214
0.062048711 0.82300001 0.037517827 1.2443809e-38 363 214
0.06349171 0.82300001 0.037517827 1.2444888e-38 364 214
0.064776897 0.82099998 0.037426651 1.2537084e-38 365 214
0.066216379 0.82099998 0.037426651 1.3088107e-38 366 214
0.067655869 0.82099998 0.037426651 1.3088107e-38 367 214
0.068927035 0.81900001 0.037335481 1.3180655e-38 368 214
0.070363015 0.81900001 0.037335481 1.3180655e-38 369 214
0.071799003 0.81900001 0.037335481 1.3272122e-38 370 214
0.073234983 0.81900001 0.037335481 1.3272122e-38 371 214
0.074670963 0.81900001 0.037335481 1.2904765e-38 372 214
0.076106943 0.81900001 0.037335481 1.2812569e-38 373 214
0.077542923 0.81900001 0.037335481 1.1801294e-38 374 214
0.078786023 0.81699997 0.037244301 1.0694948e-38 375 214
0.080022126 0.815 0.037153132 8.2993415e-39 376 214
0.081451096 0.815 0.037153132 1.1341797e-38 377 214
-0.087808676 0.82099998 0.035987165 1.5400983e-38 259 215
-0.086158797 0.81900001 0.035899501 1.5579905e-38 260 215
-0.084515922 0.81699997 0.03581183 1.4658309e-38 261 215
-0.083083443 0.81699997 0.03581183 1.6405293e-38 262 215
-0.081850857 0.81900001 0.035899501 1.6589685e-38 263 215
-0.080414876 0.81900001 0.035899501 1.668259e-38 264 215
-0.078786023 0.81699997 0.03581183 1.6866621e-38 265 215
-0.077353559 0.81699997 0.03581183 1.7051015e-38 266 215
-0.075735234 0.815 0.035724167 1.6958819e-38 267 215
-0.074123919 0.81300002 0.0356365 1.6865552e-38 268 215
-0.072698459 0.81300002 0.0356365 1.5943237e-38 269 215
-0.071272999 0.81300002 0.0356365 1.4744699e-38 270 215
-0.069847539 0.81300002 0.0356365 1.4375917e-38 271 215
-0.068422079 0.81300002 0.0356365 1.5017333e-38 272 215
-0.066996619 0.81300002 0.0356365 1.5202084e-38 273 215
-0.065732464 0.815 0.035724167 1.483941e-38 274 215
-0.064303495 0.815 0.035724167 1.5116356e-38 275 215
-0.062874533 0.815 0.035724167 1.5575532e-38 276 215
-0.061596353 0.81699997 0.03581183 1.5575532e-38 277 215
-0.060163878 0.81699997 0.03581183 1.5758123e-38 278 215
-0.058731399 0.81699997 0.03581183 1.5481896e-38 279 215
-0.057298932 0.81699997 0.03581183 1.4929797e-38 280 215
-0.055866458 0.81699997 0.03581183 1.4099677e-38 281 215
-0.054433983 0.81699997 0.03581183 1.3268843e-38 282 215
-0.053001508 0.81699997 0.03581183 1.271567e-38 283 215
-0.05169528 0.81900001 0.035899501 1.2714603e-38 284 215
-0.0502593 0.81900001 0.035899501 1.2345462e-38 285 215
-0.048823319 0.81900001 0.035899501 1.1794106e-38 286 215
-0.047387339 0.81900001 0.035899501 1.1701909e-38 287 215
-0.046063572 0.82099998 0.035987165 1.1333499e-38 288 215
-0.044732794 0.82300001 0.036074832 1.1241303e-38 289 215
-0.043289799 0.82300001 0.036074832 1.0965792e-38 290 215
-0.041948497 0.82499999 0.036162499 1.0873597e-38 291 215
-0.040502001 0.82499999 0.036162499 1.0873591e-38 292 215
-0.039055496 0.82499999 0.036162499 1.0781394e-38 293 215
-0.037608996 0.82499999 0.036162499 1.0598079e-38 294 215
-0.036162499 0.82499999 0.036162499 1.0505884e-38 295 215
-0.034800157 0.82700002 0.036250167 1.023002e-38 296 215
0.048081655 0.83099997 0.036425497 7.8405522e-39 353 215
0.049419452 0.829 0.036337834 1.0230065e-38 354 215
0.050872963 0.829 0.036337834 1.0506291e-38 355 215
0.052326478 0.829 0.036337834 1.0875054e-38 356 215
0.053779993 0.829 0.036337834 1.0875054e-38 357 215
0.055100251 0.82700002 0.036250167 1.0784295e-38 358 215
0.056550261 0.82700002 0.036250167 1.0876491e-38 359 215
0.058000267 0.82700002 0.036250167 1.1427146e-38 360 215
0.059306499 0.82499999 0.036162499 1.1795569e-38 361 215
0.060752995 0.82499999 0.036162499 1.1154872e-38 362 215
0.062199496 0.82499999 0.036162499 1.161549e-38 363 215
0.06349171 0.82300001 0.036074832 1.20761e-38 364 215
0.064776897 0.82099998 0.035987165 1.2260491e-38 365 215
0.066216379 0.82099998 0.035987165 1.2811503e-38 366 215
0.067655869 0.82099998 0.035987165 1.2903699e-38 367 215
0.068927035 0.81900001 0.035899501 1.3179204e-38 368 215
0.070363015 0.81900001 0.035899501 1.3179204e-38 369 215
0.071799003 0.81900001 0.035899501 1.2904402e-38 370 215
0.073234983 0.81900001 0.035899501 1.2904402e-38 371 215
0.074670963 0.81900001 0.035899501 1.2537415e-38 372 215
0.076106943 0.81900001 0.035899501 1.244486e-38 373 215
0.077542923 0.81900001 0.035899501 1.1800938e-38 374 215
0.078978904 0.81900001 0.035899501 1.0787147e-38 375 215
0.080414876 0.81900001 0.035899501 8.6670548e-39 376 215
0.081850857 0.81900001 0.035899501 1.1801705e-38 377 215
-0.089248173 0.82099998 0.034547675 1.6416192e-38 258 216
-0.087808676 0.82099998 0.034547675 1.4295692e-38 259 216
-0.086369194 0.82099998 0.034547675 1.576139e-38 260 216
-0.084722817 0.81900001 0.034463517 1.576139e-38 261 216
-0.083286837 0.81900001 0.034463517 1.6498196e-38 262 216
-0.082050733 0.82099998 0.034547675 1.6682587e-38 263 216
-0.080414876 0.81900001 0.034463517 1.7050293e-38 264 216
-0.078786023 0.81699997 0.034379359 1.7050293e-38 265 216
-0.077353559 0.81699997 0.034379359 1.6958464e-38 266 216
-0.075735234 0.815 0.034295198 1.6682237e-38 267 216
-0.074123919 0.81300002 0.03421104 1.6312741e-38 268 216
-0.072698459 0.81300002 0.03421104 1.5575176e-38 269 216
-0.071272999 0.81300002 0.03421104 1.4927293e-38 270 216
-0.069847539 0.81300002 0.03421104 1.4835096e-38 271 216
-0.068422079 0.81300002 0.03421104 1.4836529e-38 272 216
-0.066996619 0.81300002 0.03421104 1.5204952e-38 273 216
-0.065732464 0.815 0.034295198 1.5115271e-38 274 216
-0.064303495 0.815 0.034295198 1.5300021e-38 275 216
-0.062874533 0.815 0.034295198 1.5575176e-38 276 216
-0.06144556 0.815 0.034295198 1.5206754e-38 277 216
-0.060016599 0.815 0.034295198 1.5112756e-38 278 216
-0.058731399 0.81699997 0.034379359 1.4651778e-38 279 216
-0.057298932 0.81699997 0.034379359 1.3729819e-38 280 216
-0.055866458 0.81699997 0.034379359 1.3269199e-38 281 216
-0.054433983 0.81699997 0.034379359 1.2439461e-38 282 216
-0.053001508 0.81699997 0.034379359 1.2346907e-38 283 216
-0.05169528 0.81900001 0.034463517 1.2161462e-38 284 216
-0.0502593 0.81900001 0.034463517 1.1792679e-38 285 216
-0.048823319 0.81900001 0.034463517 1.1425692e-38 286 216
-0.047387339 0.81900001 0.034463517 1.1333496e-38 287 216
-0.046063572 0.82099998 0.034547675 1.1057985e-38 288 216
-0.044732794 0.82300001 0.034631841 1.096579e-38 289 216
-0.043289799 0.82300001 0.034631841 1.0689926e-38 290 216
-0.041846808 0.82300001 0.034631841 1.0597729e-38 291 216
-0.040403813 0.82300001 0.034631841 1.0598085e-38 292 216
-0.039055496 0.82499999 0.034715999 1.050553e-38 293 216
-0.037608996 0.82499999 0.034715999 1.0597366e-38 294 216
-0.036162499 0.82499999 0.034715999 1.0412616e-38 295 216
0.052326478 0.829 0.034884319 8.6688527e-39 356 216
0.053779993 0.829 0.034884319 9.1298308e-39 357 216
0.055233505 0.829 0.034884319 1.032261e-38 358 216
0.056550261 0.82700002 0.034800157 1.0599196e-38 359 216
0.058000267 0.82700002 0.034800157 1.1058731e-38 360 216
0.059450272 0.82700002 0.034800157 1.1150926e-38 361 216
0.060752995 0.82499999 0.034715999 1.124455e-38 362 216
0.062199496 0.82499999 0.034715999 1.1520777e-38 363 216
0.06349171 0.82300001 0.034631841 1.1615122e-38 364 216
0.064776897 0.82099998 0.034547675 1.1799872e-38 365 216
0.066216379 0.82099998 0.034547675 1.2168296e-38 366 216
0.067491055 0.81900001 0.034463517 1.2260491e-38 367 216
0.068927035 0.81900001 0.034463517 1.2628188e-38 368 216
0.070363015 0.81900001 0.034463517 1.2812219e-38 369 216
0.071799003 0.81900001 0.034463517 1.2537061e-38 370 216
0.073234983 0.81900001 0.034463517 1.2537061e-38 371 216
0.074670963 0.81900001 0.034463517 1.2169355e-38 372 216
0.076106943 0.81900001 0.034463517 1.2076801e-38 373 216
0.077542923 0.81900001 0.034463517 1.1892418e-38 374 216
0.078786023 0.81699997 0.034379359 1.0877907e-38 375 216
0.080218501 0.81699997 0.034379359 8.5745047e-39 376 216
0.08165098 0.81699997 0.034379359 1.207794e-38 377 216
-0.089248173 0.82099998 0.03310819 1.595231e-38 258 217
-0.087808676 0.82099998 0.03310819 1.4016202e-38 259 217
-0.086369194 0.82099998 0.03310819 1.6036517e-38 260 217
-0.084722817 0.81900001 0.033027537 1.6497136e-38 261 217
-0.083286837 0.81900001 0.033027537 1.6590038e-38 262 217
-0.081850857 0.81900001 0.033027537 1.6958819e-38 263 217
-0.080414876 0.81900001 0.033027537 1.7050662e-38 264 217
-0.078978904 0.81900001 0.033027537 1.7050662e-38 265 217
-0.077353559 0.81699997 0.032946885 1.7049943e-38 266 217
-0.075735234 0.815 0.032866232 1.6773356e-38 267 217
-0.074123919 0.81300002 0.03278558 1.5944316e-38 268 217
-0.072698459 0.81300002 0.03278558 1.5298946e-38 269 217
-0.071272999 0.81300002 0.03278558 1.5387901e-38 270 217
-0.069847539 0.81300002 0.03278558 1.5387901e-38 271 217
-0.068253763 0.81099999 0.032704927 1.5022355e-38 272 217
-0.066831805 0.81099999 0.032704927 1.5207107e-38 273 217
-0.065571159 0.81300002 0.03278558 1.5300021e-38 274 217
-0.064303495 0.815 0.032866232 1.5300021e-38 275 217
-0.062874533 0.815 0.032866232 1.5574447e-38 276 217
-0.06144556 0.815 0.032866232 1.4929078e-38 277 217
