# .PCD v.7 - Point Cloud Data file format
FIELDS x y z rgb imX imY
SIZE 4 4 4 4 4 4
TYPE F F F F F F
COUNT 1 1 1 1 1 1
WIDTH 834
HEIGHT 1
VIEWPOINT 0 0 0 1 0 0 0
POINTS 834
DATA ascii
0.0034926396 0.66399997 -0.040747464 1.8802026e-38 323 275
0.0046708798 0.66600001 -0.040870197 1.8618005e-38 324 275
0.0058385995 0.66600001 -0.040870197 1.8618005e-38 325 275
0.0070063197 0.66600001 -0.040870197 1.8342497e-38 326 275
0.0081740404 0.66600001 -0.040870197 1.8342497e-38 327 275
0.0093417596 0.66600001 -0.040870197 1.8525809e-38 328 275
0.010477919 0.66399997 -0.040747464 1.8618005e-38 329 275
0.011642133 0.66399997 -0.040747464 1.8342497e-38 330 275
0.012806346 0.66399997 -0.040747464 1.8250301e-38 331 275
0.013970559 0.66399997 -0.040747464 1.8342499e-38 332 275
0.015134773 0.66399997 -0.040747464 1.8250304e-38 333 275
0.016298985 0.66399997 -0.040747464 1.8249951e-38 334 275
0.0174632 0.66399997 -0.040747464 1.8249951e-38 335 275
0.018683519 0.66600001 -0.040870197 1.8248879e-38 336 275
0.019851239 0.66600001 -0.040870197 1.8248879e-38 337 275
0.02101896 0.66600001 -0.040870197 1.7973734e-38 338 275
0.02218668 0.66600001 -0.040870197 1.7881538e-38 339 275
0.023354398 0.66600001 -0.040870197 1.7698229e-38 340 275
0.02452212 0.66600001 -0.040870197 1.7513477e-38 341 275
0.02568984 0.66600001 -0.040870197 1.769679e-38 342 275
0.026857559 0.66600001 -0.040870197 1.7420563e-38 343 275
0.028025279 0.66600001 -0.040870197 1.7236888e-38 344 275
0.029236831 0.667 -0.040931564 1.7329083e-38 345 275
0.049373865 0.704 -0.043202132 1.4102987e-38 360 275
0.050608214 0.704 -0.043202132 1.382604e-38 361 275
0.051842559 0.704 -0.043202132 1.4101533e-38 362 275
0.053076904 0.704 -0.043202132 1.3363968e-38 363 275
0.054311249 0.704 -0.043202132 1.1799522e-38 364 275
0.055703394 0.70599997 -0.043324865 1.1522576e-38 365 275
0.057021905 0.70700002 -0.043386232 1.2259438e-38 366 275
0.058343921 0.708 -0.043447599 1.2997003e-38 367 275
-0.096689314 0.70700002 -0.044625837 1.1337464e-38 242 276
-0.095314704 0.70599997 -0.044562716 1.2259422e-38 243 276
-0.093810342 0.704 -0.044436477 1.3181712e-38 244 276
-0.092575997 0.704 -0.044436477 1.2996962e-38 245 276
-0.090822659 0.69999999 -0.044183996 1.3273165e-38 246 276
-0.089595325 0.69999999 -0.044183996 1.3273165e-38 247 276
-0.088115521 0.69800001 -0.04405776 1.3456827e-38 248 276
-0.08664272 0.69599998 -0.043931518 1.3272796e-38 249 276
-0.085176937 0.69400001 -0.043805279 1.3548655e-38 250 276
-0.083960123 0.69400001 -0.043805279 1.3548655e-38 251 276
-0.082385622 0.69099998 -0.043615919 1.3732323e-38 252 276
-0.080821648 0.68800002 -0.043426562 1.3732323e-38 253 276
-0.079499632 0.68699998 -0.043363437 1.3548304e-38 254 276
-0.078295097 0.68699998 -0.043363437 1.3640501e-38 255 276
-0.076978341 0.68599999 -0.043300316 1.3181317e-38 256 276
-0.075444184 0.68300003 -0.043110959 1.3457905e-38 257 276
-0.074246652 0.68300003 -0.043110959 1.3918879e-38 258 276
-0.072942168 0.68199998 -0.043047838 1.4472053e-38 259 276
-0.071746394 0.68199998 -0.043047838 1.4841193e-38 260 276
-0.070343733 0.68000001 -0.042921599 1.5209974e-38 261 276
-0.069151461 0.68000001 -0.042921599 1.5945375e-38 262 276
-0.067859262 0.67900002 -0.042858478 1.6313798e-38 263 276
-0.066668749 0.67900002 -0.042858478 1.63138e-38 264 276
-0.065381795 0.67799997 -0.042795356 1.6405996e-38 265 276
-0.06419304 0.67799997 -0.042795356 1.6681861e-38 266 276
-0.062818423 0.676 -0.042669121 1.6774057e-38 267 276
-0.061633173 0.676 -0.042669121 1.6682587e-38 268 276
-0.060358498 0.67500001 -0.042606 1.6866618e-38 269 276
-0.059087332 0.67400002 -0.042542879 1.6866621e-38 270 276
-0.057905588 0.67400002 -0.042542879 1.6866621e-38 271 276
-0.056555521 0.67199999 -0.042416636 1.7050649e-38 272 276
-0.055377278 0.67199999 -0.042416636 1.7050649e-38 273 276
-0.054118387 0.671 -0.042353518 1.7143931e-38 274 276
-0.052941896 0.671 -0.042353518 1.7143931e-38 275 276
-0.051765412 0.671 -0.042353518 1.7235408e-38 276 276
-0.050513536 0.67000002 -0.042290401 1.7235408e-38 277 276
-0.049338799 0.67000002 -0.042290401 1.7419076e-38 278 276
-0.048164066 0.67000002 -0.042290401 1.7419076e-38 279 276
-0.046849065 0.66799998 -0.042164158 1.7328325e-38 280 276
-0.045609459 0.667 -0.042101037 1.7420521e-38 281 276
-0.044439986 0.667 -0.042101037 1.7603833e-38 282 276
-0.04327051 0.667 -0.042101037 1.7696029e-38 283 276
-0.042101037 0.667 -0.042101037 1.7787858e-38 284 276
-0.040931564 0.667 -0.042101037 1.7971891e-38 285 276
-0.039762091 0.667 -0.042101037 1.797262e-38 286 276
-0.038592618 0.667 -0.042101037 1.797262e-38 287 276
-0.037423145 0.667 -0.042101037 1.7972991e-38 288 276
-0.03619932 0.66600001 -0.042037919 1.8065187e-38 289 276
-0.035031598 0.66600001 -0.042037919 1.8248502e-38 290 276
-0.03386388 0.66600001 -0.042037919 1.8340699e-38 291 276
-0.032696161 0.66600001 -0.042037919 1.861656e-38 292 276
-0.031528439 0.66600001 -0.042037919 1.861656e-38 293 276
-0.030360719 0.66600001 -0.042037919 1.8616916e-38 294 276
-0.029192999 0.66600001 -0.042037919 1.8709111e-38 295 276
-0.027941117 0.66399997 -0.041911677 1.8708755e-38 296 276
-0.026776904 0.66399997 -0.041911677 1.8800951e-38 297 276
-0.025728412 0.667 -0.042101037 1.8617995e-38 298 276
-0.02452212 0.66600001 -0.042037919 1.8617995e-38 299 276
-0.023354398 0.66600001 -0.042037919 1.8618358e-38 300 276
-0.02218668 0.66600001 -0.042037919 1.8618358e-38 301 276
-0.020892721 0.662 -0.041785441 1.880167e-38 302 276
-0.019732011 0.662 -0.041785441 1.880167e-38 303 276
-0.018571306 0.662 -0.041785441 1.880167e-38 304 276
-0.017436899 0.66299999 -0.041848559 1.8617639e-38 305 276
-0.016274439 0.66299999 -0.041848559 1.861836e-38 306 276
-0.015111978 0.66299999 -0.041848559 1.861836e-38 307 276
-0.01392848 0.662 -0.041785441 1.861836e-38 308 276
-0.012767773 0.662 -0.041785441 1.861836e-38 309 276
-0.011607066 0.662 -0.041785441 1.8801673e-38 310 276
-0.01044636 0.662 -0.041785441 1.8801673e-38 311 276
-0.009285653 0.662 -0.041785441 1.861836e-38 312 276
-0.0081249457 0.662 -0.041785441 1.861836e-38 313 276
-0.0069642398 0.662 -0.041785441 1.880167e-38 314 276
-0.0058035329 0.662 -0.041785441 1.880167e-38 315 276
-0.0046428265 0.662 -0.041785441 1.8618714e-38 316 276
-0.0034821199 0.662 -0.041785441 1.8618714e-38 317 276
-0.0023179066 0.66100001 -0.04172232 1.8618358e-38 318 276
-0.0011589533 0.66100001 -0.04172232 1.8618358e-38 319 276
0 0.66100001 -0.04172232 1.8526165e-38 320 276
0.0011589533 0.66100001 -0.04172232 1.8526165e-38 321 276
0.0023179066 0.66100001 -0.04172232 1.8617286e-38 322 276
0.0034926396 0.66399997 -0.041911677 1.8617286e-38 323 276
0.0046568532 0.66399997 -0.041911677 1.8525809e-38 324 276
0.0058210664 0.66399997 -0.041911677 1.8433613e-38 325 276
0.0069852793 0.66399997 -0.041911677 1.8525809e-38 326 276
0.0081494926 0.66399997 -0.041911677 1.8525809e-38 327 276
0.0093137063 0.66399997 -0.041911677 1.8433613e-38 328 276
0.01050948 0.66600001 -0.042037919 1.8525809e-38 329 276
0.011677199 0.66600001 -0.042037919 1.8433616e-38 330 276
0.012806346 0.66399997 -0.041911677 1.8249585e-38 331 276
0.013970559 0.66399997 -0.041911677 1.8157036e-38 332 276
0.015134773 0.66399997 -0.041911677 1.8157036e-38 333 276
0.016298985 0.66399997 -0.041911677 1.8065203e-38 334 276
0.0174632 0.66399997 -0.041911677 1.8065203e-38 335 276
0.018627413 0.66399997 -0.041911677 1.7973009e-38 336 276
0.019791625 0.66399997 -0.041911677 1.7973009e-38 337 276
0.020955838 0.66399997 -0.041911677 1.7789341e-38 338 276
0.022120051 0.66399997 -0.041911677 1.7697145e-38 339 276
0.023354398 0.66600001 -0.042037919 1.7513477e-38 340 276
0.02452212 0.66600001 -0.042037919 1.7421282e-38 341 276
0.02568984 0.66600001 -0.042037919 1.7328011e-38 342 276
0.026857559 0.66600001 -0.042037919 1.7235816e-38 343 276
0.028025279 0.66600001 -0.042037919 1.696031e-38 344 276
0.029236831 0.667 -0.042101037 1.696031e-38 345 276
0.030406304 0.667 -0.042101037 1.6960308e-38 346 276
0.0317178 0.67000002 -0.042290401 1.6591165e-38 347 276
0.032892533 0.67000002 -0.042290401 1.6130174e-38 348 276
0.034118112 0.671 -0.042353518 1.5392609e-38 349 276
0.0352946 0.671 -0.042353518 1.4655397e-38 350 276
0.036634147 0.67400002 -0.042542879 1.4655397e-38 351 276
0.037815895 0.67400002 -0.042542879 1.484017e-38 352 276
0.038997639 0.67400002 -0.042542879 1.5024921e-38 353 276
0.040179387 0.67400002 -0.042542879 1.4752332e-38 354 276
0.041177034 0.671 -0.042353518 1.5674649e-38 355 276
0.042353518 0.671 -0.042353518 1.6315345e-38 356 276
0.043594878 0.67199999 -0.042416636 1.5393388e-38 357 276
0.049303733 0.70300001 -0.04437336 1.4288448e-38 360 276
0.050536323 0.70300001 -0.04437336 1.4288448e-38 361 276
0.051768921 0.70300001 -0.04437336 1.447141e-38 362 276
0.053001512 0.70300001 -0.04437336 1.2719694e-38 363 276
0.054234106 0.70300001 -0.04437336 8.8503531e-39 364 276
0.055545598 0.704 -0.044436477 8.1124293e-39 365 276
0.056941248 0.70599997 -0.044562716 9.8648777e-39 366 276
-0.096552551 0.70599997 -0.04580057 1.1151651e-38 242 277
-0.095314704 0.70599997 -0.04580057 1.1704466e-38 243 277
-0.093810342 0.704 -0.045670826 1.2627832e-38 244 277
-0.092575997 0.704 -0.045670826 1.2812222e-38 245 277
-0.090822659 0.69999999 -0.04541133 1.3272812e-38 246 277
-0.089595325 0.69999999 -0.04541133 1.3180616e-38 247 277
-0.088115521 0.69800001 -0.045281585 1.3273515e-38 248 277
-0.086767212 0.69700003 -0.045216713 1.3273515e-38 249 277
-0.085422389 0.69599998 -0.045151837 1.3273866e-38 250 277
-0.083960123 0.69400001 -0.045022093 1.3273866e-38 251 277
-0.082385622 0.69099998 -0.044827472 1.3457178e-38 252 277
-0.080821648 0.68800002 -0.044632856 1.3457178e-38 253 277
-0.079499632 0.68699998 -0.044567976 1.3273515e-38 254 277
-0.078295097 0.68699998 -0.044567976 1.3273515e-38 255 277
-0.076978341 0.68599999 -0.044503104 1.3273515e-38 256 277
-0.075444184 0.68300003 -0.044308487 1.3273515e-38 257 277
-0.074137948 0.68199998 -0.044243611 1.3457908e-38 258 277
-0.072942168 0.68199998 -0.044243611 1.4011082e-38 259 277
-0.071746394 0.68199998 -0.044243611 1.4103996e-38 260 277
-0.070343733 0.68000001 -0.044113863 1.4380942e-38 261 277
-0.069049768 0.67900002 -0.044048995 1.4749719e-38 262 277
-0.06775932 0.67799997 -0.043984115 1.5210337e-38 263 277
-0.066570558 0.67799997 -0.043984115 1.5577682e-38 264 277
-0.065381795 0.67799997 -0.043984115 1.5669877e-38 265 277
-0.06419304 0.67799997 -0.043984115 1.5854622e-38 266 277
-0.062818423 0.676 -0.043854371 1.6038653e-38 267 277
-0.061542001 0.67500001 -0.043789499 1.6405996e-38 268 277
-0.060358498 0.67500001 -0.043789499 1.6498193e-38 269 277
-0.059087332 0.67400002 -0.043724626 1.6314884e-38 270 277
-0.057733759 0.67199999 -0.043594878 1.6314884e-38 271 277
-0.056555521 0.67199999 -0.043594878 1.6590392e-38 272 277
-0.055377278 0.67199999 -0.043594878 1.6682587e-38 273 277
-0.054118387 0.671 -0.043530006 1.6683306e-38 274 277
-0.052863002 0.67000002 -0.043465134 1.6775502e-38 275 277
-0.051688269 0.67000002 -0.043465134 1.7050296e-38 276 277
-0.050362743 0.66799998 -0.043335386 1.7050296e-38 277 277
-0.04919152 0.66799998 -0.043335386 1.7050296e-38 278 277
-0.048020288 0.66799998 -0.043335386 1.7050296e-38 279 277
-0.046778932 0.667 -0.04327051 1.7233974e-38 280 277
-0.045609459 0.667 -0.04327051 1.7326171e-38 281 277
-0.04437336 0.66600001 -0.043205637 1.7051015e-38 282 277
-0.043205637 0.66600001 -0.043205637 1.7143212e-38 283 277
-0.042037919 0.66600001 -0.043205637 1.696025e-38 284 277
-0.040870197 0.66600001 -0.043205637 1.7144281e-38 285 277
-0.039702479 0.66600001 -0.043205637 1.7327606e-38 286 277
-0.03853476 0.66600001 -0.043205637 1.7603833e-38 287 277
-0.037367038 0.66600001 -0.043205637 1.7420535e-38 288 277
-0.03619932 0.66600001 -0.043205637 1.7513089e-38 289 277
-0.035031598 0.66600001 -0.043205637 1.7880439e-38 290 277
-0.033762183 0.66399997 -0.043075889 1.7788244e-38 291 277
-0.03259797 0.66399997 -0.043075889 1.7880077e-38 292 277
-0.031433757 0.66399997 -0.043075889 1.8156303e-38 293 277
-0.030360719 0.66600001 -0.043205637 1.7972269e-38 294 277
-0.029192999 0.66600001 -0.043205637 1.8156301e-38 295 277
-0.027941117 0.66399997 -0.043075889 1.8340329e-38 296 277
-0.026736578 0.66299999 -0.043011017 1.8340329e-38 297 277
-0.025574118 0.66299999 -0.043011017 1.8248849e-38 298 277
-0.024374841 0.662 -0.042946145 1.8248849e-38 299 277
-0.023214132 0.662 -0.042946145 1.8249935e-38 300 277
-0.022053426 0.662 -0.042946145 1.8249935e-38 301 277
-0.02086116 0.66100001 -0.042881273 1.8249579e-38 302 277
-0.019702207 0.66100001 -0.042881273 1.8433969e-38 303 277
-0.018543253 0.66100001 -0.042881273 1.843325e-38 304 277
-0.0173843 0.66100001 -0.042881273 1.8525446e-38 305 277
-0.016249891 0.662 -0.042946145 1.8525446e-38 306 277
-0.015066394 0.66100001 -0.042881273 1.8525446e-38 307 277
-0.01390744 0.66100001 -0.042881273 1.852509e-38 308 277
-0.012748486 0.66100001 -0.042881273 1.852509e-38 309 277
-0.011589534 0.66100001 -0.042881273 1.8617286e-38 310 277
-0.01043058 0.66100001 -0.042881273 1.8617286e-38 311 277
-0.0092716264 0.66100001 -0.042881273 1.8526165e-38 312 277
-0.0081126727 0.66100001 -0.042881273 1.8526165e-38 313 277
-0.00695372 0.66100001 -0.042881273 1.8617642e-38 314 277
-0.0057947668 0.66100001 -0.042881273 1.8617642e-38 315 277
-0.0046428265 0.662 -0.042946145 1.8526165e-38 316 277
-0.00347686 0.66100001 -0.042881273 1.8526165e-38 317 277
-0.0023179066 0.66100001 -0.042881273 1.8617642e-38 318 277
-0.0011589533 0.66100001 -0.042881273 1.8525446e-38 319 277
0 0.65899998 -0.042751525 1.8433613e-38 320 277
0.0011554466 0.65899998 -0.042751525 1.8433613e-38 321 277
0.0023108933 0.65899998 -0.042751525 1.852509e-38 322 277
0.00347686 0.66100001 -0.042881273 1.852509e-38 323 277
0.0046358132 0.66100001 -0.042881273 1.8433969e-38 324 277
0.0057947668 0.66100001 -0.042881273 1.8157384e-38 325 277
0.0069642398 0.662 -0.042946145 1.8249579e-38 326 277
0.0081249457 0.662 -0.042946145 1.8433969e-38 327 277
0.009285653 0.662 -0.042946145 1.8249582e-38 328 277
0.010477919 0.66399997 -0.043075889 1.8157387e-38 329 277
0.011642133 0.66399997 -0.043075889 1.8157033e-38 330 277
0.012806346 0.66399997 -0.043075889 1.8157033e-38 331 277
0.013970559 0.66399997 -0.043075889 1.806448e-38 332 277
0.015134773 0.66399997 -0.043075889 1.7880089e-38 333 277
0.016298985 0.66399997 -0.043075889 1.7788975e-38 334 277
0.0174632 0.66399997 -0.043075889 1.7788975e-38 335 277
0.018599359 0.66299999 -0.043011017 1.7696424e-38 336 277
0.019761819 0.66299999 -0.043011017 1.7696424e-38 337 277
0.020955838 0.66399997 -0.043075889 1.760495e-38 338 277
0.02208674 0.66299999 -0.043011017 1.742056e-38 339 277
0.0232492 0.66299999 -0.043011017 1.7236171e-38 340 277
0.024448479 0.66399997 -0.043075889 1.7236171e-38 341 277
0.025612691 0.66399997 -0.043075889 1.7051426e-38 342 277
0.026857559 0.66600001 -0.043205637 1.6958871e-38 343 277
0.028025279 0.66600001 -0.043205637 1.6958871e-38 344 277
0.029192999 0.66600001 -0.043205637 1.7051426e-38 345 277
0.030360719 0.66600001 -0.043205637 1.6775559e-38 346 277
0.03157578 0.667 -0.04327051 1.6498972e-38 347 277
0.032794341 0.66799998 -0.043335386 1.5670638e-38 348 277
0.034067266 0.67000002 -0.043465134 1.4840876e-38 349 277
0.0352946 0.671 -0.043530006 1.4470649e-38 350 277
0.036471087 0.671 -0.043530006 1.4562844e-38 351 277
0.037703678 0.67199999 -0.043594878 1.4562849e-38 352 277
0.03888192 0.67199999 -0.043594878 1.4378097e-38 353 277
0.040179387 0.67400002 -0.043724626 1.392146e-38 354 277
0.041177034 0.671 -0.043530006 1.4843417e-38 355 277
0.042353518 0.671 -0.043530006 1.5762502e-38 356 277
0.043594878 0.67199999 -0.043594878 1.5209328e-38 357 277
0.044773117 0.67199999 -0.043594878 1.493237e-38 358 277
0.049303733 0.70300001 -0.04560595 1.4381715e-38 360 277
0.050536323 0.70300001 -0.04560595 1.4381715e-38 361 277
0.051768921 0.70300001 -0.04560595 1.4197701e-38 362 277
0.053001512 0.70300001 -0.04560595 1.1708419e-38 363 277
0.054234106 0.70300001 -0.04560595 7.4685116e-39 364 277
0.055545598 0.704 -0.045670826 7.8372928e-39 365 277
-0.096552551 0.70599997 -0.047038425 1.1060914e-38 242 278
-0.095314704 0.70599997 -0.047038425 1.0968717e-38 243 278
-0.093810342 0.704 -0.046905171 1.1890638e-38 244 278
-0.092575997 0.704 -0.046905171 1.2259422e-38 245 278
-0.090822659 0.69999999 -0.046638668 1.2996951e-38 246 278
-0.089595325 0.69999999 -0.046638668 1.3089146e-38 247 278
-0.088115521 0.69800001 -0.046505414 1.3273882e-38 248 278
-0.086767212 0.69700003 -0.046438783 1.3366078e-38 249 278
-0.085422389 0.69599998 -0.046372157 1.3273512e-38 250 278
-0.083960123 0.69400001 -0.046238903 1.3273512e-38 251 278
-0.082266398 0.69 -0.045972396 1.3273868e-38 252 278
-0.080821648 0.68800002 -0.045839146 1.3273868e-38 253 278
-0.079499632 0.68699998 -0.045772515 1.30902e-38 254 278
-0.078295097 0.68699998 -0.045772515 1.2998005e-38 255 278
-0.076978341 0.68599999 -0.045705888 1.318132e-38 256 278
-0.075444184 0.68300003 -0.045506012 1.318132e-38 257 278
-0.074137948 0.68199998 -0.045439381 1.3365006e-38 258 278
-0.072942168 0.68199998 -0.045439381 1.3641592e-38 259 278
-0.071746394 0.68199998 -0.045439381 1.3458276e-38 260 278
-0.070343733 0.68000001 -0.045306131 1.3734863e-38 261 278
-0.069049768 0.67900002 -0.045239504 1.4103993e-38 262 278
-0.06775932 0.67799997 -0.045172878 1.4380939e-38 263 278
-0.066570558 0.67799997 -0.045172878 1.4749e-38 264 278
-0.065381795 0.67799997 -0.045172878 1.5025227e-38 265 278
-0.06419304 0.67799997 -0.045172878 1.5302169e-38 266 278
-0.062818423 0.676 -0.045039624 1.5486562e-38 267 278
-0.061542001 0.67500001 -0.044972997 1.6037571e-38 268 278
-0.06026908 0.67400002 -0.044906374 1.6221602e-38 269 278
-0.058911994 0.67199999 -0.044773117 1.6130488e-38 270 278
-0.057733759 0.67199999 -0.044773117 1.6130488e-38 271 278
-0.056471359 0.671 -0.044706494 1.6405643e-38 272 278
-0.055294871 0.671 -0.044706494 1.649784e-38 273 278
-0.054037735 0.67000002 -0.044639867 1.6222698e-38 274 278
-0.052705199 0.66799998 -0.044506609 1.6314893e-38 275 278
-0.051533967 0.66799998 -0.044506609 1.6498208e-38 276 278
-0.050362743 0.66799998 -0.044506609 1.6498208e-38 277 278
-0.049117878 0.667 -0.044439986 1.6497855e-38 278 278
-0.047948405 0.667 -0.044439986 1.6497855e-38 279 278
-0.046708796 0.66600001 -0.04437336 1.6497505e-38 280 278
-0.045541082 0.66600001 -0.04437336 1.6682255e-38 281 278
-0.044240102 0.66399997 -0.044240102 1.6590057e-38 282 278
-0.043075889 0.66399997 -0.044240102 1.6682252e-38 283 278
-0.041911677 0.66399997 -0.044240102 1.6683672e-38 284 278
-0.040747464 0.66399997 -0.044240102 1.6683672e-38 285 278
-0.039583251 0.66399997 -0.044240102 1.7051012e-38 286 278
-0.038419038 0.66399997 -0.044240102 1.7143209e-38 287 278
-0.037367038 0.66600001 -0.04437336 1.714323e-38 288 278
-0.036090612 0.66399997 -0.044240102 1.7327622e-38 289 278
-0.0349264 0.66399997 -0.044240102 1.7419114e-38 290 278
-0.033762183 0.66399997 -0.044240102 1.7419114e-38 291 278
-0.03259797 0.66399997 -0.044240102 1.7510586e-38 292 278
-0.031433757 0.66399997 -0.044240102 1.7602782e-38 293 278
-0.030269546 0.66399997 -0.044240102 1.7695327e-38 294 278
-0.029017664 0.662 -0.044106852 1.7787881e-38 295 278
-0.027856959 0.662 -0.044106852 1.7971544e-38 296 278
-0.026696252 0.662 -0.044106852 1.7971544e-38 297 278
-0.025535546 0.662 -0.044106852 1.7604913e-38 298 278
-0.024374841 0.662 -0.044106852 1.7788945e-38 299 278
-0.023214132 0.662 -0.044106852 1.7972988e-38 300 278
-0.022053426 0.662 -0.044106852 1.7972988e-38 301 278
-0.02086116 0.66100001 -0.044040225 1.7789694e-38 302 278
-0.019702207 0.66100001 -0.044040225 1.7881891e-38 303 278
-0.018487146 0.65899998 -0.043906972 1.7973357e-38 304 278
-0.017331699 0.65899998 -0.043906972 1.7973357e-38 305 278
-0.016225345 0.66100001 -0.044040225 1.8248146e-38 306 278
-0.015020805 0.65899998 -0.043906972 1.8340702e-38 307 278
-0.013865359 0.65899998 -0.043906972 1.7881891e-38 308 278
-0.012709912 0.65899998 -0.043906972 1.7881891e-38 309 278
-0.011554466 0.65899998 -0.043906972 1.8433616e-38 310 278
-0.010399019 0.65899998 -0.043906972 1.8433616e-38 311 278
-0.0092435731 0.65899998 -0.043906972 1.852509e-38 312 278
-0.0081126727 0.66100001 -0.044040225 1.852509e-38 313 278
-0.00695372 0.66100001 -0.044040225 1.8433616e-38 314 278
-0.0057947668 0.66100001 -0.044040225 1.8433616e-38 315 278
-0.0046358132 0.66100001 -0.044040225 1.8433613e-38 316 278
-0.00347686 0.66100001 -0.044040225 1.8433613e-38 317 278
-0.0023108933 0.65899998 -0.043906972 1.8433613e-38 318 278
-0.0011554466 0.65899998 -0.043906972 1.8157387e-38 319 278
0 0.65899998 -0.043906972 1.8065201e-38 320 278
0.0011554466 0.65899998 -0.043906972 1.8065201e-38 321 278
0.0023108933 0.65899998 -0.043906972 1.7881891e-38 322 278
0.00347686 0.66100001 -0.044040225 1.7881891e-38 323 278
0.0046358132 0.66100001 -0.044040225 1.7881888e-38 324 278
0.0057947668 0.66100001 -0.044040225 1.7789691e-38 325 278
0.00695372 0.66100001 -0.044040225 1.7973004e-38 326 278
0.0081126727 0.66100001 -0.044040225 1.8065201e-38 327 278
0.0092716264 0.66100001 -0.044040225 1.8064834e-38 328 278
0.01043058 0.66100001 -0.044040225 1.7972638e-38 329 278
0.011589534 0.66100001 -0.044040225 1.7972638e-38 330 278
0.012748486 0.66100001 -0.044040225 1.7972638e-38 331 278
0.01390744 0.66100001 -0.044040225 1.7696774e-38 332 278
0.015066394 0.66100001 -0.044040225 1.7512383e-38 333 278
0.016298985 0.66399997 -0.044240102 1.7237241e-38 334 278
0.0174632 0.66399997 -0.044240102 1.7237241e-38 335 278
0.018599359 0.66299999 -0.044173479 1.7419837e-38 336 278
0.019761819 0.66299999 -0.044173479 1.732764e-38 337 278
0.020924279 0.66299999 -0.044173479 1.7144322e-38 338 278
0.02208674 0.66299999 -0.044173479 1.7052126e-38 339 278
0.0232492 0.66299999 -0.044173479 1.7051054e-38 340 278
0.024411658 0.66299999 -0.044173479 1.7051054e-38 341 278
0.025574118 0.66299999 -0.044173479 1.6866307e-38 342 278
0.026776904 0.66399997 -0.044240102 1.6866307e-38 343 278
0.027941117 0.66399997 -0.044240102 1.6591168e-38 344 278
0.02910533 0.66399997 -0.044240102 1.6683363e-38 345 278
0.030360719 0.66600001 -0.04437336 1.6500054e-38 346 278
0.031528439 0.66600001 -0.04437336 1.6223108e-38 347 278
0.032745253 0.667 -0.044439986 1.5946149e-38 348 278
0.033965573 0.66799998 -0.044506609 1.5392975e-38 349 278
0.035136797 0.66799998 -0.044506609 1.5024902e-38 350 278
0.036416732 0.67000002 -0.044639867 1.484051e-38 351 278
0.037647571 0.671 -0.044706494 1.4563211e-38 352 278
0.038824059 0.671 -0.044706494 1.437918e-38 353 278
0.040000543 0.671 -0.044706494 1.4196249e-38 354 278
0.041115668 0.67000002 -0.044639867 1.4841619e-38 355 278
0.042290401 0.67000002 -0.044639867 1.5118934e-38 356 278
0.043530006 0.671 -0.044706494 1.5026378e-38 357 278
0.044706494 0.671 -0.044706494 1.5210034e-38 358 278
-0.095314704 0.70599997 -0.048276275 1.0784698e-38 243 279
-0.093810342 0.704 -0.048139516 1.0693907e-38 244 279
-0.092575997 0.704 -0.048139516 1.1431831e-38 245 279
-0.0912119 0.70300001 -0.048071139 1.2261198e-38 246 279
-0.089723319 0.70099998 -0.047934376 1.2353393e-38 247 279
-0.088367991 0.69999999 -0.047865998 1.3272812e-38 248 279
-0.086767212 0.69700003 -0.047660861 1.3272812e-38 249 279
-0.085422389 0.69599998 -0.047592476 1.3365362e-38 250 279
-0.083960123 0.69400001 -0.047455717 1.3365362e-38 251 279
-0.082266398 0.69 -0.047182199 1.3365356e-38 252 279
-0.080821648 0.68800002 -0.047045439 1.3180964e-38 253 279
-0.079615362 0.68800002 -0.047045439 1.3273159e-38 254 279
-0.078295097 0.68699998 -0.046977058 1.3180964e-38 255 279
-0.076978341 0.68599999 -0.046908677 1.318132e-38 256 279
-0.075554639 0.68400002 -0.046771921 1.318132e-38 257 279
-0.074246652 0.68300003 -0.04670354 1.3272794e-38 258 279
-0.072942168 0.68199998 -0.046635158 1.3272794e-38 259 279
-0.071746394 0.68199998 -0.046635158 1.3272794e-38 260 279
-0.070343733 0.68000001 -0.046498399 1.3641576e-38 261 279
-0.068948075 0.67799997 -0.046361636 1.3734844e-38 262 279
-0.06775932 0.67799997 -0.046361636 1.3734844e-38 263 279
-0.066374183 0.676 -0.046224877 1.3918866e-38 264 279
-0.065188929 0.676 -0.046224877 1.4102898e-38 265 279
-0.064003684 0.676 -0.046224877 1.4104331e-38 266 279
-0.062818423 0.676 -0.046224877 1.4288362e-38 267 279
-0.061542001 0.67500001 -0.0461565 1.4747551e-38 268 279
-0.060090236 0.67199999 -0.045951359 1.5208529e-38 269 279
-0.058911994 0.67199999 -0.045951359 1.5209621e-38 270 279
-0.057647847 0.671 -0.045882981 1.5301816e-38 271 279
-0.056471359 0.671 -0.045882981 1.6128337e-38 272 279
-0.055294871 0.671 -0.045882981 1.6220533e-38 273 279
-0.054037735 0.67000002 -0.0458146 1.6221249e-38 274 279
-0.052705199 0.66799998 -0.045677837 1.6313444e-38 275 279
-0.051533967 0.66799998 -0.045677837 1.6404924e-38 276 279
-0.050287351 0.667 -0.045609459 1.6404924e-38 277 279
-0.049117878 0.667 -0.045609459 1.6404571e-38 278 279
-0.047948405 0.667 -0.045609459 1.6404571e-38 279 279
-0.046708796 0.66600001 -0.045541082 1.6404574e-38 280 279
-0.045541082 0.66600001 -0.045541082 1.6588605e-38 281 279
-0.044240102 0.66399997 -0.045404319 1.6588605e-38 282 279
-0.043075889 0.66399997 -0.045404319 1.6680802e-38 283 279
-0.041911677 0.66399997 -0.045404319 1.6681508e-38 284 279
-0.040747464 0.66399997 -0.045404319 1.6681508e-38 285 279
-0.039583251 0.66399997 -0.045404319 1.6498915e-38 286 279
-0.038419038 0.66399997 -0.045404319 1.6498915e-38 287 279
-0.037254825 0.66399997 -0.045404319 1.6957392e-38 288 279
-0.036036257 0.66299999 -0.045335937 1.7049946e-38 289 279
-0.034873798 0.66299999 -0.045335937 1.7233625e-38 290 279
-0.033711337 0.66299999 -0.045335937 1.7325821e-38 291 279
-0.032548878 0.66299999 -0.045335937 1.6959196e-38 292 279
-0.031339079 0.662 -0.04526756 1.6959196e-38 293 279
-0.030178372 0.662 -0.04526756 1.7142506e-38 294 279
-0.029017664 0.662 -0.04526756 1.723506e-38 295 279
-0.027856959 0.662 -0.04526756 1.7235057e-38 296 279
-0.026655925 0.66100001 -0.045199182 1.7235057e-38 297 279
-0.025496973 0.66100001 -0.045199182 1.6960266e-38 298 279
-0.02433802 0.66100001 -0.045199182 1.7144657e-38 299 279
-0.023179067 0.66100001 -0.045199182 1.7327972e-38 300 279
-0.022020113 0.66100001 -0.045199182 1.7235776e-38 301 279
-0.020798039 0.65899998 -0.045062415 1.7143956e-38 302 279
-0.019642593 0.65899998 -0.045062415 1.7327987e-38 303 279
-0.018459093 0.65799999 -0.044994038 1.7510937e-38 304 279
-0.017305398 0.65799999 -0.044994038 1.7326906e-38 305 279
-0.016151706 0.65799999 -0.044994038 1.7510215e-38 306 279
-0.014998012 0.65799999 -0.044994038 1.8063389e-38 307 279
-0.01384432 0.65799999 -0.044994038 1.7879723e-38 308 279
-0.012709912 0.65899998 -0.045062415 1.7787528e-38 309 279
-0.011554466 0.65899998 -0.045062415 1.7512014e-38 310 279
-0.010399019 0.65899998 -0.045062415 1.7419817e-38 311 279
-0.0092435731 0.65899998 -0.045062415 1.7787878e-38 312 279
-0.0081126727 0.66100001 -0.045199182 1.7787878e-38 313 279
-0.00695372 0.66100001 -0.045199182 1.7512736e-38 314 279
-0.0057947668 0.66100001 -0.045199182 1.7604932e-38 315 279
-0.0046358132 0.66100001 -0.045199182 1.7604929e-38 316 279
-0.0034663398 0.65899998 -0.045062415 1.7512733e-38 317 279
-0.0023108933 0.65899998 -0.045062415 1.7604213e-38 318 279
-0.0011554466 0.65899998 -0.045062415 1.7788244e-38 319 279
0 0.65899998 -0.045062415 1.787937e-38 320 279
0.0011554466 0.65899998 -0.045062415 1.787937e-38 321 279
0.0023108933 0.65899998 -0.045062415 1.7787894e-38 322 279
0.0034663398 0.65899998 -0.045062415 1.7787894e-38 323 279
0.0046217865 0.65899998 -0.045062415 1.760386e-38 324 279
0.0057772328 0.65899998 -0.045062415 1.760386e-38 325 279
0.0069326796 0.65899998 -0.045062415 1.7602776e-38 326 279
0.0080881258 0.65899998 -0.045062415 1.7602776e-38 327 279
0.0092435731 0.65899998 -0.045062415 1.7326903e-38 328 279
0.010399019 0.65899998 -0.045062415 1.7234707e-38 329 279
0.011554466 0.65899998 -0.045062415 1.7050313e-38 330 279
0.012709912 0.65899998 -0.045062415 1.7142509e-38 331 279
0.013865359 0.65899998 -0.045062415 1.6776247e-38 332 279
0.015020805 0.65899998 -0.045062415 1.6684051e-38 333 279
0.016225345 0.66100001 -0.045199182 1.6592222e-38 334 279
0.0173843 0.66100001 -0.045199182 1.6592222e-38 335 279
0.018571306 0.662 -0.04526756 1.6406754e-38 336 279
0.019732011 0.662 -0.04526756 1.6406754e-38 337 279
0.020892721 0.662 -0.04526756 1.6223442e-38 338 279
0.022053426 0.662 -0.04526756 1.6223442e-38 339 279
0.023214132 0.662 -0.04526756 1.6406041e-38 340 279
0.024374841 0.662 -0.04526756 1.6406041e-38 341 279
0.025535546 0.662 -0.04526756 1.6130893e-38 342 279
0.026736578 0.66299999 -0.045335937 1.6130893e-38 343 279
0.027899038 0.66299999 -0.045335937 1.6497886e-38 344 279
0.02910533 0.66399997 -0.045404319 1.6497886e-38 345 279
0.030269546 0.66399997 -0.045404319 1.6222741e-38 346 279
0.031433757 0.66399997 -0.045404319 1.6130546e-38 347 279
0.032696161 0.66600001 -0.045541082 1.5947228e-38 348 279
0.03386388 0.66600001 -0.045541082 1.5762836e-38 349 279
0.035031598 0.66600001 -0.045541082 1.5578445e-38 350 279
0.036308024 0.66799998 -0.045677837 1.5117467e-38 351 279
0.037591465 0.67000002 -0.0458146 1.4841956e-38 352 279
0.038766202 0.67000002 -0.0458146 1.5025988e-38 353 279
0.039940935 0.67000002 -0.0458146 1.5027072e-38 354 279
0.041115668 0.67000002 -0.0458146 1.5119268e-38 355 279
0.042290401 0.67000002 -0.0458146 1.5118915e-38 356 279
0.043530006 0.671 -0.045882981 1.5118915e-38 357 279
0.044706494 0.671 -0.045882981 1.5026719e-38 358 279
0.045882981 0.671 -0.045882981 1.4934523e-38 359 279
-0.093810342 0.704 -0.049373865 1.0601739e-38 244 280
-0.092575997 0.704 -0.049373865 1.0970163e-38 245 280
-0.091341652 0.704 -0.049373865 1.1249235e-38 246 280
-0.089979313 0.70300001 -0.049303733 1.1709854e-38 247 280
-0.088367991 0.69999999 -0.049093332 1.2721455e-38 248 280
-0.086767212 0.69700003 -0.048882935 1.2813653e-38 249 280
-0.085422389 0.69599998 -0.048812799 1.3273532e-38 250 280
-0.083960123 0.69400001 -0.048672531 1.30895e-38 251 280
-0.082385622 0.69099998 -0.04846213 1.308985e-38 252 280
-0.081056595 0.69 -0.048391998 1.2997654e-38 253 280
-0.079615362 0.68800002 -0.048251733 1.2997651e-38 254 280
-0.078295097 0.68699998 -0.048181597 1.2997651e-38 255 280
-0.077090554 0.68699998 -0.048181597 1.318132e-38 256 280
-0.075554639 0.68400002 -0.0479712 1.318132e-38 257 280
-0.074246652 0.68300003 -0.047901068 1.3180601e-38 258 280
-0.072942168 0.68199998 -0.047830928 1.3180601e-38 259 280
-0.071746394 0.68199998 -0.047830928 1.3089494e-38 260 280
-0.070343733 0.68000001 -0.047690667 1.3089494e-38 261 280
-0.068948075 0.67799997 -0.047550395 1.3090583e-38 262 280
-0.06775932 0.67799997 -0.047550395 1.3182778e-38 263 280
-0.066374183 0.676 -0.047410134 1.3183485e-38 264 280
-0.065188929 0.676 -0.047410134 1.3091289e-38 265 280
-0.064003684 0.676 -0.047410134 1.3734488e-38 266 280
-0.062725499 0.67500001 -0.047339998 1.3826683e-38 267 280
-0.061450824 0.67400002 -0.047269866 1.3919249e-38 268 280
-0.060090236 0.67199999 -0.047129598 1.4196195e-38 269 280
-0.058824331 0.671 -0.047059465 1.4380236e-38 270 280
-0.057647847 0.671 -0.047059465 1.4656464e-38 271 280
-0.056471359 0.671 -0.047059465 1.5208549e-38 272 280
-0.055212468 0.67000002 -0.046989333 1.539258e-38 273 280
-0.053876422 0.66799998 -0.046849065 1.5485484e-38 274 280
-0.052705199 0.66799998 -0.046849065 1.5577682e-38 275 280
-0.051533967 0.66799998 -0.046849065 1.5577684e-38 276 280
-0.050287351 0.667 -0.046778932 1.5577684e-38 277 280
-0.049117878 0.667 -0.046778932 1.5669174e-38 278 280
-0.047876518 0.66600001 -0.046708796 1.5761369e-38 279 280
-0.046708796 0.66600001 -0.046708796 1.5761022e-38 280 280
-0.045404319 0.66399997 -0.046568532 1.5761022e-38 281 280
-0.044240102 0.66399997 -0.046568532 1.5761375e-38 282 280
-0.043075889 0.66399997 -0.046568532 1.6037602e-38 283 280
-0.041848559 0.66299999 -0.046498399 1.585464e-38 284 280
-0.040686097 0.66299999 -0.046498399 1.585464e-38 285 280
-0.039523639 0.66299999 -0.046498399 1.6221629e-38 286 280
-0.038361177 0.66299999 -0.046498399 1.6313824e-38 287 280
-0.037198719 0.66299999 -0.046498399 1.6314193e-38 288 280
-0.036036257 0.66299999 -0.046498399 1.6406388e-38 289 280
-0.034873798 0.66299999 -0.046498399 1.6498234e-38 290 280
-0.033660494 0.662 -0.046428263 1.6682265e-38 291 280
-0.032499783 0.662 -0.046428263 1.668227e-38 292 280
-0.031339079 0.662 -0.046428263 1.6774467e-38 293 280
-0.030178372 0.662 -0.046428263 1.6682265e-38 294 280
-0.029017664 0.662 -0.046428263 1.6774462e-38 295 280
-0.02781488 0.66100001 -0.046358135 1.6774098e-38 296 280
-0.026655925 0.66100001 -0.046358135 1.6774098e-38 297 280
-0.025496973 0.66100001 -0.046358135 1.6591506e-38 298 280
-0.02433802 0.66100001 -0.046358135 1.6591506e-38 299 280
-0.023179067 0.66100001 -0.046358135 1.6683324e-38 300 280
-0.021953486 0.65899998 -0.046217863 1.6683324e-38 301 280
-0.02076648 0.65799999 -0.04614773 1.6774815e-38 302 280
-0.019612785 0.65799999 -0.04614773 1.6682618e-38 303 280
-0.01843104 0.65700001 -0.046077598 1.6682268e-38 304 280
-0.0172791 0.65700001 -0.046077598 1.6958856e-38 305 280
-0.01612716 0.65700001 -0.046077598 1.6683351e-38 306 280
-0.014998012 0.65799999 -0.04614773 1.6959578e-38 307 280
-0.01384432 0.65799999 -0.04614773 1.6683363e-38 308 280
-0.012690626 0.65799999 -0.04614773 1.6775559e-38 309 280
-0.011554466 0.65899998 -0.046217863 1.6775559e-38 310 280
-0.010399019 0.65899998 -0.046217863 1.6775559e-38 311 280
-0.0092435731 0.65899998 -0.046217863 1.6868111e-38 312 280
-0.0080881258 0.65899998 -0.046217863 1.6775915e-38 313 280
-0.00695372 0.66100001 -0.046358135 1.6868814e-38 314 280
-0.0057772328 0.65899998 -0.046217863 1.6684064e-38 315 280
-0.0046217865 0.65899998 -0.046217863 1.7143225e-38 316 280
-0.0034610799 0.65799999 -0.04614773 1.6959194e-38 317 280
-0.0023073866 0.65799999 -0.04614773 1.6775544e-38 318 280
-0.0011536933 0.65799999 -0.04614773 1.6959575e-38 319 280
0 0.65799999 -0.04614773 1.7234367e-38 320 280
0.0011536933 0.65799999 -0.04614773 1.7234367e-38 321 280
0.0023108933 0.65899998 -0.046217863 1.6959559e-38 322 280
0.0034663398 0.65899998 -0.046217863 1.7052114e-38 323 280
0.0046217865 0.65899998 -0.046217863 1.6959559e-38 324 280
0.0057772328 0.65899998 -0.046217863 1.6959559e-38 325 280
0.0069326796 0.65899998 -0.046217863 1.6958846e-38 326 280
0.0080881258 0.65899998 -0.046217863 1.6958846e-38 327 280
0.0092295464 0.65799999 -0.04614773 1.6775171e-38 328 280
0.01038324 0.65799999 -0.04614773 1.6682615e-38 329 280
0.011536933 0.65799999 -0.04614773 1.6682249e-38 330 280
0.012690626 0.65799999 -0.04614773 1.6682249e-38 331 280
0.01384432 0.65799999 -0.04614773 1.6314912e-38 332 280
0.014998012 0.65799999 -0.04614773 1.6314912e-38 333 280
0.016176252 0.65899998 -0.046217863 1.6038329e-38 334 280
0.0173843 0.66100001 -0.046358135 1.6038329e-38 335 280
0.018543253 0.66100001 -0.046358135 1.6038685e-38 336 280
0.019702207 0.66100001 -0.046358135 1.5946131e-38 337 280
0.02086116 0.66100001 -0.046358135 1.6037976e-38 338 280
0.022053426 0.662 -0.046428263 1.6037976e-38 339 280
0.023214132 0.662 -0.046428263 1.5854306e-38 340 280
0.024374841 0.662 -0.046428263 1.5854306e-38 341 280
0.025535546 0.662 -0.046428263 1.585395e-38 342 280
0.026696252 0.662 -0.046428263 1.585395e-38 343 280
0.027899038 0.66299999 -0.046498399 1.5486625e-38 344 280
0.029061496 0.66299999 -0.046498399 1.5762852e-38 345 280
0.030269546 0.66399997 -0.046568532 1.5762499e-38 346 280
0.031433757 0.66399997 -0.046568532 1.5578468e-38 347 280
0.03259797 0.66399997 -0.046568532 1.548662e-38 348 280
0.03386388 0.66600001 -0.046708796 1.548662e-38 349 280
0.035031598 0.66600001 -0.046708796 1.5302577e-38 350 280
0.036253672 0.667 -0.046778932 1.5210382e-38 351 280
0.037479252 0.66799998 -0.046849065 1.5118183e-38 352 280
0.038766202 0.67000002 -0.046989333 1.5395129e-38 353 280
0.039940935 0.67000002 -0.046989333 1.5119988e-38 354 280
0.041115668 0.67000002 -0.046989333 1.5212184e-38 355 280
0.042290401 0.67000002 -0.046989333 1.5119998e-38 356 280
0.043530006 0.671 -0.047059465 1.484377e-38 357 280
0.044706494 0.671 -0.047059465 1.5026719e-38 358 280
0.045951359 0.67199999 -0.047129598 1.4841969e-38 359 280
0.047269866 0.67400002 -0.047269866 1.4841969e-38 360 280
-0.089979313 0.70300001 -0.050536323 1.0790071e-38 247 281
-0.088367991 0.69999999 -0.050320663 1.2259772e-38 248 281
-0.086767212 0.69700003 -0.050105009 1.2720749e-38 249 281
-0.085422389 0.69599998 -0.050033119 1.299767e-38 250 281
-0.083960123 0.69400001 -0.049889345 1.299767e-38 251 281
-0.082743309 0.69400001 -0.049889345 1.3089494e-38 252 281
-0.081056595 0.69 -0.049601797 1.2997298e-38 253 281
-0.079615362 0.68800002 -0.049458027 1.3180966e-38 254 281
-0.078295097 0.68699998 -0.049386136 1.3180966e-38 255 281
-0.077090554 0.68699998 -0.049386136 1.3180964e-38 256 281
-0.075775556 0.68599999 -0.049314249 1.3180964e-38 257 281
-0.074246652 0.68300003 -0.049098592 1.3180595e-38 258 281
-0.072942168 0.68199998 -0.049026705 1.3180595e-38 259 281
-0.071746394 0.68199998 -0.049026705 1.3180595e-38 260 281
-0.070343733 0.68000001 -0.048882935 1.3180595e-38 261 281
-0.069049768 0.67900002 -0.048811045 1.3181317e-38 262 281
-0.06775932 0.67799997 -0.048739154 1.3273512e-38 263 281
-0.066374183 0.676 -0.048595384 1.3090203e-38 264 281
-0.065188929 0.676 -0.048595384 1.3274236e-38 265 281
-0.064003684 0.676 -0.048595384 1.3273162e-38 266 281
-0.062725499 0.67500001 -0.048523501 1.3457555e-38 267 281
-0.061450824 0.67400002 -0.048451614 1.3916378e-38 268 281
-0.060090236 0.67199999 -0.04830784 1.4008932e-38 269 281
-0.058824331 0.671 -0.048235953 1.3550472e-38 270 281
-0.057647847 0.671 -0.048235953 1.3642668e-38 271 281
-0.056471359 0.671 -0.048235953 1.4011079e-38 272 281
-0.055212468 0.67000002 -0.048164066 1.4287664e-38 273 281
-0.053876422 0.66799998 -0.048020288 1.4471687e-38 274 281
-0.052705199 0.66799998 -0.048020288 1.4563883e-38 275 281
-0.051456824 0.667 -0.047948405 1.4840115e-38 276 281
-0.050287351 0.667 -0.047948405 1.5116703e-38 277 281
-0.04904424 0.66600001 -0.047876518 1.5667725e-38 278 281
-0.047876518 0.66600001 -0.047876518 1.5667725e-38 279 281
-0.046568532 0.66399997 -0.047732744 1.5667728e-38 280 281
-0.045404319 0.66399997 -0.047732744 1.5575532e-38 281 281
-0.044173479 0.66299999 -0.047660857 1.575992e-38 282 281
-0.043011017 0.66299999 -0.047660857 1.5944672e-38 283 281
-0.041848559 0.66299999 -0.047660857 1.6037221e-38 284 281
-0.040686097 0.66299999 -0.047660857 1.6037221e-38 285 281
-0.039523639 0.66299999 -0.047660857 1.5854268e-38 286 281
-0.038361177 0.66299999 -0.047660857 1.5854268e-38 287 281
-0.037198719 0.66299999 -0.047660857 1.6404927e-38 288 281
-0.036036257 0.66299999 -0.047660857 1.6404927e-38 289 281
-0.034821201 0.662 -0.047588971 1.6588605e-38 290 281
-0.033660494 0.662 -0.047588971 1.6680802e-38 291 281
-0.032499783 0.662 -0.047588971 1.6589691e-38 292 281
-0.031291738 0.66100001 -0.047517084 1.6589691e-38 293 281
-0.030132787 0.66100001 -0.047517084 1.6590054e-38 294 281
-0.028973831 0.66100001 -0.047517084 1.6590054e-38 295 281
-0.02781488 0.66100001 -0.047517084 1.6589688e-38 296 281
-0.026655925 0.66100001 -0.047517084 1.6589688e-38 297 281
-0.025419824 0.65899998 -0.04737331 1.6498564e-38 298 281
-0.024264378 0.65899998 -0.04737331 1.659076e-38 299 281
-0.023108931 0.65899998 -0.04737331 1.6314896e-38 300 281
-0.021953486 0.65899998 -0.04737331 1.6314896e-38 301 281
-0.020734919 0.65700001 -0.04722954 1.6406388e-38 302 281
-0.019582979 0.65700001 -0.04722954 1.6498584e-38 303 281
-0.01843104 0.65700001 -0.04722954 1.6314559e-38 304 281
-0.0172791 0.65700001 -0.04722954 1.6406754e-38 305 281
-0.01612716 0.65700001 -0.04722954 1.6589701e-38 306 281
-0.01497522 0.65700001 -0.04722954 1.6497505e-38 307 281
-0.013823279 0.65700001 -0.04722954 1.6497505e-38 308 281
-0.01267134 0.65700001 -0.04722954 1.6682255e-38 309 281
-0.011536933 0.65799999 -0.047301427 1.6682615e-38 310 281
-0.01038324 0.65799999 -0.047301427 1.6498584e-38 311 281
-0.0092435731 0.65899998 -0.04737331 1.6682255e-38 312 281
-0.0080881258 0.65899998 -0.04737331 1.6682255e-38 313 281
-0.0069326796 0.65899998 -0.04737331 1.659041e-38 314 281
-0.0057772328 0.65899998 -0.04737331 1.6313824e-38 315 281
-0.0046217865 0.65899998 -0.04737331 1.6222333e-38 316 281
-0.0034558198 0.65700001 -0.04722954 1.631453e-38 317 281
-0.0023038799 0.65700001 -0.04722954 1.6222701e-38 318 281
-0.00115194 0.65700001 -0.04722954 1.6222701e-38 319 281
0 0.65700001 -0.04722954 1.6497492e-38 320 281
0.0011536933 0.65799999 -0.047301427 1.6497492e-38 321 281
0.0023073866 0.65799999 -0.047301427 1.631418e-38 322 281
0.0034610799 0.65799999 -0.047301427 1.6221626e-38 323 281
0.0046147732 0.65799999 -0.047301427 1.6129432e-38 324 281
0.0057684663 0.65799999 -0.047301427 1.6221629e-38 325 281
0.0069221598 0.65799999 -0.047301427 1.5854654e-38 326 281
0.0080758529 0.65799999 -0.047301427 1.5854654e-38 327 281
0.0092295464 0.65799999 -0.047301427 1.5670624e-38 328 281
0.01036746 0.65700001 -0.04722954 1.5578428e-38 329 281
0.011519399 0.65700001 -0.04722954 1.5668826e-38 330 281
0.01267134 0.65700001 -0.04722954 1.5853217e-38 331 281
0.013823279 0.65700001 -0.04722954 1.5761385e-38 332 281
0.01497522 0.65700001 -0.04722954 1.5669189e-38 333 281
0.016176252 0.65899998 -0.04737331 1.5393678e-38 334 281
0.017331699 0.65899998 -0.04737331 1.5301483e-38 335 281
0.018487146 0.65899998 -0.04737331 1.5392962e-38 336 281
0.019642593 0.65899998 -0.04737331 1.5392962e-38 337 281
0.02086116 0.66100001 -0.047517084 1.5484452e-38 338 281
0.022020113 0.66100001 -0.047517084 1.5392256e-38 339 281
0.023179067 0.66100001 -0.047517084 1.5392978e-38 340 281
0.02433802 0.66100001 -0.047517084 1.5392978e-38 341 281
0.025496973 0.66100001 -0.047517084 1.5484457e-38 342 281
0.026696252 0.662 -0.047588971 1.5668488e-38 343 281
0.027856959 0.662 -0.047588971 1.5392625e-38 344 281
0.029061496 0.66299999 -0.047660857 1.548482e-38 345 281
0.030269546 0.66399997 -0.047732744 1.5760334e-38 346 281
0.031433757 0.66399997 -0.047732744 1.5760334e-38 347 281
0.03259797 0.66399997 -0.047732744 1.5485189e-38 348 281
0.03386388 0.66600001 -0.047876518 1.5485189e-38 349 281
0.035031598 0.66600001 -0.047876518 1.5026366e-38 350 281
0.03619932 0.66600001 -0.047876518 1.5026366e-38 351 281
0.037479252 0.66799998 -0.048020288 1.4751574e-38 352 281
0.038650475 0.66799998 -0.048020288 1.4751574e-38 353 281
0.039940935 0.67000002 -0.048164066 1.4751574e-38 354 281
0.041115668 0.67000002 -0.048164066 1.484377e-38 355 281
0.042290401 0.67000002 -0.048164066 1.5027085e-38 356 281
0.043465134 0.67000002 -0.048164066 1.4934889e-38 357 281
0.044773117 0.67199999 -0.04830784 1.4750858e-38 358 281
0.045951359 0.67199999 -0.04830784 1.4658304e-38 359 281
0.047269866 0.67400002 -0.048451614 1.4658309e-38 360 281
0.048523501 0.67500001 -0.048523501 1.4565755e-38 361 281
0.049706999 0.67500001 -0.048523501 1.2999892e-38 362 281
-0.088367991 0.69999999 -0.051547997 1.0880456e-38 248 282
-0.086767212 0.69700003 -0.051327083 1.1525826e-38 249 282
-0.085422389 0.69599998 -0.051253434 1.2445594e-38 250 282
-0.084202074 0.69599998 -0.051253434 1.253779e-38 251 282
-0.082743309 0.69400001 -0.051106159 1.2904752e-38 252 282
-0.081056595 0.69 -0.050811596 1.2904752e-38 253 282
-0.079615362 0.68800002 -0.050664321 1.3088415e-38 254 282
-0.078295097 0.68699998 -0.050590675 1.3088415e-38 255 282
-0.077090554 0.68699998 -0.050590675 1.3088771e-38 256 282
-0.075775556 0.68599999 -0.050517038 1.3088771e-38 257 282
-0.074246652 0.68300003 -0.05029612 1.3180598e-38 258 282
-0.073049128 0.68300003 -0.05029612 1.3180598e-38 259 282
-0.071746394 0.68199998 -0.050222475 1.3089474e-38 260 282
-0.070343733 0.68000001 -0.050075196 1.3089474e-38 261 282
-0.068948075 0.67799997 -0.049927916 1.3181317e-38 262 282
-0.06775932 0.67799997 -0.049927916 1.3181317e-38 263 282
-0.066374183 0.676 -0.049780637 1.2905819e-38 264 282
-0.065188929 0.676 -0.049780637 1.2905819e-38 265 282
-0.064003684 0.676 -0.049780637 1.3180616e-38 266 282
-0.062725499 0.67500001 -0.049706999 1.3272812e-38 267 282
-0.061450824 0.67400002 -0.049633358 1.3272459e-38 268 282
-0.060090236 0.67199999 -0.049486078 1.3364656e-38 269 282
-0.058911994 0.67199999 -0.049486078 1.3365006e-38 270 282
-0.057647847 0.671 -0.049412437 1.3457202e-38 271 282
-0.056471359 0.671 -0.049412437 1.3642292e-38 272 282
-0.055212468 0.67000002 -0.049338799 1.3642292e-38 273 282
-0.053876422 0.66799998 -0.04919152 1.3734844e-38 274 282
-0.052705199 0.66799998 -0.04919152 1.3919235e-38 275 282
-0.051456824 0.667 -0.049117878 1.4194743e-38 276 282
-0.050287351 0.667 -0.049117878 1.428694e-38 277 282
-0.04904424 0.66600001 -0.04904424 1.4193671e-38 278 282
-0.047876518 0.66600001 -0.04904424 1.4193671e-38 279 282
-0.046568532 0.66399997 -0.048896957 1.4102927e-38 280 282
-0.045404319 0.66399997 -0.048896957 1.4471349e-38 281 282
-0.044173479 0.66299999 -0.048823316 1.5024526e-38 282 282
-0.043011017 0.66299999 -0.048823316 1.5208917e-38 283 282
-0.041848559 0.66299999 -0.048823316 1.5576975e-38 284 282
-0.040686097 0.66299999 -0.048823316 1.566953e-38 285 282
-0.039523639 0.66299999 -0.048823316 1.5669527e-38 286 282
-0.038361177 0.66299999 -0.048823316 1.5669527e-38 287 282
-0.037142612 0.662 -0.048749682 1.6220901e-38 288 282
-0.035981905 0.662 -0.048749682 1.6220901e-38 289 282
-0.034821201 0.662 -0.048749682 1.6312741e-38 290 282
-0.033609647 0.66100001 -0.04867604 1.6405297e-38 291 282
-0.032450691 0.66100001 -0.04867604 1.6130152e-38 292 282
-0.031291738 0.66100001 -0.04867604 1.6222347e-38 293 282
-0.030132787 0.66100001 -0.04867604 1.622235e-38 294 282
-0.028973831 0.66100001 -0.04867604 1.622235e-38 295 282
-0.02781488 0.66100001 -0.04867604 1.6222345e-38 296 282
-0.026575271 0.65899998 -0.048528757 1.6130149e-38 297 282
-0.025419824 0.65899998 -0.048528757 1.6222701e-38 298 282
-0.024264378 0.65899998 -0.048528757 1.6130504e-38 299 282
-0.023073865 0.65799999 -0.048455119 1.6222347e-38 300 282
-0.021920172 0.65799999 -0.048455119 1.6130152e-38 301 282
-0.020734919 0.65700001 -0.048381478 1.6221997e-38 302 282
-0.019523365 0.65499997 -0.048234195 1.6221997e-38 303 282
-0.018374931 0.65499997 -0.048234195 1.6220925e-38 304 282
-0.017226499 0.65499997 -0.048234195 1.6313121e-38 305 282
-0.016078066 0.65499997 -0.048234195 1.6220572e-38 306 282
-0.014929632 0.65499997 -0.048234195 1.6220572e-38 307 282
-0.013781199 0.65499997 -0.048234195 1.6221291e-38 308 282
-0.01267134 0.65700001 -0.048381478 1.6221291e-38 309 282
-0.011519399 0.65700001 -0.048381478 1.6037976e-38 310 282
-0.01038324 0.65799999 -0.048455119 1.594578e-38 311 282
-0.0092295464 0.65799999 -0.048455119 1.6221644e-38 312 282
-0.0080758529 0.65799999 -0.048455119 1.6129448e-38 313 282
-0.0069221598 0.65799999 -0.048455119 1.6129796e-38 314 282
-0.0057421662 0.65499997 -0.048234195 1.5853568e-38 315 282
-0.0045937328 0.65499997 -0.048234195 1.5853918e-38 316 282
-0.0034558198 0.65700001 -0.048381478 1.5761722e-38 317 282
-0.0022968664 0.65499997 -0.048234195 1.5670248e-38 318 282
-0.0011484332 0.65499997 -0.048234195 1.5670248e-38 319 282
0 0.65499997 -0.048234195 1.5853568e-38 320 282
0.00115194 0.65700001 -0.048381478 1.5853568e-38 321 282
0.0023038799 0.65700001 -0.048381478 1.6036883e-38 322 282
0.0034558198 0.65700001 -0.048381478 1.6036883e-38 323 282
0.0046077599 0.65700001 -0.048381478 1.5578072e-38 324 282
0.0057596997 0.65700001 -0.048381478 1.5578072e-38 325 282
0.0069116396 0.65700001 -0.048381478 1.5577722e-38 326 282
0.0080635799 0.65700001 -0.048381478 1.5577722e-38 327 282
0.0092155198 0.65700001 -0.048381478 1.5485527e-38 328 282
0.01036746 0.65700001 -0.048381478 1.5393331e-38 329 282
0.011484332 0.65499997 -0.048234195 1.5484452e-38 330 282
0.012632766 0.65499997 -0.048234195 1.5484452e-38 331 282
0.013823279 0.65700001 -0.048381478 1.5207862e-38 332 282
0.01497522 0.65700001 -0.048381478 1.5300416e-38 333 282
0.016151706 0.65799999 -0.048455119 1.5208937e-38 334 282
0.017305398 0.65799999 -0.048455119 1.493235e-38 335 282
0.018487146 0.65899998 -0.048528757 1.5115668e-38 336 282
0.019642593 0.65899998 -0.048528757 1.5023472e-38 337 282
