# .PCD v.7 - Point Cloud Data file format
FIELDS x y z rgb imX imY
SIZE 4 4 4 4 4 4
TYPE F F F F F F
COUNT 1 1 1 1 1 1
WIDTH 826
HEIGHT 1
VIEWPOINT 0 0 0 1 0 0 0
POINTS 826
DATA ascii
-0.0067327996 0.63999999 -0.062839463 1.2165736e-38 314 296
-0.0056106662 0.63999999 -0.062839463 1.2165736e-38 315 296
-0.0044955462 0.64099997 -0.062937655 1.2165738e-38 316 296
-0.0033716597 0.64099997 -0.062937655 1.2165738e-38 317 296
-0.0022477731 0.64099997 -0.062937655 1.1889875e-38 318 296
-0.0011238866 0.64099997 -0.062937655 1.198207e-38 319 296
0 0.64099997 -0.062937655 1.1706559e-38 320 296
0.00112564 0.64200002 -0.063035838 1.1706559e-38 321 296
0.0022547867 0.64300001 -0.063134022 1.1982423e-38 322 296
0.0033874398 0.64399999 -0.063232213 1.1982423e-38 323 296
0.0045165867 0.64399999 -0.063232213 1.1982426e-38 324 296
0.0056632664 0.64600003 -0.063428588 1.2074623e-38 325 296
0.00679592 0.64600003 -0.063428588 1.2074623e-38 326 296
0.0079285735 0.64600003 -0.063428588 1.2074623e-38 327 296
0.0090752533 0.64700001 -0.063526772 1.1983146e-38 328 296
0.010225439 0.648 -0.063624963 1.2075342e-38 329 296
0.011379133 0.64899999 -0.063723139 1.2074986e-38 330 296
0.012517046 0.64899999 -0.063723139 1.198279e-38 331 296
0.013675999 0.64999998 -0.063821331 1.1799125e-38 332 296
0.014861252 0.65200001 -0.064017706 1.1799125e-38 333 296
0.016028972 0.653 -0.064115889 1.1615462e-38 334 296
0.017173899 0.653 -0.064115889 1.1523267e-38 335 296
0.01834688 0.65399998 -0.064214081 1.1523267e-38 336 296
0.019493559 0.65399998 -0.064214081 1.1615462e-38 337 296
0.020640239 0.65399998 -0.064214081 1.1615825e-38 338 296
0.021820232 0.65499997 -0.064312264 1.1615825e-38 339 296
0.022968665 0.65499997 -0.064312264 1.1798787e-38 340 296
0.024117097 0.65499997 -0.064312264 1.1614756e-38 341 296
0.025342681 0.65700001 -0.064508639 1.1429659e-38 342 296
0.026494619 0.65700001 -0.064508639 1.1245266e-38 343 296
-0.068450131 0.63999999 -0.063961595 1.3092734e-38 259 297
-0.067327991 0.63999999 -0.063961595 1.3462946e-38 260 297
-0.066205859 0.63999999 -0.063961595 1.3831369e-38 261 297
-0.065083727 0.63999999 -0.063961595 1.4566769e-38 262 297
-0.063961595 0.63999999 -0.063961595 1.4843715e-38 263 297
-0.062937655 0.64099997 -0.064061537 1.5395438e-38 264 297
-0.061813761 0.64099997 -0.064061537 1.5672025e-38 265 297
-0.060689874 0.64099997 -0.064061537 1.6681491e-38 266 297
-0.05947306 0.63999999 -0.063961595 1.6681491e-38 267 297
-0.058350928 0.63999999 -0.063961595 1.6772605e-38 268 297
-0.05704996 0.63800001 -0.063761719 1.6772605e-38 269 297
-0.055931333 0.63800001 -0.063761719 1.6496729e-38 270 297
-0.054726794 0.63700002 -0.063661784 1.6127586e-38 271 297
-0.053609919 0.63700002 -0.063661784 1.566767e-38 272 297
-0.052410636 0.63599998 -0.063561834 1.5298889e-38 273 297
-0.051295515 0.63599998 -0.063561834 1.5389287e-38 274 297
-0.050180398 0.63599998 -0.063561834 1.5112698e-38 275 297
-0.049065277 0.63599998 -0.063561834 1.4285476e-38 276 297
-0.047950156 0.63599998 -0.063561834 1.3824856e-38 277 297
-0.046761397 0.63499999 -0.0634619 1.3730154e-38 278 297
-0.045648031 0.63499999 -0.0634619 1.3545761e-38 279 297
-0.044534665 0.63499999 -0.0634619 1.30866e-38 280 297
-0.043421298 0.63499999 -0.0634619 1.2994405e-38 281 297
-0.042307932 0.63499999 -0.0634619 1.2993683e-38 282 297
-0.041194562 0.63499999 -0.0634619 1.2717096e-38 283 297
-0.040081199 0.63499999 -0.0634619 1.1889856e-38 284 297
-0.038906466 0.634 -0.063361958 1.1797661e-38 285 297
-0.037794851 0.634 -0.063361958 1.1889156e-38 286 297
-0.0367411 0.63499999 -0.0634619 1.1889156e-38 287 297
-0.03562773 0.63499999 -0.0634619 1.1704411e-38 288 297
-0.034514364 0.63499999 -0.0634619 1.1704411e-38 289 297
-0.033400998 0.63499999 -0.0634619 1.161186e-38 290 297
-0.032287631 0.63499999 -0.0634619 1.161186e-38 291 297
-0.031174263 0.63499999 -0.0634619 1.1611863e-38 292 297
-0.0300609 0.63499999 -0.0634619 1.1611863e-38 293 297
-0.028947532 0.63499999 -0.0634619 1.1429269e-38 294 297
-0.027834166 0.63499999 -0.0634619 1.1521465e-38 295 297
-0.026762879 0.63599998 -0.063561834 1.1888803e-38 296 297
-0.025647758 0.63599998 -0.063561834 1.1980998e-38 297 297
-0.024532638 0.63599998 -0.063561834 1.1981707e-38 298 297
-0.023417519 0.63599998 -0.063561834 1.1889153e-38 299 297
-0.022302398 0.63599998 -0.063561834 1.1889872e-38 300 297
-0.021187279 0.63599998 -0.063561834 1.1889872e-38 301 297
-0.020072158 0.63599998 -0.063561834 1.1889875e-38 302 297
-0.018957037 0.63599998 -0.063561834 1.198207e-38 303 297
-0.017841918 0.63599998 -0.063561834 1.2165017e-38 304 297
-0.016726799 0.63599998 -0.063561834 1.2072821e-38 305 297
-0.015611678 0.63599998 -0.063561834 1.2072818e-38 306 297
-0.014496559 0.63599998 -0.063561834 1.2072818e-38 307 297
-0.013381439 0.63599998 -0.063561834 1.179731e-38 308 297
-0.012266319 0.63599998 -0.063561834 1.1889506e-38 309 297
-0.011168733 0.63700002 -0.063661784 1.1797313e-38 310 297
-0.01006764 0.63800001 -0.063761719 1.1889509e-38 311 297
-0.0089490134 0.63800001 -0.063761719 1.1889872e-38 312 297
-0.0078549329 0.63999999 -0.063961595 1.1889872e-38 313 297
-0.0067327996 0.63999999 -0.063961595 1.1889872e-38 314 297
-0.0056106662 0.63999999 -0.063961595 1.1889872e-38 315 297
-0.0044955462 0.64099997 -0.064061537 1.1889875e-38 316 297
-0.0033716597 0.64099997 -0.064061537 1.1889875e-38 317 297
-0.0022477731 0.64099997 -0.064061537 1.1706209e-38 318 297
-0.0011238866 0.64099997 -0.064061537 1.1706209e-38 319 297
0 0.64200002 -0.064161479 1.1798758e-38 320 297
0.0011291467 0.64399999 -0.064361356 1.1706562e-38 321 297
0.0022582933 0.64399999 -0.064361356 1.1982426e-38 322 297
0.0033874398 0.64399999 -0.064361356 1.1982426e-38 323 297
0.0045306133 0.64600003 -0.06456124 1.1798758e-38 324 297
0.0056632664 0.64600003 -0.06456124 1.1798758e-38 325 297
0.00679592 0.64600003 -0.06456124 1.1798755e-38 326 297
0.0079408465 0.64700001 -0.064661182 1.1983146e-38 327 297
0.0090892799 0.648 -0.064761117 1.2075342e-38 328 297
0.010225439 0.648 -0.064761117 1.1983146e-38 329 297
0.011379133 0.64899999 -0.064861059 1.1799481e-38 330 297
0.012536332 0.64999998 -0.064960994 1.1706925e-38 331 297
0.013675999 0.64999998 -0.064960994 1.1798409e-38 332 297
0.014861252 0.65200001 -0.065160878 1.1798409e-38 333 297
0.016028972 0.653 -0.06526082 1.1706579e-38 334 297
0.017173899 0.653 -0.06526082 1.1614382e-38 335 297
0.01834688 0.65399998 -0.065360755 1.1430714e-38 336 297
0.019493559 0.65399998 -0.065360755 1.1430714e-38 337 297
0.020640239 0.65399998 -0.065360755 1.1248125e-38 338 297
0.021820232 0.65499997 -0.065460697 1.134032e-38 339 297
0.022968665 0.65499997 -0.065460697 1.1614759e-38 340 297
0.024117097 0.65499997 -0.065460697 1.1245616e-38 341 297
-0.074755117 0.64600003 -0.065693893 1.4753787e-38 254 298
-0.073622465 0.64600003 -0.065693893 1.2448536e-38 255 298
-0.071816526 0.63999999 -0.065083727 1.1985684e-38 256 298
-0.070694394 0.63999999 -0.065083727 1.2354465e-38 257 298
-0.069572262 0.63999999 -0.065083727 1.2815775e-38 258 298
-0.068450131 0.63999999 -0.065083727 1.3368948e-38 259 298
-0.067327991 0.63999999 -0.065083727 1.3738091e-38 260 298
-0.066205859 0.63999999 -0.065083727 1.4014317e-38 261 298
-0.064880349 0.63800001 -0.064880349 1.4842267e-38 262 298
-0.063761719 0.63800001 -0.064880349 1.4934463e-38 263 298
-0.062643096 0.63800001 -0.064880349 1.5211046e-38 264 298
-0.061717331 0.63999999 -0.065083727 1.5487634e-38 265 298
-0.060595192 0.63999999 -0.065083727 1.6037195e-38 266 298
-0.059287209 0.63800001 -0.064880349 1.5760608e-38 267 298
-0.05816859 0.63800001 -0.064880349 1.5575849e-38 268 298
-0.056960538 0.63700002 -0.064778656 1.529926e-38 269 298
-0.055843666 0.63700002 -0.064778656 1.5021582e-38 270 298
-0.054726794 0.63700002 -0.064778656 1.4652441e-38 271 298
-0.053525757 0.63599998 -0.064676955 1.4468037e-38 272 298
-0.052410636 0.63599998 -0.064676955 1.4191454e-38 273 298
-0.051214863 0.63499999 -0.064575262 1.3915957e-38 274 298
-0.050101496 0.63499999 -0.064575262 1.3823762e-38 275 298
-0.04898813 0.63499999 -0.064575262 1.3179136e-38 276 298
-0.047874767 0.63499999 -0.064575262 1.2902191e-38 277 298
-0.046761397 0.63499999 -0.064575262 1.2349023e-38 278 298
-0.045648031 0.63499999 -0.064575262 1.2164273e-38 279 298
-0.044534665 0.63499999 -0.064575262 1.2255768e-38 280 298
-0.043352917 0.634 -0.064473569 1.2440159e-38 281 298
-0.042241305 0.634 -0.064473569 1.1704399e-38 282 298
-0.041129693 0.634 -0.064473569 1.1704399e-38 283 298
-0.040081199 0.63499999 -0.064575262 1.1612566e-38 284 298
-0.038906466 0.634 -0.064473569 1.1612566e-38 285 298
-0.037794851 0.634 -0.064473569 1.161186e-38 286 298
-0.0367411 0.63499999 -0.064575262 1.1519664e-38 287 298
-0.03562773 0.63499999 -0.064575262 1.1336349e-38 288 298
-0.034514364 0.63499999 -0.064575262 1.1244152e-38 289 298
-0.033400998 0.63499999 -0.064575262 1.1336705e-38 290 298
-0.032287631 0.63499999 -0.064575262 1.1428901e-38 291 298
-0.031174263 0.63499999 -0.064575262 1.1337068e-38 292 298
-0.0300609 0.63499999 -0.064575262 1.1337068e-38 293 298
-0.028947532 0.63499999 -0.064575262 1.1246307e-38 294 298
-0.027834166 0.63499999 -0.064575262 1.1338503e-38 295 298
-0.0267208 0.63499999 -0.064575262 1.1614364e-38 296 298
-0.025647758 0.63599998 -0.064676955 1.1614364e-38 297 298
-0.024532638 0.63599998 -0.064676955 1.1797676e-38 298 298
-0.023417519 0.63599998 -0.064676955 1.1797676e-38 299 298
-0.022302398 0.63599998 -0.064676955 1.1889872e-38 300 298
-0.021187279 0.63599998 -0.064676955 1.1889872e-38 301 298
-0.020072158 0.63599998 -0.064676955 1.1889872e-38 302 298
-0.018957037 0.63599998 -0.064676955 1.1982426e-38 303 298
-0.017841918 0.63599998 -0.064676955 1.1981707e-38 304 298
-0.016726799 0.63599998 -0.064676955 1.1981707e-38 305 298
-0.015611678 0.63599998 -0.064676955 1.1981702e-38 306 298
-0.014496559 0.63599998 -0.064676955 1.179731e-38 307 298
-0.013381439 0.63599998 -0.064676955 1.1797308e-38 308 298
-0.012266319 0.63599998 -0.064676955 1.1797308e-38 309 298
-0.011168733 0.63700002 -0.064778656 1.1705118e-38 310 298
-0.01006764 0.63800001 -0.064880349 1.1797313e-38 311 298
-0.0089770658 0.63999999 -0.065083727 1.179696e-38 312 298
-0.0078549329 0.63999999 -0.065083727 1.1889156e-38 313 298
-0.0067327996 0.63999999 -0.065083727 1.1797676e-38 314 298
-0.0056106662 0.63999999 -0.065083727 1.1797676e-38 315 298
-0.0044955462 0.64099997 -0.06518542 1.1706206e-38 316 298
-0.0033716597 0.64099997 -0.06518542 1.1706206e-38 317 298
-0.00225128 0.64200002 -0.065287121 1.1706209e-38 318 298
-0.0011273933 0.64300001 -0.065388806 1.1706209e-38 319 298
0 0.64300001 -0.065388806 1.1706562e-38 320 298
0.0011291467 0.64399999 -0.065490507 1.1706562e-38 321 298
0.0022653067 0.64600003 -0.065693893 1.1982423e-38 322 298
0.00339796 0.64600003 -0.065693893 1.1890228e-38 323 298
0.0045306133 0.64600003 -0.065693893 1.1798755e-38 324 298
0.0056632664 0.64600003 -0.065693893 1.1798755e-38 325 298
0.00679592 0.64600003 -0.065693893 1.1982423e-38 326 298
0.0079408465 0.64700001 -0.065795586 1.1982423e-38 327 298
0.0090892799 0.648 -0.065897278 1.1798755e-38 328 298
0.010225439 0.648 -0.065897278 1.1798755e-38 329 298
0.011379133 0.64899999 -0.065998971 1.1798761e-38 330 298
0.012536332 0.64999998 -0.066100657 1.1706206e-38 331 298
0.01371808 0.65200001 -0.066304058 1.1706212e-38 332 298
0.014861252 0.65200001 -0.066304058 1.1706212e-38 333 298
0.016028972 0.653 -0.066405743 1.1522186e-38 334 298
0.017173899 0.653 -0.066405743 1.1522186e-38 335 298
0.01834688 0.65399998 -0.066507436 1.1245967e-38 336 298
0.019493559 0.65399998 -0.066507436 1.1338521e-38 337 298
0.020640239 0.65399998 -0.066507436 1.0969753e-38 338 298
0.021820232 0.65499997 -0.066609129 1.0693164e-38 339 298
0.022968665 0.65499997 -0.066609129 9.8659441e-39 340 298
-0.075887777 0.64600003 -0.066826545 1.7794128e-38 253 299
-0.074755117 0.64600003 -0.066826545 1.1620923e-38 254 299
-0.073622465 0.64600003 -0.066826545 9.9614034e-39 255 299
-0.071816526 0.63999999 -0.066205859 1.1155203e-38 256 299
-0.070694394 0.63999999 -0.066205859 1.2076801e-38 257 299
-0.069354847 0.63800001 -0.065998971 1.2356601e-38 258 299
-0.068236224 0.63800001 -0.065998971 1.281722e-38 259 299
-0.067117594 0.63800001 -0.065998971 1.3368945e-38 260 299
-0.066205859 0.63999999 -0.066205859 1.3645892e-38 261 299
-0.064880349 0.63800001 -0.065998971 1.4289457e-38 262 299
-0.063661784 0.63700002 -0.065895528 1.4197261e-38 263 299
-0.062544905 0.63700002 -0.065895528 1.4381642e-38 264 299
-0.061524466 0.63800001 -0.065998971 1.4565674e-38 265 299
-0.060405839 0.63800001 -0.065998971 1.4931917e-38 266 299
-0.059194289 0.63700002 -0.065895528 1.4931917e-38 267 299
-0.058077414 0.63700002 -0.065895528 1.4839005e-38 268 299
-0.056960538 0.63700002 -0.065895528 1.4378027e-38 269 299
-0.055843666 0.63700002 -0.065895528 1.3824503e-38 270 299
-0.054640878 0.63599998 -0.065792076 1.3363165e-38 271 299
-0.053525757 0.63599998 -0.065792076 1.3270603e-38 272 299
-0.052410636 0.63599998 -0.065792076 1.3085853e-38 273 299
-0.051214863 0.63499999 -0.065688632 1.2719244e-38 274 299
-0.050101496 0.63499999 -0.065688632 1.2627049e-38 275 299
-0.04898813 0.63499999 -0.065688632 1.2533449e-38 276 299
-0.047799375 0.634 -0.065585189 1.2349059e-38 277 299
-0.046687759 0.634 -0.065585189 1.207177e-38 278 299
-0.045576144 0.634 -0.065585189 1.1979216e-38 279 299
-0.044464532 0.634 -0.065585189 1.1979216e-38 280 299
-0.043352917 0.634 -0.065585189 1.1979216e-38 281 299
-0.042241305 0.634 -0.065585189 1.14282e-38 282 299
-0.041129693 0.634 -0.065585189 1.14282e-38 283 299
-0.040018078 0.634 -0.065585189 1.1428194e-38 284 299
-0.038906466 0.634 -0.065585189 1.1335999e-38 285 299
-0.037794851 0.634 -0.065585189 1.1152684e-38 286 299
-0.0367411 0.63499999 -0.065688632 1.1152684e-38 287 299
-0.035571627 0.634 -0.065585189 1.1244152e-38 288 299
-0.034460012 0.634 -0.065585189 1.1336349e-38 289 299
-0.033400998 0.63499999 -0.065688632 1.1153388e-38 290 299
-0.032287631 0.63499999 -0.065688632 1.1337421e-38 291 299
-0.031174263 0.63499999 -0.065688632 1.1429973e-38 292 299
-0.0300609 0.63499999 -0.065688632 1.1429973e-38 293 299
-0.028947532 0.63499999 -0.065688632 1.1522168e-38 294 299
-0.027834166 0.63499999 -0.065688632 1.1522168e-38 295 299
-0.0267208 0.63499999 -0.065688632 1.1614367e-38 296 299
-0.025647758 0.63599998 -0.065792076 1.1706562e-38 297 299
-0.024532638 0.63599998 -0.065792076 1.1889872e-38 298 299
-0.023417519 0.63599998 -0.065792076 1.1797676e-38 299 299
-0.022302398 0.63599998 -0.065792076 1.1797676e-38 300 299
-0.021187279 0.63599998 -0.065792076 1.1889872e-38 301 299
-0.020072158 0.63599998 -0.065792076 1.1797323e-38 302 299
-0.018957037 0.63599998 -0.065792076 1.1797323e-38 303 299
-0.017841918 0.63599998 -0.065792076 1.1889877e-38 304 299
-0.016726799 0.63599998 -0.065792076 1.1797323e-38 305 299
-0.015636226 0.63700002 -0.065895528 1.1798032e-38 306 299
-0.014519353 0.63700002 -0.065895528 1.1705478e-38 307 299
-0.01340248 0.63700002 -0.065895528 1.1705834e-38 308 299
-0.012304893 0.63800001 -0.065998971 1.1705834e-38 309 299
-0.011186266 0.63800001 -0.065998971 1.1704764e-38 310 299
-0.0100992 0.63999999 -0.066205859 1.1612569e-38 311 299
-0.0089770658 0.63999999 -0.066205859 1.1521096e-38 312 299
-0.0078672068 0.64099997 -0.06630931 1.1705127e-38 313 299
-0.0067433193 0.64099997 -0.06630931 1.1522171e-38 314 299
-0.0056194332 0.64099997 -0.06630931 1.1614367e-38 315 299
-0.0044955462 0.64099997 -0.06630931 1.1706206e-38 316 299
-0.00337692 0.64200002 -0.066412762 1.1706206e-38 317 299
-0.0022547867 0.64300001 -0.066516206 1.1614011e-38 318 299
-0.0011291467 0.64399999 -0.06661965 1.1706206e-38 319 299
0 0.64399999 -0.06661965 1.1615086e-38 320 299
0.0011291467 0.64399999 -0.06661965 1.1615086e-38 321 299
0.0022653067 0.64600003 -0.066826545 1.1522534e-38 322 299
0.00339796 0.64600003 -0.066826545 1.1522534e-38 323 299
0.0045306133 0.64600003 -0.066826545 1.161473e-38 324 299
0.0056720334 0.64700001 -0.066929989 1.161473e-38 325 299
0.0068064397 0.64700001 -0.066929989 1.161473e-38 326 299
0.0079408465 0.64700001 -0.066929989 1.161473e-38 327 299
0.0090892799 0.648 -0.067033432 1.1706929e-38 328 299
0.01024122 0.64899999 -0.067136884 1.1614732e-38 329 299
0.011379133 0.64899999 -0.067136884 1.1431067e-38 330 299
0.012536332 0.64999998 -0.067240328 1.1431067e-38 331 299
0.01371808 0.65200001 -0.06744723 1.1338515e-38 332 299
0.014861252 0.65200001 -0.06744723 1.1338515e-38 333 299
0.016028972 0.653 -0.067550674 1.0787147e-38 334 299
0.017173899 0.653 -0.067550674 1.0787147e-38 335 299
0.01834688 0.65399998 -0.067654118 1.0969039e-38 336 299
0.019493559 0.65399998 -0.067654118 1.0969039e-38 337 299
0.020640239 0.65399998 -0.067654118 1.0232583e-38 338 299
0.021820232 0.65499997 -0.067757562 9.9559944e-39 339 299
-0.077020429 0.64600003 -0.067959204 1.5397046e-38 252 300
-0.075652823 0.64399999 -0.0677488 1.2538621e-38 253 300
-0.074523672 0.64399999 -0.0677488 2.9556257e-39 254 300
-0.073052622 0.64099997 -0.067433193 5.721496e-39 255 300
-0.071592107 0.63800001 -0.067117594 9.3141801e-39 256 300
-0.070473477 0.63800001 -0.067117594 9.9595495e-39 257 300
-0.069354847 0.63800001 -0.067117594 1.0604172e-38 258 300
-0.068236224 0.63800001 -0.067117594 1.0881118e-38 259 300
-0.067117594 0.63800001 -0.067117594 1.1617235e-38 260 300
-0.065998971 0.63800001 -0.067117594 1.1893822e-38 261 300
-0.064778656 0.63700002 -0.067012399 1.1985998e-38 262 300
-0.063661784 0.63700002 -0.067012399 1.1801248e-38 263 300
-0.062544905 0.63700002 -0.067012399 1.2076732e-38 264 300
-0.061428033 0.63700002 -0.067012399 1.2168929e-38 265 300
-0.060311161 0.63700002 -0.067012399 1.2351874e-38 266 300
-0.059194289 0.63700002 -0.067012399 1.2075292e-38 267 300
-0.058077414 0.63700002 -0.067012399 1.2165692e-38 268 300
-0.056960538 0.63700002 -0.067012399 1.2165692e-38 269 300
-0.055843666 0.63700002 -0.067012399 1.1706156e-38 270 300
-0.054640878 0.63599998 -0.066907197 1.1429214e-38 271 300
-0.053525757 0.63599998 -0.066907197 1.1428505e-38 272 300
-0.052410636 0.63599998 -0.066907197 1.133631e-38 273 300
-0.051214863 0.63499999 -0.066801995 1.0786754e-38 274 300
-0.050101496 0.63499999 -0.066801995 1.1155178e-38 275 300
-0.04898813 0.63499999 -0.066801995 1.1979919e-38 276 300
-0.047799375 0.634 -0.0666968 1.1979919e-38 277 300
-0.04654048 0.63200003 -0.066486403 1.1980275e-38 278 300
-0.045432374 0.63200003 -0.066486403 1.1980275e-38 279 300
-0.044464532 0.634 -0.0666968 1.1796604e-38 280 300
-0.043352917 0.634 -0.0666968 1.1704408e-38 281 300
-0.042241305 0.634 -0.0666968 1.1428547e-38 282 300
-0.041129693 0.634 -0.0666968 1.1428547e-38 283 300
-0.040018078 0.634 -0.0666968 1.1337074e-38 284 300
-0.038906466 0.634 -0.0666968 1.1152684e-38 285 300
-0.037794851 0.634 -0.0666968 1.106121e-38 286 300
-0.036683239 0.634 -0.0666968 1.106121e-38 287 300
-0.035571627 0.634 -0.0666968 1.115304e-38 288 300
-0.034460012 0.634 -0.0666968 1.115304e-38 289 300
-0.0333484 0.634 -0.0666968 1.1337421e-38 290 300
-0.032287631 0.63499999 -0.066801995 1.1429617e-38 291 300
-0.031174263 0.63499999 -0.066801995 1.1429617e-38 292 300
-0.0300609 0.63499999 -0.066801995 1.1522171e-38 293 300
-0.028947532 0.63499999 -0.066801995 1.1522171e-38 294 300
-0.027834166 0.63499999 -0.066801995 1.1614367e-38 295 300
-0.0267208 0.63499999 -0.066801995 1.170513e-38 296 300
-0.025607431 0.63499999 -0.066801995 1.170513e-38 297 300
-0.024532638 0.63599998 -0.066907197 1.1797329e-38 298 300
-0.023417519 0.63599998 -0.066907197 1.1797329e-38 299 300
-0.022302398 0.63599998 -0.066907197 1.1797326e-38 300 300
-0.021187279 0.63599998 -0.066907197 1.170513e-38 301 300
-0.020072158 0.63599998 -0.066907197 1.1796604e-38 302 300
-0.018957037 0.63599998 -0.066907197 1.1889158e-38 303 300
-0.017841918 0.63599998 -0.066907197 1.1889156e-38 304 300
-0.016726799 0.63599998 -0.066907197 1.1889156e-38 305 300
-0.015636226 0.63700002 -0.067012399 1.1797313e-38 306 300
-0.014519353 0.63700002 -0.067012399 1.1797313e-38 307 300
-0.01340248 0.63700002 -0.067012399 1.1705118e-38 308 300
-0.012304893 0.63800001 -0.067117594 1.1612563e-38 309 300
-0.011186266 0.63800001 -0.067117594 1.1612569e-38 310 300
-0.0100992 0.63999999 -0.067327991 1.1612569e-38 311 300
-0.0089770658 0.63999999 -0.067327991 1.1428903e-38 312 300
-0.0078672068 0.64099997 -0.067433193 1.1428903e-38 313 300
-0.0067433193 0.64099997 -0.067433193 1.1704408e-38 314 300
-0.0056194332 0.64099997 -0.067433193 1.1796604e-38 315 300
-0.00450256 0.64200002 -0.067538396 1.1614011e-38 316 300
-0.00337692 0.64200002 -0.067538396 1.1521815e-38 317 300
-0.0022547867 0.64300001 -0.067643598 1.1614016e-38 318 300
-0.0011291467 0.64399999 -0.0677488 1.1614016e-38 319 300
0 0.64399999 -0.0677488 1.1614016e-38 320 300
0.0011326533 0.64600003 -0.067959204 1.1521462e-38 321 300
0.0022653067 0.64600003 -0.067959204 1.179661e-38 322 300
0.00339796 0.64600003 -0.067959204 1.1704414e-38 323 300
0.0045376266 0.64700001 -0.068064399 1.1429619e-38 324 300
0.0056720334 0.64700001 -0.068064399 1.1521815e-38 325 300
0.0068064397 0.64700001 -0.068064399 1.1614014e-38 326 300
0.0079531204 0.648 -0.068169601 1.1521818e-38 327 300
0.0091033066 0.64899999 -0.068274796 1.1522184e-38 328 300
0.01024122 0.64899999 -0.068274796 1.1614379e-38 329 300
0.011379133 0.64899999 -0.068274796 1.1521465e-38 330 300
0.012536332 0.64999998 -0.068379998 1.1429269e-38 331 300
0.013675999 0.64999998 -0.068379998 1.1336367e-38 332 300
0.014815666 0.64999998 -0.068379998 1.1152336e-38 333 300
0.015955333 0.64999998 -0.068379998 1.0875054e-38 334 300
0.017200198 0.65399998 -0.068800792 1.0321882e-38 335 300
0.01834688 0.65399998 -0.068800792 9.6779754e-39 336 300
0.019493559 0.65399998 -0.068800792 9.8627268e-39 337 300
-0.076781973 0.64399999 -0.068877943 1.3003549e-38 252 301
-0.07553535 0.64300001 -0.06877099 6.2732685e-39 253 301
-0.074407957 0.64300001 -0.06877099 1.1127711e-41 254 301
-0.073052622 0.64099997 -0.068557084 3.3319711e-39 255 301
-0.071592107 0.63800001 -0.068236224 8.0241895e-39 256 301
-0.070473477 0.63800001 -0.068236224 8.3926119e-39 257 301
-0.069354847 0.63800001 -0.068236224 8.6706071e-39 258 301
-0.068236224 0.63800001 -0.068236224 9.2237809e-39 259 301
-0.067117594 0.63800001 -0.068236224 1.0052451e-38 260 301
-0.065895528 0.63700002 -0.068129279 1.0513071e-38 261 301
-0.064778656 0.63700002 -0.068129279 1.1155909e-38 262 301
-0.063661784 0.63700002 -0.068129279 1.1063714e-38 263 301
-0.062544905 0.63700002 -0.068129279 1.1247374e-38 264 301
-0.061428033 0.63700002 -0.068129279 1.1432124e-38 265 301
-0.060311161 0.63700002 -0.068129279 1.1339569e-38 266 301
-0.059194289 0.63700002 -0.068129279 1.1339569e-38 267 301
-0.058077414 0.63700002 -0.068129279 1.1521452e-38 268 301
-0.056960538 0.63700002 -0.068129279 1.1705483e-38 269 301
-0.055755995 0.63599998 -0.068022311 1.1521831e-38 270 301
-0.054640878 0.63599998 -0.068022311 1.1245604e-38 271 301
-0.053525757 0.63599998 -0.068022311 1.1152699e-38 272 301
-0.052410636 0.63599998 -0.068022311 1.1060503e-38 273 301
-0.051214863 0.63499999 -0.067915365 1.1153055e-38 274 301
-0.050101496 0.63499999 -0.067915365 1.1245251e-38 275 301
-0.04898813 0.63499999 -0.067915365 1.1245248e-38 276 301
-0.047799375 0.634 -0.067808412 1.1245248e-38 277 301
-0.04654048 0.63200003 -0.067594506 1.1338153e-38 278 301
-0.045432374 0.63200003 -0.067594506 1.1245957e-38 279 301
-0.044324268 0.63200003 -0.067594506 1.1429266e-38 280 301
-0.043216161 0.63200003 -0.067594506 1.1337071e-38 281 301
-0.042108051 0.63200003 -0.067594506 1.1336718e-38 282 301
-0.040999945 0.63200003 -0.067594506 1.1336718e-38 283 301
-0.040018078 0.634 -0.067808412 1.133672e-38 284 301
-0.038906466 0.634 -0.067808412 1.1152689e-38 285 301
-0.037794851 0.634 -0.067808412 1.1152686e-38 286 301
-0.036683239 0.634 -0.067808412 1.1152686e-38 287 301
-0.035571627 0.634 -0.067808412 1.1152684e-38 288 301
-0.034460012 0.634 -0.067808412 1.1152684e-38 289 301
-0.0333484 0.634 -0.067808412 1.1153756e-38 290 301
-0.032287631 0.63499999 -0.067915365 1.1245951e-38 291 301
-0.031174263 0.63499999 -0.067915365 1.1337068e-38 292 301
-0.0300609 0.63499999 -0.067915365 1.1429622e-38 293 301
-0.028947532 0.63499999 -0.067915365 1.1429266e-38 294 301
-0.027834166 0.63499999 -0.067915365 1.1521462e-38 295 301
-0.0267208 0.63499999 -0.067915365 1.1520749e-38 296 301
-0.025607431 0.63499999 -0.067915365 1.170478e-38 297 301
-0.024532638 0.63599998 -0.068022311 1.1521112e-38 298 301
-0.023417519 0.63599998 -0.068022311 1.1521112e-38 299 301
-0.022302398 0.63599998 -0.068022311 1.170478e-38 300 301
-0.021187279 0.63599998 -0.068022311 1.1520749e-38 301 301
-0.020072158 0.63599998 -0.068022311 1.1429266e-38 302 301
-0.018957037 0.63599998 -0.068022311 1.1521462e-38 303 301
-0.017841918 0.63599998 -0.068022311 1.1521818e-38 304 301
-0.016726799 0.63599998 -0.068022311 1.1521818e-38 305 301
-0.015636226 0.63700002 -0.068129279 1.1429619e-38 306 301
-0.014519353 0.63700002 -0.068129279 1.1429619e-38 307 301
-0.01342352 0.63800001 -0.068236224 1.1428903e-38 308 301
-0.012304893 0.63800001 -0.068236224 1.1428903e-38 309 301
-0.011221332 0.63999999 -0.068450131 1.1337071e-38 310 301
-0.0100992 0.63999999 -0.068450131 1.1337071e-38 311 301
-0.0089770658 0.63999999 -0.068450131 1.1153403e-38 312 301
-0.0078672068 0.64099997 -0.068557084 1.1153403e-38 313 301
-0.0067433193 0.64099997 -0.068557084 1.1336718e-38 314 301
-0.0056194332 0.64099997 -0.068557084 1.1336718e-38 315 301
-0.00450256 0.64200002 -0.068664044 1.133672e-38 316 301
-0.0033821799 0.64300001 -0.06877099 1.133672e-38 317 301
-0.0022547867 0.64300001 -0.06877099 1.133637e-38 318 301
-0.0011291467 0.64399999 -0.068877943 1.133637e-38 319 301
0 0.64399999 -0.068877943 1.1151983e-38 320 301
0.0011326533 0.64600003 -0.069091856 1.1336014e-38 321 301
0.0022653067 0.64600003 -0.069091856 1.1336367e-38 322 301
0.00339796 0.64600003 -0.069091856 1.1336367e-38 323 301
0.0045376266 0.64700001 -0.069198802 1.1245604e-38 324 301
0.0056720334 0.64700001 -0.069198802 1.1153408e-38 325 301
0.0068169599 0.648 -0.069305755 1.1245248e-38 326 301
0.0079653924 0.64899999 -0.069412716 1.1245248e-38 327 301
0.0091033066 0.64899999 -0.069412716 1.1153421e-38 328 301
0.01024122 0.64899999 -0.069412716 1.096939e-38 329 301
0.011379133 0.64899999 -0.069412716 1.0784641e-38 330 301
0.012536332 0.64999998 -0.069519661 1.0692445e-38 331 301
0.013675999 0.64999998 -0.069519661 1.0324757e-38 332 301
0.014815666 0.64999998 -0.069519661 1.0048172e-38 333 301
0.015955333 0.64999998 -0.069519661 9.6790586e-39 334 301
-0.076781973 0.64399999 -0.070007093 1.1899328e-38 252 302
-0.07553535 0.64300001 -0.069898389 3.8783079e-39 253 302
-0.074407957 0.64300001 -0.069898389 1.2092869e-39 254 302
-0.073052622 0.64099997 -0.069680966 4.1595443e-39 255 302
-0.071592107 0.63800001 -0.069354847 6.7334661e-39 256 302
-0.070473477 0.63800001 -0.069354847 6.5487161e-39 257 302
-0.069354847 0.63800001 -0.069354847 6.458303e-39 258 302
-0.068236224 0.63800001 -0.069354847 7.6568461e-39 259 302
-0.067012399 0.63700002 -0.069246151 8.4862285e-39 260 302
-0.065895528 0.63700002 -0.069246151 9.1315979e-39 261 302
-0.064778656 0.63700002 -0.069246151 1.0234689e-38 262 302
-0.063661784 0.63700002 -0.069246151 1.0234689e-38 263 302
-0.062544905 0.63700002 -0.069246151 1.0419437e-38 264 302
-0.061428033 0.63700002 -0.069246151 1.0419437e-38 265 302
-0.060311161 0.63700002 -0.069246151 1.0693868e-38 266 302
-0.059194289 0.63700002 -0.069246151 1.087826e-38 267 302
-0.058077414 0.63700002 -0.069246151 1.1428197e-38 268 302
-0.056960538 0.63700002 -0.069246151 1.1428197e-38 269 302
-0.055755995 0.63599998 -0.069137439 1.106121e-38 270 302
-0.054640878 0.63599998 -0.069137439 1.106121e-38 271 302
-0.053525757 0.63599998 -0.069137439 1.096901e-38 272 302
-0.052410636 0.63599998 -0.069137439 1.1061207e-38 273 302
-0.051214863 0.63499999 -0.069028728 1.0877897e-38 274 302
-0.050101496 0.63499999 -0.069028728 1.0970093e-38 275 302
-0.04898813 0.63499999 -0.069028728 1.106121e-38 276 302
-0.047799375 0.634 -0.068920024 1.1153405e-38 277 302
-0.046687759 0.634 -0.068920024 1.1337074e-38 278 302
-0.045576144 0.634 -0.068920024 1.1337074e-38 279 302
-0.044324268 0.63200003 -0.068702616 1.1428197e-38 280 302
-0.043216161 0.63200003 -0.068702616 1.1428197e-38 281 302
-0.042108051 0.63200003 -0.068702616 1.1336364e-38 282 302
-0.040999945 0.63200003 -0.068702616 1.1152333e-38 283 302
-0.040018078 0.634 -0.068920024 1.1152333e-38 284 302
-0.038906466 0.634 -0.068920024 1.1152333e-38 285 302
-0.037794851 0.634 -0.068920024 1.1152689e-38 286 302
-0.036683239 0.634 -0.068920024 1.1152689e-38 287 302
-0.035571627 0.634 -0.068920024 1.1152686e-38 288 302
-0.034460012 0.634 -0.068920024 1.1152686e-38 289 302
-0.033400998 0.63499999 -0.069028728 1.1152686e-38 290 302
-0.032287631 0.63499999 -0.069028728 1.1336718e-38 291 302
-0.031174263 0.63499999 -0.069028728 1.1428194e-38 292 302
-0.0300609 0.63499999 -0.069028728 1.1428194e-38 293 302
-0.028947532 0.63499999 -0.069028728 1.1611865e-38 294 302
-0.027834166 0.63499999 -0.069028728 1.1704061e-38 295 302
-0.0267208 0.63499999 -0.069028728 1.1611509e-38 296 302
-0.025647758 0.63599998 -0.069137439 1.1703705e-38 297 302
-0.024532638 0.63599998 -0.069137439 1.1520393e-38 298 302
-0.023417519 0.63599998 -0.069137439 1.1428197e-38 299 302
-0.022302398 0.63599998 -0.069137439 1.1428197e-38 300 302
-0.021187279 0.63599998 -0.069137439 1.1428197e-38 301 302
-0.020072158 0.63599998 -0.069137439 1.1428913e-38 302 302
-0.018957037 0.63599998 -0.069137439 1.1428913e-38 303 302
-0.017841918 0.63599998 -0.069137439 1.1428194e-38 304 302
-0.0167531 0.63700002 -0.069246151 1.1428194e-38 305 302
-0.015636226 0.63700002 -0.069246151 1.1336002e-38 306 302
-0.014542148 0.63800001 -0.069354847 1.1243804e-38 307 302
-0.01342352 0.63800001 -0.069354847 1.124273e-38 308 302
-0.012343466 0.63999999 -0.069572262 1.124273e-38 309 302
-0.011221332 0.63999999 -0.069572262 1.1060139e-38 310 302
-0.0100992 0.63999999 -0.069572262 1.1060139e-38 311 302
-0.0089910924 0.64099997 -0.069680966 1.0968291e-38 312 302
-0.0078672068 0.64099997 -0.069680966 1.0876095e-38 313 302
-0.00675384 0.64200002 -0.069789678 1.1059045e-38 314 302
-0.0056281998 0.64200002 -0.069789678 1.1059045e-38 315 302
-0.0045095733 0.64300001 -0.069898389 1.087467e-38 316 302
-0.0033874398 0.64399999 -0.070007093 1.105906e-38 317 302
-0.0022582933 0.64399999 -0.070007093 1.1058351e-38 318 302
-0.0011291467 0.64399999 -0.070007093 1.1058351e-38 319 302
0 0.64600003 -0.070224509 1.1333499e-38 320 302
0.0011326533 0.64600003 -0.070224509 1.1425694e-38 321 302
0.0022653067 0.64600003 -0.070224509 1.1243451e-38 322 302
0.00339796 0.64600003 -0.070224509 1.1243451e-38 323 302
0.0045376266 0.64700001 -0.070333213 1.096866e-38 324 302
0.0056720334 0.64700001 -0.070333213 1.096866e-38 325 302
0.0068169599 0.648 -0.070441917 1.1153055e-38 326 302
0.0079653924 0.64899999 -0.070550621 1.1060859e-38 327 302
0.0091033066 0.64899999 -0.070550621 1.050878e-38 328 302
0.01024122 0.64899999 -0.070550621 1.0324389e-38 329 302
0.011396666 0.64999998 -0.070659332 9.6779627e-39 330 302
0.012536332 0.64999998 -0.070659332 9.7701584e-39 331 302
0.013675999 0.64999998 -0.070659332 1.004497e-38 332 302
0.014815666 0.64999998 -0.070659332 9.9527728e-39 333 302
-0.076781973 0.64399999 -0.071136236 1.6134203e-38 252 303
-0.07553535 0.64300001 -0.071025774 9.5883133e-39 253 303
-0.074292243 0.64200002 -0.070915326 4.9759828e-39 254 303
-0.073166594 0.64200002 -0.070915326 5.7135479e-39 255 303
-0.071816526 0.63999999 -0.070694394 6.7305963e-39 256 303
-0.070473477 0.63800001 -0.070473477 6.9149875e-39 257 303
-0.069354847 0.63800001 -0.070473477 6.8235108e-39 258 303
-0.068129279 0.63700002 -0.070363015 7.6532714e-39 259 303
-0.067012399 0.63700002 -0.070363015 8.3007694e-39 260 303
-0.065895528 0.63700002 -0.070363015 8.9461388e-39 261 303
-0.064778656 0.63700002 -0.070363015 9.7740862e-39 262 303
-0.063661784 0.63700002 -0.070363015 9.8662818e-39 263 303
-0.062544905 0.63700002 -0.070363015 1.0142143e-38 264 303
-0.061428033 0.63700002 -0.070363015 1.0142143e-38 265 303
-0.060311161 0.63700002 -0.070363015 1.0600603e-38 266 303
-0.059194289 0.63700002 -0.070363015 1.0692799e-38 267 303
-0.058077414 0.63700002 -0.070363015 1.0692796e-38 268 303
-0.056960538 0.63700002 -0.070363015 1.0692796e-38 269 303
-0.055755995 0.63599998 -0.070252553 1.0693149e-38 270 303
-0.054640878 0.63599998 -0.070252553 1.0693149e-38 271 303
-0.053525757 0.63599998 -0.070252553 1.0785344e-38 272 303
-0.052410636 0.63599998 -0.070252553 1.0785344e-38 273 303
-0.051214863 0.63499999 -0.070142098 1.0785712e-38 274 303
-0.050101496 0.63499999 -0.070142098 1.0785712e-38 275 303
-0.04898813 0.63499999 -0.070142098 1.096974e-38 276 303
-0.047799375 0.634 -0.070031643 1.096974e-38 277 303
-0.046687759 0.634 -0.070031643 1.133672e-38 278 303
-0.045576144 0.634 -0.070031643 1.133672e-38 279 303
-0.044464532 0.634 -0.070031643 1.1336364e-38 280 303
-0.043352917 0.634 -0.070031643 1.1152333e-38 281 303
-0.042241305 0.634 -0.070031643 1.1153052e-38 282 303
-0.041129693 0.634 -0.070031643 1.1060857e-38 283 303
-0.040018078 0.634 -0.070031643 1.1152333e-38 284 303
-0.038967833 0.63499999 -0.070142098 1.1152333e-38 285 303
-0.037854467 0.63499999 -0.070142098 1.1152689e-38 286 303
-0.0367411 0.63499999 -0.070142098 1.1152689e-38 287 303
-0.03562773 0.63499999 -0.070142098 1.1152686e-38 288 303
-0.034514364 0.63499999 -0.070142098 1.1152686e-38 289 303
-0.033400998 0.63499999 -0.070142098 1.1152689e-38 290 303
-0.032338478 0.63599998 -0.070252553 1.1152689e-38 291 303
-0.031174263 0.63499999 -0.070142098 1.1335999e-38 292 303
-0.0300609 0.63499999 -0.070142098 1.1335999e-38 293 303
-0.028993119 0.63599998 -0.070252553 1.1428194e-38 294 303
-0.027877998 0.63599998 -0.070252553 1.1428194e-38 295 303
-0.026762879 0.63599998 -0.070252553 1.1428197e-38 296 303
-0.025647758 0.63599998 -0.070252553 1.1428197e-38 297 303
-0.024532638 0.63599998 -0.070252553 1.1336002e-38 298 303
-0.023417519 0.63599998 -0.070252553 1.1428197e-38 299 303
-0.022337466 0.63700002 -0.070363015 1.1336002e-38 300 303
-0.021187279 0.63599998 -0.070252553 1.1336002e-38 301 303
-0.020072158 0.63599998 -0.070252553 1.1152333e-38 302 303
-0.018957037 0.63599998 -0.070252553 1.1152333e-38 303 303
-0.017869974 0.63700002 -0.070363015 1.1243451e-38 304 303
-0.0167531 0.63700002 -0.070363015 1.1243451e-38 305 303
-0.015660774 0.63800001 -0.070473477 1.1058707e-38 306 303
-0.014542148 0.63800001 -0.070473477 1.0874676e-38 307 303
-0.01342352 0.63800001 -0.070473477 1.0873244e-38 308 303
-0.012343466 0.63999999 -0.070694394 1.0781048e-38 309 303
-0.011221332 0.63999999 -0.070694394 1.0780692e-38 310 303
-0.010114979 0.64099997 -0.070804857 1.0780692e-38 311 303
-0.0089910924 0.64099997 -0.070804857 1.050553e-38 312 303
-0.0078672068 0.64099997 -0.070804857 1.0044912e-38 313 303
-0.00675384 0.64200002 -0.070915326 1.0042394e-38 314 303
-0.0056281998 0.64200002 -0.070915326 1.013459e-38 315 303
-0.0045095733 0.64300001 -0.071025774 9.9520133e-39 316 303
-0.0033874398 0.64399999 -0.071136236 1.0412631e-38 317 303
-0.0022582933 0.64399999 -0.071136236 1.0689578e-38 318 303
-0.0011291467 0.64399999 -0.071136236 1.0781774e-38 319 303
0 0.64600003 -0.071357161 1.0874676e-38 320 303
0.0011326533 0.64600003 -0.071357161 1.1058707e-38 321 303
0.0022653067 0.64600003 -0.071357161 1.0876114e-38 322 303
0.00339796 0.64600003 -0.071357161 1.0599528e-38 323 303
0.0045376266 0.64700001 -0.071467623 1.0507701e-38 324 303
0.0056807999 0.648 -0.071578078 1.032367e-38 325 303
0.0068274797 0.64899999 -0.07168854 1.004674e-38 326 303
-0.076781973 0.64399999 -0.072265387 1.834513e-38 252 304
-0.07553535 0.64300001 -0.072153173 1.5856206e-38 253 304
-0.074292243 0.64200002 -0.07204096 8.6602361e-39 254 304
-0.073052622 0.64099997 -0.07192874 5.8943686e-39 255 304
-0.071816526 0.63999999 -0.071816526 5.8107882e-39 256 304
-0.070473477 0.63800001 -0.071592107 6.4557988e-39 257 304
-0.069354847 0.63800001 -0.071592107 6.9167784e-39 258 304
-0.068129279 0.63700002 -0.071479894 7.2855623e-39 259 304
-0.067012399 0.63700002 -0.071479894 7.4735339e-39 260 304
-0.065895528 0.63700002 -0.071479894 8.0267077e-39 261 304
-0.064778656 0.63700002 -0.071479894 8.7631769e-39 262 304
-0.063661784 0.63700002 -0.071479894 9.1316007e-39 263 304
-0.062544905 0.63700002 -0.071479894 9.7744393e-39 264 304
-0.061428033 0.63700002 -0.071479894 9.7744393e-39 265 304
-0.060311161 0.63700002 -0.071479894 1.0049226e-38 266 304
-0.059194289 0.63700002 -0.071479894 1.0141421e-38 267 304
-0.058077414 0.63700002 -0.071479894 1.0508402e-38 268 304
-0.056960538 0.63700002 -0.071479894 1.0600597e-38 269 304
-0.055755995 0.63599998 -0.071367674 1.0600953e-38 270 304
-0.054640878 0.63599998 -0.071367674 1.0693149e-38 271 304
-0.053525757 0.63599998 -0.071367674 1.0876461e-38 272 304
-0.052410636 0.63599998 -0.071367674 1.1060854e-38 273 304
-0.051214863 0.63499999 -0.07125546 1.0969743e-38 274 304
-0.050101496 0.63499999 -0.07125546 1.0969743e-38 275 304
-0.04898813 0.63499999 -0.07125546 1.1153771e-38 276 304
-0.047799375 0.634 -0.071143255 1.1153771e-38 277 304
-0.046687759 0.634 -0.071143255 1.1245601e-38 278 304
-0.045576144 0.634 -0.071143255 1.1245601e-38 279 304
-0.044464532 0.634 -0.071143255 1.1336718e-38 280 304
-0.043352917 0.634 -0.071143255 1.1428913e-38 281 304
-0.042241305 0.634 -0.071143255 1.1245604e-38 282 304
-0.041129693 0.634 -0.071143255 1.1153408e-38 283 304
-0.040081199 0.63499999 -0.07125546 1.133672e-38 284 304
-0.038967833 0.63499999 -0.07125546 1.133672e-38 285 304
-0.037854467 0.63499999 -0.07125546 1.1153405e-38 286 304
-0.0367411 0.63499999 -0.07125546 1.1153405e-38 287 304
-0.03562773 0.63499999 -0.07125546 1.1152684e-38 288 304
-0.034514364 0.63499999 -0.07125546 1.1337074e-38 289 304
-0.033400998 0.63499999 -0.07125546 1.1153403e-38 290 304
-0.032338478 0.63599998 -0.071367674 1.1153403e-38 291 304
-0.031223357 0.63599998 -0.071367674 1.1337071e-38 292 304
-0.030108238 0.63599998 -0.071367674 1.1337071e-38 293 304
-0.028947532 0.63499999 -0.07125546 1.1428547e-38 294 304
-0.027834166 0.63499999 -0.07125546 1.1428547e-38 295 304
-0.026762879 0.63599998 -0.071367674 1.1335999e-38 296 304
-0.025647758 0.63599998 -0.071367674 1.1428194e-38 297 304
-0.024532638 0.63599998 -0.071367674 1.1336718e-38 298 304
-0.023417519 0.63599998 -0.071367674 1.1336718e-38 299 304
-0.022337466 0.63700002 -0.071479894 1.1152686e-38 300 304
-0.021187279 0.63599998 -0.071367674 1.1152686e-38 301 304
-0.020072158 0.63599998 -0.071367674 1.1060857e-38 302 304
-0.018986847 0.63700002 -0.071479894 1.096866e-38 303 304
-0.017898027 0.63800001 -0.071592107 1.0967943e-38 304 304
-0.016779399 0.63800001 -0.071592107 1.0875389e-38 305 304
-0.015660774 0.63800001 -0.071592107 1.0689929e-38 306 304
-0.014587732 0.63999999 -0.071816526 1.0597733e-38 307 304
-0.013465599 0.63999999 -0.071816526 1.0411194e-38 308 304
-0.012343466 0.63999999 -0.071816526 1.0226802e-38 309 304
-0.011221332 0.63999999 -0.071816526 1.041047e-38 310 304
-0.010114979 0.64099997 -0.07192874 1.0502666e-38 311 304
-0.0089910924 0.64099997 -0.07192874 1.0503019e-38 312 304
-0.0078672068 0.64099997 -0.07192874 9.8576498e-39 313 304
-0.00675384 0.64200002 -0.07204096 9.1222456e-39 314 304
-0.0056281998 0.64200002 -0.07204096 9.3066383e-39 315 304
-0.0045095733 0.64300001 -0.072153173 9.8594575e-39 316 304
-0.0033874398 0.64399999 -0.072265387 1.02286e-38 317 304
-0.0022582933 0.64399999 -0.072265387 1.0322585e-38 318 304
-0.0011291467 0.64399999 -0.072265387 1.041514e-38 319 304
0 0.64600003 -0.072489813 1.0049231e-38 320 304
0.0011326533 0.64600003 -0.072489813 1.0141427e-38 321 304
0.0022653067 0.64600003 -0.072489813 9.8648525e-39 322 304
0.0034032199 0.64700001 -0.072602026 9.6804627e-39 323 304
0.0045376266 0.64700001 -0.072602026 9.7701584e-39 324 304
-0.076781973 0.64399999 -0.07339453 1.8530245e-38 252 305
-0.07553535 0.64300001 -0.073280565 1.7608649e-38 253 305
-0.074292243 0.64200002 -0.073166594 1.1337857e-38 254 305
-0.073052622 0.64099997 -0.073052622 6.3589327e-39 255 305
-0.071816526 0.63999999 -0.072938658 4.4296334e-39 256 305
-0.070694394 0.63999999 -0.072938658 5.9044033e-39 257 305
-0.069354847 0.63800001 -0.07271073 6.6426998e-39 258 305
-0.068236224 0.63800001 -0.07271073 7.0111236e-39 259 305
-0.067012399 0.63700002 -0.072596766 7.1058234e-39 260 305
-0.065895528 0.63700002 -0.072596766 7.5668015e-39 261 305
-0.064778656 0.63700002 -0.072596766 8.5780612e-39 262 305
-0.063661784 0.63700002 -0.072596766 8.9468423e-39 263 305
-0.062544905 0.63700002 -0.072596766 9.5900439e-39 264 305
-0.061428033 0.63700002 -0.072596766 9.6822409e-39 265 305
-0.060311161 0.63700002 -0.072596766 9.9573859e-39 266 305
-0.059194289 0.63700002 -0.072596766 1.0141777e-38 267 305
-0.058077414 0.63700002 -0.072596766 1.0417285e-38 268 305
-0.056960538 0.63700002 -0.072596766 1.0509481e-38 269 305
-0.055843666 0.63700002 -0.072596766 1.0785698e-38 270 305
-0.054640878 0.63599998 -0.072482795 1.0785698e-38 271 305
-0.053525757 0.63599998 -0.072482795 1.1061207e-38 272 305
-0.052410636 0.63599998 -0.072482795 1.1153403e-38 273 305
-0.051214863 0.63499999 -0.07236883 1.0970093e-38 274 305
-0.050101496 0.63499999 -0.07236883 1.1154124e-38 275 305
-0.04898813 0.63499999 -0.07236883 1.124632e-38 276 305
-0.047799375 0.634 -0.072254866 1.1338515e-38 277 305
-0.046687759 0.634 -0.072254866 1.124632e-38 278 305
-0.045576144 0.634 -0.072254866 1.124632e-38 279 305
-0.044464532 0.634 -0.072254866 1.1245601e-38 280 305
-0.043352917 0.634 -0.072254866 1.1245601e-38 281 305
-0.042241305 0.634 -0.072254866 1.1154124e-38 282 305
-0.041129693 0.634 -0.072254866 1.1154124e-38 283 305
-0.040081199 0.63499999 -0.07236883 1.1245601e-38 284 305
-0.038967833 0.63499999 -0.07236883 1.1245601e-38 285 305
-0.037854467 0.63499999 -0.07236883 1.1337074e-38 286 305
-0.0367411 0.63499999 -0.07236883 1.1337074e-38 287 305
-0.03562773 0.63499999 -0.07236883 1.1337071e-38 288 305
-0.034514364 0.63499999 -0.07236883 1.1337071e-38 289 305
-0.033453599 0.63599998 -0.072482795 1.1153403e-38 290 305
-0.032338478 0.63599998 -0.072482795 1.1245957e-38 291 305
-0.031223357 0.63599998 -0.072482795 1.1245957e-38 292 305
-0.030108238 0.63599998 -0.072482795 1.1153403e-38 293 305
-0.028947532 0.63499999 -0.07236883 1.142855e-38 294 305
-0.027834166 0.63499999 -0.07236883 1.142855e-38 295 305
-0.026762879 0.63599998 -0.072482795 1.1336355e-38 296 305
-0.025647758 0.63599998 -0.072482795 1.142855e-38 297 305
-0.024532638 0.63599998 -0.072482795 1.1337074e-38 298 305
-0.023417519 0.63599998 -0.072482795 1.1337074e-38 299 305
-0.022337466 0.63700002 -0.072596766 1.106121e-38 300 305
-0.021220595 0.63700002 -0.072596766 1.106121e-38 301 305
-0.020103721 0.63700002 -0.072596766 1.0969013e-38 302 305
-0.019016653 0.63800001 -0.07271073 1.0876817e-38 303 305
-0.017898027 0.63800001 -0.07271073 1.0875026e-38 304 305
-0.016831998 0.63999999 -0.072938658 1.0782831e-38 305 305
-0.015709866 0.63999999 -0.072938658 1.059701e-38 306 305
-0.014587732 0.63999999 -0.072938658 1.0412619e-38 307 305
-0.013465599 0.63999999 -0.072938658 1.0227153e-38 308 305
-0.012343466 0.63999999 -0.072938658 1.0227153e-38 309 305
-0.011221332 0.63999999 -0.072938658 1.0135673e-38 310 305
-0.010114979 0.64099997 -0.073052622 1.0320423e-38 311 305
-0.0089910924 0.64099997 -0.073052622 1.0413335e-38 312 305
-0.0078672068 0.64099997 -0.073052622 1.0413335e-38 313 305
-0.0067433193 0.64099997 -0.073052622 1.0047426e-38 314 305
-0.0056281998 0.64200002 -0.073166594 1.0139622e-38 315 305
-0.0045095733 0.64300001 -0.073280565 1.0231825e-38 316 305
-0.0033874398 0.64399999 -0.07339453 1.0231825e-38 317 305
-0.0022582933 0.64399999 -0.07339453 1.0138923e-38 318 305
-0.0011291467 0.64399999 -0.07339453 1.0046726e-38 319 305
-0.075652823 0.64399999 -0.074523672 1.8254735e-38 253 306
-0.074292243 0.64200002 -0.074292243 1.5208259e-38 254 306
-0.073052622 0.64099997 -0.07417652 1.0598477e-38 255 306
-0.07192874 0.64099997 -0.07417652 6.7305374e-39 256 306
-0.070694394 0.63999999 -0.07406079 6.4539547e-39 257 306
-0.069572262 0.63999999 -0.07406079 6.3675296e-39 258 306
-0.068236224 0.63800001 -0.07382936 7.1972903e-39 259 306
-0.067117594 0.63800001 -0.07382936 7.4738814e-39 260 306
-0.065998971 0.63800001 -0.07382936 7.7504669e-39 261 306
-0.064778656 0.63700002 -0.073713638 8.0274083e-39 262 306
-0.063661784 0.63700002 -0.073713638 8.3958307e-39 263 306
-0.062544905 0.63700002 -0.073713638 8.7635244e-39 264 306
-0.061428033 0.63700002 -0.073713638 8.9479157e-39 265 306
-0.060311161 0.63700002 -0.073713638 9.5907684e-39 266 306
-0.059194289 0.63700002 -0.073713638 9.7751582e-39 267 306
-0.058077414 0.63700002 -0.073713638 9.9591837e-39 268 306
-0.056960538 0.63700002 -0.073713638 1.023541e-38 269 306
-0.055843666 0.63700002 -0.073713638 1.0694218e-38 270 306
-0.054640878 0.63599998 -0.073597915 1.0786415e-38 271 306
-0.053525757 0.63599998 -0.073597915 1.0970443e-38 272 306
-0.052410636 0.63599998 -0.073597915 1.124667e-38 273 306
-0.051214863 0.63499999 -0.073482201 1.1246673e-38 274 306
-0.050101496 0.63499999 -0.073482201 1.1246673e-38 275 306
-0.04898813 0.63499999 -0.073482201 1.133815e-38 276 306
-0.047874767 0.63499999 -0.073482201 1.1522181e-38 277 306
-0.046761397 0.63499999 -0.073482201 1.1522181e-38 278 306
-0.045648031 0.63499999 -0.073482201 1.133815e-38 279 306
-0.044464532 0.634 -0.073366478 1.1521465e-38 280 306
-0.043352917 0.634 -0.073366478 1.1429269e-38 281 306
-0.042241305 0.634 -0.073366478 1.1429266e-38 282 306
-0.041129693 0.634 -0.073366478 1.1429266e-38 283 306
-0.040081199 0.63499999 -0.073482201 1.1338506e-38 284 306
-0.038967833 0.63499999 -0.073482201 1.1153756e-38 285 306
-0.037854467 0.63499999 -0.073482201 1.1337071e-38 286 306
-0.0367411 0.63499999 -0.073482201 1.1337071e-38 287 306
-0.03562773 0.63499999 -0.073482201 1.1337074e-38 288 306
-0.034514364 0.63499999 -0.073482201 1.1337074e-38 289 306
-0.033453599 0.63599998 -0.073597915 1.1153403e-38 290 306
-0.032338478 0.63599998 -0.073597915 1.1245957e-38 291 306
-0.031223357 0.63599998 -0.073597915 1.1153403e-38 292 306
-0.030108238 0.63599998 -0.073597915 1.1153403e-38 293 306
-0.028993119 0.63599998 -0.073597915 1.1152686e-38 294 306
-0.027877998 0.63599998 -0.073597915 1.1152686e-38 295 306
-0.026762879 0.63599998 -0.073597915 1.1060854e-38 296 306
-0.025688088 0.63700002 -0.073713638 1.1060854e-38 297 306
-0.024571214 0.63700002 -0.073713638 1.1060854e-38 298 306
-0.02345434 0.63700002 -0.073713638 1.1060854e-38 299 306
-0.022337466 0.63700002 -0.073713638 1.106121e-38 300 306
-0.021220595 0.63700002 -0.073713638 1.0969013e-38 301 306
-0.020103721 0.63700002 -0.073713638 1.0876814e-38 302 306
-0.019016653 0.63800001 -0.07382936 1.0692783e-38 303 306
-0.017898027 0.63800001 -0.07382936 1.0600234e-38 304 306
-0.016831998 0.63999999 -0.07406079 1.0415843e-38 305 306
-0.015709866 0.63999999 -0.07406079 1.059736e-38 306 306
-0.014587732 0.63999999 -0.07406079 1.0412969e-38 307 306
-0.013465599 0.63999999 -0.07406079 1.0595916e-38 308 306
-0.012343466 0.63999999 -0.07406079 1.0595916e-38 309 306
-0.011221332 0.63999999 -0.07406079 1.0414041e-38 310 306
-0.0100992 0.63999999 -0.07406079 1.0506237e-38 311 306
-0.0089770658 0.63999999 -0.07406079 1.0139622e-38 312 306
-0.0078549329 0.63999999 -0.07406079 1.0232178e-38 313 306
-0.0067433193 0.64099997 -0.07417652 9.9566768e-39 314 306
-0.0056194332 0.64099997 -0.07417652 9.7722841e-39 315 306
-0.074292243 0.64200002 -0.075417876 1.9262383e-38 254 307
-0.073052622 0.64099997 -0.075300403 1.6035536e-38 255 307
-0.07192874 0.64099997 -0.075300403 1.1152339e-38 256 307
-0.070804857 0.64099997 -0.075300403 7.8329375e-39 257 307
-0.069680966 0.64099997 -0.075300403 6.0891295e-39 258 307
-0.068450131 0.63999999 -0.07518293 7.195477e-39 259 307
-0.067117594 0.63800001 -0.07494799 6.4622434e-39 260 307
-0.065998971 0.63800001 -0.07494799 6.6469934e-39 261 307
-0.064778656 0.63700002 -0.07483051 7.4753037e-39 262 307
