# .PCD v.7 - Point Cloud Data file format
FIELDS x y z rgb imX imY
SIZE 4 4 4 4 4 4
TYPE F F F F F F
COUNT 1 1 1 1 1 1
WIDTH 853
HEIGHT 1
VIEWPOINT 0 0 0 1 0 0 0
POINTS 853
DATA ascii
0.054433983 0.81699997 0.045839142 1.7052114e-38 358 208
0.055866458 0.81699997 0.045839142 1.6959559e-38 359 208
0.057298932 0.81699997 0.045839142 1.7143578e-38 360 208
0.058731399 0.81699997 0.045839142 1.686735e-38 361 208
0.060163878 0.81699997 0.045839142 1.6958464e-38 362 208
0.061596353 0.81699997 0.045839142 1.6866268e-38 363 208
0.063183114 0.81900001 0.045951359 1.6681511e-38 364 208
0.064619094 0.81900001 0.045951359 1.6404924e-38 365 208
0.066055074 0.81900001 0.045951359 1.6403479e-38 366 208
0.067491055 0.81900001 0.045951359 1.6219087e-38 367 208
0.068927035 0.81900001 0.045951359 1.5391848e-38 368 208
0.070363015 0.81900001 0.045951359 1.5207457e-38 369 208
0.071799003 0.81900001 0.045951359 1.4839046e-38 370 208
0.073234983 0.81900001 0.045951359 1.45621e-38 371 208
0.074488603 0.81699997 0.045839142 1.281476e-38 372 208
0.075921081 0.81699997 0.045839142 1.4198053e-38 373 208
0.077353559 0.81699997 0.045839142 1.5858355e-38 374 208
0.078786023 0.81699997 0.045839142 1.659592e-38 375 208
-0.039907619 0.84299999 0.045819856 1.0967953e-38 293 209
-0.038429558 0.84299999 0.045819856 1.1059789e-38 294 209
-0.036776166 0.83899999 0.045602445 1.1336017e-38 295 209
-0.03530512 0.83899999 0.045602445 1.1335298e-38 296 209
-0.033753417 0.83700001 0.045493741 1.1335298e-38 297 209
-0.032285877 0.83700001 0.045493741 1.1426413e-38 298 209
-0.030891977 0.83899999 0.045602445 1.1150187e-38 299 209
-0.029280664 0.83499998 0.045385033 1.1240947e-38 300 209
-0.027816633 0.83499998 0.045385033 1.096472e-38 301 209
-0.026352599 0.83499998 0.045385033 1.096437e-38 302 209
-0.024888566 0.83499998 0.045385033 1.0872175e-38 303 209
-0.023424532 0.83499998 0.045385033 1.0596662e-38 304 209
-0.021960499 0.83499998 0.045385033 1.0596662e-38 305 209
-0.020496465 0.83499998 0.045385033 1.0504461e-38 306 209
-0.019032432 0.83499998 0.045385033 1.0504461e-38 307 209
-0.017610481 0.83700001 0.045493741 1.0872525e-38 308 209
-0.016142938 0.83700001 0.045493741 1.0872525e-38 309 209
-0.014675399 0.83700001 0.045493741 1.0965437e-38 310 209
-0.013207859 0.83700001 0.045493741 1.0873241e-38 311 209
-0.011712266 0.83499998 0.045385033 1.0691001e-38 312 209
-0.010223686 0.833 0.045276325 1.0691001e-38 313 209
-0.0087631596 0.833 0.045276325 1.0875039e-38 314 209
-0.007302633 0.833 0.045276325 1.0875039e-38 315 209
-0.0058421064 0.833 0.045276325 1.1058357e-38 316 209
-0.0043815798 0.833 0.045276325 1.1150552e-38 317 209
-0.0029140399 0.83099997 0.045167617 1.1425341e-38 318 209
-0.0014570199 0.83099997 0.045167617 1.1425341e-38 319 209
0 0.83099997 0.045167617 1.151789e-38 320 209
0.0014570199 0.83099997 0.045167617 1.151789e-38 321 209
0.0029070266 0.829 0.04505891 1.1243451e-38 322 209
0.0043605398 0.829 0.04505891 1.1335648e-38 323 209
0.0058140531 0.829 0.04505891 1.1427844e-38 324 209
0.0072500333 0.82700002 0.044950206 1.1427844e-38 325 209
0.0087000392 0.82700002 0.044950206 1.1427847e-38 326 209
0.010150046 0.82700002 0.044950206 1.1427847e-38 327 209
0.011600053 0.82700002 0.044950206 1.1611162e-38 328 209
0.01305006 0.82700002 0.044950206 1.1703358e-38 329 209
0.014500067 0.82700002 0.044950206 1.1979221e-38 330 209
0.015950073 0.82700002 0.044950206 1.1979221e-38 331 209
0.017400078 0.82700002 0.044950206 1.1795906e-38 332 209
0.018850086 0.82700002 0.044950206 1.216433e-38 333 209
0.020251 0.82499999 0.044841498 1.2349077e-38 334 209
0.021697499 0.82499999 0.044841498 1.2441273e-38 335 209
0.023087893 0.82300001 0.044732794 1.2809332e-38 336 209
0.024530886 0.82300001 0.044732794 1.2993725e-38 337 209
0.025973879 0.82300001 0.044732794 1.3362859e-38 338 209
0.027350245 0.82099998 0.044624086 1.3455055e-38 339 209
0.028789733 0.82099998 0.044624086 1.3641238e-38 340 209
0.030229218 0.82099998 0.044624086 1.4010381e-38 341 209
0.031668708 0.82099998 0.044624086 1.4195138e-38 342 209
0.03310819 0.82099998 0.044624086 1.4563921e-38 343 209
0.034547675 0.82099998 0.044624086 1.4840157e-38 344 209
0.035987165 0.82099998 0.044624086 1.4932353e-38 345 209
0.037335481 0.81900001 0.044515379 1.5391529e-38 346 209
0.038771462 0.81900001 0.044515379 1.5391529e-38 347 209
0.040207438 0.81900001 0.044515379 1.5575556e-38 348 209
0.041643418 0.81900001 0.044515379 1.5759587e-38 349 209
0.043079399 0.81900001 0.044515379 1.5761022e-38 350 209
0.044406671 0.81699997 0.044406671 1.6037249e-38 351 209
0.045839142 0.81699997 0.044406671 1.6038332e-38 352 209
0.047271617 0.81699997 0.044406671 1.6130527e-38 353 209
0.048704091 0.81699997 0.044406671 1.6498237e-38 354 209
0.050136562 0.81699997 0.044406671 1.6682268e-38 355 209
0.051569037 0.81699997 0.044406671 1.6774465e-38 356 209
0.053001508 0.81699997 0.044406671 1.6958856e-38 357 209
0.054433983 0.81699997 0.044406671 1.723507e-38 358 209
0.055729698 0.815 0.044297963 1.7142874e-38 359 209
0.057158664 0.815 0.044297963 1.7235057e-38 360 209
0.058587633 0.815 0.044297963 1.7142862e-38 361 209
0.060016599 0.815 0.044297963 1.7143212e-38 362 209
0.061596353 0.81699997 0.044406671 1.6958819e-38 363 209
0.06302882 0.81699997 0.044406671 1.7049568e-38 364 209
0.064619094 0.81900001 0.044515379 1.6680785e-38 365 209
0.066055074 0.81900001 0.044515379 1.6771536e-38 366 209
0.067491055 0.81900001 0.044515379 1.6587145e-38 367 209
0.068927035 0.81900001 0.044515379 1.6127239e-38 368 209
0.070363015 0.81900001 0.044515379 1.5943207e-38 369 209
0.071799003 0.81900001 0.044515379 1.5391473e-38 370 209
0.073056139 0.81699997 0.044406671 1.502269e-38 371 209
0.074488603 0.81699997 0.044406671 1.3916383e-38 372 209
0.075921081 0.81699997 0.044406671 1.4100775e-38 373 209
0.077353559 0.81699997 0.044406671 1.3646708e-38 374 209
0.078593165 0.815 0.044297963 1.5490619e-38 375 209
0.080022126 0.815 0.044297963 1.7237689e-38 376 209
-0.036951501 0.84299999 0.044341795 9.6779599e-39 295 210
-0.035389278 0.84100002 0.0442366 1.0411915e-38 296 210
-0.033914726 0.84100002 0.0442366 1.0504111e-38 297 210
-0.032440174 0.84100002 0.0442366 1.0504464e-38 298 210
-0.030965621 0.84100002 0.0442366 1.0412268e-38 299 210
-0.029561199 0.84299999 0.044341795 1.0411547e-38 300 210
-0.02788326 0.83700001 0.0440262 1.0319351e-38 301 210
-0.026415719 0.83700001 0.0440262 1.0134255e-38 302 210
-0.02494818 0.83700001 0.0440262 1.0041701e-38 303 210
-0.023480639 0.83700001 0.0440262 9.582177e-39 304 210
-0.0220131 0.83700001 0.0440262 9.582177e-39 305 210
-0.020545561 0.83700001 0.0440262 9.3073824e-39 306 210
-0.01907802 0.83700001 0.0440262 9.3999367e-39 307 210
-0.017610481 0.83700001 0.0440262 1.0411196e-38 308 210
-0.016181514 0.83899999 0.044131398 1.0687423e-38 309 210
-0.014710465 0.83899999 0.044131398 1.059701e-38 310 210
-0.013207859 0.83700001 0.0440262 1.0504814e-38 311 210
-0.011712266 0.83499998 0.043920998 1.0321868e-38 312 210
-0.010248233 0.83499998 0.043920998 1.0321868e-38 313 210
-0.0087841991 0.83499998 0.043920998 1.0231118e-38 314 210
-0.0073201661 0.83499998 0.043920998 1.0323314e-38 315 210
-0.0058561331 0.83499998 0.043920998 1.0506985e-38 316 210
-0.0043815798 0.833 0.043815799 1.0599181e-38 317 210
-0.0029210532 0.833 0.043815799 1.1057282e-38 318 210
-0.0014605266 0.833 0.043815799 1.1149477e-38 319 210
0 0.833 0.043815799 1.1150905e-38 320 210
0.0014605266 0.833 0.043815799 1.1243101e-38 321 210
0.0029140399 0.83099997 0.043710597 1.1243451e-38 322 210
0.0043710601 0.83099997 0.043710597 1.1335648e-38 323 210
0.0058140531 0.829 0.043605398 1.1152333e-38 324 210
0.0072675664 0.829 0.043605398 1.1152333e-38 325 210
0.0087210797 0.829 0.043605398 1.1519317e-38 326 210
0.010174593 0.829 0.043605398 1.1519317e-38 327 210
0.011628106 0.829 0.043605398 1.1611156e-38 328 210
0.01305006 0.82700002 0.0435002 1.1611156e-38 329 210
0.014500067 0.82700002 0.0435002 1.1887023e-38 330 210
0.015950073 0.82700002 0.0435002 1.1887023e-38 331 210
0.017400078 0.82700002 0.0435002 1.2071414e-38 332 210
0.018850086 0.82700002 0.0435002 1.216361e-38 333 210
0.020251 0.82499999 0.043394998 1.2163613e-38 334 210
0.021697499 0.82499999 0.043394998 1.2348005e-38 335 210
0.023143999 0.82499999 0.043394998 1.253132e-38 336 210
0.024530886 0.82300001 0.043289799 1.2715712e-38 337 210
0.025973879 0.82300001 0.043289799 1.2808629e-38 338 210
0.027416872 0.82300001 0.043289799 1.2716433e-38 339 210
0.028789733 0.82099998 0.043184597 1.2627832e-38 340 210
0.030229218 0.82099998 0.043184597 1.2904417e-38 341 210
0.031668708 0.82099998 0.043184597 1.3181359e-38 342 210
0.03310819 0.82099998 0.043184597 1.3642337e-38 343 210
0.034547675 0.82099998 0.043184597 1.4194785e-38 344 210
0.035987165 0.82099998 0.043184597 1.4563567e-38 345 210
0.037335481 0.81900001 0.043079399 1.474759e-38 346 210
0.038771462 0.81900001 0.043079399 1.4839786e-38 347 210
0.040207438 0.81900001 0.043079399 1.5299315e-38 348 210
0.041643418 0.81900001 0.043079399 1.5391511e-38 349 210
0.043079399 0.81900001 0.043079399 1.5484429e-38 350 210
0.044406671 0.81699997 0.042974196 1.5668821e-38 351 210
0.045839142 0.81699997 0.042974196 1.5761741e-38 352 210
0.047271617 0.81699997 0.042974196 1.5853936e-38 353 210
0.048704091 0.81699997 0.042974196 1.6221647e-38 354 210
0.050136562 0.81699997 0.042974196 1.6406038e-38 355 210
0.051442798 0.815 0.042869002 1.6497881e-38 356 210
0.052871767 0.815 0.042869002 1.6774467e-38 357 210
0.054300729 0.815 0.042869002 1.6867016e-38 358 210
0.055729698 0.815 0.042869002 1.6867016e-38 359 210
0.057158664 0.815 0.042869002 1.7142877e-38 360 210
0.058587633 0.815 0.042869002 1.7142877e-38 361 210
0.060016599 0.815 0.042869002 1.7143228e-38 362 210
0.06144556 0.815 0.042869002 1.6959196e-38 363 210
0.062874533 0.815 0.042869002 1.7233606e-38 364 210
0.064461298 0.81699997 0.042974196 1.6865183e-38 365 210
0.065893769 0.81699997 0.042974196 1.6589664e-38 366 210
0.06732624 0.81699997 0.042974196 1.6405274e-38 367 210
0.068758719 0.81699997 0.042974196 1.6496378e-38 368 210
0.07019119 0.81699997 0.042974196 1.6219431e-38 369 210
0.071623661 0.81699997 0.042974196 1.557657e-38 370 210
0.073056139 0.81699997 0.042974196 1.5299623e-38 371 210
0.074488603 0.81699997 0.042974196 1.5022693e-38 372 210
0.075921081 0.81699997 0.042974196 1.4838302e-38 373 210
0.077353559 0.81699997 0.042974196 1.263035e-38 374 210
0.078593165 0.815 0.042869002 1.3828893e-38 375 210
0.080022126 0.815 0.042869002 1.5029307e-38 376 210
0.081451096 0.815 0.042869002 1.6504796e-38 377 210
-0.0221183 0.84100002 0.042762045 8.2889341e-39 305 211
-0.020643746 0.84100002 0.042762045 7.3698448e-39 306 211
-0.019169193 0.84100002 0.042762045 7.3698448e-39 307 211
-0.017694639 0.84100002 0.042762045 7.4638285e-39 308 211
-0.016220087 0.84100002 0.042762045 8.0166435e-39 309 211
-0.014710465 0.83899999 0.042660352 8.2028271e-39 310 211
-0.013207859 0.83700001 0.042558659 8.5719683e-39 311 211
-0.011712266 0.83499998 0.042456966 9.2162587e-39 312 211
-0.010248233 0.83499998 0.042456966 9.40065e-39 313 211
-0.0087841991 0.83499998 0.042456966 9.8612624e-39 314 211
-0.0073201661 0.83499998 0.042456966 1.0045654e-38 315 211
-0.0058561331 0.83499998 0.042456966 1.0596662e-38 316 211
-0.0043920996 0.83499998 0.042456966 1.0780695e-38 317 211
-0.0029210532 0.833 0.042355273 1.1240228e-38 318 211
-0.0014605266 0.833 0.042355273 1.1332424e-38 319 211
0 0.833 0.042355273 1.1333496e-38 320 211
0.0014640333 0.83499998 0.042456966 1.1333496e-38 321 211
0.0029210532 0.833 0.042355273 1.1151256e-38 322 211
0.0043710601 0.83099997 0.042253576 1.1243451e-38 323 211
0.0058280798 0.83099997 0.042253576 1.1243804e-38 324 211
0.0072675664 0.829 0.042151887 1.1243804e-38 325 211
0.0087210797 0.829 0.042151887 1.1336002e-38 326 211
0.010174593 0.829 0.042151887 1.1336002e-38 327 211
0.011628106 0.829 0.042151887 1.1611512e-38 328 211
0.01305006 0.82700002 0.04205019 1.1611512e-38 329 211
0.014500067 0.82700002 0.04205019 1.1702989e-38 330 211
0.015950073 0.82700002 0.04205019 1.188702e-38 331 211
0.017400078 0.82700002 0.04205019 1.1795903e-38 332 211
0.018850086 0.82700002 0.04205019 1.1888099e-38 333 211
0.020251 0.82499999 0.041948497 1.1888105e-38 334 211
0.021697499 0.82499999 0.041948497 1.19803e-38 335 211
0.023143999 0.82499999 0.041948497 1.2163257e-38 336 211
0.024590498 0.82499999 0.041948497 1.2348008e-38 337 211
0.026036998 0.82499999 0.041948497 1.2532036e-38 338 211
0.027416872 0.82300001 0.041846808 1.2532036e-38 339 211
0.028789733 0.82099998 0.041745111 1.2625667e-38 340 211
0.030229218 0.82099998 0.041745111 1.2809699e-38 341 211
0.031668708 0.82099998 0.041745111 1.2994447e-38 342 211
0.03310819 0.82099998 0.041745111 1.3086642e-38 343 211
0.034547675 0.82099998 0.041745111 1.3273182e-38 344 211
0.035987165 0.82099998 0.041745111 1.3549769e-38 345 211
0.037335481 0.81900001 0.041643418 1.3643039e-38 346 211
0.038771462 0.81900001 0.041643418 1.3919627e-38 347 211
0.040207438 0.81900001 0.041643418 1.4379882e-38 348 211
0.041643418 0.81900001 0.041643418 1.4656111e-38 349 211
0.042974196 0.81699997 0.041541722 1.5390795e-38 350 211
0.044406671 0.81699997 0.041541722 1.5667021e-38 351 211
0.045839142 0.81699997 0.041541722 1.585177e-38 352 211
0.047271617 0.81699997 0.041541722 1.5943966e-38 353 211
0.048704091 0.81699997 0.041541722 1.6220195e-38 354 211
0.050136562 0.81699997 0.041541722 1.6312391e-38 355 211
0.051442798 0.815 0.041440032 1.6496789e-38 356 211
0.052871767 0.815 0.041440032 1.668118e-38 357 211
0.054300729 0.815 0.041440032 1.6957407e-38 358 211
0.055729698 0.815 0.041440032 1.7049963e-38 359 211
0.057158664 0.815 0.041440032 1.6958846e-38 360 211
0.058443859 0.81300002 0.041338343 1.7142877e-38 361 211
0.059869319 0.81300002 0.041338343 1.7142874e-38 362 211
0.061294779 0.81300002 0.041338343 1.7142874e-38 363 211
0.062720239 0.81300002 0.041338343 1.7050665e-38 364 211
0.064303495 0.815 0.041440032 1.695811e-38 365 211
0.065732464 0.815 0.041440032 1.6682587e-38 366 211
0.067161433 0.815 0.041440032 1.6590392e-38 367 211
0.068758719 0.81699997 0.041541722 1.640563e-38 368 211
0.07019119 0.81699997 0.041541722 1.6313435e-38 369 211
0.071623661 0.81699997 0.041541722 1.6128316e-38 370 211
0.073056139 0.81699997 0.041541722 1.5851728e-38 371 211
0.074488603 0.81699997 0.041541722 1.5301075e-38 372 211
0.075921081 0.81699997 0.041541722 1.4840097e-38 373 211
0.077353559 0.81699997 0.041541722 1.4468833e-38 374 211
0.078593165 0.815 0.041440032 1.4100409e-38 375 211
0.080022126 0.815 0.041440032 1.309389e-38 376 211
0.081451096 0.815 0.041440032 1.4845605e-38 377 211
0.082880065 0.815 0.041440032 1.668452e-38 378 211
-0.01327098 0.84100002 0.041287493 7.097246e-39 311 212
-0.011740319 0.83700001 0.041091122 7.5582242e-39 312 212
-0.01027278 0.83700001 0.041091122 7.8348111e-39 313 212
-0.0088052405 0.83700001 0.041091122 8.2035768e-39 314 212
-0.0073201661 0.83499998 0.040992931 8.5720005e-39 315 212
-0.0058561331 0.83499998 0.040992931 9.3084544e-39 316 212
-0.0043920996 0.83499998 0.040992931 9.5854014e-39 317 212
-0.0029280665 0.83499998 0.040992931 1.0320067e-38 318 212
-0.0014640333 0.83499998 0.040992931 1.0504817e-38 319 212
0 0.83499998 0.040992931 9.8630575e-39 320 212
0.0014675399 0.83700001 0.041091122 1.004709e-38 321 212
0.0029280665 0.83499998 0.040992931 1.0230415e-38 322 212
0.0043815798 0.833 0.040894743 1.032261e-38 323 212
0.0058280798 0.83099997 0.040796559 1.0691376e-38 324 212
0.0072675664 0.829 0.040698372 1.0875407e-38 325 212
0.0087210797 0.829 0.040698372 1.0876111e-38 326 212
0.010174593 0.829 0.040698372 1.1060503e-38 327 212
0.011628106 0.829 0.040698372 1.1060859e-38 328 212
0.01305006 0.82700002 0.040600184 1.1153055e-38 329 212
0.014500067 0.82700002 0.040600184 1.152004e-38 330 212
0.015950073 0.82700002 0.040600184 1.152004e-38 331 212
0.017400078 0.82700002 0.040600184 1.1520761e-38 332 212
0.018850086 0.82700002 0.040600184 1.1520761e-38 333 212
0.020300092 0.82700002 0.040600184 1.1796272e-38 334 212
0.0217501 0.82700002 0.040600184 1.1888468e-38 335 212
0.023143999 0.82499999 0.040502001 1.1888468e-38 336 212
0.024590498 0.82499999 0.040502001 1.1980665e-38 337 212
0.026036998 0.82499999 0.040502001 1.2163977e-38 338 212
0.027483499 0.82499999 0.040502001 1.2163977e-38 339 212
0.028859867 0.82300001 0.040403813 1.2256175e-38 340 212
0.03030286 0.82300001 0.040403813 1.2348371e-38 341 212
0.031745855 0.82300001 0.040403813 1.2441641e-38 342 212
0.03310819 0.82099998 0.040305622 1.2441641e-38 343 212
0.034547675 0.82099998 0.040305622 1.2720008e-38 344 212
0.035987165 0.82099998 0.040305622 1.2812204e-38 345 212
0.037335481 0.81900001 0.040207438 1.2995869e-38 346 212
0.038771462 0.81900001 0.040207438 1.3457207e-38 347 212
0.040207438 0.81900001 0.040207438 1.3551215e-38 348 212
0.041643418 0.81900001 0.040207438 1.3919996e-38 349 212
0.042974196 0.81699997 0.040109251 1.4930908e-38 350 212
0.044406671 0.81699997 0.040109251 1.5115299e-38 351 212
0.045839142 0.81699997 0.040109251 1.5025255e-38 352 212
0.047271617 0.81699997 0.040109251 1.5209287e-38 353 212
0.048704091 0.81699997 0.040109251 1.5392962e-38 354 212
0.050013833 0.815 0.040011063 1.5669189e-38 355 212
0.051442798 0.815 0.040011063 1.5853583e-38 356 212
0.052871767 0.815 0.040011063 1.6037976e-38 357 212
0.054300729 0.815 0.040011063 1.6313489e-38 358 212
0.055592939 0.81300002 0.039912879 1.6497881e-38 359 212
0.057018399 0.81300002 0.039912879 1.6774467e-38 360 212
0.058443859 0.81300002 0.039912879 1.6866663e-38 361 212
0.059869319 0.81300002 0.039912879 1.6775897e-38 362 212
0.061294779 0.81300002 0.039912879 1.6959928e-38 363 212
0.062720239 0.81300002 0.039912879 1.6960268e-38 364 212
0.064145707 0.81300002 0.039912879 1.6867714e-38 365 212
0.065571159 0.81300002 0.039912879 1.7050644e-38 366 212
0.066996619 0.81300002 0.039912879 1.6958448e-38 367 212
0.068590395 0.815 0.040011063 1.7049185e-38 368 212
0.070019364 0.815 0.040011063 1.6864435e-38 369 212
0.071448334 0.815 0.040011063 1.6771886e-38 370 212
0.072877295 0.815 0.040011063 1.6587495e-38 371 212
0.074306265 0.815 0.040011063 1.5944274e-38 372 212
0.075735234 0.815 0.040011063 1.5483654e-38 373 212
0.077164195 0.815 0.040011063 1.5482575e-38 374 212
0.078400299 0.81300002 0.039912879 1.4929402e-38 375 212
0.079825759 0.81300002 0.039912879 1.2814006e-38 376 212
0.081251219 0.81300002 0.039912879 1.3735602e-38 377 212
0.082676686 0.81300002 0.039912879 1.4566884e-38 378 212
-0.010297326 0.83899999 0.039718259 7.8286804e-39 313 213
-0.00882628 0.83899999 0.039718259 7.919797e-39 314 213
-0.0073376996 0.83700001 0.039623581 8.1963853e-39 315 213
-0.0058701597 0.83700001 0.039623581 7.1883332e-39 316 213
-0.00441314 0.83899999 0.039718259 7.2805302e-39 317 213
-0.0029350799 0.83700001 0.039623581 8.0177183e-39 318 213
-0.0014675399 0.83700001 0.039623581 8.5708921e-39 319 213
0 0.83899999 0.039718259 9.0300738e-39 320 213
0.0014710466 0.83899999 0.039718259 9.0300738e-39 321 213
0.0029420932 0.83899999 0.039718259 9.5825273e-39 322 213
0.0044026203 0.83700001 0.039623581 1.0043505e-38 323 213
0.0058421064 0.833 0.039434217 1.0686704e-38 324 213
0.0072850995 0.83099997 0.039339535 1.1055487e-38 325 213
0.0087210797 0.829 0.039244857 1.1150187e-38 326 213
0.010174593 0.829 0.039244857 1.1150187e-38 327 213
0.011628106 0.829 0.039244857 1.1243098e-38 328 213
0.01305006 0.82700002 0.039150178 1.1243098e-38 329 213
0.014500067 0.82700002 0.039150178 1.1335295e-38 330 213
0.015950073 0.82700002 0.039150178 1.1427491e-38 331 213
0.017400078 0.82700002 0.039150178 1.170372e-38 332 213
0.018850086 0.82700002 0.039150178 1.170372e-38 333 213
0.020300092 0.82700002 0.039150178 1.1795553e-38 334 213
0.0217501 0.82700002 0.039150178 1.1979944e-38 335 213
0.023200106 0.82700002 0.039150178 1.1705153e-38 336 213
0.024650112 0.82700002 0.039150178 1.1612957e-38 337 213
0.02610012 0.82700002 0.039150178 1.1980298e-38 338 213
0.027550125 0.82700002 0.039150178 1.1980298e-38 339 213
0.028929999 0.82499999 0.039055496 1.1980298e-38 340 213
0.030376498 0.82499999 0.039055496 1.216433e-38 341 213
0.031745855 0.82300001 0.038960818 1.2256163e-38 342 213
0.03310819 0.82099998 0.03886614 1.253239e-38 343 213
0.034547675 0.82099998 0.03886614 1.2624938e-38 344 213
0.035987165 0.82099998 0.03886614 1.2717134e-38 345 213
0.037426651 0.82099998 0.03886614 1.2991926e-38 346 213
0.038771462 0.81900001 0.038771462 1.3452904e-38 347 213
0.040207438 0.81900001 0.038771462 1.235304e-38 348 213
0.041643418 0.81900001 0.038771462 1.3090964e-38 349 213
0.043079399 0.81900001 0.038771462 1.43781e-38 350 213
0.044406671 0.81699997 0.03867678 1.4655047e-38 351 213
0.045839142 0.81699997 0.03867678 1.5207122e-38 352 213
0.047155898 0.815 0.038582098 1.5207122e-38 353 213
0.048584864 0.815 0.038582098 1.5484059e-38 354 213
0.050013833 0.815 0.038582098 1.5576256e-38 355 213
0.051442798 0.815 0.038582098 1.5852492e-38 356 213
0.052871767 0.815 0.038582098 1.6036883e-38 357 213
0.054167479 0.81300002 0.038487419 1.6404591e-38 358 213
0.055592939 0.81300002 0.038487419 1.6681536e-38 359 213
0.057018399 0.81300002 0.038487419 1.6681536e-38 360 213
0.058443859 0.81300002 0.038487419 1.704996e-38 361 213
0.059869319 0.81300002 0.038487419 1.6958846e-38 362 213
0.061294779 0.81300002 0.038487419 1.7142877e-38 363 213
0.062720239 0.81300002 0.038487419 1.7051761e-38 364 213
0.064145707 0.81300002 0.038487419 1.7051761e-38 365 213
0.065571159 0.81300002 0.038487419 1.7235426e-38 366 213
0.066996619 0.81300002 0.038487419 1.714323e-38 367 213
0.068422079 0.81300002 0.038487419 1.7050662e-38 368 213
0.069847539 0.81300002 0.038487419 1.6866271e-38 369 213
0.071272999 0.81300002 0.038487419 1.7048849e-38 370 213
0.072698459 0.81300002 0.038487419 1.6771902e-38 371 213
0.074123919 0.81300002 0.038487419 1.5946091e-38 372 213
0.075549379 0.81300002 0.038487419 1.5485113e-38 373 213
0.076974839 0.81300002 0.038487419 1.5300725e-38 374 213
0.078400299 0.81300002 0.038487419 1.4931942e-38 375 213
0.079825759 0.81300002 0.038487419 1.4929093e-38 376 213
0.081251219 0.81300002 0.038487419 1.4283724e-38 377 213
0.082676686 0.81300002 0.038487419 1.2632186e-38 378 213
0.083895244 0.81099999 0.038392738 1.3922925e-38 379 213
0.085317194 0.81099999 0.038392738 1.447868e-38 380 213
0.0087421201 0.83099997 0.037882518 9.676518e-39 326 214
0.010174593 0.829 0.037791345 9.9531049e-39 327 214
0.011628106 0.829 0.037791345 1.0138216e-38 328 214
0.01305006 0.82700002 0.037700173 1.0230771e-38 329 214
0.014500067 0.82700002 0.037700173 1.0691026e-38 330 214
0.015950073 0.82700002 0.037700173 1.105945e-38 331 214
0.017400078 0.82700002 0.037700173 1.1519339e-38 332 214
0.018850086 0.82700002 0.037700173 1.170337e-38 333 214
0.020300092 0.82700002 0.037700173 1.1795919e-38 334 214
0.0217501 0.82700002 0.037700173 1.1795919e-38 335 214
0.023200106 0.82700002 0.037700173 1.1888468e-38 336 214
0.024650112 0.82700002 0.037700173 1.1888468e-38 337 214
0.02610012 0.82700002 0.037700173 1.1888821e-38 338 214
0.027550125 0.82700002 0.037700173 1.1888821e-38 339 214
0.029000133 0.82700002 0.037700173 1.1888824e-38 340 214
0.030376498 0.82499999 0.037608996 1.1888824e-38 341 214
0.031745855 0.82300001 0.037517827 1.1981021e-38 342 214
0.033188846 0.82300001 0.037517827 1.2073216e-38 343 214
0.034547675 0.82099998 0.037426651 1.1981384e-38 344 214
0.035987165 0.82099998 0.037426651 1.2166134e-38 345 214
0.037426651 0.82099998 0.037426651 1.234874e-38 346 214
0.03886614 0.82099998 0.037426651 1.2440935e-38 347 214
0.040207438 0.81900001 0.037335481 1.2442369e-38 348 214
0.041643418 0.81900001 0.037335481 1.2718954e-38 349 214
0.043079399 0.81900001 0.037335481 1.3181359e-38 350 214
0.044406671 0.81699997 0.037244301 1.3734533e-38 351 214
0.045839142 0.81699997 0.037244301 1.4378453e-38 352 214
0.047155898 0.815 0.037153132 1.4747596e-38 353 214
0.048584864 0.815 0.037153132 1.4933059e-38 354 214
0.050013833 0.815 0.037153132 1.5025255e-38 355 214
0.051442798 0.815 0.037153132 1.5300414e-38 356 214
0.052871767 0.815 0.037153132 1.5668836e-38 357 214
0.054167479 0.81300002 0.03706196 1.5760681e-38 358 214
0.055592939 0.81300002 0.03706196 1.6037628e-38 359 214
0.057018399 0.81300002 0.03706196 1.6129824e-38 360 214
0.058443859 0.81300002 0.03706196 1.6406051e-38 361 214
0.059869319 0.81300002 0.03706196 1.6774112e-38 362 214
0.061294779 0.81300002 0.03706196 1.6866307e-38 363 214
0.062720239 0.81300002 0.03706196 1.6684064e-38 364 214
0.064145707 0.81300002 0.03706196 1.6776618e-38 365 214
0.065571159 0.81300002 0.03706196 1.6959913e-38 366 214
0.066996619 0.81300002 0.03706196 1.7052108e-38 367 214
0.068422079 0.81300002 0.03706196 1.7419076e-38 368 214
0.069847539 0.81300002 0.03706196 1.7234325e-38 369 214
0.071272999 0.81300002 0.03706196 1.7142114e-38 370 214
0.072698459 0.81300002 0.03706196 1.6773691e-38 371 214
0.074123919 0.81300002 0.03706196 1.6771886e-38 372 214
0.075549379 0.81300002 0.03706196 1.6311267e-38 373 214
0.076974839 0.81300002 0.03706196 1.5851725e-38 374 214
0.078400299 0.81300002 0.03706196 1.5483303e-38 375 214
0.079825759 0.81300002 0.03706196 1.5114891e-38 376 214
0.081251219 0.81300002 0.03706196 1.474575e-38 377 214
0.082676686 0.81300002 0.03706196 1.3272829e-38 378 214
0.083895244 0.81099999 0.036970787 1.3549415e-38 379 214
0.085317194 0.81099999 0.036970787 1.3188269e-38 380 214
0.010174593 0.829 0.036337834 8.1088616e-39 327 215
0.011628106 0.829 0.036337834 8.479072e-39 328 215
0.013018499 0.82499999 0.036162499 9.1244414e-39 329 215
0.014465 0.82499999 0.036162499 1.0594877e-38 330 215
0.015911499 0.82499999 0.036162499 1.1056215e-38 331 215
0.017400078 0.82700002 0.036250167 1.1425341e-38 332 215
0.018850086 0.82700002 0.036250167 1.1702288e-38 333 215
0.020300092 0.82700002 0.036250167 1.1335661e-38 334 215
0.0217501 0.82700002 0.036250167 1.1520411e-38 335 215
0.023200106 0.82700002 0.036250167 1.1978865e-38 336 215
0.024650112 0.82700002 0.036250167 1.1978865e-38 337 215
0.02610012 0.82700002 0.036250167 1.1796625e-38 338 215
0.027550125 0.82700002 0.036250167 1.1888821e-38 339 215
0.029000133 0.82700002 0.036250167 1.1888821e-38 340 215
0.030376498 0.82499999 0.036162499 1.1796625e-38 341 215
0.031822998 0.82499999 0.036162499 1.1888099e-38 342 215
0.033188846 0.82300001 0.036074832 1.2164686e-38 343 215
0.034631841 0.82300001 0.036074832 1.2073213e-38 344 215
0.035987165 0.82099998 0.035987165 1.2073213e-38 345 215
0.037426651 0.82099998 0.035987165 1.2348005e-38 346 215
0.03886614 0.82099998 0.035987165 1.2532036e-38 347 215
0.040207438 0.81900001 0.035899501 1.2624591e-38 348 215
0.041643418 0.81900001 0.035899501 1.2808982e-38 349 215
0.043079399 0.81900001 0.035899501 1.2260844e-38 350 215
0.044515379 0.81900001 0.035899501 1.2721823e-38 351 215
0.045839142 0.81699997 0.03581183 1.3550134e-38 352 215
0.047271617 0.81699997 0.03581183 1.4287701e-38 353 215
0.048704091 0.81699997 0.03581183 1.4839057e-38 354 215
0.050013833 0.815 0.035724167 1.5023807e-38 355 215
0.051442798 0.815 0.035724167 1.5391511e-38 356 215
0.052871767 0.815 0.035724167 1.5576262e-38 357 215
0.054167479 0.81300002 0.0356365 1.5851785e-38 358 215
0.055592939 0.81300002 0.0356365 1.6036177e-38 359 215
0.057018399 0.81300002 0.0356365 1.6220578e-38 360 215
0.058443859 0.81300002 0.0356365 1.6312773e-38 361 215
0.059869319 0.81300002 0.0356365 1.6497881e-38 362 215
0.061294779 0.81300002 0.0356365 1.668227e-38 363 215
0.062720239 0.81300002 0.0356365 1.6683701e-38 364 215
0.064145707 0.81300002 0.0356365 1.6959928e-38 365 215
0.065409854 0.81099999 0.035548832 1.7143953e-38 366 215
0.066831805 0.81099999 0.035548832 1.7143953e-38 367 215
0.068253763 0.81099999 0.035548832 1.7235776e-38 368 215
0.069675706 0.81099999 0.035548832 1.7143581e-38 369 215
0.071097665 0.81099999 0.035548832 1.7051363e-38 370 215
0.072519615 0.81099999 0.035548832 1.668294e-38 371 215
0.073941574 0.81099999 0.035548832 1.6681844e-38 372 215
0.075363517 0.81099999 0.035548832 1.6220868e-38 373 215
0.076785475 0.81099999 0.035548832 1.5761697e-38 374 215
0.078400299 0.81300002 0.0356365 1.5485469e-38 375 215
0.079825759 0.81300002 0.0356365 1.5207454e-38 376 215
0.081251219 0.81300002 0.0356365 1.4930866e-38 377 215
0.082676686 0.81300002 0.0356365 1.4653583e-38 378 215
0.083895244 0.81099999 0.035548832 1.4376636e-38 379 215
0.085106798 0.80900002 0.035461165 1.2724381e-38 380 215
0.086311333 0.80699998 0.035373498 1.4107316e-38 381 215
0.08772628 0.80699998 0.035373498 1.4847462e-38 382 215
0.013018499 0.82499999 0.034715999 8.1077896e-39 329 216
0.014465 0.82499999 0.034715999 7.9248193e-39 330 216
0.015911499 0.82499999 0.034715999 8.1092119e-39 331 216
0.017400078 0.82700002 0.034800157 8.8481993e-39 332 216
0.018850086 0.82700002 0.034800157 9.5857643e-39 333 216
0.020349186 0.829 0.034884319 9.6790347e-39 334 216
0.021802699 0.829 0.034884319 9.955623e-39 335 216
0.023256212 0.829 0.034884319 1.1150199e-38 336 216
0.024709726 0.829 0.034884319 1.1242396e-38 337 216
0.026163239 0.829 0.034884319 1.1519689e-38 338 216
0.027550125 0.82700002 0.034800157 1.170372e-38 339 216
0.029000133 0.82700002 0.034800157 1.1796269e-38 340 216
0.030450139 0.82700002 0.034800157 1.1704074e-38 341 216
0.031900145 0.82700002 0.034800157 1.2071414e-38 342 216
0.033269498 0.82499999 0.034715999 1.216361e-38 343 216
0.034715999 0.82499999 0.034715999 1.1979944e-38 344 216
0.036074832 0.82300001 0.034631841 1.2163977e-38 345 216
0.037517827 0.82300001 0.034631841 1.2163977e-38 346 216
0.038960818 0.82300001 0.034631841 1.2163977e-38 347 216
0.040305622 0.82099998 0.034547675 1.2072863e-38 348 216
0.041643418 0.81900001 0.034463517 1.234909e-38 349 216
0.043079399 0.81900001 0.034463517 1.2442725e-38 350 216
0.044515379 0.81900001 0.034463517 1.2718951e-38 351 216
0.045951359 0.81900001 0.034463517 1.2996245e-38 352 216
0.047271617 0.81699997 0.034379359 1.3365027e-38 353 216
0.048704091 0.81699997 0.034379359 1.3551921e-38 354 216
0.050136562 0.81699997 0.034379359 1.4012898e-38 355 216
0.051442798 0.815 0.034295198 1.4748309e-38 356 216
0.052871767 0.815 0.034295198 1.5025255e-38 357 216
0.054167479 0.81300002 0.03421104 1.5483726e-38 358 216
0.055592939 0.81300002 0.03421104 1.5668117e-38 359 216
0.057018399 0.81300002 0.03421104 1.5852514e-38 360 216
0.058443859 0.81300002 0.03421104 1.6036547e-38 361 216
0.059869319 0.81300002 0.03421104 1.6129821e-38 362 216
0.061294779 0.81300002 0.03421104 1.6314211e-38 363 216
0.062565938 0.81099999 0.034126882 1.6315638e-38 364 216
0.063987896 0.81099999 0.034126882 1.6592224e-38 365 216
0.065409854 0.81099999 0.034126882 1.6960278e-38 366 216
0.066831805 0.81099999 0.034126882 1.6960278e-38 367 216
0.068253763 0.81099999 0.034126882 1.7052464e-38 368 216
0.069675706 0.81099999 0.034126882 1.6960268e-38 369 216
0.071097665 0.81099999 0.034126882 1.7143562e-38 370 216
0.072519615 0.81099999 0.034126882 1.695917e-38 371 216
0.073941574 0.81099999 0.034126882 1.6591092e-38 372 216
0.075363517 0.81099999 0.034126882 1.6222308e-38 373 216
0.076785475 0.81099999 0.034126882 1.6037924e-38 374 216
0.078207433 0.81099999 0.034126882 1.5853174e-38 375 216
0.079629384 0.81099999 0.034126882 1.5575514e-38 376 216
0.081051342 0.81099999 0.034126882 1.5298925e-38 377 216
0.082473285 0.81099999 0.034126882 1.5204598e-38 378 216
0.083688356 0.80900002 0.03404272 1.4836176e-38 379 216
0.085106798 0.80900002 0.03404272 1.3548362e-38 380 216
0.086311333 0.80699998 0.033958558 1.3732754e-38 381 216
0.08772628 0.80699998 0.033958558 1.3557411e-38 382 216
0.088920295 0.80500001 0.0338744 1.5216573e-38 383 216
0.018941259 0.83099997 0.033511456 7.6479017e-39 333 217
0.02039828 0.83099997 0.033511456 8.568416e-39 334 217
0.021855298 0.83099997 0.033511456 9.2137854e-39 335 217
0.023312319 0.83099997 0.033511456 9.4925023e-39 336 217
0.02476934 0.83099997 0.033511456 9.9531203e-39 337 217
0.026226358 0.83099997 0.033511456 1.0690294e-38 338 217
0.027616752 0.829 0.033430804 1.096724e-38 339 217
0.029070266 0.829 0.033430804 1.1520045e-38 340 217
0.030450139 0.82700002 0.033350151 1.1427491e-38 341 217
0.031900145 0.82700002 0.033350151 1.188667e-38 342 217
0.033269498 0.82499999 0.033269498 1.1978865e-38 343 217
0.034715999 0.82499999 0.033269498 1.1887752e-38 344 217
0.036074832 0.82300001 0.033188846 1.1979947e-38 345 217
0.037517827 0.82300001 0.033188846 1.1980667e-38 346 217
0.038960818 0.82300001 0.033188846 1.1980667e-38 347 217
0.040305622 0.82099998 0.03310819 1.207286e-38 348 217
0.041745111 0.82099998 0.03310819 1.2165415e-38 349 217
0.043079399 0.81900001 0.033027537 1.2349446e-38 350 217
0.044515379 0.81900001 0.033027537 1.2626034e-38 351 217
0.045951359 0.81900001 0.033027537 1.2719304e-38 352 217
0.047271617 0.81699997 0.032946885 1.28115e-38 353 217
0.048704091 0.81699997 0.032946885 1.253814e-38 354 217
0.050136562 0.81699997 0.032946885 1.318351e-38 355 217
0.051442798 0.815 0.032866232 1.3920349e-38 356 217
0.052871767 0.815 0.032866232 1.4473164e-38 357 217
0.054167479 0.81300002 0.03278558 1.5023467e-38 358 217
0.055592939 0.81300002 0.03278558 1.5300414e-38 359 217
0.057018399 0.81300002 0.03278558 1.5575927e-38 360 217
0.058443859 0.81300002 0.03278558 1.5760318e-38 361 217
0.05972204 0.81099999 0.032704927 1.6036547e-38 362 217
0.061143994 0.81099999 0.032704927 1.6220938e-38 363 217
0.062565938 0.81099999 0.032704927 1.6223445e-38 364 217
0.063987896 0.81099999 0.032704927 1.631564e-38 365 217
0.065248549 0.80900002 0.032624274 1.6592224e-38 366 217
0.066666998 0.80900002 0.032624274 1.6776616e-38 367 217
0.06808544 0.80900002 0.032624274 1.6776613e-38 368 217
0.069503881 0.80900002 0.032624274 1.6776613e-38 369 217
0.07092233 0.80900002 0.032624274 1.6959194e-38 370 217
0.072340779 0.80900002 0.032624274 1.6866998e-38 371 217
0.073759228 0.80900002 0.032624274 1.6683309e-38 372 217
0.07517767 0.80900002 0.032624274 1.6222331e-38 373 217
0.076596119 0.80900002 0.032624274 1.603829e-38 374 217
0.078014567 0.80900002 0.032624274 1.5761344e-38 375 217
0.079433009 0.80900002 0.032624274 1.5759905e-38 376 217
0.080851458 0.80900002 0.032624274 1.5483318e-38 377 217
0.082269907 0.80900002 0.032624274 1.5572998e-38 378 217
0.083688356 0.80900002 0.032624274 1.5296053e-38 379 217
0.085106798 0.80900002 0.032624274 1.4837248e-38 380 217
0.086311333 0.80699998 0.032543618 1.3823096e-38 381 217
0.08772628 0.80699998 0.032543618 1.2816927e-38 382 217
0.088920295 0.80500001 0.032462966 1.4568644e-38 383 217
0.090107299 0.80299997 0.032382313 1.5307361e-38 384 217
0.024828954 0.833 0.032131586 7.0972278e-39 337 218
0.02628948 0.833 0.032131586 7.5596255e-39 338 218
0.027683379 0.83099997 0.032054439 8.3897449e-39 339 218
0.029070266 0.829 0.031977292 9.3102536e-39 340 218
0.030523779 0.829 0.031977292 9.6790347e-39 341 218
0.031900145 0.82700002 0.031900145 1.0506632e-38 342 218
0.033269498 0.82499999 0.031822998 1.0967251e-38 343 218
0.034715999 0.82499999 0.031822998 1.1885601e-38 344 218
0.036162499 0.82499999 0.031822998 1.2069992e-38 345 218
0.037517827 0.82300001 0.031745855 1.2071061e-38 346 218
0.038960818 0.82300001 0.031745855 1.2255812e-38 347 218
0.040305622 0.82099998 0.031668708 1.1981021e-38 348 218
0.041745111 0.82099998 0.031668708 1.2073216e-38 349 218
0.043184597 0.82099998 0.031668708 1.2165412e-38 350 218
0.044515379 0.81900001 0.031591557 1.2441639e-38 351 218
0.045951359 0.81900001 0.031591557 1.253419e-38 352 218
0.047387339 0.81900001 0.031591557 1.2718583e-38 353 218
0.048704091 0.81699997 0.03151441 1.2535989e-38 354 218
0.050136562 0.81699997 0.03151441 1.2996968e-38 355 218
0.051442798 0.815 0.031437267 1.3000565e-38 356 218
0.052871767 0.815 0.031437267 1.3461541e-38 357 218
0.054167479 0.81300002 0.03136012 1.4472095e-38 358 218
0.055592939 0.81300002 0.03136012 1.4840876e-38 359 218
0.057018399 0.81300002 0.03136012 1.5483362e-38 360 218
0.058300085 0.81099999 0.031282969 1.575959e-38 361 218
0.05972204 0.81099999 0.031282969 1.5944334e-38 362 218
0.061143994 0.81099999 0.031282969 1.603653e-38 363 218
0.062565938 0.81099999 0.031282969 1.622235e-38 364 218
0.063987896 0.81099999 0.031282969 1.6406742e-38 365 218
0.065248549 0.80900002 0.031205826 1.6499656e-38 366 218
0.066666998 0.80900002 0.031205826 1.6591853e-38 367 218
0.06808544 0.80900002 0.031205826 1.6867367e-38 368 218
0.069332056 0.80699998 0.031128678 1.6959562e-38 369 218
0.070746996 0.80699998 0.031128678 1.6959559e-38 370 218
0.072161935 0.80699998 0.031128678 1.6775168e-38 371 218
0.073576882 0.80699998 0.031128678 1.6683321e-38 372 218
0.074991815 0.80699998 0.031128678 1.6222345e-38 373 218
0.076406755 0.80699998 0.031128678 1.6129782e-38 374 218
0.078014567 0.80900002 0.031205826 1.5945391e-38 375 218
0.079433009 0.80900002 0.031205826 1.6035786e-38 376 218
0.080851458 0.80900002 0.031205826 1.5667362e-38 377 218
0.082269907 0.80900002 0.031205826 1.5482249e-38 378 218
0.083688356 0.80900002 0.031205826 1.5297497e-38 379 218
0.085106798 0.80900002 0.031205826 1.4929078e-38 380 218
0.086311333 0.80699998 0.031128678 1.4559935e-38 381 218
0.08772628 0.80699998 0.031128678 1.3181009e-38 382 218
0.088920295 0.80500001 0.031051533 1.3826378e-38 383 218
0.090107299 0.80299997 0.030974386 1.4110598e-38 384 218
0.091515228 0.80299997 0.030974386 1.5401337e-38 385 218
0.030597419 0.83099997 0.030597419 8.5702153e-39 341 219
0.031977292 0.829 0.030523779 9.0318927e-39 342 219
0.033350151 0.82700002 0.030450139 9.5847077e-39 343 219
0.034800157 0.82700002 0.030450139 1.023149e-38 344 219
0.036162499 0.82499999 0.030376498 1.0692109e-38 345 219
0.037517827 0.82300001 0.03030286 1.1703723e-38 346 219
0.038960818 0.82300001 0.03030286 1.1888115e-38 347 219
0.040305622 0.82099998 0.030229218 1.1796272e-38 348 219
0.041745111 0.82099998 0.030229218 1.1980665e-38 349 219
0.043184597 0.82099998 0.030229218 1.1798074e-38 350 219
0.044515379 0.81900001 0.030155579 1.189027e-38 351 219
0.045951359 0.81900001 0.030155579 1.2258329e-38 352 219
0.047387339 0.81900001 0.030155579 1.2350525e-38 353 219
0.048823319 0.81900001 0.030155579 1.216758e-38 354 219
0.050136562 0.81699997 0.030081939 1.2443806e-38 355 219
0.051569037 0.81699997 0.030081939 1.2721472e-38 356 219
0.052871767 0.815 0.030008299 1.3090255e-38 357 219
0.054167479 0.81300002 0.02993466 1.3643779e-38 358 219
0.055592939 0.81300002 0.02993466 1.4196953e-38 359 219
0.057018399 0.81300002 0.02993466 1.4839435e-38 360 219
0.058300085 0.81099999 0.02986102 1.5208217e-38 361 219
0.05972204 0.81099999 0.02986102 1.5392606e-38 362 219
0.061143994 0.81099999 0.02986102 1.5669192e-38 363 219
0.062411651 0.80900002 0.02978738 1.5670271e-38 364 219
0.063830093 0.80900002 0.02978738 1.5946499e-38 365 219
0.065087236 0.80699998 0.029713741 1.5855385e-38 366 219
0.066502176 0.80699998 0.029713741 1.6131612e-38 367 219
0.067917116 0.80699998 0.029713741 1.631564e-38 368 219
0.06916023 0.80500001 0.029640101 1.6499673e-38 369 219
0.070571661 0.80500001 0.029640101 1.6591856e-38 370 219
0.071983099 0.80500001 0.029640101 1.6591856e-38 371 219
0.07339453 0.80500001 0.029640101 1.6866268e-38 372 219
0.074805968 0.80500001 0.029640101 1.6590041e-38 373 219
0.076406755 0.80699998 0.029713741 1.6313447e-38 374 219
0.077821694 0.80699998 0.029713741 1.6037221e-38 375 219
0.079236634 0.80699998 0.029713741 1.6220164e-38 376 219
0.080651581 0.80699998 0.029713741 1.6035772e-38 377 219
0.082066514 0.80699998 0.029713741 1.6034324e-38 378 219
0.083481453 0.80699998 0.029713741 1.5849574e-38 379 219
0.084896393 0.80699998 0.029713741 1.5388602e-38 380 219
0.086311333 0.80699998 0.029713741 1.520421e-38 381 219
0.08772628 0.80699998 0.029713741 1.382311e-38 382 219
0.088920295 0.80500001 0.029640101 1.3638717e-38 383 219
0.090107299 0.80299997 0.029566457 1.3003142e-38 384 219
0.091515228 0.80299997 0.029566457 1.4662304e-38 385 219
0.092923149 0.80299997 0.029566457 1.5583602e-38 386 219
0.032131586 0.833 0.029210532 7.6468044e-39 342 220
0.033511456 0.83099997 0.029140398 7.6468044e-39 343 220
0.034800157 0.82700002 0.029000133 7.7458202e-39 344 220
0.036250167 0.82700002 0.029000133 8.7599721e-39 345 220
0.037608996 0.82499999 0.028929999 1.0506632e-38 346 220
0.03886614 0.82099998 0.028789733 1.0967251e-38 347 220
0.040305622 0.82099998 0.028789733 1.216074e-38 348 220
0.041745111 0.82099998 0.028789733 1.2621717e-38 349 220
0.043184597 0.82099998 0.028789733 1.2256526e-38 350 220
0.044515379 0.81900001 0.0287196 1.234908e-38 351 220
0.045951359 0.81900001 0.0287196 1.2441639e-38 352 220
0.047387339 0.81900001 0.0287196 1.2441639e-38 353 220
0.048823319 0.81900001 0.0287196 1.262639e-38 354 220
0.050136562 0.81699997 0.028649466 1.2718586e-38 355 220
0.051569037 0.81699997 0.028649466 1.2810778e-38 356 220
0.052871767 0.815 0.028579332 1.3087364e-38 357 220
0.054167479 0.81300002 0.0285092 1.2998765e-38 358 220
0.055592939 0.81300002 0.0285092 1.3551939e-38 359 220
0.057018399 0.81300002 0.0285092 1.4196584e-38 360 220
0.058300085 0.81099999 0.028439065 1.447317e-38 361 220
0.05972204 0.81099999 0.028439065 1.5574828e-38 362 220
0.061143994 0.81099999 0.028439065 1.5759221e-38 363 220
0.062411651 0.80900002 0.028368933 1.5852489e-38 364 220
0.063830093 0.80900002 0.028368933 1.5944684e-38 365 220
0.065087236 0.80699998 0.028298797 1.6221631e-38 366 220
0.066502176 0.80699998 0.028298797 1.6221631e-38 367 220
0.067917116 0.80699998 0.028298797 1.6590054e-38 368 220
0.06916023 0.80500001 0.028228667 1.6774445e-38 369 220
0.070571661 0.80500001 0.028228667 1.6867001e-38 370 220
0.071983099 0.80500001 0.028228667 1.6774445e-38 371 220
0.07339453 0.80500001 0.028228667 1.6774448e-38 372 220
0.074805968 0.80500001 0.028228667 1.6590057e-38 373 220
0.076217398 0.80500001 0.028228667 1.6039398e-38 374 220
0.077821694 0.80699998 0.028298797 1.5855007e-38 375 220
0.079236634 0.80699998 0.028298797 1.5762441e-38 376 220
0.080651581 0.80699998 0.028298797 1.5670246e-38 377 220
0.082066514 0.80699998 0.028298797 1.5577328e-38 378 220
0.083481453 0.80699998 0.028298797 1.5392936e-38 379 220
0.084896393 0.80699998 0.028298797 1.5298572e-38 380 220
0.086311333 0.80699998 0.028298797 1.4929791e-38 381 220
0.08772628 0.80699998 0.028298797 1.4469183e-38 382 220
0.088920295 0.80500001 0.028228667 1.428479e-38 383 220
0.090107299 0.80299997 0.028158531 1.2721851e-38 384 220
0.091515228 0.80299997 0.028158531 1.3827839e-38 385 220
0.092923149 0.80299997 0.028158531 1.4846738e-38 386 220
0.036425497 0.83099997 0.027683379 8.0177576e-39 345 221
0.037700173 0.82700002 0.027550125 8.4794364e-39 346 221
0.03886614 0.82099998 0.027350245 9.3095558e-39 347 221
0.040305622 0.82099998 0.027350245 1.032261e-38 348 221
0.041745111 0.82099998 0.027350245 1.115237e-38 349 221
0.043184597 0.82099998 0.027350245 1.1704453e-38 350 221
0.044515379 0.81900001 0.027283618 1.198068e-38 351 221
0.045951359 0.81900001 0.027283618 1.1982465e-38 352 221
0.047387339 0.81900001 0.027283618 1.2166496e-38 353 221
0.048823319 0.81900001 0.027283618 1.253384e-38 354 221
0.050136562 0.81699997 0.027216991 1.2718233e-38 355 221
0.051569037 0.81699997 0.027216991 1.2719304e-38 356 221
0.052871767 0.815 0.027150365 1.2719304e-38 357 221
0.054167479 0.81300002 0.02708374 1.3087738e-38 358 221
0.055592939 0.81300002 0.02708374 1.3548715e-38 359 221
0.057018399 0.81300002 0.02708374 1.3459035e-38 360 221
0.058300085 0.81099999 0.027017111 1.4104404e-38 361 221
0.05972204 0.81099999 0.027017111 1.4932706e-38 362 221
0.061143994 0.81099999 0.027017111 1.5024902e-38 363 221
0.062411651 0.80900002 0.026950486 1.5300767e-38 364 221
0.063830093 0.80900002 0.026950486 1.5485158e-38 365 221
0.065087236 0.80699998 0.026883857 1.5761741e-38 366 221
0.066502176 0.80699998 0.026883857 1.5946133e-38 367 221
0.067917116 0.80699998 0.026883857 1.6039404e-38 368 221
0.06916023 0.80500001 0.026817232 1.6131599e-38 369 221
0.070571661 0.80500001 0.026817232 1.6407107e-38 370 221
0.071983099 0.80500001 0.026817232 1.6499303e-38 371 221
0.07339453 0.80500001 0.026817232 1.6774448e-38 372 221
0.074805968 0.80500001 0.026817232 1.6682252e-38 373 221
0.076217398 0.80500001 0.026817232 1.6407448e-38 374 221
0.077628836 0.80500001 0.026817232 1.6314893e-38 375 221
0.079040267 0.80500001 0.026817232 1.6314884e-38 376 221
0.080451705 0.80500001 0.026817232 1.6130132e-38 377 221
0.081863128 0.80500001 0.026817232 1.6128687e-38 378 221
0.083274566 0.80500001 0.026817232 1.5944295e-38 379 221
0.084896393 0.80699998 0.026883857 1.5942128e-38 380 221
0.086097427 0.80500001 0.026817232 1.5573346e-38 381 221
0.087508865 0.80500001 0.026817232 1.5113091e-38 382 221
0.088920295 0.80500001 0.026817232 1.4652113e-38 383 221
0.090331733 0.80500001 0.026817232 1.3179188e-38 384 221
0.091743164 0.80500001 0.026817232 1.3640166e-38 385 221
0.093154602 0.80500001 0.026817232 1.3647805e-38 386 221
0.094213605 0.80199999 0.026717292 1.5307326e-38 387 221
0.095619783 0.80199999 0.026717292 1.5859469e-38 388 221
0.037882518 0.83099997 0.026226358 7.1876312e-39 346 222
0.039150178 0.82700002 0.02610012 7.8330006e-39 347 222
0.040403813 0.82300001 0.025973879 8.6645521e-39 348 222
0.041745111 0.82099998 0.025910759 9.5865098e-39 349 222
0.043184597 0.82099998 0.025910759 1.0967983e-38 350 222
0.044624086 0.82099998 0.025910759 1.1428961e-38 351 222
0.045951359 0.81900001 0.02584764 1.2441291e-38 352 222
0.047387339 0.81900001 0.02584764 1.2441291e-38 353 222
0.048823319 0.81900001 0.02584764 1.2350522e-38 354 222
0.0502593 0.81900001 0.02584764 1.2442719e-38 355 222
0.051569037 0.81699997 0.025784519 1.2718583e-38 356 222
0.052871767 0.815 0.025721399 1.2810778e-38 357 222
0.054167479 0.81300002 0.02565828 1.3178841e-38 358 222
0.055592939 0.81300002 0.02565828 1.3271036e-38 359 222
0.057018399 0.81300002 0.02565828 1.2904768e-38 360 222
0.058300085 0.81099999 0.025595158 1.3642334e-38 361 222
0.05972204 0.81099999 0.025595158 1.4472448e-38 362 222
0.061143994 0.81099999 0.025595158 1.4656839e-38 363 222
0.062411651 0.80900002 0.025532039 1.5208564e-38 364 222
0.063830093 0.80900002 0.025532039 1.5300761e-38 365 222
0.065087236 0.80699998 0.025468919 1.5761375e-38 366 222
0.066502176 0.80699998 0.025468919 1.6037602e-38 367 222
0.0677488 0.80500001 0.025405798 1.6038682e-38 368 222
0.06916023 0.80500001 0.025405798 1.6130878e-38 369 222
0.070571661 0.80500001 0.025405798 1.6406388e-38 370 222
0.071983099 0.80500001 0.025405798 1.6682615e-38 371 222
0.07339453 0.80500001 0.025405798 1.6774818e-38 372 222
0.074805968 0.80500001 0.025405798 1.6774818e-38 373 222
0.076217398 0.80500001 0.025405798 1.6499306e-38 374 222
0.077435955 0.80299997 0.025342679 1.6499306e-38 375 222
0.078843892 0.80299997 0.025342679 1.6315262e-38 376 222
0.08025182 0.80299997 0.025342679 1.6039035e-38 377 222
0.081659742 0.80299997 0.025342679 1.6129785e-38 378 222
0.083274566 0.80500001 0.025405798 1.5945035e-38 379 222
0.084685996 0.80500001 0.025405798 1.6126535e-38 380 222
0.086097427 0.80500001 0.025405798 1.5757754e-38 381 222
0.087508865 0.80500001 0.025405798 1.5297485e-38 382 222
0.088920295 0.80500001 0.025405798 1.5020898e-38 383 222
0.090331733 0.80500001 0.025405798 1.428444e-38 384 222
0.091743164 0.80500001 0.025405798 1.3915659e-38 385 222
0.093154602 0.80500001 0.025405798 1.2447804e-38 386 222
0.094213605 0.80199999 0.02531112 1.4199161e-38 387 222
0.095619783 0.80199999 0.02531112 1.5399564e-38 388 222
0.097025953 0.80199999 0.02531112 1.5491759e-38 389 222
0.040403813 0.82300001 0.024530886 8.659883e-39 348 223
0.041846808 0.82300001 0.024530886 8.9364699e-39 349 223
0.043184597 0.82099998 0.024471272 8.8510958e-39 350 223
0.044624086 0.82099998 0.024471272 1.0141835e-38 351 223
0.045951359 0.81900001 0.02441166 1.1797736e-38 352 223
0.047387339 0.81900001 0.02441166 1.1889932e-38 353 223
0.048823319 0.81900001 0.02441166 1.2350525e-38 354 223
0.0502593 0.81900001 0.02441166 1.2442722e-38 355 223
0.051569037 0.81699997 0.024352046 1.2718586e-38 356 223
0.052871767 0.815 0.024292432 1.2810781e-38 357 223
0.054167479 0.81300002 0.02423282 1.2994096e-38 358 223
0.055592939 0.81300002 0.02423282 1.3086292e-38 359 223
