# .PCD v.7 - Point Cloud Data file format
FIELDS x y z rgb imX imY
SIZE 4 4 4 4 4 4
TYPE F F F F F F
COUNT 1 1 1 1 1 1
WIDTH 838
HEIGHT 1
VIEWPOINT 0 0 0 1 0 0 0
POINTS 838
DATA ascii
-0.017186172 0.75400001 -0.014542146 1.44721e-38 307 251
-0.015885198 0.755 -0.014561433 1.4379902e-38 308 251
-0.014561433 0.755 -0.014561433 1.4287706e-38 309 251
-0.013272733 0.75700003 -0.014600007 1.4195153e-38 310 251
-0.01197702 0.759 -0.014638579 1.4011122e-38 311 251
-0.01064624 0.759 -0.014638579 1.3918927e-38 312 251
-0.00931546 0.759 -0.014638579 1.3826731e-38 313 251
-0.0079846792 0.759 -0.014638579 1.3735249e-38 314 251
-0.0066714329 0.76099998 -0.014677152 1.3735249e-38 315 251
-0.0053371461 0.76099998 -0.014677152 1.3735605e-38 316 251
-0.0040081199 0.76200002 -0.01469644 1.3735605e-38 317 251
-0.0026790933 0.764 -0.014735013 1.373453e-38 318 251
-0.0013395466 0.764 -0.014735013 1.373453e-38 319 251
0 0.764 -0.014735013 1.3642337e-38 320 251
0.0013430532 0.76599997 -0.014773586 1.3642337e-38 321 251
0.0026861064 0.76599997 -0.014773586 1.3641981e-38 322 251
0.0040291594 0.76599997 -0.014773586 1.3549784e-38 323 251
0.0053722127 0.76599997 -0.014773586 1.327391e-38 324 251
0.0067152665 0.76599997 -0.014773586 1.3181356e-38 325 251
0.0080583189 0.76599997 -0.014773586 1.3272829e-38 326 251
0.0094136465 0.76700002 -0.014792874 1.3088797e-38 327 251
0.010758453 0.76700002 -0.014792874 1.2996962e-38 328 251
0.012134819 0.76899999 -0.014831445 1.2904765e-38 329 251
0.013483133 0.76899999 -0.014831445 1.2536706e-38 330 251
0.014831445 0.76899999 -0.014831445 1.244451e-38 331 251
0.016221842 0.77100003 -0.01487002 1.2261198e-38 332 251
0.01757366 0.77100003 -0.01487002 1.2353393e-38 333 251
0.018925481 0.77100003 -0.01487002 1.2261914e-38 334 251
0.020277301 0.77100003 -0.01487002 1.2261914e-38 335 251
0.021629119 0.77100003 -0.01487002 1.2353393e-38 336 251
0.023040552 0.773 -0.014908593 1.2445589e-38 337 251
0.024395877 0.773 -0.014908593 1.2353043e-38 338 251
0.025751207 0.773 -0.014908593 1.2445239e-38 339 251
0.027106533 0.773 -0.014908593 1.244416e-38 340 251
0.028498679 0.77399999 -0.014927879 1.244416e-38 341 251
0.029855758 0.77399999 -0.014927879 1.2260847e-38 342 251
0.031212838 0.77399999 -0.014927879 1.2260847e-38 343 251
0.032569919 0.77399999 -0.014927879 1.2260847e-38 344 251
0.033927001 0.77399999 -0.014927879 1.2260847e-38 345 251
-0.071479887 0.72799999 -0.01531712 1.7881146e-38 264 252
-0.070203468 0.72799999 -0.01531712 1.8157733e-38 265 252
-0.06883236 0.727 -0.015296079 1.8526147e-38 266 252
-0.067557678 0.727 -0.015296079 1.8618342e-38 267 252
-0.06628301 0.727 -0.015296079 1.907932e-38 268 252
-0.065008335 0.727 -0.015296079 1.9263712e-38 269 252
-0.063821331 0.72799999 -0.01531712 1.9263361e-38 270 252
-0.062544905 0.72799999 -0.01531712 1.9171166e-38 271 252
-0.061268479 0.72799999 -0.01531712 1.898642e-38 272 252
-0.059992049 0.72799999 -0.01531712 1.880167e-38 273 252
-0.058876935 0.73000002 -0.0153592 1.8617995e-38 274 252
-0.057597004 0.73000002 -0.0153592 1.852544e-38 275 252
-0.056317069 0.73000002 -0.0153592 1.8158456e-38 276 252
-0.055037133 0.73000002 -0.0153592 1.8066259e-38 277 252
-0.053830836 0.73100001 -0.01538024 1.7974063e-38 278 252
-0.052549154 0.73100001 -0.01538024 1.7974063e-38 279 252
-0.051407732 0.73299998 -0.015422319 1.7606004e-38 280 252
-0.050122537 0.73299998 -0.015422319 1.7329418e-38 281 252
-0.048903972 0.73400003 -0.01544336 1.6961713e-38 282 252
-0.047617026 0.73400003 -0.01544336 1.6592572e-38 283 252
-0.046456318 0.736 -0.015485439 1.6224867e-38 284 252
-0.045165867 0.736 -0.015485439 1.5856086e-38 285 252
-0.043994635 0.73799998 -0.015527519 1.5670991e-38 286 252
-0.042758539 0.73900002 -0.01554856 1.5578794e-38 287 252
-0.041575037 0.741 -0.01559064 1.5395129e-38 288 252
-0.04027582 0.741 -0.01559064 1.5302933e-38 289 252
-0.038976599 0.741 -0.01559064 1.502742e-38 290 252
-0.037728224 0.74199998 -0.015611678 1.502742e-38 291 252
-0.036427252 0.74199998 -0.015611678 1.4660435e-38 292 252
-0.035220962 0.74400002 -0.015653761 1.4660435e-38 293 252
-0.033916477 0.74400002 -0.015653761 1.4751561e-38 294 252
-0.032743499 0.74699998 -0.015716879 1.4751561e-38 295 252
-0.031517919 0.74900001 -0.01575896 1.4567177e-38 296 252
-0.030204674 0.74900001 -0.01575896 1.4474982e-38 297 252
-0.028929999 0.75 -0.01578 1.4474263e-38 298 252
-0.027688639 0.75199997 -0.015822079 1.4382066e-38 299 252
-0.02637013 0.75199997 -0.015822079 1.4382066e-38 300 252
-0.025051624 0.75199997 -0.015822079 1.428987e-38 301 252
-0.02379624 0.75400001 -0.01586416 1.4289517e-38 302 252
-0.022474226 0.75400001 -0.01586416 1.4105486e-38 303 252
-0.021152213 0.75400001 -0.01586416 1.4196237e-38 304 252
-0.0198565 0.755 -0.015885198 1.4011485e-38 305 252
-0.018508185 0.75400001 -0.01586416 1.4012192e-38 306 252
-0.017186172 0.75400001 -0.01586416 1.3919996e-38 307 252
-0.015885198 0.755 -0.015885198 1.3827079e-38 308 252
-0.014561433 0.755 -0.015885198 1.3642687e-38 309 252
-0.013237666 0.755 -0.015885198 1.3182078e-38 310 252
-0.01197702 0.759 -0.015969358 1.3274273e-38 311 252
-0.01064624 0.759 -0.015969358 1.3458672e-38 312 252
-0.00931546 0.759 -0.015969358 1.3366475e-38 313 252
-0.0080057196 0.76099998 -0.016011439 1.3458666e-38 314 252
-0.0066714329 0.76099998 -0.016011439 1.3458666e-38 315 252
-0.0053441599 0.76200002 -0.01603248 1.3459385e-38 316 252
-0.0040081199 0.76200002 -0.01603248 1.3367189e-38 317 252
-0.0026790933 0.764 -0.016074561 1.318316e-38 318 252
-0.0013395466 0.764 -0.016074561 1.318316e-38 319 252
0 0.764 -0.016074561 1.3090608e-38 320 252
0.0013430532 0.76599997 -0.016116638 1.3182804e-38 321 252
0.0026861064 0.76599997 -0.016116638 1.3090611e-38 322 252
0.00403442 0.76700002 -0.01613768 1.2998415e-38 323 252
0.0053792265 0.76700002 -0.01613768 1.3089529e-38 324 252
0.006724033 0.76700002 -0.01613768 1.2905498e-38 325 252
0.00806884 0.76700002 -0.01613768 1.2996968e-38 326 252
0.0094136465 0.76700002 -0.01613768 1.2904412e-38 327 252
0.010786506 0.76899999 -0.016179759 1.2721455e-38 328 252
0.012134819 0.76899999 -0.016179759 1.262926e-38 329 252
0.013518199 0.77100003 -0.016221842 1.2445589e-38 330 252
0.01487002 0.77100003 -0.016221842 1.2353393e-38 331 252
0.016263919 0.773 -0.016263919 1.2353393e-38 332 252
0.017619247 0.773 -0.016263919 1.2353393e-38 333 252
0.018974574 0.773 -0.016263919 1.2353393e-38 334 252
0.0203299 0.773 -0.016263919 1.2261198e-38 335 252
0.021685226 0.773 -0.016263919 1.2077529e-38 336 252
-0.072656378 0.727 -0.016570752 1.7788975e-38 263 253
-0.071185336 0.72500002 -0.016525166 1.8433964e-38 264 253
-0.069914162 0.72500002 -0.016525166 1.8433964e-38 265 253
-0.068643004 0.72500002 -0.016525166 1.898677e-38 266 253
-0.067371838 0.72500002 -0.016525166 1.898677e-38 267 253
-0.066100664 0.72500002 -0.016525166 1.9171163e-38 268 253
-0.064829499 0.72500002 -0.016525166 1.9263359e-38 269 253
-0.063558333 0.72500002 -0.016525166 1.9262282e-38 270 253
-0.062458992 0.727 -0.016570752 1.907825e-38 271 253
-0.061184317 0.727 -0.016570752 1.8802026e-38 272 253
-0.059992049 0.72799999 -0.016593546 1.8617995e-38 273 253
-0.058715623 0.72799999 -0.016593546 1.8433245e-38 274 253
-0.057439197 0.72799999 -0.016593546 1.8433245e-38 275 253
-0.056162767 0.72799999 -0.016593546 1.8157733e-38 276 253
-0.054886345 0.72799999 -0.016593546 1.8065537e-38 277 253
-0.053757198 0.73000002 -0.016639132 1.7973339e-38 278 253
-0.052477267 0.73000002 -0.016639132 1.7604916e-38 279 253
-0.051267464 0.73100001 -0.016661927 1.7512366e-38 280 253
-0.049985781 0.73100001 -0.016661927 1.7235779e-38 281 253
-0.048837345 0.73299998 -0.016707512 1.6224511e-38 282 253
-0.047617026 0.73400003 -0.016730307 1.5856089e-38 283 253
-0.046330083 0.73400003 -0.016730307 1.5947205e-38 284 253
-0.045165867 0.736 -0.016775893 1.5670977e-38 285 253
-0.043875411 0.736 -0.016775893 1.5578791e-38 286 253
-0.042700678 0.73799998 -0.016821479 1.5578791e-38 287 253
-0.041462827 0.73900002 -0.016844273 1.5119262e-38 288 253
-0.04027582 0.741 -0.016889861 1.5119262e-38 289 253
-0.038976599 0.741 -0.016889861 1.4752277e-38 290 253
-0.037728224 0.74199998 -0.016912652 1.4660082e-38 291 253
-0.036427252 0.74199998 -0.016912652 1.4751556e-38 292 253
-0.03512628 0.74199998 -0.016912652 1.465936e-38 293 253
-0.033916477 0.74400002 -0.016958239 1.4842678e-38 294 253
-0.032699663 0.74599999 -0.017003827 1.4750124e-38 295 253
-0.031433757 0.74699998 -0.017026618 1.484125e-38 296 253
-0.030204674 0.74900001 -0.017072206 1.4749054e-38 297 253
-0.028891427 0.74900001 -0.017072206 1.4381713e-38 298 253
-0.027615 0.75 -0.017095 1.4381713e-38 299 253
-0.02637013 0.75199997 -0.017140586 1.4472819e-38 300 253
-0.025051624 0.75199997 -0.017140586 1.4380265e-38 301 253
-0.02379624 0.75400001 -0.017186172 1.4287704e-38 302 253
-0.022474226 0.75400001 -0.017186172 1.4011475e-38 303 253
-0.021152213 0.75400001 -0.017186172 1.336573e-38 304 253
-0.0198565 0.755 -0.017208965 1.2627807e-38 305 253
-0.018508185 0.75400001 -0.017186172 1.2717121e-38 306 253
-0.017186172 0.75400001 -0.017186172 1.2624926e-38 307 253
-0.015885198 0.755 -0.017208965 1.2350146e-38 308 253
-0.014561433 0.755 -0.017208965 1.2442342e-38 309 253
-0.013237666 0.755 -0.017208965 1.3178838e-38 310 253
-0.01197702 0.759 -0.017300138 1.3455425e-38 311 253
-0.01064624 0.759 -0.017300138 1.3273908e-38 312 253
-0.0093400059 0.76099998 -0.017345725 1.3366103e-38 313 253
-0.0080057196 0.76099998 -0.017345725 1.3366456e-38 314 253
-0.0066714329 0.76099998 -0.017345725 1.3550487e-38 315 253
-0.0053441599 0.76200002 -0.01736852 1.33661e-38 316 253
-0.0040081199 0.76200002 -0.01736852 1.3273905e-38 317 253
-0.0026790933 0.764 -0.017414106 1.3457223e-38 318 253
-0.0013430532 0.76599997 -0.017459691 1.3365027e-38 319 253
0 0.76599997 -0.017459691 1.3364674e-38 320 253
0.0013430532 0.76599997 -0.017459691 1.3364674e-38 321 253
0.0026861064 0.76599997 -0.017459691 1.3272125e-38 322 253
0.00403442 0.76700002 -0.017482487 1.3088094e-38 323 253
0.0053932532 0.76899999 -0.017528072 1.2995541e-38 324 253
0.0067415666 0.76899999 -0.017528072 1.2903345e-38 325 253
0.0080898795 0.76899999 -0.017528072 1.2811147e-38 326 253
0.0094381925 0.76899999 -0.017528072 1.2811147e-38 327 253
0.01081456 0.77100003 -0.01757366 1.2628188e-38 328 253
0.01216638 0.77100003 -0.01757366 1.2535992e-38 329 253
-0.072456501 0.72500002 -0.017796334 1.8248855e-38 263 254
-0.071185336 0.72500002 -0.017796334 1.8709109e-38 264 254
-0.069721296 0.72299999 -0.017747238 1.88935e-38 265 254
-0.06845364 0.72299999 -0.017747238 1.8985698e-38 266 254
-0.067185976 0.72299999 -0.017747238 1.9262285e-38 267 254
-0.065918319 0.72299999 -0.017747238 1.9262285e-38 268 254
-0.064650662 0.72299999 -0.017747238 1.9262285e-38 269 254
-0.063382991 0.72299999 -0.017747238 1.8894224e-38 270 254
-0.062115334 0.72299999 -0.017747238 1.880167e-38 271 254
-0.060847677 0.72299999 -0.017747238 1.8617992e-38 272 254
-0.059580017 0.72299999 -0.017747238 1.8433601e-38 273 254
-0.058634974 0.727 -0.017845426 1.8250286e-38 274 254
-0.057360299 0.727 -0.017845426 1.8158089e-38 275 254
-0.056085624 0.727 -0.017845426 1.797406e-38 276 254
-0.054810952 0.727 -0.017845426 1.7790029e-38 277 254
-0.053609919 0.72799999 -0.017869972 1.742197e-38 278 254
-0.052333489 0.72799999 -0.017869972 1.7145023e-38 279 254
-0.051197331 0.73000002 -0.017919067 1.7052833e-38 280 254
-0.049985781 0.73100001 -0.017943613 1.6684051e-38 281 254
-0.048837345 0.73299998 -0.017992707 1.5856457e-38 282 254
-0.047617026 0.73400003 -0.018017253 1.5763903e-38 283 254
-0.046330083 0.73400003 -0.018017253 1.5487326e-38 284 254
-0.045043133 0.73400003 -0.018017253 1.5395129e-38 285 254
-0.043875411 0.736 -0.018066347 1.5119265e-38 286 254
-0.042700678 0.73799998 -0.018115439 1.5119265e-38 287 254
-0.041462827 0.73900002 -0.018139986 1.4844476e-38 288 254
-0.040167112 0.73900002 -0.018139986 1.4844476e-38 289 254
-0.0388714 0.73900002 -0.018139986 1.4935237e-38 290 254
-0.037677377 0.741 -0.018189078 1.4751205e-38 291 254
-0.036427252 0.74199998 -0.018213626 1.4842322e-38 292 254
-0.03512628 0.74199998 -0.018213626 1.4842322e-38 293 254
-0.033916477 0.74400002 -0.01826272 1.4566814e-38 294 254
-0.032699663 0.74599999 -0.018311813 1.4566814e-38 295 254
-0.031433757 0.74699998 -0.018336359 1.4474265e-38 296 254
-0.030204674 0.74900001 -0.018385453 1.4382068e-38 297 254
-0.028891427 0.74900001 -0.018385453 1.438135e-38 298 254
-0.027615 0.75 -0.018409999 1.4289154e-38 299 254
-0.02637013 0.75199997 -0.018459093 1.4196956e-38 300 254
-0.025051624 0.75199997 -0.018459093 1.4012206e-38 301 254
-0.02379624 0.75400001 -0.018508185 1.3919999e-38 302 254
-0.022474226 0.75400001 -0.018508185 1.3551218e-38 303 254
-0.021180267 0.755 -0.018532733 1.3456851e-38 304 254
-0.0198565 0.755 -0.018532733 1.2627091e-38 305 254
-0.018532733 0.755 -0.018532733 1.2811134e-38 306 254
-0.017208965 0.755 -0.018532733 1.2995166e-38 307 254
-0.015885198 0.755 -0.018532733 1.2810794e-38 308 254
-0.014600007 0.75700003 -0.018581826 1.2903348e-38 309 254
-0.0133078 0.759 -0.01863092 1.2721825e-38 310 254
-0.01197702 0.759 -0.01863092 1.2906217e-38 311 254
-0.010674292 0.76099998 -0.018680012 1.2906567e-38 312 254
-0.0093400059 0.76099998 -0.018680012 1.2906567e-38 313 254
-0.0080057196 0.76099998 -0.018680012 1.290657e-38 314 254
-0.0066801999 0.76200002 -0.01870456 1.290657e-38 315 254
-0.0053441599 0.76200002 -0.01870456 1.2906217e-38 316 254
-0.0040186401 0.764 -0.018753653 1.2814021e-38 317 254
-0.0026861064 0.76599997 -0.018802745 1.2812949e-38 318 254
-0.0013430532 0.76599997 -0.018802745 1.2812949e-38 319 254
0 0.76700002 -0.018827293 1.2720399e-38 320 254
0.0013448066 0.76700002 -0.018827293 1.2720399e-38 321 254
0.0026896133 0.76700002 -0.018827293 1.2353058e-38 322 254
-0.072156675 0.722 -0.0189886 1.8249229e-38 263 255
-0.070890769 0.722 -0.0189886 1.8617639e-38 264 255
-0.069624864 0.722 -0.0189886 1.898642e-38 265 255
-0.068358958 0.722 -0.0189886 1.8895305e-38 266 255
-0.067093052 0.722 -0.0189886 1.9079336e-38 267 255
-0.065827139 0.722 -0.0189886 1.9078614e-38 268 255
-0.064561233 0.722 -0.0189886 1.8986417e-38 269 255
-0.063295327 0.722 -0.0189886 1.8618711e-38 270 255
-0.062029421 0.722 -0.0189886 1.8526515e-38 271 255
-0.060763516 0.722 -0.0189886 1.8525793e-38 272 255
-0.059497613 0.722 -0.0189886 1.8433598e-38 273 255
-0.058231708 0.722 -0.0189886 1.8158089e-38 274 255
-0.057044696 0.72299999 -0.019014901 1.8065893e-38 275 255
-0.055777039 0.72299999 -0.019014901 1.7698552e-38 276 255
-0.054660168 0.72500002 -0.0190675 1.7421967e-38 277 255
-0.053388998 0.72500002 -0.0190675 1.7145023e-38 278 255
-0.052261602 0.727 -0.019120099 1.6960631e-38 279 255
-0.050986931 0.727 -0.019120099 1.6592572e-38 280 255
-0.0499174 0.73000002 -0.019199001 1.6131953e-38 281 255
-0.048704091 0.73100001 -0.019225299 1.5488029e-38 282 255
-0.04755215 0.73299998 -0.019277899 1.5488029e-38 283 255
-0.046330083 0.73400003 -0.019304199 1.5303649e-38 284 255
-0.045043133 0.73400003 -0.019304199 1.5119618e-38 285 255
-0.043875411 0.736 -0.019356798 1.484412e-38 286 255
-0.042700678 0.73799998 -0.019409399 1.484412e-38 287 255
-0.041406717 0.73799998 -0.019409399 1.5027435e-38 288 255
-0.040167112 0.73900002 -0.0194357 1.5027435e-38 289 255
-0.0388714 0.73900002 -0.0194357 1.4935242e-38 290 255
-0.037677377 0.741 -0.019488299 1.4750852e-38 291 255
-0.036427252 0.74199998 -0.0195146 1.4842325e-38 292 255
-0.03512628 0.74199998 -0.0195146 1.4750129e-38 293 255
-0.033916477 0.74400002 -0.019567199 1.4474619e-38 294 255
-0.032699663 0.74599999 -0.019619798 1.4474619e-38 295 255
-0.031433757 0.74699998 -0.019646099 1.4473545e-38 296 255
-0.030204674 0.74900001 -0.0196987 1.4289154e-38 297 255
-0.028891427 0.74900001 -0.0196987 1.4288798e-38 298 255
-0.027615 0.75 -0.019724999 1.4196602e-38 299 255
-0.02637013 0.75199997 -0.0197776 1.4012211e-38 300 255
-0.025051624 0.75199997 -0.0197776 1.3735624e-38 301 255
-0.02379624 0.75400001 -0.019830201 1.3734179e-38 302 255
-0.022474226 0.75400001 -0.019830201 1.3641984e-38 303 255
-0.021180267 0.755 -0.0198565 1.3366103e-38 304 255
-0.0198565 0.755 -0.0198565 1.3089516e-38 305 255
-0.018532733 0.755 -0.0198565 1.2907273e-38 306 255
-0.017208965 0.755 -0.0198565 1.2907273e-38 307 255
-0.015927281 0.75700003 -0.019909101 1.2907273e-38 308 255
-0.014600007 0.75700003 -0.019909101 1.2814719e-38 309 255
-0.0133078 0.759 -0.0199617 1.2814725e-38 310 255
-0.012008579 0.76099998 -0.020014299 1.272217e-38 311 255
-0.010674292 0.76099998 -0.020014299 1.2813297e-38 312 255
-0.0093400059 0.76099998 -0.020014299 1.2813297e-38 313 255
-0.0080162399 0.76200002 -0.0200406 1.2721105e-38 314 255
-0.0066801999 0.76200002 -0.0200406 1.2721105e-38 315 255
-0.0053441599 0.76200002 -0.0200406 1.2628907e-38 316 255
-0.0040186401 0.764 -0.020093199 1.2536711e-38 317 255
-0.0026861064 0.76599997 -0.020145798 1.2535989e-38 318 255
-0.07417126 0.71700001 -0.020114239 1.7790042e-38 261 256
-0.072914116 0.71700001 -0.020114239 1.8340696e-38 262 256
-0.071856856 0.71899998 -0.020170346 1.8617642e-38 263 256
-0.070596211 0.71899998 -0.020170346 1.8894221e-38 264 256
-0.069432005 0.72000003 -0.020198401 1.917081e-38 265 256
-0.068074919 0.71899998 -0.020170346 1.9171166e-38 266 256
-0.066814266 0.71899998 -0.020170346 1.9171166e-38 267 256
-0.065553628 0.71899998 -0.020170346 1.8710909e-38 268 256
-0.064292975 0.71899998 -0.020170346 1.8618714e-38 269 256
-0.06312 0.72000003 -0.020198401 1.8526159e-38 270 256
-0.061857603 0.72000003 -0.020198401 1.8433964e-38 271 256
-0.060595199 0.72000003 -0.020198401 1.8157735e-38 272 256
-0.059332799 0.72000003 -0.020198401 1.806554e-38 273 256
-0.058070403 0.72000003 -0.020198401 1.7973341e-38 274 256
-0.056965802 0.722 -0.020254506 1.7973341e-38 275 256
-0.055777039 0.72299999 -0.020282559 1.7606357e-38 276 256
-0.054509375 0.72299999 -0.020282559 1.7329771e-38 277 256
-0.053241719 0.72299999 -0.020282559 1.6776966e-38 278 256
-0.051974058 0.72299999 -0.020282559 1.668477e-38 279 256
-0.050846666 0.72500002 -0.020338668 1.5673142e-38 280 256
-0.049712259 0.727 -0.020394772 1.5488751e-38 281 256
-0.048504211 0.72799999 -0.020422826 1.5302928e-38 282 256
-0.047422405 0.73100001 -0.020506985 1.5302928e-38 283 256
-0.046266954 0.73299998 -0.020563092 1.5119265e-38 284 256
-0.045043133 0.73400003 -0.020591147 1.5027069e-38 285 256
-0.043756187 0.73400003 -0.020591147 1.4935239e-38 286 256
-0.042584959 0.736 -0.020647252 1.4935239e-38 287 256
-0.041406717 0.73799998 -0.020703359 1.4934886e-38 288 256
-0.040112756 0.73799998 -0.020703359 1.4934886e-38 289 256
-0.0388714 0.73900002 -0.020731414 1.4934167e-38 290 256
-0.037677377 0.741 -0.020787518 1.4841972e-38 291 256
-0.036427252 0.74199998 -0.020815572 1.4749773e-38 292 256
-0.03512628 0.74199998 -0.020815572 1.4657578e-38 293 256
-0.033916477 0.74400002 -0.02087168 1.4473542e-38 294 256
-0.032699663 0.74599999 -0.020927785 1.4381347e-38 295 256
-0.031433757 0.74699998 -0.020955838 1.4289154e-38 296 256
-0.030204674 0.74900001 -0.021011947 1.41966e-38 297 256
-0.028891427 0.74900001 -0.021011947 1.4104051e-38 298 256
-0.027688639 0.75199997 -0.021096105 1.4011855e-38 299 256
-0.02637013 0.75199997 -0.021096105 1.3919295e-38 300 256
-0.025051624 0.75199997 -0.021096105 1.3550514e-38 301 256
-0.02379624 0.75400001 -0.021152213 1.3366475e-38 302 256
-0.022504034 0.755 -0.021180267 1.327392e-38 303 256
-0.021180267 0.755 -0.021180267 1.3182075e-38 304 256
-0.019909101 0.75700003 -0.021236373 1.2905848e-38 305 256
-0.018581826 0.75700003 -0.021236373 1.290692e-38 306 256
-0.017300138 0.759 -0.02129248 1.290692e-38 307 256
-0.015969358 0.759 -0.02129248 1.2814722e-38 308 256
-0.014638579 0.759 -0.02129248 1.2722526e-38 309 256
-0.013342866 0.76099998 -0.021348584 1.2445589e-38 310 256
-0.012008579 0.76099998 -0.021348584 1.2445589e-38 311 256
-0.01068832 0.76200002 -0.02137664 1.2353043e-38 312 256
-0.0093522798 0.76200002 -0.02137664 1.2260847e-38 313 256
-0.0080162399 0.76200002 -0.02137664 1.2168299e-38 314 256
-0.074067809 0.71600002 -0.021341572 1.8340699e-38 261 257
-0.072812423 0.71600002 -0.021341572 1.8433969e-38 262 257
-0.071557038 0.71600002 -0.021341572 1.861836e-38 263 257
-0.070399836 0.71700001 -0.021371379 1.8803825e-38 264 257
-0.069142699 0.71700001 -0.021371379 1.8896021e-38 265 257
-0.067885563 0.71700001 -0.021371379 1.8896018e-38 266 257
-0.066628419 0.71700001 -0.021371379 1.8711625e-38 267 257
-0.065371275 0.71700001 -0.021371379 1.8618714e-38 268 257
-0.064114138 0.71700001 -0.021371379 1.8433964e-38 269 257
-0.063032329 0.71899998 -0.021430992 1.8158459e-38 270 257
-0.061857603 0.72000003 -0.021460801 1.8065903e-38 271 257
-0.060595199 0.72000003 -0.021460801 1.8065187e-38 272 257
-0.059332799 0.72000003 -0.021460801 1.7972991e-38 273 257
-0.058070403 0.72000003 -0.021460801 1.7697478e-38 274 257
-0.056808002 0.72000003 -0.021460801 1.7605282e-38 275 257
-0.055545598 0.72000003 -0.021460801 1.7237577e-38 276 257
-0.054433983 0.722 -0.021520413 1.7145023e-38 277 257
-0.053241719 0.72299999 -0.021550218 1.6592219e-38 278 257
-0.051974058 0.72299999 -0.021550218 1.6315991e-38 279 257
-0.050706398 0.72299999 -0.021550218 1.5305086e-38 280 257
-0.0495755 0.72500002 -0.021609833 1.5212531e-38 281 257
-0.048437584 0.727 -0.021669446 1.5027785e-38 282 257
-0.047357533 0.73000002 -0.021758866 1.5027785e-38 283 257
-0.046140719 0.73100001 -0.021788673 1.4935239e-38 284 257
-0.044981763 0.73299998 -0.021848286 1.4935239e-38 285 257
-0.043756187 0.73400003 -0.021878093 1.4751574e-38 286 257
-0.042584959 0.736 -0.021937706 1.4659378e-38 287 257
-0.041294504 0.736 -0.021937706 1.4659025e-38 288 257
-0.040004052 0.736 -0.021937706 1.4659025e-38 289 257
-0.038818799 0.73799998 -0.021997318 1.4658306e-38 290 257
-0.037575684 0.73900002 -0.022027127 1.4473915e-38 291 257
-0.036378156 0.741 -0.02208674 1.4381713e-38 292 257
-0.03512628 0.74199998 -0.022116546 1.4289517e-38 293 257
-0.033916477 0.74400002 -0.022176161 1.4105839e-38 294 257
-0.032699663 0.74599999 -0.022235774 1.4013643e-38 295 257
-0.031433757 0.74699998 -0.022265578 1.410476e-38 296 257
-0.030204674 0.74900001 -0.022325192 1.4012206e-38 297 257
-0.028929999 0.75 -0.022355 1.4011125e-38 298 257
-0.027688639 0.75199997 -0.022414612 1.3918571e-38 299 257
-0.02637013 0.75199997 -0.022414612 1.3549431e-38 300 257
-0.025118252 0.75400001 -0.022474226 1.3273204e-38 301 257
-0.023827799 0.755 -0.022504034 1.3182081e-38 302 257
-0.022504034 0.755 -0.022504034 1.3089526e-38 303 257
-0.021180267 0.755 -0.022504034 1.2721823e-38 304 257
-0.020014299 0.76099998 -0.022682872 1.253779e-38 305 257
-0.018680012 0.76099998 -0.022682872 1.2444885e-38 306 257
-0.075112797 0.71399999 -0.022533838 1.8065189e-38 260 258
-0.073860914 0.71399999 -0.022533838 1.8249582e-38 261 258
-0.072609037 0.71399999 -0.022533838 1.8526165e-38 262 258
-0.071357153 0.71399999 -0.022533838 1.8710556e-38 263 258
-0.070105277 0.71399999 -0.022533838 1.8803472e-38 264 258
-0.069046266 0.71600002 -0.022596961 1.8895668e-38 265 258
-0.067790881 0.71600002 -0.022596961 1.8896021e-38 266 258
-0.066535495 0.71600002 -0.022596961 1.8435043e-38 267 258
-0.06528011 0.71600002 -0.022596961 1.8249932e-38 268 258
-0.064114138 0.71700001 -0.02262852 1.8249932e-38 269 258
-0.062856995 0.71700001 -0.02262852 1.8065187e-38 270 258
-0.061771683 0.71899998 -0.022691639 1.7972991e-38 271 258
-0.060511041 0.71899998 -0.022691639 1.7697483e-38 272 258
-0.059250388 0.71899998 -0.022691639 1.7604929e-38 273 258
-0.057989739 0.71899998 -0.022691639 1.7605282e-38 274 258
-0.056808002 0.72000003 -0.022723202 1.7420889e-38 275 258
-0.055545598 0.72000003 -0.022723202 1.705283e-38 276 258
-0.054433983 0.722 -0.022786319 1.6684049e-38 277 258
-0.053168077 0.722 -0.022786319 1.6039048e-38 278 258
-0.051974058 0.72299999 -0.02281788 1.5854657e-38 279 258
-0.050706398 0.72299999 -0.02281788 1.5487326e-38 280 258
-0.0495755 0.72500002 -0.022880999 1.5395129e-38 281 258
-0.048304334 0.72500002 -0.022880999 1.5118912e-38 282 258
-0.047357533 0.73000002 -0.023038799 1.5118912e-38 283 258
-0.046140719 0.73100001 -0.02307036 1.4750852e-38 284 258
-0.044981763 0.73299998 -0.023133477 1.4935242e-38 285 258
-0.043756187 0.73400003 -0.023165042 1.4750858e-38 286 258
-0.042584959 0.736 -0.023228159 1.4658304e-38 287 258
-0.041294504 0.736 -0.023228159 1.4658306e-38 288 258
-0.040004052 0.736 -0.023228159 1.4566111e-38 289 258
-0.038818799 0.73799998 -0.023291279 1.4657581e-38 290 258
-0.037575684 0.73900002 -0.023322839 1.4473548e-38 291 258
-0.036378156 0.741 -0.023385961 1.4564659e-38 292 258
-0.03512628 0.74199998 -0.023417519 1.4472463e-38 293 258
-0.033916477 0.74400002 -0.023480639 1.4196953e-38 294 258
-0.032699663 0.74599999 -0.023543758 1.4012561e-38 295 258
-0.031433757 0.74699998 -0.023575317 1.3919646e-38 296 258
-0.030204674 0.74900001 -0.02363844 1.3550864e-38 297 258
-0.028929999 0.75 -0.023669999 1.3366469e-38 298 258
-0.027688639 0.75199997 -0.023733119 1.3089882e-38 299 258
-0.02637013 0.75199997 -0.023733119 1.3181359e-38 300 258
-0.025118252 0.75400001 -0.02379624 1.3089163e-38 301 258
-0.023827799 0.755 -0.023827799 1.2904415e-38 302 258
-0.022504034 0.755 -0.023827799 1.2628188e-38 303 258
-0.021236373 0.75700003 -0.02389092 1.2628188e-38 304 258
-0.076257721 0.713 -0.023752406 1.8156654e-38 259 259
-0.075007595 0.713 -0.023752406 1.7882239e-38 260 259
-0.07375747 0.713 -0.023752406 1.8066989e-38 261 259
-0.072507344 0.713 -0.023752406 1.8342144e-38 262 259
-0.071257219 0.713 -0.023752406 1.8526893e-38 263 259
-0.070007093 0.713 -0.023752406 1.8527614e-38 264 259
-0.068756968 0.713 -0.023752406 1.8712005e-38 265 259
-0.067601517 0.71399999 -0.02378572 1.8711279e-38 266 259
-0.066349633 0.71399999 -0.02378572 1.8434692e-38 267 259
-0.065097757 0.71399999 -0.02378572 1.8525443e-38 268 259
-0.064024724 0.71600002 -0.023852346 1.834105e-38 269 259
-0.062769331 0.71600002 -0.023852346 1.7972635e-38 270 259
-0.061513945 0.71600002 -0.023852346 1.7788244e-38 271 259
-0.060342718 0.71700001 -0.02388566 1.7329068e-38 272 259
-0.059085581 0.71700001 -0.02388566 1.7236872e-38 273 259
-0.057828441 0.71700001 -0.02388566 1.7144675e-38 274 259
-0.056729097 0.71899998 -0.023952285 1.6960284e-38 275 259
-0.055468451 0.71899998 -0.023952285 1.6683698e-38 276 259
-0.054283202 0.72000003 -0.0239856 1.6130525e-38 277 259
-0.053020801 0.72000003 -0.0239856 1.5578794e-38 278 259
-0.051902171 0.722 -0.024052227 1.5578794e-38 279 259
-0.050706398 0.72299999 -0.024085538 1.5118912e-38 280 259
-0.049438741 0.72299999 -0.024085538 1.5118912e-38 281 259
-0.048171077 0.72299999 -0.024085538 1.484377e-38 282 259
-0.047227785 0.72799999 -0.024252106 1.4751574e-38 283 259
-0.046140719 0.73100001 -0.024352046 1.4659025e-38 284 259
-0.044981763 0.73299998 -0.024418673 1.456683e-38 285 259
-0.043756187 0.73400003 -0.024451986 1.456683e-38 286 259
-0.042584959 0.736 -0.024518613 1.4474634e-38 287 259
-0.041294504 0.736 -0.024518613 1.4473912e-38 288 259
-0.040004052 0.736 -0.024518613 1.4381715e-38 289 259
-0.038713597 0.736 -0.024518613 1.428952e-38 290 259
-0.037575684 0.73900002 -0.024618553 1.4105489e-38 291 259
-0.036378156 0.741 -0.024685178 1.3920739e-38 292 259
-0.03512628 0.74199998 -0.024718491 1.3828543e-38 293 259
-0.033916477 0.74400002 -0.02478512 1.373598e-38 294 259
-0.032699663 0.74599999 -0.024851745 1.355123e-38 295 259
-0.031517919 0.74900001 -0.024951685 1.3275719e-38 296 259
-0.030244999 0.75 -0.024984999 1.2999131e-38 297 259
-0.028929999 0.75 -0.024984999 1.3089179e-38 298 259
-0.027762281 0.75400001 -0.025118252 1.2720396e-38 299 259
-0.026440267 0.75400001 -0.025118252 1.244596e-38 300 259
-0.025118252 0.75400001 -0.025118252 1.2353765e-38 301 259
-0.023827799 0.755 -0.025151566 1.2443438e-38 302 259
-0.076257721 0.713 -0.025002534 1.7973707e-38 259 260
-0.075007595 0.713 -0.025002534 1.8066986e-38 260 260
-0.07375747 0.713 -0.025002534 1.8066986e-38 261 260
-0.072303966 0.71100003 -0.024932399 1.8342499e-38 262 260
-0.071057342 0.71100003 -0.024932399 1.8526891e-38 263 260
-0.069810718 0.71100003 -0.024932399 1.8710926e-38 264 260
-0.068564095 0.71100003 -0.024932399 1.8895317e-38 265 260
-0.067506835 0.713 -0.025002534 1.8619807e-38 266 260
-0.066256717 0.713 -0.025002534 1.8251023e-38 267 260
-0.065006584 0.713 -0.025002534 1.8249935e-38 268 260
-0.063845873 0.71399999 -0.025037598 1.7972988e-38 269 260
-0.062593997 0.71399999 -0.025037598 1.7605285e-38 270 260
-0.061513945 0.71600002 -0.025107734 1.7513089e-38 271 260
-0.06025856 0.71600002 -0.025107734 1.7144672e-38 272 260
-0.059003171 0.71600002 -0.025107734 1.7144672e-38 273 260
-0.057828441 0.71700001 -0.0251428 1.668442e-38 274 260
-0.056571297 0.71700001 -0.0251428 1.6223442e-38 275 260
-0.055468451 0.71899998 -0.025212931 1.5670624e-38 276 260
-0.054283202 0.72000003 -0.025248 1.5393678e-38 277 260
-0.053020801 0.72000003 -0.025248 1.5210735e-38 278 260
-0.051902171 0.722 -0.025318133 1.530293e-38 279 260
-0.050636265 0.722 -0.025318133 1.5118559e-38 280 260
-0.049438741 0.72299999 -0.025353199 1.5118559e-38 281 260
-0.048171077 0.72299999 -0.025353199 1.4751224e-38 282 260
-0.047162913 0.727 -0.025493465 1.4659028e-38 283 260
-0.046077598 0.73000002 -0.025598666 1.4566474e-38 284 260
-0.044981763 0.73299998 -0.025703866 1.4474278e-38 285 260
-0.043696571 0.73299998 -0.025703866 1.4473915e-38 286 260
-0.042469237 0.73400003 -0.025738932 1.4473915e-38 287 260
-0.041182294 0.73400003 -0.025738932 1.4473548e-38 288 260
-0.040004052 0.736 -0.025809066 1.4380994e-38 289 260
-0.038713597 0.736 -0.025809066 1.4380268e-38 290 260
-0.037524838 0.73799998 -0.025879199 1.4104041e-38 291 260
-0.036378156 0.741 -0.025984399 1.3919643e-38 292 260
-0.03512628 0.74199998 -0.026019465 1.3366469e-38 293 260
-0.033916477 0.74400002 -0.026089599 1.3274273e-38 294 260
-0.032743499 0.74699998 -0.026194798 1.3182078e-38 295 260
-0.03156 0.75 -0.0263 1.2905498e-38 296 260
-0.030244999 0.75 -0.0263 1.2628551e-38 297 260
-0.029084291 0.75400001 -0.026440267 1.2260476e-38 298 260
-0.078537062 0.71100003 -0.026179021 1.7053204e-38 257 261
-0.077290438 0.71100003 -0.026179021 1.7789326e-38 258 261
-0.076043822 0.71100003 -0.026179021 1.8065554e-38 259 261
-0.074797198 0.71100003 -0.026179021 1.7698576e-38 260 261
-0.073550582 0.71100003 -0.026179021 1.7882607e-38 261 261
-0.072303966 0.71100003 -0.026179021 1.8067001e-38 262 261
-0.071057342 0.71100003 -0.026179021 1.8251751e-38 263 261
-0.069712527 0.70999998 -0.026142199 1.8527261e-38 264 261
-0.068467662 0.70999998 -0.026142199 1.8711652e-38 265 261
-0.067222796 0.70999998 -0.026142199 1.8435058e-38 266 261
-0.065977924 0.70999998 -0.026142199 1.7882244e-38 267 261
-0.064733058 0.70999998 -0.026142199 1.7697483e-38 268 261
-0.063577622 0.71100003 -0.026179021 1.7789679e-38 269 261
-0.062331002 0.71100003 -0.026179021 1.7329421e-38 270 261
-0.061084379 0.71100003 -0.026179021 1.7237225e-38 271 261
-0.060090236 0.71399999 -0.026289478 1.6869167e-38 272 261
-0.059003171 0.71600002 -0.026363119 1.6776613e-38 273 261
-0.057747785 0.71600002 -0.026363119 1.6042295e-38 274 261
-0.056571297 0.71700001 -0.02639994 1.4935587e-38 275 261
-0.055468451 0.71899998 -0.02647358 1.5485176e-38 276 261
-0.054283202 0.72000003 -0.026510401 1.5485176e-38 277 261
-0.053020801 0.72000003 -0.026510401 1.5210031e-38 278 261
-0.051758397 0.72000003 -0.026510401 1.5302227e-38 279 261
-0.050636265 0.722 -0.026584039 1.484377e-38 280 261
-0.049438741 0.72299999 -0.026620859 1.484377e-38 281 261
-0.048171077 0.72299999 -0.026620859 1.4658672e-38 282 261
-0.047033165 0.72500002 -0.026694499 1.4566477e-38 283 261
-0.045951359 0.72799999 -0.026804959 1.4474281e-38 284 261
-0.044797666 0.73000002 -0.026878599 1.429025e-38 285 261
-0.043577347 0.73100001 -0.026915418 1.4105854e-38 286 261
-0.042469237 0.73400003 -0.02702588 1.4105854e-38 287 261
-0.041182294 0.73400003 -0.02702588 1.4012937e-38 288 261
-0.040004052 0.736 -0.02709952 1.3828546e-38 289 261
-0.038713597 0.736 -0.02709952 1.3643785e-38 290 261
-0.037524838 0.73799998 -0.027173158 1.355123e-38 291 261
-0.036378156 0.741 -0.027283618 1.3091683e-38 292 261
-0.035362978 0.74699998 -0.027504537 1.2906933e-38 293 261
-0.034053236 0.74699998 -0.027504537 1.2721825e-38 294 261
-0.032831166 0.74900001 -0.027578179 1.2445239e-38 295 261
-0.079783678 0.71100003 -0.027425639 1.6960278e-38 256 262
-0.078537062 0.71100003 -0.027425639 1.7237225e-38 257 262
-0.077181734 0.70999998 -0.027387066 1.760565e-38 258 262
-0.075936861 0.70999998 -0.027387066 1.7790042e-38 259 262
-0.074691996 0.70999998 -0.027387066 1.797336e-38 260 262
-0.073447131 0.70999998 -0.027387066 1.797336e-38 261 262
-0.072202265 0.70999998 -0.027387066 1.8157755e-38 262 262
-0.070757516 0.708 -0.027309919 1.8342146e-38 263 262
-0.069516152 0.708 -0.027309919 1.8434339e-38 264 262
-0.068274796 0.708 -0.027309919 1.8710926e-38 265 262
-0.067033432 0.708 -0.027309919 1.8251023e-38 266 262
-0.065792084 0.708 -0.027309919 1.7790045e-38 267 262
-0.06455072 0.708 -0.027309919 1.7421617e-38 268 262
-0.063309364 0.708 -0.027309919 1.7421617e-38 269 262
-0.062068 0.708 -0.027309919 1.7237225e-38 270 262
-0.060998458 0.70999998 -0.027387066 1.7145028e-38 271 262
-0.059753593 0.70999998 -0.027387066 1.6776613e-38 272 262
-0.058755953 0.713 -0.027502786 1.6500026e-38 273 262
-0.057747785 0.71600002 -0.027618507 1.5580956e-38 274 262
-0.056571297 0.71700001 -0.027657079 1.3737402e-38 275 262
-0.055468451 0.71899998 -0.027734226 1.4379902e-38 276 262
-0.054207806 0.71899998 -0.027734226 1.5025271e-38 277 262
-0.053020801 0.72000003 -0.027772799 1.5117833e-38 278 262
-0.051758397 0.72000003 -0.027772799 1.5210028e-38 279 262
-0.050636265 0.722 -0.027849946 1.5026366e-38 280 262
-0.049438741 0.72299999 -0.02788852 1.5026366e-38 281 262
-0.048171077 0.72299999 -0.02788852 1.4566474e-38 282 262
-0.047033165 0.72500002 -0.027965667 1.4474278e-38 283 262
-0.045951359 0.72799999 -0.028081384 1.428952e-38 284 262
-0.044674929 0.72799999 -0.028081384 1.4105489e-38 285 262
-0.043577347 0.73100001 -0.028197108 1.4104404e-38 286 262
-0.042469237 0.73400003 -0.028312827 1.4104404e-38 287 262
-0.041182294 0.73400003 -0.028312827 1.4011491e-38 288 262
-0.040004052 0.736 -0.028389972 1.3734545e-38 289 262
-0.038713597 0.736 -0.028389972 1.3090611e-38 290 262
-0.037524838 0.73799998 -0.028467119 1.2998415e-38 291 262
-0.036378156 0.741 -0.028582839 1.3181359e-38 292 262
-0.03545766 0.74900001 -0.028891427 1.2812216e-38 293 262
-0.081030294 0.71100003 -0.028672259 1.6590449e-38 255 263
-0.079783678 0.71100003 -0.028672259 1.7144307e-38 256 263
-0.0784266 0.70999998 -0.028631933 1.7513089e-38 257 263
-0.077181734 0.70999998 -0.028631933 1.7697483e-38 258 263
-0.075722955 0.708 -0.02855128 1.7789679e-38 259 263
-0.074481599 0.708 -0.02855128 1.7972638e-38 260 263
-0.073240235 0.708 -0.02855128 1.7972638e-38 261 263
-0.071998879 0.708 -0.02855128 1.8065201e-38 262 263
-0.070657574 0.70700002 -0.028510952 1.8249951e-38 263 263
-0.069417976 0.70700002 -0.028510952 1.8250304e-38 264 263
-0.068178371 0.70700002 -0.028510952 1.8342499e-38 265 263
-0.066938758 0.70700002 -0.028510952 1.8158105e-38 266 263
-0.065699153 0.70700002 -0.028510952 1.7973354e-38 267 263
-0.064459547 0.70700002 -0.028510952 1.760565e-38 268 263
-0.063219935 0.70700002 -0.028510952 1.7329424e-38 269 263
-0.061980337 0.70700002 -0.028510952 1.7144672e-38 270 263
-0.060740728 0.70700002 -0.028510952 1.6960281e-38 271 263
-0.059585281 0.708 -0.02855128 1.6683701e-38 272 263
-0.058508728 0.70999998 -0.028631933 1.6314559e-38 273 263
-0.057505824 0.713 -0.028752912 1.4844476e-38 274 263
-0.056492399 0.71600002 -0.028873893 1.2631422e-38 275 263
-0.055314157 0.71700001 -0.028914221 1.3919292e-38 276 263
-0.054207806 0.71899998 -0.028994869 1.5117836e-38 277 263
-0.053020801 0.72000003 -0.029035201 1.5210034e-38 278 263
-0.051758397 0.72000003 -0.029035201 1.5210034e-38 279 263
-0.050636265 0.722 -0.029115854 1.4934533e-38 280 263
-0.04937036 0.722 -0.029115854 1.4750502e-38 281 263
-0.048171077 0.72299999 -0.029156178 1.4658306e-38 282 263
-0.046903417 0.72299999 -0.029156178 1.4012937e-38 283 263
-0.045888241 0.727 -0.029317487 1.3368274e-38 284 263
-0.044674929 0.72799999 -0.029357811 1.3275719e-38 285 263
-0.043577347 0.73100001 -0.029478792 1.3735251e-38 286 263
-0.042469237 0.73400003 -0.029599773 1.355122e-38 287 263
-0.041294504 0.736 -0.029680425 1.3458318e-38 288 263
-0.040004052 0.736 -0.029680425 1.3366121e-38 289 263
-0.038818799 0.73799998 -0.029761078 1.272147e-38 290 263
-0.037575684 0.73900002 -0.029801406 1.2260491e-38 291 263
-0.082276918 0.71100003 -0.029918881 1.6774117e-38 254 264
-0.081030294 0.71100003 -0.029918881 1.7050704e-38 255 264
-0.079671465 0.70999998 -0.029876797 1.742054e-38 256 264
-0.0784266 0.70999998 -0.029876797 1.7697127e-38 257 264
-0.076964319 0.708 -0.02979264 1.7697846e-38 258 264
-0.07561601 0.70700002 -0.029750559 1.760565e-38 259 264
-0.074376404 0.70700002 -0.029750559 1.7696777e-38 260 264
-0.073136792 0.70700002 -0.029750559 1.7696777e-38 261 264
-0.071897186 0.70700002 -0.029750559 1.7789694e-38 262 264
-0.070657574 0.70700002 -0.029750559 1.7974087e-38 263 264
-0.069417976 0.70700002 -0.029750559 1.8157752e-38 264 264
-0.06808193 0.70599997 -0.029708479 1.8157752e-38 265 264
-0.066844068 0.70599997 -0.029708479 1.806591e-38 266 264
-0.065606222 0.70599997 -0.029708479 1.7973354e-38 267 264
-0.064368367 0.70599997 -0.029708479 1.7421617e-38 268 264
-0.063130513 0.70599997 -0.029708479 1.7329421e-38 269 264
-0.061892662 0.70599997 -0.029708479 1.7052833e-38 270 264
-0.060654808 0.70599997 -0.029708479 1.6776247e-38 271 264
-0.059501119 0.70700002 -0.029750559 1.6774818e-38 272 264
-0.05826151 0.70700002 -0.029750559 1.6129448e-38 273 264
-0.057263866 0.70999998 -0.029876797 1.4657575e-38 274 264
-0.056255698 0.713 -0.030003037 1.2353043e-38 275 264
-0.055237014 0.71600002 -0.03012928 1.3736346e-38 276 264
-0.054057021 0.71700001 -0.030171359 1.4750858e-38 277 264
-0.053020801 0.72000003 -0.0302976 1.5026366e-38 278 264
-0.051758397 0.72000003 -0.0302976 1.493417e-38 279 264
-0.050636265 0.722 -0.030381758 1.456683e-38 280 264
-0.04937036 0.722 -0.030381758 1.456683e-38 281 264
-0.048171077 0.72299999 -0.030423839 1.4381715e-38 282 264
-0.046903417 0.72299999 -0.030423839 1.3090976e-38 283 264
-0.045888241 0.727 -0.030592158 1.1892785e-38 284 264
-0.044674929 0.72799999 -0.030634239 1.2445957e-38 285 264
-0.043517731 0.73000002 -0.030718399 1.327392e-38 286 264
-0.042469237 0.73400003 -0.030886721 1.3181725e-38 287 264
-0.041294504 0.736 -0.030970879 1.2814021e-38 288 264
-0.040004052 0.736 -0.030970879 1.2445239e-38 289 264
-0.038818799 0.73799998 -0.031055039 1.1892065e-38 290 264
-0.085895792 0.70999998 -0.031121666 1.7242022e-38 251 265
-0.083406061 0.70999998 -0.031121666 1.5395183e-38 253 265
-0.082161188 0.70999998 -0.031121666 1.7142174e-38 254 265
-0.08091633 0.70999998 -0.031121666 1.7234369e-38 255 265
-0.079447038 0.708 -0.031034 1.7511664e-38 256 265
-0.07809522 0.70700002 -0.030990168 1.7972641e-38 257 265
-0.076855607 0.70700002 -0.030990168 1.7787891e-38 258 265
-0.075509049 0.70599997 -0.030946331 1.760386e-38 259 265
-0.074271195 0.70599997 -0.030946331 1.7327634e-38 260 265
-0.07303334 0.70599997 -0.030946331 1.7512386e-38 261 265
-0.071795486 0.70599997 -0.030946331 1.7696774e-38 262 265
-0.070557632 0.70599997 -0.030946331 1.797336e-38 263 265
-0.069319785 0.70599997 -0.030946331 1.8157387e-38 264 265
-0.06808193 0.70599997 -0.030946331 1.8249582e-38 265 265
-0.066654719 0.704 -0.030858666 1.7974793e-38 266 265
-0.065420374 0.704 -0.030858666 1.7790042e-38 267 265
-0.064186029 0.704 -0.030858666 1.760565e-38 268 265
-0.062951677 0.704 -0.030858666 1.7236869e-38 269 265
-0.061892662 0.70599997 -0.030946331 1.7052479e-38 270 265
-0.060654808 0.70599997 -0.030946331 1.6775894e-38 271 265
-0.059416957 0.70599997 -0.030946331 1.6683348e-38 272 265
-0.05826151 0.70700002 -0.030990168 1.6130174e-38 273 265
-0.057102561 0.708 -0.031034 1.4657561e-38 274 265
-0.056018997 0.70999998 -0.031121666 1.2260476e-38 275 265
-0.055005573 0.713 -0.031253166 1.3644854e-38 276 265
-0.053755447 0.713 -0.031253166 1.4751561e-38 277 265
-0.052799881 0.71700001 -0.031428497 1.4750502e-38 278 265
-0.051758397 0.72000003 -0.03156 1.4750502e-38 279 265
-0.050496001 0.72000003 -0.03156 1.4658672e-38 280 265
-0.04937036 0.722 -0.031647664 1.429025e-38 281 265
-0.048171077 0.72299999 -0.031691495 1.3460482e-38 282 265
-0.046903417 0.72299999 -0.031691495 1.1985352e-38 283 265
-0.045888241 0.727 -0.03186683 1.170732e-38 284 265
-0.044613566 0.727 -0.03186683 1.2444885e-38 285 265
-0.043517731 0.73000002 -0.031998333 1.2813668e-38 286 265
-0.042469237 0.73400003 -0.032173667 1.2444885e-38 287 265
-0.041294504 0.736 -0.032261331 1.2076456e-38 288 265
-0.040112756 0.73799998 -0.032348998 1.1338531e-38 289 265
-0.087263398 0.71100003 -0.032412119 1.7794831e-38 250 266
-0.085895792 0.70999998 -0.032366529 1.6780681e-38 251 266
-0.084650926 0.70999998 -0.032366529 1.5577764e-38 252 266
-0.083171122 0.708 -0.03227536 1.5853991e-38 253 266
-0.081929758 0.708 -0.03227536 1.7142527e-38 254 266
-0.080688395 0.708 -0.03227536 1.7326918e-38 255 266
-0.079334825 0.70700002 -0.032229774 1.732872e-38 256 266
-0.07798475 0.70599997 -0.032184184 1.7604947e-38 257 266
-0.076746903 0.70599997 -0.032184184 1.732799e-38 258 266
-0.075509049 0.70599997 -0.032184184 1.6867013e-38 259 266
-0.074271195 0.70599997 -0.032184184 1.6682621e-38 260 266
-0.07303334 0.70599997 -0.032184184 1.7143959e-38 261 266
-0.071592107 0.704 -0.032093015 1.7420913e-38 262 266
-0.070357755 0.704 -0.032093015 1.7697499e-38 263 266
-0.06912341 0.704 -0.032093015 1.7698576e-38 264 266
-0.067889065 0.704 -0.032093015 1.7882607e-38 265 266
-0.066654719 0.704 -0.032093015 1.8065554e-38 266 266
-0.065420374 0.704 -0.032093015 1.7973357e-38 267 266
-0.064094849 0.70300001 -0.032047424 1.7604932e-38 268 266
-0.062862262 0.70300001 -0.032047424 1.742054e-38 269 266
-0.061717331 0.704 -0.032093015 1.7051758e-38 270 266
-0.060482983 0.704 -0.032093015 1.6959562e-38 271 266
-0.059416957 0.70599997 -0.032184184 1.6774465e-38 272 266
-0.058179103 0.70599997 -0.032184184 1.6221291e-38 273 266
-0.057021905 0.70700002 -0.032229774 1.4749757e-38 274 266
-0.055782299 0.70700002 -0.032229774 1.2905845e-38 275 266
-0.054774132 0.70999998 -0.032366529 1.3919643e-38 276 266
-0.053604662 0.71100003 -0.032412119 1.5118186e-38 277 266
-0.052578956 0.71399999 -0.032548878 1.4659028e-38 278 266
-0.051542737 0.71700001 -0.032685637 1.4566474e-38 279 266
-0.050425861 0.71899998 -0.032776814 1.4289897e-38 280 266
-0.04937036 0.722 -0.032913569 1.401295e-38 281 266
-0.048104454 0.722 -0.032913569 1.2814409e-38 282 266
-0.046838548 0.722 -0.032913569 1.2261237e-38 283 266
-0.045761999 0.72500002 -0.033050332 1.2169746e-38 284 266
-0.044490833 0.72500002 -0.033050332 1.2261943e-38 285 266
-0.043398503 0.72799999 -0.033187091 1.2262648e-38 286 266
-0.042469237 0.73400003 -0.033460613 1.1617279e-38 287 266
-0.041406717 0.73799998 -0.033642959 1.106375e-38 288 266
-0.087263398 0.71100003 -0.033658739 1.7425324e-38 250 267
-0.086016782 0.71100003 -0.033658739 1.6134586e-38 251 267
-0.084412478 0.708 -0.033516716 1.6130211e-38 252 267
-0.083053641 0.70700002 -0.033469379 1.6314603e-38 253 267
-0.081814043 0.70700002 -0.033469379 1.695849e-38 254 267
-0.080574431 0.70700002 -0.033469379 1.7235076e-38 255 267
-0.079222605 0.70599997 -0.033422034 1.7327271e-38 256 267
-0.07798475 0.70599997 -0.033422034 1.7327271e-38 257 267
-0.076746903 0.70599997 -0.033422034 1.6776247e-38 258 267
-0.075295143 0.704 -0.03332736 1.520892e-38 259 267
-0.07406079 0.704 -0.03332736 1.5391879e-38 260 267
-0.072826453 0.704 -0.03332736 1.6406391e-38 261 267
-0.071287021 0.70099998 -0.03318534 1.6775909e-38 262 267
-0.070057929 0.70099998 -0.03318534 1.7236888e-38 263 267
-0.068730667 0.69999999 -0.033137999 1.7880092e-38 264 267
-0.067503333 0.69999999 -0.033137999 1.8064483e-38 265 267
-0.066275999 0.69999999 -0.033137999 1.7973004e-38 266 267
-0.065141588 0.70099998 -0.03318534 1.7696777e-38 267 267
-0.064094849 0.70300001 -0.033280019 1.7512383e-38 268 267
-0.062862262 0.70300001 -0.033280019 1.7143959e-38 269 267
-0.061717331 0.704 -0.03332736 1.7051405e-38 270 267
-0.060482983 0.704 -0.03332736 1.6867013e-38 271 267
-0.059248637 0.704 -0.03332736 1.631529e-38 272 267
-0.058014292 0.704 -0.03332736 1.5946149e-38 273 267
-0.056941248 0.70599997 -0.033422034 1.5118186e-38 274 267
-0.055782299 0.70700002 -0.033469379 1.4565012e-38 275 267
-0.054619838 0.708 -0.033516716 1.4749408e-38 276 267
-0.053529263 0.70999998 -0.033611398 1.5025634e-38 277 267
-0.052358042 0.71100003 -0.033658739 1.4657953e-38 278 267
-0.051255193 0.713 -0.033753417 1.4934539e-38 279 267
-0.050005067 0.713 -0.033753417 1.401295e-38 280 267
-0.0492336 0.72000003 -0.034084801 1.2906962e-38 281 267
-0.0479712 0.72000003 -0.034084801 1.2166873e-38 282 267
-0.0467088 0.72000003 -0.034084801 1.2904797e-38 283 267
-0.04563576 0.72299999 -0.03422682 1.2538523e-38 284 267
-0.044490833 0.72500002 -0.034321502 1.2262295e-38 285 267
-0.043398503 0.72799999 -0.034463517 1.161549e-38 286 267
-0.087140657 0.70999998 -0.034856264 1.7241642e-38 250 268
-0.085895792 0.70999998 -0.034856264 1.5581762e-38 251 268
-0.084293254 0.70700002 -0.034708988 1.6039446e-38 252 268
-0.083053641 0.70700002 -0.034708988 1.6223837e-38 253 268
-0.081698313 0.70599997 -0.034659892 1.6683345e-38 254 268
-0.080460466 0.70599997 -0.034659892 1.67759e-38 255 268
-0.079222605 0.70599997 -0.034659892 1.6959212e-38 256 268
-0.07798475 0.70599997 -0.034659892 1.6774462e-38 257 268
-0.076529488 0.704 -0.034561705 1.6407463e-38 258 268
-0.075295143 0.704 -0.034561705 1.520892e-38 259 268
-0.07406079 0.704 -0.034561705 1.5113131e-38 260 268
-0.072516106 0.70099998 -0.034414422 1.6311675e-38 261 268
-0.071185328 0.69999999 -0.034365334 1.6499323e-38 262 268
-0.069957994 0.69999999 -0.034365334 1.6868464e-38 263 268
-0.068730667 0.69999999 -0.034365334 1.7052856e-38 264 268
-0.067503333 0.69999999 -0.034365334 1.7421279e-38 265 268
-0.066275999 0.69999999 -0.034365334 1.7421635e-38 266 268
-0.065048665 0.69999999 -0.034365334 1.7236885e-38 267 268
-0.063912503 0.70099998 -0.034414422 1.7052129e-38 268 268
-0.062683418 0.70099998 -0.034414422 1.6959575e-38 269 268
-0.061629668 0.70300001 -0.034512613 1.6499676e-38 270 268
-0.06039707 0.70300001 -0.034512613 1.6315643e-38 271 268
-0.059248637 0.704 -0.034561705 1.6406051e-38 272 268
-0.058014292 0.704 -0.034561705 1.6037628e-38 273 268
-0.056779943 0.704 -0.034561705 1.5210384e-38 274 268
-0.055703394 0.70599997 -0.034659892 1.5025634e-38 275 268
-0.054542694 0.70700002 -0.034708988 1.4749773e-38 276 268
-0.053378478 0.708 -0.034758076 1.4841969e-38 277 268
-0.052284397 0.70999998 -0.034856264 1.4566477e-38 278 268
-0.051111419 0.71100003 -0.034905359 1.4566477e-38 279 268
-0.049864799 0.71100003 -0.034905359 1.3460848e-38 280 268
-0.048823316 0.71399999 -0.035052639 1.2539252e-38 281 268
-0.047571439 0.71399999 -0.035052639 1.2444891e-38 282 268
-0.0467088 0.72000003 -0.035347197 1.2537087e-38 283 268
-0.04563576 0.72299999 -0.035494477 1.2260494e-38 284 268
-0.087140657 0.70999998 -0.036101133 1.724056e-38 250 269
-0.085895792 0.70999998 -0.036101133 1.5304452e-38 251 269
-0.084174022 0.70599997 -0.035897743 1.594689e-38 252 269
-0.082936168 0.70599997 -0.035897743 1.6131641e-38 253 269
-0.081698313 0.70599997 -0.035897743 1.6774462e-38 254 269
-0.080460466 0.70599997 -0.035897743 1.6867016e-38 255 269
-0.078998186 0.704 -0.035796054 1.6867011e-38 256 269
-0.077763841 0.704 -0.035796054 1.6498587e-38 257 269
-0.076529488 0.704 -0.035796054 1.6130878e-38 258 269
-0.07486733 0.69999999 -0.035592664 1.5393313e-38 259 269
-0.073639996 0.69999999 -0.035592664 1.5757425e-38 260 269
-0.072412662 0.69999999 -0.035592664 1.6126209e-38 261 269
-0.071185328 0.69999999 -0.035592664 1.5855032e-38 262 269
-0.069957994 0.69999999 -0.035592664 1.631601e-38 263 269
