# .PCD v.7 - Point Cloud Data file format
FIELDS x y z rgb imX imY
SIZE 4 4 4 4 4 4
TYPE F F F F F F
COUNT 1 1 1 1 1 1
WIDTH 831
HEIGHT 1
VIEWPOINT 0 0 0 1 0 0 0
POINTS 831
DATA ascii
0.040000543 0.671 -0.048235953 1.2077179e-38 354 281
0.041177034 0.671 -0.048235953 1.2722549e-38 355 281
0.042416636 0.67199999 -0.04830784 1.299841e-38 356 281
0.043724626 0.67400002 -0.048451614 1.3090964e-38 357 281
0.044972997 0.67500001 -0.048523501 1.3458666e-38 358 281
0.046224877 0.676 -0.048595384 1.3458666e-38 359 281
0.047550395 0.67799997 -0.048739154 1.3366836e-38 360 281
0.048882935 0.68000001 -0.048882935 1.3366836e-38 361 281
0.050222475 0.68199998 -0.049026705 1.336757e-38 362 281
0.051418249 0.68199998 -0.049026705 1.318282e-38 363 281
0.052614026 0.68199998 -0.049026705 1.1986466e-38 364 281
-0.046510674 0.64700001 -0.047645077 1.8342952e-38 279 282
-0.045376267 0.64700001 -0.047645077 1.8340779e-38 280 282
-0.037608996 0.64999998 -0.047865998 1.751023e-38 287 282
-0.036413226 0.64899999 -0.047792356 1.7694584e-38 288 282
-0.03527531 0.64899999 -0.047792356 1.7510553e-38 289 282
-0.034137398 0.64899999 -0.047792356 1.7879316e-38 290 282
-0.032999486 0.64899999 -0.047792356 1.8063347e-38 291 282
-0.03186157 0.64899999 -0.047792356 1.8247019e-38 292 282
-0.03067632 0.648 -0.047718719 1.8615802e-38 293 282
-0.029540159 0.648 -0.047718719 1.852325e-38 294 282
-0.028447833 0.64899999 -0.047792356 1.8339219e-38 295 282
-0.027309919 0.64899999 -0.047792356 1.8432133e-38 296 282
-0.026172007 0.64899999 -0.047792356 1.8432133e-38 297 282
-0.025034092 0.64899999 -0.047792356 1.8339938e-38 298 282
-0.023896178 0.64899999 -0.047792356 1.8062991e-38 299 282
-0.022758266 0.64899999 -0.047792356 1.8061556e-38 300 282
-0.021620352 0.64899999 -0.047792356 1.8430337e-38 301 282
-0.02048244 0.64899999 -0.047792356 1.8522178e-38 302 282
-0.019344525 0.64899999 -0.047792356 1.8706928e-38 303 282
-0.018206613 0.64899999 -0.047792356 1.8615095e-38 304 282
-0.0170424 0.648 -0.047718719 1.8615095e-38 305 282
-0.015906241 0.648 -0.047718719 1.8614742e-38 306 282
-0.014792874 0.64899999 -0.047792356 1.8614742e-38 307 282
-0.013654959 0.64899999 -0.047792356 1.8522194e-38 308 282
-0.012517046 0.64899999 -0.047792356 1.8522194e-38 309 282
-0.011379133 0.64899999 -0.047792356 1.8063727e-38 310 282
-0.010256999 0.64999998 -0.047865998 1.7878975e-38 311 282
-0.0091173323 0.64999998 -0.047865998 1.8062646e-38 312 282
-0.0079776663 0.64999998 -0.047865998 1.7878256e-38 313 282
-0.0068379994 0.64999998 -0.047865998 1.7878262e-38 314 282
-0.005698333 0.64999998 -0.047865998 1.7878262e-38 315 282
-0.0045586661 0.64999998 -0.047865998 1.7694934e-38 316 282
-0.0034189997 0.64999998 -0.047865998 1.7418707e-38 317 282
-0.0022793331 0.64999998 -0.047865998 1.7327211e-38 318 282
-0.0011396665 0.64999998 -0.047865998 1.714282e-38 319 282
0 0.64999998 -0.047865998 1.7141748e-38 320 282
0.0011396665 0.64999998 -0.047865998 1.7141748e-38 321 282
0.0022863466 0.65200001 -0.048013281 1.6772982e-38 322 282
0.0034295199 0.65200001 -0.048013281 1.6772982e-38 323 282
0.0045797066 0.653 -0.048086919 1.649749e-38 324 282
0.0057246331 0.653 -0.048086919 1.6220901e-38 325 282
0.0068695596 0.653 -0.048086919 1.6126915e-38 326 282
0.0080144862 0.653 -0.048086919 1.621911e-38 327 282
0.0091594132 0.653 -0.048086919 1.6127987e-38 328 282
0.010304339 0.653 -0.048086919 1.6035432e-38 329 282
0.011449266 0.653 -0.048086919 1.5760641e-38 330 282
0.012613479 0.65399998 -0.048160557 1.5576608e-38 331 282
0.013760159 0.65399998 -0.048160557 1.5391864e-38 332 282
0.014906839 0.65399998 -0.048160557 1.5391864e-38 333 282
0.01605352 0.65399998 -0.048160557 1.5391145e-38 334 282
0.017226499 0.65499997 -0.048234195 1.5391145e-38 335 282
0.018374931 0.65499997 -0.048234195 1.5207826e-38 336 282
0.019582979 0.65700001 -0.048381478 1.5115271e-38 337 282
0.020734919 0.65700001 -0.048381478 1.5115271e-38 338 282
0.021886859 0.65700001 -0.048381478 1.493124e-38 339 282
0.023073865 0.65799999 -0.048455119 1.4747566e-38 340 282
0.024264378 0.65899998 -0.048528757 1.447134e-38 341 282
0.025419824 0.65899998 -0.048528757 1.4286943e-38 342 282
0.026575271 0.65899998 -0.048528757 1.410255e-38 343 282
0.02781488 0.66100001 -0.04867604 1.3825965e-38 344 282
0.028973831 0.66100001 -0.04867604 1.3733769e-38 345 282
0.030178372 0.662 -0.048749682 1.3457558e-38 346 282
0.031386416 0.66299999 -0.048823316 1.3457558e-38 347 282
0.03259797 0.66399997 -0.048896957 1.3179913e-38 348 282
0.03386388 0.66600001 -0.04904424 1.2995163e-38 349 282
0.035031598 0.66600001 -0.04904424 1.2626753e-38 350 282
0.036253672 0.667 -0.049117878 1.2166134e-38 351 282
0.037479252 0.66799998 -0.04919152 1.1521857e-38 352 282
0.038766202 0.67000002 -0.049338799 1.1798084e-38 353 282
0.039940935 0.67000002 -0.049338799 1.2075747e-38 354 282
0.041177034 0.671 -0.049412437 1.2721116e-38 355 282
0.042416636 0.67199999 -0.049486078 1.2722902e-38 356 282
0.043724626 0.67400002 -0.049633358 1.3091683e-38 357 282
0.044972997 0.67500001 -0.049706999 1.3458669e-38 358 282
0.046224877 0.676 -0.049780637 1.3458669e-38 359 282
0.047550395 0.67799997 -0.049927916 1.3183174e-38 360 282
0.048811045 0.67900002 -0.050001562 1.2998781e-38 361 282
0.050075196 0.68000001 -0.050075196 1.253782e-38 362 282
0.051267464 0.68000001 -0.050075196 1.2169396e-38 363 282
0.052459732 0.68000001 -0.050075196 1.0973763e-38 364 282
-0.048779488 0.64700001 -0.048779488 1.7602824e-38 277 283
-0.047645077 0.64700001 -0.048779488 1.7970137e-38 278 283
-0.046510674 0.64700001 -0.048779488 1.7693908e-38 279 283
-0.045376267 0.64700001 -0.048779488 1.7785729e-38 280 283
-0.044241857 0.64700001 -0.048779488 1.7877924e-38 281 283
-0.043174081 0.648 -0.04885488 1.7694606e-38 282 283
-0.042037919 0.648 -0.04885488 1.7694606e-38 283 283
-0.040901758 0.648 -0.04885488 1.8154138e-38 284 283
-0.0397656 0.648 -0.04885488 1.8154138e-38 285 283
-0.038629439 0.648 -0.04885488 1.806194e-38 286 283
-0.037493281 0.648 -0.04885488 1.8154135e-38 287 283
-0.03635712 0.648 -0.04885488 1.8246683e-38 288 283
-0.035220958 0.648 -0.04885488 1.8339237e-38 289 283
-0.0340322 0.64700001 -0.048779488 1.8340304e-38 290 283
-0.032897793 0.64700001 -0.048779488 1.8432499e-38 291 283
-0.031812482 0.648 -0.04885488 1.8615802e-38 292 283
-0.03067632 0.648 -0.04885488 1.8615802e-38 293 283
-0.029540159 0.648 -0.04885488 1.8615446e-38 294 283
-0.028404001 0.648 -0.04885488 1.8615446e-38 295 283
-0.02726784 0.648 -0.04885488 1.8432136e-38 296 283
-0.02613168 0.648 -0.04885488 1.8247386e-38 297 283
-0.025034092 0.64899999 -0.048930272 1.8247022e-38 298 283
-0.023859359 0.648 -0.04885488 1.7877881e-38 299 283
-0.0227232 0.648 -0.04885488 1.7877162e-38 300 283
-0.021553727 0.64700001 -0.048779488 1.7969357e-38 301 283
-0.02041932 0.64700001 -0.048779488 1.8337785e-38 302 283
-0.019284913 0.64700001 -0.048779488 1.8429981e-38 303 283
-0.018150507 0.64700001 -0.048779488 1.8246319e-38 304 283
-0.0170161 0.64700001 -0.048779488 1.8338516e-38 305 283
-0.015881693 0.64700001 -0.048779488 1.8245968e-38 306 283
-0.014770079 0.648 -0.04885488 1.8338165e-38 307 283
-0.01363392 0.648 -0.04885488 1.8245965e-38 308 283
-0.012517046 0.64899999 -0.048930272 1.815377e-38 309 283
-0.011379133 0.64899999 -0.048930272 1.796936e-38 310 283
-0.01024122 0.64899999 -0.048930272 1.7784968e-38 311 283
-0.0091033066 0.64899999 -0.048930272 1.7692413e-38 312 283
-0.0079653924 0.64899999 -0.048930272 1.7877165e-38 313 283
-0.0068274797 0.64899999 -0.048930272 1.7601313e-38 314 283
-0.005698333 0.64999998 -0.049005665 1.7416921e-38 315 283
-0.0045516533 0.64899999 -0.048930272 1.7233596e-38 316 283
-0.0034137398 0.64899999 -0.048930272 1.7048846e-38 317 283
-0.0022793331 0.64999998 -0.049005665 1.6773338e-38 318 283
-0.0011379133 0.64899999 -0.048930272 1.6681141e-38 319 283
0 0.64899999 -0.048930272 1.6496041e-38 320 283
0.0011396665 0.64999998 -0.049005665 1.6219814e-38 321 283
0.0022793331 0.64999998 -0.049005665 1.622018e-38 322 283
0.0034189997 0.64999998 -0.049005665 1.622018e-38 323 283
0.0045726933 0.65200001 -0.049156453 1.5944319e-38 324 283
0.0057158666 0.65200001 -0.049156453 1.5852123e-38 325 283
0.0068695596 0.653 -0.049231846 1.5759925e-38 326 283
0.0080144862 0.653 -0.049231846 1.5759925e-38 327 283
0.0091594132 0.653 -0.049231846 1.5759555e-38 328 283
0.01028856 0.65200001 -0.049156453 1.5667359e-38 329 283
0.011431733 0.65200001 -0.049156453 1.5575526e-38 330 283
0.012574906 0.65200001 -0.049156453 1.5391495e-38 331 283
0.01371808 0.65200001 -0.049156453 1.520747e-38 332 283
0.014884046 0.653 -0.049231846 1.5115274e-38 333 283
0.01605352 0.65399998 -0.049307238 1.5115271e-38 334 283
0.017200198 0.65399998 -0.049307238 1.493124e-38 335 283
0.018374931 0.65499997 -0.049382631 1.5022708e-38 336 283
0.019523365 0.65499997 -0.049382631 1.4930513e-38 337 283
0.020671798 0.65499997 -0.049382631 1.4655002e-38 338 283
0.021886859 0.65700001 -0.049533416 1.4470611e-38 339 283
0.023038799 0.65700001 -0.049533416 1.4194027e-38 340 283
0.02422756 0.65799999 -0.049608808 1.4009636e-38 341 283
0.025381252 0.65799999 -0.049608808 1.3457555e-38 342 283
0.026575271 0.65899998 -0.049684204 1.3457555e-38 343 283
0.02781488 0.66100001 -0.049834993 1.3272456e-38 344 283
0.028973831 0.66100001 -0.049834993 1.3272456e-38 345 283
0.030178372 0.662 -0.049910385 1.3087711e-38 346 283
0.031386416 0.66299999 -0.049985778 1.3179907e-38 347 283
0.03259797 0.66399997 -0.05006117 1.2995163e-38 348 283
0.03386388 0.66600001 -0.050211959 1.2811132e-38 349 283
0.035031598 0.66600001 -0.050211959 1.2443075e-38 350 283
0.036253672 0.667 -0.050287351 1.2350878e-38 351 283
0.037479252 0.66799998 -0.050362743 1.1981386e-38 352 283
0.038766202 0.67000002 -0.050513536 1.2257973e-38 353 283
0.039940935 0.67000002 -0.050513536 1.2261566e-38 354 283
0.041177034 0.671 -0.050588924 1.2538154e-38 355 283
0.042416636 0.67199999 -0.050664317 1.290657e-38 356 283
0.043594878 0.67199999 -0.050664317 1.3090961e-38 357 283
0.044972997 0.67500001 -0.050890498 1.3366475e-38 358 283
0.046224877 0.676 -0.050965894 1.3366475e-38 359 283
0.047550395 0.67799997 -0.051116679 1.3089905e-38 360 283
0.048811045 0.67900002 -0.051192071 1.2721122e-38 361 283
0.050001562 0.67900002 -0.051192071 1.1157063e-38 362 283
0.051192071 0.67900002 -0.051192071 1.0880116e-38 363 283
0.052459732 0.68000001 -0.051267464 1.0697192e-38 364 283
-0.049991041 0.648 -0.049991041 1.8062683e-38 276 284
-0.048704095 0.64600003 -0.049836747 1.7786456e-38 277 284
-0.047571443 0.64600003 -0.049836747 1.815377e-38 278 284
-0.046510674 0.64700001 -0.049913891 1.815377e-38 279 284
-0.045376267 0.64700001 -0.049913891 1.8062996e-38 280 284
-0.044241857 0.64700001 -0.049913891 1.8155192e-38 281 284
-0.043107454 0.64700001 -0.049913891 1.797188e-38 282 284
-0.041973047 0.64700001 -0.049913891 1.797188e-38 283 284
-0.04083864 0.64700001 -0.049913891 1.8247389e-38 284 284
-0.039704233 0.64700001 -0.049913891 1.8247389e-38 285 284
-0.038569827 0.64700001 -0.049913891 1.8154473e-38 286 284
-0.03743542 0.64700001 -0.049913891 1.8246669e-38 287 284
-0.036301013 0.64700001 -0.049913891 1.8247389e-38 288 284
-0.035166606 0.64700001 -0.049913891 1.8339585e-38 289 284
-0.0340322 0.64700001 -0.049913891 1.8615451e-38 290 284
-0.032897793 0.64700001 -0.049913891 1.8615451e-38 291 284
-0.031763386 0.64700001 -0.049913891 1.8798042e-38 292 284
-0.030628979 0.64700001 -0.049913891 1.8798042e-38 293 284
-0.029494572 0.64700001 -0.049913891 1.8523253e-38 294 284
-0.028360168 0.64700001 -0.049913891 1.8523253e-38 295 284
-0.027225759 0.64700001 -0.049913891 1.8339588e-38 296 284
-0.026091354 0.64700001 -0.049913891 1.8154836e-38 297 284
-0.024995521 0.648 -0.049991041 1.824559e-38 298 284
-0.023859359 0.648 -0.049991041 1.824559e-38 299 284
-0.0227232 0.648 -0.049991041 1.8061912e-38 300 284
-0.021553727 0.64700001 -0.049913891 1.8061912e-38 301 284
-0.02041932 0.64700001 -0.049913891 1.8061556e-38 302 284
-0.019284913 0.64700001 -0.049913891 1.8245587e-38 303 284
-0.018150507 0.64700001 -0.049913891 1.7969729e-38 304 284
-0.016989801 0.64600003 -0.049836747 1.7969729e-38 305 284
-0.015857147 0.64600003 -0.049836747 1.8060855e-38 306 284
-0.014747286 0.64700001 -0.049913891 1.8060855e-38 307 284
-0.013612879 0.64700001 -0.049913891 1.787718e-38 308 284
-0.01249776 0.648 -0.049991041 1.7508398e-38 309 284
-0.0113616 0.648 -0.049991041 1.7324713e-38 310 284
-0.010225439 0.648 -0.049991041 1.7324713e-38 311 284
-0.0090892799 0.648 -0.049991041 1.732471e-38 312 284
-0.0079531204 0.648 -0.049991041 1.7416905e-38 313 284
-0.0068169599 0.648 -0.049991041 1.7048493e-38 314 284
-0.0056807999 0.648 -0.049991041 1.7048493e-38 315 284
-0.00454464 0.648 -0.049991041 1.6864456e-38 316 284
-0.00340848 0.648 -0.049991041 1.6587871e-38 317 284
-0.0022758266 0.64899999 -0.050068185 1.6771183e-38 318 284
-0.0011379133 0.64899999 -0.050068185 1.6586792e-38 319 284
0 0.64899999 -0.050068185 1.6035421e-38 320 284
0.0011379133 0.64899999 -0.050068185 1.5850671e-38 321 284
0.0022793331 0.64999998 -0.050145328 1.5759557e-38 322 284
0.0034189997 0.64999998 -0.050145328 1.5943589e-38 323 284
0.0045586661 0.64999998 -0.050145328 1.5575532e-38 324 284
0.005698333 0.64999998 -0.050145328 1.5575532e-38 325 284
0.0068590399 0.65200001 -0.050299626 1.5575529e-38 326 284
0.0080022132 0.65200001 -0.050299626 1.5391498e-38 327 284
0.0091453865 0.65200001 -0.050299626 1.5482612e-38 328 284
0.01028856 0.65200001 -0.050299626 1.5482612e-38 329 284
0.011431733 0.65200001 -0.050299626 1.5207107e-38 330 284
0.012574906 0.65200001 -0.050299626 1.5114552e-38 331 284
0.01371808 0.65200001 -0.050299626 1.4839043e-38 332 284
0.014884046 0.653 -0.050376773 1.4746847e-38 333 284
0.01605352 0.65399998 -0.050453916 1.4747564e-38 334 284
0.017200198 0.65399998 -0.050453916 1.4471337e-38 335 284
0.01834688 0.65399998 -0.050453916 1.4286222e-38 336 284
0.019523365 0.65499997 -0.050531063 1.4286222e-38 337 284
0.020671798 0.65499997 -0.050531063 1.4102547e-38 338 284
0.021886859 0.65700001 -0.050685361 1.3549373e-38 339 284
0.023038799 0.65700001 -0.050685361 1.3273868e-38 340 284
0.02422756 0.65799999 -0.050762504 1.3181314e-38 341 284
0.025381252 0.65799999 -0.050762504 1.3180613e-38 342 284
0.026575271 0.65899998 -0.050839648 1.3272809e-38 343 284
0.027730718 0.65899998 -0.050839648 1.2904402e-38 344 284
0.028973831 0.66100001 -0.050993945 1.2904402e-38 345 284
0.030178372 0.662 -0.051071092 1.2995163e-38 346 284
0.031386416 0.66299999 -0.051148236 1.2995163e-38 347 284
0.03259797 0.66399997 -0.051225383 1.2719652e-38 348 284
0.03386388 0.66600001 -0.051379681 1.2719652e-38 349 284
0.035031598 0.66600001 -0.051379681 1.2627103e-38 350 284
0.036253672 0.667 -0.051456824 1.2443072e-38 351 284
0.037479252 0.66799998 -0.051533967 1.2167933e-38 352 284
0.038766202 0.67000002 -0.051688269 1.244416e-38 353 284
0.040000543 0.671 -0.051765412 1.2354115e-38 354 284
0.041177034 0.671 -0.051765412 1.2630703e-38 355 284
0.042416636 0.67199999 -0.051842555 1.290657e-38 356 284
0.043594878 0.67199999 -0.051842555 1.2998765e-38 357 284
0.044972997 0.67500001 -0.052074 1.3090258e-38 358 284
0.046224877 0.676 -0.052151144 1.2813312e-38 359 284
0.047550395 0.67799997 -0.052305438 1.1706985e-38 360 284
0.048811045 0.67900002 -0.052382588 1.161479e-38 361 284
0.050001562 0.67900002 -0.052382588 1.0696822e-38 362 284
0.051192071 0.67900002 -0.052382588 1.0789019e-38 363 284
-0.057854742 0.64700001 -0.051048297 1.7235481e-38 269 285
-0.056720335 0.64700001 -0.051048297 1.7233272e-38 270 285
-0.055585928 0.64700001 -0.051048297 1.7233272e-38 271 285
-0.049913891 0.64700001 -0.051048297 1.8338884e-38 276 285
-0.048704095 0.64600003 -0.0509694 1.8338884e-38 277 285
-0.047571443 0.64600003 -0.0509694 1.8246683e-38 278 285
-0.046438787 0.64600003 -0.0509694 1.8246683e-38 279 285
-0.045376267 0.64700001 -0.051048297 1.8247389e-38 280 285
-0.044173479 0.64600003 -0.0509694 1.8247389e-38 281 285
-0.043040827 0.64600003 -0.0509694 1.8064077e-38 282 285
-0.041908171 0.64600003 -0.0509694 1.797188e-38 283 285
-0.040775519 0.64600003 -0.0509694 1.7971524e-38 284 285
-0.039642867 0.64600003 -0.0509694 1.7971524e-38 285 285
-0.038569827 0.64700001 -0.051048297 1.8062641e-38 286 285
-0.03743542 0.64700001 -0.051048297 1.8062641e-38 287 285
-0.036301013 0.64700001 -0.051048297 1.7879331e-38 288 285
-0.035112254 0.64600003 -0.0509694 1.7879331e-38 289 285
-0.033979602 0.64600003 -0.0509694 1.8429278e-38 290 285
-0.032846946 0.64600003 -0.0509694 1.8429278e-38 291 285
-0.031763386 0.64700001 -0.051048297 1.8154839e-38 292 285
-0.030581642 0.64600003 -0.0509694 1.8154839e-38 293 285
-0.029448988 0.64600003 -0.0509694 1.8247022e-38 294 285
-0.028316336 0.64600003 -0.0509694 1.8062631e-38 295 285
-0.027225759 0.64700001 -0.051048297 1.7786411e-38 296 285
-0.026091354 0.64700001 -0.051048297 1.7786411e-38 297 285
-0.024956945 0.64700001 -0.051048297 1.7970079e-38 298 285
-0.023822539 0.64700001 -0.051048297 1.7877884e-38 299 285
-0.022688134 0.64700001 -0.051048297 1.833742e-38 300 285
-0.021520413 0.64600003 -0.0509694 1.833742e-38 301 285
-0.020387759 0.64600003 -0.0509694 1.7877177e-38 302 285
-0.019255107 0.64600003 -0.0509694 1.7877177e-38 303 285
-0.018122453 0.64600003 -0.0509694 1.7601669e-38 304 285
-0.016989801 0.64600003 -0.0509694 1.7417277e-38 305 285
-0.015857147 0.64600003 -0.0509694 1.7601297e-38 306 285
-0.014724494 0.64600003 -0.0509694 1.7601297e-38 307 285
-0.01359184 0.64600003 -0.0509694 1.7324713e-38 308 285
-0.012459187 0.64600003 -0.0509694 1.7232158e-38 309 285
-0.011344067 0.64700001 -0.051048297 1.6956653e-38 310 285
-0.01020966 0.64700001 -0.051048297 1.6956653e-38 311 285
-0.0090752533 0.64700001 -0.051048297 1.6772985e-38 312 285
-0.0079408465 0.64700001 -0.051048297 1.6680788e-38 313 285
-0.0068169599 0.648 -0.051127199 1.6588239e-38 314 285
-0.0056807999 0.648 -0.051127199 1.6588239e-38 315 285
-0.00454464 0.648 -0.051127199 1.6403845e-38 316 285
-0.00340848 0.648 -0.051127199 1.6219814e-38 317 285
-0.00227232 0.648 -0.051127199 1.6127971e-38 318 285
-0.0011379133 0.64899999 -0.051206097 1.5851024e-38 319 285
0 0.64899999 -0.051206097 1.5574798e-38 320 285
0.0011379133 0.64899999 -0.051206097 1.5482602e-38 321 285
0.0022793331 0.64999998 -0.051284995 1.5207104e-38 322 285
0.0034189997 0.64999998 -0.051284995 1.52993e-38 323 285
0.0045586661 0.64999998 -0.051284995 1.5114921e-38 324 285
0.005698333 0.64999998 -0.051284995 1.5114921e-38 325 285
0.0068379994 0.64999998 -0.051284995 1.4931243e-38 326 285
0.0079776663 0.64999998 -0.051284995 1.4839046e-38 327 285
0.0091453865 0.65200001 -0.051442798 1.483904e-38 328 285
0.01028856 0.65200001 -0.051442798 1.483904e-38 329 285
0.011431733 0.65200001 -0.051442798 1.4746845e-38 330 285
0.012574906 0.65200001 -0.051442798 1.4654649e-38 331 285
0.01371808 0.65200001 -0.051442798 1.4471337e-38 332 285
0.014861252 0.65200001 -0.051442798 1.4286945e-38 333 285
0.01605352 0.65399998 -0.051600594 1.4194746e-38 334 285
0.017200198 0.65399998 -0.051600594 1.410255e-38 335 285
0.01834688 0.65399998 -0.051600594 1.3825614e-38 336 285
0.019493559 0.65399998 -0.051600594 1.3733419e-38 337 285
0.020671798 0.65499997 -0.051679496 1.3641236e-38 338 285
0.021820232 0.65499997 -0.051679496 1.3180616e-38 339 285
0.023038799 0.65700001 -0.051837299 1.2813276e-38 340 285
0.02422756 0.65799999 -0.051916201 1.2629244e-38 341 285
0.025381252 0.65799999 -0.051916201 1.2812201e-38 342 285
0.026575271 0.65899998 -0.051995095 1.2720005e-38 343 285
0.027730718 0.65899998 -0.051995095 1.2719652e-38 344 285
0.028973831 0.66100001 -0.052152898 1.2719652e-38 345 285
0.030178372 0.662 -0.0522318 1.2719655e-38 346 285
0.031386416 0.66299999 -0.052310698 1.2719655e-38 347 285
0.03259797 0.66399997 -0.052389596 1.2719652e-38 348 285
0.03386388 0.66600001 -0.052547399 1.2719652e-38 349 285
0.035031598 0.66600001 -0.052547399 1.281185e-38 350 285
0.036253672 0.667 -0.052626297 1.2719655e-38 351 285
0.037479252 0.66799998 -0.052705199 1.2812572e-38 352 285
0.038766202 0.67000002 -0.052863002 1.2812572e-38 353 285
0.040000543 0.671 -0.052941896 1.272182e-38 354 285
0.041177034 0.671 -0.052941896 1.2814015e-38 355 285
0.042416636 0.67199999 -0.053020798 1.2905861e-38 356 285
0.043594878 0.67199999 -0.053020798 1.2905861e-38 357 285
0.044972997 0.67500001 -0.053257499 1.2537457e-38 358 285
0.046224877 0.676 -0.053336397 1.2076478e-38 359 285
-0.062392361 0.64700001 -0.052182708 1.760357e-38 265 286
-0.061257958 0.64700001 -0.052182708 1.7878685e-38 266 286
-0.060030628 0.64600003 -0.052102055 1.7786489e-38 267 286
-0.058897976 0.64600003 -0.052102055 1.8062683e-38 268 286
-0.057765324 0.64600003 -0.052102055 1.7970487e-38 269 286
-0.056632672 0.64600003 -0.052102055 1.8245965e-38 270 286
-0.055328183 0.64399999 -0.051940747 1.8614748e-38 271 286
-0.054199036 0.64399999 -0.051940747 1.8247742e-38 272 286
-0.05306989 0.64399999 -0.051940747 1.8247742e-38 273 286
-0.051860094 0.64300001 -0.051860094 1.8522883e-38 274 286
-0.050732698 0.64300001 -0.051860094 1.8522883e-38 275 286
-0.049605306 0.64300001 -0.051860094 1.8430331e-38 276 286
-0.04847791 0.64300001 -0.051860094 1.8430331e-38 277 286
-0.047350518 0.64300001 -0.051860094 1.8429981e-38 278 286
-0.046223126 0.64300001 -0.051860094 1.8337785e-38 279 286
-0.045306131 0.64600003 -0.052102055 1.8521458e-38 280 286
-0.044036716 0.64399999 -0.051940747 1.8705849e-38 281 286
-0.042907573 0.64399999 -0.051940747 1.815447e-38 282 286
-0.041908171 0.64600003 -0.052102055 1.8062275e-38 283 286
-0.040775519 0.64600003 -0.052102055 1.8061559e-38 284 286
-0.039642867 0.64600003 -0.052102055 1.8061559e-38 285 286
-0.038510215 0.64600003 -0.052102055 1.7969363e-38 286 286
-0.037377559 0.64600003 -0.052102055 1.7969363e-38 287 286
-0.036244906 0.64600003 -0.052102055 1.8152675e-38 288 286
-0.035112254 0.64600003 -0.052102055 1.8152675e-38 289 286
-0.0338744 0.64399999 -0.051940747 1.8151601e-38 290 286
-0.032745253 0.64399999 -0.051940747 1.8151601e-38 291 286
-0.031714294 0.64600003 -0.052102055 1.8243799e-38 292 286
-0.030581642 0.64600003 -0.052102055 1.8151603e-38 293 286
-0.029448988 0.64600003 -0.052102055 1.7417261e-38 294 286
-0.028316336 0.64600003 -0.052102055 1.7324707e-38 295 286
-0.02718368 0.64600003 -0.052102055 1.7324341e-38 296 286
-0.026051028 0.64600003 -0.052102055 1.7600568e-38 297 286
-0.024918374 0.64600003 -0.052102055 1.7417258e-38 298 286
-0.023785722 0.64600003 -0.052102055 1.7232867e-38 299 286
-0.022653066 0.64600003 -0.052102055 1.7323988e-38 300 286
-0.021453787 0.64399999 -0.051940747 1.7323988e-38 301 286
-0.02032464 0.64399999 -0.051940747 1.6957001e-38 302 286
-0.019255107 0.64600003 -0.052102055 1.6864804e-38 303 286
-0.018122453 0.64600003 -0.052102055 1.6588574e-38 304 286
-0.016989801 0.64600003 -0.052102055 1.6588574e-38 305 286
-0.015857147 0.64600003 -0.052102055 1.6589649e-38 306 286
-0.014724494 0.64600003 -0.052102055 1.6497094e-38 307 286
-0.01359184 0.64600003 -0.052102055 1.6680047e-38 308 286
-0.012459187 0.64600003 -0.052102055 1.6680047e-38 309 286
-0.011326533 0.64600003 -0.052102055 1.6588221e-38 310 286
-0.01019388 0.64600003 -0.052102055 1.6588221e-38 311 286
-0.0090612266 0.64600003 -0.052102055 1.6219811e-38 312 286
-0.0079408465 0.64700001 -0.052182708 1.6219811e-38 313 286
-0.0068064397 0.64700001 -0.052182708 1.6219087e-38 314 286
-0.0056720334 0.64700001 -0.052182708 1.6219087e-38 315 286
-0.0045376266 0.64700001 -0.052182708 1.5943207e-38 316 286
-0.0034032199 0.64700001 -0.052182708 1.5851012e-38 317 286
-0.00227232 0.648 -0.05226336 1.6034677e-38 318 286
-0.00113616 0.648 -0.05226336 1.5849927e-38 319 286
0 0.64899999 -0.052344013 1.5113807e-38 320 286
0.0011379133 0.64899999 -0.052344013 1.5206361e-38 321 286
0.0022758266 0.64899999 -0.052344013 1.5297485e-38 322 286
0.0034189997 0.64999998 -0.052424666 1.5205289e-38 323 286
0.0045586661 0.64999998 -0.052424666 1.4930147e-38 324 286
0.005698333 0.64999998 -0.052424666 1.4837951e-38 325 286
0.0068379994 0.64999998 -0.052424666 1.4745397e-38 326 286
0.0079776663 0.64999998 -0.052424666 1.4469169e-38 327 286
0.0091453865 0.65200001 -0.052585974 1.4194377e-38 328 286
0.01028856 0.65200001 -0.052585974 1.4102181e-38 329 286
0.011431733 0.65200001 -0.052585974 1.3734125e-38 330 286
0.012574906 0.65200001 -0.052585974 1.382632e-38 331 286
0.01371808 0.65200001 -0.052585974 1.3457905e-38 332 286
0.014861252 0.65200001 -0.052585974 1.3181317e-38 333 286
0.016028972 0.653 -0.052666627 1.3181317e-38 334 286
0.017200198 0.65399998 -0.052747279 1.3089121e-38 335 286
0.01834688 0.65399998 -0.052747279 1.3179892e-38 336 286
0.019493559 0.65399998 -0.052747279 1.3179892e-38 337 286
0.020640239 0.65399998 -0.052747279 1.3271014e-38 338 286
0.021820232 0.65499997 -0.052827932 1.317846e-38 339 286
0.023038799 0.65700001 -0.052989237 1.2719637e-38 340 286
0.02422756 0.65799999 -0.05306989 1.2719637e-38 341 286
0.025381252 0.65799999 -0.05306989 1.2719639e-38 342 286
0.026575271 0.65899998 -0.053150542 1.2719639e-38 343 286
0.027730718 0.65899998 -0.053150542 1.262781e-38 344 286
0.028973831 0.66100001 -0.053311851 1.2720005e-38 345 286
0.030178372 0.662 -0.053392503 1.2536696e-38 346 286
0.031433757 0.66399997 -0.053553808 1.2536696e-38 347 286
0.03259797 0.66399997 -0.053553808 1.2536696e-38 348 286
0.03386388 0.66600001 -0.053715117 1.2628891e-38 349 286
0.035084199 0.667 -0.05379577 1.2812922e-38 350 286
0.036253672 0.667 -0.05379577 1.2812922e-38 351 286
0.037591465 0.67000002 -0.054037735 1.2905121e-38 352 286
0.038766202 0.67000002 -0.054037735 1.2997318e-38 353 286
0.040000543 0.671 -0.054118387 1.2813653e-38 354 286
0.041177034 0.671 -0.054118387 1.2905848e-38 355 286
0.042416636 0.67199999 -0.054199036 1.2813668e-38 356 286
0.043594878 0.67199999 -0.054199036 1.2444885e-38 357 286
-0.064661182 0.64700001 -0.053317111 1.7787585e-38 263 287
-0.063526772 0.64700001 -0.053317111 1.7602782e-38 264 287
-0.062392361 0.64700001 -0.053317111 1.704961e-38 265 287
-0.061163284 0.64600003 -0.053234708 1.7509116e-38 266 287
-0.060030628 0.64600003 -0.053234708 1.7693868e-38 267 287
-0.058897976 0.64600003 -0.053234708 1.8154473e-38 268 287
-0.057765324 0.64600003 -0.053234708 1.8246669e-38 269 287
-0.056457333 0.64399999 -0.05306989 1.8247019e-38 270 287
-0.055328183 0.64399999 -0.05306989 1.8247019e-38 271 287
-0.054199036 0.64399999 -0.05306989 1.8338492e-38 272 287
-0.052987486 0.64300001 -0.052987486 1.8430687e-38 273 287
-0.051860094 0.64300001 -0.052987486 1.8062994e-38 274 287
-0.050732698 0.64300001 -0.052987486 1.8062994e-38 275 287
-0.049605306 0.64300001 -0.052987486 1.7878256e-38 276 287
-0.04847791 0.64300001 -0.052987486 1.7878256e-38 277 287
-0.047350518 0.64300001 -0.052987486 1.7878612e-38 278 287
-0.046223126 0.64300001 -0.052987486 1.7786417e-38 279 287
-0.045095734 0.64300001 -0.052987486 1.7969713e-38 280 287
-0.044036716 0.64399999 -0.05306989 1.7969713e-38 281 287
-0.042907573 0.64399999 -0.05306989 1.760202e-38 282 287
-0.041778423 0.64399999 -0.05306989 1.7509823e-38 283 287
-0.04064928 0.64399999 -0.05306989 1.7235034e-38 284 287
-0.03952013 0.64399999 -0.05306989 1.6958448e-38 285 287
-0.038390987 0.64399999 -0.05306989 1.7417274e-38 286 287
-0.037261836 0.64399999 -0.05306989 1.7233243e-38 287 287
-0.036132693 0.64399999 -0.05306989 1.714141e-38 288 287
-0.035003547 0.64399999 -0.05306989 1.7049214e-38 289 287
-0.0338744 0.64399999 -0.05306989 1.7232514e-38 290 287
-0.032745253 0.64399999 -0.05306989 1.7232514e-38 291 287
-0.031616107 0.64399999 -0.05306989 1.7416187e-38 292 287
-0.03048696 0.64399999 -0.05306989 1.7416187e-38 293 287
-0.029357811 0.64399999 -0.05306989 1.7048127e-38 294 287
-0.028228667 0.64399999 -0.05306989 1.695593e-38 295 287
-0.027099518 0.64399999 -0.05306989 1.6681155e-38 296 287
-0.025970373 0.64399999 -0.05306989 1.6681155e-38 297 287
-0.024841227 0.64399999 -0.05306989 1.6680807e-38 298 287
-0.02371208 0.64399999 -0.05306989 1.6588253e-38 299 287
-0.022582933 0.64399999 -0.05306989 1.6497492e-38 300 287
-0.021453787 0.64399999 -0.05306989 1.6312741e-38 301 287
-0.02032464 0.64399999 -0.05306989 1.6587871e-38 302 287
-0.019195493 0.64399999 -0.05306989 1.6587871e-38 303 287
-0.018066347 0.64399999 -0.05306989 1.6404549e-38 304 287
-0.016989801 0.64600003 -0.053234708 1.6220517e-38 305 287
-0.015857147 0.64600003 -0.053234708 1.6036865e-38 306 287
-0.014724494 0.64600003 -0.053234708 1.6036865e-38 307 287
-0.01359184 0.64600003 -0.053234708 1.6035432e-38 308 287
-0.012459187 0.64600003 -0.053234708 1.6035432e-38 309 287
-0.011326533 0.64600003 -0.053234708 1.5852476e-38 310 287
-0.01019388 0.64600003 -0.053234708 1.575992e-38 311 287
-0.0090612266 0.64600003 -0.053234708 1.5759927e-38 312 287
-0.0079285735 0.64600003 -0.053234708 1.5667372e-38 313 287
-0.00679592 0.64600003 -0.053234708 1.5575532e-38 314 287
-0.0056632664 0.64600003 -0.053234708 1.5575532e-38 315 287
-0.0045306133 0.64600003 -0.053234708 1.548295e-38 316 287
-0.0034032199 0.64700001 -0.053317111 1.5298557e-38 317 287
-0.0022688133 0.64700001 -0.053317111 1.4931213e-38 318 287
-0.0011344067 0.64700001 -0.053317111 1.4931213e-38 319 287
0 0.64899999 -0.053481925 1.4653556e-38 320 287
0.0011379133 0.64899999 -0.053481925 1.4653556e-38 321 287
0.0022758266 0.64899999 -0.053481925 1.428622e-38 322 287
0.0034189997 0.64999998 -0.053564329 1.428622e-38 323 287
0.0045586661 0.64999998 -0.053564329 1.4011431e-38 324 287
0.005698333 0.64999998 -0.053564329 1.3734844e-38 325 287
0.0068379994 0.64999998 -0.053564329 1.3917775e-38 326 287
0.0079776663 0.64999998 -0.053564329 1.3825219e-38 327 287
0.0091173323 0.64999998 -0.053564329 1.3641206e-38 328 287
0.010256999 0.64999998 -0.053564329 1.3641206e-38 329 287
0.011396666 0.64999998 -0.053564329 1.3089146e-38 330 287
0.012574906 0.65200001 -0.053729147 1.3089146e-38 331 287
0.01371808 0.65200001 -0.053729147 1.3087008e-38 332 287
0.014861252 0.65200001 -0.053729147 1.3087008e-38 333 287
0.016028972 0.653 -0.05381155 1.2810784e-38 334 287
0.017200198 0.65399998 -0.053893957 1.2810784e-38 335 287
0.01834688 0.65399998 -0.053893957 1.2719302e-38 336 287
0.019493559 0.65399998 -0.053893957 1.2627106e-38 337 287
0.020640239 0.65399998 -0.053893957 1.2444497e-38 338 287
0.021820232 0.65499997 -0.053976361 1.2352302e-38 339 287
0.022968665 0.65499997 -0.053976361 1.2444127e-38 340 287
0.024190739 0.65700001 -0.054141179 1.2444127e-38 341 287
0.025381252 0.65799999 -0.054223582 1.2444848e-38 342 287
0.026575271 0.65899998 -0.054305989 1.2444848e-38 343 287
0.02781488 0.66100001 -0.054470807 1.2627807e-38 344 287
0.029017664 0.662 -0.054553211 1.2720361e-38 345 287
0.030223956 0.66299999 -0.054635618 1.253634e-38 346 287
0.031433757 0.66399997 -0.054718021 1.253634e-38 347 287
0.032696161 0.66600001 -0.054882839 1.2628891e-38 348 287
0.03386388 0.66600001 -0.054882839 1.2628891e-38 349 287
0.035084199 0.667 -0.054965243 1.2812922e-38 350 287
0.036253672 0.667 -0.054965243 1.2812922e-38 351 287
0.037479252 0.66799998 -0.05504765 1.2721453e-38 352 287
0.038766202 0.67000002 -0.055212468 1.2721453e-38 353 287
0.039940935 0.67000002 -0.055212468 1.2538157e-38 354 287
0.041115668 0.67000002 -0.055212468 1.244596e-38 355 287
0.042669121 0.676 -0.055706903 1.1892453e-38 356 287
-0.065795586 0.64700001 -0.054451518 1.7509146e-38 262 288
-0.064661182 0.64700001 -0.054451518 1.7693177e-38 263 288
-0.063428588 0.64600003 -0.05436736 1.7786079e-38 264 288
-0.062295936 0.64600003 -0.05436736 1.7878274e-38 265 288
-0.061163284 0.64600003 -0.05436736 1.8062293e-38 266 288
-0.05984477 0.64399999 -0.054199036 1.7878262e-38 267 288
-0.058715623 0.64399999 -0.054199036 1.815447e-38 268 288
-0.057497058 0.64300001 -0.054114878 1.815447e-38 269 288
-0.056369666 0.64300001 -0.054114878 1.8154826e-38 270 288
-0.05524227 0.64300001 -0.054114878 1.8154826e-38 271 288
-0.054114878 0.64300001 -0.054114878 1.8062631e-38 272 288
-0.052987486 0.64300001 -0.054114878 1.8062631e-38 273 288
-0.051860094 0.64300001 -0.054114878 1.7877518e-38 274 288
-0.050732698 0.64300001 -0.054114878 1.7877518e-38 275 288
-0.049605306 0.64300001 -0.054114878 1.760165e-38 276 288
-0.04847791 0.64300001 -0.054114878 1.7509454e-38 277 288
-0.047350518 0.64300001 -0.054114878 1.7417258e-38 278 288
-0.046223126 0.64300001 -0.054114878 1.7232867e-38 279 288
-0.045095734 0.64300001 -0.054114878 1.7048829e-38 280 288
-0.043968339 0.64300001 -0.054114878 1.6956633e-38 281 288
-0.042840946 0.64300001 -0.054114878 1.6957001e-38 282 288
-0.041713554 0.64300001 -0.054114878 1.6864804e-38 283 288
-0.040586159 0.64300001 -0.054114878 1.6496744e-38 284 288
-0.039458767 0.64300001 -0.054114878 1.6404549e-38 285 288
-0.038331371 0.64300001 -0.054114878 1.7047403e-38 286 288
-0.037203979 0.64300001 -0.054114878 1.7047403e-38 287 288
-0.036076587 0.64300001 -0.054114878 1.6771536e-38 288 288
-0.034949195 0.64300001 -0.054114878 1.6587145e-38 289 288
-0.033821799 0.64300001 -0.054114878 1.6220883e-38 290 288
-0.032694403 0.64300001 -0.054114878 1.6128687e-38 291 288
-0.031567011 0.64300001 -0.054114878 1.6403123e-38 292 288
-0.030439619 0.64300001 -0.054114878 1.6403123e-38 293 288
-0.029312227 0.64300001 -0.054114878 1.6310207e-38 294 288
-0.028184833 0.64300001 -0.054114878 1.6586794e-38 295 288
-0.027057439 0.64300001 -0.054114878 1.6586794e-38 296 288
-0.025930047 0.64300001 -0.054114878 1.6586794e-38 297 288
-0.024802653 0.64300001 -0.054114878 1.6403126e-38 298 288
-0.023675259 0.64300001 -0.054114878 1.6403126e-38 299 288
-0.022547867 0.64300001 -0.054114878 1.6127262e-38 300 288
-0.021420473 0.64300001 -0.054114878 1.6127262e-38 301 288
-0.020293079 0.64300001 -0.054114878 1.6310931e-38 302 288
-0.019165685 0.64300001 -0.054114878 1.6310931e-38 303 288
-0.018038293 0.64300001 -0.054114878 1.5759905e-38 304 288
-0.0169372 0.64399999 -0.054199036 1.5759905e-38 305 288
-0.015857147 0.64600003 -0.05436736 1.5943576e-38 306 288
-0.014678906 0.64399999 -0.054199036 1.5943576e-38 307 288
-0.013549759 0.64399999 -0.054199036 1.5851022e-38 308 288
-0.012420613 0.64399999 -0.054199036 1.5758826e-38 309 288
-0.011291467 0.64399999 -0.054199036 1.5851022e-38 310 288
-0.01016232 0.64399999 -0.054199036 1.5574795e-38 311 288
-0.0090331733 0.64399999 -0.054199036 1.5482615e-38 312 288
-0.0079040267 0.64399999 -0.054199036 1.5390419e-38 313 288
-0.00679592 0.64600003 -0.05436736 1.5114907e-38 314 288
-0.0056632664 0.64600003 -0.05436736 1.5114907e-38 315 288
-0.0045306133 0.64600003 -0.05436736 1.511381e-38 316 288
-0.0034032199 0.64700001 -0.054451518 1.4837583e-38 317 288
-0.0022688133 0.64700001 -0.054451518 1.474538e-38 318 288
-0.0011344067 0.64700001 -0.054451518 1.4653185e-38 319 288
0 0.64700001 -0.054451518 1.4468443e-38 320 288
0.00113616 0.648 -0.05453568 1.4375889e-38 321 288
0.0022758266 0.64899999 -0.054619838 1.4100384e-38 322 288
0.0034137398 0.64899999 -0.054619838 1.4008187e-38 323 288
0.0045586661 0.64999998 -0.054703996 1.3823421e-38 324 288
0.005698333 0.64999998 -0.054703996 1.3362802e-38 325 288
0.0068379994 0.64999998 -0.054703996 1.2994737e-38 326 288
0.0079776663 0.64999998 -0.054703996 1.2902541e-38 327 288
0.0091173323 0.64999998 -0.054703996 1.3178444e-38 328 288
0.010256999 0.64999998 -0.054703996 1.3178444e-38 329 288
0.011396666 0.64999998 -0.054703996 1.2902234e-38 330 288
0.012574906 0.65200001 -0.054872319 1.2810039e-38 331 288
0.01371808 0.65200001 -0.054872319 1.2809685e-38 332 288
0.014861252 0.65200001 -0.054872319 1.2809685e-38 333 288
0.016028972 0.653 -0.054956477 1.2809685e-38 334 288
0.017173899 0.653 -0.054956477 1.2809685e-38 335 288
0.01834688 0.65399998 -0.055040635 1.2626724e-38 336 288
0.019493559 0.65399998 -0.055040635 1.2626724e-38 337 288
0.020640239 0.65399998 -0.055040635 1.2535241e-38 338 288
0.021786919 0.65399998 -0.055040635 1.2535241e-38 339 288
0.022968665 0.65499997 -0.055124797 1.2444125e-38 340 288
0.024190739 0.65700001 -0.055293117 1.2444125e-38 341 288
0.025381252 0.65799999 -0.055377278 1.2444848e-38 342 288
0.026575271 0.65899998 -0.055461437 1.2444848e-38 343 288
0.02781488 0.66100001 -0.05562976 1.2720361e-38 344 288
0.029061496 0.66299999 -0.055798076 1.2720361e-38 345 288
0.030269546 0.66399997 -0.055882234 1.2720008e-38 346 288
0.031433757 0.66399997 -0.055882234 1.2812204e-38 347 288
0.032696161 0.66600001 -0.056050558 1.2628891e-38 348 288
0.03386388 0.66600001 -0.056050558 1.2812922e-38 349 288
0.035084199 0.667 -0.056134716 1.2812925e-38 350 288
0.036253672 0.667 -0.056134716 1.2905121e-38 351 288
0.037479252 0.66799998 -0.056218877 1.2629257e-38 352 288
0.038766202 0.67000002 -0.056387197 1.2721453e-38 353 288
0.039940935 0.67000002 -0.056387197 1.2261216e-38 354 288
0.041115668 0.67000002 -0.056387197 1.1892435e-38 355 288
0.042669121 0.676 -0.056892153 1.0695008e-38 356 288
-0.068064399 0.64700001 -0.055585928 1.7234704e-38 260 289
-0.066929989 0.64700001 -0.055585928 1.6958116e-38 261 289
-0.065795586 0.64700001 -0.055585928 1.7601299e-38 262 289
-0.064661182 0.64700001 -0.055585928 1.7877528e-38 263 289
-0.063428588 0.64600003 -0.055500012 1.7969729e-38 264 289
-0.062295936 0.64600003 -0.055500012 1.815412e-38 265 289
-0.06097392 0.64399999 -0.055328183 1.8154123e-38 266 289
-0.05984477 0.64399999 -0.055328183 1.7969373e-38 267 289
-0.058715623 0.64399999 -0.055328183 1.7786414e-38 268 289
-0.057497058 0.64300001 -0.05524227 1.7694218e-38 269 289
-0.056369666 0.64300001 -0.05524227 1.7692769e-38 270 289
-0.05524227 0.64300001 -0.05524227 1.7600574e-38 271 289
-0.054114878 0.64300001 -0.05524227 1.741689e-38 272 289
-0.052987486 0.64300001 -0.05524227 1.7232497e-38 273 289
-0.051779442 0.64200002 -0.055156358 1.6865507e-38 274 289
-0.0506538 0.64200002 -0.055156358 1.6773311e-38 275 289
-0.049528159 0.64200002 -0.055156358 1.6405255e-38 276 289
-0.048402522 0.64200002 -0.055156358 1.6128668e-38 277 289
-0.047276881 0.64200002 -0.055156358 1.6403813e-38 278 289
-0.046151239 0.64200002 -0.055156358 1.6311617e-38 279 289
-0.045025598 0.64200002 -0.055156358 1.6219419e-38 280 289
-0.043899957 0.64200002 -0.055156358 1.6219419e-38 281 289
-0.04277432 0.64200002 -0.055156358 1.6036122e-38 282 289
-0.041713554 0.64300001 -0.05524227 1.6036122e-38 283 289
-0.040586159 0.64300001 -0.05524227 1.5759908e-38 284 289
-0.039458767 0.64300001 -0.05524227 1.5667712e-38 285 289
-0.038331371 0.64300001 -0.05524227 1.6125813e-38 286 289
-0.037203979 0.64300001 -0.05524227 1.6125813e-38 287 289
-0.036076587 0.64300001 -0.05524227 1.5667712e-38 288 289
-0.034949195 0.64300001 -0.05524227 1.5759908e-38 289 289
-0.033769198 0.64200002 -0.055156358 1.5943591e-38 290 289
-0.03264356 0.64200002 -0.055156358 1.6035788e-38 291 289
-0.031567011 0.64300001 -0.05524227 1.6126559e-38 292 289
-0.030439619 0.64300001 -0.05524227 1.6126559e-38 293 289
-0.029266641 0.64200002 -0.055156358 1.6217664e-38 294 289
-0.028141001 0.64200002 -0.055156358 1.6217664e-38 295 289
-0.02701536 0.64200002 -0.055156358 1.5850674e-38 296 289
-0.025889721 0.64200002 -0.055156358 1.594287e-38 297 289
-0.02476408 0.64200002 -0.055156358 1.5667725e-38 298 289
-0.02363844 0.64200002 -0.055156358 1.5667725e-38 299 289
-0.022512799 0.64200002 -0.055156358 1.5667006e-38 300 289
-0.02138716 0.64200002 -0.055156358 1.5667006e-38 301 289
-0.020261521 0.64200002 -0.055156358 1.5667006e-38 302 289
-0.019135879 0.64200002 -0.055156358 1.557481e-38 303 289
-0.01801024 0.64200002 -0.055156358 1.5575161e-38 304 289
-0.016910899 0.64300001 -0.05524227 1.5482965e-38 305 289
-0.015808053 0.64399999 -0.055328183 1.5574798e-38 306 289
-0.014678906 0.64399999 -0.055328183 1.5482602e-38 307 289
-0.01352872 0.64300001 -0.05524227 1.5298572e-38 308 289
-0.012401327 0.64300001 -0.05524227 1.5114541e-38 309 289
-0.011291467 0.64399999 -0.055328183 1.5022708e-38 310 289
-0.01016232 0.64399999 -0.055328183 1.4930513e-38 311 289
-0.0090331733 0.64399999 -0.055328183 1.4746494e-38 312 289
-0.0079040267 0.64399999 -0.055328183 1.4654299e-38 313 289
-0.0067748795 0.64399999 -0.055328183 1.4837242e-38 314 289
-0.0056457333 0.64399999 -0.055328183 1.4745047e-38 315 289
-0.0045306133 0.64600003 -0.055500012 1.4560992e-38 316 289
-0.00339796 0.64600003 -0.055500012 1.4376242e-38 317 289
-0.0022653067 0.64600003 -0.055500012 1.4192211e-38 318 289
-0.0011326533 0.64600003 -0.055500012 1.3915622e-38 319 289
0 0.64700001 -0.055585928 1.3547213e-38 320 289
0.00113616 0.648 -0.055671841 1.3639408e-38 321 289
0.0022758266 0.64899999 -0.05575775 1.2903641e-38 322 289
0.0034137398 0.64899999 -0.05575775 1.2811445e-38 323 289
0.0045516533 0.64899999 -0.05575775 1.2811796e-38 324 289
0.005698333 0.64999998 -0.055843662 1.27196e-38 325 289
0.0068379994 0.64999998 -0.055843662 1.2901856e-38 326 289
0.0079776663 0.64999998 -0.055843662 1.2901856e-38 327 289
0.0091173323 0.64999998 -0.055843662 1.2351581e-38 328 289
0.010256999 0.64999998 -0.055843662 1.2259027e-38 329 289
0.011431733 0.65200001 -0.056015491 1.225903e-38 330 289
0.012574906 0.65200001 -0.056015491 1.225903e-38 331 289
0.01371808 0.65200001 -0.056015491 1.2442345e-38 332 289
0.014861252 0.65200001 -0.056015491 1.2442345e-38 333 289
0.016028972 0.653 -0.056101404 1.2442342e-38 334 289
0.017173899 0.653 -0.056101404 1.2534538e-38 335 289
0.01834688 0.65399998 -0.056187313 1.2442692e-38 336 289
0.019493559 0.65399998 -0.056187313 1.2535247e-38 337 289
0.020640239 0.65399998 -0.056187313 1.2351576e-38 338 289
0.021786919 0.65399998 -0.056187313 1.2351576e-38 339 289
0.022968665 0.65499997 -0.056273226 1.2628163e-38 340 289
0.024190739 0.65700001 -0.056445058 1.2628163e-38 341 289
0.025381252 0.65799999 -0.056530971 1.262816e-38 342 289
0.026575271 0.65899998 -0.056616884 1.2720355e-38 343 289
0.027856959 0.662 -0.056874625 1.2720361e-38 344 289
0.029061496 0.66299999 -0.056960538 1.2720361e-38 345 289
0.030269546 0.66399997 -0.057046451 1.2536696e-38 346 289
0.031433757 0.66399997 -0.057046451 1.2628891e-38 347 289
0.032696161 0.66600001 -0.057218276 1.2537059e-38 348 289
0.03386388 0.66600001 -0.057218276 1.2537059e-38 349 289
0.035031598 0.66600001 -0.057218276 1.2628904e-38 350 289
0.036253672 0.667 -0.057304189 1.2628904e-38 351 289
0.037479252 0.66799998 -0.057390101 1.2260491e-38 352 289
0.038766202 0.67000002 -0.057561934 1.1707676e-38 353 289
0.039940935 0.67000002 -0.057561934 1.1063418e-38 354 289
0.041115668 0.67000002 -0.057561934 1.0879027e-38 355 289
-0.072714239 0.648 -0.056808002 1.6958506e-38 256 290
-0.07168854 0.64899999 -0.056895666 1.6497886e-38 257 290
-0.070550621 0.64899999 -0.056895666 1.7048161e-38 258 290
-0.069305755 0.648 -0.056808002 1.7324749e-38 259 290
-0.068064399 0.64700001 -0.056720335 1.7327256e-38 260 290
-0.066929989 0.64700001 -0.056720335 1.7327256e-38 261 290
-0.065795586 0.64700001 -0.056720335 1.7694581e-38 262 290
-0.064661182 0.64700001 -0.056720335 1.751055e-38 263 290
-0.063428588 0.64600003 -0.056632672 1.7694218e-38 264 290
-0.062295936 0.64600003 -0.056632672 1.7878609e-38 265 290
-0.06097392 0.64399999 -0.056457333 1.7969726e-38 266 290
-0.05984477 0.64399999 -0.056457333 1.7601302e-38 267 290
-0.058715623 0.64399999 -0.056457333 1.7600574e-38 268 290
-0.057497058 0.64300001 -0.056369666 1.7323988e-38 269 290
-0.056369666 0.64300001 -0.056369666 1.6772605e-38 270 290
-0.05524227 0.64300001 -0.056369666 1.6496378e-38 271 290
-0.054114878 0.64300001 -0.056369666 1.6678595e-38 272 290
-0.052905083 0.64200002 -0.056282002 1.6310172e-38 273 290
-0.051779442 0.64200002 -0.056282002 1.5576202e-38 274 290
-0.0506538 0.64200002 -0.056282002 1.5576202e-38 275 290
-0.049528159 0.64200002 -0.056282002 1.53911e-38 276 290
-0.048402522 0.64200002 -0.056282002 1.5298904e-38 277 290
-0.047276881 0.64200002 -0.056282002 1.5206346e-38 278 290
-0.046151239 0.64200002 -0.056282002 1.5113791e-38 279 290
-0.045025598 0.64200002 -0.056282002 1.4930482e-38 280 290
-0.043899957 0.64200002 -0.056282002 1.4838286e-38 281 290
-0.04277432 0.64200002 -0.056282002 1.4929425e-38 282 290
-0.041648682 0.64200002 -0.056282002 1.5205652e-38 283 290
-0.040523041 0.64200002 -0.056282002 1.4930513e-38 284 290
-0.0393974 0.64200002 -0.056282002 1.4746482e-38 285 290
-0.038271759 0.64200002 -0.056282002 1.5297132e-38 286 290
-0.037146121 0.64200002 -0.056282002 1.5297132e-38 287 290
-0.03602048 0.64200002 -0.056282002 1.5022711e-38 288 290
-0.034894839 0.64200002 -0.056282002 1.5207104e-38 289 290
-0.033716597 0.64099997 -0.056194331 1.5391145e-38 290 290
-0.03259271 0.64099997 -0.056194331 1.5391145e-38 291 290
-0.031517919 0.64200002 -0.056282002 1.5574457e-38 292 290
-0.030392278 0.64200002 -0.056282002 1.5574457e-38 293 290
-0.029266641 0.64200002 -0.056282002 1.5665208e-38 294 290
-0.028141001 0.64200002 -0.056282002 1.5757404e-38 295 290
-0.02701536 0.64200002 -0.056282002 1.5390416e-38 296 290
-0.025889721 0.64200002 -0.056282002 1.5390416e-38 297 290
-0.02476408 0.64200002 -0.056282002 1.5299302e-38 298 290
-0.02363844 0.64200002 -0.056282002 1.5299302e-38 299 290
-0.022512799 0.64200002 -0.056282002 1.5207104e-38 300 290
-0.021353846 0.64099997 -0.056194331 1.5207104e-38 301 290
-0.020229958 0.64099997 -0.056194331 1.5207107e-38 302 290
-0.019135879 0.64200002 -0.056282002 1.5114552e-38 303 290
-0.01801024 0.64200002 -0.056282002 1.5114185e-38 304 290
-0.016884599 0.64200002 -0.056282002 1.502199e-38 305 290
-0.01575896 0.64200002 -0.056282002 1.5205658e-38 306 290
-0.01463332 0.64200002 -0.056282002 1.4836877e-38 307 290
-0.01352872 0.64300001 -0.056369666 1.4745397e-38 308 290
-0.012401327 0.64300001 -0.056369666 1.4745397e-38 309 290
-0.011273934 0.64300001 -0.056369666 1.4469519e-38 310 290
-0.01014654 0.64300001 -0.056369666 1.4377324e-38 311 290
-0.0090331733 0.64399999 -0.056457333 1.410146e-38 312 290
-0.0079040267 0.64399999 -0.056457333 1.410146e-38 313 290
-0.0067748795 0.64399999 -0.056457333 1.4375892e-38 314 290
-0.0056457333 0.64399999 -0.056457333 1.4099663e-38 315 290
-0.0045165867 0.64399999 -0.056457333 1.3824153e-38 316 290
-0.00339796 0.64600003 -0.056632672 1.3547207e-38 317 290
-0.0022653067 0.64600003 -0.056632672 1.3454294e-38 318 290
-0.0011326533 0.64600003 -0.056632672 1.3177348e-38 319 290
0 0.64600003 -0.056632672 1.271819e-38 320 290
0.0011344067 0.64700001 -0.056720335 1.2810386e-38 321 290
0.0022758266 0.64899999 -0.056895666 1.2349778e-38 322 290
0.0034137398 0.64899999 -0.056895666 1.2349778e-38 323 290
0.0045516533 0.64899999 -0.056895666 1.207462e-38 324 290
0.0056895665 0.64899999 -0.056895666 1.207462e-38 325 290
0.0068379994 0.64999998 -0.056983333 1.2350128e-38 326 290
0.0079776663 0.64999998 -0.056983333 1.2350128e-38 327 290
0.0091173323 0.64999998 -0.056983333 1.2074986e-38 328 290
0.010256999 0.64999998 -0.056983333 1.2074986e-38 329 290
0.011431733 0.65200001 -0.057158668 1.2074989e-38 330 290
0.012574906 0.65200001 -0.057158668 1.2074989e-38 331 290
0.01371808 0.65200001 -0.057158668 1.2166468e-38 332 290
0.014861252 0.65200001 -0.057158668 1.23505e-38 333 290
0.016028972 0.653 -0.057246335 1.23505e-38 334 290
0.017173899 0.653 -0.057246335 1.23505e-38 335 290
0.01834688 0.65399998 -0.057333998 1.2259736e-38 336 290
0.019493559 0.65399998 -0.057333998 1.2259736e-38 337 290
0.020640239 0.65399998 -0.057333998 1.2351932e-38 338 290
0.021820232 0.65499997 -0.057421666 1.2444127e-38 339 290
0.022968665 0.65499997 -0.057421666 1.2627807e-38 340 290
0.024190739 0.65700001 -0.057596996 1.2720361e-38 341 290
0.025381252 0.65799999 -0.057684667 1.2720361e-38 342 290
0.026655925 0.66100001 -0.057947662 1.2812557e-38 343 290
0.027856959 0.662 -0.058035329 1.2628889e-38 344 290
0.029061496 0.66299999 -0.058122993 1.2628889e-38 345 290
0.030269546 0.66399997 -0.05821066 1.2444866e-38 346 290
0.031433757 0.66399997 -0.05821066 1.2444866e-38 347 290
0.032696161 0.66600001 -0.058385998 1.2444513e-38 348 290
0.03386388 0.66600001 -0.058385998 1.2444513e-38 349 290
0.035031598 0.66600001 -0.058385998 1.2443088e-38 350 290
0.036253672 0.667 -0.058473662 1.2443088e-38 351 290
0.037479252 0.66799998 -0.058561329 1.1706988e-38 352 290
0.038766202 0.67000002 -0.058736663 1.0969423e-38 353 290
-0.081165306 0.65200001 -0.058301836 1.760721e-38 249 291
