# .PCD v.7 - Point Cloud Data file format
FIELDS x y z rgb imX imY
SIZE 4 4 4 4 4 4
TYPE F F F F F F
COUNT 1 1 1 1 1 1
WIDTH 847
HEIGHT 1
VIEWPOINT 0 0 0 1 0 0 0
POINTS 847
DATA ascii
0.042683143 0.71600002 -0.01506464 1.8984972e-38 354 252
0.044122629 0.71899998 -0.01512776 1.8800941e-38 355 252
0.045383278 0.71899998 -0.01512776 1.8709096e-38 356 252
0.046643924 0.71899998 -0.01512776 1.8524345e-38 357 252
0.04777132 0.71700001 -0.015085679 1.8157004e-38 358 252
0.04902846 0.71700001 -0.015085679 1.7880777e-38 359 252
0.050215468 0.71600002 -0.01506464 1.7603483e-38 360 252
0.051470853 0.71600002 -0.01506464 1.7327256e-38 361 252
0.052726239 0.71600002 -0.01506464 1.60387e-38 362 252
0.053981625 0.71600002 -0.01506464 1.5946505e-38 363 252
0.055237014 0.71600002 -0.01506464 1.5859421e-38 364 252
0.0027036399 0.77100003 -0.01757366 1.2908017e-38 322 253
0.0040449398 0.76899999 -0.017528072 1.3368637e-38 323 253
0.0053722127 0.76599997 -0.017459691 1.4011488e-38 324 253
0.0066714329 0.76099998 -0.017345725 1.4103685e-38 325 253
0.0079846792 0.759 -0.017300138 1.4656492e-38 326 253
0.0092909131 0.75700003 -0.017254554 1.493272e-38 327 253
0.010590133 0.755 -0.017208965 1.5392262e-38 328 253
0.01189812 0.75400001 -0.017186172 1.5299707e-38 329 253
0.013220133 0.75400001 -0.017186172 1.5574499e-38 330 253
0.014503572 0.75199997 -0.017140586 1.5758889e-38 331 253
0.01578 0.75 -0.017095 1.5851079e-38 332 253
0.017072206 0.74900001 -0.017072206 1.6035829e-38 333 253
0.018336359 0.74699998 -0.017026618 1.5943628e-38 334 253
0.019619798 0.74599999 -0.017003827 1.6128378e-38 335 253
0.020815572 0.74199998 -0.016912652 1.6129095e-38 336 253
0.02208674 0.741 -0.016889861 1.6221291e-38 337 253
0.023291279 0.73799998 -0.016821479 1.6130527e-38 338 253
0.024518613 0.736 -0.016775893 1.6314559e-38 339 253
0.025738932 0.73400003 -0.016730307 1.6498934e-38 340 253
0.026915418 0.73100001 -0.016661927 1.7052108e-38 341 253
0.028197108 0.73100001 -0.016661927 1.7420521e-38 342 253
0.029317487 0.727 -0.016570752 1.7788945e-38 343 253
0.030508002 0.72500002 -0.016525166 1.8340682e-38 344 253
0.03156 0.72000003 -0.0164112 1.861691e-38 345 253
0.0328224 0.72000003 -0.0164112 1.8709109e-38 346 253
0.033942781 0.71700001 -0.016342819 1.8801304e-38 347 253
0.035199918 0.71700001 -0.016342819 1.8617989e-38 348 253
0.036457058 0.71700001 -0.016342819 1.8617989e-38 349 253
0.037503798 0.713 -0.016251646 1.8802023e-38 350 253
0.038753927 0.713 -0.016251646 1.8802023e-38 351 253
0.040060159 0.71399999 -0.016274439 1.8894221e-38 352 253
0.041312039 0.71399999 -0.016274439 1.8894221e-38 353 253
0.042563915 0.71399999 -0.016274439 1.8802023e-38 354 253
0.043938532 0.71600002 -0.016320027 1.8617992e-38 355 253
0.045193922 0.71600002 -0.016320027 1.8525793e-38 356 253
0.046449307 0.71600002 -0.016320027 1.8433598e-38 357 253
0.047704693 0.71600002 -0.016320027 1.8341401e-38 358 253
0.048960082 0.71600002 -0.016320027 1.815701e-38 359 253
0.050215468 0.71600002 -0.016320027 1.7422689e-38 360 253
0.051470853 0.71600002 -0.016320027 1.7053906e-38 361 253
0.052726239 0.71600002 -0.016320027 1.6959931e-38 362 253
0.053830836 0.71399999 -0.016274439 1.6314561e-38 363 253
0.05508272 0.71399999 -0.016274439 1.4936726e-38 364 253
0.0563346 0.71399999 -0.016274439 1.6872834e-38 365 253
0.0053792265 0.76700002 -0.018827293 1.3183174e-38 324 254
0.0066714329 0.76099998 -0.018680012 1.3551955e-38 325 254
0.0079846792 0.759 -0.01863092 1.4196605e-38 326 254
0.0092909131 0.75700003 -0.018581826 1.4473192e-38 327 254
0.010590133 0.755 -0.018532733 1.5023499e-38 328 254
0.01189812 0.75400001 -0.018508185 1.4746552e-38 329 254
0.013220133 0.75400001 -0.018508185 1.4839103e-38 330 254
0.014503572 0.75199997 -0.018459093 1.4931299e-38 331 254
0.01578 0.75 -0.018409999 1.5023493e-38 332 254
0.017026618 0.74699998 -0.018336359 1.5300079e-38 333 254
0.018336359 0.74699998 -0.018336359 1.5484823e-38 334 254
0.019619798 0.74599999 -0.018311813 1.5577019e-38 335 254
0.020815572 0.74199998 -0.018213626 1.5853237e-38 336 254
0.02208674 0.741 -0.018189078 1.6037628e-38 337 254
0.023228159 0.736 -0.018066347 1.6038697e-38 338 254
0.024451986 0.73400003 -0.018017253 1.6130893e-38 339 254
0.025703866 0.73299998 -0.017992707 1.6223795e-38 340 254
0.026804959 0.72799999 -0.017869972 1.6592219e-38 341 254
0.028081384 0.72799999 -0.017869972 1.7327266e-38 342 254
0.029317487 0.727 -0.017845426 1.7788244e-38 343 254
0.030381758 0.722 -0.017722692 1.8065189e-38 344 254
0.03156 0.72000003 -0.017673599 1.8249582e-38 345 254
0.032640055 0.71600002 -0.017575413 1.8708755e-38 346 254
0.03389544 0.71600002 -0.017575413 1.8708755e-38 347 254
0.035003547 0.713 -0.017501773 1.8617992e-38 348 254
0.036151983 0.71100003 -0.01745268 1.8617992e-38 349 254
0.037345998 0.70999998 -0.017428132 1.8618714e-38 350 254
0.038482159 0.708 -0.017379038 1.8710909e-38 351 254
0.039723519 0.708 -0.017379038 1.8894221e-38 352 254
0.040964879 0.708 -0.017379038 1.8802026e-38 353 254
0.042206239 0.708 -0.017379038 1.8893856e-38 354 254
0.043631699 0.71100003 -0.01745268 1.880166e-38 355 254
0.045067675 0.71399999 -0.017526319 1.8709462e-38 356 254
0.046319555 0.71399999 -0.017526319 1.8617266e-38 357 254
0.047571439 0.71399999 -0.017526319 1.8341398e-38 358 254
0.048823316 0.71399999 -0.017526319 1.8249202e-38 359 254
0.050075196 0.71399999 -0.017526319 1.7697831e-38 360 254
0.05132708 0.71399999 -0.017526319 1.7513439e-38 361 254
0.052726239 0.71600002 -0.017575413 1.7328341e-38 362 254
0.053830836 0.71399999 -0.017526319 1.6775168e-38 363 254
0.05508272 0.71399999 -0.017526319 1.5394795e-38 364 254
0.0563346 0.71399999 -0.017526319 1.613236e-38 365 254
0.0066714329 0.76099998 -0.020014299 1.2907308e-38 325 255
0.0079846792 0.759 -0.0199617 1.3459037e-38 326 255
0.0092663663 0.755 -0.0198565 1.3643429e-38 327 255
0.010590133 0.755 -0.0198565 1.428665e-38 328 255
0.01189812 0.75400001 -0.019830201 1.428665e-38 329 255
0.013220133 0.75400001 -0.019830201 1.465399e-38 330 255
0.014503572 0.75199997 -0.0197776 1.465399e-38 331 255
0.01578 0.75 -0.019724999 1.4561792e-38 332 255
0.017026618 0.74699998 -0.019646099 1.5022769e-38 333 255
0.018336359 0.74699998 -0.019646099 1.5485539e-38 334 255
0.019619798 0.74599999 -0.019619798 1.5485539e-38 335 255
0.020815572 0.74199998 -0.0195146 1.6036547e-38 336 255
0.02208674 0.741 -0.019488299 1.6128742e-38 337 255
0.023228159 0.736 -0.019356798 1.6037979e-38 338 255
0.024418673 0.73299998 -0.019277899 1.6314205e-38 339 255
0.025633732 0.73100001 -0.019225299 1.6499306e-38 340 255
0.026804959 0.72799999 -0.0191464 1.6683698e-38 341 255
0.028081384 0.72799999 -0.0191464 1.7144309e-38 342 255
0.029317487 0.727 -0.019120099 1.7604929e-38 343 255
0.030381758 0.722 -0.0189886 1.8156303e-38 344 255
0.031296998 0.71399999 -0.018778199 1.8340696e-38 345 255
0.032503292 0.713 -0.018751899 1.8616916e-38 346 255
0.033658739 0.71100003 -0.0186993 1.8709111e-38 347 255
0.034856264 0.70999998 -0.018672999 1.8709106e-38 348 255
0.036101133 0.70999998 -0.018672999 1.880166e-38 349 255
0.037188202 0.70700002 -0.018594101 1.8802379e-38 350 255
0.038427804 0.70700002 -0.018594101 1.8802379e-38 351 255
0.039667413 0.70700002 -0.018594101 1.8894219e-38 352 255
0.040849157 0.70599997 -0.018567799 1.8894219e-38 353 255
0.042087011 0.70599997 -0.018567799 1.8893503e-38 354 255
0.043386232 0.70700002 -0.018594101 1.8893503e-38 355 255
0.044815198 0.70999998 -0.018672999 1.8617639e-38 356 255
0.046060063 0.70999998 -0.018672999 1.8525443e-38 357 255
0.047371563 0.71100003 -0.0186993 1.8433969e-38 358 255
0.048754938 0.713 -0.018751899 1.8157384e-38 359 255
0.050005067 0.713 -0.018751899 1.7790042e-38 360 255
0.05132708 0.71399999 -0.018778199 1.760565e-38 361 255
0.052578956 0.71399999 -0.018778199 1.7236875e-38 362 255
0.053830836 0.71399999 -0.018778199 1.6959928e-38 363 255
0.05508272 0.71399999 -0.018778199 1.631601e-38 364 255
0.0563346 0.71399999 -0.018778199 1.5670641e-38 365 255
0.0066714329 0.76099998 -0.021348584 1.2447056e-38 325 256
0.0079846792 0.759 -0.02129248 1.3090258e-38 326 256
0.0092663663 0.755 -0.021180267 1.3182453e-38 327 256
0.010590133 0.755 -0.021180267 1.3734192e-38 328 256
0.01189812 0.75400001 -0.021152213 1.3734192e-38 329 256
0.013220133 0.75400001 -0.021152213 1.4010419e-38 330 256
0.014503572 0.75199997 -0.021096105 1.3826028e-38 331 256
0.01578 0.75 -0.02104 1.3637313e-38 332 256
0.017026618 0.74699998 -0.020955838 1.4282683e-38 333 256
0.018336359 0.74699998 -0.020955838 1.474942e-38 334 256
0.019619798 0.74599999 -0.020927785 1.5026366e-38 335 256
0.020815572 0.74199998 -0.020815572 1.5760687e-38 336 256
0.02208674 0.741 -0.020787518 1.5760687e-38 337 256
0.023165042 0.73400003 -0.020591147 1.6037976e-38 338 256
0.024318734 0.73000002 -0.020478934 1.6314561e-38 339 256
0.025598666 0.73000002 -0.020478934 1.6315993e-38 340 256
0.026768139 0.727 -0.020394772 1.6500026e-38 341 256
0.028042812 0.727 -0.020394772 1.7051758e-38 342 256
0.029317487 0.727 -0.020394772 1.7604932e-38 343 256
0.030592158 0.727 -0.020394772 1.7972991e-38 344 256
0.031121666 0.70999998 -0.019917866 1.8157384e-38 345 256
0.032366529 0.70999998 -0.019917866 1.8709111e-38 346 256
0.033516716 0.708 -0.01986176 1.8709111e-38 347 256
0.034708988 0.70700002 -0.019833706 1.8709106e-38 348 256
0.035948593 0.70700002 -0.019833706 1.880166e-38 349 256
0.037135597 0.70599997 -0.019805651 1.880166e-38 350 256
0.038373452 0.70599997 -0.019805651 1.8893856e-38 351 256
0.039611302 0.70599997 -0.019805651 1.88935e-38 352 256
0.040733438 0.704 -0.019749546 1.88935e-38 353 256
0.041967787 0.704 -0.019749546 1.8893505e-38 354 256
0.043202132 0.704 -0.019749546 1.8800951e-38 355 256
0.044436477 0.704 -0.019749546 1.8800951e-38 356 256
0.045670826 0.704 -0.019749546 1.8708755e-38 357 256
0.047038425 0.70599997 -0.019805651 1.843325e-38 358 256
0.048549797 0.70999998 -0.019917866 1.8248499e-38 359 256
0.050005067 0.713 -0.020002026 1.7789323e-38 360 256
0.05132708 0.71399999 -0.020030079 1.7604932e-38 361 256
0.052284397 0.70999998 -0.019917866 1.7327987e-38 362 256
0.053529263 0.70999998 -0.019917866 1.7143956e-38 363 256
0.054774132 0.70999998 -0.019917866 1.6684773e-38 364 256
0.055782299 0.70700002 -0.019833706 1.6039404e-38 365 256
0.057021905 0.70700002 -0.019833706 1.5488089e-38 366 256
0.0079846792 0.759 -0.02262326 1.2722201e-38 326 257
0.0092909131 0.75700003 -0.022563647 1.2906232e-38 327 257
0.010590133 0.755 -0.022504034 1.3090611e-38 328 257
0.01189812 0.75400001 -0.022474226 1.3182806e-38 329 257
0.013220133 0.75400001 -0.022474226 1.3641631e-38 330 257
0.014503572 0.75199997 -0.022414612 1.3549434e-38 331 257
0.01578 0.75 -0.022355 1.3452198e-38 332 257
0.017072206 0.74900001 -0.022325192 1.3175971e-38 333 257
0.018336359 0.74699998 -0.022265578 1.3551586e-38 334 257
0.019619798 0.74599999 -0.022235774 1.4381347e-38 335 257
0.02087168 0.74400002 -0.022176161 1.5392981e-38 336 257
0.022176161 0.74400002 -0.022176161 1.5577372e-38 337 257
0.023038799 0.73000002 -0.021758866 1.594578e-38 338 257
0.024252106 0.72799999 -0.021699252 1.6314561e-38 339 257
0.025528532 0.72799999 -0.021699252 1.6499309e-38 340 257
0.026768139 0.727 -0.021669446 1.6591506e-38 341 257
0.028042812 0.727 -0.021669446 1.7052114e-38 342 257
0.029317487 0.727 -0.021669446 1.7512733e-38 343 257
0.02979264 0.708 -0.021103119 1.7973344e-38 344 257
0.030990168 0.70700002 -0.021073313 1.8157735e-38 345 257
0.032229774 0.70700002 -0.021073313 1.870839e-38 346 257
0.033422034 0.70599997 -0.021043506 1.8800585e-38 347 257
0.034659892 0.70599997 -0.021043506 1.8709106e-38 348 257
0.035796054 0.704 -0.020983893 1.8709106e-38 349 257
0.037030395 0.704 -0.020983893 1.898497e-38 350 257
0.038264744 0.704 -0.020983893 1.898497e-38 351 257
0.039442986 0.70300001 -0.020954086 1.880166e-38 352 257
0.040559858 0.70099998 -0.020894472 1.8893856e-38 353 257
0.041788943 0.70099998 -0.020894472 1.88935e-38 354 257
0.042956665 0.69999999 -0.020864666 1.8801304e-38 355 257
0.044183996 0.69999999 -0.020864666 1.8708755e-38 356 257
0.045476202 0.70099998 -0.020894472 1.861656e-38 357 257
0.046705291 0.70099998 -0.020894472 1.8157738e-38 358 257
0.048549797 0.70999998 -0.021162732 1.8157738e-38 359 257
0.049794663 0.70999998 -0.021162732 1.7790042e-38 360 257
0.050895758 0.708 -0.021103119 1.7421619e-38 361 257
0.052137118 0.708 -0.021103119 1.7236875e-38 362 257
0.053378478 0.708 -0.021103119 1.6959928e-38 363 257
0.054542694 0.70700002 -0.021073313 1.6683345e-38 364 257
0.055782299 0.70700002 -0.021073313 1.659115e-38 365 257
0.057021905 0.70700002 -0.021073313 1.594654e-38 366 257
0.010590133 0.755 -0.023827799 1.2445258e-38 328 258
0.011913899 0.755 -0.023827799 1.2721845e-38 329 258
0.013237666 0.755 -0.023827799 1.3272854e-38 330 258
0.014542146 0.75400001 -0.02379624 1.3272854e-38 331 258
0.015822079 0.75199997 -0.023733119 1.3455798e-38 332 258
0.017072206 0.74900001 -0.02363844 1.3087014e-38 333 258
0.018336359 0.74699998 -0.023575317 1.3087008e-38 334 258
0.019619798 0.74599999 -0.023543758 1.3732377e-38 335 258
0.020927785 0.74599999 -0.023543758 1.4840876e-38 336 258
0.022235774 0.74599999 -0.023543758 1.5486245e-38 337 258
0.023038799 0.73000002 -0.023038799 1.6038332e-38 338 258
0.024252106 0.72799999 -0.022975679 1.6314559e-38 339 258
0.025528532 0.72799999 -0.022975679 1.6499303e-38 340 258
0.026768139 0.727 -0.022944121 1.6499303e-38 341 258
0.028042812 0.727 -0.022944121 1.686772e-38 342 258
0.029317487 0.727 -0.022944121 1.7605285e-38 343 258
0.02979264 0.708 -0.022344479 1.7972623e-38 344 258
0.030946331 0.70599997 -0.022281358 1.8248849e-38 345 258
0.032093015 0.704 -0.022218239 1.8432878e-38 346 258
0.033280019 0.70300001 -0.02218668 1.861691e-38 347 258
0.034512613 0.70300001 -0.02218668 1.8617263e-38 348 258
0.035745207 0.70300001 -0.02218668 1.8617263e-38 349 258
0.036872596 0.70099998 -0.022123558 1.8984601e-38 350 258
0.038101684 0.70099998 -0.022123558 1.8984601e-38 351 258
0.039274666 0.69999999 -0.022091998 1.880201e-38 352 258
0.040386278 0.69800001 -0.02202888 1.880201e-38 353 258
0.041550495 0.69700003 -0.02199732 1.880166e-38 354 258
0.042772565 0.69700003 -0.02199732 1.8709106e-38 355 258
0.043994639 0.69700003 -0.02199732 1.8433601e-38 356 258
0.045281585 0.69800001 -0.02202888 1.8341404e-38 357 258
0.046505414 0.69800001 -0.02202888 1.8157735e-38 358 258
0.047729239 0.69800001 -0.02202888 1.806554e-38 359 258
0.048953064 0.69800001 -0.02202888 1.7697127e-38 360 258
0.050176892 0.69800001 -0.02202888 1.7512736e-38 361 258
0.052137118 0.708 -0.022344479 1.7053207e-38 362 258
0.053227689 0.70599997 -0.022281358 1.6868814e-38 363 258
0.054465543 0.70599997 -0.022281358 1.6591868e-38 364 258
0.055703394 0.70599997 -0.022281358 1.6499673e-38 365 258
0.056941248 0.70599997 -0.022281358 1.6223111e-38 366 258
0.058014292 0.704 -0.022218239 1.5854329e-38 367 258
0.015822079 0.75199997 -0.025051624 1.3549083e-38 332 259
0.017095 0.75 -0.024984999 1.3549083e-38 333 259
0.018385453 0.74900001 -0.024951685 1.3086995e-38 334 259
0.0196987 0.74900001 -0.024951685 1.2902604e-38 335 259
0.021011947 0.74900001 -0.024951685 1.4748665e-38 336 259
0.022325192 0.74900001 -0.024951685 1.5578426e-38 337 259
0.022975679 0.72799999 -0.024252106 1.5670991e-38 338 259
0.024252106 0.72799999 -0.024252106 1.5947578e-38 339 259
0.025528532 0.72799999 -0.024252106 1.6406754e-38 340 259
0.026768139 0.727 -0.024218792 1.6499309e-38 341 259
0.028042812 0.727 -0.024218792 1.6776247e-38 342 259
0.029317487 0.727 -0.024218792 1.7329421e-38 343 259
0.029624319 0.704 -0.023452586 1.788079e-38 344 259
0.030858666 0.704 -0.023452586 1.806554e-38 345 259
0.032047424 0.70300001 -0.023419274 1.8432524e-38 346 259
0.033137999 0.69999999 -0.023319334 1.8616916e-38 347 259
0.034365334 0.69999999 -0.023319334 1.861619e-38 348 259
0.035592664 0.69999999 -0.023319334 1.861619e-38 349 259
0.036819998 0.69999999 -0.023319334 1.8800936e-38 350 259
0.037938625 0.69800001 -0.023252707 1.8985325e-38 351 259
0.039106347 0.69700003 -0.023219392 1.8801654e-38 352 259
0.040270556 0.69599998 -0.023186078 1.8801654e-38 353 259
0.041490879 0.69599998 -0.023186078 1.880166e-38 354 259
0.042711195 0.69599998 -0.023186078 1.8709106e-38 355 259
0.043931518 0.69599998 -0.023186078 1.8616916e-38 356 259
0.045216713 0.69700003 -0.023219392 1.8340329e-38 357 259
0.046438783 0.69700003 -0.023219392 1.8156303e-38 358 259
0.047660861 0.69700003 -0.023219392 1.8156303e-38 359 259
0.048882935 0.69700003 -0.023219392 1.7788244e-38 360 259
0.050176892 0.69800001 -0.023252707 1.7788244e-38 361 259
0.051400717 0.69800001 -0.023252707 1.7236872e-38 362 259
0.052850723 0.70099998 -0.023352645 1.7052479e-38 363 259
0.054234106 0.70300001 -0.023419274 1.6683701e-38 364 259
0.0554667 0.70300001 -0.023419274 1.6591506e-38 365 259
0.056699295 0.70300001 -0.023419274 1.6498599e-38 366 259
0.058014292 0.704 -0.023452586 1.5761034e-38 367 259
0.059248637 0.704 -0.023452586 1.6134553e-38 368 259
0.017095 0.75 -0.0263 1.2813312e-38 333 260
0.018409999 0.75 -0.0263 1.3178841e-38 334 260
0.019724999 0.75 -0.0263 1.3732014e-38 335 260
0.02104 0.75 -0.0263 1.4563217e-38 336 260
0.027117053 0.70300001 -0.024651866 1.6775521e-38 342 260
0.028349647 0.70300001 -0.024651866 1.7513086e-38 343 260
0.029498078 0.70099998 -0.024581732 1.8063739e-38 344 260
0.030727165 0.70099998 -0.024581732 1.824813e-38 345 260
0.031910665 0.69999999 -0.024546666 1.852435e-38 346 260
0.033043321 0.69800001 -0.024476532 1.8616546e-38 347 260
0.034267146 0.69800001 -0.024476532 1.8708016e-38 348 260
0.035440128 0.69700003 -0.024441468 1.8800211e-38 349 260
0.036662199 0.69700003 -0.024441468 1.8709096e-38 350 260
0.037829921 0.69599998 -0.0244064 1.8801292e-38 351 260
0.038938027 0.69400001 -0.024336265 1.8801654e-38 352 260
0.040154841 0.69400001 -0.024336265 1.8801654e-38 353 260
0.041371655 0.69400001 -0.024336265 1.8709106e-38 354 260
0.042588469 0.69400001 -0.024336265 1.861691e-38 355 260
0.043805279 0.69400001 -0.024336265 1.8523997e-38 356 260
0.045022093 0.69400001 -0.024336265 1.8431801e-38 357 260
0.046238903 0.69400001 -0.024336265 1.8156291e-38 358 260
0.047455717 0.69400001 -0.024336265 1.7971541e-38 359 260
0.048812799 0.69599998 -0.0244064 1.7787875e-38 360 260
0.050033119 0.69599998 -0.0244064 1.7603483e-38 361 260
0.051253434 0.69599998 -0.0244064 1.7144309e-38 362 260
0.052624546 0.69800001 -0.024476532 1.7052114e-38 363 260
0.054079808 0.70099998 -0.024581732 1.6591856e-38 364 260
0.055308893 0.70099998 -0.024581732 1.6499659e-38 365 260
0.056537982 0.70099998 -0.024581732 1.6314912e-38 366 260
0.057931885 0.70300001 -0.024651866 1.5761738e-38 367 260
0.059164476 0.70300001 -0.024651866 1.5857594e-38 368 260
0.028349647 0.70300001 -0.025884461 1.7605285e-38 343 261
0.029582238 0.70300001 -0.025884461 1.8155935e-38 344 261
0.030727165 0.70099998 -0.025810819 1.8340685e-38 345 261
0.031819493 0.69800001 -0.025700359 1.8523994e-38 346 261
0.033043321 0.69800001 -0.025700359 1.8523994e-38 347 261
0.034168959 0.69599998 -0.025626717 1.870766e-38 348 261
0.035389278 0.69599998 -0.025626717 1.8799855e-38 349 261
0.036609598 0.69599998 -0.025626717 1.8709096e-38 350 261
0.037721213 0.69400001 -0.025553079 1.8801292e-38 351 261
0.03888192 0.69300002 -0.02551626 1.8801654e-38 352 261
0.04009698 0.69300002 -0.02551626 1.8709459e-38 353 261
0.041312039 0.69300002 -0.02551626 1.898497e-38 354 261
0.042527102 0.69300002 -0.02551626 1.8616546e-38 355 261
0.043742158 0.69300002 -0.02551626 1.8431799e-38 356 261
0.044957221 0.69300002 -0.02551626 1.8339603e-38 357 261
0.04617228 0.69300002 -0.02551626 1.8063739e-38 358 261
0.047387339 0.69300002 -0.02551626 1.7787511e-38 359 261
0.048672531 0.69400001 -0.025553079 1.760348e-38 360 261
0.050033119 0.69599998 -0.025626717 1.760348e-38 361 261
0.051253434 0.69599998 -0.025626717 1.7052108e-38 362 261
0.052473757 0.69599998 -0.025626717 1.6959913e-38 363 261
0.053848371 0.69800001 -0.025700359 1.6591853e-38 364 261
0.0550722 0.69800001 -0.025700359 1.640746e-38 365 261
0.056296028 0.69800001 -0.025700359 1.6130878e-38 366 261
0.057931885 0.70300001 -0.025884461 1.5669539e-38 367 261
0.059164476 0.70300001 -0.025884461 1.5764313e-38 368 261
0.06039707 0.70300001 -0.025884461 1.7608586e-38 369 261
0.028349647 0.70300001 -0.027117053 1.8156301e-38 343 262
0.029582238 0.70300001 -0.027117053 1.8155935e-38 344 262
0.030683333 0.69999999 -0.027001332 1.8340685e-38 345 262
0.031819493 0.69800001 -0.026924185 1.8524347e-38 346 262
0.032948639 0.69599998 -0.026847038 1.8616543e-38 347 262
0.034021679 0.69300002 -0.02673132 1.8799855e-38 348 262
0.035236739 0.69300002 -0.02673132 1.8892052e-38 349 262
0.036451802 0.69300002 -0.02673132 1.8800936e-38 350 262
0.03755815 0.69099998 -0.026654173 1.8800936e-38 351 262
0.038601387 0.68800002 -0.026538454 1.8800938e-38 352 262
0.039807681 0.68800002 -0.026538454 1.8800938e-38 353 262
0.041013971 0.68800002 -0.026538454 1.861691e-38 354 262
0.042404365 0.69099998 -0.026654173 1.8340682e-38 355 262
0.043552797 0.69 -0.026615599 1.8248486e-38 356 262
0.0447626 0.69 -0.026615599 1.8063736e-38 357 262
0.046039023 0.69099998 -0.026654173 1.7971897e-38 358 262
0.047250576 0.69099998 -0.026654173 1.769531e-38 359 262
0.048602402 0.69300002 -0.02673132 1.7604189e-38 360 262
0.049889345 0.69400001 -0.026769891 1.7511635e-38 361 262
0.051106159 0.69400001 -0.026769891 1.6960985e-38 362 262
0.052322973 0.69400001 -0.026769891 1.6776953e-38 363 262
0.053771228 0.69700003 -0.026885614 1.6499659e-38 364 262
0.054993302 0.69700003 -0.026885614 1.6407463e-38 365 262
0.056215372 0.69700003 -0.026885614 1.6038329e-38 366 262
0.05768466 0.69999999 -0.027001332 1.5669545e-38 367 262
0.058911994 0.69999999 -0.027001332 1.5212221e-38 368 262
0.05988159 0.69700003 -0.026885614 1.6686991e-38 369 262
0.020268533 0.68000001 -0.027422134 1.3460848e-38 337 263
0.0214608 0.68000001 -0.027422134 1.5945798e-38 338 263
0.025111238 0.68199998 -0.027502786 1.6315993e-38 341 263
0.028107686 0.69700003 -0.028107686 1.8155938e-38 343 263
0.02932976 0.69700003 -0.028107686 1.8156291e-38 344 263
0.030551834 0.69700003 -0.028107686 1.8340682e-38 345 263
0.03177391 0.69700003 -0.028107686 1.8341035e-38 346 263
0.03280662 0.69300002 -0.027946379 1.8341035e-38 347 263
0.033923492 0.69099998 -0.027865725 1.861654e-38 348 263
0.035135046 0.69099998 -0.027865725 1.8709096e-38 349 263
0.0361888 0.68800002 -0.027744746 1.8800936e-38 350 263
0.037395094 0.68800002 -0.027744746 1.8800936e-38 351 263
0.038545277 0.68699998 -0.027704418 1.861691e-38 352 263
0.039749816 0.68699998 -0.027704418 1.861691e-38 353 263
0.040954359 0.68699998 -0.027704418 1.8248839e-38 354 263
0.042220265 0.68800002 -0.027744746 1.7695666e-38 355 263
0.043426562 0.68800002 -0.027744746 1.7971176e-38 356 263
0.044632856 0.68800002 -0.027744746 1.7971176e-38 357 263
0.045839146 0.68800002 -0.027744746 1.7695315e-38 358 263
0.047182199 0.69 -0.027825398 1.7602761e-38 359 263
0.04846213 0.69099998 -0.027865725 1.7327969e-38 360 263
0.049817458 0.69300002 -0.027946379 1.7235774e-38 361 263
0.051032521 0.69300002 -0.027946379 1.67766e-38 362 263
0.05224758 0.69300002 -0.027946379 1.6592209e-38 363 263
0.053694077 0.69599998 -0.028067358 1.6499659e-38 364 263
0.054756597 0.69400001 -0.027986705 1.6314909e-38 365 263
0.055973411 0.69400001 -0.027986705 1.6038332e-38 366 263
0.05743745 0.69700003 -0.028107686 1.5485158e-38 367 263
0.05865952 0.69700003 -0.028107686 1.4292063e-38 368 263
0.05988159 0.69700003 -0.028107686 1.5490606e-38 369 263
0.061015997 0.69599998 -0.028067358 1.6966517e-38 370 263
0.020268533 0.68000001 -0.028614398 1.1710192e-38 337 264
0.0214608 0.68000001 -0.028614398 1.530258e-38 338 264
0.022719691 0.68199998 -0.02869856 1.5947949e-38 339 264
0.023915464 0.68199998 -0.02869856 1.6589706e-38 340 264
0.025111238 0.68199998 -0.02869856 1.6866295e-38 341 264
0.026307013 0.68199998 -0.02869856 1.7327619e-38 342 264
0.027502786 0.68199998 -0.02869856 1.7788597e-38 343 264
0.02932976 0.69700003 -0.02932976 1.8248486e-38 344 264
0.030551834 0.69700003 -0.02932976 1.8340682e-38 345 264
0.03177391 0.69700003 -0.02932976 1.8433231e-38 346 264
0.032711938 0.69099998 -0.029077278 1.8433231e-38 347 264
0.033776212 0.68800002 -0.028951041 1.8799855e-38 348 264
0.034931656 0.68699998 -0.028908957 1.8892052e-38 349 264
0.036136195 0.68699998 -0.028908957 1.8800938e-38 350 264
0.037286382 0.68599999 -0.02886688 1.8708743e-38 351 264
0.03848917 0.68599999 -0.02886688 1.861691e-38 352 264
0.039691959 0.68599999 -0.02886688 1.8340682e-38 353 264
0.040894743 0.68599999 -0.02886688 1.8155566e-38 354 264
0.042097531 0.68599999 -0.02886688 1.7510197e-38 355 264
0.043363437 0.68699998 -0.028908957 1.7693159e-38 356 264
0.044567976 0.68699998 -0.028908957 1.7877909e-38 357 264
0.045772515 0.68699998 -0.028908957 1.7510931e-38 358 264
0.047045439 0.68800002 -0.028951041 1.7510931e-38 359 264
0.048391998 0.69 -0.029035198 1.7327975e-38 360 264
0.049601797 0.69 -0.029035198 1.7235779e-38 361 264
0.050885238 0.69099998 -0.029077278 1.6684051e-38 362 264
0.052096792 0.69099998 -0.029077278 1.6591856e-38 363 264
0.053462639 0.69300002 -0.029161438 1.6407107e-38 364 264
0.054756597 0.69400001 -0.029203519 1.6130881e-38 365 264
0.055973411 0.69400001 -0.029203519 1.594543e-38 366 264
0.057190225 0.69400001 -0.029203519 1.5484452e-38 367 264
0.058407038 0.69400001 -0.029203519 1.3738538e-38 368 264
0.059795678 0.69599998 -0.029287677 1.4660492e-38 369 264
0.061015997 0.69599998 -0.029287677 1.6597008e-38 370 264
0.020268533 0.68000001 -0.029806666 1.1154865e-38 337 265
0.0214608 0.68000001 -0.029806666 1.3921442e-38 338 265
0.022719691 0.68199998 -0.029894331 1.5396931e-38 339 265
0.023915464 0.68199998 -0.029894331 1.6864498e-38 340 265
0.025111238 0.68199998 -0.029894331 1.7325118e-38 341 265
0.026307013 0.68199998 -0.029894331 1.742017e-38 342 265
0.027502786 0.68199998 -0.029894331 1.7788594e-38 343 265
0.02869856 0.68199998 -0.029894331 1.8432152e-38 344 265
0.030069664 0.68599999 -0.030069664 1.8524347e-38 345 265
0.031272452 0.68599999 -0.030069664 1.8524347e-38 346 265
0.032475237 0.68599999 -0.030069664 1.8616543e-38 347 265
0.033678025 0.68599999 -0.030069664 1.8799858e-38 348 265
0.034880809 0.68599999 -0.030069664 1.8892055e-38 349 265
0.036083598 0.68599999 -0.030069664 1.8617266e-38 350 265
0.037123326 0.68300003 -0.029938167 1.8617266e-38 351 265
0.038264744 0.68199998 -0.029894331 1.8432878e-38 352 265
0.039460517 0.68199998 -0.029894331 1.8340682e-38 353 265
0.040656291 0.68199998 -0.029894331 1.8063736e-38 354 265
0.041913435 0.68300003 -0.029938167 1.7695313e-38 355 265
0.043174081 0.68400002 -0.029982001 1.7601319e-38 356 265
0.04437336 0.68400002 -0.029982001 1.778571e-38 357 265
0.045705888 0.68599999 -0.030069664 1.7510565e-38 358 265
0.047045439 0.68800002 -0.030157333 1.7510565e-38 359 265
0.048251733 0.68800002 -0.030157333 1.7235779e-38 360 265
0.049458027 0.68800002 -0.030157333 1.7143225e-38 361 265
0.050664321 0.68800002 -0.030157333 1.6591856e-38 362 265
0.052021399 0.69 -0.030244999 1.6499659e-38 363 265
0.053308345 0.69099998 -0.030288832 1.6131599e-38 364 265
0.054677699 0.69300002 -0.0303765 1.6039404e-38 365 265
0.055892758 0.69300002 -0.0303765 1.5669918e-38 366 265
0.057107817 0.69300002 -0.0303765 1.5485527e-38 367 265
0.058407038 0.69400001 -0.030420333 1.392076e-38 368 265
0.059623852 0.69400001 -0.030420333 1.4289544e-38 369 265
0.060840666 0.69400001 -0.030420333 1.5953071e-38 370 265
0.020328145 0.68199998 -0.031090107 1.1891012e-38 337 266
0.021523919 0.68199998 -0.031090107 1.4102239e-38 338 266
0.022719691 0.68199998 -0.031090107 1.6038347e-38 339 266
0.023915464 0.68199998 -0.031090107 1.7232905e-38 340 266
0.025111238 0.68199998 -0.031090107 1.7878274e-38 341 266
0.026307013 0.68199998 -0.031090107 1.8064445e-38 342 266
0.027502786 0.68199998 -0.031090107 1.8156641e-38 343 266
0.02878272 0.68400002 -0.03118128 1.8431796e-38 344 266
0.029982001 0.68400002 -0.03118128 1.852435e-38 345 266
0.03118128 0.68400002 -0.03118128 1.8432878e-38 346 266
0.032333218 0.68300003 -0.031135695 1.8432878e-38 347 266
0.033530746 0.68300003 -0.031135695 1.8708387e-38 348 266
0.034677424 0.68199998 -0.031090107 1.8708387e-38 349 266
0.035873197 0.68199998 -0.031090107 1.8892058e-38 350 266
0.036960267 0.68000001 -0.030998932 1.8892058e-38 351 266
0.038152531 0.68000001 -0.030998932 1.8616543e-38 352 266
0.039344799 0.68000001 -0.030998932 1.8432152e-38 353 266
0.040537067 0.68000001 -0.030998932 1.85229e-38 354 266
0.041729335 0.68000001 -0.030998932 1.8061922e-38 355 266
0.043047838 0.68199998 -0.031090107 1.7969729e-38 356 266
0.044308487 0.68300003 -0.031135695 1.7969729e-38 357 266
0.045572639 0.68400002 -0.03118128 1.732725e-38 358 266
0.046977058 0.68699998 -0.031318039 1.732725e-38 359 266
0.048181597 0.68699998 -0.031318039 1.6684049e-38 360 266
0.049386136 0.68699998 -0.031318039 1.6684049e-38 361 266
0.050590675 0.68699998 -0.031318039 1.6316347e-38 362 266
0.051870614 0.68800002 -0.031363625 1.6223792e-38 363 266
0.053231198 0.69 -0.031454802 1.6039401e-38 364 266
0.054519895 0.69099998 -0.031500384 1.5947205e-38 365 266
0.055731449 0.69099998 -0.031500384 1.5946499e-38 366 266
0.056942999 0.69099998 -0.031500384 1.5024902e-38 367 266
0.058322877 0.69300002 -0.031591557 1.4012231e-38 368 266
0.05953794 0.69300002 -0.031591557 1.4381013e-38 369 266
0.060752999 0.69300002 -0.031591557 1.6043466e-38 370 266
0.061968062 0.69300002 -0.031591557 1.7334205e-38 371 266
0.02158704 0.68400002 -0.032380559 1.4747255e-38 338 267
0.022753006 0.68300003 -0.032333218 1.6222385e-38 339 267
0.023845334 0.68000001 -0.032191198 1.7234351e-38 340 267
0.025037598 0.68000001 -0.032191198 1.8156306e-38 341 267
0.026229866 0.68000001 -0.032191198 1.824813e-38 342 267
0.027341479 0.67799997 -0.03209652 1.8155935e-38 343 267
0.028530238 0.67799997 -0.03209652 1.8431796e-38 344 267
0.029718997 0.67799997 -0.03209652 1.852435e-38 345 267
0.031090107 0.68199998 -0.032285877 1.852435e-38 346 267
0.032285877 0.68199998 -0.032285877 1.8708743e-38 347 267
0.03348165 0.68199998 -0.032285877 1.8617266e-38 348 267
0.034575731 0.68000001 -0.032191198 1.8709462e-38 349 267
0.035715401 0.67900002 -0.032143861 1.8709106e-38 350 267
0.036905911 0.67900002 -0.032143861 1.861691e-38 351 267
0.038096428 0.67900002 -0.032143861 1.8616195e-38 352 267
0.039229076 0.67799997 -0.03209652 1.8523641e-38 353 267
0.040417835 0.67799997 -0.03209652 1.8155938e-38 354 267
0.041606598 0.67799997 -0.03209652 1.7971546e-38 355 267
0.042858478 0.67900002 -0.032143861 1.760348e-38 356 267
0.044048995 0.67900002 -0.032143861 1.7511284e-38 357 267
0.045439381 0.68199998 -0.032285877 1.7327975e-38 358 267
0.046771921 0.68400002 -0.032380559 1.7235779e-38 359 267
0.048111461 0.68599999 -0.032475237 1.6684051e-38 360 267
0.049314249 0.68599999 -0.032475237 1.6591856e-38 361 267
0.050590675 0.68699998 -0.032522578 1.6223795e-38 362 267
0.051795214 0.68699998 -0.032522578 1.6131599e-38 363 267
0.052999757 0.68699998 -0.032522578 1.576354e-38 364 267
0.054440998 0.69 -0.032664597 1.5855736e-38 365 267
0.055650797 0.69 -0.032664597 1.576319e-38 366 267
0.0568606 0.69 -0.032664597 1.4933069e-38 367 267
0.058070395 0.69 -0.032664597 1.4196249e-38 368 267
0.059280202 0.69 -0.032664597 1.4657227e-38 369 267
0.060489997 0.69 -0.032664597 1.6227485e-38 370 267
0.022586439 0.67799997 -0.033285279 1.6590449e-38 339 268
0.023775198 0.67799997 -0.033285279 1.7878274e-38 340 268
0.024963958 0.67799997 -0.033285279 1.8339253e-38 341 268
0.026152719 0.67799997 -0.033285279 1.8155935e-38 342 268
0.027260827 0.676 -0.033187091 1.824813e-38 343 268
0.028446076 0.676 -0.033187091 1.8523994e-38 344 268
0.029631332 0.676 -0.033187091 1.8523994e-38 345 268
0.030998932 0.68000001 -0.033383466 1.8616543e-38 346 268
0.032191198 0.68000001 -0.033383466 1.870874e-38 347 268
0.033383466 0.68000001 -0.033383466 1.861691e-38 348 268
0.034524884 0.67900002 -0.033334374 1.8709106e-38 349 268
0.0356628 0.67799997 -0.033285279 1.8616913e-38 350 268
0.036742851 0.676 -0.033187091 1.843288e-38 351 268
0.037928104 0.676 -0.033187091 1.8616195e-38 352 268
0.039113361 0.676 -0.033187091 1.8431445e-38 353 268
0.040298611 0.676 -0.033187091 1.8155216e-38 354 268
0.041483864 0.676 -0.033187091 1.806302e-38 355 268
0.042795356 0.67799997 -0.033285279 1.7696031e-38 356 268
0.043984115 0.67799997 -0.033285279 1.7603836e-38 357 268
0.045239504 0.67900002 -0.033334374 1.7235423e-38 358 268
0.046498399 0.68000001 -0.033383466 1.6959196e-38 359 268
0.047901068 0.68300003 -0.033530746 1.6500023e-38 360 268
0.049098592 0.68300003 -0.033530746 1.6223795e-38 361 268
0.05029612 0.68300003 -0.033530746 1.6131599e-38 362 268
0.051569041 0.68400002 -0.033579841 1.6131599e-38 363 268
0.05276832 0.68400002 -0.033579841 1.5763893e-38 364 268
0.054204296 0.68699998 -0.033727121 1.5671339e-38 365 268
0.055489492 0.68800002 -0.033776212 1.5669189e-38 366 268
0.056695789 0.68800002 -0.033776212 1.5116015e-38 367 268
0.057902083 0.68800002 -0.033776212 1.3828914e-38 368 268
0.059108373 0.68800002 -0.033776212 1.4474284e-38 369 268
0.060314666 0.68800002 -0.033776212 1.6594838e-38 370 268
0.021334561 0.676 -0.034372345 1.5942909e-38 338 269
0.022519812 0.676 -0.034372345 1.7326202e-38 339 269
0.023705067 0.676 -0.034372345 1.8338528e-38 340 269
0.024890319 0.676 -0.034372345 1.8338528e-38 341 269
0.026075572 0.676 -0.034372345 1.8156291e-38 342 269
0.027260827 0.676 -0.034372345 1.8156291e-38 343 269
0.028404001 0.67500001 -0.034321502 1.8523994e-38 344 269
0.0295875 0.67500001 -0.034321502 1.861619e-38 345 269
0.030771 0.67500001 -0.034321502 1.8708743e-38 346 269
0.032143861 0.67900002 -0.034524884 1.8708743e-38 347 269
0.033334374 0.67900002 -0.034524884 1.8617266e-38 348 269
0.034321502 0.67500001 -0.034321502 1.8617266e-38 349 269
0.035505001 0.67500001 -0.034321502 1.861691e-38 350 269
0.036688499 0.67500001 -0.034321502 1.8432878e-38 351 269
0.037871998 0.67500001 -0.034321502 1.8248133e-38 352 269
0.039055496 0.67500001 -0.034321502 1.8155938e-38 353 269
0.040238999 0.67500001 -0.034321502 1.7971546e-38 354 269
0.041422497 0.67500001 -0.034321502 1.7694959e-38 355 269
0.042669121 0.676 -0.034372345 1.742017e-38 356 269
0.043854371 0.676 -0.034372345 1.7327975e-38 357 269
0.045172878 0.67799997 -0.034474038 1.6959562e-38 358 269
0.046430022 0.67900002 -0.034524884 1.6775171e-38 359 269
0.047690667 0.68000001 -0.034575731 1.6315991e-38 360 269
0.049026705 0.68199998 -0.034677424 1.6131599e-38 361 269
0.050222475 0.68199998 -0.034677424 1.6039754e-38 362 269
0.051493648 0.68300003 -0.034728274 1.5947558e-38 363 269
0.05276832 0.68400002 -0.03477912 1.5855007e-38 364 269
0.053967599 0.68400002 -0.03477912 1.5486583e-38 365 269
0.055328183 0.68599999 -0.034880809 1.5025622e-38 366 269
0.056613375 0.68699998 -0.034931656 1.4472448e-38 367 269
0.057902083 0.68800002 -0.03498251 1.3553048e-38 368 269
0.059108373 0.68800002 -0.03498251 1.4567558e-38 369 269
0.060314666 0.68800002 -0.03498251 1.6503724e-38 370 269
0.020119499 0.67500001 -0.035505001 1.4104782e-38 337 270
0.021303 0.67500001 -0.035505001 1.7048887e-38 338 270
0.022486499 0.67500001 -0.035505001 1.7970843e-38 339 270
0.023669999 0.67500001 -0.035505001 1.8063376e-38 340 270
0.0248535 0.67500001 -0.035505001 1.8063376e-38 341 270
0.026037 0.67500001 -0.035505001 1.8156288e-38 342 270
0.027220501 0.67500001 -0.035505001 1.8248484e-38 343 270
0.02836192 0.67400002 -0.035452399 1.8433234e-38 344 270
0.029543666 0.67400002 -0.035452399 1.8433234e-38 345 270
0.030588651 0.671 -0.0352946 1.8617263e-38 346 270
0.031765141 0.671 -0.0352946 1.8617263e-38 347 270
0.032941625 0.671 -0.0352946 1.8617266e-38 348 270
0.034118112 0.671 -0.0352946 1.8433234e-38 349 270
0.035347197 0.67199999 -0.035347197 1.8432878e-38 350 270
0.036525436 0.67199999 -0.035347197 1.8340682e-38 351 270
0.037703678 0.67199999 -0.035347197 1.824813e-38 352 270
0.03888192 0.67199999 -0.035347197 1.7971544e-38 353 270
0.040060159 0.67199999 -0.035347197 1.7787511e-38 354 270
0.041361131 0.67400002 -0.035452399 1.7602761e-38 355 270
0.042606 0.67500001 -0.035505001 1.7327253e-38 356 270
0.043789499 0.67500001 -0.035505001 1.7142862e-38 357 270
0.045039624 0.676 -0.035557602 1.6682971e-38 358 270
0.046361636 0.67799997 -0.0356628 1.6682971e-38 359 270
0.047620531 0.67900002 -0.035715401 1.6131599e-38 360 270
0.048811045 0.67900002 -0.035715401 1.6039404e-38 361 270
0.050075196 0.68000001 -0.035767999 1.5855007e-38 362 270
0.051267464 0.68000001 -0.035767999 1.5855007e-38 363 270
0.052614026 0.68199998 -0.035873197 1.5486949e-38 364 270
0.053888701 0.68300003 -0.035925802 1.5025972e-38 365 270
0.055086225 0.68300003 -0.035925802 1.4657564e-38 366 270
0.056613375 0.68699998 -0.036136195 1.3919999e-38 367 270
0.057817914 0.68699998 -0.036136195 1.3185343e-38 368 270
0.059022456 0.68699998 -0.036136195 1.4660474e-38 369 270
0.060314666 0.68800002 -0.0361888 1.650444e-38 370 270
0.018851839 0.67199999 -0.036525436 1.4746902e-38 336 271
0.020119499 0.67500001 -0.036688499 1.5484826e-38 337 271
0.021303 0.67500001 -0.036688499 1.7970472e-38 338 271
0.022386558 0.67199999 -0.036525436 1.8154863e-38 339 271
0.023564799 0.67199999 -0.036525436 1.7971897e-38 340 271
0.024816679 0.67400002 -0.036634147 1.8064092e-38 341 271
0.025998428 0.67400002 -0.036634147 1.8248839e-38 342 271
0.027099518 0.67199999 -0.036525436 1.8341035e-38 343 271
0.028235679 0.671 -0.036471087 1.8433234e-38 344 271
0.029412165 0.671 -0.036471087 1.8617266e-38 345 271
0.030543067 0.67000002 -0.036416732 1.8617266e-38 346 271
0.031623118 0.66799998 -0.036308024 1.8617266e-38 347 271
0.032794341 0.66799998 -0.036308024 1.8433234e-38 348 271
0.033965573 0.66799998 -0.036308024 1.8433234e-38 349 271
0.035241999 0.67000002 -0.036416732 1.8340685e-38 350 271
0.036416732 0.67000002 -0.036416732 1.824813e-38 351 271
0.037591465 0.67000002 -0.036416732 1.8063739e-38 352 271
0.038824059 0.671 -0.036471087 1.7787511e-38 353 271
0.040000543 0.671 -0.036471087 1.7603117e-38 354 271
0.041238401 0.67199999 -0.036525436 1.7418367e-38 355 271
0.042542879 0.67400002 -0.036634147 1.7142862e-38 356 271
0.043724626 0.67400002 -0.036634147 1.695811e-38 357 271
0.044906374 0.67400002 -0.036634147 1.6314909e-38 358 271
0.046224877 0.676 -0.036742851 1.6314909e-38 359 271
0.047550395 0.67799997 -0.036851559 1.6039404e-38 360 271
0.048739154 0.67799997 -0.036851559 1.5946849e-38 361 271
0.050001562 0.67900002 -0.036905911 1.5670974e-38 362 271
0.051192071 0.67900002 -0.036905911 1.5578779e-38 363 271
0.052459732 0.68000001 -0.036960267 1.5210366e-38 364 271
0.053809796 0.68199998 -0.037068974 1.4933778e-38 365 271
0.055086225 0.68300003 -0.037123326 1.4565015e-38 366 271
0.056530971 0.68599999 -0.037286382 1.382745e-38 367 271
0.057733759 0.68599999 -0.037286382 1.3369385e-38 368 271
0.058936544 0.68599999 -0.037286382 1.4936351e-38 369 271
0.060139328 0.68599999 -0.037286382 1.6779952e-38 370 271
0.061342116 0.68599999 -0.037286382 1.7886658e-38 371 271
0.0176473 0.671 -0.037647571 1.6683058e-38 335 272
0.018851839 0.67199999 -0.037703678 1.64979e-38 336 272
0.020030079 0.67199999 -0.037703678 1.6774487e-38 337 272
0.021208318 0.67199999 -0.037703678 1.7787159e-38 338 272
0.022353247 0.671 -0.037647571 1.7787159e-38 339 272
0.023529733 0.671 -0.037647571 1.8064092e-38 340 272
0.024706218 0.671 -0.037647571 1.8156288e-38 341 272
0.025882706 0.671 -0.037647571 1.8248837e-38 342 272
0.027059194 0.671 -0.037647571 1.8341032e-38 343 272
0.028193599 0.67000002 -0.037591465 1.8616543e-38 344 272
0.029368332 0.67000002 -0.037591465 1.870874e-38 345 272
0.030406304 0.667 -0.037423145 1.861691e-38 346 272
0.03157578 0.667 -0.037423145 1.8432878e-38 347 272
0.032745253 0.667 -0.037423145 1.852435e-38 348 272
0.033914726 0.667 -0.037423145 1.8431796e-38 349 272
0.035084199 0.667 -0.037423145 1.8156291e-38 350 272
0.036253672 0.667 -0.037423145 1.8156291e-38 351 272
0.037591465 0.67000002 -0.037591465 1.7787511e-38 352 272
0.038824059 0.671 -0.037647571 1.7695315e-38 353 272
0.040000543 0.671 -0.037647571 1.7235057e-38 354 272
0.041238401 0.67199999 -0.037703678 1.7142862e-38 355 272
0.042416636 0.67199999 -0.037703678 1.6774798e-38 356 272
0.043594878 0.67199999 -0.037703678 1.6590407e-38 357 272
0.044773117 0.67199999 -0.037703678 1.6407095e-38 358 272
0.0461565 0.67500001 -0.037871998 1.6222345e-38 359 272
0.047410134 0.676 -0.037928104 1.5947558e-38 360 272
0.048595384 0.676 -0.037928104 1.5670972e-38 361 272
0.049927916 0.67799997 -0.038040318 1.5578776e-38 362 272
0.051116679 0.67799997 -0.038040318 1.548658e-38 363 272
0.052382588 0.67900002 -0.038096428 1.5026328e-38 364 272
0.053652 0.68000001 -0.038152531 1.4657546e-38 365 272
0.055166878 0.68400002 -0.038376961 1.4197303e-38 366 272
0.056530971 0.68599999 -0.03848917 1.3644488e-38 367 272
0.057565439 0.68400002 -0.038376961 1.3369382e-38 368 272
0.058764715 0.68400002 -0.038376961 1.530549e-38 369 272
0.060139328 0.68599999 -0.03848917 1.6779955e-38 370 272
0.061342116 0.68599999 -0.03848917 1.7701911e-38 371 272
0.01649536 0.67199999 -0.03888192 1.8158904e-38 334 273
0.0176473 0.671 -0.038824059 1.7329143e-38 335 273
0.018823786 0.671 -0.038824059 1.7510963e-38 336 273
0.020000271 0.671 -0.038824059 1.7510963e-38 337 273
0.021176759 0.671 -0.038824059 1.8063023e-38 338 273
0.022353247 0.671 -0.038824059 1.8155219e-38 339 273
0.023529733 0.671 -0.038824059 1.788113e-38 340 273
0.024706218 0.671 -0.038824059 1.8157357e-38 341 273
0.025882706 0.671 -0.038824059 1.8432502e-38 342 273
0.027018867 0.67000002 -0.038766202 1.8616893e-38 343 273
0.028109439 0.66799998 -0.038650475 1.8432878e-38 344 273
0.029192999 0.66600001 -0.03853476 1.8432878e-38 345 273
0.030269546 0.66399997 -0.038419038 1.8248855e-38 346 273
0.031433757 0.66399997 -0.038419038 1.8248855e-38 347 273
0.032696161 0.66600001 -0.03853476 1.8156301e-38 348 273
0.03386388 0.66600001 -0.03853476 1.7972269e-38 349 273
0.035031598 0.66600001 -0.03853476 1.8063742e-38 350 273
0.03619932 0.66600001 -0.03853476 1.7787155e-38 351 273
0.037423145 0.667 -0.038592618 1.7694959e-38 352 273
0.038650475 0.66799998 -0.038650475 1.7418373e-38 353 273
0.039940935 0.67000002 -0.038766202 1.7326177e-38 354 273
0.041115668 0.67000002 -0.038766202 1.704959e-38 355 273
0.042353518 0.671 -0.038824059 1.6498937e-38 356 273
0.043530006 0.671 -0.038824059 1.6314546e-38 357 273
0.044773117 0.67199999 -0.03888192 1.6038682e-38 358 273
0.0461565 0.67500001 -0.039055496 1.5946486e-38 359 273
0.047339998 0.67500001 -0.039055496 1.5579142e-38 360 273
0.048595384 0.676 -0.039113361 1.5486946e-38 361 273
0.049780637 0.676 -0.039113361 1.5210363e-38 362 273
0.050965894 0.676 -0.039113361 1.5025972e-38 363 273
0.052305438 0.67799997 -0.039229076 1.4565716e-38 364 273
0.053494196 0.67799997 -0.039229076 1.4381324e-38 365 273
0.055005573 0.68199998 -0.039460517 1.3737402e-38 366 273
0.056366164 0.68400002 -0.03957624 1.3276426e-38 367 273
0.057565439 0.68400002 -0.03957624 1.3645249e-38 368 273
0.058764715 0.68400002 -0.03957624 1.5673553e-38 369 273
0.060139328 0.68599999 -0.039691959 1.6779955e-38 370 273
0.061342116 0.68599999 -0.039691959 1.7241292e-38 371 273
0.01649536 0.67199999 -0.040060159 1.7973048e-38 334 274
0.017673599 0.67199999 -0.040060159 1.7419875e-38 335 274
0.018823786 0.671 -0.040000543 1.7970843e-38 336 274
0.020000271 0.671 -0.040000543 1.8063038e-38 337 274
0.021176759 0.671 -0.040000543 1.8063736e-38 338 274
0.022353247 0.671 -0.040000543 1.8063736e-38 339 274
0.023529733 0.671 -0.040000543 1.8248834e-38 340 274
0.024669399 0.67000002 -0.039940935 1.8248834e-38 341 274
0.025844134 0.67000002 -0.039940935 1.8616893e-38 342 274
0.026938211 0.66799998 -0.039821707 1.8616893e-38 343 274
0.028025279 0.66600001 -0.039702479 1.8433234e-38 344 274
0.029192999 0.66600001 -0.039702479 1.8340679e-38 345 274
0.030269546 0.66399997 -0.039583251 1.8340329e-38 346 274
0.031433757 0.66399997 -0.039583251 1.8248133e-38 347 274
0.032696161 0.66600001 -0.039702479 1.8063742e-38 348 274
0.033762183 0.66399997 -0.039583251 1.7971546e-38 349 274
0.0349264 0.66399997 -0.039583251 1.797082e-38 350 274
0.036090612 0.66399997 -0.039583251 1.7786429e-38 351 274
0.037367038 0.66600001 -0.039702479 1.7418723e-38 352 274
0.038592618 0.667 -0.039762091 1.723433e-38 353 274
0.039762091 0.667 -0.039762091 1.6958466e-38 354 274
0.040992931 0.66799998 -0.039821707 1.6681881e-38 355 274
0.042290401 0.67000002 -0.039940935 1.6497855e-38 356 274
0.043530006 0.671 -0.040000543 1.6221629e-38 357 274
0.044706494 0.671 -0.040000543 1.5854287e-38 358 274
0.045882981 0.671 -0.040000543 1.5762091e-38 359 274
0.047339998 0.67500001 -0.040238999 1.5669539e-38 360 274
0.048523501 0.67500001 -0.040238999 1.5485508e-38 361 274
0.049780637 0.676 -0.040298611 1.5025975e-38 362 274
0.050965894 0.676 -0.040298611 1.4657192e-38 363 274
0.052151144 0.676 -0.040298611 1.4380974e-38 364 274
0.053336397 0.676 -0.040298611 1.3919996e-38 365 274
0.054521654 0.676 -0.040298611 1.373598e-38 366 274
0.055706903 0.676 -0.040298611 1.355123e-38 367 274
0.057565439 0.68400002 -0.040775519 1.392113e-38 368 274
0.058936544 0.68599999 -0.040894743 1.5857238e-38 369 274
0.060139328 0.68599999 -0.040894743 1.6871797e-38 370 274
0.016470812 0.671 -0.041177034 1.7879389e-38 334 275
0.0176473 0.671 -0.041177034 1.7602803e-38 335 275
0.018795732 0.67000002 -0.041115668 1.7971546e-38 336 275
0.019970467 0.67000002 -0.041115668 1.8063742e-38 337 275
0.0211452 0.67000002 -0.041115668 1.8064445e-38 338 275
0.022319933 0.67000002 -0.041115668 1.8156641e-38 339 275
0.023529733 0.671 -0.041177034 1.8248834e-38 340 275
0.02452212 0.66600001 -0.040870197 1.8248834e-38 341 275
0.02568984 0.66600001 -0.040870197 1.8524345e-38 342 275
0.026857559 0.66600001 -0.040870197 1.861654e-38 343 275
0.027941117 0.66399997 -0.040747464 1.8340682e-38 344 275
0.02910533 0.66399997 -0.040747464 1.8248486e-38 345 275
0.030223956 0.66299999 -0.040686097 1.7972269e-38 346 275
0.031386416 0.66299999 -0.040686097 1.7972269e-38 347 275
0.03259797 0.66399997 -0.040747464 1.7695682e-38 348 275
0.033711337 0.66299999 -0.040686097 1.7603485e-38 349 275
0.034873798 0.66299999 -0.040686097 1.7510568e-38 350 275
0.036036257 0.66299999 -0.040686097 1.7418373e-38 351 275
0.037254825 0.66399997 -0.040747464 1.7233974e-38 352 275
0.03853476 0.66600001 -0.040870197 1.6865552e-38 353 275
0.039702479 0.66600001 -0.040870197 1.6407092e-38 354 275
0.040931564 0.667 -0.040931564 1.6222701e-38 355 275
0.042101037 0.667 -0.040931564 1.5946484e-38 356 275
0.043465134 0.67000002 -0.041115668 1.5762091e-38 357 275
0.044639867 0.67000002 -0.041115668 1.548623e-38 358 275
0.0458146 0.67000002 -0.041115668 1.5394034e-38 359 275
0.047269866 0.67400002 -0.041361131 1.5025975e-38 360 275
0.048523501 0.67500001 -0.041422497 1.5025975e-38 361 275
0.049706999 0.67500001 -0.041422497 1.4289855e-38 362 275
0.050890498 0.67500001 -0.041422497 1.4105463e-38 363 275
0.052151144 0.676 -0.041483864 1.3461188e-38 364 275
0.053336397 0.676 -0.041483864 1.3368993e-38 365 275
0.054521654 0.676 -0.041483864 1.3460482e-38 366 275
0.055706903 0.676 -0.041483864 1.3460482e-38 367 275
0.056892153 0.676 -0.041483864 1.4013695e-38 368 275
0.058077414 0.676 -0.041483864 1.5489184e-38 369 275
0.016470812 0.671 -0.042353518 1.7787172e-38 334 276
0.0176473 0.671 -0.042353518 1.7879726e-38 335 276
0.018795732 0.67000002 -0.042290401 1.8063739e-38 336 276
0.019970467 0.67000002 -0.042290401 1.8155935e-38 337 276
0.0211452 0.67000002 -0.042290401 1.8156285e-38 338 276
0.022319933 0.67000002 -0.042290401 1.8248839e-38 339 276
0.023494666 0.67000002 -0.042290401 1.8248839e-38 340 276
0.02433802 0.66100001 -0.04172232 1.8248839e-38 341 276
0.025496973 0.66100001 -0.04172232 1.8431799e-38 342 276
0.026655925 0.66100001 -0.04172232 1.8523994e-38 343 276
0.027856959 0.662 -0.041785441 1.8431801e-38 344 276
0.029017664 0.662 -0.041785441 1.8339247e-38 345 276
0.030223956 0.66299999 -0.041848559 1.7788231e-38 346 276
0.031386416 0.66299999 -0.041848559 1.7696034e-38 347 276
