# .PCD v.7 - Point Cloud Data file format
FIELDS x y z rgb imX imY
SIZE 4 4 4 4 4 4
TYPE F F F F F F
COUNT 1 1 1 1 1 1
WIDTH 843
HEIGHT 1
VIEWPOINT 0 0 0 1 0 0 0
POINTS 843
DATA ascii
0.020000271 0.671 -0.032941625 1.4562886e-38 337 268
0.021176759 0.671 -0.032941625 1.7233275e-38 338 268
0.022353247 0.671 -0.032941625 1.797084e-38 339 268
0.023529733 0.671 -0.032941625 1.8339953e-38 340 268
0.024816679 0.67400002 -0.033088908 1.8155922e-38 341 268
0.025998428 0.67400002 -0.033088908 1.8248837e-38 342 268
0.027180174 0.67400002 -0.033088908 1.8341032e-38 343 268
0.02827776 0.67199999 -0.03299072 1.8800211e-38 344 268
0.029455997 0.67199999 -0.03299072 1.8892408e-38 345 268
0.030771 0.67500001 -0.033137999 1.8892052e-38 346 268
0.032001842 0.676 -0.033187091 1.8892052e-38 347 268
0.033187091 0.676 -0.033187091 1.8708743e-38 348 268
0.034474038 0.67799997 -0.033285279 1.8708743e-38 349 268
0.0356628 0.67799997 -0.033285279 1.8524347e-38 350 268
0.036905911 0.67900002 -0.033334374 1.8339956e-38 351 268
0.038096428 0.67900002 -0.033334374 1.8245965e-38 352 268
0.039286941 0.67900002 -0.033334374 1.8061574e-38 353 268
0.040477451 0.67900002 -0.033334374 1.7694231e-38 354 268
0.041667968 0.67900002 -0.033334374 1.7694231e-38 355 268
0.042921599 0.68000001 -0.033383466 1.7327253e-38 356 268
0.044113863 0.68000001 -0.033383466 1.7235057e-38 357 268
0.045439381 0.68199998 -0.03348165 1.6867364e-38 358 268
0.04670354 0.68300003 -0.033530746 1.6682971e-38 359 268
0.0479712 0.68400002 -0.033579841 1.6315991e-38 360 268
0.049170479 0.68400002 -0.033579841 1.6223795e-38 361 268
0.050517038 0.68599999 -0.033678025 1.6131599e-38 362 268
0.051795214 0.68699998 -0.033727121 1.6039404e-38 363 268
0.052999757 0.68699998 -0.033727121 1.5946131e-38 364 268
0.054283202 0.68800002 -0.033776212 1.5669542e-38 365 268
0.055650797 0.69 -0.0338744 1.5392256e-38 366 268
0.0568606 0.69 -0.0338744 1.3640538e-38 367 268
0.058154557 0.69099998 -0.033923492 1.2906256e-38 368 268
0.059366114 0.69099998 -0.033923492 1.5764319e-38 369 268
0.060577665 0.69099998 -0.033923492 1.6689201e-38 370 268
0.017620999 0.67000002 -0.034067266 1.4655114e-38 335 269
0.018823786 0.671 -0.034118112 1.3918586e-38 336 269
0.020000271 0.671 -0.034118112 1.5209325e-38 337 269
0.021176759 0.671 -0.034118112 1.8154863e-38 338 269
0.022353247 0.671 -0.034118112 1.8339253e-38 339 269
0.023529733 0.671 -0.034118112 1.8156285e-38 340 269
0.024743039 0.67199999 -0.034168959 1.8156285e-38 341 269
0.025921278 0.67199999 -0.034168959 1.8431796e-38 342 269
0.027099518 0.67199999 -0.034168959 1.8616546e-38 343 269
0.02827776 0.67199999 -0.034168959 1.8708743e-38 344 269
0.029455997 0.67199999 -0.034168959 1.8708743e-38 345 269
0.030634239 0.67199999 -0.034168959 1.8892055e-38 346 269
0.03190716 0.67400002 -0.034270655 1.8799858e-38 347 269
0.033088908 0.67400002 -0.034270655 1.870874e-38 348 269
0.034270655 0.67400002 -0.034270655 1.8616543e-38 349 269
0.035505001 0.67500001 -0.034321502 1.8340679e-38 350 269
0.036742851 0.676 -0.034372345 1.8064092e-38 351 269
0.037928104 0.676 -0.034372345 1.797082e-38 352 269
0.039113361 0.676 -0.034372345 1.7878625e-38 353 269
0.040417835 0.67799997 -0.034474038 1.7603114e-38 354 269
0.041606598 0.67799997 -0.034474038 1.7510918e-38 355 269
0.042858478 0.67900002 -0.034524884 1.7143578e-38 356 269
0.044048995 0.67900002 -0.034524884 1.6959547e-38 357 269
0.045306131 0.68000001 -0.034575731 1.6866998e-38 358 269
0.046635158 0.68199998 -0.034677424 1.6682605e-38 359 269
0.047901068 0.68300003 -0.034728274 1.6131597e-38 360 269
0.049170479 0.68400002 -0.03477912 1.6131597e-38 361 269
0.050369758 0.68400002 -0.03477912 1.6039404e-38 362 269
0.051719822 0.68599999 -0.034880809 1.5946849e-38 363 269
0.052999757 0.68699998 -0.034931656 1.5578791e-38 364 269
0.054204296 0.68699998 -0.034931656 1.5118173e-38 365 269
0.055489492 0.68800002 -0.03498251 1.4657575e-38 366 269
0.056695789 0.68800002 -0.03498251 1.3090608e-38 367 269
0.058070395 0.69 -0.035084199 1.3274318e-38 368 269
0.059366114 0.69099998 -0.035135046 1.5855796e-38 369 269
0.017620999 0.67000002 -0.035241999 1.5763616e-38 335 270
0.018795732 0.67000002 -0.035241999 1.6037997e-38 336 270
0.019970467 0.67000002 -0.035241999 1.6591171e-38 337 270
0.0211452 0.67000002 -0.035241999 1.7880424e-38 338 270
0.022319933 0.67000002 -0.035241999 1.7788228e-38 339 270
0.023494666 0.67000002 -0.035241999 1.8248837e-38 340 270
0.024706218 0.671 -0.0352946 1.8248837e-38 341 270
0.025882706 0.671 -0.0352946 1.8433234e-38 342 270
0.027059194 0.671 -0.0352946 1.8709462e-38 343 270
0.028235679 0.671 -0.0352946 1.8708387e-38 344 270
0.029412165 0.671 -0.0352946 1.8708387e-38 345 270
0.030588651 0.671 -0.0352946 1.8892055e-38 346 270
0.031765141 0.671 -0.0352946 1.8799858e-38 347 270
0.032941625 0.671 -0.0352946 1.8433231e-38 348 270
0.034118112 0.671 -0.0352946 1.8341035e-38 349 270
0.035347197 0.67199999 -0.035347197 1.8248839e-38 350 270
0.036525436 0.67199999 -0.035347197 1.8064089e-38 351 270
0.037871998 0.67500001 -0.035505001 1.7971176e-38 352 270
0.039055496 0.67500001 -0.035505001 1.7878981e-38 353 270
0.040238999 0.67500001 -0.035505001 1.732725e-38 354 270
0.041483864 0.676 -0.035557602 1.7235055e-38 355 270
0.042795356 0.67799997 -0.0356628 1.7142862e-38 356 270
0.043984115 0.67799997 -0.0356628 1.7050665e-38 357 270
0.045172878 0.67799997 -0.0356628 1.6683324e-38 358 270
0.046430022 0.67900002 -0.035715401 1.6314543e-38 359 270
0.047830928 0.68199998 -0.035873197 1.5947205e-38 360 270
0.049026705 0.68199998 -0.035873197 1.5947205e-38 361 270
0.05029612 0.68300003 -0.035925802 1.5854654e-38 362 270
0.051493648 0.68300003 -0.035925802 1.5670621e-38 363 270
0.05276832 0.68400002 -0.035978399 1.5302209e-38 364 270
0.054125395 0.68599999 -0.036083598 1.4656839e-38 365 270
0.055328183 0.68599999 -0.036083598 1.4471391e-38 366 270
0.056530971 0.68599999 -0.036083598 1.3549434e-38 367 270
0.058070395 0.69 -0.036293998 1.3459075e-38 368 270
0.059280202 0.69 -0.036293998 1.6040553e-38 369 270
0.016372627 0.667 -0.036253672 1.7421692e-38 334 271
0.017568398 0.66799998 -0.036308024 1.6868518e-38 335 271
0.018739626 0.66799998 -0.036308024 1.7512033e-38 336 271
0.019910853 0.66799998 -0.036308024 1.7512033e-38 337 271
0.021082079 0.66799998 -0.036308024 1.7971894e-38 338 271
0.022319933 0.67000002 -0.036416732 1.8064089e-38 339 271
0.023494666 0.67000002 -0.036416732 1.8248837e-38 340 271
0.024669399 0.67000002 -0.036416732 1.8341032e-38 341 271
0.025844134 0.67000002 -0.036416732 1.8433234e-38 342 271
0.027018867 0.67000002 -0.036416732 1.8617266e-38 343 271
0.028193599 0.67000002 -0.036416732 1.861691e-38 344 271
0.029368332 0.67000002 -0.036416732 1.861691e-38 345 271
0.030543067 0.67000002 -0.036416732 1.8616546e-38 346 271
0.0317178 0.67000002 -0.036416732 1.8616546e-38 347 271
0.032892533 0.67000002 -0.036416732 1.8341035e-38 348 271
0.034067266 0.67000002 -0.036416732 1.8248839e-38 349 271
0.035241999 0.67000002 -0.036416732 1.8064092e-38 350 271
0.036471087 0.671 -0.036471087 1.7971897e-38 351 271
0.037703678 0.67199999 -0.036525436 1.7695313e-38 352 271
0.038997639 0.67400002 -0.036634147 1.7603117e-38 353 271
0.040179387 0.67400002 -0.036634147 1.7142862e-38 354 271
0.041422497 0.67500001 -0.036688499 1.7050665e-38 355 271
0.042669121 0.676 -0.036742851 1.6774801e-38 356 271
0.043854371 0.676 -0.036742851 1.6682605e-38 357 271
0.045039624 0.676 -0.036742851 1.6314909e-38 358 271
0.046361636 0.67799997 -0.036851559 1.6038682e-38 359 271
0.047690667 0.68000001 -0.036960267 1.5854654e-38 360 271
0.048882935 0.68000001 -0.036960267 1.5854654e-38 361 271
0.050222475 0.68199998 -0.037068974 1.5486593e-38 362 271
0.051493648 0.68300003 -0.037123326 1.5302562e-38 363 271
0.052691177 0.68300003 -0.037123326 1.4842675e-38 364 271
0.053967599 0.68400002 -0.037177678 1.4197306e-38 365 271
0.055328183 0.68599999 -0.037286382 1.4011858e-38 366 271
0.056530971 0.68599999 -0.037286382 1.3366489e-38 367 271
0.057733759 0.68599999 -0.037286382 1.3644192e-38 368 271
0.016372627 0.667 -0.037423145 1.7696819e-38 334 272
0.0175421 0.667 -0.037423145 1.7327676e-38 335 272
0.018739626 0.66799998 -0.037479252 1.7970837e-38 336 272
0.019910853 0.66799998 -0.037479252 1.7970837e-38 337 272
0.021082079 0.66799998 -0.037479252 1.8155569e-38 338 272
0.022253305 0.66799998 -0.037479252 1.8431796e-38 339 272
0.023424532 0.66799998 -0.037479252 1.8341032e-38 340 272
0.024669399 0.67000002 -0.037591465 1.8433228e-38 341 272
0.025844134 0.67000002 -0.037591465 1.861726e-38 342 272
0.027018867 0.67000002 -0.037591465 1.861726e-38 343 272
0.028193599 0.67000002 -0.037591465 1.8708387e-38 344 272
0.029368332 0.67000002 -0.037591465 1.861619e-38 345 272
0.030451892 0.66799998 -0.037479252 1.8432878e-38 346 272
0.031623118 0.66799998 -0.037479252 1.8248486e-38 347 272
0.032794341 0.66799998 -0.037479252 1.8248484e-38 348 272
0.033965573 0.66799998 -0.037479252 1.8156288e-38 349 272
0.035136797 0.66799998 -0.037479252 1.7787864e-38 350 272
0.036416732 0.67000002 -0.037591465 1.769531e-38 351 272
0.037647571 0.671 -0.037647571 1.7510918e-38 352 272
0.03888192 0.67199999 -0.037703678 1.7418723e-38 353 272
0.040179387 0.67400002 -0.037815895 1.7049943e-38 354 272
0.041361131 0.67400002 -0.037815895 1.6865552e-38 355 272
0.042606 0.67500001 -0.037871998 1.659041e-38 356 272
0.043789499 0.67500001 -0.037871998 1.6497855e-38 357 272
0.044972997 0.67500001 -0.037871998 1.6221994e-38 358 272
0.046224877 0.676 -0.037928104 1.6037602e-38 359 272
0.047550395 0.67799997 -0.038040318 1.5670974e-38 360 272
0.048739154 0.67799997 -0.038040318 1.5578779e-38 361 272
0.050075196 0.68000001 -0.038152531 1.5302918e-38 362 272
0.051267464 0.68000001 -0.038152531 1.4933775e-38 363 272
0.052614026 0.68199998 -0.038264744 1.4472814e-38 364 272
0.053967599 0.68400002 -0.038376961 1.4196587e-38 365 272
0.055166878 0.68400002 -0.038376961 1.4011135e-38 366 272
0.056366164 0.68400002 -0.038376961 1.3365766e-38 367 272
0.015203152 0.667 -0.038592618 1.7882317e-38 333 273
0.016372627 0.667 -0.038592618 1.7603159e-38 334 273
0.0175421 0.667 -0.038592618 1.7510963e-38 335 273
0.018711573 0.667 -0.038592618 1.8155216e-38 336 273
0.019881045 0.667 -0.038592618 1.8339247e-38 337 273
0.021050518 0.667 -0.038592618 1.8431796e-38 338 273
0.022253305 0.66799998 -0.038650475 1.852435e-38 339 273
0.023424532 0.66799998 -0.038650475 1.8524345e-38 340 273
0.02459576 0.66799998 -0.038650475 1.861654e-38 341 273
0.025766984 0.66799998 -0.038650475 1.8708743e-38 342 273
0.026938211 0.66799998 -0.038650475 1.8708743e-38 343 273
0.028109439 0.66799998 -0.038650475 1.8433248e-38 344 273
0.029280664 0.66799998 -0.038650475 1.8248855e-38 345 273
0.030406304 0.667 -0.038592618 1.8248855e-38 346 273
0.03157578 0.667 -0.038592618 1.8156301e-38 347 273
0.032745253 0.667 -0.038592618 1.7972623e-38 348 273
0.033914726 0.667 -0.038592618 1.7788231e-38 349 273
0.035084199 0.667 -0.038592618 1.7695313e-38 350 273
0.036253672 0.667 -0.038592618 1.7510921e-38 351 273
0.037479252 0.66799998 -0.038650475 1.7235411e-38 352 273
0.038766202 0.67000002 -0.038766202 1.6866268e-38 353 273
0.040000543 0.671 -0.038824059 1.649929e-38 354 273
0.041238401 0.67199999 -0.03888192 1.6407095e-38 355 273
0.042542879 0.67400002 -0.038997639 1.6130881e-38 356 273
0.043724626 0.67400002 -0.038997639 1.6038685e-38 357 273
0.044906374 0.67400002 -0.038997639 1.5671342e-38 358 273
0.046224877 0.676 -0.039113361 1.5579144e-38 359 273
0.047410134 0.676 -0.039113361 1.5211082e-38 360 273
0.048739154 0.67799997 -0.039229076 1.5118887e-38 361 273
0.050001562 0.67900002 -0.039286941 1.475083e-38 362 273
0.051267464 0.68000001 -0.039344799 1.4382047e-38 363 273
0.052459732 0.68000001 -0.039344799 1.3829612e-38 364 273
0.053652 0.68000001 -0.039344799 1.3553384e-38 365 273
0.055005573 0.68199998 -0.039460517 1.3553034e-38 366 273
0.015203152 0.667 -0.039762091 1.7327311e-38 333 274
0.016372627 0.667 -0.039762091 1.7787528e-38 334 274
0.0175421 0.667 -0.039762091 1.7879723e-38 335 274
0.018711573 0.667 -0.039762091 1.8063739e-38 336 274
0.019851239 0.66600001 -0.039702479 1.824813e-38 337 274
0.02101896 0.66600001 -0.039702479 1.8340679e-38 338 274
0.022219993 0.667 -0.039762091 1.8433234e-38 339 274
0.023389466 0.667 -0.039762091 1.8433231e-38 340 274
0.024558939 0.667 -0.039762091 1.8433231e-38 341 274
0.025728412 0.667 -0.039762091 1.8708743e-38 342 274
0.026897885 0.667 -0.039762091 1.8616546e-38 343 274
0.028067358 0.667 -0.039762091 1.8340685e-38 344 274
0.029236831 0.667 -0.039762091 1.824813e-38 345 274
0.030406304 0.667 -0.039762091 1.8156291e-38 346 274
0.03157578 0.667 -0.039762091 1.8063736e-38 347 274
0.032696161 0.66600001 -0.039702479 1.8063371e-38 348 274
0.03386388 0.66600001 -0.039702479 1.7878978e-38 349 274
0.035031598 0.66600001 -0.039702479 1.7327606e-38 350 274
0.03619932 0.66600001 -0.039702479 1.7235411e-38 351 274
0.037423145 0.667 -0.039762091 1.6958466e-38 352 274
0.038650475 0.66799998 -0.039821707 1.6589685e-38 353 274
0.039940935 0.67000002 -0.039940935 1.6497492e-38 354 274
0.041177034 0.671 -0.040000543 1.6497492e-38 355 274
0.042353518 0.671 -0.040000543 1.5946484e-38 356 274
0.043594878 0.67199999 -0.040060159 1.5854287e-38 357 274
0.044773117 0.67199999 -0.040060159 1.5670977e-38 358 274
0.046088122 0.67400002 -0.040179387 1.5486227e-38 359 274
0.047339998 0.67500001 -0.040238999 1.5210366e-38 360 274
0.048595384 0.676 -0.040298611 1.5025975e-38 361 274
0.049927916 0.67799997 -0.040417835 1.4565362e-38 362 274
0.051192071 0.67900002 -0.040477451 1.4380971e-38 363 274
0.052459732 0.68000001 -0.040537067 1.3828529e-38 364 274
0.053809796 0.68199998 -0.040656291 1.3736333e-38 365 274
0.055005573 0.68199998 -0.040656291 1.3644147e-38 366 274
0.056201346 0.68199998 -0.040656291 1.3367921e-38 367 274
0.01284492 0.66600001 -0.040870197 1.7513519e-38 331 275
0.014012639 0.66600001 -0.040870197 1.7602426e-38 332 275
0.01518036 0.66600001 -0.040870197 1.7602426e-38 333 275
0.016348081 0.66600001 -0.040870197 1.8064092e-38 334 275
0.0175421 0.667 -0.040931564 1.8064092e-38 335 275
0.018683519 0.66600001 -0.040870197 1.8339956e-38 336 275
0.019851239 0.66600001 -0.040870197 1.8524347e-38 337 275
0.02101896 0.66600001 -0.040870197 1.8616543e-38 338 275
0.022120051 0.66399997 -0.040747464 1.8616543e-38 339 275
0.023284266 0.66399997 -0.040747464 1.8433231e-38 340 275
0.024448479 0.66399997 -0.040747464 1.8433231e-38 341 275
0.025612691 0.66399997 -0.040747464 1.8523997e-38 342 275
0.026776904 0.66399997 -0.040747464 1.8431801e-38 343 275
0.027941117 0.66399997 -0.040747464 1.7972625e-38 344 275
0.02910533 0.66399997 -0.040747464 1.788043e-38 345 275
0.030360719 0.66600001 -0.040870197 1.7787511e-38 346 275
0.031528439 0.66600001 -0.040870197 1.7787511e-38 347 275
0.032696161 0.66600001 -0.040870197 1.7510921e-38 348 275
0.033762183 0.66399997 -0.040747464 1.7418367e-38 349 275
0.0349264 0.66399997 -0.040747464 1.695955e-38 350 275
0.03619932 0.66600001 -0.040870197 1.6774798e-38 351 275
0.037367038 0.66600001 -0.040870197 1.6497861e-38 352 275
0.038592618 0.667 -0.040931564 1.6313471e-38 353 275
0.039762091 0.667 -0.040931564 1.6129802e-38 354 275
0.040992931 0.66799998 -0.040992931 1.6037604e-38 355 275
0.042290401 0.67000002 -0.041115668 1.5670621e-38 356 275
0.043530006 0.671 -0.041177034 1.548623e-38 357 275
0.044706494 0.671 -0.041177034 1.5118889e-38 358 275
0.045951359 0.67199999 -0.041238401 1.5026694e-38 359 275
0.047269866 0.67400002 -0.041361131 1.4750112e-38 360 275
0.048523501 0.67500001 -0.041422497 1.4565362e-38 361 275
0.049780637 0.676 -0.041483864 1.4196234e-38 362 275
0.051116679 0.67799997 -0.041606598 1.4011841e-38 363 275
0.052382588 0.67900002 -0.041667968 1.3735624e-38 364 275
0.053652 0.68000001 -0.041729335 1.3643429e-38 365 275
0.055005573 0.68199998 -0.041852064 1.3276817e-38 366 275
0.056201346 0.68199998 -0.041852064 1.3460848e-38 367 275
0.01284492 0.66600001 -0.042037919 1.7419117e-38 331 276
0.014012639 0.66600001 -0.042037919 1.7787511e-38 332 276
0.01518036 0.66600001 -0.042037919 1.8063739e-38 333 276
0.016348081 0.66600001 -0.042037919 1.8156641e-38 334 276
0.017515799 0.66600001 -0.042037919 1.8156641e-38 335 276
0.018627413 0.66399997 -0.041911677 1.8432152e-38 336 276
0.019791625 0.66399997 -0.041911677 1.8616543e-38 337 276
0.020955838 0.66399997 -0.041911677 1.8433234e-38 338 276
0.022020113 0.66100001 -0.04172232 1.8617266e-38 339 276
0.023179067 0.66100001 -0.04172232 1.8433234e-38 340 276
0.02433802 0.66100001 -0.04172232 1.8248484e-38 341 276
0.025496973 0.66100001 -0.04172232 1.8431801e-38 342 276
0.026696252 0.662 -0.041785441 1.8339247e-38 343 276
0.027856959 0.662 -0.041785441 1.7880427e-38 344 276
0.029017664 0.662 -0.041785441 1.760348e-38 345 276
0.030269546 0.66399997 -0.041911677 1.7602761e-38 346 276
0.031433757 0.66399997 -0.041911677 1.7510565e-38 347 276
0.03259797 0.66399997 -0.041911677 1.7233623e-38 348 276
0.033711337 0.66299999 -0.041848559 1.7233623e-38 349 276
0.034873798 0.66299999 -0.041848559 1.6865918e-38 350 276
0.036090612 0.66399997 -0.041911677 1.6589691e-38 351 276
0.037254825 0.66399997 -0.041911677 1.6129799e-38 352 276
0.03853476 0.66600001 -0.042037919 1.6037602e-38 353 276
0.039702479 0.66600001 -0.042037919 1.5853936e-38 354 276
0.040931564 0.667 -0.042101037 1.5761741e-38 355 276
0.042164158 0.66799998 -0.042164158 1.548623e-38 356 276
0.043465134 0.67000002 -0.042290401 1.5394034e-38 357 276
0.044706494 0.671 -0.042353518 1.5025975e-38 358 276
0.045882981 0.671 -0.042353518 1.4841224e-38 359 276
0.047129598 0.67199999 -0.042416636 1.4564646e-38 360 276
0.048523501 0.67500001 -0.042606 1.4287701e-38 361 276
0.049780637 0.676 -0.042669121 1.4011838e-38 362 276
0.050965894 0.676 -0.042669121 1.3919643e-38 363 276
0.052305438 0.67799997 -0.042795356 1.3643429e-38 364 276
0.053652 0.68000001 -0.042921599 1.3643429e-38 365 276
0.055005573 0.68199998 -0.043047838 1.3460129e-38 366 276
0.056201346 0.68199998 -0.043047838 1.364488e-38 367 276
0.01284492 0.66600001 -0.043205637 1.7787159e-38 331 277
0.014012639 0.66600001 -0.043205637 1.8064089e-38 332 277
0.01518036 0.66600001 -0.043205637 1.8156285e-38 333 277
0.016348081 0.66600001 -0.043205637 1.8156641e-38 334 277
0.017515799 0.66600001 -0.043205637 1.8248837e-38 335 277
0.018627413 0.66399997 -0.043075889 1.8341035e-38 336 277
0.019702207 0.66100001 -0.042881273 1.8433231e-38 337 277
0.02076648 0.65799999 -0.042686652 1.8433231e-38 338 277
0.021920172 0.65799999 -0.042686652 1.8341035e-38 339 277
0.023073865 0.65799999 -0.042686652 1.8431796e-38 340 277
0.02422756 0.65799999 -0.042686652 1.83396e-38 341 277
0.025381252 0.65799999 -0.042686652 1.8063373e-38 342 277
0.026534945 0.65799999 -0.042686652 1.7971176e-38 343 277
0.027730718 0.65899998 -0.042751525 1.769531e-38 344 277
0.028886165 0.65899998 -0.042751525 1.7603114e-38 345 277
0.030132787 0.66100001 -0.042881273 1.7418367e-38 346 277
0.031339079 0.662 -0.042946145 1.7326171e-38 347 277
0.032499783 0.662 -0.042946145 1.695811e-38 348 277
0.033660494 0.662 -0.042946145 1.6681884e-38 349 277
0.034821201 0.662 -0.042946145 1.6313824e-38 350 277
0.036036257 0.66299999 -0.043011017 1.6129432e-38 351 277
0.037254825 0.66399997 -0.043075889 1.5669895e-38 352 277
0.038419038 0.66399997 -0.043075889 1.5669895e-38 353 277
0.039583251 0.66399997 -0.043075889 1.5485511e-38 354 277
0.040870197 0.66600001 -0.043205637 1.5393315e-38 355 277
0.042101037 0.667 -0.04327051 1.520964e-38 356 277
0.043335386 0.66799998 -0.043335386 1.4840858e-38 357 277
0.044639867 0.67000002 -0.043465134 1.4840861e-38 358 277
0.045882981 0.671 -0.043530006 1.4563915e-38 359 277
0.047129598 0.67199999 -0.043594878 1.391928e-38 360 277
0.048451614 0.67400002 -0.043724626 1.391928e-38 361 277
0.049706999 0.67500001 -0.043789499 1.3734898e-38 362 277
0.050965894 0.676 -0.043854371 1.3734898e-38 363 277
0.052305438 0.67799997 -0.043984115 1.3367565e-38 364 277
0.053494196 0.67799997 -0.043984115 1.3367565e-38 365 277
0.054682959 0.67799997 -0.043984115 1.327754e-38 366 277
0.0091173323 0.64999998 -0.04330733 1.7694962e-38 328 278
0.010256999 0.64999998 -0.04330733 1.8063386e-38 329 278
0.011396666 0.64999998 -0.04330733 1.8338531e-38 330 278
0.012864206 0.667 -0.044439986 1.8430727e-38 331 278
0.014033679 0.667 -0.044439986 1.8432149e-38 332 278
0.015203152 0.667 -0.044439986 1.8432149e-38 333 278
0.016372627 0.667 -0.044439986 1.8248839e-38 334 278
0.0173843 0.66100001 -0.044040225 1.8341035e-38 335 278
0.018487146 0.65899998 -0.043906972 1.8340679e-38 336 278
0.019582979 0.65700001 -0.043773718 1.8340679e-38 337 278
0.020671798 0.65499997 -0.043640465 1.8341035e-38 338 278
0.021820232 0.65499997 -0.043640465 1.8248839e-38 339 278
0.022968665 0.65499997 -0.043640465 1.83396e-38 340 278
0.024117097 0.65499997 -0.043640465 1.8063373e-38 341 278
0.025265532 0.65499997 -0.043640465 1.7695663e-38 342 278
0.026494619 0.65700001 -0.043773718 1.7603467e-38 343 278
0.027646558 0.65700001 -0.043773718 1.741872e-38 344 278
0.028798498 0.65700001 -0.043773718 1.741872e-38 345 278
0.029996024 0.65799999 -0.043840345 1.7141057e-38 346 278
0.031197058 0.65899998 -0.043906972 1.7141057e-38 347 278
0.032450691 0.66100001 -0.044040225 1.6498208e-38 348 278
0.033609647 0.66100001 -0.044040225 1.6314177e-38 349 278
0.0347686 0.66100001 -0.044040225 1.6129432e-38 350 278
0.035981905 0.662 -0.044106852 1.594504e-38 351 278
0.037198719 0.66299999 -0.044173479 1.5669176e-38 352 278
0.038361177 0.66299999 -0.044173479 1.5576981e-38 353 278
0.039583251 0.66399997 -0.044240102 1.5209284e-38 354 278
0.040747464 0.66399997 -0.044240102 1.4933056e-38 355 278
0.042037919 0.66600001 -0.04437336 1.4748665e-38 356 278
0.04327051 0.667 -0.044439986 1.4379882e-38 357 278
0.044506609 0.66799998 -0.044506609 1.419586e-38 358 278
0.0458146 0.67000002 -0.044639867 1.401147e-38 359 278
0.047059465 0.671 -0.044706494 1.3366472e-38 360 278
0.04830784 0.67199999 -0.044773117 1.3458669e-38 361 278
0.049633358 0.67400002 -0.044906374 1.3458316e-38 362 278
0.050890498 0.67500001 -0.044972997 1.3550511e-38 363 278
0.052074 0.67500001 -0.044972997 1.3276091e-38 364 278
0.053336397 0.676 -0.045039624 1.3460482e-38 365 278
0.0022793331 0.64999998 -0.044446997 1.8621347e-38 322 279
0.0034189997 0.64999998 -0.044446997 1.8068173e-38 323 279
0.0045586661 0.64999998 -0.044446997 1.8157094e-38 324 279
0.005698333 0.64999998 -0.044446997 1.7511724e-38 325 279
0.0068274797 0.64899999 -0.044378616 1.760386e-38 326 279
0.0079653924 0.64899999 -0.044378616 1.7419467e-38 327 279
0.0091173323 0.64999998 -0.044446997 1.8063371e-38 328 279
0.010256999 0.64999998 -0.044446997 1.8155566e-38 329 279
0.011396666 0.64999998 -0.044446997 1.8339956e-38 330 279
0.012478473 0.64700001 -0.044241857 1.8432152e-38 331 279
0.013612879 0.64700001 -0.044241857 1.8248837e-38 332 279
0.014747286 0.64700001 -0.044241857 1.8248837e-38 333 279
0.016004426 0.65200001 -0.044583756 1.8432152e-38 334 279
0.017147599 0.65200001 -0.044583756 1.8339956e-38 335 279
0.018290773 0.65200001 -0.044583756 1.8339234e-38 336 279
0.019433947 0.65200001 -0.044583756 1.8339234e-38 337 279
0.020608678 0.653 -0.044652138 1.8339234e-38 338 279
0.021753605 0.653 -0.044652138 1.8154842e-38 339 279
0.022933599 0.65399998 -0.044720516 1.8062646e-38 340 279
0.024080278 0.65399998 -0.044720516 1.7878256e-38 341 279
0.025226958 0.65399998 -0.044720516 1.7694215e-38 342 279
0.026413966 0.65499997 -0.044788897 1.7509823e-38 343 279
0.027562398 0.65499997 -0.044788897 1.7233596e-38 344 279
0.028710833 0.65499997 -0.044788897 1.7233596e-38 345 279
0.02995044 0.65700001 -0.04492566 1.6589308e-38 346 279
0.031149717 0.65799999 -0.044994038 1.6681505e-38 347 279
0.032303412 0.65799999 -0.044994038 1.6404924e-38 348 279
0.033507951 0.65899998 -0.045062415 1.6312728e-38 349 279
0.034663398 0.65899998 -0.045062415 1.5945391e-38 350 279
0.035927553 0.66100001 -0.045199182 1.5760641e-38 351 279
0.037142612 0.662 -0.04526756 1.5576612e-38 352 279
0.038361177 0.66299999 -0.045335937 1.5391861e-38 353 279
0.039523639 0.66299999 -0.045335937 1.5023804e-38 354 279
0.040686097 0.66299999 -0.045335937 1.4931609e-38 355 279
0.041911677 0.66399997 -0.045404319 1.4287687e-38 356 279
0.043205637 0.66600001 -0.045541082 1.4103296e-38 357 279
0.044439986 0.667 -0.045609459 1.3918551e-38 358 279
0.045677837 0.66799998 -0.045677837 1.373416e-38 359 279
0.046989333 0.67000002 -0.0458146 1.3090958e-38 360 279
0.048235953 0.671 -0.045882981 1.3183154e-38 361 279
0.049633358 0.67400002 -0.046088122 1.3182804e-38 362 279
0.050890498 0.67500001 -0.0461565 1.3366836e-38 363 279
0.052151144 0.676 -0.046224877 1.3276444e-38 364 279
0.053336397 0.676 -0.046224877 1.3460835e-38 365 279
0.0011344067 0.64700001 -0.045376267 1.834513e-38 321 280
0.0022793331 0.64999998 -0.045586664 1.8712078e-38 322 280
0.0034189997 0.64999998 -0.045586664 1.7882317e-38 323 280
0.0045516533 0.64899999 -0.045516532 1.7603506e-38 324 280
0.0056895665 0.64899999 -0.045516532 1.7142527e-38 325 280
0.0068274797 0.64899999 -0.045516532 1.7511269e-38 326 280
0.0079653924 0.64899999 -0.045516532 1.7972247e-38 327 280
0.0091033066 0.64899999 -0.045516532 1.8156272e-38 328 280
0.01020966 0.64700001 -0.045376267 1.8156272e-38 329 280
0.011344067 0.64700001 -0.045376267 1.8249187e-38 330 280
0.012478473 0.64700001 -0.045376267 1.8341383e-38 331 280
0.013612879 0.64700001 -0.045376267 1.824919e-38 332 280
0.014747286 0.64700001 -0.045376267 1.824919e-38 333 280
0.015930785 0.64899999 -0.045516532 1.7603467e-38 334 280
0.017095 0.64999998 -0.045586664 1.7511272e-38 335 280
0.018234665 0.64999998 -0.045586664 1.7696031e-38 336 280
0.019374331 0.64999998 -0.045586664 1.7696031e-38 337 280
0.02057712 0.65200001 -0.045726933 1.769531e-38 338 280
0.021720294 0.65200001 -0.045726933 1.7510918e-38 339 280
0.022863466 0.65200001 -0.045726933 1.7694215e-38 340 280
0.024043459 0.653 -0.045797065 1.760202e-38 341 280
0.025188386 0.653 -0.045797065 1.7234678e-38 342 280
0.02637364 0.65399998 -0.045867197 1.7050647e-38 343 280
0.027520318 0.65399998 -0.045867197 1.6682234e-38 344 280
0.028666999 0.65399998 -0.045867197 1.6590038e-38 345 280
0.029859263 0.65499997 -0.04593733 1.640529e-38 346 280
0.031007698 0.65499997 -0.04593733 1.6313094e-38 347 280
0.03225432 0.65700001 -0.046077598 1.603723e-38 348 280
0.033457108 0.65799999 -0.04614773 1.5945035e-38 349 280
0.034663398 0.65899998 -0.046217863 1.5576975e-38 350 280
0.035818845 0.65899998 -0.046217863 1.5392583e-38 351 280
0.037086505 0.66100001 -0.046358135 1.4841208e-38 352 280
0.038303319 0.662 -0.046428263 1.4749012e-38 353 280
0.039523639 0.66299999 -0.046498399 1.4564621e-38 354 280
0.040686097 0.66299999 -0.046498399 1.4288393e-38 355 280
0.041911677 0.66399997 -0.046568532 1.4103293e-38 356 280
0.043205637 0.66600001 -0.046708796 1.3642315e-38 357 280
0.044439986 0.667 -0.046778932 1.3090958e-38 358 280
0.045609459 0.667 -0.046778932 1.3090958e-38 359 280
0.046849065 0.66799998 -0.046849065 1.2999134e-38 360 280
0.048164066 0.67000002 -0.046989333 1.2999134e-38 361 280
0.049486078 0.67199999 -0.047129598 1.3090976e-38 362 280
0.050890498 0.67500001 -0.047339998 1.3275369e-38 363 280
0.052151144 0.676 -0.047410134 1.3368289e-38 364 280
0.053494196 0.67799997 -0.047550395 1.3368289e-38 365 280
0 0.64700001 -0.046510674 1.8067062e-38 320 281
0.0011344067 0.64700001 -0.046510674 1.7421692e-38 321 281
0.00227232 0.648 -0.046582561 1.7786471e-38 322 281
0.00340848 0.648 -0.046582561 1.760208e-38 323 281
0.0045516533 0.64899999 -0.046654444 1.7695329e-38 324 281
0.0056895665 0.64899999 -0.046654444 1.7879721e-38 325 281
0.0068169599 0.648 -0.046582561 1.7971897e-38 326 281
0.0079531204 0.648 -0.046582561 1.8064092e-38 327 281
0.0090892799 0.648 -0.046582561 1.8156989e-38 328 281
0.01020966 0.64700001 -0.046510674 1.8156989e-38 329 281
0.011344067 0.64700001 -0.046510674 1.8249543e-38 330 281
0.012478473 0.64700001 -0.046510674 1.8249543e-38 331 281
0.013612879 0.64700001 -0.046510674 1.8156638e-38 332 281
0.014747286 0.64700001 -0.046510674 1.7972247e-38 333 281
0.015906241 0.648 -0.046582561 1.723289e-38 334 281
0.017068699 0.64899999 -0.046654444 1.7601313e-38 335 281
0.018206613 0.64899999 -0.046654444 1.7693868e-38 336 281
0.019344525 0.64899999 -0.046654444 1.7693868e-38 337 281
0.020513998 0.64999998 -0.046726331 1.7602022e-38 338 281
0.021653665 0.64999998 -0.046726331 1.723324e-38 339 281
0.022793332 0.64999998 -0.046726331 1.714176e-38 340 281
0.024006641 0.65200001 -0.046870105 1.714176e-38 341 281
0.025149813 0.65200001 -0.046870105 1.7049568e-38 342 281
0.026333313 0.653 -0.046941992 1.6865536e-38 343 281
0.027478239 0.653 -0.046941992 1.6681511e-38 344 281
0.028666999 0.65399998 -0.047013879 1.6404924e-38 345 281
0.029813679 0.65399998 -0.047013879 1.6404927e-38 346 281
0.031007698 0.65499997 -0.047085766 1.6220177e-38 347 281
0.032156132 0.65499997 -0.047085766 1.5853195e-38 348 281
0.033406258 0.65700001 -0.04722954 1.5760641e-38 349 281
0.034610797 0.65799999 -0.047301427 1.539258e-38 350 281
0.035818845 0.65899998 -0.04737331 1.5024157e-38 351 281
0.037086505 0.66100001 -0.047517084 1.474794e-38 352 281
0.038245458 0.66100001 -0.047517084 1.4471352e-38 353 281
0.039404415 0.66100001 -0.047517084 1.3735586e-38 354 281
0.04062473 0.662 -0.047588971 1.3551194e-38 355 281
0.041848559 0.66299999 -0.047660857 1.3549766e-38 356 281
0.043075889 0.66399997 -0.047732744 1.3365375e-38 357 281
0.04437336 0.66600001 -0.047876518 1.3089879e-38 358 281
0.045609459 0.667 -0.047948405 1.3089879e-38 359 281
0.046778932 0.667 -0.047948405 1.2906214e-38 360 281
0.048164066 0.67000002 -0.048164066 1.299841e-38 361 281
0.049486078 0.67199999 -0.04830784 1.309133e-38 362 281
0.050890498 0.67500001 -0.048523501 1.3183527e-38 363 281
0.052074 0.67500001 -0.048523501 1.3276091e-38 364 281
0.053336397 0.676 -0.048595384 1.3183895e-38 365 281
-0.0011344067 0.64700001 -0.047645077 1.7883043e-38 319 282
0 0.64700001 -0.047645077 1.7696442e-38 320 282
0.0011344067 0.64700001 -0.047645077 1.7235465e-38 321 282
0.0022653067 0.64600003 -0.047571443 1.7510202e-38 322 282
0.00339796 0.64600003 -0.047571443 1.7694234e-38 323 282
0.0045306133 0.64600003 -0.047571443 1.7971891e-38 324 282
0.0056632664 0.64600003 -0.047571443 1.8064445e-38 325 282
0.0068169599 0.648 -0.047718719 1.8064443e-38 326 282
0.0079408465 0.64700001 -0.047645077 1.8156638e-38 327 282
0.0090612266 0.64600003 -0.047571443 1.8432499e-38 328 282
0.01019388 0.64600003 -0.047571443 1.8432499e-38 329 282
0.011326533 0.64600003 -0.047571443 1.824919e-38 330 282
0.012459187 0.64600003 -0.047571443 1.8156994e-38 331 282
0.01359184 0.64600003 -0.047571443 1.7971894e-38 332 282
0.014724494 0.64600003 -0.047571443 1.7787861e-38 333 282
0.015857147 0.64600003 -0.047571443 1.7693868e-38 334 282
0.0170161 0.64700001 -0.047645077 1.7601313e-38 335 282
0.01817856 0.648 -0.047718719 1.723433e-38 336 282
0.019314719 0.648 -0.047718719 1.723433e-38 337 282
0.02048244 0.64899999 -0.047792356 1.7233255e-38 338 282
0.021620352 0.64899999 -0.047792356 1.7048864e-38 339 282
0.022758266 0.64899999 -0.047792356 1.6865549e-38 340 282
0.023932999 0.64999998 -0.047865998 1.6681158e-38 341 282
0.025149813 0.65200001 -0.048013281 1.640529e-38 342 282
0.026292987 0.65200001 -0.048013281 1.6313094e-38 343 282
0.02743616 0.65200001 -0.048013281 1.603723e-38 344 282
0.028623167 0.653 -0.048086919 1.603723e-38 345 282
0.029813679 0.65399998 -0.048160557 1.603687e-38 346 282
0.030960357 0.65399998 -0.048160557 1.5944316e-38 347 282
0.03210704 0.65399998 -0.048160557 1.5577331e-38 348 282
0.033304565 0.65499997 -0.048234195 1.539258e-38 349 282
0.034558199 0.65700001 -0.048381478 1.5116353e-38 350 282
0.035710141 0.65700001 -0.048381478 1.4931962e-38 351 282
0.036974292 0.65899998 -0.048528757 1.4563548e-38 352 282
0.038129739 0.65899998 -0.048528757 1.4102571e-38 353 282
0.039404415 0.66100001 -0.04867604 1.3550487e-38 354 282
0.040563367 0.66100001 -0.04867604 1.3366456e-38 355 282
0.041785441 0.662 -0.048749682 1.327391e-38 356 282
0.043011017 0.66299999 -0.048823316 1.3181356e-38 357 282
0.044173479 0.66299999 -0.048823316 1.290657e-38 358 282
0.045609459 0.667 -0.049117878 1.290657e-38 359 282
0.046778932 0.667 -0.049117878 1.2723623e-38 360 282
0.048020288 0.66799998 -0.04919152 1.2723623e-38 361 282
0.049486078 0.67199999 -0.049486078 1.2907661e-38 362 282
0.050815105 0.67400002 -0.049633358 1.2999858e-38 363 282
0.051996857 0.67400002 -0.049633358 1.3183545e-38 364 282
0.053336397 0.676 -0.049780637 1.2722567e-38 365 282
-0.00225128 0.64200002 -0.048402522 1.7603893e-38 318 283
-0.00112564 0.64200002 -0.048402522 1.7142916e-38 319 283
0 0.64600003 -0.048704095 1.7510581e-38 320 283
0.0011326533 0.64600003 -0.048704095 1.7602776e-38 321 283
0.0022653067 0.64600003 -0.048704095 1.7878628e-38 322 283
0.00339796 0.64600003 -0.048704095 1.7970823e-38 323 283
0.0045306133 0.64600003 -0.048704095 1.8063371e-38 324 283
0.0056632664 0.64600003 -0.048704095 1.8155566e-38 325 283
0.0067748795 0.64399999 -0.048553303 1.8156285e-38 326 283
0.0079040267 0.64399999 -0.048553303 1.8248839e-38 327 283
0.0090331733 0.64399999 -0.048553303 1.8248484e-38 328 283
0.01016232 0.64399999 -0.048553303 1.8248484e-38 329 283
0.011291467 0.64399999 -0.048553303 1.8064092e-38 330 283
0.012420613 0.64399999 -0.048553303 1.7971897e-38 331 283
0.013549759 0.64399999 -0.048553303 1.7971174e-38 332 283
0.014678906 0.64399999 -0.048553303 1.7786782e-38 333 283
0.015808053 0.64399999 -0.048553303 1.7509467e-38 334 283
0.016989801 0.64600003 -0.048704095 1.723324e-38 335 283
0.018122453 0.64600003 -0.048704095 1.7141766e-38 336 283
0.019284913 0.64700001 -0.048779488 1.7049212e-38 337 283
0.020450879 0.648 -0.04885488 1.6864833e-38 338 283
0.02158704 0.648 -0.04885488 1.6680082e-38 339 283
0.022758266 0.64899999 -0.048930272 1.6404574e-38 340 283
0.023896178 0.64899999 -0.048930272 1.6404574e-38 341 283
0.025072664 0.64999998 -0.049005665 1.6036867e-38 342 283
0.026212333 0.64999998 -0.049005665 1.6036867e-38 343 283
0.02743616 0.65200001 -0.049156453 1.5852839e-38 344 283
0.028579334 0.65200001 -0.049156453 1.5852839e-38 345 283
0.029768093 0.653 -0.049231846 1.5851767e-38 346 283
0.030960357 0.65399998 -0.049307238 1.5759571e-38 347 283
0.03210704 0.65399998 -0.049307238 1.5484415e-38 348 283
0.033253718 0.65399998 -0.049307238 1.5299665e-38 349 283
0.034452997 0.65499997 -0.049382631 1.4656451e-38 350 283
0.03560143 0.65499997 -0.049382631 1.4472058e-38 351 283
0.036918186 0.65799999 -0.049608808 1.401145e-38 352 283
0.038129739 0.65899998 -0.049684204 1.3642668e-38 353 283
0.039285187 0.65899998 -0.049684204 1.3274258e-38 354 283
0.040563367 0.66100001 -0.049834993 1.3182062e-38 355 283
0.041785441 0.662 -0.049910385 1.3090235e-38 356 283
0.043011017 0.66299999 -0.049985778 1.3090235e-38 357 283
0.044173479 0.66299999 -0.049985778 1.2722899e-38 358 283
0.045609459 0.667 -0.050287351 1.2722899e-38 359 283
0.046778932 0.667 -0.050287351 1.290658e-38 360 283
0.048020288 0.66799998 -0.050362743 1.2999134e-38 361 283
0.049486078 0.67199999 -0.050664317 1.3090979e-38 362 283
0.050664317 0.67199999 -0.050664317 1.3275372e-38 363 283
0.051842555 0.67199999 -0.050664317 1.299917e-38 364 283
-0.0044955462 0.64099997 -0.049451008 1.7973046e-38 316 284
-0.0033716597 0.64099997 -0.049451008 1.7420231e-38 317 284
-0.0022477731 0.64099997 -0.049451008 1.7510584e-38 318 284
-0.0011238866 0.64099997 -0.049451008 1.7510584e-38 319 284
0 0.64099997 -0.049451008 1.7787511e-38 320 284
0.00112564 0.64200002 -0.049528159 1.7971544e-38 321 284
0.0022582933 0.64399999 -0.049682453 1.7971897e-38 322 284
0.0033821799 0.64300001 -0.049605306 1.7971897e-38 323 284
0.0045095733 0.64300001 -0.049605306 1.8063371e-38 324 284
0.0056281998 0.64200002 -0.049528159 1.8155566e-38 325 284
0.00675384 0.64200002 -0.049528159 1.8155569e-38 326 284
0.0078794798 0.64200002 -0.049528159 1.83396e-38 327 284
0.0090191467 0.64300001 -0.049605306 1.8063736e-38 328 284
0.01016232 0.64399999 -0.049682453 1.7971541e-38 329 284
0.011273934 0.64300001 -0.049605306 1.7787508e-38 330 284
0.012401327 0.64300001 -0.049605306 1.7695313e-38 331 284
0.01352872 0.64300001 -0.049605306 1.7418354e-38 332 284
0.014656113 0.64300001 -0.049605306 1.7233962e-38 333 284
0.015808053 0.64399999 -0.049682453 1.6865531e-38 334 284
0.0169372 0.64399999 -0.049682453 1.6681138e-38 335 284
0.018122453 0.64600003 -0.049836747 1.6680791e-38 336 284
0.019255107 0.64600003 -0.049836747 1.6680791e-38 337 284
0.020387759 0.64600003 -0.049836747 1.6312022e-38 338 284
0.021553727 0.64700001 -0.049913891 1.6312022e-38 339 284
0.022688134 0.64700001 -0.049913891 1.6127631e-38 340 284
0.023859359 0.648 -0.049991041 1.6127631e-38 341 284
0.025034092 0.64899999 -0.050068185 1.5852476e-38 342 284
0.026172007 0.64899999 -0.050068185 1.5852476e-38 343 284
0.027351998 0.64999998 -0.050145328 1.5760643e-38 344 284
0.028491667 0.64999998 -0.050145328 1.5576612e-38 345 284
0.029722504 0.65200001 -0.050299626 1.5484059e-38 346 284
0.03091302 0.653 -0.050376773 1.5391864e-38 347 284
0.032057945 0.653 -0.050376773 1.4748647e-38 348 284
0.033253718 0.65399998 -0.050453916 1.4472058e-38 349 284
0.034400396 0.65399998 -0.050453916 1.4287308e-38 350 284
0.03560143 0.65499997 -0.050531063 1.3826689e-38 351 284
0.036862079 0.65700001 -0.050685361 1.327533e-38 352 284
0.038071878 0.65799999 -0.050762504 1.3183134e-38 353 284
0.039285187 0.65899998 -0.050839648 1.2906201e-38 354 284
0.040563367 0.66100001 -0.050993945 1.2906201e-38 355 284
0.04172232 0.66100001 -0.050993945 1.2814369e-38 356 284
0.043011017 0.66299999 -0.051148236 1.2906564e-38 357 284
0.044173479 0.66299999 -0.051148236 1.2630706e-38 358 284
0.045541082 0.66600001 -0.051379681 1.2722902e-38 359 284
0.046778932 0.667 -0.051456824 1.290658e-38 360 284
0.048164066 0.67000002 -0.051688269 1.290658e-38 361 284
0.049412437 0.671 -0.051765412 1.2998428e-38 362 284
0.050588924 0.671 -0.051765412 1.2998428e-38 363 284
0.051765412 0.671 -0.051765412 1.2445646e-38 364 284
-0.0079040267 0.64399999 -0.050811596 1.8158568e-38 313 285
-0.00675384 0.64200002 -0.0506538 1.7882285e-38 314 285
-0.0056194332 0.64099997 -0.050574899 1.695997e-38 315 285
-0.0044955462 0.64099997 -0.050574899 1.7234707e-38 316 285
-0.0033663998 0.63999999 -0.050495997 1.7326903e-38 317 285
-0.0022442664 0.63999999 -0.050495997 1.7878625e-38 318 285
-0.0011221332 0.63999999 -0.050495997 1.8063376e-38 319 285
0 0.63999999 -0.050495997 1.8155569e-38 320 285
0.0011221332 0.63999999 -0.050495997 1.8063373e-38 321 285
0.0022477731 0.64099997 -0.050574899 1.8155566e-38 322 285
0.00337692 0.64200002 -0.0506538 1.8155566e-38 323 285
0.00450256 0.64200002 -0.0506538 1.8063736e-38 324 285
0.0056281998 0.64200002 -0.0506538 1.7787508e-38 325 285
0.0067433193 0.64099997 -0.050574899 1.7788228e-38 326 285
0.0078672068 0.64099997 -0.050574899 1.7603836e-38 327 285
0.0089910924 0.64099997 -0.050574899 1.7695663e-38 328 285
0.01013076 0.64200002 -0.0506538 1.7603467e-38 329 285
0.0112564 0.64200002 -0.0506538 1.7419076e-38 330 285
0.01238204 0.64200002 -0.0506538 1.7234325e-38 331 285
0.01350768 0.64200002 -0.0506538 1.6865902e-38 332 285
0.01463332 0.64200002 -0.0506538 1.6681511e-38 333 285
0.015783506 0.64300001 -0.050732698 1.6313094e-38 334 285
0.016910899 0.64300001 -0.050732698 1.6313094e-38 335 285
0.018066347 0.64399999 -0.050811596 1.6036164e-38 336 285
0.019195493 0.64399999 -0.050811596 1.6036164e-38 337 285
0.020387759 0.64600003 -0.0509694 1.5943968e-38 338 285
0.021520413 0.64600003 -0.0509694 1.5851773e-38 339 285
0.022688134 0.64700001 -0.051048297 1.5851767e-38 340 285
0.023822539 0.64700001 -0.051048297 1.5667374e-38 341 285
0.024995521 0.648 -0.051127199 1.5576608e-38 342 285
0.026172007 0.64899999 -0.051206097 1.5392217e-38 343 285
0.027309919 0.64899999 -0.051206097 1.5208551e-38 344 285
0.028491667 0.64999998 -0.051284995 1.5116356e-38 345 285
0.029722504 0.65200001 -0.051442798 1.502416e-38 346 285
0.030865679 0.65200001 -0.051442798 1.483941e-38 347 285
0.032057945 0.653 -0.0515217 1.4287662e-38 348 285
0.033253718 0.65399998 -0.051600594 1.4011433e-38 349 285
0.034400396 0.65399998 -0.051600594 1.3643024e-38 350 285
0.035547078 0.65399998 -0.051600594 1.3458274e-38 351 285
0.036749862 0.65499997 -0.051679496 1.3182784e-38 352 285
0.038014017 0.65700001 -0.051837299 1.2906198e-38 353 285
0.039225571 0.65799999 -0.051916201 1.2814369e-38 354 285
0.04044063 0.65899998 -0.051995095 1.2722173e-38 355 285
0.04172232 0.66100001 -0.052152898 1.2538508e-38 356 285
0.043011017 0.66299999 -0.052310698 1.2630703e-38 357 285
0.044173479 0.66299999 -0.052310698 1.2538873e-38 358 285
0.045541082 0.66600001 -0.052547399 1.2631069e-38 359 285
0.046778932 0.667 -0.052626297 1.2722549e-38 360 285
0.048164066 0.67000002 -0.052863002 1.290658e-38 361 285
0.049412437 0.671 -0.052941896 1.2630368e-38 362 285
0.050588924 0.671 -0.052941896 1.2354142e-38 363 285
0.051765412 0.671 -0.052941896 1.1250343e-38 364 285
-0.011151199 0.63599998 -0.051295515 1.825292e-38 310 286
-0.010114979 0.64099997 -0.051698782 1.7607551e-38 311 286
-0.0090191467 0.64300001 -0.051860094 1.7972695e-38 312 286
-0.0078917528 0.64300001 -0.051860094 1.723513e-38 313 286
-0.00675384 0.64200002 -0.051779442 1.7511311e-38 314 286
-0.0056106662 0.63999999 -0.051618129 1.7326918e-38 315 286
-0.0044885329 0.63999999 -0.051618129 1.7695313e-38 316 286
-0.0033663998 0.63999999 -0.051618129 1.7971541e-38 317 286
-0.0022442664 0.63999999 -0.051618129 1.8064445e-38 318 286
-0.0011221332 0.63999999 -0.051618129 1.8064445e-38 319 286
0 0.63999999 -0.051618129 1.806444e-38 320 286
0.0011221332 0.63999999 -0.051618129 1.806444e-38 321 286
0.0022442664 0.63999999 -0.051618129 1.8063721e-38 322 286
0.0033663998 0.63999999 -0.051618129 1.8063721e-38 323 286
0.0044955462 0.64099997 -0.051698782 1.7971527e-38 324 286
0.0056194332 0.64099997 -0.051698782 1.7787135e-38 325 286
0.0067433193 0.64099997 -0.051698782 1.7785708e-38 326 286
0.0078672068 0.64099997 -0.051698782 1.7785708e-38 327 286
0.0089910924 0.64099997 -0.051698782 1.750947e-38 328 286
0.01013076 0.64200002 -0.051779442 1.7048493e-38 329 286
0.0112564 0.64200002 -0.051779442 1.6589664e-38 330 286
0.01238204 0.64200002 -0.051779442 1.6405274e-38 331 286
0.01350768 0.64200002 -0.051779442 1.6219811e-38 332 286
0.01463332 0.64200002 -0.051779442 1.6219811e-38 333 286
0.01575896 0.64200002 -0.051779442 1.6586441e-38 334 286
0.016910899 0.64300001 -0.051860094 1.6586441e-38 335 286
0.018038293 0.64300001 -0.051860094 1.6127268e-38 336 286
0.019195493 0.64399999 -0.051940747 1.6034714e-38 337 286
0.02032464 0.64399999 -0.051940747 1.5759204e-38 338 286
0.021453787 0.64399999 -0.051940747 1.5759204e-38 339 286
0.022653066 0.64600003 -0.052102055 1.5575526e-38 340 286
0.023822539 0.64700001 -0.052182708 1.5575526e-38 341 286
0.024995521 0.648 -0.05226336 1.5391495e-38 342 286
0.02613168 0.648 -0.05226336 1.5207104e-38 343 286
0.027309919 0.64899999 -0.052344013 1.493124e-38 344 286
0.028447833 0.64899999 -0.052344013 1.4746847e-38 345 286
0.029631332 0.64999998 -0.052424666 1.4011801e-38 346 286
0.030865679 0.65200001 -0.052585974 1.3643018e-38 347 286
0.032008853 0.65200001 -0.052585974 1.3274233e-38 348 286
0.033202872 0.653 -0.052666627 1.30902e-38 349 286
0.034400396 0.65399998 -0.052747279 1.2998017e-38 350 286
0.035547078 0.65399998 -0.052747279 1.2998017e-38 351 286
0.036749862 0.65499997 -0.052827932 1.2997318e-38 352 286
0.038014017 0.65700001 -0.052989237 1.2905121e-38 353 286
0.039225571 0.65799999 -0.05306989 1.2721453e-38 354 286
0.04044063 0.65899998 -0.053150542 1.2721453e-38 355 286
0.04172232 0.66100001 -0.053311851 1.2538861e-38 356 286
0.042946145 0.662 -0.053392503 1.2538861e-38 357 286
0.044173479 0.66299999 -0.053473156 1.2630703e-38 358 286
0.045541082 0.66600001 -0.053715117 1.2630703e-38 359 286
0.046778932 0.667 -0.05379577 1.2814018e-38 360 286
0.048164066 0.67000002 -0.054037735 1.2814018e-38 361 286
0.049412437 0.671 -0.054118387 1.2537457e-38 362 286
0.050588924 0.671 -0.054118387 1.1984283e-38 363 286
-0.012266319 0.63599998 -0.052410636 1.8252567e-38 309 287
-0.011151199 0.63599998 -0.052410636 1.8250361e-38 310 287
-0.010114979 0.64099997 -0.052822668 1.7236209e-38 311 287
-0.0089910924 0.64099997 -0.052822668 1.7234351e-38 312 287
-0.0078549329 0.63999999 -0.052740265 1.704996e-38 313 287
-0.0067117601 0.63800001 -0.05257545 1.7694587e-38 314 287
-0.0055931332 0.63800001 -0.05257545 1.8063371e-38 315 287
-0.0044745067 0.63800001 -0.05257545 1.8063724e-38 316 287
-0.00335588 0.63800001 -0.05257545 1.8155919e-38 317 287
-0.0022372534 0.63800001 -0.05257545 1.815627e-38 318 287
-0.0011186267 0.63800001 -0.05257545 1.815627e-38 319 287
0 0.63800001 -0.05257545 1.8156275e-38 320 287
0.0011186267 0.63800001 -0.05257545 1.8156275e-38 321 287
0.0022372534 0.63800001 -0.05257545 1.7788212e-38 322 287
0.00335588 0.63800001 -0.05257545 1.760382e-38 323 287
0.0044885329 0.63999999 -0.052740265 1.741872e-38 324 287
0.0056106662 0.63999999 -0.052740265 1.7234327e-38 325 287
0.0067327996 0.63999999 -0.052740265 1.7051015e-38 326 287
0.0078549329 0.63999999 -0.052740265 1.6682234e-38 327 287
0.0089770658 0.63999999 -0.052740265 1.6681505e-38 328 287
0.010114979 0.64099997 -0.052822668 1.6405277e-38 329 287
0.011238866 0.64099997 -0.052822668 1.6220886e-38 330 287
0.012362752 0.64099997 -0.052822668 1.6128332e-38 331 287
0.013486639 0.64099997 -0.052822668 1.6035786e-38 332 287
0.014610525 0.64099997 -0.052822668 1.6035786e-38 333 287
0.01575896 0.64200002 -0.052905083 1.5759571e-38 334 287
0.016884599 0.64200002 -0.052905083 1.5667374e-38 335 287
0.018038293 0.64300001 -0.052987486 1.5667372e-38 336 287
0.019195493 0.64399999 -0.05306989 1.5575176e-38 337 287
0.02032464 0.64399999 -0.05306989 1.5208549e-38 338 287
0.021453787 0.64399999 -0.05306989 1.5116353e-38 339 287
0.022582933 0.64399999 -0.05306989 1.4931962e-38 340 287
0.023785722 0.64600003 -0.053234708 1.4839766e-38 341 287
0.024956945 0.64700001 -0.053317111 1.4839766e-38 342 287
0.026091354 0.64700001 -0.053317111 1.4563179e-38 343 287
0.02726784 0.648 -0.053399518 1.4287664e-38 344 287
0.028447833 0.64899999 -0.053481925 1.4011079e-38 345 287
0.029631332 0.64999998 -0.053564329 1.3458627e-38 346 287
0.030770998 0.64999998 -0.053564329 1.3090203e-38 347 287
0.032008853 0.65200001 -0.053729147 1.2997318e-38 348 287
0.033202872 0.653 -0.05381155 1.2997318e-38 349 287
0.034400396 0.65399998 -0.053893957 1.2721102e-38 350 287
0.035547078 0.65399998 -0.053893957 1.2628907e-38 351 287
0.036749862 0.65499997 -0.053976361 1.2721455e-38 352 287
0.038014017 0.65700001 -0.054141179 1.262926e-38 353 287
0.039225571 0.65799999 -0.054223582 1.2445945e-38 354 287
0.040379263 0.65799999 -0.054223582 1.2445945e-38 355 287
0.041596077 0.65899998 -0.054305989 1.2537787e-38 356 287
0.042881273 0.66100001 -0.054470807 1.272182e-38 357 287
0.044040225 0.66100001 -0.054470807 1.2354845e-38 358 287
0.045541082 0.66600001 -0.054882839 1.2354845e-38 359 287
0.046778932 0.667 -0.054965243 1.2354495e-38 360 287
0.048164066 0.67000002 -0.055212468 1.2261939e-38 361 287
0.049412437 0.671 -0.055294871 1.1709156e-38 362 287
-0.0133604 0.63499999 -0.053441599 1.7513885e-38 308 288
-0.012266319 0.63599998 -0.053525757 1.6868516e-38 309 288
-0.011151199 0.63599998 -0.053525757 1.7784669e-38 310 288
-0.010036079 0.63599998 -0.053525757 1.7876865e-38 311 288
-0.0089349868 0.63700002 -0.053609919 1.7878274e-38 312 288
-0.0078181131 0.63700002 -0.053609919 1.7970472e-38 313 288
-0.0066907196 0.63599998 -0.053525757 1.7971174e-38 314 288
-0.0055755996 0.63599998 -0.053525757 1.8063371e-38 315 288
-0.0044674934 0.63700002 -0.053609919 1.8156275e-38 316 288
-0.0033506199 0.63700002 -0.053609919 1.8340306e-38 317 288
-0.0022337467 0.63700002 -0.053609919 1.8155919e-38 318 288
-0.0011168733 0.63700002 -0.053609919 1.8063724e-38 319 288
0 0.63700002 -0.053609919 1.8063721e-38 320 288
0.0011168733 0.63700002 -0.053609919 1.7879328e-38 321 288
0.0022372534 0.63800001 -0.053694081 1.7787486e-38 322 288
