# .PCD v.7 - Point Cloud Data file format
FIELDS x y z rgb imX imY
SIZE 4 4 4 4 4 4
TYPE F F F F F F
COUNT 1 1 1 1 1 1
WIDTH 851
HEIGHT 1
VIEWPOINT 0 0 0 1 0 0 0
POINTS 851
DATA ascii
0.029210532 0.833 0.061342116 1.4011488e-38 340 198
0.030671058 0.833 0.061342116 1.4103685e-38 341 198
0.032131586 0.833 0.061342116 1.4379549e-38 342 198
0.033511456 0.83099997 0.061194837 1.4471745e-38 343 198
0.03496848 0.83099997 0.061194837 1.4839082e-38 344 198
0.036425497 0.83099997 0.061194837 1.5115668e-38 345 198
0.037882518 0.83099997 0.061194837 1.5207862e-38 346 198
0.039339535 0.83099997 0.061194837 1.5484808e-38 347 198
0.040796559 0.83099997 0.061194837 1.6034028e-38 348 198
0.042253576 0.83099997 0.061194837 1.5665605e-38 349 198
0.043815799 0.833 0.061342116 1.4651077e-38 350 198
0.045167617 0.83099997 0.061194837 1.3452535e-38 351 198
0.046624638 0.83099997 0.061194837 1.2164313e-38 352 198
0.048197377 0.833 0.061342116 1.3270661e-38 353 198
0.049657907 0.833 0.061342116 1.4192634e-38 354 198
0.051118433 0.833 0.061342116 1.5391177e-38 355 198
0.05257896 0.833 0.061342116 1.5116015e-38 356 198
0.054039486 0.833 0.061342116 1.4747593e-38 357 198
0.055500012 0.833 0.061342116 1.4471349e-38 358 198
0.056960538 0.833 0.061342116 1.4379154e-38 359 198
0.058421064 0.833 0.061342116 1.3828148e-38 360 198
0.05988159 0.833 0.061342116 1.3274974e-38 361 198
0.061489396 0.83499998 0.061489396 1.0608924e-38 362 198
0.062802643 0.833 0.061342116 1.300601e-38 363 198
0.064263172 0.833 0.061342116 1.5677226e-38 364 198
-0.060752995 0.82499999 0.059306499 1.6313471e-38 278 199
-0.059306499 0.82499999 0.059306499 1.6590057e-38 279 199
-0.057859998 0.82499999 0.059306499 1.677622e-38 280 199
-0.056413498 0.82499999 0.059306499 1.7053168e-38 281 199
-0.054966997 0.82499999 0.059306499 1.7696019e-38 282 199
-0.053520497 0.82499999 0.059306499 1.7788214e-38 283 199
-0.052200239 0.82700002 0.059450272 1.7788932e-38 284 199
-0.050750233 0.82700002 0.059450272 1.7973323e-38 285 199
-0.049180996 0.82499999 0.059306499 1.8064796e-38 286 199
-0.047734499 0.82499999 0.059306499 1.8064796e-38 287 199
-0.046400212 0.82700002 0.059450272 1.7972244e-38 288 199
-0.044950206 0.82700002 0.059450272 1.7788212e-38 289 199
-0.0435002 0.82700002 0.059450272 1.7420871e-38 290 199
-0.041948497 0.82499999 0.059306499 1.7328675e-38 291 199
-0.040502001 0.82499999 0.059306499 1.7050659e-38 292 199
-0.039055496 0.82499999 0.059306499 1.6958464e-38 293 199
-0.037608996 0.82499999 0.059306499 1.6958113e-38 294 199
-0.036250167 0.82700002 0.059450272 1.6681886e-38 295 199
-0.034800157 0.82700002 0.059450272 1.6772647e-38 296 199
-0.033350151 0.82700002 0.059450272 1.6404223e-38 297 199
-0.031900145 0.82700002 0.059450272 1.6219476e-38 298 199
-0.030450139 0.82700002 0.059450272 1.6127281e-38 299 199
-0.029000133 0.82700002 0.059450272 1.6217678e-38 300 199
-0.027550125 0.82700002 0.059450272 1.6125481e-38 301 199
-0.02610012 0.82700002 0.059450272 1.5849615e-38 302 199
-0.024650112 0.82700002 0.059450272 1.5757419e-38 303 199
-0.023200106 0.82700002 0.059450272 1.5481192e-38 304 199
-0.0217501 0.82700002 0.059450272 1.5388997e-38 305 199
-0.020349186 0.829 0.059594043 1.5113485e-38 306 199
-0.018941259 0.83099997 0.059737816 1.4929093e-38 307 199
-0.017526319 0.833 0.05988159 1.4653583e-38 308 199
-0.016065793 0.833 0.05988159 1.4561028e-38 309 199
-0.014605266 0.833 0.05988159 1.428552e-38 310 199
-0.0131763 0.83499998 0.060025364 1.4193323e-38 311 199
-0.011712266 0.83499998 0.060025364 1.400821e-38 312 199
-0.010248233 0.83499998 0.060025364 1.3916015e-38 313 199
-0.0087841991 0.83499998 0.060025364 1.3822723e-38 314 199
-0.0073201661 0.83499998 0.060025364 1.3361745e-38 315 199
-0.0058561331 0.83499998 0.060025364 1.3086235e-38 316 199
-0.0043920996 0.83499998 0.060025364 1.2901843e-38 317 199
-0.0029280665 0.83499998 0.060025364 1.2350118e-38 318 199
-0.0014640333 0.83499998 0.060025364 1.2165367e-38 319 199
0 0.83499998 0.060025364 1.2440162e-38 320 199
0.0014640333 0.83499998 0.060025364 1.2440162e-38 321 199
0.0029280665 0.83499998 0.060025364 1.2072105e-38 322 199
0.0043920996 0.83499998 0.060025364 1.2072105e-38 323 199
0.0058561331 0.83499998 0.060025364 1.1612213e-38 324 199
0.0073201661 0.83499998 0.060025364 1.1520017e-38 325 199
0.0087841991 0.83499998 0.060025364 1.1520017e-38 326 199
0.010248233 0.83499998 0.060025364 1.142782e-38 327 199
0.011712266 0.83499998 0.060025364 1.087573e-38 328 199
0.0131763 0.83499998 0.060025364 1.1059761e-38 329 199
0.014640332 0.83499998 0.060025364 1.1243086e-38 330 199
0.016104365 0.83499998 0.060025364 1.1243086e-38 331 199
0.017568398 0.83499998 0.060025364 1.1333483e-38 332 199
0.019032432 0.83499998 0.060025364 1.1886657e-38 333 199
0.020447372 0.833 0.05988159 1.1796254e-38 334 199
0.0219079 0.833 0.05988159 1.1981004e-38 335 199
0.023368426 0.833 0.05988159 1.2166837e-38 336 199
0.024828954 0.833 0.05988159 1.2719652e-38 337 199
0.02628948 0.833 0.05988159 1.3179204e-38 338 199
0.027750006 0.833 0.05988159 1.3640182e-38 339 199
0.029210532 0.833 0.05988159 1.3641614e-38 340 199
0.030671058 0.833 0.05988159 1.3733811e-38 341 199
0.032131586 0.833 0.05988159 1.4010041e-38 342 199
0.033592112 0.833 0.05988159 1.4102236e-38 343 199
0.035052639 0.833 0.05988159 1.4195156e-38 344 199
0.036425497 0.83099997 0.059737816 1.4287353e-38 345 199
0.037882518 0.83099997 0.059737816 1.4562849e-38 346 199
0.039339535 0.83099997 0.059737816 1.474724e-38 347 199
0.040796559 0.83099997 0.059737816 1.5297893e-38 348 199
0.042355273 0.833 0.05988159 1.5390088e-38 349 199
0.043710597 0.83099997 0.059737816 1.5115665e-38 350 199
0.045167617 0.83099997 0.059737816 1.5207862e-38 351 199
0.046624638 0.83099997 0.059737816 1.50224e-38 352 199
0.048197377 0.833 0.05988159 1.50224e-38 353 199
0.049657907 0.833 0.05988159 1.5115312e-38 354 199
0.050995696 0.83099997 0.059737816 1.5207868e-38 355 199
0.052452717 0.83099997 0.059737816 1.4656839e-38 356 199
0.054039486 0.833 0.05988159 1.4472448e-38 357 199
0.055500012 0.833 0.05988159 1.4288403e-38 358 199
0.056960538 0.833 0.05988159 1.391998e-38 359 199
0.058421064 0.833 0.05988159 1.3828501e-38 360 199
0.05988159 0.833 0.05988159 1.3275327e-38 361 199
0.061342116 0.833 0.05988159 1.1894604e-38 362 199
0.062802643 0.833 0.05988159 1.3092788e-38 363 199
0.064263172 0.833 0.05988159 1.3836181e-38 364 199
-0.064776897 0.82099998 0.057579465 1.5672143e-38 275 200
-0.063337415 0.82099998 0.057579465 1.5485874e-38 276 200
-0.062048711 0.82300001 0.057719734 1.5393678e-38 277 200
-0.06060572 0.82300001 0.057719734 1.6590739e-38 278 200
-0.059162725 0.82300001 0.057719734 1.7051716e-38 279 200
-0.057719734 0.82300001 0.057719734 1.75109e-38 280 200
-0.056276739 0.82300001 0.057719734 1.769529e-38 281 200
-0.054833744 0.82300001 0.057719734 1.7696016e-38 282 200
-0.053520497 0.82499999 0.057859998 1.7972244e-38 283 200
-0.052073997 0.82499999 0.057859998 1.7789298e-38 284 200
-0.0506275 0.82499999 0.057859998 1.7789298e-38 285 200
-0.049180996 0.82499999 0.057859998 1.7788579e-38 286 200
-0.047734499 0.82499999 0.057859998 1.7696382e-38 287 200
-0.046287999 0.82499999 0.057859998 1.7696382e-38 288 200
-0.044841498 0.82499999 0.057859998 1.7604186e-38 289 200
-0.043394998 0.82499999 0.057859998 1.7236127e-38 290 200
-0.041948497 0.82499999 0.057859998 1.69599e-38 291 200
-0.040502001 0.82499999 0.057859998 1.6683324e-38 292 200
-0.039055496 0.82499999 0.057859998 1.6498934e-38 293 200
-0.037608996 0.82499999 0.057859998 1.6313124e-38 294 200
-0.036162499 0.82499999 0.057859998 1.6128731e-38 295 200
-0.034715999 0.82499999 0.057859998 1.5853217e-38 296 200
-0.033269498 0.82499999 0.057859998 1.5576272e-38 297 200
-0.031822998 0.82499999 0.057859998 1.5667021e-38 298 200
-0.030450139 0.82700002 0.058000267 1.5574826e-38 299 200
-0.029000133 0.82700002 0.058000267 1.5298962e-38 300 200
-0.027550125 0.82700002 0.058000267 1.5114571e-38 301 200
-0.02610012 0.82700002 0.058000267 1.5113855e-38 302 200
-0.024650112 0.82700002 0.058000267 1.5021657e-38 303 200
-0.023200106 0.82700002 0.058000267 1.4562125e-38 304 200
-0.0217501 0.82700002 0.058000267 1.4377734e-38 305 200
-0.020349186 0.829 0.058140531 1.4284467e-38 306 200
-0.018941259 0.83099997 0.058280796 1.4192271e-38 307 200
-0.01748424 0.83099997 0.058280796 1.4008213e-38 308 200
-0.01602722 0.83099997 0.058280796 1.3823463e-38 309 200
-0.014605266 0.833 0.058421064 1.391562e-38 310 200
-0.01314474 0.833 0.058421064 1.3547197e-38 311 200
-0.011684213 0.833 0.058421064 1.327025e-38 312 200
-0.010248233 0.83499998 0.058561329 1.3085859e-38 313 200
-0.0087841991 0.83499998 0.058561329 1.2808222e-38 314 200
-0.0073201661 0.83499998 0.058561329 1.262383e-38 315 200
-0.0058561331 0.83499998 0.058561329 1.2255786e-38 316 200
-0.0043920996 0.83499998 0.058561329 1.19792e-38 317 200
-0.0029280665 0.83499998 0.058561329 1.1886654e-38 318 200
-0.0014640333 0.83499998 0.058561329 1.1794459e-38 319 200
0 0.83499998 0.058561329 1.1426045e-38 320 200
0.0014640333 0.83499998 0.058561329 1.1333849e-38 321 200
0.0029280665 0.83499998 0.058561329 1.1425711e-38 322 200
0.0043920996 0.83499998 0.058561329 1.1241679e-38 323 200
0.0058561331 0.83499998 0.058561329 1.1057303e-38 324 200
0.0073201661 0.83499998 0.058561329 1.0872913e-38 325 200
0.0087841991 0.83499998 0.058561329 1.0873982e-38 326 200
0.010248233 0.83499998 0.058561329 1.0781787e-38 327 200
0.011712266 0.83499998 0.058561329 1.0781787e-38 328 200
0.0131763 0.83499998 0.058561329 1.0781787e-38 329 200
0.014640332 0.83499998 0.058561329 1.0872913e-38 330 200
0.016104365 0.83499998 0.058561329 1.0872913e-38 331 200
0.017568398 0.83499998 0.058561329 1.0872893e-38 332 200
0.019032432 0.83499998 0.058561329 1.031972e-38 333 200
0.020496465 0.83499998 0.058561329 1.0781397e-38 334 200
0.021960499 0.83499998 0.058561329 1.1150181e-38 335 200
0.023368426 0.833 0.058421064 1.1427496e-38 336 200
0.024828954 0.833 0.058421064 1.1795919e-38 337 200
0.02628948 0.833 0.058421064 1.179844e-38 338 200
0.027750006 0.833 0.058421064 1.2167582e-38 339 200
0.029210532 0.833 0.058421064 1.2812219e-38 340 200
0.030671058 0.833 0.058421064 1.2812219e-38 341 200
0.032131586 0.833 0.058421064 1.2905495e-38 342 200
0.033592112 0.833 0.058421064 1.3182081e-38 343 200
0.035052639 0.833 0.058421064 1.364056e-38 344 200
0.036425497 0.83099997 0.058280796 1.3916788e-38 345 200
0.037882518 0.83099997 0.058280796 1.4284495e-38 346 200
0.039434217 0.833 0.058421064 1.4469245e-38 347 200
0.040894743 0.833 0.058421064 1.4286283e-38 348 200
0.042355273 0.833 0.058421064 1.4562511e-38 349 200
0.043710597 0.83099997 0.058280796 1.4747611e-38 350 200
0.045167617 0.83099997 0.058280796 1.4932002e-38 351 200
0.046624638 0.83099997 0.058280796 1.5208214e-38 352 200
0.048081655 0.83099997 0.058280796 1.4839791e-38 353 200
0.049538679 0.83099997 0.058280796 1.4748312e-38 354 200
0.050995696 0.83099997 0.058280796 1.4840507e-38 355 200
0.052452717 0.83099997 0.058280796 1.4564644e-38 356 200
0.053909738 0.83099997 0.058280796 1.4380252e-38 357 200
0.055366758 0.83099997 0.058280796 1.4287687e-38 358 200
0.056823779 0.83099997 0.058280796 1.4103296e-38 359 200
0.058280796 0.83099997 0.058280796 1.3459721e-38 360 200
0.05988159 0.833 0.058421064 1.327533e-38 361 200
0.061194837 0.83099997 0.058280796 1.1526176e-38 362 200
0.062501073 0.829 0.058140531 1.1894598e-38 363 200
0.063954584 0.829 0.058140531 1.263691e-38 364 200
-0.067985497 0.82499999 0.056413498 1.5674323e-38 273 201
-0.066538997 0.82499999 0.056413498 1.5762499e-38 274 201
-0.064776897 0.82099998 0.05613998 1.5301879e-38 275 201
-0.063337415 0.82099998 0.05613998 1.6406739e-38 276 201
-0.062048711 0.82300001 0.056276739 1.6683324e-38 277 201
-0.06060572 0.82300001 0.056276739 1.6775502e-38 278 201
-0.059162725 0.82300001 0.056276739 1.7144284e-38 279 201
-0.057719734 0.82300001 0.056276739 1.760382e-38 280 201
-0.056276739 0.82300001 0.056276739 1.7696016e-38 281 201
-0.054833744 0.82300001 0.056276739 1.7696382e-38 282 201
-0.053390753 0.82300001 0.056276739 1.7880774e-38 283 201
-0.051947758 0.82300001 0.056276739 1.778895e-38 284 201
-0.0506275 0.82499999 0.056413498 1.778895e-38 285 201
-0.049180996 0.82499999 0.056413498 1.7788231e-38 286 201
-0.047734499 0.82499999 0.056413498 1.7696034e-38 287 201
-0.046287999 0.82499999 0.056413498 1.7510918e-38 288 201
-0.044841498 0.82499999 0.056413498 1.7418723e-38 289 201
-0.043394998 0.82499999 0.056413498 1.7051012e-38 290 201
-0.041948497 0.82499999 0.056413498 1.668259e-38 291 201
-0.040502001 0.82499999 0.056413498 1.6497846e-38 292 201
-0.039055496 0.82499999 0.056413498 1.6313094e-38 293 201
-0.037608996 0.82499999 0.056413498 1.6036161e-38 294 201
-0.036162499 0.82499999 0.056413498 1.585177e-38 295 201
-0.034715999 0.82499999 0.056413498 1.5758851e-38 296 201
-0.033269498 0.82499999 0.056413498 1.5390069e-38 297 201
-0.031822998 0.82499999 0.056413498 1.5298223e-38 298 201
-0.030450139 0.82700002 0.056550261 1.5113832e-38 299 201
-0.029000133 0.82700002 0.056550261 1.4930163e-38 300 201
-0.027550125 0.82700002 0.056550261 1.4746131e-38 301 201
-0.02610012 0.82700002 0.056550261 1.4653577e-38 302 201
-0.024650112 0.82700002 0.056550261 1.4469186e-38 303 201
-0.023200106 0.82700002 0.056550261 1.4376267e-38 304 201
-0.0217501 0.82700002 0.056550261 1.4191876e-38 305 201
-0.020349186 0.829 0.05668702 1.4098961e-38 306 201
-0.018941259 0.83099997 0.056823779 1.3453592e-38 307 201
-0.01748424 0.83099997 0.056823779 1.3176998e-38 308 201
-0.01602722 0.83099997 0.056823779 1.2623824e-38 309 201
-0.014605266 0.833 0.056960538 1.2254672e-38 310 201
-0.01314474 0.833 0.056960538 1.1793695e-38 311 201
-0.011684213 0.833 0.056960538 1.142564e-38 312 201
-0.010248233 0.83499998 0.057097297 1.142564e-38 313 201
-0.0087841991 0.83499998 0.057097297 1.1148717e-38 314 201
-0.0073201661 0.83499998 0.057097297 1.1148717e-38 315 201
-0.0058561331 0.83499998 0.057097297 1.1607919e-38 316 201
-0.0043920996 0.83499998 0.057097297 1.1792309e-38 317 201
-0.0029280665 0.83499998 0.057097297 1.1515739e-38 318 201
-0.0014640333 0.83499998 0.057097297 1.1423543e-38 319 201
0 0.83499998 0.057097297 1.1239512e-38 320 201
0.0014640333 0.83499998 0.057097297 1.1239512e-38 321 201
0.0029280665 0.83499998 0.057097297 1.1055837e-38 322 201
0.0043920996 0.83499998 0.057097297 1.1055837e-38 323 201
0.0058701597 0.83700001 0.05723406 1.0872522e-38 324 201
0.0073376996 0.83700001 0.05723406 1.0780325e-38 325 201
0.0088052405 0.83700001 0.05723406 1.059701e-38 326 201
0.01027278 0.83700001 0.05723406 1.059701e-38 327 201
0.011740319 0.83700001 0.05723406 1.0781041e-38 328 201
0.013207859 0.83700001 0.05723406 1.0781041e-38 329 201
0.014640332 0.83499998 0.057097297 1.0872525e-38 330 201
0.016104365 0.83499998 0.057097297 1.0780328e-38 331 201
0.017568398 0.83499998 0.057097297 1.1055834e-38 332 201
0.019032432 0.83499998 0.057097297 1.1055834e-38 333 201
0.020496465 0.83499998 0.057097297 1.114803e-38 334 201
0.021960499 0.83499998 0.057097297 1.1240584e-38 335 201
0.023424532 0.83499998 0.057097297 1.1332427e-38 336 201
0.024888566 0.83499998 0.057097297 1.1424622e-38 337 201
0.02628948 0.833 0.056960538 1.0692092e-38 338 201
0.027750006 0.833 0.056960538 1.0876844e-38 339 201
0.029210532 0.833 0.056960538 1.1245619e-38 340 201
0.030671058 0.833 0.056960538 1.1522207e-38 341 201
0.032131586 0.833 0.056960538 1.1800225e-38 342 201
0.033592112 0.833 0.056960538 1.2260844e-38 343 201
0.035052639 0.833 0.056960538 1.3638017e-38 344 201
0.036425497 0.83099997 0.056823779 1.3914605e-38 345 201
0.037882518 0.83099997 0.056823779 1.4007522e-38 346 201
0.039434217 0.833 0.056960538 1.4099718e-38 347 201
0.040894743 0.833 0.056960538 1.4191921e-38 348 201
0.042253576 0.83099997 0.056823779 1.4468147e-38 349 201
0.043710597 0.83099997 0.056823779 1.4011122e-38 350 201
0.045167617 0.83099997 0.056823779 1.4195153e-38 351 201
0.046624638 0.83099997 0.056823779 1.4470296e-38 352 201
0.048081655 0.83099997 0.056823779 1.4470296e-38 353 201
0.049538679 0.83099997 0.056823779 1.437918e-38 354 201
0.050995696 0.83099997 0.056823779 1.4563211e-38 355 201
0.052452717 0.83099997 0.056823779 1.4379536e-38 356 201
0.053909738 0.83099997 0.056823779 1.4286981e-38 357 201
0.055366758 0.83099997 0.056823779 1.3919274e-38 358 201
0.056823779 0.83099997 0.056823779 1.3734883e-38 359 201
0.058280796 0.83099997 0.056823779 1.318386e-38 360 201
0.059737816 0.83099997 0.056823779 1.2999469e-38 361 201
0.061047558 0.829 0.05668702 1.2262295e-38 362 201
0.062350284 0.82700002 0.056550261 1.1893154e-38 363 201
0.06380029 0.82700002 0.056550261 1.1531268e-38 364 201
0.0652503 0.82700002 0.056550261 1.4850311e-38 365 201
-0.069431998 0.82499999 0.054966997 1.6963585e-38 272 202
-0.067985497 0.82499999 0.054966997 1.5027477e-38 273 202
-0.066538997 0.82499999 0.054966997 1.6036886e-38 274 202
-0.064934701 0.82300001 0.054833744 1.6221278e-38 275 202
-0.06349171 0.82300001 0.054833744 1.6866621e-38 276 202
-0.062048711 0.82300001 0.054833744 1.7143209e-38 277 202
-0.06060572 0.82300001 0.054833744 1.7235758e-38 278 202
-0.059162725 0.82300001 0.054833744 1.7512344e-38 279 202
-0.057719734 0.82300001 0.054833744 1.7604183e-38 280 202
-0.05613998 0.82099998 0.05470049 1.7696738e-38 281 202
-0.05470049 0.82099998 0.05470049 1.7788584e-38 282 202
-0.053261004 0.82099998 0.05470049 1.7788584e-38 283 202
-0.051947758 0.82300001 0.054833744 1.7604566e-38 284 202
-0.050504766 0.82300001 0.054833744 1.751237e-38 285 202
-0.049061771 0.82300001 0.054833744 1.760313e-38 286 202
-0.04761878 0.82300001 0.054833744 1.7326903e-38 287 202
-0.046287999 0.82499999 0.054966997 1.7142506e-38 288 202
-0.044841498 0.82499999 0.054966997 1.705031e-38 289 202
-0.043394998 0.82499999 0.054966997 1.6681881e-38 290 202
-0.041948497 0.82499999 0.054966997 1.649749e-38 291 202
-0.040502001 0.82499999 0.054966997 1.6313097e-38 292 202
-0.039055496 0.82499999 0.054966997 1.5944316e-38 293 202
-0.037608996 0.82499999 0.054966997 1.5759218e-38 294 202
-0.036162499 0.82499999 0.054966997 1.5667021e-38 295 202
-0.034715999 0.82499999 0.054966997 1.5481911e-38 296 202
-0.033269498 0.82499999 0.054966997 1.5113129e-38 297 202
-0.031822998 0.82499999 0.054966997 1.5021286e-38 298 202
-0.030450139 0.82700002 0.055100251 1.4836895e-38 299 202
-0.029000133 0.82700002 0.055100251 1.4652148e-38 300 202
-0.027550125 0.82700002 0.055100251 1.4468115e-38 301 202
-0.02610012 0.82700002 0.055100251 1.4191876e-38 302 202
-0.024650112 0.82700002 0.055100251 1.3823093e-38 303 202
-0.023200106 0.82700002 0.055100251 1.3730169e-38 304 202
-0.0217501 0.82700002 0.055100251 1.326955e-38 305 202
-0.020349186 0.829 0.055233505 1.2716743e-38 306 202
-0.018941259 0.83099997 0.055366758 1.2348319e-38 307 202
-0.01748424 0.83099997 0.055366758 1.2162503e-38 308 202
-0.01602722 0.83099997 0.055366758 1.2162503e-38 309 202
-0.014605266 0.833 0.055500012 1.1608991e-38 310 202
-0.01314474 0.833 0.055500012 1.1516796e-38 311 202
-0.011712266 0.83499998 0.055633266 1.1241303e-38 312 202
-0.010248233 0.83499998 0.055633266 1.1056913e-38 313 202
-0.0087841991 0.83499998 0.055633266 1.1056916e-38 314 202
-0.0073376996 0.83700001 0.055766519 1.096472e-38 315 202
-0.0058701597 0.83700001 0.055766519 1.0689931e-38 316 202
-0.0044026203 0.83700001 0.055766519 1.0689931e-38 317 202
-0.0029350799 0.83700001 0.055766519 1.0689578e-38 318 202
-0.0014675399 0.83700001 0.055766519 1.0504827e-38 319 202
0 0.83700001 0.055766519 1.0412634e-38 320 202
0.0014675399 0.83700001 0.055766519 1.0412634e-38 321 202
0.0029350799 0.83700001 0.055766519 1.0137123e-38 322 202
0.0044026203 0.83700001 0.055766519 1.0229319e-38 323 202
0.0058701597 0.83700001 0.055766519 9.9538083e-39 324 202
0.0073376996 0.83700001 0.055766519 9.9538083e-39 325 202
0.0088052405 0.83700001 0.055766519 1.0137477e-38 326 202
0.01027278 0.83700001 0.055766519 1.0137477e-38 327 202
0.011740319 0.83700001 0.055766519 1.0228953e-38 328 202
0.013207859 0.83700001 0.055766519 1.0412984e-38 329 202
0.014675399 0.83700001 0.055766519 1.0412987e-38 330 202
0.016142938 0.83700001 0.055766519 1.0412987e-38 331 202
0.017568398 0.83499998 0.055633266 1.0412987e-38 332 202
0.019032432 0.83499998 0.055633266 1.0505183e-38 333 202
0.020496465 0.83499998 0.055633266 1.0504827e-38 334 202
0.021960499 0.83499998 0.055633266 1.0504827e-38 335 202
0.023424532 0.83499998 0.055633266 1.059703e-38 336 202
0.024888566 0.83499998 0.055633266 1.0781421e-38 337 202
0.026352599 0.83499998 0.055633266 1.0598827e-38 338 202
0.027816633 0.83499998 0.055633266 1.0875054e-38 339 202
0.029280664 0.83499998 0.055633266 1.0967237e-38 340 202
0.030671058 0.833 0.055500012 1.1059434e-38 341 202
0.032131586 0.833 0.055500012 1.1152702e-38 342 202
0.033592112 0.833 0.055500012 1.1613679e-38 343 202
0.035052639 0.833 0.055500012 1.1983181e-38 344 202
0.036513168 0.833 0.055500012 1.244416e-38 345 202
0.037973695 0.833 0.055500012 1.2904067e-38 346 202
0.039434217 0.833 0.055500012 1.308846e-38 347 202
0.040894743 0.833 0.055500012 1.3639478e-38 348 202
0.042253576 0.83099997 0.055366758 1.3731674e-38 349 202
0.043710597 0.83099997 0.055366758 1.3641634e-38 350 202
0.045167617 0.83099997 0.055366758 1.3733829e-38 351 202
0.046624638 0.83099997 0.055366758 1.4009693e-38 352 202
0.048081655 0.83099997 0.055366758 1.4009693e-38 353 202
0.049538679 0.83099997 0.055366758 1.3918574e-38 354 202
0.050995696 0.83099997 0.055366758 1.3918574e-38 355 202
0.052452717 0.83099997 0.055366758 1.4102242e-38 356 202
0.053909738 0.83099997 0.055366758 1.4009687e-38 357 202
0.055366758 0.83099997 0.055366758 1.373453e-38 358 202
0.056823779 0.83099997 0.055366758 1.3550137e-38 359 202
0.058280796 0.83099997 0.055366758 1.2999119e-38 360 202
0.059737816 0.83099997 0.055366758 1.2814369e-38 361 202
0.061047558 0.829 0.055233505 1.2078973e-38 362 202
0.062350284 0.82700002 0.055100251 1.1525799e-38 363 202
0.06380029 0.82700002 0.055100251 1.0793691e-38 364 202
0.065092497 0.82499999 0.054966997 1.4296764e-38 365 202
0.066538997 0.82499999 0.054966997 1.6134974e-38 366 202
-0.070878498 0.82499999 0.053520497 1.5673595e-38 271 203
-0.069431998 0.82499999 0.053520497 1.5577386e-38 272 203
-0.067820683 0.82300001 0.053390753 1.5577386e-38 273 203
-0.066377692 0.82300001 0.053390753 1.6681533e-38 274 203
-0.064934701 0.82300001 0.053390753 1.695776e-38 275 203
-0.06349171 0.82300001 0.053390753 1.7143212e-38 276 203
-0.061897919 0.82099998 0.053261004 1.7327603e-38 277 203
-0.060458437 0.82099998 0.053261004 1.7696019e-38 278 203
-0.059018951 0.82099998 0.053261004 1.7788214e-38 279 203
-0.057579465 0.82099998 0.053261004 1.7788582e-38 280 203
-0.05613998 0.82099998 0.053261004 1.7788582e-38 281 203
-0.05470049 0.82099998 0.053261004 1.7788231e-38 282 203
-0.053261004 0.82099998 0.053261004 1.7788231e-38 283 203
-0.051821519 0.82099998 0.053261004 1.7695682e-38 284 203
-0.050504766 0.82300001 0.053390753 1.7510931e-38 285 203
-0.049061771 0.82300001 0.053390753 1.7418017e-38 286 203
-0.04761878 0.82300001 0.053390753 1.7325821e-38 287 203
-0.046175785 0.82300001 0.053390753 1.6957748e-38 288 203
-0.044841498 0.82499999 0.053520497 1.6773356e-38 289 203
-0.043394998 0.82499999 0.053520497 1.6404571e-38 290 203
-0.041948497 0.82499999 0.053520497 1.6312375e-38 291 203
-0.040502001 0.82499999 0.053520497 1.5852123e-38 292 203
-0.039055496 0.82499999 0.053520497 1.5575176e-38 293 203
-0.037608996 0.82499999 0.053520497 1.5574457e-38 294 203
-0.036162499 0.82499999 0.053520497 1.5390066e-38 295 203
-0.034715999 0.82499999 0.053520497 1.5113838e-38 296 203
-0.033269498 0.82499999 0.053520497 1.4929088e-38 297 203
-0.031822998 0.82499999 0.053520497 1.4652498e-38 298 203
-0.030450139 0.82700002 0.053650245 1.437627e-38 299 203
-0.029000133 0.82700002 0.053650245 1.4099314e-38 300 203
-0.027550125 0.82700002 0.053650245 1.3914563e-38 301 203
-0.02610012 0.82700002 0.053650245 1.3545411e-38 302 203
-0.024650112 0.82700002 0.053650245 1.2992237e-38 303 203
-0.023200106 0.82700002 0.053650245 1.2531281e-38 304 203
-0.021802699 0.829 0.053779993 1.2070303e-38 305 203
-0.020349186 0.829 0.053779993 1.1425679e-38 306 203
-0.018941259 0.83099997 0.053909738 1.1333483e-38 307 203
-0.01748424 0.83099997 0.053909738 1.1239863e-38 308 203
-0.01602722 0.83099997 0.053909738 1.1423894e-38 309 203
-0.014605266 0.833 0.054039486 1.1240584e-38 310 203
-0.0131763 0.83499998 0.05416923 1.114803e-38 311 203
-0.011712266 0.83499998 0.05416923 1.1056189e-38 312 203
-0.010248233 0.83499998 0.05416923 1.1056189e-38 313 203
-0.0088052405 0.83700001 0.054298978 1.0872874e-38 314 203
-0.0073376996 0.83700001 0.054298978 1.0780678e-38 315 203
-0.0058701597 0.83700001 0.054298978 1.0598085e-38 316 203
-0.0044026203 0.83700001 0.054298978 1.050553e-38 317 203
-0.0029350799 0.83700001 0.054298978 1.0505533e-38 318 203
-0.0014675399 0.83700001 0.054298978 1.0413338e-38 319 203
0 0.83700001 0.054298978 1.0137474e-38 320 203
0.0014675399 0.83700001 0.054298978 1.0045278e-38 321 203
0.0029350799 0.83700001 0.054298978 1.0044562e-38 322 203
0.0044026203 0.83700001 0.054298978 1.0136758e-38 323 203
0.0058701597 0.83700001 0.054298978 1.0136402e-38 324 203
0.0073376996 0.83700001 0.054298978 1.0136402e-38 325 203
0.0088052405 0.83700001 0.054298978 1.0136758e-38 326 203
0.01027278 0.83700001 0.054298978 1.0136758e-38 327 203
0.011740319 0.83700001 0.054298978 1.0044562e-38 328 203
0.013207859 0.83700001 0.054298978 1.0136758e-38 329 203
0.014675399 0.83700001 0.054298978 1.0044928e-38 330 203
0.016142938 0.83700001 0.054298978 1.0044928e-38 331 203
0.017610481 0.83700001 0.054298978 1.02286e-38 332 203
0.01907802 0.83700001 0.054298978 1.02286e-38 333 203
0.020545561 0.83700001 0.054298978 1.02286e-38 334 203
0.0220131 0.83700001 0.054298978 1.02286e-38 335 203
0.023424532 0.83499998 0.05416923 1.0137126e-38 336 203
0.024888566 0.83499998 0.05416923 1.0321517e-38 337 203
0.026352599 0.83499998 0.05416923 1.0322235e-38 338 203
0.027816633 0.83499998 0.05416923 1.0414431e-38 339 203
0.029280664 0.83499998 0.05416923 1.0506982e-38 340 203
0.030744698 0.83499998 0.05416923 1.0599178e-38 341 203
0.03220873 0.83499998 0.05416923 1.0874691e-38 342 203
0.033672765 0.83499998 0.05416923 1.0966887e-38 343 203
0.035136797 0.83499998 0.05416923 1.0969758e-38 344 203
0.036513168 0.833 0.054039486 1.1338182e-38 345 203
0.037973695 0.833 0.054039486 1.2166131e-38 346 203
0.039434217 0.833 0.054039486 1.2719304e-38 347 203
0.040894743 0.833 0.054039486 1.3270683e-38 348 203
0.042253576 0.83099997 0.053909738 1.3454716e-38 349 203
0.043710597 0.83099997 0.053909738 1.3456153e-38 350 203
0.045167617 0.83099997 0.053909738 1.3456153e-38 351 203
0.046624638 0.83099997 0.053909738 1.3456516e-38 352 203
0.048081655 0.83099997 0.053909738 1.3456516e-38 353 203
0.049538679 0.83099997 0.053909738 1.3548712e-38 354 203
0.050995696 0.83099997 0.053909738 1.3548712e-38 355 203
0.052452717 0.83099997 0.053909738 1.3640908e-38 356 203
0.053779993 0.829 0.053779993 1.3640908e-38 357 203
0.055233505 0.829 0.053779993 1.33654e-38 358 203
0.05668702 0.829 0.053779993 1.3273204e-38 359 203
0.058140531 0.829 0.053779993 1.2905495e-38 360 203
0.059594043 0.829 0.053779993 1.2813299e-38 361 203
0.061047558 0.829 0.053779993 1.217045e-38 362 203
0.062350284 0.82700002 0.053650245 1.152508e-38 363 203
0.06380029 0.82700002 0.053650245 1.0697172e-38 364 203
0.065092497 0.82499999 0.053520497 1.4384997e-38 365 203
0.066538997 0.82499999 0.053520497 1.5950582e-38 366 203
-0.072324999 0.82499999 0.052073997 1.6408967e-38 270 204
-0.070878498 0.82499999 0.052073997 1.5210424e-38 271 204
-0.069431998 0.82499999 0.052073997 1.6219848e-38 272 204
-0.067820683 0.82300001 0.051947758 1.6588631e-38 273 204
-0.066377692 0.82300001 0.051947758 1.6958466e-38 274 204
-0.064934701 0.82300001 0.051947758 1.7050662e-38 275 204
-0.06349171 0.82300001 0.051947758 1.7144284e-38 276 204
-0.061897919 0.82099998 0.051821519 1.7420871e-38 277 204
-0.060458437 0.82099998 0.051821519 1.7788214e-38 278 204
-0.059018951 0.82099998 0.051821519 1.7972247e-38 279 204
-0.057579465 0.82099998 0.051821519 1.7788582e-38 280 204
-0.05613998 0.82099998 0.051821519 1.7788582e-38 281 204
-0.054567236 0.81900001 0.05169528 1.7696034e-38 282 204
-0.053131256 0.81900001 0.05169528 1.760348e-38 283 204
-0.051821519 0.82099998 0.051821519 1.7511284e-38 284 204
-0.050382029 0.82099998 0.051821519 1.7235057e-38 285 204
-0.049061771 0.82300001 0.051947758 1.7233258e-38 286 204
-0.04761878 0.82300001 0.051947758 1.7048508e-38 287 204
-0.046175785 0.82300001 0.051947758 1.6588961e-38 288 204
-0.044841498 0.82499999 0.052073997 1.622018e-38 289 204
-0.043394998 0.82499999 0.052073997 1.6127981e-38 290 204
-0.041948497 0.82499999 0.052073997 1.6035786e-38 291 204
-0.040502001 0.82499999 0.052073997 1.5667009e-38 292 204
-0.039055496 0.82499999 0.052073997 1.5482617e-38 293 204
-0.037608996 0.82499999 0.052073997 1.5298223e-38 294 204
-0.036162499 0.82499999 0.052073997 1.5021636e-38 295 204
-0.034715999 0.82499999 0.052073997 1.4837245e-38 296 204
-0.033269498 0.82499999 0.052073997 1.4191876e-38 297 204
-0.031822998 0.82499999 0.052073997 1.3638702e-38 298 204
-0.030450139 0.82700002 0.052200239 1.2993333e-38 299 204
-0.029000133 0.82700002 0.052200239 1.2349388e-38 300 204
-0.027550125 0.82700002 0.052200239 1.2072803e-38 301 204
-0.026163239 0.829 0.052326478 1.2163925e-38 302 204
-0.024709726 0.829 0.052326478 1.1887338e-38 303 204
-0.023256212 0.829 0.052326478 1.2068527e-38 304 204
-0.021802699 0.829 0.052326478 1.1884136e-38 305 204
-0.020349186 0.829 0.052326478 1.1516095e-38 306 204
-0.018941259 0.83099997 0.052452717 1.1423541e-38 307 204
-0.017526319 0.833 0.05257896 1.114803e-38 308 204
-0.016065793 0.833 0.05257896 1.1055834e-38 309 204
-0.014605266 0.833 0.05257896 1.0597733e-38 310 204
-0.0131763 0.83499998 0.052705199 1.0597733e-38 311 204
-0.011712266 0.83499998 0.052705199 1.0780322e-38 312 204
-0.01027278 0.83700001 0.052831437 1.0780322e-38 313 204
-0.0088052405 0.83700001 0.052831437 1.0597363e-38 314 204
-0.0073376996 0.83700001 0.052831437 1.0597363e-38 315 204
-0.0058701597 0.83700001 0.052831437 1.0505886e-38 316 204
-0.0044026203 0.83700001 0.052831437 1.0413691e-38 317 204
-0.0029350799 0.83700001 0.052831437 1.0504812e-38 318 204
-0.0014675399 0.83700001 0.052831437 1.0412616e-38 319 204
0 0.83700001 0.052831437 1.0045275e-38 320 204
0.0014675399 0.83700001 0.052831437 9.9530797e-39 321 204
0.0029350799 0.83700001 0.052831437 9.9527265e-39 322 204
0.0044026203 0.83700001 0.052831437 9.9527265e-39 323 204
0.0058701597 0.83700001 0.052831437 1.0227874e-38 324 204
0.0073552327 0.83899999 0.052957676 1.0227874e-38 325 204
0.00882628 0.83899999 0.052957676 9.9527265e-39 326 204
0.01027278 0.83700001 0.052831437 9.7686954e-39 327 204
0.011740319 0.83700001 0.052831437 9.6764984e-39 328 204
0.013207859 0.83700001 0.052831437 9.6764984e-39 329 204
0.014675399 0.83700001 0.052831437 9.9520105e-39 330 204
0.016142938 0.83700001 0.052831437 1.0044206e-38 331 204
0.017610481 0.83700001 0.052831437 1.0044925e-38 332 204
0.01907802 0.83700001 0.052831437 1.0044925e-38 333 204
0.020545561 0.83700001 0.052831437 1.0136402e-38 334 204
0.0220131 0.83700001 0.052831437 9.9520105e-39 335 204
0.023480639 0.83700001 0.052831437 9.9523762e-39 336 204
0.024888566 0.83499998 0.052705199 1.0137126e-38 337 204
0.026352599 0.83499998 0.052705199 9.7708618e-39 338 204
0.027816633 0.83499998 0.052705199 1.004709e-38 339 204
0.029280664 0.83499998 0.052705199 1.0138923e-38 340 204
0.030744698 0.83499998 0.052705199 1.0231118e-38 341 204
0.03220873 0.83499998 0.052705199 1.050591e-38 342 204
0.033672765 0.83499998 0.052705199 1.0689941e-38 343 204
0.035136797 0.83499998 0.052705199 1.1149831e-38 344 204
0.036600832 0.83499998 0.052705199 1.1426417e-38 345 204
0.038064864 0.83499998 0.052705199 1.0691724e-38 346 204
0.039434217 0.833 0.05257896 1.1244897e-38 347 204
0.040894743 0.833 0.05257896 1.1522932e-38 348 204
0.042253576 0.83099997 0.052452717 1.1891714e-38 349 204
0.043710597 0.83099997 0.052452717 1.2535283e-38 350 204
0.045167617 0.83099997 0.052452717 1.2627838e-38 351 204
0.046624638 0.83099997 0.052452717 1.2903696e-38 352 204
0.04796594 0.829 0.052326478 1.2995891e-38 353 204
0.049419452 0.829 0.052326478 1.3179204e-38 354 204
0.050872963 0.829 0.052326478 1.3271759e-38 355 204
0.052326478 0.829 0.052326478 1.3272122e-38 356 204
0.053779993 0.829 0.052326478 1.3364318e-38 357 204
0.055233505 0.829 0.052326478 1.3088091e-38 358 204
0.05668702 0.829 0.052326478 1.3088091e-38 359 204
0.058140531 0.829 0.052326478 1.253779e-38 360 204
0.059594043 0.829 0.052326478 1.2445594e-38 361 204
0.061047558 0.829 0.052326478 1.1894583e-38 362 204
0.062501073 0.829 0.052326478 1.1249213e-38 363 204
0.063954584 0.829 0.052326478 1.1062715e-38 364 204
0.065408096 0.829 0.052326478 1.4566149e-38 365 204
0.066700302 0.82700002 0.052200239 1.5582873e-38 366 204
0.068150312 0.82700002 0.052200239 1.5767623e-38 367 204
-0.073771499 0.82499999 0.0506275 1.5857626e-38 269 205
-0.072324999 0.82499999 0.0506275 1.5484104e-38 270 205
-0.070878498 0.82499999 0.0506275 1.5760331e-38 271 205
-0.069431998 0.82499999 0.0506275 1.6498564e-38 272 205
-0.067985497 0.82499999 0.0506275 1.6682956e-38 273 205
-0.066377692 0.82300001 0.050504766 1.7051716e-38 274 205
-0.064934701 0.82300001 0.050504766 1.7236108e-38 275 205
-0.06349171 0.82300001 0.050504766 1.7512341e-38 276 205
-0.061897919 0.82099998 0.050382029 1.7696732e-38 277 205
-0.060458437 0.82099998 0.050382029 1.7696382e-38 278 205
-0.059018951 0.82099998 0.050382029 1.7788579e-38 279 205
-0.057579465 0.82099998 0.050382029 1.7512719e-38 280 205
-0.056003217 0.81900001 0.0502593 1.7604916e-38 281 205
-0.054567236 0.81900001 0.0502593 1.7328691e-38 282 205
-0.053131256 0.81900001 0.0502593 1.7052464e-38 283 205
-0.05169528 0.81900001 0.0502593 1.7143578e-38 284 205
-0.050382029 0.82099998 0.050382029 1.686735e-38 285 205
-0.048942544 0.82099998 0.050382029 1.6865196e-38 286 205
-0.047503054 0.82099998 0.050382029 1.6588609e-38 287 205
-0.046063572 0.82099998 0.050382029 1.6036517e-38 288 205
-0.044732794 0.82300001 0.050504766 1.5851767e-38 289 205
-0.043289799 0.82300001 0.050504766 1.5759571e-38 290 205
-0.041948497 0.82499999 0.0506275 1.5575179e-38 291 205
-0.040403813 0.82300001 0.050504766 1.5390069e-38 292 205
-0.038960818 0.82300001 0.050504766 1.5113482e-38 293 205
-0.037608996 0.82499999 0.0506275 1.4837245e-38 294 205
-0.036162499 0.82499999 0.0506275 1.4652854e-38 295 205
-0.034715999 0.82499999 0.0506275 1.4284425e-38 296 205
-0.033269498 0.82499999 0.0506275 1.354686e-38 297 205
-0.031822998 0.82499999 0.0506275 1.2717825e-38 298 205
-0.030450139 0.82700002 0.050750233 1.198026e-38 299 205
-0.029000133 0.82700002 0.050750233 1.1334553e-38 300 205
-0.027550125 0.82700002 0.050750233 1.1426748e-38 301 205
-0.026163239 0.829 0.050872963 1.1333496e-38 302 205
-0.024709726 0.829 0.050872963 1.12413e-38 303 205
-0.023256212 0.829 0.050872963 1.1240228e-38 304 205
-0.021855298 0.83099997 0.050995696 1.1148033e-38 305 205
-0.02039828 0.83099997 0.050995696 1.0872877e-38 306 205
-0.018986847 0.833 0.051118433 1.0872877e-38 307 205
-0.017526319 0.833 0.051118433 1.0597366e-38 308 205
-0.016104365 0.83499998 0.051241163 1.0597366e-38 309 205
-0.014640332 0.83499998 0.051241163 1.0597729e-38 310 205
-0.0131763 0.83499998 0.051241163 1.0505533e-38 311 205
-0.011712266 0.83499998 0.051241163 1.0597366e-38 312 205
-0.01027278 0.83700001 0.051363897 1.0597366e-38 313 205
-0.0088052405 0.83700001 0.051363897 1.0505884e-38 314 205
-0.0073376996 0.83700001 0.051363897 1.0505884e-38 315 205
-0.0058701597 0.83700001 0.051363897 1.0505886e-38 316 205
-0.0044026203 0.83700001 0.051363897 1.0413691e-38 317 205
-0.0029350799 0.83700001 0.051363897 1.0229306e-38 318 205
-0.0014675399 0.83700001 0.051363897 1.0136752e-38 319 205
0 0.83899999 0.05148663 9.7697702e-39 320 205
0.0014675399 0.83700001 0.051363897 9.6772159e-39 321 205
0.0029350799 0.83700001 0.051363897 9.6768655e-39 322 205
0.0044026203 0.83700001 0.051363897 9.6768655e-39 323 205
0.0058701597 0.83700001 0.051363897 9.6768683e-39 324 205
0.0073552327 0.83899999 0.05148663 9.5846713e-39 325 205
0.00882628 0.83899999 0.05148663 9.3088075e-39 326 205
0.010297326 0.83899999 0.05148663 9.3088075e-39 327 205
0.011768373 0.83899999 0.05148663 8.9407508e-39 328 205
0.013239419 0.83899999 0.05148663 8.9407508e-39 329 205
0.014710465 0.83899999 0.05148663 8.9403949e-39 330 205
0.016181514 0.83899999 0.05148663 9.0325905e-39 331 205
0.01765256 0.83899999 0.05148663 9.0333094e-39 332 205
0.01907802 0.83700001 0.051363897 9.0333094e-39 333 205
0.020545561 0.83700001 0.051363897 9.3084572e-39 334 205
0.0220131 0.83700001 0.051363897 9.3084572e-39 335 205
0.023480639 0.83700001 0.051363897 9.0333094e-39 336 205
0.02494818 0.83700001 0.051363897 9.2180608e-39 337 205
0.026352599 0.83499998 0.051241163 9.1276574e-39 338 205
0.027816633 0.83499998 0.051241163 9.3124074e-39 339 205
0.029280664 0.83499998 0.051241163 9.8630575e-39 340 205
0.030744698 0.83499998 0.051241163 9.7708618e-39 341 205
0.03220873 0.83499998 0.051241163 1.0230038e-38 342 205
0.033672765 0.83499998 0.051241163 1.0322235e-38 343 205
0.035136797 0.83499998 0.051241163 1.0414431e-38 344 205
0.036600832 0.83499998 0.051241163 1.0599181e-38 345 205
0.038064864 0.83499998 0.051241163 1.032261e-38 346 205
0.039528899 0.83499998 0.051241163 1.0599196e-38 347 205
0.040894743 0.833 0.051118433 1.0507723e-38 348 205
0.042253576 0.83099997 0.050995696 1.0876506e-38 349 205
0.043710597 0.83099997 0.050995696 1.1338913e-38 350 205
0.045167617 0.83099997 0.050995696 1.161514e-38 351 205
0.046624638 0.83099997 0.050995696 1.1707686e-38 352 205
0.04796594 0.829 0.050872963 1.1800242e-38 353 205
0.049419452 0.829 0.050872963 1.2167577e-38 354 205
0.050872963 0.829 0.050872963 1.2444162e-38 355 205
0.052326478 0.829 0.050872963 1.2627835e-38 356 205
0.053779993 0.829 0.050872963 1.2811866e-38 357 205
0.055233505 0.829 0.050872963 1.2628554e-38 358 205
0.05668702 0.829 0.050872963 1.2628554e-38 359 205
0.058140531 0.829 0.050872963 1.2353762e-38 360 205
0.059594043 0.829 0.050872963 1.2353762e-38 361 205
0.061047558 0.829 0.050872963 1.2078251e-38 362 205
0.062501073 0.829 0.050872963 1.1525077e-38 363 205
0.063954584 0.829 0.050872963 1.1154908e-38 364 205
0.0652503 0.82700002 0.050750233 1.4474309e-38 365 205
0.066377692 0.82300001 0.050504766 1.5214447e-38 366 205
0.067820683 0.82300001 0.050504766 1.5675425e-38 367 205
-0.073592655 0.82300001 0.049061771 1.475089e-38 269 206
-0.072149664 0.82300001 0.049061771 1.6312043e-38 270 206
-0.070706673 0.82300001 0.049061771 1.6680827e-38 271 206
-0.069263682 0.82300001 0.049061771 1.6775149e-38 272 206
-0.067820683 0.82300001 0.049061771 1.6867703e-38 273 206
-0.066377692 0.82300001 0.049061771 1.7237183e-38 274 206
-0.064776897 0.82099998 0.048942544 1.7329379e-38 275 206
-0.063337415 0.82099998 0.048942544 1.7513776e-38 276 206
-0.061747137 0.81900001 0.048823319 1.7513776e-38 277 206
-0.060311157 0.81900001 0.048823319 1.7787858e-38 278 206
-0.058875177 0.81900001 0.048823319 1.7695663e-38 279 206
-0.057439201 0.81900001 0.048823319 1.7695666e-38 280 206
-0.056003217 0.81900001 0.048823319 1.760347e-38 281 206
-0.054567236 0.81900001 0.048823319 1.7235405e-38 282 206
-0.053131256 0.81900001 0.048823319 1.7051012e-38 283 206
-0.05169528 0.81900001 0.048823319 1.6866621e-38 284 206
-0.0502593 0.81900001 0.048823319 1.6590036e-38 285 206
-0.048942544 0.82099998 0.048942544 1.6495688e-38 286 206
-0.047503054 0.82099998 0.048942544 1.6219461e-38 287 206
-0.046063572 0.82099998 0.048942544 1.5942517e-38 288 206
-0.044624086 0.82099998 0.048942544 1.5850321e-38 289 206
-0.043289799 0.82300001 0.049061771 1.5481893e-38 290 206
-0.041948497 0.82499999 0.049180996 1.52975e-38 291 206
-0.040403813 0.82300001 0.049061771 1.5021987e-38 292 206
-0.038960818 0.82300001 0.049061771 1.4469172e-38 293 206
-0.037608996 0.82499999 0.049180996 1.38238e-38 294 206
-0.036162499 0.82499999 0.049180996 1.3362461e-38 295 206
-0.034715999 0.82499999 0.049180996 1.271674e-38 296 206
-0.033269498 0.82499999 0.049180996 1.2348316e-38 297 206
-0.031822998 0.82499999 0.049180996 1.2162871e-38 298 206
-0.030450139 0.82700002 0.049300224 1.1794089e-38 299 206
-0.029000133 0.82700002 0.049300224 1.1424247e-38 300 206
-0.027616752 0.829 0.049419452 1.1240216e-38 301 206
-0.026163239 0.829 0.049419452 1.1148383e-38 302 206
-0.02476934 0.83099997 0.049538679 1.1148383e-38 303 206
-0.023312319 0.83099997 0.049538679 1.0963993e-38 304 206
-0.021855298 0.83099997 0.049538679 1.0963993e-38 305 206
-0.020447372 0.833 0.049657907 1.0780675e-38 306 206
-0.019032432 0.83499998 0.049777132 1.0780675e-38 307 206
-0.017568398 0.83499998 0.049777132 1.050553e-38 308 206
-0.016104365 0.83499998 0.049777132 1.050553e-38 309 206
-0.014675399 0.83700001 0.049896359 1.059701e-38 310 206
-0.013207859 0.83700001 0.049896359 1.059701e-38 311 206
-0.011740319 0.83700001 0.049896359 1.0597366e-38 312 206
-0.01027278 0.83700001 0.049896359 1.0597366e-38 313 206
-0.0088052405 0.83700001 0.049896359 1.0505884e-38 314 206
0.023480639 0.83700001 0.049896359 9.2140909e-39 336 206
0.02494818 0.83700001 0.049896359 9.3984836e-39 337 206
0.026415719 0.83700001 0.049896359 9.4020765e-39 338 206
0.02788326 0.83700001 0.049896359 9.6786634e-39 339 206
0.029350799 0.83700001 0.049896359 9.9545272e-39 340 206
0.030818338 0.83700001 0.049896359 9.9545272e-39 341 206
0.032285877 0.83700001 0.049896359 1.0046357e-38 342 206
0.033753417 0.83700001 0.049896359 1.0230388e-38 343 206
0.035220962 0.83700001 0.049896359 1.0321868e-38 344 206
0.036600832 0.83499998 0.049777132 1.0414065e-38 345 206
0.038064864 0.83499998 0.049777132 1.0413712e-38 346 206
0.039528899 0.83499998 0.049777132 1.0413712e-38 347 206
0.040894743 0.833 0.049657907 1.0781777e-38 348 206
0.042355273 0.833 0.049657907 1.0873972e-38 349 206
0.043710597 0.83099997 0.049538679 1.0875405e-38 350 206
0.045167617 0.83099997 0.049538679 1.1152352e-38 351 206
0.046624638 0.83099997 0.049538679 1.1520408e-38 352 206
0.04796594 0.829 0.049419452 1.1705158e-38 353 206
0.049419452 0.829 0.049419452 1.2073569e-38 354 206
0.050872963 0.829 0.049419452 1.2349796e-38 355 206
0.052326478 0.829 0.049419452 1.2351225e-38 356 206
0.053779993 0.829 0.049419452 1.2720008e-38 357 206
0.055233505 0.829 0.049419452 1.2537415e-38 358 206
0.05668702 0.829 0.049419452 1.2537415e-38 359 206
0.058000267 0.82700002 0.049300224 1.2078601e-38 360 206
0.059450272 0.82700002 0.049300224 1.2078601e-38 361 206
0.060900278 0.82700002 0.049300224 1.1894936e-38 362 206
0.062501073 0.829 0.049419452 1.180274e-38 363 206
0.063954584 0.829 0.049419452 1.1065586e-38 364 206
0.0652503 0.82700002 0.049300224 1.3739259e-38 365 206
0.066377692 0.82300001 0.049061771 1.5122251e-38 366 206
0.067820683 0.82300001 0.049061771 1.5767621e-38 367 206
-0.074853301 0.82099998 0.047503054 1.5208587e-38 268 207
-0.073413812 0.82099998 0.047503054 1.5392978e-38 269 207
-0.07197433 0.82099998 0.047503054 1.6590038e-38 270 207
-0.070534848 0.82099998 0.047503054 1.6866265e-38 271 207
-0.069263682 0.82300001 0.04761878 1.7235031e-38 272 207
-0.067820683 0.82300001 0.04761878 1.7419424e-38 273 207
-0.066216379 0.82099998 0.047503054 1.7511975e-38 274 207
-0.064776897 0.82099998 0.047503054 1.7696366e-38 275 207
-0.063183114 0.81900001 0.047387339 1.7696738e-38 276 207
-0.061747137 0.81900001 0.047387339 1.7696738e-38 277 207
-0.060311157 0.81900001 0.047387339 1.769531e-38 278 207
-0.058875177 0.81900001 0.047387339 1.7603114e-38 279 207
-0.057439201 0.81900001 0.047387339 1.7510918e-38 280 207
-0.056003217 0.81900001 0.047387339 1.7326527e-38 281 207
-0.054433983 0.81699997 0.047271617 1.6775504e-38 282 207
-0.053001508 0.81699997 0.047271617 1.6590754e-38 283 207
-0.05169528 0.81900001 0.047387339 1.6405293e-38 284 207
-0.0502593 0.81900001 0.047387339 1.6313097e-38 285 207
-0.048942544 0.82099998 0.047503054 1.6127984e-38 286 207
-0.047503054 0.82099998 0.047503054 1.5667006e-38 287 207
-0.046063572 0.82099998 0.047503054 1.5299302e-38 288 207
-0.044624086 0.82099998 0.047503054 1.5114552e-38 289 207
-0.043289799 0.82300001 0.04761878 1.4930157e-38 290 207
-0.041948497 0.82499999 0.047734499 1.4561735e-38 291 207
-0.040502001 0.82499999 0.047734499 1.4377677e-38 292 207
-0.039055496 0.82499999 0.047734499 1.3732307e-38 293 207
-0.037608996 0.82499999 0.047734499 1.3177701e-38 294 207
-0.036162499 0.82499999 0.047734499 1.2809278e-38 295 207
-0.034715999 0.82499999 0.047734499 1.2255786e-38 296 207
-0.033269498 0.82499999 0.047734499 1.1887005e-38 297 207
-0.031900145 0.82700002 0.047850218 1.1426048e-38 298 207
-0.030450139 0.82700002 0.047850218 1.1057266e-38 299 207
-0.029070266 0.829 0.04796594 1.0965074e-38 300 207
-0.027683379 0.83099997 0.048081655 1.0872877e-38 301 207
-0.026226358 0.83099997 0.048081655 1.0781045e-38 302 207
-0.02476934 0.83099997 0.048081655 1.0597013e-38 303 207
-0.023368426 0.833 0.048197377 1.0504814e-38 304 207
-0.0219079 0.833 0.048197377 1.059701e-38 305 207
-0.020447372 0.833 0.048197377 1.0322218e-38 306 207
-0.019032432 0.83499998 0.048313096 1.0230022e-38 307 207
-0.017568398 0.83499998 0.048313096 1.0230025e-38 308 207
-0.016104365 0.83499998 0.048313096 1.0230025e-38 309 207
0.026415719 0.83700001 0.048428819 7.3774132e-39 338 207
0.02788326 0.83700001 0.048428819 7.745837e-39 339 207
0.029350799 0.83700001 0.048428819 8.4823062e-39 340 207
0.030818338 0.83700001 0.048428819 8.6666989e-39 341 207
0.032285877 0.83700001 0.048428819 9.2187797e-39 342 207
0.033753417 0.83700001 0.048428819 9.3109753e-39 343 207
0.035220962 0.83700001 0.048428819 9.8616253e-39 344 207
0.036688499 0.83700001 0.048428819 9.9541797e-39 345 207
0.03815604 0.83700001 0.048428819 1.0321162e-38 346 207
0.039528899 0.83499998 0.048313096 1.0321162e-38 347 207
0.040992931 0.83499998 0.048313096 1.0229688e-38 348 207
0.042355273 0.833 0.048197377 1.0321885e-38 349 207
0.043815799 0.833 0.048197377 1.0138938e-38 350 207
0.045167617 0.83099997 0.048081655 1.0231134e-38 351 207
0.046624638 0.83099997 0.048081655 1.0141086e-38 352 207
0.04796594 0.829 0.04796594 1.0141086e-38 353 207
0.049419452 0.829 0.04796594 1.0969039e-38 354 207
0.050872963 0.829 0.04796594 1.1522213e-38 355 207
0.052326478 0.829 0.04796594 1.1431812e-38 356 207
0.053779993 0.829 0.04796594 1.1892791e-38 357 207
0.055100251 0.82700002 0.047850218 1.2077885e-38 358 207
0.056550261 0.82700002 0.047850218 1.2261916e-38 359 207
0.058000267 0.82700002 0.047850218 1.2353749e-38 360 207
0.059450272 0.82700002 0.047850218 1.2445945e-38 361 207
0.060900278 0.82700002 0.047850218 1.2171522e-38 362 207
0.062350284 0.82700002 0.047850218 1.2171522e-38 363 207
0.063954584 0.829 0.04796594 1.1618758e-38 364 207
0.0652503 0.82700002 0.047850218 1.3278281e-38 365 207
0.066700302 0.82700002 0.047850218 1.4477598e-38 366 207
-0.074670963 0.81900001 0.045951359 1.6036886e-38 268 208
-0.073234983 0.81900001 0.045951359 1.6497505e-38 269 208
-0.071799003 0.81900001 0.045951359 1.6958817e-38 270 208
-0.070363015 0.81900001 0.045951359 1.7143209e-38 271 208
-0.069095351 0.82099998 0.046063572 1.732831e-38 272 208
-0.067655869 0.82099998 0.046063572 1.7512341e-38 273 208
-0.066055074 0.81900001 0.045951359 1.7604539e-38 274 208
-0.064619094 0.81900001 0.045951359 1.7696735e-38 275 208
-0.063183114 0.81900001 0.045951359 1.7696385e-38 276 208
-0.061747137 0.81900001 0.045951359 1.7604189e-38 277 208
-0.060311157 0.81900001 0.045951359 1.7786432e-38 278 208
-0.058875177 0.81900001 0.045951359 1.7509846e-38 279 208
-0.057439201 0.81900001 0.045951359 1.6866994e-38 280 208
-0.056003217 0.81900001 0.045951359 1.6774798e-38 281 208
-0.054433983 0.81699997 0.045839142 1.6773707e-38 282 208
-0.053001508 0.81699997 0.045839142 1.6404924e-38 283 208
-0.051569037 0.81699997 0.045839142 1.6403848e-38 284 208
-0.050136562 0.81699997 0.045839142 1.6219458e-38 285 208
-0.048823319 0.81900001 0.045951359 1.5759207e-38 286 208
