# .PCD v.7 - Point Cloud Data file format
FIELDS x y z rgb imX imY
SIZE 4 4 4 4 4 4
TYPE F F F F F F
COUNT 1 1 1 1 1 1
WIDTH 833
HEIGHT 1
VIEWPOINT 0 0 0 1 0 0 0
POINTS 833
DATA ascii
0.056143485 0.78100002 -0.013693534 1.8430745e-38 361 250
0.057512842 0.78100002 -0.013693534 1.8430742e-38 362 250
0.058882192 0.78100002 -0.013693534 1.8522938e-38 363 250
0.060251549 0.78100002 -0.013693534 1.8340699e-38 364 250
0.061620899 0.78100002 -0.013693534 1.8432894e-38 365 250
0.062990256 0.78100002 -0.013693534 1.8526162e-38 366 250
0.064277194 0.77999997 -0.013675999 1.8526162e-38 367 250
0.065644793 0.77999997 -0.013675999 1.8617992e-38 368 250
0.067012392 0.77999997 -0.013675999 1.8617992e-38 369 250
0.068379998 0.77999997 -0.013675999 1.8893856e-38 370 250
0.069568761 0.778 -0.013640933 1.8893856e-38 371 250
0.070750505 0.77600002 -0.013605867 1.8893853e-38 372 250
0.072111093 0.77600002 -0.013605867 1.8893853e-38 373 250
0.073471673 0.77600002 -0.013605867 1.8894206e-38 374 250
0.074832268 0.77600002 -0.013605867 1.8894206e-38 375 250
0.076389223 0.778 -0.013640933 1.9077874e-38 376 250
0.077553444 0.77600002 -0.013605867 1.898532e-38 377 250
0.078914031 0.77600002 -0.013605867 1.8984601e-38 378 250
0.080274612 0.77600002 -0.013605867 1.8984601e-38 379 250
0.081635199 0.77600002 -0.013605867 1.8891688e-38 380 250
0.082995787 0.77600002 -0.013605867 1.8891688e-38 381 250
0.084356368 0.77600002 -0.013605867 1.8431796e-38 382 250
0.085496038 0.77399999 -0.013570799 1.8155569e-38 383 250
0.086853117 0.77399999 -0.013570799 1.7970826e-38 384 250
0.088210195 0.77399999 -0.013570799 1.769388e-38 385 250
0.088988677 0.76899999 -0.013483133 1.7141105e-38 386 250
0.090336986 0.76899999 -0.013483133 1.7325496e-38 387 250
-0.046558015 0.78100002 -0.015062887 1.8987573e-38 286 251
-0.045188658 0.78100002 -0.015062887 1.8250008e-38 287 251
-0.043819305 0.78100002 -0.015062887 1.8710926e-38 288 251
-0.042449951 0.78100002 -0.015062887 1.8434339e-38 289 251
-0.041027997 0.77999997 -0.0150436 1.9169351e-38 290 251
-0.039660398 0.77999997 -0.0150436 1.9169351e-38 291 251
-0.038341891 0.78100002 -0.015062887 1.9169701e-38 292 251
-0.036925197 0.77999997 -0.0150436 1.8892756e-38 293 251
-0.035557598 0.77999997 -0.0150436 1.8244149e-38 294 251
-0.034233831 0.78100002 -0.015062887 1.7414387e-38 295 251
-0.032864477 0.78100002 -0.015062887 1.6491006e-38 296 251
-0.031495128 0.78100002 -0.015062887 1.6859787e-38 297 251
-0.030125774 0.78100002 -0.015062887 1.658717e-38 298 251
-0.028756421 0.78100002 -0.015062887 1.7047789e-38 299 251
-0.027387068 0.78100002 -0.015062887 1.7600613e-38 300 251
-0.026017714 0.78100002 -0.015062887 1.7877558e-38 301 251
-0.024648361 0.78100002 -0.015062887 1.8705521e-38 302 251
-0.023279008 0.78100002 -0.015062887 1.9166141e-38 303 251
-0.021909652 0.78100002 -0.015062887 1.8892052e-38 304 251
-0.020540299 0.78100002 -0.015062887 1.8892052e-38 305 251
-0.019170946 0.78100002 -0.015062887 1.9167916e-38 306 251
-0.017847179 0.78299999 -0.01510146 1.8983885e-38 307 251
-0.01647432 0.78299999 -0.01510146 1.9259398e-38 308 251
-0.01510146 0.78299999 -0.01510146 1.9166844e-38 309 251
-0.013728599 0.78299999 -0.01510146 1.8982454e-38 310 251
-0.012355739 0.78299999 -0.01510146 1.8890259e-38 311 251
-0.010982879 0.78299999 -0.01510146 1.8890256e-38 312 251
-0.0096100196 0.78299999 -0.01510146 1.8706225e-38 313 251
-0.0082371598 0.78299999 -0.01510146 1.8247392e-38 314 251
-0.0068642995 0.78299999 -0.01510146 1.8062641e-38 315 251
-0.0054914397 0.78299999 -0.01510146 1.8062278e-38 316 251
-0.0041291001 0.78500003 -0.015140033 1.7877528e-38 317 251
-0.0027527334 0.78500003 -0.015140033 1.7693499e-38 318 251
-0.0013728599 0.78299999 -0.01510146 1.7509107e-38 319 251
0 0.78299999 -0.01510146 1.7233243e-38 320 251
0.0013728599 0.78299999 -0.01510146 1.7141047e-38 321 251
0.0027457199 0.78299999 -0.01510146 1.6956297e-38 322 251
0.0041185799 0.78299999 -0.01510146 1.68641e-38 323 251
0.0054914397 0.78299999 -0.01510146 1.6496394e-38 324 251
0.0068642995 0.78299999 -0.01510146 1.6220167e-38 325 251
0.0082371598 0.78299999 -0.01510146 1.6128332e-38 326 251
0.0096100196 0.78299999 -0.01510146 1.6036136e-38 327 251
0.010982879 0.78299999 -0.01510146 1.6035418e-38 328 251
0.0123873 0.78500003 -0.015140033 1.5758473e-38 329 251
0.013763667 0.78500003 -0.015140033 1.5482962e-38 330 251
0.015140033 0.78500003 -0.015140033 1.5390767e-38 331 251
0.01655848 0.787 -0.015178605 1.5666265e-38 332 251
0.017892767 0.78500003 -0.015140033 1.575846e-38 333 251
0.019269135 0.78500003 -0.015140033 1.5575148e-38 334 251
0.020645501 0.78500003 -0.015140033 1.5482952e-38 335 251
0.022021867 0.78500003 -0.015140033 1.5390767e-38 336 251
0.023398234 0.78500003 -0.015140033 1.5575517e-38 337 251
0.0247746 0.78500003 -0.015140033 1.5575517e-38 338 251
0.026150968 0.78500003 -0.015140033 1.5298569e-38 339 251
0.027527334 0.78500003 -0.015140033 1.5114536e-38 340 251
0.0289037 0.78500003 -0.015140033 1.502234e-38 341 251
0.030280067 0.78500003 -0.015140033 1.5207457e-38 342 251
0.031575777 0.78299999 -0.01510146 1.5575879e-38 343 251
0.032948639 0.78299999 -0.01510146 1.5760276e-38 344 251
0.034321502 0.78299999 -0.01510146 1.5760276e-38 345 251
0.035694357 0.78299999 -0.01510146 1.5944672e-38 346 251
0.037067216 0.78299999 -0.01510146 1.6220899e-38 347 251
0.038440078 0.78299999 -0.01510146 1.6129432e-38 348 251
0.039812941 0.78299999 -0.01510146 1.6313824e-38 349 251
0.0411858 0.78299999 -0.01510146 1.6406388e-38 350 251
0.042558655 0.78299999 -0.01510146 1.6682615e-38 351 251
0.043931518 0.78299999 -0.01510146 1.6774818e-38 352 251
0.045188658 0.78100002 -0.015062887 1.6774818e-38 353 251
0.046558015 0.78100002 -0.015062887 1.7325468e-38 354 251
0.047927368 0.78100002 -0.015062887 1.7418022e-38 355 251
0.049296722 0.78100002 -0.015062887 1.7418373e-38 356 251
0.050666075 0.78100002 -0.015062887 1.7418373e-38 357 251
0.052035429 0.78100002 -0.015062887 1.7510215e-38 358 251
0.053404782 0.78100002 -0.015062887 1.7602411e-38 359 251
0.054774135 0.78100002 -0.015062887 1.7510937e-38 360 251
0.056143485 0.78100002 -0.015062887 1.7695329e-38 361 251
0.057439197 0.77999997 -0.0150436 1.8153787e-38 362 251
0.058806792 0.77999997 -0.0150436 1.8338178e-38 363 251
0.060251549 0.78100002 -0.015062887 1.8338897e-38 364 251
0.061620899 0.78100002 -0.015062887 1.8431092e-38 365 251
0.062909596 0.77999997 -0.0150436 1.8249579e-38 366 251
0.06411238 0.778 -0.015005025 1.8249579e-38 367 251
0.065476485 0.778 -0.015005025 1.8709109e-38 368 251
0.066840574 0.778 -0.015005025 1.8709109e-38 369 251
0.068204664 0.778 -0.015005025 1.8800938e-38 370 251
0.069568761 0.778 -0.015005025 1.898497e-38 371 251
0.070750505 0.77600002 -0.014966453 1.898497e-38 372 251
0.072111093 0.77600002 -0.014966453 1.9077165e-38 373 251
0.073471673 0.77600002 -0.014966453 1.9077521e-38 374 251
0.074832268 0.77600002 -0.014966453 1.9077521e-38 375 251
0.076192856 0.77600002 -0.014966453 1.8894206e-38 376 251
0.077553444 0.77600002 -0.014966453 1.8894206e-38 377 251
0.078914031 0.77600002 -0.014966453 1.9168995e-38 378 251
0.080274612 0.77600002 -0.014966453 1.9076799e-38 379 251
0.081635199 0.77600002 -0.014966453 1.8984972e-38 380 251
0.082781881 0.77399999 -0.014927879 1.8984972e-38 381 251
0.084138952 0.77399999 -0.014927879 1.8708387e-38 382 251
0.085385576 0.773 -0.014908593 1.861619e-38 383 251
0.086516477 0.77100003 -0.01487002 1.8156288e-38 384 251
0.087640367 0.76899999 -0.014831445 1.7971897e-38 385 251
0.088988677 0.76899999 -0.014831445 1.7877205e-38 386 251
0.090336986 0.76899999 -0.014831445 1.778501e-38 387 251
-0.047927368 0.78100002 -0.016432239 1.7791195e-38 285 252
-0.046558015 0.78100002 -0.016432239 1.8062673e-38 286 252
-0.045130797 0.77999997 -0.016411198 1.83389e-38 287 252
-0.043763198 0.77999997 -0.016411198 1.8986752e-38 288 252
-0.042395595 0.77999997 -0.016411198 1.9078948e-38 289 252
-0.041027997 0.77999997 -0.016411198 1.9629956e-38 290 252
-0.039660398 0.77999997 -0.016411198 1.9537761e-38 291 252
-0.038341891 0.78100002 -0.016432239 1.9167903e-38 292 252
-0.036925197 0.77999997 -0.016411198 1.8890956e-38 293 252
-0.035557598 0.77999997 -0.016411198 1.7415839e-38 294 252
-0.034233831 0.78100002 -0.016432239 1.6677915e-38 295 252
-0.032864477 0.78100002 -0.016432239 1.649316e-38 296 252
-0.031495128 0.78100002 -0.016432239 1.732256e-38 297 252
-0.030125774 0.78100002 -0.016432239 1.7508766e-38 298 252
-0.028719598 0.77999997 -0.016411198 1.8154135e-38 299 252
-0.027351998 0.77999997 -0.016411198 1.8522928e-38 300 252
-0.025984399 0.77999997 -0.016411198 1.8706959e-38 301 252
-0.024648361 0.78100002 -0.016432239 1.8892058e-38 302 252
-0.023249198 0.77999997 -0.016411198 1.8799861e-38 303 252
-0.021881599 0.77999997 -0.016411198 1.8708013e-38 304 252
-0.020513998 0.77999997 -0.016411198 1.8708013e-38 305 252
-0.0191464 0.77999997 -0.016411198 1.8708016e-38 306 252
-0.017801592 0.78100002 -0.016432239 1.8523626e-38 307 252
-0.016432239 0.78100002 -0.016432239 1.8707294e-38 308 252
-0.015062887 0.78100002 -0.016432239 1.8615098e-38 309 252
-0.013728599 0.78299999 -0.01647432 1.8706548e-38 310 252
-0.012355739 0.78299999 -0.01647432 1.8430322e-38 311 252
-0.010982879 0.78299999 -0.01647432 1.8613984e-38 312 252
-0.0096100196 0.78299999 -0.01647432 1.8245203e-38 313 252
-0.0082371598 0.78299999 -0.01647432 1.760237e-38 314 252
-0.0068642995 0.78299999 -0.01647432 1.7417977e-38 315 252
-0.0054914397 0.78299999 -0.01647432 1.7416552e-38 316 252
-0.0041185799 0.78299999 -0.01647432 1.7232161e-38 317 252
-0.0027457199 0.78299999 -0.01647432 1.6864456e-38 318 252
-0.0013728599 0.78299999 -0.01647432 1.6495675e-38 319 252
0 0.78299999 -0.01647432 1.6035786e-38 320 252
0.0013728599 0.78299999 -0.01647432 1.5943589e-38 321 252
0.0027457199 0.78299999 -0.01647432 1.5942873e-38 322 252
0.0041185799 0.78299999 -0.01647432 1.5850318e-38 323 252
0.0054914397 0.78299999 -0.01647432 1.5390769e-38 324 252
0.0068642995 0.78299999 -0.01647432 1.5021987e-38 325 252
0.0082371598 0.78299999 -0.01647432 1.4746479e-38 326 252
0.0096100196 0.78299999 -0.01647432 1.493051e-38 327 252
0.011010934 0.78500003 -0.016516401 1.4929797e-38 328 252
0.0123873 0.78500003 -0.016516401 1.4652851e-38 329 252
0.013763667 0.78500003 -0.016516401 1.4469183e-38 330 252
0.015140033 0.78500003 -0.016516401 1.4469183e-38 331 252
0.016516401 0.78500003 -0.016516401 1.4652498e-38 332 252
0.017892767 0.78500003 -0.016516401 1.4744694e-38 333 252
0.019269135 0.78500003 -0.016516401 1.4652501e-38 334 252
0.020645501 0.78500003 -0.016516401 1.4468468e-38 335 252
0.022021867 0.78500003 -0.016516401 1.428552e-38 336 252
0.023398234 0.78500003 -0.016516401 1.4469552e-38 337 252
0.0247746 0.78500003 -0.016516401 1.4561384e-38 338 252
0.026150968 0.78500003 -0.016516401 1.4284437e-38 339 252
0.027527334 0.78500003 -0.016516401 1.4100759e-38 340 252
0.0289037 0.78500003 -0.016516401 1.4100759e-38 341 252
0.030280067 0.78500003 -0.016516401 1.4101491e-38 342 252
0.031656433 0.78500003 -0.016516401 1.4286242e-38 343 252
0.032948639 0.78299999 -0.01647432 1.4378085e-38 344 252
0.034321502 0.78299999 -0.01647432 1.4746866e-38 345 252
0.035694357 0.78299999 -0.01647432 1.4929456e-38 346 252
0.037067216 0.78299999 -0.01647432 1.5113849e-38 347 252
0.038440078 0.78299999 -0.01647432 1.5116006e-38 348 252
0.039812941 0.78299999 -0.01647432 1.5208201e-38 349 252
0.0411858 0.78299999 -0.01647432 1.5301117e-38 350 252
0.042558655 0.78299999 -0.01647432 1.5669539e-38 351 252
0.043819305 0.78100002 -0.016432239 1.6037249e-38 352 252
0.045188658 0.78100002 -0.016432239 1.6314196e-38 353 252
0.046558015 0.78100002 -0.016432239 1.6497861e-38 354 252
0.047927368 0.78100002 -0.016432239 1.6682252e-38 355 252
0.049296722 0.78100002 -0.016432239 1.7049946e-38 356 252
0.050666075 0.78100002 -0.016432239 1.6957392e-38 357 252
0.052035429 0.78100002 -0.016432239 1.6775154e-38 358 252
0.053336397 0.77999997 -0.016411198 1.6775154e-38 359 252
0.054703996 0.77999997 -0.016411198 1.6957763e-38 360 252
0.056071598 0.77999997 -0.016411198 1.7326906e-38 361 252
0.057439197 0.77999997 -0.016411198 1.7326552e-38 362 252
0.058806792 0.77999997 -0.016411198 1.7510584e-38 363 252
0.060174398 0.77999997 -0.016411198 1.7694976e-38 364 252
0.061541997 0.77999997 -0.016411198 1.7879726e-38 365 252
0.062748291 0.778 -0.016369121 1.7789328e-38 366 252
0.06411238 0.778 -0.016369121 1.797336e-38 367 252
0.065476485 0.778 -0.016369121 1.8248502e-38 368 252
0.066840574 0.778 -0.016369121 1.8340699e-38 369 252
0.068204664 0.778 -0.016369121 1.8616563e-38 370 252
0.069389917 0.77600002 -0.01632704 1.8616563e-38 371 252
0.070750505 0.77600002 -0.01632704 1.8708758e-38 372 252
0.072111093 0.77600002 -0.01632704 1.8708758e-38 373 252
0.073471673 0.77600002 -0.01632704 1.8617995e-38 374 252
0.074832268 0.77600002 -0.01632704 1.8802026e-38 375 252
0.076192856 0.77600002 -0.01632704 1.8802379e-38 376 252
0.077353559 0.77399999 -0.016284959 1.8802379e-38 377 252
0.078710638 0.77399999 -0.016284959 1.8893856e-38 378 252
0.080067717 0.77399999 -0.016284959 1.8986051e-38 379 252
0.081424795 0.77399999 -0.016284959 1.9077168e-38 380 252
0.082674921 0.773 -0.016263919 1.9077168e-38 381 252
0.084030248 0.773 -0.016263919 1.8985323e-38 382 252
0.085164659 0.77100003 -0.016221842 1.8709096e-38 383 252
0.086292051 0.76899999 -0.016179759 1.8617246e-38 384 252
0.087640367 0.76899999 -0.016179759 1.8525051e-38 385 252
0.088988677 0.76899999 -0.016179759 1.8614379e-38 386 252
0.090336986 0.76899999 -0.016179759 1.8061206e-38 387 252
0.091446854 0.76700002 -0.01613768 1.778501e-38 388 252
-0.049296722 0.78100002 -0.017801592 1.7513127e-38 284 253
-0.047927368 0.78100002 -0.017801592 1.7605324e-38 285 253
-0.046498396 0.77999997 -0.017778799 1.8800585e-38 286 253
-0.045130797 0.77999997 -0.017778799 1.9077171e-38 287 253
-0.043763198 0.77999997 -0.017778799 1.9262619e-38 288 253
-0.042395595 0.77999997 -0.017778799 1.9262619e-38 289 253
-0.040922798 0.778 -0.017733213 1.9538128e-38 290 253
-0.039558705 0.778 -0.017733213 1.9445931e-38 291 253
-0.038292799 0.77999997 -0.017778799 1.8615095e-38 292 253
-0.036925197 0.77999997 -0.017778799 1.8338869e-38 293 253
-0.035557598 0.77999997 -0.017778799 1.7876814e-38 294 253
-0.034189999 0.77999997 -0.017778799 1.7784259e-38 295 253
-0.032822397 0.77999997 -0.017778799 1.7877909e-38 296 253
-0.031454798 0.77999997 -0.017778799 1.8338528e-38 297 253
-0.030087199 0.77999997 -0.017778799 1.8798433e-38 298 253
-0.028719598 0.77999997 -0.017778799 1.8983184e-38 299 253
-0.027351998 0.77999997 -0.017778799 1.8616546e-38 300 253
-0.025984399 0.77999997 -0.017778799 1.852435e-38 301 253
-0.024616797 0.77999997 -0.017778799 1.8524335e-38 302 253
-0.023249198 0.77999997 -0.017778799 1.843178e-38 303 253
-0.021881599 0.77999997 -0.017778799 1.8246669e-38 304 253
-0.020513998 0.77999997 -0.017778799 1.7970082e-38 305 253
-0.0191464 0.77999997 -0.017778799 1.7970079e-38 306 253
-0.017801592 0.78100002 -0.017801592 1.7601297e-38 307 253
-0.016432239 0.78100002 -0.017801592 1.732471e-38 308 253
-0.015062887 0.78100002 -0.017801592 1.7232514e-38 309 253
-0.013693534 0.78100002 -0.017801592 1.6772958e-38 310 253
-0.01232418 0.78100002 -0.017801592 1.6404536e-38 311 253
-0.010954826 0.78100002 -0.017801592 1.6403084e-38 312 253
-0.0095854728 0.78100002 -0.017801592 1.5942106e-38 313 253
-0.0082371598 0.78299999 -0.017847179 1.5482947e-38 314 253
-0.0068642995 0.78299999 -0.017847179 1.5575501e-38 315 253
-0.0054914397 0.78299999 -0.017847179 1.5665547e-38 316 253
-0.0041185799 0.78299999 -0.017847179 1.5388602e-38 317 253
-0.0027457199 0.78299999 -0.017847179 1.5020545e-38 318 253
-0.0013728599 0.78299999 -0.017847179 1.4835793e-38 319 253
0 0.78299999 -0.017847179 1.4468819e-38 320 253
0.0013728599 0.78299999 -0.017847179 1.4652851e-38 321 253
0.0027457199 0.78299999 -0.017847179 1.4284793e-38 322 253
0.0041185799 0.78299999 -0.017847179 1.4100762e-38 323 253
0.0054914397 0.78299999 -0.017847179 1.4100406e-38 324 253
0.0068642995 0.78299999 -0.017847179 1.4100406e-38 325 253
0.0082371598 0.78299999 -0.017847179 1.3825617e-38 326 253
0.0096345674 0.78500003 -0.017892767 1.3825617e-38 327 253
0.011010934 0.78500003 -0.017892767 1.3733431e-38 328 253
0.0123873 0.78500003 -0.017892767 1.3733431e-38 329 253
0.013763667 0.78500003 -0.017892767 1.4834038e-38 330 253
0.015140033 0.78500003 -0.017892767 1.4650005e-38 331 253
0.016516401 0.78500003 -0.017892767 1.4650361e-38 332 253
0.017892767 0.78500003 -0.017892767 1.4650361e-38 333 253
0.019269135 0.78500003 -0.017892767 1.4558881e-38 334 253
0.0205929 0.78299999 -0.017847179 1.4466686e-38 335 253
0.021965759 0.78299999 -0.017847179 1.4375566e-38 336 253
0.023398234 0.78500003 -0.017892767 1.4375566e-38 337 253
0.0247746 0.78500003 -0.017892767 1.4283015e-38 338 253
0.026084339 0.78299999 -0.017847179 1.4283015e-38 339 253
0.027457198 0.78299999 -0.017847179 1.4098624e-38 340 253
0.0289037 0.78500003 -0.017892767 1.4098624e-38 341 253
0.030280067 0.78500003 -0.017892767 1.400751e-38 342 253
0.031656433 0.78500003 -0.017892767 1.4099705e-38 343 253
0.032948639 0.78299999 -0.017847179 1.3732718e-38 344 253
0.034321502 0.78299999 -0.017847179 1.3732718e-38 345 253
0.035694357 0.78299999 -0.017847179 1.3639801e-38 346 253
0.037067216 0.78299999 -0.017847179 1.4008223e-38 347 253
0.038440078 0.78299999 -0.017847179 1.3917825e-38 348 253
0.039812941 0.78299999 -0.017847179 1.3733434e-38 349 253
0.0411858 0.78299999 -0.017847179 1.3550119e-38 350 253
0.042558655 0.78299999 -0.017847179 1.3734869e-38 351 253
0.043819305 0.78100002 -0.017801592 1.4378803e-38 352 253
0.045188658 0.78100002 -0.017801592 1.4563195e-38 353 253
0.046558015 0.78100002 -0.017801592 1.4656467e-38 354 253
0.047927368 0.78100002 -0.017801592 1.4748662e-38 355 253
0.049296722 0.78100002 -0.017801592 1.5116722e-38 356 253
0.050666075 0.78100002 -0.017801592 1.539331e-38 357 253
0.051968798 0.77999997 -0.017778799 1.5669895e-38 358 253
0.053336397 0.77999997 -0.017778799 1.6038679e-38 359 253
0.054703996 0.77999997 -0.017778799 1.6682249e-38 360 253
0.056071598 0.77999997 -0.017778799 1.6682249e-38 361 253
0.057291918 0.778 -0.017733213 1.6682621e-38 362 253
0.058656007 0.778 -0.017733213 1.6867013e-38 363 253
0.0600201 0.778 -0.017733213 1.7326918e-38 364 253
0.061384194 0.778 -0.017733213 1.7419114e-38 365 253
0.062748291 0.778 -0.017733213 1.7786456e-38 366 253
0.063947573 0.77600002 -0.017687626 1.7970487e-38 367 253
0.065308161 0.77600002 -0.017687626 1.8154863e-38 368 253
0.066668749 0.77600002 -0.017687626 1.8339253e-38 369 253
0.068029337 0.77600002 -0.017687626 1.8523278e-38 370 253
0.069389917 0.77600002 -0.017687626 1.8707309e-38 371 253
0.070750505 0.77600002 -0.017687626 1.8798786e-38 372 253
0.071925238 0.77399999 -0.01764204 1.8983179e-38 373 253
0.073282316 0.77399999 -0.01764204 1.8891705e-38 374 253
0.074639395 0.77399999 -0.01764204 1.89839e-38 375 253
0.075996473 0.77399999 -0.01764204 1.8800588e-38 376 253
0.077353559 0.77399999 -0.01764204 1.8984619e-38 377 253
0.078710638 0.77399999 -0.01764204 1.9077168e-38 378 253
0.079964265 0.773 -0.017619247 1.9169364e-38 379 253
0.0813196 0.773 -0.017619247 1.8894219e-38 380 253
0.082461022 0.77100003 -0.01757366 1.8894219e-38 381 253
0.08381284 0.77100003 -0.01757366 1.8618714e-38 382 253
0.084943734 0.76899999 -0.017528072 1.8618714e-38 383 253
0.086292051 0.76899999 -0.017528072 1.8525793e-38 384 253
0.087412432 0.76700002 -0.017482487 1.8433598e-38 385 253
0.088757239 0.76700002 -0.017482487 1.8891332e-38 386 253
0.090102047 0.76700002 -0.017482487 1.8522549e-38 387 253
0.091446854 0.76700002 -0.017482487 1.8246333e-38 388 253
0.092791654 0.76700002 -0.017482487 1.8154135e-38 389 253
-0.053404782 0.78100002 -0.019170946 1.8439479e-38 281 254
-0.050666075 0.78100002 -0.019170946 1.6684812e-38 283 254
-0.049296722 0.78100002 -0.019170946 1.7877533e-38 284 254
-0.047927368 0.78100002 -0.019170946 1.8799489e-38 285 254
-0.046498396 0.77999997 -0.0191464 1.8802358e-38 286 254
-0.045130797 0.77999997 -0.0191464 1.8894912e-38 287 254
-0.043763198 0.77999997 -0.0191464 1.9261897e-38 288 254
-0.042395595 0.77999997 -0.0191464 1.9445928e-38 289 254
-0.040922798 0.778 -0.019097306 1.9444856e-38 290 254
-0.039558705 0.778 -0.019097306 1.935266e-38 291 254
-0.038292799 0.77999997 -0.0191464 1.8982436e-38 292 254
-0.036830518 0.778 -0.019097306 1.8521458e-38 293 254
-0.035466425 0.778 -0.019097306 1.833742e-38 294 254
-0.034102332 0.778 -0.019097306 1.8245224e-38 295 254
-0.032822397 0.77999997 -0.0191464 1.7970432e-38 296 254
-0.031454798 0.77999997 -0.0191464 1.8154824e-38 297 254
-0.030087199 0.77999997 -0.0191464 1.8247389e-38 298 254
-0.028719598 0.77999997 -0.0191464 1.8247389e-38 299 254
-0.027351998 0.77999997 -0.0191464 1.8338866e-38 300 254
-0.025984399 0.77999997 -0.0191464 1.8246669e-38 301 254
-0.024616797 0.77999997 -0.0191464 1.8245937e-38 302 254
-0.023249198 0.77999997 -0.0191464 1.7969711e-38 303 254
-0.021881599 0.77999997 -0.0191464 1.7509807e-38 304 254
-0.020513998 0.77999997 -0.0191464 1.7048829e-38 305 254
-0.0191464 0.77999997 -0.0191464 1.6955557e-38 306 254
-0.017801592 0.78100002 -0.019170946 1.6678972e-38 307 254
-0.016432239 0.78100002 -0.019170946 1.6310558e-38 308 254
-0.015062887 0.78100002 -0.019170946 1.6218362e-38 309 254
-0.013693534 0.78100002 -0.019170946 1.5851024e-38 310 254
-0.01232418 0.78100002 -0.019170946 1.5758829e-38 311 254
-0.010954826 0.78100002 -0.019170946 1.5665558e-38 312 254
-0.0095854728 0.78100002 -0.019170946 1.5481166e-38 313 254
-0.0082161194 0.78100002 -0.019170946 1.4561737e-38 314 254
-0.0068467669 0.78100002 -0.019170946 1.4746129e-38 315 254
-0.0054914397 0.78299999 -0.019220039 1.4653577e-38 316 254
-0.0041185799 0.78299999 -0.019220039 1.4469186e-38 317 254
-0.0027457199 0.78299999 -0.019220039 1.4743643e-38 318 254
-0.0013728599 0.78299999 -0.019220039 1.4743643e-38 319 254
0 0.78299999 -0.019220039 1.4191212e-38 320 254
0.0013728599 0.78299999 -0.019220039 1.4283766e-38 321 254
0.0027457199 0.78299999 -0.019220039 1.4100091e-38 322 254
0.0041185799 0.78299999 -0.019220039 1.3915699e-38 323 254
0.0054914397 0.78299999 -0.019220039 1.3916055e-38 324 254
0.0068642995 0.78299999 -0.019220039 1.382386e-38 325 254
0.0082371598 0.78299999 -0.019220039 1.382421e-38 326 254
0.0096345674 0.78500003 -0.019269135 1.382421e-38 327 254
0.011010934 0.78500003 -0.019269135 1.3641617e-38 328 254
0.0123873 0.78500003 -0.019269135 1.3549421e-38 329 254
0.013763667 0.78500003 -0.019269135 1.3731661e-38 330 254
0.015140033 0.78500003 -0.019269135 1.3823857e-38 331 254
0.016516401 0.78500003 -0.019269135 1.3731661e-38 332 254
0.017892767 0.78500003 -0.019269135 1.3639466e-38 333 254
0.019269135 0.78500003 -0.019269135 1.3732014e-38 334 254
0.0205929 0.78299999 -0.019220039 1.3639819e-38 335 254
0.021965759 0.78299999 -0.019220039 1.3456504e-38 336 254
0.023398234 0.78500003 -0.019269135 1.3456504e-38 337 254
0.0247746 0.78500003 -0.019269135 1.3456504e-38 338 254
0.026084339 0.78299999 -0.019220039 1.3364308e-38 339 254
0.027457198 0.78299999 -0.019220039 1.3547264e-38 340 254
0.0289037 0.78500003 -0.019269135 1.3455069e-38 341 254
0.030280067 0.78500003 -0.019269135 1.3272478e-38 342 254
0.031656433 0.78500003 -0.019269135 1.3364674e-38 343 254
0.032948639 0.78299999 -0.019220039 1.3546914e-38 344 254
0.034321502 0.78299999 -0.019220039 1.363911e-38 345 254
0.035694357 0.78299999 -0.019220039 1.3546561e-38 346 254
0.037067216 0.78299999 -0.019220039 1.3731311e-38 347 254
0.038440078 0.78299999 -0.019220039 1.3639481e-38 348 254
0.039812941 0.78299999 -0.019220039 1.3639481e-38 349 254
0.0411858 0.78299999 -0.019220039 1.373168e-38 350 254
0.042449951 0.78100002 -0.019170946 1.3823877e-38 351 254
0.043819305 0.78100002 -0.019170946 1.3731659e-38 352 254
0.045188658 0.78100002 -0.019170946 1.3916409e-38 353 254
0.046558015 0.78100002 -0.019170946 1.4193693e-38 354 254
0.047927368 0.78100002 -0.019170946 1.4285889e-38 355 254
0.049233593 0.77999997 -0.0191464 1.4378806e-38 356 254
0.050601196 0.77999997 -0.0191464 1.4378806e-38 357 254
0.051968798 0.77999997 -0.0191464 1.4655395e-38 358 254
0.053336397 0.77999997 -0.0191464 1.5116371e-38 359 254
0.054703996 0.77999997 -0.0191464 1.5576272e-38 360 254
0.055927824 0.778 -0.019097306 1.6037249e-38 361 254
0.057291918 0.778 -0.019097306 1.5854659e-38 362 254
0.058656007 0.778 -0.019097306 1.5946855e-38 363 254
0.0600201 0.778 -0.019097306 1.6406038e-38 364 254
0.061384194 0.778 -0.019097306 1.6867016e-38 365 254
0.062586986 0.77600002 -0.019048214 1.668407e-38 366 254
0.063947573 0.77600002 -0.019048214 1.6868461e-38 367 254
0.065308161 0.77600002 -0.019048214 1.7326915e-38 368 254
0.066668749 0.77600002 -0.019048214 1.7419111e-38 369 254
0.068029337 0.77600002 -0.019048214 1.7511664e-38 370 254
0.069389917 0.77600002 -0.019048214 1.760386e-38 371 254
0.070750505 0.77600002 -0.019048214 1.7971922e-38 372 254
0.071925238 0.77399999 -0.018999118 1.8155953e-38 373 254
0.073282316 0.77399999 -0.018999118 1.8155953e-38 374 254
0.074542962 0.773 -0.018974574 1.8340346e-38 375 254
0.075898297 0.773 -0.018974574 1.8249582e-38 376 254
0.077253617 0.773 -0.018974574 1.8525809e-38 377 254
0.078608945 0.773 -0.018974574 1.8526162e-38 378 254
0.079757385 0.77100003 -0.018925481 1.8618358e-38 379 254
0.081109203 0.77100003 -0.018925481 1.8710909e-38 380 254
0.082247108 0.76899999 -0.018876385 1.8618714e-38 381 254
0.083595425 0.76899999 -0.018876385 1.8711262e-38 382 254
0.084943734 0.76899999 -0.018876385 1.8618708e-38 383 254
0.086292051 0.76899999 -0.018876385 1.8800936e-38 384 254
0.087412432 0.76700002 -0.018827293 1.870874e-38 385 254
0.088757239 0.76700002 -0.018827293 1.8706588e-38 386 254
0.090102047 0.76700002 -0.018827293 1.8706588e-38 387 254
0.091446854 0.76700002 -0.018827293 1.8063023e-38 388 254
0.092791654 0.76700002 -0.018827293 1.8063023e-38 389 254
0.094136469 0.76700002 -0.018827293 1.7786079e-38 390 254
0.095356777 0.76599997 -0.018802745 1.7693883e-38 391 254
-0.054703996 0.77999997 -0.020513998 1.8069213e-38 280 255
-0.053404782 0.78100002 -0.020540299 1.6870671e-38 281 255
-0.052035429 0.78100002 -0.020540299 1.732799e-38 282 255
-0.050666075 0.78100002 -0.020540299 1.7696774e-38 283 255
-0.049233593 0.77999997 -0.020513998 1.8617249e-38 284 255
-0.047865998 0.77999997 -0.020513998 1.8709446e-38 285 255
-0.046498396 0.77999997 -0.020513998 1.9077503e-38 286 255
-0.045015078 0.778 -0.020461399 1.9077503e-38 287 255
-0.043650985 0.778 -0.020461399 1.9353016e-38 288 255
-0.042286891 0.778 -0.020461399 1.9353016e-38 289 255
-0.040922798 0.778 -0.020461399 1.9351942e-38 290 255
-0.039558705 0.778 -0.020461399 1.916755e-38 291 255
-0.038194612 0.778 -0.020461399 1.8983508e-38 292 255
-0.036830518 0.778 -0.020461399 1.8614727e-38 293 255
-0.035375252 0.77600002 -0.0204088 1.8338139e-38 294 255
-0.034014668 0.77600002 -0.0204088 1.8061912e-38 295 255
-0.032738242 0.778 -0.020461399 1.796936e-38 296 255
-0.031374145 0.778 -0.020461399 1.796936e-38 297 255
-0.03001005 0.778 -0.020461399 1.7877165e-38 298 255
-0.028645959 0.778 -0.020461399 1.7692413e-38 299 255
-0.027281865 0.778 -0.020461399 1.7139593e-38 300 255
-0.025984399 0.77999997 -0.020513998 1.677117e-38 301 255
-0.024616797 0.77999997 -0.020513998 1.6402381e-38 302 255
-0.023249198 0.77999997 -0.020513998 1.6033958e-38 303 255
-0.021881599 0.77999997 -0.020513998 1.5665897e-38 304 255
-0.020513998 0.77999997 -0.020513998 1.5481147e-38 305 255
-0.0191464 0.77999997 -0.020513998 1.529604e-38 306 255
-0.017801592 0.78100002 -0.020540299 1.529604e-38 307 255
-0.016432239 0.78100002 -0.020540299 1.47454e-38 308 255
-0.015062887 0.78100002 -0.020540299 1.4837596e-38 309 255
-0.013693534 0.78100002 -0.020540299 1.4744696e-38 310 255
-0.01232418 0.78100002 -0.020540299 1.4468468e-38 311 255
-0.010954826 0.78100002 -0.020540299 1.4468112e-38 312 255
-0.0095854728 0.78100002 -0.020540299 1.4375917e-38 313 255
-0.0082161194 0.78100002 -0.020540299 1.3917815e-38 314 255
-0.0068467669 0.78100002 -0.020540299 1.3917815e-38 315 255
-0.0054914397 0.78299999 -0.0205929 1.3825267e-38 316 255
-0.0041185799 0.78299999 -0.0205929 1.3825267e-38 317 255
-0.0027457199 0.78299999 -0.0205929 1.4466686e-38 318 255
-0.0013728599 0.78299999 -0.0205929 1.4466686e-38 319 255
0 0.78299999 -0.0205929 1.4007507e-38 320 255
0.0013728599 0.78299999 -0.0205929 1.4007507e-38 321 255
0.0027457199 0.78299999 -0.0205929 1.3915674e-38 322 255
0.0041291001 0.78500003 -0.020645501 1.3915674e-38 323 255
0.0055054668 0.78500003 -0.020645501 1.3915677e-38 324 255
0.0068818335 0.78500003 -0.020645501 1.3823481e-38 325 255
0.0082582003 0.78500003 -0.020645501 1.3639813e-38 326 255
0.0096345674 0.78500003 -0.020645501 1.3732009e-38 327 255
0.011010934 0.78500003 -0.020645501 1.3732009e-38 328 255
0.0123873 0.78500003 -0.020645501 1.3732009e-38 329 255
0.013763667 0.78500003 -0.020645501 1.3732012e-38 330 255
0.015140033 0.78500003 -0.020645501 1.3639816e-38 331 255
0.016516401 0.78500003 -0.020645501 1.3639813e-38 332 255
0.017892767 0.78500003 -0.020645501 1.3547618e-38 333 255
0.019269135 0.78500003 -0.020645501 1.3823481e-38 334 255
0.020645501 0.78500003 -0.020645501 1.363945e-38 335 255
0.022021867 0.78500003 -0.020645501 1.3547618e-38 336 255
0.023398234 0.78500003 -0.020645501 1.3547618e-38 337 255
0.0247746 0.78500003 -0.020645501 1.3547264e-38 338 255
0.026150968 0.78500003 -0.020645501 1.3455069e-38 339 255
0.027527334 0.78500003 -0.020645501 1.3455069e-38 340 255
0.0289037 0.78500003 -0.020645501 1.3455069e-38 341 255
0.030280067 0.78500003 -0.020645501 1.3455425e-38 342 255
0.031656433 0.78500003 -0.020645501 1.3455425e-38 343 255
0.032948639 0.78299999 -0.0205929 1.3546902e-38 344 255
0.034321502 0.78299999 -0.0205929 1.3546902e-38 345 255
0.035694357 0.78299999 -0.0205929 1.354762e-38 346 255
0.037067216 0.78299999 -0.0205929 1.354762e-38 347 255
0.038440078 0.78299999 -0.0205929 1.3547264e-38 348 255
0.039711244 0.78100002 -0.020540299 1.3547264e-38 349 255
0.041080598 0.78100002 -0.020540299 1.3639819e-38 350 255
0.042449951 0.78100002 -0.020540299 1.3639819e-38 351 255
0.043819305 0.78100002 -0.020540299 1.4007876e-38 352 255
0.045188658 0.78100002 -0.020540299 1.4007876e-38 353 255
0.046558015 0.78100002 -0.020540299 1.3916759e-38 354 255
0.047865998 0.77999997 -0.020513998 1.3824563e-38 355 255
0.049233593 0.77999997 -0.020513998 1.3549418e-38 356 255
0.050601196 0.77999997 -0.020513998 1.3549418e-38 357 255
0.051968798 0.77999997 -0.020513998 1.3733084e-38 358 255
0.053199638 0.778 -0.020461399 1.3825279e-38 359 255
0.054563731 0.778 -0.020461399 1.4102224e-38 360 255
0.055784054 0.77600002 -0.0204088 1.4470646e-38 361 255
0.057144642 0.77600002 -0.0204088 1.4747593e-38 362 255
0.058505226 0.77600002 -0.0204088 1.5116015e-38 363 255
0.059865814 0.77600002 -0.0204088 1.539296e-38 364 255
0.061226401 0.77600002 -0.0204088 1.5946133e-38 365 255
0.062586986 0.77600002 -0.0204088 1.640676e-38 366 255
0.063947573 0.77600002 -0.0204088 1.6683348e-38 367 255
0.065308161 0.77600002 -0.0204088 1.6957413e-38 368 255
0.066668749 0.77600002 -0.0204088 1.7141805e-38 369 255
0.068029337 0.77600002 -0.0204088 1.7142874e-38 370 255
0.069211073 0.77399999 -0.020356199 1.723507e-38 371 255
0.070568159 0.77399999 -0.020356199 1.7694609e-38 372 255
0.071925238 0.77399999 -0.020356199 1.7786806e-38 373 255
0.073187642 0.773 -0.0203299 1.8062667e-38 374 255
0.074542962 0.773 -0.0203299 1.8339253e-38 375 255
0.075898297 0.773 -0.0203299 1.8156303e-38 376 255
0.077053741 0.77100003 -0.020277301 1.8340696e-38 377 255
0.078405559 0.77100003 -0.020277301 1.8525446e-38 378 255
0.079757385 0.77100003 -0.020277301 1.8617642e-38 379 255
0.080898799 0.76899999 -0.0202247 1.8526162e-38 380 255
0.082247108 0.76899999 -0.0202247 1.8618358e-38 381 255
0.083378009 0.76700002 -0.020172099 1.880167e-38 382 255
0.084722824 0.76700002 -0.020172099 1.880167e-38 383 255
0.086067624 0.76700002 -0.020172099 1.8801307e-38 384 255
0.087412432 0.76700002 -0.020172099 1.8709111e-38 385 255
0.088757239 0.76700002 -0.020172099 1.8430729e-38 386 255
0.090102047 0.76700002 -0.020172099 1.7877556e-38 387 255
0.091446854 0.76700002 -0.020172099 1.7692092e-38 388 255
0.092791654 0.76700002 -0.020172099 1.7876123e-38 389 255
0.094136469 0.76700002 -0.020172099 1.7877205e-38 390 255
0.095356777 0.76599997 -0.020145798 1.8061236e-38 391 255
0.096699834 0.76599997 -0.020145798 1.7694256e-38 392 255
0.09804289 0.76599997 -0.020145798 1.7417669e-38 393 255
-0.053336397 0.77999997 -0.021881599 1.6961029e-38 281 256
-0.051968798 0.77999997 -0.021881599 1.7971176e-38 282 256
-0.050601196 0.77999997 -0.021881599 1.83396e-38 283 256
-0.049233593 0.77999997 -0.021881599 1.8525054e-38 284 256
-0.047865998 0.77999997 -0.021881599 1.8801642e-38 285 256
-0.046379171 0.778 -0.021825492 1.8984601e-38 286 256
-0.045015078 0.778 -0.021825492 1.8984601e-38 287 256
-0.043650985 0.778 -0.021825492 1.9167563e-38 288 256
-0.042286891 0.778 -0.021825492 1.8983532e-38 289 256
-0.040922798 0.778 -0.021825492 1.8891688e-38 290 256
-0.039558705 0.778 -0.021825492 1.8707297e-38 291 256
-0.038096428 0.77600002 -0.021769386 1.8521814e-38 292 256
-0.036735836 0.77600002 -0.021769386 1.8337064e-38 293 256
-0.035375252 0.77600002 -0.021769386 1.7783517e-38 294 256
-0.034014668 0.77600002 -0.021769386 1.7415093e-38 295 256
-0.032654081 0.77600002 -0.021769386 1.7047028e-38 296 256
-0.031293493 0.77600002 -0.021769386 1.6954833e-38 297 256
-0.029932907 0.77600002 -0.021769386 1.6678972e-38 298 256
-0.028572321 0.77600002 -0.021769386 1.6310188e-38 299 256
-0.027211733 0.77600002 -0.021769386 1.6033602e-38 300 256
-0.025917772 0.778 -0.021825492 1.584921e-38 301 256
-0.024616797 0.77999997 -0.021881599 1.5480797e-38 302 256
-0.023249198 0.77999997 -0.021881599 1.5296406e-38 303 256
-0.021881599 0.77999997 -0.021881599 1.5296428e-38 304 256
-0.020513998 0.77999997 -0.021881599 1.5204233e-38 305 256
-0.0191464 0.77999997 -0.021881599 1.4651427e-38 306 256
-0.017801592 0.78100002 -0.021909652 1.483582e-38 307 256
-0.016432239 0.78100002 -0.021909652 1.4560325e-38 308 256
-0.015062887 0.78100002 -0.021909652 1.4560325e-38 309 256
-0.013693534 0.78100002 -0.021909652 1.4284469e-38 310 256
-0.01232418 0.78100002 -0.021909652 1.4284469e-38 311 256
-0.010954826 0.78100002 -0.021909652 1.4192268e-38 312 256
-0.0095854728 0.78100002 -0.021909652 1.4100071e-38 313 256
-0.0082371598 0.78299999 -0.021965759 1.4100068e-38 314 256
-0.0068642995 0.78299999 -0.021965759 1.4007873e-38 315 256
-0.0054914397 0.78299999 -0.021965759 1.3732365e-38 316 256
-0.0041185799 0.78299999 -0.021965759 1.3640169e-38 317 256
-0.0027457199 0.78299999 -0.021965759 1.3823484e-38 318 256
-0.0013728599 0.78299999 -0.021965759 1.3823484e-38 319 256
0 0.78299999 -0.021965759 1.3823128e-38 320 256
0.0013728599 0.78299999 -0.021965759 1.3823128e-38 321 256
0.0027457199 0.78299999 -0.021965759 1.3639813e-38 322 256
0.0041291001 0.78500003 -0.022021867 1.3639813e-38 323 256
0.0055054668 0.78500003 -0.022021867 1.3639813e-38 324 256
0.0068818335 0.78500003 -0.022021867 1.3639813e-38 325 256
0.0082582003 0.78500003 -0.022021867 1.3456501e-38 326 256
0.0096345674 0.78500003 -0.022021867 1.3456501e-38 327 256
0.011010934 0.78500003 -0.022021867 1.3640535e-38 328 256
0.0123873 0.78500003 -0.022021867 1.3640535e-38 329 256
0.013798732 0.787 -0.022077972 1.3639816e-38 330 256
0.015178605 0.787 -0.022077972 1.3639816e-38 331 256
0.016516401 0.78500003 -0.022021867 1.354762e-38 332 256
0.017892767 0.78500003 -0.022021867 1.354762e-38 333 256
0.019269135 0.78500003 -0.022021867 1.3364303e-38 334 256
0.020645501 0.78500003 -0.022021867 1.3364303e-38 335 256
0.022021867 0.78500003 -0.022021867 1.327211e-38 336 256
0.023398234 0.78500003 -0.022021867 1.327211e-38 337 256
0.0247746 0.78500003 -0.022021867 1.3271039e-38 338 256
0.026150968 0.78500003 -0.022021867 1.3271039e-38 339 256
0.027527334 0.78500003 -0.022021867 1.3179204e-38 340 256
0.0289037 0.78500003 -0.022021867 1.3179204e-38 341 256
0.030280067 0.78500003 -0.022021867 1.317956e-38 342 256
0.031656433 0.78500003 -0.022021867 1.317956e-38 343 256
0.033032801 0.78500003 -0.022021867 1.3271036e-38 344 256
0.034321502 0.78299999 -0.021965759 1.3271036e-38 345 256
0.035694357 0.78299999 -0.021965759 1.3088088e-38 346 256
0.037067216 0.78299999 -0.021965759 1.3088088e-38 347 256
0.038440078 0.78299999 -0.021965759 1.3272478e-38 348 256
0.039711244 0.78100002 -0.021909652 1.3272478e-38 349 256
0.041080598 0.78100002 -0.021909652 1.3639463e-38 350 256
0.042449951 0.78100002 -0.021909652 1.3547267e-38 351 256
0.043819305 0.78100002 -0.021909652 1.3640538e-38 352 256
0.045188658 0.78100002 -0.021909652 1.3640538e-38 353 256
0.046558015 0.78100002 -0.021909652 1.3732377e-38 354 256
0.047865998 0.77999997 -0.021881599 1.3732377e-38 355 256
0.049233593 0.77999997 -0.021881599 1.3732383e-38 356 256
0.050601196 0.77999997 -0.021881599 1.3824579e-38 357 256
0.051968798 0.77999997 -0.021881599 1.3823854e-38 358 256
0.053199638 0.778 -0.021825492 1.3731659e-38 359 256
0.054563731 0.778 -0.021825492 1.3916759e-38 360 256
0.055784054 0.77600002 -0.021769386 1.3916759e-38 361 256
0.057144642 0.77600002 -0.021769386 1.4285173e-38 362 256
0.058505226 0.77600002 -0.021769386 1.45614e-38 363 256
0.059865814 0.77600002 -0.021769386 1.4378801e-38 364 256
0.061226401 0.77600002 -0.021769386 1.4655748e-38 365 256
0.062586986 0.77600002 -0.021769386 1.5391882e-38 366 256
0.063947573 0.77600002 -0.021769386 1.5760666e-38 367 256
0.065308161 0.77600002 -0.021769386 1.6036177e-38 368 256
0.066496916 0.77399999 -0.021713279 1.6313124e-38 369 256
0.067854002 0.77399999 -0.021713279 1.6589353e-38 370 256
0.069121659 0.773 -0.021685226 1.6773744e-38 371 256
0.070476986 0.773 -0.021685226 1.6591155e-38 372 256
0.071832314 0.773 -0.021685226 1.6683351e-38 373 256
0.073187642 0.773 -0.021685226 1.7327269e-38 374 256
0.074350104 0.77100003 -0.021629119 1.7511661e-38 375 256
0.075701922 0.77100003 -0.021629119 1.7512386e-38 376 256
0.076853856 0.76899999 -0.021573013 1.7788973e-38 377 256
0.078202173 0.76899999 -0.021573013 1.8248149e-38 378 256
0.079550482 0.76899999 -0.021573013 1.8340346e-38 379 256
0.080898799 0.76899999 -0.021573013 1.8250304e-38 380 256
0.08203321 0.76700002 -0.021516906 1.8342499e-38 381 256
0.083378009 0.76700002 -0.021516906 1.8617286e-38 382 256
0.084722824 0.76700002 -0.021516906 1.8617286e-38 383 256
0.085955404 0.76599997 -0.021488851 1.8708755e-38 384 256
0.08729846 0.76599997 -0.021488851 1.8708755e-38 385 256
0.088757239 0.76700002 -0.021516906 1.8338897e-38 386 256
0.090102047 0.76700002 -0.021516906 1.7417301e-38 387 256
0.091446854 0.76700002 -0.021516906 1.6401704e-38 388 256
0.092670672 0.76599997 -0.021488851 1.6217311e-38 389 256
0.094013728 0.76599997 -0.021488851 1.6402794e-38 390 256
0.095356777 0.76599997 -0.021488851 1.7140359e-38 391 256
0.096699834 0.76599997 -0.021488851 1.7141452e-38 392 256
0.09804289 0.76599997 -0.021488851 1.7326202e-38 393 256
0.09938594 0.76599997 -0.021488851 1.7233648e-38 394 256
0.10007149 0.76099998 -0.021348584 1.7049256e-38 395 256
0.10140578 0.76099998 -0.021348584 1.6680845e-38 396 256
0.10274007 0.76099998 -0.021348584 1.658865e-38 397 256
-0.056071598 0.77999997 -0.023249198 1.68685e-38 279 257
-0.054703996 0.77999997 -0.023249198 1.7234367e-38 280 257
-0.053336397 0.77999997 -0.023249198 1.778754e-38 281 257
-0.051835544 0.778 -0.023189586 1.8338897e-38 282 257
-0.050471451 0.778 -0.023189586 1.8523647e-38 283 257
-0.049107358 0.778 -0.023189586 1.8616543e-38 284 257
-0.047743265 0.778 -0.023189586 1.8616543e-38 285 257
-0.046379171 0.778 -0.023189586 1.8799855e-38 286 257
-0.044899363 0.77600002 -0.023129974 1.8799855e-38 287 257
-0.043538772 0.77600002 -0.023129974 1.8708016e-38 288 257
-0.042178184 0.77600002 -0.023129974 1.843143e-38 289 257
-0.0408176 0.77600002 -0.023129974 1.8431783e-38 290 257
-0.039457016 0.77600002 -0.023129974 1.8247392e-38 291 257
-0.038096428 0.77600002 -0.023129974 1.7784962e-38 292 257
-0.036641158 0.77399999 -0.02307036 1.7139593e-38 293 257
-0.03528408 0.77399999 -0.02307036 1.6770444e-38 294 257
-0.034014668 0.77600002 -0.023129974 1.6401662e-38 295 257
-0.032654081 0.77600002 -0.023129974 1.584921e-38 296 257
-0.031293493 0.77600002 -0.023129974 1.5480429e-38 297 257
-0.029932907 0.77600002 -0.023129974 1.5481153e-38 298 257
-0.028572321 0.77600002 -0.023129974 1.5296403e-38 299 257
-0.027211733 0.77600002 -0.023129974 1.4927643e-38 300 257
-0.025917772 0.778 -0.023189586 1.5019839e-38 301 257
-0.024616797 0.77999997 -0.023249198 1.4652151e-38 302 257
-0.023249198 0.77999997 -0.023249198 1.4652151e-38 303 257
-0.021881599 0.77999997 -0.023249198 1.4651447e-38 304 257
-0.020513998 0.77999997 -0.023249198 1.4467416e-38 305 257
-0.0191464 0.77999997 -0.023249198 1.3916403e-38 306 257
-0.017801592 0.78100002 -0.023279008 1.4100794e-38 307 257
-0.016432239 0.78100002 -0.023279008 1.4192271e-38 308 257
-0.015062887 0.78100002 -0.023279008 1.4100074e-38 309 257
-0.013693534 0.78100002 -0.023279008 1.3824207e-38 310 257
-0.01232418 0.78100002 -0.023279008 1.3824207e-38 311 257
-0.010954826 0.78100002 -0.023279008 1.3915677e-38 312 257
-0.0095854728 0.78100002 -0.023279008 1.3915677e-38 313 257
-0.0082371598 0.78299999 -0.02333862 1.3732362e-38 314 257
-0.0068642995 0.78299999 -0.02333862 1.3732362e-38 315 257
-0.0054914397 0.78299999 -0.02333862 1.3640169e-38 316 257
-0.0041185799 0.78299999 -0.02333862 1.3547974e-38 317 257
-0.0027457199 0.78299999 -0.02333862 1.3639094e-38 318 257
-0.0013728599 0.78299999 -0.02333862 1.3639094e-38 319 257
0 0.78299999 -0.02333862 1.354762e-38 320 257
0.0013728599 0.78299999 -0.02333862 1.354762e-38 321 257
0.0027457199 0.78299999 -0.02333862 1.3364305e-38 322 257
0.0041291001 0.78500003 -0.023398234 1.3364305e-38 323 257
0.0055054668 0.78500003 -0.023398234 1.3547618e-38 324 257
0.0068818335 0.78500003 -0.023398234 1.3547618e-38 325 257
0.0082792398 0.787 -0.023457846 1.3365024e-38 326 257
0.0096591124 0.787 -0.023457846 1.3365024e-38 327 257
0.011038986 0.787 -0.023457846 1.3364308e-38 328 257
0.01241886 0.787 -0.023457846 1.3364308e-38 329 257
0.013798732 0.787 -0.023457846 1.354762e-38 330 257
0.015178605 0.787 -0.023457846 1.354762e-38 331 257
0.016516401 0.78500003 -0.023398234 1.3547618e-38 332 257
0.017892767 0.78500003 -0.023398234 1.3547618e-38 333 257
0.019269135 0.78500003 -0.023398234 1.3272463e-38 334 257
0.020645501 0.78500003 -0.023398234 1.3364658e-38 335 257
0.022021867 0.78500003 -0.023398234 1.3088797e-38 336 257
0.023398234 0.78500003 -0.023398234 1.2996242e-38 337 257
0.0247746 0.78500003 -0.023398234 1.3271034e-38 338 257
0.026150968 0.78500003 -0.023398234 1.3271034e-38 339 257
0.027527334 0.78500003 -0.023398234 1.317956e-38 340 257
0.02897734 0.787 -0.023457846 1.317956e-38 341 257
0.030280067 0.78500003 -0.023398234 1.2996247e-38 342 257
0.031656433 0.78500003 -0.023398234 1.2904052e-38 343 257
0.033032801 0.78500003 -0.023398234 1.317956e-38 344 257
0.034409165 0.78500003 -0.023398234 1.317956e-38 345 257
0.035694357 0.78299999 -0.02333862 1.3271759e-38 346 257
0.037067216 0.78299999 -0.02333862 1.3271759e-38 347 257
0.038440078 0.78299999 -0.02333862 1.3271759e-38 348 257
0.039812941 0.78299999 -0.02333862 1.3271759e-38 349 257
0.0411858 0.78299999 -0.02333862 1.3455069e-38 350 257
0.042449951 0.78100002 -0.023279008 1.3547264e-38 351 257
0.043819305 0.78100002 -0.023279008 1.3640535e-38 352 257
0.045188658 0.78100002 -0.023279008 1.3456504e-38 353 257
0.046558015 0.78100002 -0.023279008 1.3640535e-38 354 257
0.047927368 0.78100002 -0.023279008 1.3640535e-38 355 257
0.049296722 0.78100002 -0.023279008 1.3640535e-38 356 257
0.050601196 0.77999997 -0.023249198 1.3640535e-38 357 257
0.051968798 0.77999997 -0.023249198 1.3732012e-38 358 257
0.053336397 0.77999997 -0.023249198 1.3824207e-38 359 257
0.054563731 0.778 -0.023189586 1.382421e-38 360 257
0.055927824 0.778 -0.023189586 1.3916406e-38 361 257
0.057291918 0.778 -0.023189586 1.382421e-38 362 257
0.058505226 0.77600002 -0.023129974 1.3916406e-38 363 257
0.059865814 0.77600002 -0.023129974 1.3549781e-38 364 257
0.061226401 0.77600002 -0.023129974 1.3642337e-38 365 257
0.062586986 0.77600002 -0.023129974 1.410187e-38 366 257
0.063947573 0.77600002 -0.023129974 1.4470652e-38 367 257
0.065308161 0.77600002 -0.023129974 1.5114573e-38 368 257
0.066496916 0.77399999 -0.02307036 1.5483356e-38 369 257
0.067854002 0.77399999 -0.02307036 1.5668826e-38 370 257
0.069121659 0.773 -0.023040552 1.5853217e-38 371 257
0.070476986 0.773 -0.023040552 1.5946502e-38 372 257
0.071832314 0.773 -0.023040552 1.6130893e-38 373 257
0.072998285 0.77100003 -0.02298094 1.6591152e-38 374 257
0.074157231 0.76899999 -0.022921326 1.6775544e-38 375 257
0.07550554 0.76899999 -0.022921326 1.7143603e-38 376 257
0.076853856 0.76899999 -0.022921326 1.7419831e-38 377 257
0.078202173 0.76899999 -0.022921326 1.7787528e-38 378 257
0.079550482 0.76899999 -0.022921326 1.7971919e-38 379 257
0.080688395 0.76700002 -0.022861714 1.8065189e-38 380 257
0.08203321 0.76700002 -0.022861714 1.8249582e-38 381 257
0.083269298 0.76599997 -0.022831906 1.8525093e-38 382 257
0.084612355 0.76599997 -0.022831906 1.8525093e-38 383 257
0.085955404 0.76599997 -0.022831906 1.8708761e-38 384 257
0.08729846 0.76599997 -0.022831906 1.8616207e-38 385 257
0.088641517 0.76599997 -0.022831906 1.8522925e-38 386 257
0.089984566 0.76599997 -0.022831906 1.7508414e-38 387 257
0.091327623 0.76599997 -0.022831906 1.5846355e-38 388 257
0.092670672 0.76599997 -0.022831906 1.5016955e-38 389 257
0.094013728 0.76599997 -0.022831906 1.483474e-38 390 257
0.095356777 0.76599997 -0.022831906 1.5572306e-38 391 257
0.096699834 0.76599997 -0.022831906 1.5667414e-38 392 257
0.09804289 0.76599997 -0.022831906 1.6497533e-38 393 257
0.09938594 0.76599997 -0.022831906 1.6865944e-38 394 257
0.10007149 0.76099998 -0.022682872 1.6773747e-38 395 257
0.10140578 0.76099998 -0.022682872 1.649859e-38 396 257
0.10274007 0.76099998 -0.022682872 1.649859e-38 397 257
0.10407435 0.76099998 -0.022682872 1.6313508e-38 398 257
0.10554716 0.76200002 -0.02271268 1.6313508e-38 399 257
-0.057439197 0.77999997 -0.024616797 1.6867758e-38 278 258
-0.056071598 0.77999997 -0.024616797 1.6867758e-38 279 258
-0.054703996 0.77999997 -0.024616797 1.7878274e-38 280 258
-0.053336397 0.77999997 -0.024616797 1.8062667e-38 281 258
-0.051835544 0.778 -0.024553679 1.8338884e-38 282 258
-0.050471451 0.778 -0.024553679 1.8523275e-38 283 258
-0.049107358 0.778 -0.024553679 1.8706941e-38 284 258
-0.047620531 0.77600002 -0.024490559 1.8706941e-38 285 258
-0.046259947 0.77600002 -0.024490559 1.8522549e-38 286 258
-0.044783637 0.77399999 -0.02442744 1.8706941e-38 287 258
-0.043426558 0.77399999 -0.02442744 1.8337783e-38 288 258
-0.042069476 0.77399999 -0.02442744 1.7784968e-38 289 258
-0.040712398 0.77399999 -0.02442744 1.7324707e-38 290 258
-0.039457016 0.77600002 -0.024490559 1.7324707e-38 291 258
-0.038096428 0.77600002 -0.024490559 1.6311267e-38 292 258
-0.036641158 0.77399999 -0.02442744 1.5573702e-38 293 258
-0.03528408 0.77399999 -0.02442744 1.5480429e-38 294 258
-0.034014668 0.77600002 -0.024490559 1.5296037e-38 295 258
-0.032654081 0.77600002 -0.024490559 1.5020195e-38 296 258
-0.031293493 0.77600002 -0.024490559 1.5020195e-38 297 258
-0.029932907 0.77600002 -0.024490559 1.5111684e-38 298 258
-0.028572321 0.77600002 -0.024490559 1.4835096e-38 299 258
-0.027211733 0.77600002 -0.024490559 1.4467762e-38 300 258
-0.025917772 0.778 -0.024553679 1.4467762e-38 301 258
-0.024553679 0.778 -0.024553679 1.4375213e-38 302 258
-0.023249198 0.77999997 -0.024616797 1.4375213e-38 303 258
-0.021881599 0.77999997 -0.024616797 1.4007876e-38 304 258
-0.020513998 0.77999997 -0.024616797 1.4007876e-38 305 258
-0.0191464 0.77999997 -0.024616797 1.3824563e-38 306 258
-0.017801592 0.78100002 -0.024648361 1.3824563e-38 307 258
-0.016432239 0.78100002 -0.024648361 1.3732728e-38 308 258
-0.015062887 0.78100002 -0.024648361 1.3640532e-38 309 258
