# .PCD v.7 - Point Cloud Data file format
FIELDS x y z rgb imX imY
SIZE 4 4 4 4 4 4
TYPE F F F F F F
COUNT 1 1 1 1 1 1
WIDTH 849
HEIGHT 1
VIEWPOINT 0 0 0 1 0 0 0
POINTS 849
DATA ascii
0.088236496 0.671 -0.09411893 1.4007504e-38 395 320
0.089546233 0.67199999 -0.094259195 1.3639803e-38 396 320
0.090724476 0.67199999 -0.094259195 1.3362856e-38 397 320
0.092176244 0.67400002 -0.094539732 1.2718939e-38 398 320
0.093357988 0.67400002 -0.094539732 1.2534187e-38 399 320
0.094679996 0.67500001 -0.094679996 1.2073585e-38 400 320
0.096289553 0.67799997 -0.09510079 1.2073585e-38 401 320
0.096471906 0.671 -0.09411893 1.1889566e-38 402 320
0.09764839 0.671 -0.09411893 1.1889566e-38 403 320
0.10000312 0.67900002 -0.095241062 1.1703765e-38 404 320
0.10119363 0.67900002 -0.095241062 1.1150592e-38 405 320
0.033914726 0.667 -0.094727337 1.8070341e-38 349 321
0.035031598 0.66600001 -0.094585314 1.8252564e-38 350 321
0.03619932 0.66600001 -0.094585314 1.7791946e-38 351 321
0.037254825 0.66399997 -0.094301268 1.8065992e-38 352 321
0.038419038 0.66399997 -0.094301268 1.7420623e-38 353 321
0.039464023 0.662 -0.094017237 1.7970528e-38 354 321
0.04062473 0.662 -0.094017237 1.7786136e-38 355 321
0.041785441 0.662 -0.094017237 1.778719e-38 356 321
0.042946145 0.662 -0.094017237 1.7603159e-38 357 321
0.044240102 0.66399997 -0.094301268 1.7971922e-38 358 321
0.045335937 0.66299999 -0.094159253 1.7971922e-38 359 321
0.046498399 0.66299999 -0.094159253 1.7880795e-38 360 321
0.047588971 0.662 -0.094017237 1.7880795e-38 361 321
0.048749682 0.662 -0.094017237 1.8155582e-38 362 321
0.049985778 0.66299999 -0.094159253 1.8248136e-38 363 321
0.051148236 0.66299999 -0.094159253 1.8340332e-38 364 321
0.052310698 0.66299999 -0.094159253 1.8340332e-38 365 321
0.053392503 0.662 -0.094017237 1.8248852e-38 366 321
0.054553211 0.662 -0.094017237 1.8248852e-38 367 321
0.05562976 0.66100001 -0.093875214 1.8340685e-38 368 321
0.056788713 0.66100001 -0.093875214 1.8340685e-38 369 321
0.058035329 0.662 -0.094017237 1.8431801e-38 370 321
0.059106622 0.66100001 -0.093875214 1.8339247e-38 371 321
0.060265575 0.66100001 -0.093875214 1.806302e-38 372 321
0.061424527 0.66100001 -0.093875214 1.7970823e-38 373 321
0.062583476 0.66100001 -0.093875214 1.7786079e-38 374 321
0.063742429 0.66100001 -0.093875214 1.7693883e-38 375 321
0.064901382 0.66100001 -0.093875214 1.769353e-38 376 321
0.066060342 0.66100001 -0.093875214 1.7509499e-38 377 321
0.067219295 0.66100001 -0.093875214 1.7417301e-38 378 321
0.068481691 0.662 -0.094017237 1.7048158e-38 379 321
0.069642402 0.662 -0.094017237 1.6863398e-38 380 321
0.070803106 0.662 -0.094017237 1.658717e-38 381 321
0.071963809 0.662 -0.094017237 1.658717e-38 382 321
0.07312452 0.662 -0.094017237 1.6310224e-38 383 321
0.074285224 0.662 -0.094017237 1.6034716e-38 384 321
0.075559892 0.66299999 -0.094159253 1.5850324e-38 385 321
0.076838076 0.66399997 -0.094301268 1.5757409e-38 386 321
0.078002289 0.66399997 -0.094301268 1.5664855e-38 387 321
0.079404958 0.66600001 -0.094585314 1.5296794e-38 388 321
0.08057268 0.66600001 -0.094585314 1.5112403e-38 389 321
0.081740394 0.66600001 -0.094585314 1.4744346e-38 390 321
0.082908116 0.66600001 -0.094585314 1.4652151e-38 391 321
0.084202074 0.667 -0.094727337 1.4375566e-38 392 321
0.085499547 0.66799998 -0.094869353 1.4191175e-38 393 321
0.086930268 0.67000002 -0.095153399 1.4006425e-38 394 321
0.088236496 0.671 -0.095295422 1.3730197e-38 395 321
0.089546233 0.67199999 -0.095437437 1.3269945e-38 396 321
0.090724476 0.67199999 -0.095437437 1.3085195e-38 397 321
0.092176244 0.67400002 -0.095721483 1.2716784e-38 398 321
0.093357988 0.67400002 -0.095721483 1.2532392e-38 399 321
0.094539732 0.67400002 -0.095721483 1.2255822e-38 400 321
0.095295422 0.671 -0.095295422 1.2255822e-38 401 321
0.096471906 0.671 -0.095295422 1.1797371e-38 402 321
0.09764839 0.671 -0.095295422 1.1612621e-38 403 321
0.098824874 0.671 -0.095295422 1.0967276e-38 404 321
0.032696161 0.66600001 -0.095753036 1.815965e-38 348 322
0.03386388 0.66600001 -0.095753036 1.7975258e-38 349 322
0.035031598 0.66600001 -0.095753036 1.83415e-38 350 322
0.036090612 0.66399997 -0.095465489 1.8064913e-38 351 322
0.037198719 0.66299999 -0.095321715 1.7697172e-38 352 322
0.038361177 0.66299999 -0.095321715 1.7235834e-38 353 322
0.039464023 0.662 -0.095177941 1.7787177e-38 354 322
0.04062473 0.662 -0.095177941 1.7787177e-38 355 322
0.041785441 0.662 -0.095177941 1.7879726e-38 356 322
0.042946145 0.662 -0.095177941 1.7971922e-38 357 322
0.044106852 0.662 -0.095177941 1.8247783e-38 358 322
0.04526756 0.662 -0.095177941 1.8247783e-38 359 322
0.046428263 0.662 -0.095177941 1.8248133e-38 360 322
0.047588971 0.662 -0.095177941 1.8248133e-38 361 322
0.048749682 0.662 -0.095177941 1.8431801e-38 362 322
0.049910385 0.662 -0.095177941 1.8523997e-38 363 322
0.051071092 0.662 -0.095177941 1.8340329e-38 364 322
0.0522318 0.662 -0.095177941 1.8340329e-38 365 322
0.053392503 0.662 -0.095177941 1.8340332e-38 366 322
0.054305989 0.65899998 -0.094746619 1.8340332e-38 367 322
0.055461437 0.65899998 -0.094746619 1.8248136e-38 368 322
0.056616884 0.65899998 -0.094746619 1.8155582e-38 369 322
0.057772331 0.65899998 -0.094746619 1.8155935e-38 370 322
0.058927774 0.65899998 -0.094746619 1.7971544e-38 371 322
0.060265575 0.66100001 -0.095034167 1.7787511e-38 372 322
0.061424527 0.66100001 -0.095034167 1.7602761e-38 373 322
0.062583476 0.66100001 -0.095034167 1.7234707e-38 374 322
0.063742429 0.66100001 -0.095034167 1.7142512e-38 375 322
0.064901382 0.66100001 -0.095034167 1.7324752e-38 376 322
0.066060342 0.66100001 -0.095034167 1.7232555e-38 377 322
0.067219295 0.66100001 -0.095034167 1.6957044e-38 378 322
0.068378247 0.66100001 -0.095034167 1.640387e-38 379 322
0.0695372 0.66100001 -0.095034167 1.6494268e-38 380 322
0.070696153 0.66100001 -0.095034167 1.6402072e-38 381 322
0.071855105 0.66100001 -0.095034167 1.6126209e-38 382 322
0.07312452 0.662 -0.095177941 1.5941816e-38 383 322
0.074285224 0.662 -0.095177941 1.5666302e-38 384 322
0.075559892 0.66299999 -0.095321715 1.5481911e-38 385 322
0.076722354 0.66299999 -0.095321715 1.5297517e-38 386 322
0.078002289 0.66399997 -0.095465489 1.5113485e-38 387 322
0.079166502 0.66399997 -0.095465489 1.4836545e-38 388 322
0.080330715 0.66399997 -0.095465489 1.474399e-38 389 322
0.081740394 0.66600001 -0.095753036 1.4467765e-38 390 322
0.082908116 0.66600001 -0.095753036 1.4283015e-38 391 322
0.084202074 0.667 -0.09589681 1.3914955e-38 392 322
0.085499547 0.66799998 -0.096040577 1.3730564e-38 393 322
0.086930268 0.67000002 -0.096328132 1.3361787e-38 394 322
0.088236496 0.671 -0.096471906 1.3269592e-38 395 322
0.089546233 0.67199999 -0.09661568 1.2716781e-38 396 322
0.090724476 0.67199999 -0.09661568 1.253239e-38 397 322
0.091902718 0.67199999 -0.09661568 1.1981384e-38 398 322
0.093080953 0.67199999 -0.09661568 1.1797352e-38 399 322
0.094259195 0.67199999 -0.09661568 1.1979961e-38 400 322
0.095295422 0.671 -0.096471906 1.1979961e-38 401 322
0.096471906 0.671 -0.096471906 1.161227e-38 402 322
0.097502865 0.67000002 -0.096328132 1.1059097e-38 403 322
0.098677598 0.67000002 -0.096328132 9.8638184e-39 404 322
0.031528439 0.66600001 -0.096920758 1.7881242e-38 347 323
0.032696161 0.66600001 -0.096920758 1.7696466e-38 348 323
0.03386388 0.66600001 -0.096920758 1.7419878e-38 349 323
0.0349264 0.66399997 -0.096629702 1.7602809e-38 350 323
0.036036257 0.66299999 -0.096484177 1.778684e-38 351 323
0.037198719 0.66299999 -0.096484177 1.7604231e-38 352 323
0.038303319 0.662 -0.096338652 1.7604231e-38 353 323
0.039404415 0.66100001 -0.096193127 1.7971922e-38 354 323
0.040563367 0.66100001 -0.096193127 1.7971922e-38 355 323
0.04172232 0.66100001 -0.096193127 1.7972275e-38 356 323
0.042881273 0.66100001 -0.096193127 1.8156306e-38 357 323
0.044040225 0.66100001 -0.096193127 1.8340332e-38 358 323
0.045199182 0.66100001 -0.096193127 1.8340332e-38 359 323
0.046358135 0.66100001 -0.096193127 1.8340685e-38 360 323
0.04737331 0.65899998 -0.09590207 1.8340685e-38 361 323
0.048528757 0.65899998 -0.09590207 1.8340685e-38 362 323
0.049608808 0.65799999 -0.095756538 1.8340685e-38 363 323
0.050762504 0.65799999 -0.095756538 1.8339976e-38 364 323
0.051916201 0.65799999 -0.095756538 1.8339976e-38 365 323
0.052989237 0.65700001 -0.095611021 1.8248502e-38 366 323
0.054141179 0.65700001 -0.095611021 1.8156306e-38 367 323
0.055377278 0.65799999 -0.095756538 1.7972269e-38 368 323
0.056530971 0.65799999 -0.095756538 1.7880074e-38 369 323
0.057684667 0.65799999 -0.095756538 1.7788231e-38 370 323
0.058838356 0.65799999 -0.095756538 1.760348e-38 371 323
0.059992049 0.65799999 -0.095756538 1.7602764e-38 372 323
0.061145745 0.65799999 -0.095756538 1.7418373e-38 373 323
0.062394116 0.65899998 -0.09590207 1.7233272e-38 374 323
0.063549563 0.65899998 -0.09590207 1.6957044e-38 375 323
0.064705007 0.65899998 -0.09590207 1.6864492e-38 376 323
0.065860458 0.65899998 -0.09590207 1.6680101e-38 377 323
0.067015901 0.65899998 -0.09590207 1.6587903e-38 378 323
0.068171352 0.65899998 -0.09590207 1.6127283e-38 379 323
0.0695372 0.66100001 -0.096193127 1.5941816e-38 380 323
0.070696153 0.66100001 -0.096193127 1.584962e-38 381 323
0.071855105 0.66100001 -0.096193127 1.5573754e-38 382 323
0.073014058 0.66100001 -0.096193127 1.5481558e-38 383 323
0.074285224 0.662 -0.096338652 1.5297164e-38 384 323
0.075445928 0.662 -0.096338652 1.5113131e-38 385 323
0.076606639 0.662 -0.096338652 1.4745428e-38 386 323
0.077884816 0.66299999 -0.096484177 1.4652874e-38 387 323
0.079047278 0.66299999 -0.096484177 1.4468485e-38 388 323
0.080209732 0.66299999 -0.096484177 1.4376288e-38 389 323
0.081494927 0.66399997 -0.096629702 1.4099705e-38 390 323
0.082908116 0.66600001 -0.096920758 1.3914955e-38 391 323
0.084075838 0.66600001 -0.096920758 1.3638367e-38 392 323
0.085371546 0.667 -0.097066283 1.3269945e-38 393 323
0.086670771 0.66799998 -0.097211808 1.2809335e-38 394 323
0.088236496 0.671 -0.09764839 1.2716781e-38 395 323
0.089412987 0.671 -0.09764839 1.2073216e-38 396 323
0.090724476 0.67199999 -0.097793922 1.1981021e-38 397 323
0.091902718 0.67199999 -0.097793922 1.1797355e-38 398 323
0.093080953 0.67199999 -0.097793922 1.1705158e-38 399 323
0.094259195 0.67199999 -0.097793922 1.1611903e-38 400 323
0.095295422 0.671 -0.09764839 1.1611903e-38 401 323
0.096471906 0.671 -0.09764839 1.1151663e-38 402 323
0.097502865 0.67000002 -0.097502865 1.0782882e-38 403 323
0.098677598 0.67000002 -0.097502865 9.863824e-39 404 323
0.031386416 0.66299999 -0.097646631 1.7787215e-38 347 324
0.032548878 0.66299999 -0.097646631 1.7787193e-38 348 324
0.033711337 0.66299999 -0.097646631 1.7787193e-38 349 324
0.034821201 0.662 -0.097499363 1.787937e-38 350 324
0.035981905 0.662 -0.097499363 1.787937e-38 351 324
0.037142612 0.662 -0.097499363 1.8155231e-38 352 324
0.038245458 0.66100001 -0.09735208 1.8155231e-38 353 324
0.039285187 0.65899998 -0.097057514 1.8156303e-38 354 324
0.04044063 0.65899998 -0.097057514 1.8248499e-38 355 324
0.041469838 0.65700001 -0.096762955 1.8248499e-38 356 324
0.04262178 0.65700001 -0.096762955 1.8340696e-38 357 324
0.043773718 0.65700001 -0.096762955 1.8432531e-38 358 324
0.045062415 0.65899998 -0.097057514 1.8432531e-38 359 324
0.046217863 0.65899998 -0.097057514 1.8432524e-38 360 324
0.047301427 0.65799999 -0.096910238 1.8340329e-38 361 324
0.048455119 0.65799999 -0.096910238 1.8616195e-38 362 324
0.049533416 0.65700001 -0.096762955 1.8523641e-38 363 324
0.050685361 0.65700001 -0.096762955 1.8247783e-38 364 324
0.051837299 0.65700001 -0.096762955 1.8247783e-38 365 324
0.052989237 0.65700001 -0.096762955 1.8431095e-38 366 324
0.054141179 0.65700001 -0.096762955 1.83389e-38 367 324
0.055293117 0.65700001 -0.096762955 1.8154863e-38 368 324
0.056445058 0.65700001 -0.096762955 1.8062667e-38 369 324
0.057596996 0.65700001 -0.096762955 1.7695315e-38 370 324
0.058748938 0.65700001 -0.096762955 1.7510565e-38 371 324
0.05990088 0.65700001 -0.096762955 1.7509846e-38 372 324
0.061145745 0.65799999 -0.096910238 1.7233258e-38 373 324
0.062299434 0.65799999 -0.096910238 1.7048514e-38 374 324
0.063549563 0.65899998 -0.097057514 1.6771928e-38 375 324
0.064705007 0.65899998 -0.097057514 1.6680098e-38 376 324
0.065860458 0.65899998 -0.097057514 1.640387e-38 377 324
0.066914216 0.65799999 -0.096910238 1.6402791e-38 378 324
0.068067901 0.65799999 -0.096910238 1.603401e-38 379 324
0.069326796 0.65899998 -0.097057514 1.5573754e-38 380 324
0.070482239 0.65899998 -0.097057514 1.5481558e-38 381 324
0.07163769 0.65899998 -0.097057514 1.5297164e-38 382 324
0.073014058 0.66100001 -0.09735208 1.5113131e-38 383 324
0.074173011 0.66100001 -0.09735208 1.5020933e-38 384 324
0.075445928 0.662 -0.097499363 1.4928737e-38 385 324
0.076606639 0.662 -0.097499363 1.4561031e-38 386 324
0.077767342 0.662 -0.097499363 1.4376638e-38 387 324
0.079047278 0.66299999 -0.097646631 1.4284087e-38 388 324
0.080209732 0.66299999 -0.097646631 1.400786e-38 389 324
0.081494927 0.66399997 -0.097793914 1.382276e-38 390 324
0.08265914 0.66399997 -0.097793914 1.3454336e-38 391 324
0.084075838 0.66600001 -0.098088481 1.3359987e-38 392 324
0.08524356 0.66600001 -0.098088481 1.262242e-38 393 324
0.086541019 0.667 -0.098235756 1.2346922e-38 394 324
0.088105001 0.67000002 -0.098677598 1.2439478e-38 395 324
0.089412987 0.671 -0.098824874 1.1797352e-38 396 324
0.090724476 0.67199999 -0.098972157 1.1797352e-38 397 324
0.091902718 0.67199999 -0.098972157 1.1705523e-38 398 324
0.092942439 0.671 -0.098824874 1.152113e-38 399 324
0.09411893 0.671 -0.098824874 1.1702667e-38 400 324
0.095295422 0.671 -0.098824874 1.142644e-38 401 324
0.096471906 0.671 -0.098824874 1.0691058e-38 402 324
0.097502865 0.67000002 -0.098677598 1.0507027e-38 403 324
0.098677598 0.67000002 -0.098677598 9.8631149e-39 404 324
-0.025882706 0.671 -0.10000136 1.7230111e-38 298 325
-0.024669399 0.67000002 -0.099852331 1.5478394e-38 299 325
-0.023494666 0.67000002 -0.099852331 1.3730252e-38 300 325
-0.022319933 0.67000002 -0.099852331 1.354586e-38 301 325
-0.0211452 0.67000002 -0.099852331 1.3641688e-38 302 325
-0.019970467 0.67000002 -0.099852331 1.5301568e-38 303 325
0.027730718 0.65899998 -0.098212965 1.7509164e-38 344 325
0.028886165 0.65899998 -0.098212965 1.760136e-38 345 325
0.030178372 0.662 -0.098660067 1.7693553e-38 346 325
0.031291738 0.66100001 -0.098511033 1.7970139e-38 347 325
0.032450691 0.66100001 -0.098511033 1.7786824e-38 348 325
0.033660494 0.662 -0.098660067 1.787902e-38 349 325
0.0347686 0.66100001 -0.098511033 1.7787896e-38 350 325
0.035818845 0.65899998 -0.098212965 1.7880092e-38 351 325
0.036974292 0.65899998 -0.098212965 1.7971919e-38 352 325
0.038014017 0.65700001 -0.097914897 1.815595e-38 353 325
0.039165959 0.65700001 -0.097914897 1.8156306e-38 354 325
0.0403179 0.65700001 -0.097914897 1.8248502e-38 355 325
0.041469838 0.65700001 -0.097914897 1.8248146e-38 356 325
0.042492028 0.65499997 -0.097616829 1.8432897e-38 357 325
0.043640465 0.65499997 -0.097616829 1.8616212e-38 358 325
0.04492566 0.65700001 -0.097914897 1.8431822e-38 359 325
0.046077598 0.65700001 -0.097914897 1.8248499e-38 360 325
0.047085766 0.65499997 -0.097616829 1.8248499e-38 361 325
0.048234195 0.65499997 -0.097616829 1.8340332e-38 362 325
0.049382631 0.65499997 -0.097616829 1.8248136e-38 363 325
0.050531063 0.65499997 -0.097616829 1.815595e-38 364 325
0.051679496 0.65499997 -0.097616829 1.7879723e-38 365 325
0.052827932 0.65499997 -0.097616829 1.8063036e-38 366 325
0.053976361 0.65499997 -0.097616829 1.797084e-38 367 325
0.055124797 0.65499997 -0.097616829 1.7877921e-38 368 325
0.056273226 0.65499997 -0.097616829 1.7785726e-38 369 325
0.057596996 0.65700001 -0.097914897 1.7418017e-38 370 325
0.058748938 0.65700001 -0.097914897 1.7233625e-38 371 325
0.05990088 0.65700001 -0.097914897 1.704959e-38 372 325
0.061145745 0.65799999 -0.098063931 1.6865199e-38 373 325
0.062299434 0.65799999 -0.098063931 1.6586814e-38 374 325
0.06345313 0.65799999 -0.098063931 1.6494618e-38 375 325
0.064606823 0.65799999 -0.098063931 1.6311675e-38 376 325
0.065760516 0.65799999 -0.098063931 1.6127283e-38 377 325
0.066914216 0.65799999 -0.098063931 1.594218e-38 378 325
0.068067901 0.65799999 -0.098063931 1.5573756e-38 379 325
0.069221593 0.65799999 -0.098063931 1.5298243e-38 380 325
0.070375293 0.65799999 -0.098063931 1.5021655e-38 381 325
0.071528979 0.65799999 -0.098063931 1.4745425e-38 382 325
0.072793134 0.65899998 -0.098212965 1.465323e-38 383 325
0.074173011 0.66100001 -0.098511033 1.4561034e-38 384 325
0.075331964 0.66100001 -0.098511033 1.446848e-38 385 325
0.076490916 0.66100001 -0.098511033 1.419297e-38 386 325
0.077767342 0.662 -0.098660067 1.4008579e-38 387 325
0.078928046 0.662 -0.098660067 1.364052e-38 388 325
0.080088757 0.662 -0.098660067 1.3548324e-38 389 325
0.081372194 0.66299999 -0.098809093 1.3362859e-38 390 325
0.08265914 0.66399997 -0.098958127 1.2809685e-38 391 325
0.084075838 0.66600001 -0.099256195 1.2438758e-38 392 325
0.08524356 0.66600001 -0.099256195 1.2254008e-38 393 325
0.086541019 0.667 -0.099405229 1.2071064e-38 394 325
0.088105001 0.67000002 -0.099852331 1.2163259e-38 395 325
0.089279734 0.67000002 -0.099852331 1.1613679e-38 396 325
0.090589471 0.671 -0.10000136 1.1705876e-38 397 325
0.091902718 0.67199999 -0.10015039 1.161333e-38 398 325
0.092942439 0.671 -0.10000136 1.1520774e-38 399 325
0.09411893 0.671 -0.10000136 1.133461e-38 400 325
0.096471906 0.671 -0.10000136 1.0047133e-38 402 325
0.09764839 0.671 -0.10000136 9.9549378e-39 403 325
-0.027018867 0.67000002 -0.10102707 1.3819952e-38 297 326
-0.025766984 0.66799998 -0.10072549 1.3908885e-38 298 326
-0.02459576 0.66799998 -0.10072549 1.2710342e-38 299 326
-0.023424532 0.66799998 -0.10072549 1.1425708e-38 300 326
-0.022253305 0.66799998 -0.10072549 1.1979242e-38 301 326
-0.0211452 0.67000002 -0.10102707 1.2439532e-38 302 326
-0.019970467 0.67000002 -0.10102707 1.3084902e-38 303 326
-0.018795732 0.67000002 -0.10102707 1.2997416e-38 304 326
0.015066394 0.66100001 -0.099669985 1.5855105e-38 333 326
0.016225345 0.66100001 -0.099669985 1.5947285e-38 334 326
0.0173843 0.66100001 -0.099669985 1.6223871e-38 335 326
0.018571306 0.662 -0.09982077 1.6683408e-38 336 326
0.019732011 0.662 -0.09982077 1.7051831e-38 337 326
0.020892721 0.662 -0.09982077 1.732661e-38 338 326
0.022053426 0.662 -0.09982077 1.7234414e-38 339 326
0.025342681 0.65700001 -0.099066831 1.8153812e-38 342 326
0.026494619 0.65700001 -0.099066831 1.8061616e-38 343 326
0.027646558 0.65700001 -0.099066831 1.8245282e-38 344 326
0.028798498 0.65700001 -0.099066831 1.8245282e-38 345 326
0.02995044 0.65700001 -0.099066831 1.8153436e-38 346 326
0.031149717 0.65799999 -0.099217616 1.8061239e-38 347 326
0.032303412 0.65799999 -0.099217616 1.824491e-38 348 326
0.033507951 0.65899998 -0.099368408 1.8337465e-38 349 326
0.034663398 0.65899998 -0.099368408 1.7602776e-38 350 326
0.035710141 0.65700001 -0.099066831 1.7695332e-38 351 326
0.036862079 0.65700001 -0.099066831 1.8245982e-38 352 326
0.038014017 0.65700001 -0.099066831 1.8245982e-38 353 326
0.039046731 0.65499997 -0.098765261 1.8247783e-38 354 326
0.040195163 0.65499997 -0.098765261 1.8339979e-38 355 326
0.041343596 0.65499997 -0.098765261 1.8431825e-38 356 326
0.042492028 0.65499997 -0.098765261 1.8431825e-38 357 326
0.043640465 0.65499997 -0.098765261 1.861514e-38 358 326
0.044788897 0.65499997 -0.098765261 1.861514e-38 359 326
0.045867197 0.65399998 -0.098614477 1.8615491e-38 360 326
0.047013879 0.65399998 -0.098614477 1.8431098e-38 361 326
0.048160557 0.65399998 -0.098614477 1.8247783e-38 362 326
0.049307238 0.65399998 -0.098614477 1.8155587e-38 363 326
0.050453916 0.65399998 -0.098614477 1.8063392e-38 364 326
0.051600594 0.65399998 -0.098614477 1.7970837e-38 365 326
0.052747279 0.65399998 -0.098614477 1.7786809e-38 366 326
0.053976361 0.65499997 -0.098765261 1.7694612e-38 367 326
0.055124797 0.65499997 -0.098765261 1.7692811e-38 368 326
0.056273226 0.65499997 -0.098765261 1.7692811e-38 369 326
0.057421666 0.65499997 -0.098765261 1.7325458e-38 370 326
0.058570094 0.65499997 -0.098765261 1.7048511e-38 371 326
0.05990088 0.65700001 -0.099066831 1.695595e-38 372 326
0.061052818 0.65700001 -0.099066831 1.6587167e-38 373 326
0.06220476 0.65700001 -0.099066831 1.6219108e-38 374 326
0.063356705 0.65700001 -0.099066831 1.6126912e-38 375 326
0.064508639 0.65700001 -0.099066831 1.6034366e-38 376 326
0.065660581 0.65700001 -0.099066831 1.5849615e-38 377 326
0.066812515 0.65700001 -0.099066831 1.5573391e-38 378 326
0.067964457 0.65700001 -0.099066831 1.5481195e-38 379 326
0.069116399 0.65700001 -0.099066831 1.5021289e-38 380 326
0.07026834 0.65700001 -0.099066831 1.4929093e-38 381 326
0.071528979 0.65799999 -0.099217616 1.4561028e-38 382 326
0.072682679 0.65799999 -0.099217616 1.4468833e-38 383 326
0.073948584 0.65899998 -0.099368408 1.4468118e-38 384 326
0.075104028 0.65899998 -0.099368408 1.4375564e-38 385 326
0.076490916 0.66100001 -0.099669985 1.4100777e-38 386 326
0.077767342 0.662 -0.09982077 1.3547604e-38 387 326
0.078928046 0.662 -0.09982077 1.3638355e-38 388 326
0.080088757 0.662 -0.09982077 1.2532007e-38 389 326
0.081372194 0.66299999 -0.099971555 1.1886289e-38 390 326
0.08265914 0.66399997 -0.10012234 1.1794092e-38 391 326
0.084075838 0.66600001 -0.10042392 1.1978147e-38 392 326
0.08524356 0.66600001 -0.10042392 1.1978147e-38 393 326
0.086541019 0.667 -0.1005747 1.1612604e-38 394 326
0.087841995 0.66799998 -0.10072549 1.1705158e-38 395 326
0.089279734 0.67000002 -0.10102707 1.1705876e-38 396 326
0.090589471 0.671 -0.10117785 1.1705876e-38 397 326
0.091765963 0.671 -0.10117785 1.1429664e-38 398 326
0.092942439 0.671 -0.10117785 1.1152717e-38 399 326
-0.028193599 0.67000002 -0.1022018 1.2902681e-38 296 327
-0.026938211 0.66799998 -0.10189671 1.1243158e-38 297 327
-0.025766984 0.66799998 -0.10189671 1.1238471e-38 298 327
-0.02459576 0.66799998 -0.10189671 1.1607254e-38 299 327
-0.023424532 0.66799998 -0.10189671 1.1518285e-38 300 327
-0.022253305 0.66799998 -0.10189671 1.2163655e-38 301 327
-0.021082079 0.66799998 -0.10189671 1.2624633e-38 302 327
-0.019970467 0.67000002 -0.1022018 1.2716828e-38 303 327
-0.018795732 0.67000002 -0.1022018 1.2809743e-38 304 327
0.0092155198 0.65700001 -0.10021878 1.8986885e-38 328 327
0.01036746 0.65700001 -0.10021878 1.8341516e-38 329 327
0.011519399 0.65700001 -0.10021878 1.7973791e-38 330 327
0.01267134 0.65700001 -0.10021878 1.7513172e-38 331 327
0.013823279 0.65700001 -0.10021878 1.7050369e-38 332 327
0.01497522 0.65700001 -0.10021878 1.6681588e-38 333 327
0.016151706 0.65799999 -0.10037132 1.7142547e-38 334 327
0.017331699 0.65899998 -0.10052385 1.7050351e-38 335 327
0.018543253 0.66100001 -0.10082894 1.7601357e-38 336 327
0.019702207 0.66100001 -0.10082894 1.7601357e-38 337 327
0.020798039 0.65899998 -0.10052385 1.7691392e-38 338 327
0.021953486 0.65899998 -0.10052385 1.7875423e-38 339 327
0.023073865 0.65799999 -0.10037132 1.7692105e-38 340 327
0.02422756 0.65799999 -0.10037132 1.7599909e-38 341 327
0.025342681 0.65700001 -0.10021878 1.7691739e-38 342 327
0.026494619 0.65700001 -0.10021878 1.7507347e-38 343 327
0.027646558 0.65700001 -0.10021878 1.713964e-38 344 327
0.028798498 0.65700001 -0.10021878 1.695489e-38 345 327
0.02995044 0.65700001 -0.10021878 1.6862695e-38 346 327
0.03110238 0.65700001 -0.10021878 1.6770498e-38 347 327
0.03225432 0.65700001 -0.10021878 1.6770132e-38 348 327
0.033406258 0.65700001 -0.10021878 1.6862327e-38 349 327
0.034558199 0.65700001 -0.10021878 1.677265e-38 350 327
0.035710141 0.65700001 -0.10021878 1.6957041e-38 351 327
0.036862079 0.65700001 -0.10021878 1.7234354e-38 352 327
0.037840437 0.65399998 -0.099761158 1.7602776e-38 353 327
0.038927507 0.653 -0.099608615 1.7880092e-38 354 327
0.04007243 0.653 -0.099608615 1.7972288e-38 355 327
0.041217357 0.653 -0.099608615 1.8247442e-38 356 327
0.042362284 0.653 -0.099608615 1.8339998e-38 357 327
0.043573838 0.65399998 -0.099761158 1.8339275e-38 358 327
0.044720516 0.65399998 -0.099761158 1.8339275e-38 359 327
0.045797065 0.653 -0.099608615 1.8247433e-38 360 327
0.046941992 0.653 -0.099608615 1.8247433e-38 361 327
0.048086919 0.653 -0.099608615 1.8154518e-38 362 327
0.049231846 0.653 -0.099608615 1.7969768e-38 363 327
0.050376773 0.653 -0.099608615 1.7694256e-38 364 327
0.051600594 0.65399998 -0.099761158 1.7694256e-38 365 327
0.052747279 0.65399998 -0.099761158 1.7785375e-38 366 327
0.053893957 0.65399998 -0.099761158 1.7416594e-38 367 327
0.055040635 0.65399998 -0.099761158 1.7048533e-38 368 327
0.056273226 0.65499997 -0.099913694 1.6956338e-38 369 327
0.057421666 0.65499997 -0.099913694 1.6864127e-38 370 327
0.058570094 0.65499997 -0.099913694 1.6587538e-38 371 327
0.059718527 0.65499997 -0.099913694 1.649534e-38 372 327
0.061052818 0.65700001 -0.10021878 1.6219113e-38 373 327
0.06220476 0.65700001 -0.10021878 1.5759224e-38 374 327
0.063356705 0.65700001 -0.10021878 1.5667027e-38 375 327
0.064508639 0.65700001 -0.10021878 1.5390441e-38 376 327
0.065660581 0.65700001 -0.10021878 1.520605e-38 377 327
0.066812515 0.65700001 -0.10021878 1.5206403e-38 378 327
0.067964457 0.65700001 -0.10021878 1.465323e-38 379 327
0.069116399 0.65700001 -0.10021878 1.456175e-38 380 327
0.07026834 0.65700001 -0.10021878 1.4285523e-38 381 327
0.071420282 0.65700001 -0.10021878 1.4192973e-38 382 327
0.072682679 0.65799999 -0.10037132 1.4100777e-38 383 327
0.073836371 0.65799999 -0.10037132 1.3825632e-38 384 327
0.074990064 0.65799999 -0.10037132 1.3733437e-38 385 327
0.076259479 0.65899998 -0.10052385 1.3364305e-38 386 327
0.077649876 0.66100001 -0.10082894 1.2995163e-38 387 327
0.078808829 0.66100001 -0.10082894 1.2531318e-38 388 327
0.080088757 0.662 -0.10098148 1.1978502e-38 389 327
0.081372194 0.66299999 -0.10113402 1.2068191e-38 390 327
0.08265914 0.66399997 -0.10128655 1.2160746e-38 391 327
0.084075838 0.66600001 -0.10159164 1.1703004e-38 392 327
0.08524356 0.66600001 -0.10159164 1.17952e-38 393 327
0.086541019 0.667 -0.10174417 1.161296e-38 394 327
0.087841995 0.66799998 -0.10189671 1.1797352e-38 395 327
0.089279734 0.67000002 -0.1022018 1.1522207e-38 396 327
0.090454467 0.67000002 -0.1022018 1.1522207e-38 397 327
0.0916292 0.67000002 -0.1022018 1.1520424e-38 398 327
0.092942439 0.671 -0.10235433 1.1244197e-38 399 327
-0.028109439 0.66799998 -0.10306793 1.0691408e-38 296 328
-0.026938211 0.66799998 -0.10306793 9.4928652e-39 297 328
-0.025766984 0.66799998 -0.10306793 9.0300948e-39 298 328
-0.02459576 0.66799998 -0.10306793 9.8598555e-39 299 328
-0.023424532 0.66799998 -0.10306793 1.1056599e-38 300 328
-0.022253305 0.66799998 -0.10306793 1.1886361e-38 301 328
-0.021082079 0.66799998 -0.10306793 1.2439881e-38 302 328
-0.019910853 0.66799998 -0.10306793 1.3085251e-38 303 328
-0.018739626 0.66799998 -0.10306793 1.3638427e-38 304 328
-0.017568398 0.66799998 -0.10306793 1.4283797e-38 305 328
-0.016372627 0.667 -0.10291365 1.446999e-38 306 328
-0.015203152 0.667 -0.10291365 1.446999e-38 307 328
0.0023179066 0.66100001 -0.10198789 1.8252564e-38 322 328
0.00347686 0.66100001 -0.10198789 1.8068173e-38 323 328
0.0069221598 0.65799999 -0.10152501 1.7512816e-38 326 328
0.0080635799 0.65700001 -0.10137072 1.7144032e-38 327 328
0.0092155198 0.65700001 -0.10137072 1.7417361e-38 328 328
0.01036746 0.65700001 -0.10137072 1.7324805e-38 329 328
0.011519399 0.65700001 -0.10137072 1.7050719e-38 330 328
0.01267134 0.65700001 -0.10137072 1.7142916e-38 331 328
0.013823279 0.65700001 -0.10137072 1.7326565e-38 332 328
0.01497522 0.65700001 -0.10137072 1.7603512e-38 333 328
0.016151706 0.65799999 -0.10152501 1.806052e-38 334 328
0.017331699 0.65899998 -0.1016793 1.787577e-38 335 328
0.018543253 0.66100001 -0.10198789 1.7598463e-38 336 328
0.019642593 0.65899998 -0.1016793 1.6953094e-38 337 328
0.02076648 0.65799999 -0.10152501 1.630664e-38 338 328
0.021920172 0.65799999 -0.10152501 1.566127e-38 339 328
0.023038799 0.65700001 -0.10137072 1.5108813e-38 340 328
0.024190739 0.65700001 -0.10137072 1.474003e-38 341 328
0.025265532 0.65499997 -0.10106213 1.4462011e-38 342 328
0.026413966 0.65499997 -0.10106213 1.4001392e-38 343 328
0.027562398 0.65499997 -0.10106213 1.3910276e-38 344 328
0.028623167 0.653 -0.10075355 1.4186503e-38 345 328
0.029768093 0.653 -0.10075355 1.4187209e-38 346 328
0.030865679 0.65200001 -0.10059925 1.4094655e-38 347 328
0.032008853 0.65200001 -0.10059925 1.446307e-38 348 328
0.033152029 0.65200001 -0.10059925 1.4924409e-38 349 328
0.034295198 0.65200001 -0.10059925 1.4561028e-38 350 328
0.035438374 0.65200001 -0.10059925 1.5575179e-38 351 328
0.036581546 0.65200001 -0.10059925 1.6313477e-38 352 328
0.03778258 0.653 -0.10075355 1.7142877e-38 353 328
0.038867895 0.65200001 -0.10059925 1.7787177e-38 354 328
0.040011063 0.65200001 -0.10059925 1.7879373e-38 355 328
0.041154239 0.65200001 -0.10059925 1.8155237e-38 356 328
0.042297412 0.65200001 -0.10059925 1.8247433e-38 357 328
0.043507211 0.653 -0.10075355 1.8247433e-38 358 328
0.044652138 0.653 -0.10075355 1.8155237e-38 359 328
0.045726933 0.65200001 -0.10059925 1.8154515e-38 360 328
0.046870105 0.65200001 -0.10059925 1.7970124e-38 361 328
0.048013281 0.65200001 -0.10059925 1.8060515e-38 362 328
0.049156453 0.65200001 -0.10059925 1.7599897e-38 363 328
0.050299626 0.65200001 -0.10059925 1.7325105e-38 364 328
0.0515217 0.653 -0.10075355 1.7232908e-38 365 328
0.052666627 0.653 -0.10075355 1.7048887e-38 366 328
0.05381155 0.653 -0.10075355 1.6864495e-38 367 328
0.054956477 0.653 -0.10075355 1.6403873e-38 368 328
0.056187313 0.65399998 -0.10090783 1.6403873e-38 369 328
0.057333998 0.65399998 -0.10090783 1.6402788e-38 370 328
0.05848068 0.65399998 -0.10090783 1.6218757e-38 371 328
0.059718527 0.65499997 -0.10106213 1.631023e-38 372 328
0.060866963 0.65499997 -0.10106213 1.6125479e-38 373 328
0.062015396 0.65499997 -0.10106213 1.5757775e-38 374 328
0.063163824 0.65499997 -0.10106213 1.548119e-38 375 328
0.064312264 0.65499997 -0.10106213 1.5113485e-38 376 328
0.065460697 0.65499997 -0.10106213 1.5021289e-38 377 328
0.066812515 0.65700001 -0.10137072 1.4745422e-38 378 328
0.067964457 0.65700001 -0.10137072 1.4376638e-38 379 328
0.069116399 0.65700001 -0.10137072 1.4376282e-38 380 328
0.07026834 0.65700001 -0.10137072 1.4284087e-38 381 328
0.071420282 0.65700001 -0.10137072 1.4008579e-38 382 328
0.072682679 0.65799999 -0.10152501 1.4008579e-38 383 328
0.073836371 0.65799999 -0.10152501 1.364052e-38 384 328
0.074990064 0.65799999 -0.10152501 1.3548324e-38 385 328
0.076259479 0.65899998 -0.1016793 1.3362859e-38 386 328
0.077649876 0.66100001 -0.10198789 1.2348709e-38 387 328
0.078808829 0.66100001 -0.10198789 1.2068177e-38 388 328
0.079967782 0.66100001 -0.10198789 1.225221e-38 389 328
0.081372194 0.66299999 -0.10229647 1.2161462e-38 390 328
0.08265914 0.66399997 -0.10245077 1.2161462e-38 391 328
0.084075838 0.66600001 -0.10275936 1.1520764e-38 392 328
0.085371546 0.667 -0.10291365 1.161296e-38 393 328
0.086541019 0.667 -0.10291365 1.1613323e-38 394 328
0.087841995 0.66799998 -0.10306793 1.1613323e-38 395 328
0.089279734 0.67000002 -0.10337654 1.1705525e-38 396 328
0.090454467 0.67000002 -0.10337654 1.161333e-38 397 328
0.0916292 0.67000002 -0.10337654 1.1336042e-38 398 328
0.092803933 0.67000002 -0.10337654 1.0966901e-38 399 328
-0.028109439 0.66799998 -0.10423917 1.068565e-38 296 329
-0.026938211 0.66799998 -0.10423917 1.0501259e-38 297 329
-0.025766984 0.66799998 -0.10423917 9.672593e-39 298 329
-0.02459576 0.66799998 -0.10423917 9.7647886e-39 299 329
-0.023424532 0.66799998 -0.10423917 9.4925121e-39 300 329
-0.022253305 0.66799998 -0.10423917 1.0045686e-38 301 329
-0.021082079 0.66799998 -0.10423917 1.0965835e-38 302 329
-0.019910853 0.66799998 -0.10423917 1.1795595e-38 303 329
-0.018739626 0.66799998 -0.10423917 1.2533879e-38 304 329
-0.017568398 0.66799998 -0.10423917 1.336364e-38 305 329
-0.016372627 0.667 -0.10408312 1.3824968e-38 306 329
-0.015203152 0.667 -0.10408312 1.4193751e-38 307 329
-0.014033679 0.667 -0.10408312 1.4744754e-38 308 329
-0.012864206 0.667 -0.10408312 1.483695e-38 309 329
-0.011677199 0.66600001 -0.10392708 1.4654709e-38 310 329
-0.01050948 0.66600001 -0.10392708 1.4839101e-38 311 329
-0.0093137063 0.66399997 -0.10361498 1.4932019e-38 312 329
-0.0081494926 0.66399997 -0.10361498 1.5208606e-38 313 329
-0.0069852793 0.66399997 -0.10361498 1.5394089e-38 314 329
-0.0058210664 0.66399997 -0.10361498 1.557848e-38 315 329
-0.0046568532 0.66399997 -0.10361498 1.5487736e-38 316 329
-0.0034873798 0.66299999 -0.10345893 1.5856159e-38 317 329
-0.0023214133 0.662 -0.10330289 1.5948004e-38 318 329
-0.0011607066 0.662 -0.10330289 1.60402e-38 319 329
0 0.66100001 -0.10314685 1.6407547e-38 320 329
0.0011589533 0.66100001 -0.10314685 1.6591578e-38 321 329
0.0023179066 0.66100001 -0.10314685 1.6683771e-38 322 329
0.0034663398 0.65899998 -0.10283475 1.6775967e-38 323 329
0.0046217865 0.65899998 -0.10283475 1.6593005e-38 324 329
0.0057684663 0.65799999 -0.1026787 1.6593005e-38 325 329
0.0069221598 0.65799999 -0.1026787 1.7052522e-38 326 329
0.0080635799 0.65700001 -0.10252266 1.6775575e-38 327 329
0.0092155198 0.65700001 -0.10252266 1.7141818e-38 328 329
0.01036746 0.65700001 -0.10252266 1.7326568e-38 329 329
0.011484332 0.65499997 -0.10221056 1.7327637e-38 330 329
0.012632766 0.65499997 -0.10221056 1.7143606e-38 331 329
0.013823279 0.65700001 -0.10252266 1.6681531e-38 332 329
0.01497522 0.65700001 -0.10252266 1.6220192e-38 333 329
0.01612716 0.65700001 -0.10252266 1.5935314e-38 334 329
0.017305398 0.65799999 -0.1026787 1.5197749e-38 335 329
0.018487146 0.65899998 -0.10283475 1.4460547e-38 336 329
0.019612785 0.65799999 -0.1026787 1.3907732e-38 337 329
0.020734919 0.65700001 -0.10252266 1.3354925e-38 338 329
0.021886859 0.65700001 -0.10252266 1.2893947e-38 339 329
0.022968665 0.65499997 -0.10221056 1.2250029e-38 340 329
0.024080278 0.65399998 -0.10205451 1.2065637e-38 341 329
0.025226958 0.65399998 -0.10205451 1.1883433e-38 342 329
0.02637364 0.65399998 -0.10205451 1.2067824e-38 343 329
0.027478239 0.653 -0.10189847 1.2803963e-38 344 329
0.028579334 0.65200001 -0.10174242 1.3449332e-38 345 329
0.029722504 0.65200001 -0.10174242 1.3632273e-38 346 329
0.030865679 0.65200001 -0.10174242 1.390922e-38 347 329
0.032008853 0.65200001 -0.10174242 1.4371266e-38 348 329
0.033050328 0.64999998 -0.10143033 1.5108832e-38 349 329
0.034189999 0.64999998 -0.10143033 1.5112785e-38 350 329
0.035329666 0.64999998 -0.10143033 1.6218773e-38 351 329
0.036469329 0.64999998 -0.10143033 1.6865214e-38 352 329
0.037608996 0.64999998 -0.10143033 1.7602779e-38 353 329
0.038748663 0.64999998 -0.10143033 1.7786456e-38 354 329
0.039888334 0.64999998 -0.10143033 1.8062683e-38 355 329
0.041027997 0.64999998 -0.10143033 1.8155237e-38 356 329
0.042167664 0.64999998 -0.10143033 1.8155237e-38 357 329
0.043440588 0.65200001 -0.10174242 1.8062683e-38 358 329
0.044583756 0.65200001 -0.10174242 1.7970487e-38 359 329
0.045726933 0.65200001 -0.10174242 1.7602779e-38 360 329
0.046726331 0.64999998 -0.10143033 1.7326552e-38 361 329
0.047865998 0.64999998 -0.10143033 1.7231833e-38 362 329
0.049156453 0.65200001 -0.10174242 1.7231833e-38 363 329
0.050299626 0.65200001 -0.10174242 1.7140359e-38 364 329
0.051442798 0.65200001 -0.10174242 1.7048163e-38 365 329
0.052666627 0.653 -0.10189847 1.6588631e-38 366 329
0.05381155 0.653 -0.10189847 1.640424e-38 367 329
0.054956477 0.653 -0.10189847 1.6219129e-38 368 329
0.056101404 0.653 -0.10189847 1.6219129e-38 369 329
0.057333998 0.65399998 -0.10205451 1.6034735e-38 370 329
0.05848068 0.65399998 -0.10205451 1.5758148e-38 371 329
0.059718527 0.65499997 -0.10221056 1.5666308e-38 372 329
0.060866963 0.65499997 -0.10221056 1.5481558e-38 373 329
0.062015396 0.65499997 -0.10221056 1.5297164e-38 374 329
0.063163824 0.65499997 -0.10221056 1.5020936e-38 375 329
0.064312264 0.65499997 -0.10221056 1.4652874e-38 376 329
0.065460697 0.65499997 -0.10221056 1.4652874e-38 377 329
0.066812515 0.65700001 -0.10252266 1.4285173e-38 378 329
0.067964457 0.65700001 -0.10252266 1.4100421e-38 379 329
0.069116399 0.65700001 -0.10252266 1.4008223e-38 380 329
0.07026834 0.65700001 -0.10252266 1.3916027e-38 381 329
0.071420282 0.65700001 -0.10252266 1.3640517e-38 382 329
0.072572216 0.65700001 -0.10252266 1.3640517e-38 383 329
0.073836371 0.65799999 -0.1026787 1.3456127e-38 384 329
0.074990064 0.65799999 -0.1026787 1.3179541e-38 385 329
0.076143757 0.65799999 -0.1026787 1.290188e-38 386 329
0.077414922 0.65899998 -0.10283475 1.2072118e-38 387 329
0.078570373 0.65899998 -0.10283475 1.243731e-38 388 329
0.079967782 0.66100001 -0.10314685 1.2345114e-38 389 329
0.081249461 0.662 -0.10330289 1.1703355e-38 390 329
0.08265914 0.66399997 -0.10361498 1.179555e-38 391 329
0.084075838 0.66600001 -0.10392708 1.1887752e-38 392 329
0.085371546 0.667 -0.10408312 1.1979947e-38 393 329
0.086541019 0.667 -0.10408312 1.1613325e-38 394 329
0.087841995 0.66799998 -0.10423917 1.1613325e-38 395 329
0.089013219 0.66799998 -0.10423917 1.1704451e-38 396 329
0.090454467 0.67000002 -0.10455126 1.1520058e-38 397 329
0.0916292 0.67000002 -0.10455126 1.1058746e-38 398 329
-0.028109439 0.66799998 -0.1054104 9.7640417e-39 296 330
-0.026938211 0.66799998 -0.1054104 9.8562373e-39 297 330
-0.025766984 0.66799998 -0.1054104 9.2123183e-39 298 330
-0.02459576 0.66799998 -0.1054104 9.3045153e-39 299 330
-0.023424532 0.66799998 -0.1054104 8.8471455e-39 300 330
-0.022253305 0.66799998 -0.1054104 9.2162882e-39 301 330
-0.021082079 0.66799998 -0.1054104 9.5847133e-39 302 330
-0.019910853 0.66799998 -0.1054104 1.0230083e-38 303 330
-0.018739626 0.66799998 -0.1054104 1.1335341e-38 304 330
-0.017568398 0.66799998 -0.1054104 1.2533526e-38 305 330
-0.016372627 0.667 -0.10525259 1.3088122e-38 306 330
-0.015203152 0.667 -0.10525259 1.3365069e-38 307 330
-0.014033679 0.667 -0.10525259 1.4100819e-38 308 330
-0.012864206 0.667 -0.10525259 1.4653634e-38 309 330
-0.011677199 0.66600001 -0.1050948 1.5022763e-38 310 330
-0.010477919 0.66399997 -0.10477919 1.5022763e-38 311 330
-0.0093137063 0.66399997 -0.10477919 1.5208217e-38 312 330
-0.0081494926 0.66399997 -0.10477919 1.5300414e-38 313 330
-0.0069852793 0.66399997 -0.10477919 1.5025622e-38 314 330
-0.0058210664 0.66399997 -0.10477919 1.4841229e-38 315 330
-0.0046498398 0.66299999 -0.1046214 1.4565365e-38 316 330
-0.0034821199 0.662 -0.1044636 1.447317e-38 317 330
-0.0023214133 0.662 -0.1044636 1.4473542e-38 318 330
-0.0011607066 0.662 -0.1044636 1.4381347e-38 319 330
0 0.66100001 -0.1043058 1.4563946e-38 320 330
0.0011554466 0.65899998 -0.10399019 1.493237e-38 321 330
0.0023108933 0.65899998 -0.10399019 1.5209315e-38 322 330
0.0034663398 0.65899998 -0.10399019 1.5669935e-38 323 330
0.0046217865 0.65899998 -0.10399019 1.5854329e-38 324 330
0.0057596997 0.65700001 -0.1036746 1.6407502e-38 325 330
0.0069116396 0.65700001 -0.1036746 1.6867758e-38 326 330
0.008039033 0.65499997 -0.10335899 1.6959955e-38 327 330
0.0091874655 0.65499997 -0.10335899 1.7236169e-38 328 330
0.010335899 0.65499997 -0.10335899 1.7143972e-38 329 330
0.011466799 0.65399998 -0.10320119 1.7326915e-38 330 330
0.012613479 0.65399998 -0.10320119 1.6958493e-38 331 330
0.013760159 0.65399998 -0.10320119 1.6034366e-38 332 330
0.014906839 0.65399998 -0.10320119 1.4374485e-38 333 330
0.01605352 0.65399998 -0.10320119 1.2889628e-38 334 330
0.017226499 0.65499997 -0.10335899 1.1506701e-38 335 330
0.018374931 0.65499997 -0.10335899 1.1415948e-38 336 330
0.019463753 0.653 -0.1030434 1.1323753e-38 337 330
0.020608678 0.653 -0.1030434 1.086387e-38 338 330
0.021720294 0.65200001 -0.1028856 1.0956066e-38 339 330
0.022863466 0.65200001 -0.1028856 1.068129e-38 340 330
0.024006641 0.65200001 -0.1028856 1.1326659e-38 341 330
0.025149813 0.65200001 -0.1028856 1.1332074e-38 342 330
0.026292987 0.65200001 -0.1028856 1.1977443e-38 343 330
0.02743616 0.65200001 -0.1028856 1.3081635e-38 344 330
0.028579334 0.65200001 -0.1028856 1.3358582e-38 345 330
0.029722504 0.65200001 -0.1028856 1.3725567e-38 346 330
0.030770998 0.64999998 -0.10256999 1.4278741e-38 347 330
0.031910665 0.64999998 -0.10256999 1.5017731e-38 348 330
0.033050328 0.64999998 -0.10256999 1.5939687e-38 349 330
0.034189999 0.64999998 -0.10256999 1.6403167e-38 350 330
0.035329666 0.64999998 -0.10256999 1.7048536e-38 351 330
0.036469329 0.64999998 -0.10256999 1.7326197e-38 352 330
0.037608996 0.64999998 -0.10256999 1.7694979e-38 353 330
0.038748663 0.64999998 -0.10256999 1.7970843e-38 354 330
0.039888334 0.64999998 -0.10256999 1.7970843e-38 355 330
0.041027997 0.64999998 -0.10256999 1.7970843e-38 356 330
0.042167664 0.64999998 -0.10256999 1.7970843e-38 357 330
0.04330733 0.64999998 -0.10256999 1.7970121e-38 358 330
0.044446997 0.64999998 -0.10256999 1.7785729e-38 359 330
0.045586664 0.64999998 -0.10256999 1.7049963e-38 360 330
0.046726331 0.64999998 -0.10256999 1.6957407e-38 361 330
0.047865998 0.64999998 -0.10256999 1.6772297e-38 362 330
0.049005665 0.64999998 -0.10256999 1.6772297e-38 363 330
0.050145328 0.64999998 -0.10256999 1.6680101e-38 364 330
0.051442798 0.65200001 -0.1028856 1.6587906e-38 365 330
0.052585974 0.65200001 -0.1028856 1.6311322e-38 366 330
0.05381155 0.653 -0.1030434 1.6219126e-38 367 330
0.054956477 0.653 -0.1030434 1.6034735e-38 368 330
0.056101404 0.653 -0.1030434 1.5758148e-38 369 330
0.057246335 0.653 -0.1030434 1.5574473e-38 370 330
0.058391262 0.653 -0.1030434 1.5298246e-38 371 330
0.059627358 0.65399998 -0.10320119 1.5113852e-38 372 330
0.060774036 0.65399998 -0.10320119 1.4929459e-38 373 330
0.061920714 0.65399998 -0.10320119 1.492874e-38 374 330
0.063067392 0.65399998 -0.10320119 1.474399e-38 375 330
0.064214081 0.65399998 -0.10320119 1.4467762e-38 376 330
0.065460697 0.65499997 -0.10335899 1.4375566e-38 377 330
0.066609129 0.65499997 -0.10335899 1.4283734e-38 378 330
0.067757562 0.65499997 -0.10335899 1.4007507e-38 379 330
0.068905994 0.65499997 -0.10335899 1.364052e-38 380 330
0.070054427 0.65499997 -0.10335899 1.3548324e-38 381 330
0.071420282 0.65700001 -0.1036746 1.3456127e-38 382 330
0.072572216 0.65700001 -0.1036746 1.3271737e-38 383 330
0.073836371 0.65799999 -0.1038324 1.3087349e-38 384 330
0.074990064 0.65799999 -0.1038324 1.2902599e-38 385 330
0.076143757 0.65799999 -0.1038324 1.2534175e-38 386 330
0.077414922 0.65899998 -0.10399019 1.2165034e-38 387 330
0.078570373 0.65899998 -0.10399019 1.207212e-38 388 330
0.079967782 0.66100001 -0.1043058 1.1979925e-38 389 330
0.081249461 0.662 -0.1044636 1.170443e-38 390 330
0.08265914 0.66399997 -0.10477919 1.1796625e-38 391 330
0.084075838 0.66600001 -0.1050948 1.1612604e-38 392 330
0.085371546 0.667 -0.10525259 1.1612604e-38 393 330
0.086541019 0.667 -0.10525259 1.1888115e-38 394 330
0.087841995 0.66799998 -0.1054104 1.1888115e-38 395 330
0.089013219 0.66799998 -0.1054104 1.1611903e-38 396 330
0.090589471 0.671 -0.10588379 1.1150926e-38 397 330
0.091765963 0.671 -0.10588379 1.032335e-38 398 330
-0.028109439 0.66799998 -0.10658162 7.462025e-39 296 331
-0.026938211 0.66799998 -0.10658162 8.5683726e-39 297 331
-0.025766984 0.66799998 -0.10658162 8.7527793e-39 298 331
-0.02459576 0.66799998 -0.10658162 8.8449749e-39 299 331
-0.023424532 0.66799998 -0.10658162 8.4794364e-39 300 331
-0.022253305 0.66799998 -0.10658162 8.6641864e-39 301 331
-0.021082079 0.66799998 -0.10658162 9.6747426e-39 302 331
-0.019910853 0.66799998 -0.10658162 1.0135719e-38 303 331
-0.018739626 0.66799998 -0.10658162 1.0504859e-38 304 331
-0.017568398 0.66799998 -0.10658162 1.1426455e-38 305 331
-0.016372627 0.667 -0.10642207 1.1338207e-38 306 331
-0.015203152 0.667 -0.10642207 1.1983577e-38 307 331
-0.014012639 0.66600001 -0.10626251 1.2720769e-38 308 331
-0.01284492 0.66600001 -0.10626251 1.3182107e-38 309 331
-0.011677199 0.66600001 -0.10626251 1.3826022e-38 310 331
-0.010477919 0.66399997 -0.1059434 1.4194803e-38 311 331
-0.0093137063 0.66399997 -0.1059434 1.4563565e-38 312 331
-0.0081372196 0.66299999 -0.10578386 1.465576e-38 313 331
-0.0069747595 0.66299999 -0.10578386 1.4657548e-38 314 331
-0.0058035329 0.662 -0.1056243 1.4564994e-38 315 331
-0.0046428265 0.662 -0.1056243 1.447352e-38 316 331
-0.00347686 0.66100001 -0.10546475 1.4381324e-38 317 331
-0.0023179066 0.66100001 -0.10546475 1.4473164e-38 318 331
-0.0011589533 0.66100001 -0.10546475 1.4565718e-38 319 331
0 0.66100001 -0.10546475 1.4656839e-38 320 331
0.0011554466 0.65899998 -0.10514564 1.5025622e-38 321 331
0.0023108933 0.65899998 -0.10514564 1.5485524e-38 322 331
0.0034663398 0.65899998 -0.10514564 1.5946502e-38 323 331
0.0046147732 0.65799999 -0.10498609 1.6223092e-38 324 331
0.0057596997 0.65700001 -0.10482653 1.6591515e-38 325 331
0.0069116396 0.65700001 -0.10482653 1.7051773e-38 326 331
0.008039033 0.65499997 -0.10450742 1.7051773e-38 327 331
0.0091734398 0.65399998 -0.10434788 1.7327637e-38 328 331
0.01032012 0.65399998 -0.10434788 1.7327637e-38 329 331
0.011449266 0.653 -0.10418832 1.7326918e-38 330 331
0.012594193 0.653 -0.10418832 1.6958137e-38 331 331
0.013739119 0.653 -0.10418832 1.649247e-38 332 331
0.014884046 0.653 -0.10418832 1.4833308e-38 333 331
0.016028972 0.653 -0.10418832 1.2435858e-38 334 331
0.017173899 0.653 -0.10418832 1.2435858e-38 335 331
0.018318826 0.653 -0.10418832 1.308161e-38 336 331
0.019463753 0.653 -0.10418832 1.308161e-38 337 331
0.02057712 0.65200001 -0.10402877 1.3081991e-38 338 331
0.021653665 0.64999998 -0.10370966 1.335858e-38 339 331
0.022793332 0.64999998 -0.10370966 1.3267832e-38 340 331
0.024006641 0.65200001 -0.10402877 1.3821005e-38 341 331
0.025072664 0.64999998 -0.10370966 1.3915e-38 342 331
0.026212333 0.64999998 -0.10370966 1.4283781e-38 343 331
0.027351998 0.64999998 -0.10370966 1.4836231e-38 344 331
0.028491667 0.64999998 -0.10370966 1.5205012e-38 345 331
0.029631332 0.64999998 -0.10370966 1.5388681e-38 346 331
0.030770998 0.64999998 -0.10370966 1.5757464e-38 347 331
0.03186157 0.64899999 -0.10355011 1.6218788e-38 348 331
0.032999486 0.64899999 -0.10355011 1.6495735e-38 349 331
0.034137398 0.64899999 -0.10355011 1.6867016e-38 350 331
0.03527531 0.64899999 -0.10355011 1.7051407e-38 351 331
0.036413226 0.64899999 -0.10355011 1.7420187e-38 352 331
0.037551139 0.64899999 -0.10355011 1.7512383e-38 353 331
0.038689051 0.64899999 -0.10355011 1.7787172e-38 354 331
0.039826967 0.64899999 -0.10355011 1.7694976e-38 355 331
0.040964879 0.64899999 -0.10355011 1.7786453e-38 356 331
0.042167664 0.64999998 -0.10370966 1.760206e-38 357 331
0.04330733 0.64999998 -0.10370966 1.7418022e-38 358 331
0.044446997 0.64999998 -0.10370966 1.7233272e-38 359 331
0.045586664 0.64999998 -0.10370966 1.7140354e-38 360 331
0.046726331 0.64999998 -0.10370966 1.6771931e-38 361 331
0.047865998 0.64999998 -0.10370966 1.6863051e-38 362 331
0.049005665 0.64999998 -0.10370966 1.6770495e-38 363 331
0.050145328 0.64999998 -0.10370966 1.6311677e-38 364 331
0.051442798 0.65200001 -0.10402877 1.6126927e-38 365 331
0.052585974 0.65200001 -0.10402877 1.6126211e-38 366 331
0.053729147 0.65200001 -0.10402877 1.6034016e-38 367 331
0.054872319 0.65200001 -0.10402877 1.5574828e-38 368 331
0.056015491 0.65200001 -0.10402877 1.5298243e-38 369 331
0.057246335 0.653 -0.10418832 1.5113849e-38 370 331
0.058391262 0.653 -0.10418832 1.4929456e-38 371 331
0.059536185 0.653 -0.10418832 1.492874e-38 372 331
0.060774036 0.65399998 -0.10434788 1.474399e-38 373 331
0.061920714 0.65399998 -0.10434788 1.4468485e-38 374 331
0.063067392 0.65399998 -0.10434788 1.4376288e-38 375 331
0.064214081 0.65399998 -0.10434788 1.4283734e-38 376 331
0.065460697 0.65499997 -0.10450742 1.4007507e-38 377 331
0.066609129 0.65499997 -0.10450742 1.3916027e-38 378 331
0.067757562 0.65499997 -0.10450742 1.3639801e-38 379 331
0.068905994 0.65499997 -0.10450742 1.3639798e-38 380 331
0.070054427 0.65499997 -0.10450742 1.3455405e-38 381 331
0.071202859 0.65499997 -0.10450742 1.3362854e-38 382 331
0.072572216 0.65700001 -0.10482653 1.3178462e-38 383 331
0.073836371 0.65799999 -0.10498609 1.2901882e-38 384 331
0.074990064 0.65799999 -0.10498609 1.2624935e-38 385 331
0.076143757 0.65799999 -0.10498609 1.2533096e-38 386 331
0.077414922 0.65899998 -0.10514564 1.2164313e-38 387 331
0.078808829 0.66100001 -0.10546475 1.1979569e-38 388 331
0.080088757 0.662 -0.1056243 1.1979569e-38 389 331
0.081372194 0.66299999 -0.10578386 1.1704076e-38 390 331
0.08265914 0.66399997 -0.1059434 1.1704076e-38 391 331
