# .PCD v.7 - Point Cloud Data file format
FIELDS x y z rgb imX imY
SIZE 4 4 4 4 4 4
TYPE F F F F F F
COUNT 1 1 1 1 1 1
WIDTH 824
HEIGHT 1
VIEWPOINT 0 0 0 1 0 0 0
POINTS 824
DATA ascii
0.027688639 0.65799999 -0.056530971 1.2444494e-38 344 289
0.028842334 0.65799999 -0.056530971 1.2444494e-38 345 289
0.030041611 0.65899998 -0.056616884 1.253669e-38 346 289
0.031291738 0.66100001 -0.056788713 1.2629244e-38 347 289
0.032548878 0.66299999 -0.056960538 1.2629607e-38 348 289
0.033762183 0.66399997 -0.057046451 1.2629607e-38 349 289
0.035031598 0.66600001 -0.057218276 1.2446658e-38 350 289
0.03619932 0.66600001 -0.057218276 1.2446658e-38 351 289
0.037367038 0.66600001 -0.057218276 1.2538508e-38 352 289
0.038592618 0.667 -0.057304189 1.2354115e-38 353 289
0.039762091 0.667 -0.057304189 1.18928e-38 354 289
0.040992931 0.66799998 -0.057390101 1.1339985e-38 355 289
-0.056369666 0.64300001 -0.056369666 1.8620977e-38 270 290
-0.05524227 0.64300001 -0.056369666 1.7791216e-38 271 290
-0.054114878 0.64300001 -0.056369666 1.7697522e-38 272 290
-0.052905083 0.64200002 -0.056282002 1.686776e-38 273 290
-0.051779442 0.64200002 -0.056282002 1.732725e-38 274 290
-0.0506538 0.64200002 -0.056282002 1.7603836e-38 275 290
-0.049528159 0.64200002 -0.056282002 1.7879328e-38 276 290
-0.048327126 0.64099997 -0.056194331 1.7971524e-38 277 290
-0.047203235 0.64099997 -0.056194331 1.7879679e-38 278 290
-0.046079349 0.64099997 -0.056194331 1.7879679e-38 279 290
-0.04488533 0.63999999 -0.056106664 1.7879679e-38 280 290
-0.043763198 0.63999999 -0.056106664 1.7971874e-38 281 290
-0.042641066 0.63999999 -0.056106664 1.8155189e-38 282 290
-0.041389186 0.63800001 -0.055931333 1.8155189e-38 283 290
-0.040270559 0.63800001 -0.055931333 1.8154821e-38 284 290
-0.039151933 0.63800001 -0.055931333 1.7970429e-38 285 290
-0.038033307 0.63800001 -0.055931333 1.7694922e-38 286 290
-0.03691468 0.63800001 -0.055931333 1.7602725e-38 287 290
-0.035796054 0.63800001 -0.055931333 1.7051353e-38 288 290
-0.034677424 0.63800001 -0.055931333 1.6866603e-38 289 290
-0.033558797 0.63800001 -0.055931333 1.6683288e-38 290 290
-0.032440174 0.63800001 -0.055931333 1.6498897e-38 291 290
-0.031419732 0.63999999 -0.056106664 1.658893e-38 292 290
-0.030297596 0.63999999 -0.056106664 1.6496376e-38 293 290
-0.029084295 0.63800001 -0.055931333 1.6404183e-38 294 290
-0.027965667 0.63800001 -0.055931333 1.6404183e-38 295 290
-0.02684704 0.63800001 -0.055931333 1.6219437e-38 296 290
-0.025728412 0.63800001 -0.055931333 1.6127241e-38 297 290
-0.024609786 0.63800001 -0.055931333 1.5760611e-38 298 290
-0.02345434 0.63700002 -0.055843666 1.5483666e-38 299 290
-0.022337466 0.63700002 -0.055843666 1.5483666e-38 300 290
-0.021220595 0.63700002 -0.055843666 1.557622e-38 301 290
-0.020103721 0.63700002 -0.055843666 1.5851022e-38 302 290
-0.019016653 0.63800001 -0.055931333 1.5943576e-38 303 290
-0.017898027 0.63800001 -0.055931333 1.5575163e-38 304 290
-0.016831998 0.63999999 -0.056106664 1.5667359e-38 305 290
-0.015709866 0.63999999 -0.056106664 1.5482612e-38 306 290
-0.014610525 0.64099997 -0.056194331 1.5667362e-38 307 290
-0.013486639 0.64099997 -0.056194331 1.5391495e-38 308 290
-0.012362752 0.64099997 -0.056194331 1.52993e-38 309 290
-0.011238866 0.64099997 -0.056194331 1.5207457e-38 310 290
-0.010114979 0.64099997 -0.056194331 1.5207457e-38 311 290
-0.0089910924 0.64099997 -0.056194331 1.4931945e-38 312 290
-0.0078672068 0.64099997 -0.056194331 1.4839749e-38 313 290
-0.0067433193 0.64099997 -0.056194331 1.511561e-38 314 290
-0.0056194332 0.64099997 -0.056194331 1.5023415e-38 315 290
-0.0044955462 0.64099997 -0.056194331 1.5023046e-38 316 290
-0.0033716597 0.64099997 -0.056194331 1.4930851e-38 317 290
-0.00225128 0.64200002 -0.056282002 1.4838299e-38 318 290
-0.00112564 0.64200002 -0.056282002 1.4469875e-38 319 290
0 0.64200002 -0.056282002 1.4377677e-38 320 290
0.0011273933 0.64300001 -0.056369666 1.4192927e-38 321 290
0.0022582933 0.64399999 -0.056457333 1.3641924e-38 322 290
0.0033874398 0.64399999 -0.056457333 1.3549727e-38 323 290
0.0045165867 0.64399999 -0.056457333 1.3365712e-38 324 290
0.0056457333 0.64399999 -0.056457333 1.3273515e-38 325 290
0.00679592 0.64600003 -0.056632672 1.3272421e-38 326 290
0.0079285735 0.64600003 -0.056632672 1.2995834e-38 327 290
0.0090612266 0.64600003 -0.056632672 1.2811808e-38 328 290
0.01020966 0.64700001 -0.056720335 1.2627777e-38 329 290
0.0113616 0.648 -0.056808002 1.2810755e-38 330 290
0.01249776 0.648 -0.056808002 1.2626724e-38 331 290
0.013654959 0.64899999 -0.056895666 1.2350853e-38 332 290
0.014792874 0.64899999 -0.056895666 1.2350853e-38 333 290
0.015955333 0.64999998 -0.056983333 1.2167535e-38 334 290
0.017095 0.64999998 -0.056983333 1.2167535e-38 335 290
0.018234665 0.64999998 -0.056983333 1.1983869e-38 336 290
0.019433947 0.65200001 -0.057158668 1.1983869e-38 337 290
0.020608678 0.653 -0.057246335 1.2167906e-38 338 290
0.021753605 0.653 -0.057246335 1.2167906e-38 339 290
0.022933599 0.65399998 -0.057333998 1.1984594e-38 340 290
0.024080278 0.65399998 -0.057333998 1.2168985e-38 341 290
0.025265532 0.65499997 -0.057421666 1.2168985e-38 342 290
0.026494619 0.65700001 -0.057596996 1.2261182e-38 343 290
0.027688639 0.65799999 -0.057684667 1.2445213e-38 344 290
0.028886165 0.65899998 -0.057772331 1.2445213e-38 345 290
0.030132787 0.66100001 -0.057947662 1.2628891e-38 346 290
0.031291738 0.66100001 -0.057947662 1.2628891e-38 347 290
0.032499783 0.662 -0.058035329 1.2537059e-38 348 290
0.033762183 0.66399997 -0.05821066 1.2629254e-38 349 290
0.035031598 0.66600001 -0.058385998 1.2262267e-38 350 290
0.03619932 0.66600001 -0.058385998 1.2262267e-38 351 290
0.037367038 0.66600001 -0.058385998 1.2261916e-38 352 290
0.038592618 0.667 -0.058473662 1.1893494e-38 353 290
0.039762091 0.667 -0.058473662 1.106449e-38 354 290
-0.057497058 0.64300001 -0.057497058 1.7515355e-38 269 291
-0.056369666 0.64300001 -0.057497058 1.7879778e-38 270 291
-0.05524227 0.64300001 -0.057497058 1.7419159e-38 271 291
-0.054114878 0.64300001 -0.057497058 1.7602411e-38 272 291
-0.052905083 0.64200002 -0.05740764 1.7325824e-38 273 291
-0.051779442 0.64200002 -0.05740764 1.7602373e-38 274 291
-0.0506538 0.64200002 -0.05740764 1.7786764e-38 275 291
-0.049451008 0.64099997 -0.057318214 1.7787839e-38 276 291
-0.048327126 0.64099997 -0.057318214 1.7880035e-38 277 291
-0.047203235 0.64099997 -0.057318214 1.7879316e-38 278 291
-0.046079349 0.64099997 -0.057318214 1.7879316e-38 279 291
-0.04488533 0.63999999 -0.057228796 1.787896e-38 280 291
-0.043626439 0.63800001 -0.05704996 1.7786764e-38 281 291
-0.042507812 0.63800001 -0.05704996 1.7510173e-38 282 291
-0.041324314 0.63700002 -0.056960538 1.7233946e-38 283 291
-0.040207442 0.63700002 -0.056960538 1.723285e-38 284 291
-0.039090566 0.63700002 -0.056960538 1.70481e-38 285 291
-0.037973695 0.63700002 -0.056960538 1.6772237e-38 286 291
-0.036856819 0.63700002 -0.056960538 1.6772237e-38 287 291
-0.035739947 0.63700002 -0.056960538 1.5853524e-38 288 291
-0.034677424 0.63800001 -0.05704996 1.5761327e-38 289 291
-0.0335062 0.63700002 -0.056960538 1.5852078e-38 290 291
-0.032389328 0.63700002 -0.056960538 1.5575851e-38 291 291
-0.031321548 0.63800001 -0.05704996 1.5574771e-38 292 291
-0.03020292 0.63800001 -0.05704996 1.5482575e-38 293 291
-0.029084295 0.63800001 -0.05704996 1.5299629e-38 294 291
-0.027965667 0.63800001 -0.05704996 1.5115239e-38 295 291
-0.02684704 0.63800001 -0.05704996 1.5114889e-38 296 291
-0.025728412 0.63800001 -0.05704996 1.5114889e-38 297 291
-0.024571214 0.63700002 -0.056960538 1.5115245e-38 298 291
-0.02345434 0.63700002 -0.056960538 1.4930495e-38 299 291
-0.022337466 0.63700002 -0.056960538 1.5299276e-38 300 291
-0.021220595 0.63700002 -0.056960538 1.5115245e-38 301 291
-0.020103721 0.63700002 -0.056960538 1.5390399e-38 302 291
-0.018986847 0.63700002 -0.056960538 1.5390399e-38 303 291
-0.017869974 0.63700002 -0.056960538 1.5573361e-38 304 291
-0.016779399 0.63800001 -0.05704996 1.5665558e-38 305 291
-0.015660774 0.63800001 -0.05704996 1.5482249e-38 306 291
-0.014587732 0.63999999 -0.057228796 1.5390052e-38 307 291
-0.013465599 0.63999999 -0.057228796 1.5297851e-38 308 291
-0.012343466 0.63999999 -0.057228796 1.5297851e-38 309 291
-0.011221332 0.63999999 -0.057228796 1.502234e-38 310 291
-0.0100992 0.63999999 -0.057228796 1.4930144e-38 311 291
-0.0089770658 0.63999999 -0.057228796 1.4746832e-38 312 291
-0.0078672068 0.64099997 -0.057318214 1.4654636e-38 313 291
-0.0067433193 0.64099997 -0.057318214 1.4470591e-38 314 291
-0.0056194332 0.64099997 -0.057318214 1.410181e-38 315 291
-0.0044955462 0.64099997 -0.057318214 1.4376948e-38 316 291
-0.0033716597 0.64099997 -0.057318214 1.410072e-38 317 291
-0.0022477731 0.64099997 -0.057318214 1.3733023e-38 318 291
-0.0011238866 0.64099997 -0.057318214 1.3364601e-38 319 291
0 0.64200002 -0.05740764 1.3362446e-38 320 291
0.00112564 0.64200002 -0.05740764 1.3454641e-38 321 291
0.0022547867 0.64300001 -0.057497058 1.3454308e-38 322 291
0.0033821799 0.64300001 -0.057497058 1.3454308e-38 323 291
0.0045165867 0.64399999 -0.057586476 1.2995135e-38 324 291
0.0056457333 0.64399999 -0.057586476 1.2810742e-38 325 291
0.0067748795 0.64399999 -0.057586476 1.2351906e-38 326 291
0.0079285735 0.64600003 -0.057765324 1.2351906e-38 327 291
0.0090612266 0.64600003 -0.057765324 1.2535231e-38 328 291
0.01020966 0.64700001 -0.057854742 1.2535231e-38 329 291
0.0113616 0.648 -0.05794416 1.2350497e-38 330 291
0.01249776 0.648 -0.05794416 1.2350497e-38 331 291
0.013654959 0.64899999 -0.058033578 1.2350853e-38 332 291
0.014792874 0.64899999 -0.058033578 1.2350853e-38 333 291
0.015955333 0.64999998 -0.058122993 1.1983869e-38 334 291
0.017095 0.64999998 -0.058122993 1.1983869e-38 335 291
0.018290773 0.65200001 -0.058301836 1.1983875e-38 336 291
0.019463753 0.653 -0.058391262 1.1983875e-38 337 291
0.020608678 0.653 -0.058391262 1.1984238e-38 338 291
0.021786919 0.65399998 -0.05848068 1.2076434e-38 339 291
0.022933599 0.65399998 -0.05848068 1.207679e-38 340 291
0.024117097 0.65499997 -0.058570094 1.207679e-38 341 291
0.025342681 0.65700001 -0.058748938 1.2168982e-38 342 291
0.026534945 0.65799999 -0.058838356 1.2261179e-38 343 291
0.027730718 0.65899998 -0.058927774 1.2261182e-38 344 291
0.028973831 0.66100001 -0.059106622 1.2445213e-38 345 291
0.030132787 0.66100001 -0.059106622 1.2536696e-38 346 291
0.031339079 0.662 -0.05919604 1.2536696e-38 347 291
0.032499783 0.662 -0.05919604 1.2537415e-38 348 291
0.033762183 0.66399997 -0.059374876 1.2537415e-38 349 291
0.035031598 0.66600001 -0.059553716 1.2077885e-38 350 291
0.03619932 0.66600001 -0.059553716 1.1800938e-38 351 291
0.037367038 0.66600001 -0.059553716 1.1064475e-38 352 291
0.038650475 0.66799998 -0.05973256 1.0603497e-38 353 291
-0.058624454 0.64300001 -0.058624454 1.7605339e-38 268 292
-0.05740764 0.64200002 -0.058533281 1.6867774e-38 269 292
-0.056194331 0.64099997 -0.058442101 1.7141063e-38 270 292
-0.055070441 0.64099997 -0.058442101 1.7233258e-38 271 292
-0.053946555 0.64099997 -0.058442101 1.7694215e-38 272 292
-0.052822668 0.64099997 -0.058442101 1.7786411e-38 273 292
-0.051698782 0.64099997 -0.058442101 1.7786411e-38 274 292
-0.050574899 0.64099997 -0.058442101 1.7786411e-38 275 292
-0.049451008 0.64099997 -0.058442101 1.7694934e-38 276 292
-0.048251729 0.63999999 -0.058350928 1.778713e-38 277 292
-0.047129598 0.63999999 -0.058350928 1.7787483e-38 278 292
-0.046007466 0.63999999 -0.058350928 1.7695287e-38 279 292
-0.044745065 0.63800001 -0.05816859 1.7694919e-38 280 292
-0.043558061 0.63700002 -0.058077414 1.7234299e-38 281 292
-0.042441189 0.63700002 -0.058077414 1.6774037e-38 282 292
-0.041324314 0.63700002 -0.058077414 1.6589646e-38 283 292
-0.040207442 0.63700002 -0.058077414 1.6680041e-38 284 292
-0.039090566 0.63700002 -0.058077414 1.6311617e-38 285 292
-0.037914075 0.63599998 -0.057986237 1.5943923e-38 286 292
-0.036798958 0.63599998 -0.057986237 1.5851728e-38 287 292
-0.035739947 0.63700002 -0.058077414 1.5207805e-38 288 292
-0.034623075 0.63700002 -0.058077414 1.5115608e-38 289 292
-0.0335062 0.63700002 -0.058077414 1.5206361e-38 290 292
-0.032389328 0.63700002 -0.058077414 1.4929776e-38 291 292
-0.031272452 0.63700002 -0.058077414 1.4744677e-38 292 292
-0.03015558 0.63700002 -0.058077414 1.4652481e-38 293 292
-0.029038707 0.63700002 -0.058077414 1.4102574e-38 294 292
-0.027921833 0.63700002 -0.058077414 1.4286605e-38 295 292
-0.026804959 0.63700002 -0.058077414 1.4102226e-38 296 292
-0.025688088 0.63700002 -0.058077414 1.4102226e-38 297 292
-0.024571214 0.63700002 -0.058077414 1.4286608e-38 298 292
-0.02345434 0.63700002 -0.058077414 1.4102577e-38 299 292
-0.022337466 0.63700002 -0.058077414 1.447134e-38 300 292
-0.021220595 0.63700002 -0.058077414 1.4378785e-38 301 292
-0.020103721 0.63700002 -0.058077414 1.4930147e-38 302 292
-0.018986847 0.63700002 -0.058077414 1.4930147e-38 303 292
-0.017869974 0.63700002 -0.058077414 1.5113457e-38 304 292
-0.0167531 0.63700002 -0.058077414 1.5113457e-38 305 292
-0.015660774 0.63800001 -0.05816859 1.5298557e-38 306 292
-0.014542148 0.63800001 -0.05816859 1.5113807e-38 307 292
-0.01342352 0.63800001 -0.05816859 1.4746087e-38 308 292
-0.012304893 0.63800001 -0.05816859 1.4653891e-38 309 292
-0.011186266 0.63800001 -0.05816859 1.4286548e-38 310 292
-0.0100992 0.63999999 -0.058350928 1.4286548e-38 311 292
-0.0089770658 0.63999999 -0.058350928 1.4469147e-38 312 292
-0.0078549329 0.63999999 -0.058350928 1.4376592e-38 313 292
-0.0067327996 0.63999999 -0.058350928 1.4192917e-38 314 292
-0.0056106662 0.63999999 -0.058350928 1.4008166e-38 315 292
-0.0044955462 0.64099997 -0.058442101 1.3823421e-38 316 292
-0.0033716597 0.64099997 -0.058442101 1.3547194e-38 317 292
-0.0022477731 0.64099997 -0.058442101 1.2996184e-38 318 292
-0.0011238866 0.64099997 -0.058442101 1.2627402e-38 319 292
0 0.64099997 -0.058442101 1.244268e-38 320 292
0.0011238866 0.64099997 -0.058442101 1.2627071e-38 321 292
0.00225128 0.64200002 -0.058533281 1.2533824e-38 322 292
0.0033821799 0.64300001 -0.058624454 1.2441629e-38 323 292
0.0045095733 0.64300001 -0.058624454 1.2166831e-38 324 292
0.0056457333 0.64399999 -0.058715623 1.2074636e-38 325 292
0.0067748795 0.64399999 -0.058715623 1.1892749e-38 326 292
0.0079040267 0.64399999 -0.058715623 1.1616163e-38 327 292
0.0090612266 0.64600003 -0.058897976 1.2074986e-38 328 292
0.01020966 0.64700001 -0.058989145 1.2074986e-38 329 292
0.011344067 0.64700001 -0.058989145 1.2074986e-38 330 292
0.01249776 0.648 -0.059080318 1.2074986e-38 331 292
0.013654959 0.64899999 -0.059171494 1.1891674e-38 332 292
0.014815666 0.64999998 -0.059262663 1.1983869e-38 333 292
0.015955333 0.64999998 -0.059262663 1.1983872e-38 334 292
0.017147599 0.65200001 -0.059445009 1.1983872e-38 335 292
0.018318826 0.653 -0.059536185 1.1892042e-38 336 292
0.019493559 0.65399998 -0.059627358 1.1892042e-38 337 292
0.020640239 0.65399998 -0.059627358 1.1800929e-38 338 292
0.021786919 0.65399998 -0.059627358 1.1800929e-38 339 292
0.022933599 0.65399998 -0.059627358 1.1800926e-38 340 292
0.024117097 0.65499997 -0.059718527 1.1893121e-38 341 292
0.025342681 0.65700001 -0.05990088 1.1893119e-38 342 292
0.026534945 0.65799999 -0.059992049 1.2077508e-38 343 292
0.027730718 0.65899998 -0.060083222 1.2260829e-38 344 292
0.028973831 0.66100001 -0.060265575 1.2260829e-38 345 292
0.030132787 0.66100001 -0.060265575 1.2260476e-38 346 292
0.031339079 0.662 -0.060356744 1.2260476e-38 347 292
0.032499783 0.662 -0.060356744 1.1985334e-38 348 292
0.033660494 0.662 -0.060356744 1.1985334e-38 349 292
0.035031598 0.66600001 -0.060721438 1.1524741e-38 350 292
0.03619932 0.66600001 -0.060721438 1.1064122e-38 351 292
0.037479252 0.66799998 -0.060903784 1.0602457e-38 352 292
-0.061163284 0.64600003 -0.060030628 1.7419509e-38 266 293
-0.059751842 0.64300001 -0.059751842 1.7142563e-38 267 293
-0.058624454 0.64300001 -0.059751842 1.7417301e-38 268 293
-0.05740764 0.64200002 -0.059658919 1.7509496e-38 269 293
-0.056194331 0.64099997 -0.059565991 1.7694215e-38 270 293
-0.055070441 0.64099997 -0.059565991 1.7694215e-38 271 293
-0.053946555 0.64099997 -0.059565991 1.7694566e-38 272 293
-0.052740265 0.63999999 -0.05947306 1.7694566e-38 273 293
-0.051618129 0.63999999 -0.05947306 1.7878234e-38 274 293
-0.050495997 0.63999999 -0.05947306 1.7878234e-38 275 293
-0.049373865 0.63999999 -0.05947306 1.7419054e-38 276 293
-0.048025552 0.63700002 -0.059194289 1.7326858e-38 277 293
-0.04690868 0.63700002 -0.059194289 1.7233215e-38 278 293
-0.045791805 0.63700002 -0.059194289 1.6864791e-38 279 293
-0.044674933 0.63700002 -0.059194289 1.6588196e-38 280 293
-0.043558061 0.63700002 -0.059194289 1.6127576e-38 281 293
-0.042374559 0.63599998 -0.059101358 1.5759514e-38 282 293
-0.041259438 0.63599998 -0.059101358 1.5298895e-38 283 293
-0.040144317 0.63599998 -0.059101358 1.529746e-38 284 293
-0.039029196 0.63599998 -0.059101358 1.5021232e-38 285 293
-0.037914075 0.63599998 -0.059101358 1.4197596e-38 286 293
-0.036798958 0.63599998 -0.059101358 1.3460031e-38 287 293
-0.035683837 0.63599998 -0.059101358 1.400889e-38 288 293
-0.03456872 0.63599998 -0.059101358 1.38245e-38 289 293
-0.0335062 0.63700002 -0.059194289 1.3825225e-38 290 293
-0.032389328 0.63700002 -0.059194289 1.373267e-38 291 293
-0.031272452 0.63700002 -0.059194289 1.3639774e-38 292 293
-0.03015558 0.63700002 -0.059194289 1.3824167e-38 293 293
-0.029038707 0.63700002 -0.059194289 1.4282276e-38 294 293
-0.027921833 0.63700002 -0.059194289 1.4282276e-38 295 293
-0.026804959 0.63700002 -0.059194289 1.4007482e-38 296 293
-0.025688088 0.63700002 -0.059194289 1.4099677e-38 297 293
-0.024571214 0.63700002 -0.059194289 1.4191873e-38 298 293
-0.02345434 0.63700002 -0.059194289 1.4191873e-38 299 293
-0.022337466 0.63700002 -0.059194289 1.410111e-38 300 293
-0.021220595 0.63700002 -0.059194289 1.4008914e-38 301 293
-0.020072158 0.63599998 -0.059101358 1.4009264e-38 302 293
-0.018957037 0.63599998 -0.059101358 1.3917069e-38 303 293
-0.017841918 0.63599998 -0.059101358 1.4191483e-38 304 293
-0.016726799 0.63599998 -0.059101358 1.4191483e-38 305 293
-0.015636226 0.63700002 -0.059194289 1.3824853e-38 306 293
-0.014542148 0.63800001 -0.059287209 1.3640462e-38 307 293
-0.01342352 0.63800001 -0.059287209 1.3547896e-38 308 293
-0.012304893 0.63800001 -0.059287209 1.3363505e-38 309 293
-0.011186266 0.63800001 -0.059287209 1.317984e-38 310 293
-0.01006764 0.63800001 -0.059287209 1.317984e-38 311 293
-0.0089770658 0.63999999 -0.05947306 1.3178405e-38 312 293
-0.0078549329 0.63999999 -0.05947306 1.2625231e-38 313 293
-0.0067327996 0.63999999 -0.05947306 1.317589e-38 314 293
-0.0056106662 0.63999999 -0.05947306 1.3360282e-38 315 293
-0.0044955462 0.64099997 -0.059565991 1.2994392e-38 316 293
-0.0033716597 0.64099997 -0.059565991 1.2901838e-38 317 293
-0.0022477731 0.64099997 -0.059565991 1.2258988e-38 318 293
-0.0011238866 0.64099997 -0.059565991 1.2166792e-38 319 293
0 0.64099997 -0.059565991 1.2441234e-38 320 293
0.0011238866 0.64099997 -0.059565991 1.2441234e-38 321 293
0.00225128 0.64200002 -0.059658919 1.2257215e-38 322 293
0.0033821799 0.64300001 -0.059751842 1.2257215e-38 323 293
0.0045095733 0.64300001 -0.059751842 1.1982423e-38 324 293
0.0056457333 0.64399999 -0.05984477 1.1982423e-38 325 293
0.0067748795 0.64399999 -0.05984477 1.1799108e-38 326 293
0.0079040267 0.64399999 -0.05984477 1.1799108e-38 327 293
0.0090612266 0.64600003 -0.060030628 1.1983146e-38 328 293
0.01020966 0.64700001 -0.060123552 1.1983146e-38 329 293
0.011344067 0.64700001 -0.060123552 1.2074986e-38 330 293
0.01249776 0.648 -0.060216483 1.2074986e-38 331 293
0.013654959 0.64899999 -0.060309403 1.1891674e-38 332 293
0.014815666 0.64999998 -0.060402326 1.1891674e-38 333 293
0.016004426 0.65200001 -0.060588185 1.1983872e-38 334 293
0.017147599 0.65200001 -0.060588185 1.1983872e-38 335 293
0.018318826 0.653 -0.060681112 1.1983519e-38 336 293
0.019493559 0.65399998 -0.060774036 1.1983519e-38 337 293
0.020640239 0.65399998 -0.060774036 1.1892042e-38 338 293
0.021786919 0.65399998 -0.060774036 1.1892042e-38 339 293
0.022933599 0.65399998 -0.060774036 1.1984238e-38 340 293
0.024117097 0.65499997 -0.060866963 1.2076434e-38 341 293
0.025342681 0.65700001 -0.061052818 1.207679e-38 342 293
0.026534945 0.65799999 -0.061145745 1.2168985e-38 343 293
0.027730718 0.65899998 -0.061238669 1.2352297e-38 344 293
0.028973831 0.66100001 -0.061424527 1.2352297e-38 345 293
0.030132787 0.66100001 -0.061424527 1.2260829e-38 346 293
0.031339079 0.662 -0.061517447 1.2168633e-38 347 293
0.032499783 0.662 -0.061517447 1.1799516e-38 348 293
0.033660494 0.662 -0.061517447 1.1338536e-38 349 293
0.034821201 0.662 -0.061517447 1.0509894e-38 350 293
-0.062295936 0.64600003 -0.061163284 1.6317105e-38 265 294
-0.06097392 0.64399999 -0.06097392 1.6498546e-38 266 294
-0.059658919 0.64200002 -0.060784556 1.6406349e-38 267 294
-0.058533281 0.64200002 -0.060784556 1.7049533e-38 268 294
-0.05740764 0.64200002 -0.060784556 1.7418315e-38 269 294
-0.056194331 0.64099997 -0.060689874 1.7235378e-38 270 294
-0.054984529 0.63999999 -0.060595192 1.7327933e-38 271 294
-0.053862397 0.63999999 -0.060595192 1.7419777e-38 272 294
-0.052740265 0.63999999 -0.060595192 1.7327581e-38 273 294
-0.051456824 0.63800001 -0.060405839 1.7326505e-38 274 294
-0.050338201 0.63800001 -0.060405839 1.7142114e-38 275 294
-0.049219571 0.63800001 -0.060405839 1.6866603e-38 276 294
-0.048025552 0.63700002 -0.060311161 1.6590015e-38 277 294
-0.046835039 0.63599998 -0.060216475 1.649745e-38 278 294
-0.045719914 0.63599998 -0.060216475 1.6036472e-38 279 294
-0.044604797 0.63599998 -0.060216475 1.5943555e-38 280 294
-0.043489676 0.63599998 -0.060216475 1.5574771e-38 281 294
-0.042374559 0.63599998 -0.060216475 1.5114516e-38 282 294
-0.041259438 0.63599998 -0.060216475 1.4745733e-38 283 294
-0.040144317 0.63599998 -0.060216475 1.4469872e-38 284 294
-0.039029196 0.63599998 -0.060216475 1.4192927e-38 285 294
-0.037914075 0.63599998 -0.060216475 1.3825239e-38 286 294
-0.036798958 0.63599998 -0.060216475 1.3641206e-38 287 294
-0.035683837 0.63599998 -0.060216475 1.3455402e-38 288 294
-0.03456872 0.63599998 -0.060216475 1.3547957e-38 289 294
-0.033453599 0.63599998 -0.060216475 1.2996242e-38 290 294
-0.032338478 0.63599998 -0.060216475 1.2996242e-38 291 294
-0.031223357 0.63599998 -0.060216475 1.3087699e-38 292 294
-0.030108238 0.63599998 -0.060216475 1.2903308e-38 293 294
-0.028993119 0.63599998 -0.060216475 1.2995837e-38 294 294
-0.027877998 0.63599998 -0.060216475 1.3179869e-38 295 294
-0.026762879 0.63599998 -0.060216475 1.3270993e-38 296 294
-0.025647758 0.63599998 -0.060216475 1.3455743e-38 297 294
-0.024571214 0.63700002 -0.060311161 1.3180616e-38 298 294
-0.02345434 0.63700002 -0.060311161 1.3180616e-38 299 294
-0.022337466 0.63700002 -0.060311161 1.3639068e-38 300 294
-0.021220595 0.63700002 -0.060311161 1.3639068e-38 301 294
-0.020072158 0.63599998 -0.060216475 1.3365362e-38 302 294
-0.018957037 0.63599998 -0.060216475 1.3273165e-38 303 294
-0.017841918 0.63599998 -0.060216475 1.3271712e-38 304 294
-0.016726799 0.63599998 -0.060216475 1.2995485e-38 305 294
-0.015611678 0.63599998 -0.060216475 1.2995461e-38 306 294
-0.014519353 0.63700002 -0.060311161 1.3087657e-38 307 294
-0.01340248 0.63700002 -0.060311161 1.2902557e-38 308 294
-0.012304893 0.63800001 -0.060405839 1.262633e-38 309 294
-0.011186266 0.63800001 -0.060405839 1.2350484e-38 310 294
-0.01006764 0.63800001 -0.060405839 1.244268e-38 311 294
-0.0089490134 0.63800001 -0.060405839 1.2350146e-38 312 294
-0.0078549329 0.63999999 -0.060595192 1.207392e-38 313 294
-0.0067327996 0.63999999 -0.060595192 1.253274e-38 314 294
-0.0056106662 0.63999999 -0.060595192 1.253274e-38 315 294
-0.0044885329 0.63999999 -0.060595192 1.23505e-38 316 294
-0.0033716597 0.64099997 -0.060689874 1.2166468e-38 317 294
-0.0022477731 0.64099997 -0.060689874 1.1983146e-38 318 294
-0.0011238866 0.64099997 -0.060689874 1.1798755e-38 319 294
0 0.64099997 -0.060689874 1.1706913e-38 320 294
0.0011238866 0.64099997 -0.060689874 1.1799108e-38 321 294
0.00225128 0.64200002 -0.060784556 1.1706915e-38 322 294
0.0033821799 0.64300001 -0.060879238 1.1799111e-38 323 294
0.0045165867 0.64399999 -0.06097392 1.1615086e-38 324 294
0.0056457333 0.64399999 -0.06097392 1.1707281e-38 325 294
0.00679592 0.64600003 -0.061163284 1.1798758e-38 326 294
0.0079285735 0.64600003 -0.061163284 1.198279e-38 327 294
0.0090612266 0.64600003 -0.061163284 1.198279e-38 328 294
0.01020966 0.64700001 -0.061257958 1.198279e-38 329 294
0.0113616 0.648 -0.06135264 1.1891674e-38 330 294
0.012517046 0.64899999 -0.061447315 1.1891674e-38 331 294
0.013675999 0.64999998 -0.061541997 1.1983869e-38 332 294
0.014861252 0.65200001 -0.061731357 1.1983869e-38 333 294
0.016004426 0.65200001 -0.061731357 1.1799844e-38 334 294
0.017173899 0.653 -0.061826039 1.189204e-38 335 294
0.018318826 0.653 -0.061826039 1.1799494e-38 336 294
0.019493559 0.65399998 -0.061920714 1.1799494e-38 337 294
0.020640239 0.65399998 -0.061920714 1.1616897e-38 338 294
0.021786919 0.65399998 -0.061920714 1.1709093e-38 339 294
0.022933599 0.65399998 -0.061920714 1.1709093e-38 340 294
0.024117097 0.65499997 -0.062015396 1.1709093e-38 341 294
0.025342681 0.65700001 -0.06220476 1.1800573e-38 342 294
0.026534945 0.65799999 -0.062299434 1.1892768e-38 343 294
0.027688639 0.65799999 -0.062299434 1.1617982e-38 344 294
0.028973831 0.66100001 -0.062583476 1.1525428e-38 345 294
0.030132787 0.66100001 -0.062583476 1.189062e-38 346 294
0.031339079 0.662 -0.062678158 1.1798424e-38 347 294
0.032499783 0.662 -0.062678158 1.0695706e-38 348 294
-0.063232213 0.64399999 -0.062103063 1.5486933e-38 264 295
-0.062103063 0.64399999 -0.062103063 1.5579129e-38 265 295
-0.06097392 0.64399999 -0.062103063 1.6405996e-38 266 295
-0.059658919 0.64200002 -0.061910201 1.6590389e-38 267 295
-0.058533281 0.64200002 -0.061910201 1.7141748e-38 268 295
-0.05740764 0.64200002 -0.061910201 1.7049552e-38 269 295
-0.056106664 0.63999999 -0.061717331 1.723465e-38 270 295
-0.054812707 0.63800001 -0.061524466 1.723465e-38 271 295
-0.053694081 0.63800001 -0.061524466 1.7510158e-38 272 295
-0.05257545 0.63800001 -0.061524466 1.7417962e-38 273 295
-0.051376175 0.63700002 -0.061428033 1.7049535e-38 274 295
-0.0502593 0.63700002 -0.061428033 1.695734e-38 275 295
-0.049142428 0.63700002 -0.061428033 1.640453e-38 276 295
-0.047950156 0.63599998 -0.061331596 1.6220138e-38 277 295
-0.046835039 0.63599998 -0.061331596 1.5575851e-38 278 295
-0.045719914 0.63599998 -0.061331596 1.5206709e-38 279 295
-0.044604797 0.63599998 -0.061331596 1.5020876e-38 280 295
-0.043421298 0.63499999 -0.061235163 1.4744289e-38 281 295
-0.042307932 0.63499999 -0.061235163 1.4101087e-38 282 295
-0.041194562 0.63499999 -0.061235163 1.38245e-38 283 295
-0.040081199 0.63499999 -0.061235163 1.3732673e-38 284 295
-0.038967833 0.63499999 -0.061235163 1.3364251e-38 285 295
-0.037854467 0.63499999 -0.061235163 1.2904005e-38 286 295
-0.0367411 0.63499999 -0.061235163 1.2904005e-38 287 295
-0.03562773 0.63499999 -0.061235163 1.2994779e-38 288 295
-0.034514364 0.63499999 -0.061235163 1.2902582e-38 289 295
-0.033400998 0.63499999 -0.061235163 1.2810752e-38 290 295
-0.032287631 0.63499999 -0.061235163 1.2626721e-38 291 295
-0.031174263 0.63499999 -0.061235163 1.2350847e-38 292 295
-0.0300609 0.63499999 -0.061235163 1.2166816e-38 293 295
-0.028993119 0.63599998 -0.061331596 1.1982776e-38 294 295
-0.027877998 0.63599998 -0.061331596 1.2074973e-38 295 295
-0.026762879 0.63599998 -0.061331596 1.2625995e-38 296 295
-0.025647758 0.63599998 -0.061331596 1.2810386e-38 297 295
-0.024532638 0.63599998 -0.061331596 1.2810742e-38 298 295
-0.023417519 0.63599998 -0.061331596 1.2902938e-38 299 295
-0.022337466 0.63700002 -0.061428033 1.2811455e-38 300 295
-0.021220595 0.63700002 -0.061428033 1.2811455e-38 301 295
-0.020072158 0.63599998 -0.061331596 1.2993698e-38 302 295
-0.018957037 0.63599998 -0.061331596 1.2993698e-38 303 295
-0.017841918 0.63599998 -0.061331596 1.2533431e-38 304 295
-0.016726799 0.63599998 -0.061331596 1.2256484e-38 305 295
-0.015611678 0.63599998 -0.061331596 1.188913e-38 306 295
-0.014496559 0.63599998 -0.061331596 1.2073522e-38 307 295
-0.013381439 0.63599998 -0.061331596 1.1982058e-38 308 295
-0.012285607 0.63700002 -0.061428033 1.2166089e-38 309 295
-0.011186266 0.63800001 -0.061524466 1.2257215e-38 310 295
-0.01006764 0.63800001 -0.061524466 1.2257215e-38 311 295
-0.0089490134 0.63800001 -0.061524466 1.2165736e-38 312 295
-0.0078549329 0.63999999 -0.061717331 1.2165736e-38 313 295
-0.0067327996 0.63999999 -0.061717331 1.2165736e-38 314 295
-0.0056106662 0.63999999 -0.061717331 1.2165736e-38 315 295
-0.0044885329 0.63999999 -0.061717331 1.207462e-38 316 295
-0.0033716597 0.64099997 -0.061813761 1.1982423e-38 317 295
-0.0022477731 0.64099997 -0.061813761 1.198242e-38 318 295
-0.0011238866 0.64099997 -0.061813761 1.1890225e-38 319 295
0 0.64099997 -0.061813761 1.170691e-38 320 295
0.0011238866 0.64099997 -0.061813761 1.170691e-38 321 295
0.0022547867 0.64300001 -0.062006634 1.170691e-38 322 295
0.0033821799 0.64300001 -0.062006634 1.170691e-38 323 295
0.0045165867 0.64399999 -0.062103063 1.1799111e-38 324 295
0.0056457333 0.64399999 -0.062103063 1.1706915e-38 325 295
0.0067748795 0.64399999 -0.062103063 1.1799111e-38 326 295
0.0079285735 0.64600003 -0.062295936 1.1983144e-38 327 295
0.0090752533 0.64700001 -0.062392361 1.1799475e-38 328 295
0.01020966 0.64700001 -0.062392361 1.1799475e-38 329 295
0.0113616 0.648 -0.062488798 1.1891674e-38 330 295
0.012517046 0.64899999 -0.062585227 1.1983869e-38 331 295
0.013675999 0.64999998 -0.062681668 1.1983872e-38 332 295
0.014861252 0.65200001 -0.062874533 1.1983872e-38 333 295
0.016004426 0.65200001 -0.062874533 1.1799491e-38 334 295
0.017173899 0.653 -0.062970966 1.1799491e-38 335 295
0.01834688 0.65399998 -0.063067392 1.1799494e-38 336 295
0.019493559 0.65399998 -0.063067392 1.1799494e-38 337 295
0.020640239 0.65399998 -0.063067392 1.1616179e-38 338 295
0.021820232 0.65499997 -0.063163824 1.1708374e-38 339 295
0.022968665 0.65499997 -0.063163824 1.1708377e-38 340 295
0.024117097 0.65499997 -0.063163824 1.1708377e-38 341 295
0.025342681 0.65700001 -0.063356705 1.179914e-38 342 295
0.026494619 0.65700001 -0.063356705 1.179914e-38 343 295
0.027688639 0.65799999 -0.06345313 1.1615841e-38 344 295
0.028842334 0.65799999 -0.06345313 1.1247418e-38 345 295
0.029996024 0.65799999 -0.06345313 1.0692112e-38 346 295
-0.06456124 0.64600003 -0.063428588 1.4383435e-38 263 296
-0.063428588 0.64600003 -0.063428588 1.530287e-38 264 296
-0.062103063 0.64399999 -0.063232213 1.5487621e-38 265 296
-0.06097392 0.64399999 -0.063232213 1.6313798e-38 266 296
-0.059658919 0.64200002 -0.063035838 1.6498549e-38 267 296
-0.058442101 0.64099997 -0.062937655 1.6682212e-38 268 296
-0.057318214 0.64099997 -0.062937655 1.6774407e-38 269 296
-0.055931333 0.63800001 -0.062643096 1.6775113e-38 270 296
-0.054726794 0.63700002 -0.062544905 1.6590362e-38 271 296
-0.053609919 0.63700002 -0.062544905 1.6957337e-38 272 296
-0.052493047 0.63700002 -0.062544905 1.668075e-38 273 296
-0.051295515 0.63599998 -0.062446713 1.6404513e-38 274 296
-0.050180398 0.63599998 -0.062446713 1.6220122e-38 275 296
-0.049065277 0.63599998 -0.062446713 1.5943179e-38 276 296
-0.047950156 0.63599998 -0.062446713 1.5666951e-38 277 296
-0.046835039 0.63599998 -0.062446713 1.4838649e-38 278 296
-0.045719914 0.63599998 -0.062446713 1.4470226e-38 279 296
-0.044604797 0.63599998 -0.062446713 1.4375879e-38 280 296
-0.043421298 0.63499999 -0.062348526 1.4191128e-38 281 296
-0.042307932 0.63499999 -0.062348526 1.3640124e-38 282 296
-0.041194562 0.63499999 -0.062348526 1.3456093e-38 283 296
-0.040081199 0.63499999 -0.062348526 1.3179872e-38 284 296
-0.038967833 0.63499999 -0.062348526 1.281109e-38 285 296
-0.037854467 0.63499999 -0.062348526 1.2718541e-38 286 296
-0.0367411 0.63499999 -0.062348526 1.2718541e-38 287 296
-0.03562773 0.63499999 -0.062348526 1.2350131e-38 288 296
-0.034514364 0.63499999 -0.062348526 1.2350131e-38 289 296
-0.033400998 0.63499999 -0.062348526 1.2166468e-38 290 296
-0.032287631 0.63499999 -0.062348526 1.2074273e-38 291 296
-0.031174263 0.63499999 -0.062348526 1.1889877e-38 292 296
-0.0300609 0.63499999 -0.062348526 1.1982073e-38 293 296
-0.028993119 0.63599998 -0.062446713 1.1706206e-38 294 296
-0.027877998 0.63599998 -0.062446713 1.1798761e-38 295 296
-0.026762879 0.63599998 -0.062446713 1.2165389e-38 296 296
-0.025647758 0.63599998 -0.062446713 1.2349781e-38 297 296
-0.024532638 0.63599998 -0.062446713 1.2074986e-38 298 296
-0.023417519 0.63599998 -0.062446713 1.2074986e-38 299 296
-0.022302398 0.63599998 -0.062446713 1.2167538e-38 300 296
-0.021187279 0.63599998 -0.062446713 1.2075342e-38 301 296
-0.020072158 0.63599998 -0.062446713 1.2257585e-38 302 296
-0.018957037 0.63599998 -0.062446713 1.2257585e-38 303 296
-0.017841918 0.63599998 -0.062446713 1.2256866e-38 304 296
-0.016726799 0.63599998 -0.062446713 1.2349062e-38 305 296
-0.015611678 0.63599998 -0.062446713 1.1981354e-38 306 296
-0.014496559 0.63599998 -0.062446713 1.2165385e-38 307 296
-0.013381439 0.63599998 -0.062446713 1.198207e-38 308 296
-0.012285607 0.63700002 -0.062544905 1.1889875e-38 309 296
-0.011168733 0.63700002 -0.062544905 1.1982426e-38 310 296
-0.01006764 0.63800001 -0.062643096 1.1889872e-38 311 296
-0.0089490134 0.63800001 -0.062643096 1.1982423e-38 312 296
-0.0078549329 0.63999999 -0.062839463 1.1890228e-38 313 296
-0.0067327996 0.63999999 -0.062839463 1.1981704e-38 314 296
-0.0056106662 0.63999999 -0.062839463 1.2165736e-38 315 296
-0.0044955462 0.64099997 -0.062937655 1.1798755e-38 316 296
-0.0033716597 0.64099997 -0.062937655 1.1798755e-38 317 296
-0.0022477731 0.64099997 -0.062937655 1.1799111e-38 318 296
-0.0011238866 0.64099997 -0.062937655 1.1706915e-38 319 296
0 0.64099997 -0.062937655 1.1706913e-38 320 296
0.0011238866 0.64099997 -0.062937655 1.1706913e-38 321 296
0.0022547867 0.64300001 -0.063134022 1.1706913e-38 322 296
0.0033821799 0.64300001 -0.063134022 1.1799108e-38 323 296
0.0045165867 0.64399999 -0.063232213 1.198242e-38 324 296
0.0056457333 0.64399999 -0.063232213 1.198242e-38 325 296
0.0067748795 0.64399999 -0.063232213 1.1983144e-38 326 296
0.0079285735 0.64600003 -0.063428588 1.1983144e-38 327 296
0.0090752533 0.64700001 -0.063526772 1.2166819e-38 328 296
0.010225439 0.648 -0.063624963 1.2166819e-38 329 296
0.011379133 0.64899999 -0.063723139 1.1891674e-38 330 296
0.012517046 0.64899999 -0.063723139 1.1891674e-38 331 296
0.013675999 0.64999998 -0.063821331 1.1891321e-38 332 296
0.014861252 0.65200001 -0.064017706 1.1799125e-38 333 296
0.016004426 0.65200001 -0.064017706 1.161546e-38 334 296
0.017173899 0.653 -0.064115889 1.161546e-38 335 296
0.01834688 0.65399998 -0.064214081 1.152363e-38 336 296
0.019493559 0.65399998 -0.064214081 1.1615825e-38 337 296
0.020640239 0.65399998 -0.064214081 1.1432513e-38 338 296
0.021820232 0.65499997 -0.064312264 1.1432513e-38 339 296
0.022968665 0.65499997 -0.064312264 1.1616547e-38 340 296
0.024117097 0.65499997 -0.064312264 1.1432516e-38 341 296
0.025342681 0.65700001 -0.064508639 1.1247421e-38 342 296
0.026494619 0.65700001 -0.064508639 1.1154865e-38 343 296
0.027646558 0.65700001 -0.064508639 1.0510597e-38 344 296
-0.069680966 0.64099997 -0.064061537 1.4106542e-38 258 297
-0.068450131 0.63999999 -0.063961595 1.2907639e-38 259 297
-0.067327991 0.63999999 -0.063961595 1.3001576e-38 260 297
-0.066205859 0.63999999 -0.063961595 1.3185968e-38 261 297
-0.065388806 0.64300001 -0.064261422 1.3922459e-38 262 297
-0.064261422 0.64300001 -0.064261422 1.4567829e-38 263 297
-0.063232213 0.64399999 -0.064361356 1.5210342e-38 264 297
-0.062103063 0.64399999 -0.064361356 1.5486931e-38 265 297
-0.060879238 0.64300001 -0.064261422 1.6221249e-38 266 297
-0.059565991 0.64099997 -0.064061537 1.6405999e-38 267 297
-0.05816859 0.63800001 -0.063761719 1.6406702e-38 268 297
-0.05704996 0.63800001 -0.063761719 1.6498899e-38 269 297
-0.055843666 0.63700002 -0.063661784 1.6681842e-38 270 297
-0.054640878 0.63599998 -0.063561834 1.649745e-38 271 297
-0.053525757 0.63599998 -0.063561834 1.6221221e-38 272 297
-0.052410636 0.63599998 -0.063561834 1.5759883e-38 273 297
-0.051295515 0.63599998 -0.063561834 1.5666964e-38 274 297
-0.050180398 0.63599998 -0.063561834 1.5482573e-38 275 297
-0.049065277 0.63599998 -0.063561834 1.5297457e-38 276 297
-0.047950156 0.63599998 -0.063561834 1.4929033e-38 277 297
-0.046761397 0.63499999 -0.0634619 1.4101081e-38 278 297
-0.045648031 0.63499999 -0.0634619 1.3824853e-38 279 297
-0.044534665 0.63499999 -0.0634619 1.3547563e-38 280 297
-0.043421298 0.63499999 -0.0634619 1.3362812e-38 281 297
-0.042307932 0.63499999 -0.0634619 1.30866e-38 282 297
-0.041194562 0.63499999 -0.0634619 1.2994405e-38 283 297
-0.040081199 0.63499999 -0.0634619 1.2718541e-38 284 297
-0.038967833 0.63499999 -0.0634619 1.2257921e-38 285 297
-0.037854467 0.63499999 -0.0634619 1.1982411e-38 286 297
-0.0367411 0.63499999 -0.0634619 1.1982411e-38 287 297
-0.03562773 0.63499999 -0.0634619 1.1889509e-38 288 297
-0.034514364 0.63499999 -0.0634619 1.1797313e-38 289 297
-0.033400998 0.63499999 -0.0634619 1.179696e-38 290 297
-0.032287631 0.63499999 -0.0634619 1.179696e-38 291 297
-0.031174263 0.63499999 -0.0634619 1.1336352e-38 292 297
-0.0300609 0.63499999 -0.0634619 1.1520743e-38 293 297
-0.028947532 0.63499999 -0.0634619 1.1521099e-38 294 297
-0.027834166 0.63499999 -0.0634619 1.1521099e-38 295 297
-0.0267208 0.63499999 -0.0634619 1.179696e-38 296 297
-0.025607431 0.63499999 -0.0634619 1.1981351e-38 297 297
-0.024532638 0.63599998 -0.063561834 1.1890228e-38 298 297
-0.023417519 0.63599998 -0.063561834 1.1890228e-38 299 297
-0.022302398 0.63599998 -0.063561834 1.1889872e-38 300 297
-0.021187279 0.63599998 -0.063561834 1.1889872e-38 301 297
-0.020072158 0.63599998 -0.063561834 1.1981707e-38 302 297
-0.018957037 0.63599998 -0.063561834 1.1981707e-38 303 297
-0.017841918 0.63599998 -0.063561834 1.1981702e-38 304 297
-0.016726799 0.63599998 -0.063561834 1.1981702e-38 305 297
-0.015611678 0.63599998 -0.063561834 1.1889859e-38 306 297
-0.014496559 0.63599998 -0.063561834 1.1982055e-38 307 297
-0.013381439 0.63599998 -0.063561834 1.1798026e-38 308 297
-0.012285607 0.63700002 -0.063661784 1.1798026e-38 309 297
-0.011168733 0.63700002 -0.063661784 1.1798029e-38 310 297
-0.01006764 0.63800001 -0.063761719 1.1798029e-38 311 297
-0.0089770658 0.63999999 -0.063961595 1.1798032e-38 312 297
-0.0078549329 0.63999999 -0.063961595 1.1890228e-38 313 297
-0.0067327996 0.63999999 -0.063961595 1.1890228e-38 314 297
-0.0056106662 0.63999999 -0.063961595 1.1890228e-38 315 297
-0.0044955462 0.64099997 -0.064061537 1.1798755e-38 316 297
-0.0033716597 0.64099997 -0.064061537 1.1798755e-38 317 297
-0.0022477731 0.64099997 -0.064061537 1.1706562e-38 318 297
-0.0011238866 0.64099997 -0.064061537 1.1706562e-38 319 297
0 0.64099997 -0.064061537 1.1706559e-38 320 297
0.0011238866 0.64099997 -0.064061537 1.1706559e-38 321 297
0.0022547867 0.64300001 -0.064261422 1.1799111e-38 322 297
0.0033874398 0.64399999 -0.064361356 1.1799111e-38 323 297
0.0045165867 0.64399999 -0.064361356 1.198242e-38 324 297
0.0056457333 0.64399999 -0.064361356 1.198242e-38 325 297
0.0067748795 0.64399999 -0.064361356 1.1983141e-38 326 297
0.0079285735 0.64600003 -0.06456124 1.1983141e-38 327 297
0.0090752533 0.64700001 -0.064661182 1.2074623e-38 328 297
0.010225439 0.648 -0.064761117 1.2074623e-38 329 297
0.011379133 0.64899999 -0.064861059 1.1891674e-38 330 297
0.012536332 0.64999998 -0.064960994 1.1799478e-38 331 297
0.013675999 0.64999998 -0.064960994 1.1706929e-38 332 297
0.014861252 0.65200001 -0.065160878 1.1799125e-38 333 297
0.016028972 0.653 -0.06526082 1.1431067e-38 334 297
0.017173899 0.653 -0.06526082 1.1523264e-38 335 297
0.01834688 0.65399998 -0.065360755 1.1430717e-38 336 297
0.019493559 0.65399998 -0.065360755 1.1522914e-38 337 297
0.020640239 0.65399998 -0.065360755 1.1248125e-38 338 297
0.021820232 0.65499997 -0.065460697 1.134032e-38 339 297
0.022968665 0.65499997 -0.065460697 1.1432163e-38 340 297
0.024117097 0.65499997 -0.065460697 1.1155575e-38 341 297
0.025265532 0.65499997 -0.065460697 1.0786461e-38 342 297
-0.071816526 0.63999999 -0.065083727 1.1623076e-38 256 298
-0.070694394 0.63999999 -0.065083727 1.1162098e-38 257 298
-0.069572262 0.63999999 -0.065083727 1.272503e-38 258 298
-0.068450131 0.63999999 -0.065083727 1.2632476e-38 259 298
-0.067327991 0.63999999 -0.065083727 1.3370004e-38 260 298
-0.066205859 0.63999999 -0.065083727 1.3646593e-38 261 298
-0.064778656 0.63700002 -0.064778656 1.4199049e-38 262 298
-0.063661784 0.63700002 -0.064778656 1.4659668e-38 263 298
-0.062544905 0.63700002 -0.064778656 1.5209971e-38 264 298
-0.062006634 0.64300001 -0.065388806 1.5486918e-38 265 298
-0.060784556 0.64200002 -0.065287121 1.5947889e-38 266 298
-0.059194289 0.63700002 -0.064778656 1.5763498e-38 267 298
-0.058077414 0.63700002 -0.064778656 1.6129035e-38 268 298
-0.056960538 0.63700002 -0.064778656 1.6036839e-38 269 298
-0.055843666 0.63700002 -0.064778656 1.5759517e-38 270 298
-0.054640878 0.63599998 -0.064676955 1.5298539e-38 271 298
-0.053441599 0.63499999 -0.064575262 1.4746437e-38 272 298
-0.052328229 0.63499999 -0.064575262 1.4562046e-38 273 298
-0.051214863 0.63499999 -0.064575262 1.4376945e-38 274 298
-0.050101496 0.63499999 -0.064575262 1.4100717e-38 275 298
-0.04898813 0.63499999 -0.064575262 1.3824127e-38 276 298
-0.047874767 0.63499999 -0.064575262 1.3455345e-38 277 298
-0.046761397 0.63499999 -0.064575262 1.3178408e-38 278 298
-0.045648031 0.63499999 -0.064575262 1.2901822e-38 279 298
-0.044534665 0.63499999 -0.064575262 1.2073171e-38 280 298
-0.043421298 0.63499999 -0.064575262 1.2257921e-38 281 298
-0.042307932 0.63499999 -0.064575262 1.253201e-38 282 298
-0.041194562 0.63499999 -0.064575262 1.253201e-38 283 298
-0.040081199 0.63499999 -0.064575262 1.2256133e-38 284 298
-0.038967833 0.63499999 -0.064575262 1.1887711e-38 285 298
-0.037854467 0.63499999 -0.064575262 1.1612919e-38 286 298
-0.0367411 0.63499999 -0.064575262 1.1705115e-38 287 298
-0.03562773 0.63499999 -0.064575262 1.1428901e-38 288 298
-0.034514364 0.63499999 -0.064575262 1.1428901e-38 289 298
-0.033400998 0.63499999 -0.064575262 1.1612213e-38 290 298
-0.032287631 0.63499999 -0.064575262 1.1612213e-38 291 298
-0.031174263 0.63499999 -0.064575262 1.1337068e-38 292 298
-0.0300609 0.63499999 -0.064575262 1.1429622e-38 293 298
-0.028947532 0.63499999 -0.064575262 1.1154109e-38 294 298
-0.027834166 0.63499999 -0.064575262 1.13385e-38 295 298
-0.0267208 0.63499999 -0.064575262 1.1522521e-38 296 298
-0.025607431 0.63499999 -0.064575262 1.1614717e-38 297 298
-0.024532638 0.63599998 -0.064676955 1.1890225e-38 298 298
-0.023417519 0.63599998 -0.064676955 1.1798029e-38 299 298
-0.022302398 0.63599998 -0.064676955 1.1889872e-38 300 298
-0.021187279 0.63599998 -0.064676955 1.1889872e-38 301 298
-0.020072158 0.63599998 -0.064676955 1.1889872e-38 302 298
-0.018957037 0.63599998 -0.064676955 1.1889872e-38 303 298
-0.017841918 0.63599998 -0.064676955 1.1890225e-38 304 298
-0.016726799 0.63599998 -0.064676955 1.1890225e-38 305 298
-0.015611678 0.63599998 -0.064676955 1.1890578e-38 306 298
-0.014496559 0.63599998 -0.064676955 1.1890578e-38 307 298
-0.013381439 0.63599998 -0.064676955 1.170691e-38 308 298
-0.012285607 0.63700002 -0.064778656 1.1614714e-38 309 298
-0.011168733 0.63700002 -0.064778656 1.179731e-38 310 298
-0.01006764 0.63800001 -0.064880349 1.179731e-38 311 298
-0.0089770658 0.63999999 -0.065083727 1.179696e-38 312 298
-0.0078549329 0.63999999 -0.065083727 1.1889156e-38 313 298
-0.0067327996 0.63999999 -0.065083727 1.1797679e-38 314 298
-0.0056106662 0.63999999 -0.065083727 1.1797679e-38 315 298
-0.0044955462 0.64099997 -0.06518542 1.1706559e-38 316 298
-0.0033716597 0.64099997 -0.06518542 1.1706559e-38 317 298
-0.0022477731 0.64099997 -0.06518542 1.1706562e-38 318 298
-0.00112564 0.64200002 -0.065287121 1.1706562e-38 319 298
0 0.64200002 -0.065287121 1.1706562e-38 320 298
0.0011273933 0.64300001 -0.065388806 1.1798758e-38 321 298
0.0022547867 0.64300001 -0.065388806 1.1706559e-38 322 298
0.0033874398 0.64399999 -0.065490507 1.1798755e-38 323 298
0.0045165867 0.64399999 -0.065490507 1.198242e-38 324 298
0.0056632664 0.64600003 -0.065693893 1.198242e-38 325 298
0.00679592 0.64600003 -0.065693893 1.1983141e-38 326 298
0.0079285735 0.64600003 -0.065693893 1.1799108e-38 327 298
0.0090892799 0.648 -0.065897278 1.1798755e-38 328 298
0.010225439 0.648 -0.065897278 1.1798755e-38 329 298
0.011379133 0.64899999 -0.065998971 1.1798758e-38 330 298
0.012536332 0.64999998 -0.066100657 1.1798758e-38 331 298
0.01371808 0.65200001 -0.066304058 1.1798406e-38 332 298
0.014861252 0.65200001 -0.066304058 1.1798406e-38 333 298
0.016028972 0.653 -0.066405743 1.1614379e-38 334 298
0.017173899 0.653 -0.066405743 1.1614379e-38 335 298
0.01834688 0.65399998 -0.066507436 1.1338518e-38 336 298
0.019493559 0.65399998 -0.066507436 1.1338518e-38 337 298
0.020640239 0.65399998 -0.066507436 1.1062307e-38 338 298
0.021786919 0.65399998 -0.066507436 1.0785361e-38 339 298
0.022968665 0.65499997 -0.066609129 1.0141455e-38 340 298
-0.075652823 0.64399999 -0.06661965 1.8348029e-38 253 299
-0.074523672 0.64399999 -0.06661965 1.7060526e-38 254 299
-0.073052622 0.64099997 -0.06630931 1.3372702e-38 255 299
-0.071816526 0.63999999 -0.066205859 8.211857e-39 256 299
-0.070694394 0.63999999 -0.066205859 9.0412576e-39 257 299
-0.069572262 0.63999999 -0.066205859 1.2171516e-38 258 299
-0.068450131 0.63999999 -0.066205859 1.2540659e-38 259 299
-0.067327991 0.63999999 -0.066205859 1.2910125e-38 260 299
-0.066205859 0.63999999 -0.066205859 1.3278549e-38 261 299
-0.064778656 0.63700002 -0.065895528 1.4014302e-38 262 299
-0.063661784 0.63700002 -0.065895528 1.4382726e-38 263 299
-0.062544905 0.63700002 -0.065895528 1.4842615e-38 264 299
-0.061813761 0.64099997 -0.06630931 1.4934811e-38 265 299
-0.060689874 0.64099997 -0.06630931 1.5211015e-38 266 299
-0.059194289 0.63700002 -0.065895528 1.5118461e-38 267 299
-0.058077414 0.63700002 -0.065895528 1.5116649e-38 268 299
-0.056960538 0.63700002 -0.065895528 1.4932257e-38 269 299
-0.055755995 0.63599998 -0.065792076 1.4838988e-38 270 299
-0.054640878 0.63599998 -0.065792076 1.4377652e-38 271 299
-0.053441599 0.63499999 -0.065688632 1.3733011e-38 272 299
-0.052328229 0.63499999 -0.065688632 1.3640815e-38 273 299
-0.05113421 0.634 -0.065585189 1.318022e-38 274 299
-0.050022598 0.634 -0.065585189 1.2996187e-38 275 299
-0.048910987 0.634 -0.065585189 1.281109e-38 276 299
-0.047799375 0.634 -0.065585189 1.2626698e-38 277 299
-0.046687759 0.634 -0.065585189 1.2349778e-38 278 299
-0.045576144 0.634 -0.065585189 1.2165385e-38 279 299
-0.044534665 0.63499999 -0.065688632 1.1520759e-38 280 299
-0.043421298 0.63499999 -0.065688632 1.1705509e-38 281 299
-0.042307932 0.63499999 -0.065688632 1.1795903e-38 282 299
-0.041194562 0.63499999 -0.065688632 1.1795903e-38 283 299
-0.040081199 0.63499999 -0.065688632 1.1703339e-38 284 299
-0.038967833 0.63499999 -0.065688632 1.1611144e-38 285 299
-0.037854467 0.63499999 -0.065688632 1.1336349e-38 286 299
-0.0367411 0.63499999 -0.065688632 1.1336349e-38 287 299
-0.03562773 0.63499999 -0.065688632 1.115304e-38 288 299
-0.034514364 0.63499999 -0.065688632 1.115304e-38 289 299
-0.033400998 0.63499999 -0.065688632 1.1337068e-38 290 299
-0.032236785 0.634 -0.065585189 1.1153037e-38 291 299
-0.031125173 0.634 -0.065585189 1.1154109e-38 292 299
-0.030013559 0.634 -0.065585189 1.1154109e-38 293 299
-0.028947532 0.63499999 -0.065688632 1.1247376e-38 294 299
-0.027834166 0.63499999 -0.065688632 1.1247376e-38 295 299
-0.0267208 0.63499999 -0.065688632 1.152324e-38 296 299
-0.025607431 0.63499999 -0.065688632 1.152324e-38 297 299
-0.024532638 0.63599998 -0.065792076 1.161508e-38 298 299
-0.023417519 0.63599998 -0.065792076 1.161508e-38 299 299
-0.022302398 0.63599998 -0.065792076 1.1706562e-38 300 299
-0.021187279 0.63599998 -0.065792076 1.1706562e-38 301 299
-0.020072158 0.63599998 -0.065792076 1.1706206e-38 302 299
-0.018957037 0.63599998 -0.065792076 1.1706206e-38 303 299
-0.017841918 0.63599998 -0.065792076 1.1706915e-38 304 299
-0.016726799 0.63599998 -0.065792076 1.1706915e-38 305 299
