# .PCD v.7 - Point Cloud Data file format
FIELDS x y z rgb imX imY
SIZE 4 4 4 4 4 4
TYPE F F F F F F
COUNT 1 1 1 1 1 1
WIDTH 853
HEIGHT 1
VIEWPOINT 0 0 0 1 0 0 0
POINTS 853
DATA ascii
0.060831897 0.77100003 0.0054072798 1.4836539e-38 365 236
0.062183715 0.77100003 0.0054072798 1.2902601e-38 366 236
0.063535534 0.77100003 0.0054072798 1.142747e-38 367 236
0.065055676 0.773 0.0054213065 1.0413717e-38 368 236
-0.034691449 0.76099998 0.0040028598 1.7695723e-38 294 237
-0.033357166 0.76099998 0.0040028598 1.8064147e-38 295 237
-0.032022879 0.76099998 0.0040028598 1.8524387e-38 296 237
-0.030688593 0.76099998 0.0040028598 1.8800972e-38 297 237
-0.029392879 0.76200002 0.0040081199 1.9170462e-38 298 237
-0.028056841 0.76200002 0.0040081199 1.9262658e-38 299 237
-0.0267208 0.76200002 0.0040081199 1.9446674e-38 300 237
-0.02538476 0.76200002 0.0040081199 1.9446674e-38 301 237
-0.024017159 0.76099998 0.0040028598 1.9171869e-38 302 237
-0.022682872 0.76099998 0.0040028598 1.9264065e-38 303 237
-0.02137664 0.76200002 0.0040081199 1.9171866e-38 304 237
-0.0200406 0.76200002 0.0040081199 1.8987474e-38 305 237
-0.018680012 0.76099998 0.0040028598 1.9078948e-38 306 237
-0.017345725 0.76099998 0.0040028598 1.9078948e-38 307 237
-0.016011439 0.76099998 0.0040028598 1.917042e-38 308 237
-0.01469644 0.76200002 0.0040081199 1.9078225e-38 309 237
-0.0133604 0.76200002 0.0040081199 1.9078219e-38 310 237
-0.01205592 0.764 0.0040186401 1.9078219e-38 311 237
-0.010716373 0.764 0.0040186401 1.9077856e-38 312 237
-0.0094013726 0.76599997 0.0040291594 1.9077856e-38 313 237
-0.0080583189 0.76599997 0.0040291594 1.9077859e-38 314 237
-0.0067152665 0.76599997 0.0040291594 1.9077859e-38 315 237
-0.0053722127 0.76599997 0.0040291594 1.8986026e-38 316 237
-0.0040291594 0.76599997 0.0040291594 1.8801995e-38 317 237
-0.0026861064 0.76599997 0.0040291594 1.8985307e-38 318 237
-0.0013430532 0.76599997 0.0040291594 1.889311e-38 319 237
0 0.76599997 0.0040291594 1.8984954e-38 320 237
0.0013430532 0.76599997 0.0040291594 1.8892759e-38 321 237
0.0026861064 0.76599997 0.0040291594 1.8892761e-38 322 237
0.0040291594 0.76599997 0.0040291594 1.8892761e-38 323 237
0.0053722127 0.76599997 0.0040291594 1.8342104e-38 324 237
0.006724033 0.76700002 0.00403442 1.8249909e-38 325 237
0.00806884 0.76700002 0.00403442 1.8617249e-38 326 237
0.0094136465 0.76700002 0.00403442 1.8525054e-38 327 237
0.010758453 0.76700002 0.00403442 1.8525054e-38 328 237
0.012134819 0.76899999 0.0040449398 1.8525054e-38 329 237
0.013483133 0.76899999 0.0040449398 1.8432499e-38 330 237
0.014831445 0.76899999 0.0040449398 1.8432499e-38 331 237
0.01613768 0.76700002 0.00403442 1.8249187e-38 332 237
0.017482487 0.76700002 0.00403442 1.8156991e-38 333 237
0.018827293 0.76700002 0.00403442 1.834066e-38 334 237
0.020172099 0.76700002 0.00403442 1.8432855e-38 335 237
0.021516906 0.76700002 0.00403442 1.834066e-38 336 237
0.022861714 0.76700002 0.00403442 1.815627e-38 337 237
0.024206521 0.76700002 0.00403442 1.8156626e-38 338 237
0.025551327 0.76700002 0.00403442 1.806443e-38 339 237
0.026896132 0.76700002 0.00403442 1.806443e-38 340 237
0.02824094 0.76700002 0.00403442 1.806443e-38 341 237
0.029585747 0.76700002 0.00403442 1.8064443e-38 342 237
0.030930554 0.76700002 0.00403442 1.7972247e-38 343 237
0.032359518 0.76899999 0.0040449398 1.8063724e-38 344 237
0.033707831 0.76899999 0.0040449398 1.7971527e-38 345 237
0.035056144 0.76899999 0.0040449398 1.797223e-38 346 237
0.036404461 0.76899999 0.0040449398 1.797223e-38 347 237
0.03775277 0.76899999 0.0040449398 1.7972227e-38 348 237
0.039101087 0.76899999 0.0040449398 1.7972227e-38 349 237
0.0404494 0.76899999 0.0040449398 1.7971874e-38 350 237
0.041797712 0.76899999 0.0040449398 1.7879679e-38 351 237
0.043146025 0.76899999 0.0040449398 1.7879679e-38 352 237
0.044494338 0.76899999 0.0040449398 1.7879679e-38 353 237
0.045842651 0.76899999 0.0040449398 1.7787836e-38 354 237
0.047190964 0.76899999 0.0040449398 1.7787836e-38 355 237
0.04866552 0.77100003 0.0040554604 1.7788189e-38 356 237
0.050017338 0.77100003 0.0040554604 1.7695994e-38 357 237
0.05136916 0.77100003 0.0040554604 1.7787833e-38 358 237
0.052720979 0.77100003 0.0040554604 1.7880029e-38 359 237
0.054072797 0.77100003 0.0040554604 1.7879679e-38 360 237
0.055424623 0.77100003 0.0040554604 1.7971874e-38 361 237
0.056776438 0.77100003 0.0040554604 1.7879684e-38 362 237
0.058128256 0.77100003 0.0040554604 1.7879684e-38 363 237
0.059480079 0.77100003 0.0040554604 1.7327959e-38 364 237
0.060831897 0.77100003 0.0040554604 1.7143209e-38 365 237
0.062183715 0.77100003 0.0040554604 1.7048158e-38 366 237
0.063535534 0.77100003 0.0040554604 1.5849615e-38 367 237
0.065055676 0.773 0.0040659797 1.4651097e-38 368 237
0.066411003 0.773 0.0040659797 1.3544749e-38 369 237
0.067766331 0.773 0.0040659797 1.1888119e-38 370 237
0.069121659 0.773 0.0040659797 1.1058357e-38 371 237
0.070476986 0.773 0.0040659797 9.587565e-39 372 237
0.071832314 0.773 0.0040659797 9.4031737e-39 373 237
-0.041036766 0.755 0.0026475333 1.5854344e-38 289 238
-0.039712999 0.755 0.0026475333 1.7052506e-38 290 238
-0.038389232 0.755 0.0026475333 1.7974102e-38 291 238
-0.037065465 0.755 0.0026475333 1.8894245e-38 292 238
-0.03583638 0.75700003 0.0026545466 1.9355222e-38 293 238
-0.034509107 0.75700003 0.0026545466 1.9630717e-38 294 238
-0.033269498 0.759 0.00266156 1.9630717e-38 295 238
-0.031938717 0.759 0.00266156 1.9814736e-38 296 238
-0.030688593 0.76099998 0.0026685731 1.9629986e-38 297 238
-0.029354304 0.76099998 0.0026685731 1.9630692e-38 298 238
-0.028056841 0.76200002 0.00267208 1.9354465e-38 299 238
-0.0267208 0.76200002 0.00267208 1.9354811e-38 300 238
-0.02538476 0.76200002 0.00267208 1.9354811e-38 301 238
-0.024017159 0.76099998 0.0026685731 1.9079301e-38 302 238
-0.022682872 0.76099998 0.0026685731 1.9079301e-38 303 238
-0.02137664 0.76200002 0.00267208 1.8987108e-38 304 238
-0.020014299 0.76099998 0.0026685731 1.8987108e-38 305 238
-0.018680012 0.76099998 0.0026685731 1.8895275e-38 306 238
-0.017345725 0.76099998 0.0026685731 1.880308e-38 307 238
-0.016011439 0.76099998 0.0026685731 1.8894559e-38 308 238
-0.014677152 0.76099998 0.0026685731 1.8894559e-38 309 238
-0.0133604 0.76200002 0.00267208 1.8802364e-38 310 238
-0.01202436 0.76200002 0.00267208 1.8802364e-38 311 238
-0.01068832 0.76200002 0.00267208 1.8985673e-38 312 238
-0.0093768267 0.764 0.0026790933 1.8801642e-38 313 238
-0.0080372803 0.764 0.0026790933 1.8801645e-38 314 238
-0.0067152665 0.76599997 0.0026861064 1.870909e-38 315 238
-0.0053722127 0.76599997 0.0026861064 1.861726e-38 316 238
-0.0040291594 0.76599997 0.0026861064 1.8433228e-38 317 238
-0.0026861064 0.76599997 0.0026861064 1.8617249e-38 318 238
-0.0013430532 0.76599997 0.0026861064 1.8525054e-38 319 238
0 0.76599997 0.0026861064 1.8617246e-38 320 238
0.0013430532 0.76599997 0.0026861064 1.8525051e-38 321 238
0.0026861064 0.76599997 0.0026861064 1.8524698e-38 322 238
0.0040291594 0.76599997 0.0026861064 1.8524698e-38 323 238
0.0053722127 0.76599997 0.0026861064 1.77893e-38 324 238
0.0067152665 0.76599997 0.0026861064 1.7881496e-38 325 238
0.0080583189 0.76599997 0.0026861064 1.7973694e-38 326 238
0.0094013726 0.76599997 0.0026861064 1.7881499e-38 327 238
0.010758453 0.76700002 0.0026896133 1.8156641e-38 328 238
0.01210326 0.76700002 0.0026896133 1.8064445e-38 329 238
0.013448066 0.76700002 0.0026896133 1.7788945e-38 330 238
0.014792874 0.76700002 0.0026896133 1.7788945e-38 331 238
0.01613768 0.76700002 0.0026896133 1.7788945e-38 332 238
0.017482487 0.76700002 0.0026896133 1.7604913e-38 333 238
0.018827293 0.76700002 0.0026896133 1.7788579e-38 334 238
0.020145798 0.76599997 0.0026861064 1.7696382e-38 335 238
0.021488851 0.76599997 0.0026861064 1.7696369e-38 336 238
0.022831906 0.76599997 0.0026861064 1.7696369e-38 337 238
0.024206521 0.76700002 0.0026896133 1.797258e-38 338 238
0.025551327 0.76700002 0.0026896133 1.7788189e-38 339 238
0.026896132 0.76700002 0.0026896133 1.7788186e-38 340 238
0.02824094 0.76700002 0.0026896133 1.7788186e-38 341 238
0.029585747 0.76700002 0.0026896133 1.7697088e-38 342 238
0.030930554 0.76700002 0.0026896133 1.7697088e-38 343 238
0.03227536 0.76700002 0.0026896133 1.7604171e-38 344 238
0.033620168 0.76700002 0.0026896133 1.7511975e-38 345 238
0.034964975 0.76700002 0.0026896133 1.7328657e-38 346 238
0.036309779 0.76700002 0.0026896133 1.7605243e-38 347 238
0.037654586 0.76700002 0.0026896133 1.723683e-38 348 238
0.038999394 0.76700002 0.0026896133 1.7329026e-38 349 238
0.040344197 0.76700002 0.0026896133 1.769529e-38 350 238
0.041797712 0.76899999 0.0026966266 1.75109e-38 351 238
0.043146025 0.76899999 0.0026966266 1.7144281e-38 352 238
0.04437862 0.76700002 0.0026896133 1.7144281e-38 353 238
0.045723427 0.76700002 0.0026896133 1.7144284e-38 354 238
0.047190964 0.76899999 0.0026966266 1.7144284e-38 355 238
0.048539277 0.76899999 0.0026966266 1.7327957e-38 356 238
0.04988759 0.76899999 0.0026966266 1.7235761e-38 357 238
0.051235907 0.76899999 0.0026966266 1.7235761e-38 358 238
0.052584216 0.76899999 0.0026966266 1.7235761e-38 359 238
0.053932533 0.76899999 0.0026966266 1.7235761e-38 360 238
0.055280842 0.76899999 0.0026966266 1.7235761e-38 361 238
0.056776438 0.77100003 0.0027036399 1.7143916e-38 362 238
0.058128256 0.77100003 0.0027036399 1.7143916e-38 363 238
0.059480079 0.77100003 0.0027036399 1.732831e-38 364 238
0.060831897 0.77100003 0.0027036399 1.7696732e-38 365 238
0.062183715 0.77100003 0.0027036399 1.7971541e-38 366 238
0.063535534 0.77100003 0.0027036399 1.7510921e-38 367 238
0.064887367 0.77100003 0.0027036399 1.7049946e-38 368 238
0.066411003 0.773 0.0027106532 1.594324e-38 369 238
0.067766331 0.773 0.0027106532 1.4285167e-38 370 238
0.069121659 0.773 0.0027106532 1.317846e-38 371 238
0.070476986 0.773 0.0027106532 1.152113e-38 372 238
0.071832314 0.773 0.0027106532 1.0414784e-38 373 238
0.073187642 0.773 0.0027106532 1.0139314e-38 374 238
0.074542962 0.773 0.0027106532 1.0415901e-38 375 238
-0.043626439 0.75400001 0.0013220133 1.8342557e-38 287 239
-0.042304426 0.75400001 0.0013220133 1.8986462e-38 288 239
-0.040982414 0.75400001 0.0013220133 1.9078658e-38 289 239
-0.039712999 0.755 0.0013237667 1.9447775e-38 290 239
-0.038389232 0.755 0.0013237667 1.9447775e-38 291 239
-0.037065465 0.755 0.0013237667 1.9539222e-38 292 239
-0.035741698 0.755 0.0013237667 1.9262635e-38 293 239
-0.034509107 0.75700003 0.0013272733 1.9263335e-38 294 239
-0.033269498 0.759 0.00133078 1.9079304e-38 295 239
-0.031938717 0.759 0.00133078 1.9262616e-38 296 239
-0.030607941 0.759 0.00133078 1.9262616e-38 297 239
-0.029354304 0.76099998 0.0013342865 1.9170064e-38 298 239
-0.028020019 0.76099998 0.0013342865 1.9170064e-38 299 239
-0.026685731 0.76099998 0.0013342865 1.9077869e-38 300 239
-0.025351444 0.76099998 0.0013342865 1.9170064e-38 301 239
-0.024017159 0.76099998 0.0013342865 1.917042e-38 302 239
-0.022682872 0.76099998 0.0013342865 1.9078225e-38 303 239
-0.021348584 0.76099998 0.0013342865 1.917042e-38 304 239
-0.020014299 0.76099998 0.0013342865 1.8986029e-38 305 239
-0.018680012 0.76099998 0.0013342865 1.9077871e-38 306 239
-0.017345725 0.76099998 0.0013342865 1.8985676e-38 307 239
-0.016011439 0.76099998 0.0013342865 1.8802008e-38 308 239
-0.014677152 0.76099998 0.0013342865 1.8709812e-38 309 239
-0.013342866 0.76099998 0.0013342865 1.8709446e-38 310 239
-0.012008579 0.76099998 0.0013342865 1.8709446e-38 311 239
-0.01068832 0.76200002 0.00133604 1.8709798e-38 312 239
-0.0093522798 0.76200002 0.00133604 1.8617244e-38 313 239
-0.0080162399 0.76200002 0.00133604 1.8708363e-38 314 239
-0.006697733 0.764 0.0013395466 1.8708363e-38 315 239
-0.0053581866 0.764 0.0013395466 1.8524335e-38 316 239
-0.0040186401 0.764 0.0013395466 1.843178e-38 317 239
-0.0026790933 0.764 0.0013395466 1.8432136e-38 318 239
-0.0013430532 0.76599997 0.0013430532 1.8339941e-38 319 239
0 0.764 0.0013395466 1.7972594e-38 320 239
0.0013395466 0.764 0.0013395466 1.7972594e-38 321 239
0.0026790933 0.764 0.0013395466 1.760562e-38 322 239
0.0040186401 0.764 0.0013395466 1.760562e-38 323 239
0.0053581866 0.764 0.0013395466 1.7696382e-38 324 239
0.0067152665 0.76599997 0.0013430532 1.7696382e-38 325 239
0.0080372803 0.764 0.0013395466 1.797188e-38 326 239
0.0093768267 0.764 0.0013395466 1.797188e-38 327 239
0.010744425 0.76599997 0.0013430532 1.8155545e-38 328 239
0.012087479 0.76599997 0.0013430532 1.787896e-38 329 239
0.013430533 0.76599997 0.0013430532 1.7421221e-38 330 239
0.014773586 0.76599997 0.0013430532 1.7329026e-38 331 239
0.016116638 0.76599997 0.0013430532 1.75109e-38 332 239
0.017459691 0.76599997 0.0013430532 1.7787486e-38 333 239
0.018802745 0.76599997 0.0013430532 1.7511256e-38 334 239
0.020145798 0.76599997 0.0013430532 1.7511256e-38 335 239
0.021432746 0.764 0.0013395466 1.6961322e-38 336 239
0.022772292 0.764 0.0013395466 1.6961322e-38 337 239
0.024174958 0.76599997 0.0013430532 1.7236462e-38 338 239
0.025518013 0.76599997 0.0013430532 1.7052069e-38 339 239
0.026861066 0.76599997 0.0013430532 1.70517e-38 340 239
0.028204117 0.76599997 0.0013430532 1.7235731e-38 341 239
0.029547172 0.76599997 0.0013430532 1.7419777e-38 342 239
0.030930554 0.76700002 0.0013448066 1.7327581e-38 343 239
0.03227536 0.76700002 0.0013448066 1.7144269e-38 344 239
0.033620168 0.76700002 0.0013448066 1.6959517e-38 345 239
0.034964975 0.76700002 0.0013448066 1.7419409e-38 346 239
0.036309779 0.76700002 0.0013448066 1.7511607e-38 347 239
0.037654586 0.76700002 0.0013448066 1.7419058e-38 348 239
0.038999394 0.76700002 0.0013448066 1.7326861e-38 349 239
0.040344197 0.76700002 0.0013448066 1.6775852e-38 350 239
0.041689005 0.76700002 0.0013448066 1.6775852e-38 351 239
0.043033812 0.76700002 0.0013448066 1.6591464e-38 352 239
0.04437862 0.76700002 0.0013448066 1.6591464e-38 353 239
0.045723427 0.76700002 0.0013448066 1.6775855e-38 354 239
0.047068235 0.76700002 0.0013448066 1.6775855e-38 355 239
0.048413042 0.76700002 0.0013448066 1.6958817e-38 356 239
0.049757849 0.76700002 0.0013448066 1.6958817e-38 357 239
0.051102653 0.76700002 0.0013448066 1.6775504e-38 358 239
0.052584216 0.76899999 0.0013483133 1.6775504e-38 359 239
0.053932533 0.76899999 0.0013483133 1.6866255e-38 360 239
0.055280842 0.76899999 0.0013483133 1.7050647e-38 361 239
0.056629159 0.76899999 0.0013483133 1.7417624e-38 362 239
0.057977475 0.76899999 0.0013483133 1.750982e-38 363 239
0.059325781 0.76899999 0.0013483133 1.7051e-38 364 239
0.060674097 0.76899999 0.0013483133 1.7235031e-38 365 239
0.062022414 0.76899999 0.0013483133 1.6959167e-38 366 239
0.063370727 0.76899999 0.0013483133 1.6959167e-38 367 239
0.064887367 0.77100003 0.00135182 1.6775867e-38 368 239
0.066239186 0.77100003 0.00135182 1.6868423e-38 369 239
0.067591004 0.77100003 0.00135182 1.6684773e-38 370 239
0.068942823 0.77100003 0.00135182 1.6315991e-38 371 239
0.070476986 0.773 0.0013553266 1.5485892e-38 372 239
0.071832314 0.773 0.0013553266 1.4011122e-38 373 239
0.073187642 0.773 0.0013553266 1.2903348e-38 374 239
0.074542962 0.773 0.0013553266 1.1797002e-38 375 239
0.075898297 0.773 0.0013553266 9.9552727e-39 376 239
-0.046024997 0.75 -0 1.8436159e-38 285 240
-0.044709999 0.75 -0 1.8802752e-38 286 240
-0.04351072 0.75199997 -0 1.9079339e-38 287 240
-0.042304426 0.75400001 -0 1.9446674e-38 288 240
-0.040982414 0.75400001 -0 1.9538869e-38 289 240
-0.039712999 0.755 -0 1.9722872e-38 290 240
-0.038389232 0.755 -0 1.953848e-38 291 240
-0.037065465 0.755 -0 1.9264035e-38 292 240
-0.035741698 0.755 -0 1.9080004e-38 293 240
-0.034417931 0.755 -0 1.9079654e-38 294 240
-0.033181835 0.75700003 -0 1.8987458e-38 295 240
-0.031854562 0.75700003 -0 1.9170064e-38 296 240
-0.030527288 0.75700003 -0 1.9170064e-38 297 240
-0.029354304 0.76099998 -0 1.8894206e-38 298 240
-0.028020019 0.76099998 -0 1.8894206e-38 299 240
-0.026685731 0.76099998 -0 1.8802373e-38 300 240
-0.025351444 0.76099998 -0 1.8618342e-38 301 240
-0.024017159 0.76099998 -0 1.8619061e-38 302 240
-0.022682872 0.76099998 -0 1.8526865e-38 303 240
-0.021348584 0.76099998 -0 1.8526863e-38 304 240
-0.020014299 0.76099998 -0 1.8526863e-38 305 240
-0.01863092 0.759 -0 1.8526149e-38 306 240
-0.017300138 0.759 -0 1.8526149e-38 307 240
-0.016011439 0.76099998 -0 1.8433601e-38 308 240
-0.014677152 0.76099998 -0 1.8341404e-38 309 240
-0.013342866 0.76099998 -0 1.8158442e-38 310 240
-0.012008579 0.76099998 -0 1.7973692e-38 311 240
-0.010674292 0.76099998 -0 1.8249543e-38 312 240
-0.0093522798 0.76200002 -0 1.8249543e-38 313 240
-0.0080162399 0.76200002 -0 1.815627e-38 314 240
-0.0066801999 0.76200002 -0 1.8064074e-38 315 240
-0.0053441599 0.76200002 -0 1.7605267e-38 316 240
-0.0040081199 0.76200002 -0 1.7605267e-38 317 240
-0.0026790933 0.764 -0 1.7604539e-38 318 240
-0.0013395466 0.764 -0 1.7512344e-38 319 240
0 0.764 -0 1.7328663e-38 320 240
0.0013395466 0.764 -0 1.7236108e-38 321 240
0.0026790933 0.764 -0 1.6961332e-38 322 240
0.0040186401 0.764 -0 1.6961332e-38 323 240
0.0053581866 0.764 -0 1.7144279e-38 324 240
0.006697733 0.764 -0 1.6960247e-38 325 240
0.0080372803 0.764 -0 1.7051713e-38 326 240
0.0093768267 0.764 -0 1.7144269e-38 327 240
0.010716373 0.764 -0 1.7326858e-38 328 240
0.012087479 0.76599997 -0 1.7142467e-38 329 240
0.013430533 0.76599997 -0 1.6867675e-38 330 240
0.014773586 0.76599997 -0 1.6683644e-38 331 240
0.016116638 0.76599997 -0 1.6774037e-38 332 240
0.017459691 0.76599997 -0 1.714282e-38 333 240
0.018802745 0.76599997 -0 1.6499262e-38 334 240
0.020093199 0.764 -0 1.6315231e-38 335 240
0.021432746 0.764 -0 1.6132287e-38 336 240
0.022772292 0.764 -0 1.6132287e-38 337 240
0.024111839 0.764 -0 1.6591095e-38 338 240
0.025518013 0.76599997 -0 1.6498899e-38 339 240
0.026861066 0.76599997 -0 1.62241e-38 340 240
0.028204117 0.76599997 -0 1.6316656e-38 341 240
0.029547172 0.76599997 -0 1.6775113e-38 342 240
0.030890226 0.76599997 -0 1.6682558e-38 343 240
0.03227536 0.76700002 -0 1.6499615e-38 344 240
0.033620168 0.76700002 -0 1.6315584e-38 345 240
0.034964975 0.76700002 -0 1.6223037e-38 346 240
0.036309779 0.76700002 -0 1.6223037e-38 347 240
0.037654586 0.76700002 -0 1.6314154e-38 348 240
0.038999394 0.76700002 -0 1.6314154e-38 349 240
0.040344197 0.76700002 -0 1.5946094e-38 350 240
0.041689005 0.76700002 -0 1.5946094e-38 351 240
0.043033812 0.76700002 -0 1.5853174e-38 352 240
0.04437862 0.76700002 -0 1.5576586e-38 353 240
0.045723427 0.76700002 -0 1.5578018e-38 354 240
0.047068235 0.76700002 -0 1.576205e-38 355 240
0.048413042 0.76700002 -0 1.5945738e-38 356 240
0.049757849 0.76700002 -0 1.5945738e-38 357 240
0.051102653 0.76700002 -0 1.5854268e-38 358 240
0.052447457 0.76700002 -0 1.5854268e-38 359 240
0.053792264 0.76700002 -0 1.6130132e-38 360 240
0.055137072 0.76700002 -0 1.6222328e-38 361 240
0.056481879 0.76700002 -0 1.6498912e-38 362 240
0.057977475 0.76899999 -0 1.6683303e-38 363 240
0.059325781 0.76899999 -0 1.6590754e-38 364 240
0.060674097 0.76899999 -0 1.6683309e-38 365 240
0.062022414 0.76899999 -0 1.6408161e-38 366 240
0.063370727 0.76899999 -0 1.6408161e-38 367 240
0.064719036 0.76899999 -0 1.6315953e-38 368 240
0.066067353 0.76899999 -0 1.6408148e-38 369 240
0.067415662 0.76899999 -0 1.6683656e-38 370 240
0.068763971 0.76899999 -0 1.6683656e-38 371 240
0.070294641 0.77100003 -0 1.6038655e-38 372 240
0.071646459 0.77100003 -0 1.5670233e-38 373 240
0.072998285 0.77100003 -0 1.4288387e-38 374 240
0.074350104 0.77100003 -0 1.3366431e-38 375 240
0.075701922 0.77100003 -0 1.2166481e-38 376 240
0.077253617 0.773 -0 1.133672e-38 377 240
-0.053699337 0.74699998 -0.0013097399 1.8160719e-38 279 241
-0.052389596 0.74699998 -0.0013097399 1.8525866e-38 280 241
-0.051079858 0.74699998 -0.0013097399 1.8341835e-38 281 241
-0.049770117 0.74699998 -0.0013097399 1.8526554e-38 282 241
-0.048460379 0.74699998 -0.0013097399 1.8711304e-38 283 241
-0.047276881 0.74900001 -0.0013132467 1.8803119e-38 284 241
-0.045963634 0.74900001 -0.0013132467 1.8895673e-38 285 241
-0.044709999 0.75 -0.001315 1.9171519e-38 286 241
-0.043394998 0.75 -0.001315 1.9078964e-38 287 241
-0.042304426 0.75400001 -0.0013220133 1.9355179e-38 288 241
-0.040982414 0.75400001 -0.0013220133 1.9262983e-38 289 241
-0.039660402 0.75400001 -0.0013220133 1.9263335e-38 290 241
-0.038389232 0.755 -0.0013237667 1.9263335e-38 291 241
-0.037065465 0.755 -0.0013237667 1.8987471e-38 292 241
-0.035741698 0.755 -0.0013237667 1.8987471e-38 293 241
-0.034417931 0.755 -0.0013237667 1.8986752e-38 294 241
-0.033181835 0.75700003 -0.0013272733 1.8894556e-38 295 241
-0.031854562 0.75700003 -0.0013272733 1.8894203e-38 296 241
-0.030527288 0.75700003 -0.0013272733 1.8894203e-38 297 241
-0.029277159 0.759 -0.00133078 1.8618342e-38 298 241
-0.027946379 0.759 -0.00133078 1.8802373e-38 299 241
-0.026615599 0.759 -0.00133078 1.8526144e-38 300 241
-0.025284819 0.759 -0.00133078 1.8526144e-38 301 241
-0.023954039 0.759 -0.00133078 1.8434301e-38 302 241
-0.02262326 0.759 -0.00133078 1.8434301e-38 303 241
-0.021348584 0.76099998 -0.0013342865 1.8433581e-38 304 241
-0.020014299 0.76099998 -0.0013342865 1.8433581e-38 305 241
-0.01863092 0.759 -0.00133078 1.85247e-38 306 241
-0.017300138 0.759 -0.00133078 1.8432505e-38 307 241
-0.015969358 0.759 -0.00133078 1.8156641e-38 308 241
-0.014638579 0.759 -0.00133078 1.8156641e-38 309 241
-0.0133078 0.759 -0.00133078 1.806444e-38 310 241
-0.01197702 0.759 -0.00133078 1.7788212e-38 311 241
-0.010674292 0.76099998 -0.0013342865 1.7603818e-38 312 241
-0.0093400059 0.76099998 -0.0013342865 1.7603818e-38 313 241
-0.0080162399 0.76200002 -0.00133604 1.732831e-38 314 241
-0.0066801999 0.76200002 -0.00133604 1.714356e-38 315 241
-0.0053441599 0.76200002 -0.00133604 1.6960966e-38 316 241
-0.0040081199 0.76200002 -0.00133604 1.6776574e-38 317 241
-0.00267208 0.76200002 -0.00133604 1.6776208e-38 318 241
-0.0013395466 0.764 -0.0013395466 1.6591458e-38 319 241
0 0.764 -0.0013395466 1.6498897e-38 320 241
0.0013395466 0.764 -0.0013395466 1.6498897e-38 321 241
0.0026790933 0.764 -0.0013395466 1.6406349e-38 322 241
0.0040081199 0.76200002 -0.00133604 1.6406349e-38 323 241
0.0053441599 0.76200002 -0.00133604 1.6037937e-38 324 241
0.006697733 0.764 -0.0013395466 1.5853545e-38 325 241
0.0080372803 0.764 -0.0013395466 1.5577312e-38 326 241
0.0093768267 0.764 -0.0013395466 1.5485116e-38 327 241
0.010716373 0.764 -0.0013395466 1.5393268e-38 328 241
0.01205592 0.764 -0.0013395466 1.5393268e-38 329 241
0.013395466 0.764 -0.0013395466 1.5393271e-38 330 241
0.014773586 0.76599997 -0.0013430532 1.5301075e-38 331 241
0.016074561 0.764 -0.0013395466 1.5117054e-38 332 241
0.017414106 0.764 -0.0013395466 1.5117054e-38 333 241
0.018753653 0.764 -0.0013395466 1.4841902e-38 334 241
0.020093199 0.764 -0.0013395466 1.4564955e-38 335 241
0.021432746 0.764 -0.0013395466 1.474827e-38 336 241
0.022772292 0.764 -0.0013395466 1.4932662e-38 337 241
0.024111839 0.764 -0.0013395466 1.5208526e-38 338 241
0.025451386 0.764 -0.0013395466 1.4932298e-38 339 241
0.026861066 0.76599997 -0.0013430532 1.4657871e-38 340 241
0.028204117 0.76599997 -0.0013430532 1.4842621e-38 341 241
0.029547172 0.76599997 -0.0013430532 1.5025214e-38 342 241
0.030890226 0.76599997 -0.0013430532 1.4933018e-38 343 241
0.032233275 0.76599997 -0.0013430532 1.4840468e-38 344 241
0.033576332 0.76599997 -0.0013430532 1.4932665e-38 345 241
0.034919381 0.76599997 -0.0013430532 1.4748644e-38 346 241
0.036262438 0.76599997 -0.0013430532 1.4656447e-38 347 241
0.037605491 0.76599997 -0.0013430532 1.4564602e-38 348 241
0.038948543 0.76599997 -0.0013430532 1.4288015e-38 349 241
0.040291596 0.76599997 -0.0013430532 1.4377689e-38 350 241
0.041689005 0.76700002 -0.0013448066 1.4377689e-38 351 241
0.043033812 0.76700002 -0.0013448066 1.3825575e-38 352 241
0.04437862 0.76700002 -0.0013448066 1.2627033e-38 353 241
0.045723427 0.76700002 -0.0013448066 1.2810699e-38 354 241
0.047006864 0.76599997 -0.0013430532 1.3732655e-38 355 241
0.048349917 0.76599997 -0.0013430532 1.3919235e-38 356 241
0.049757849 0.76700002 -0.0013448066 1.4380213e-38 357 241
0.051102653 0.76700002 -0.0013448066 1.4563901e-38 358 241
0.052447457 0.76700002 -0.0013448066 1.4656098e-38 359 241
0.053792264 0.76700002 -0.0013448066 1.4840845e-38 360 241
0.055137072 0.76700002 -0.0013448066 1.5024876e-38 361 241
0.056481879 0.76700002 -0.0013448066 1.493411e-38 362 241
0.057826683 0.76700002 -0.0013448066 1.5210337e-38 363 241
0.059171494 0.76700002 -0.0013448066 1.5669877e-38 364 241
0.060516298 0.76700002 -0.0013448066 1.6038658e-38 365 241
0.061861109 0.76700002 -0.0013448066 1.6223048e-38 366 241
0.063205913 0.76700002 -0.0013448066 1.6223048e-38 367 241
0.064719036 0.76899999 -0.0013483133 1.6315953e-38 368 241
0.066067353 0.76899999 -0.0013483133 1.6408148e-38 369 241
0.067415662 0.76899999 -0.0013483133 1.6316303e-38 370 241
0.068763971 0.76899999 -0.0013483133 1.6039356e-38 371 241
0.070112288 0.76899999 -0.0013483133 1.5489056e-38 372 241
0.071646459 0.77100003 -0.00135182 1.4935883e-38 373 241
0.072998285 0.77100003 -0.00135182 1.4934826e-38 374 241
0.074350104 0.77100003 -0.00135182 1.4566404e-38 375 241
0.075701922 0.77100003 -0.00135182 1.4104743e-38 376 241
0.077053741 0.77100003 -0.00135182 1.2814006e-38 377 241
-0.055009075 0.74699998 -0.0026194798 1.852802e-38 278 242
-0.053699337 0.74699998 -0.0026194798 1.8159239e-38 279 242
-0.052389596 0.74699998 -0.0026194798 1.8617286e-38 280 242
-0.051079858 0.74699998 -0.0026194798 1.852509e-38 281 242
-0.049770117 0.74699998 -0.0026194798 1.8894928e-38 282 242
-0.048460379 0.74699998 -0.0026194798 1.907932e-38 283 242
-0.047276881 0.74900001 -0.0026264933 1.9080392e-38 284 242
-0.045963634 0.74900001 -0.0026264933 1.8896003e-38 285 242
-0.044650383 0.74900001 -0.0026264933 1.9262983e-38 286 242
-0.043394998 0.75 -0.00263 1.9262983e-38 287 242
-0.04219221 0.75199997 -0.0026370131 1.9263339e-38 288 242
-0.040982414 0.75400001 -0.0026440267 1.9263339e-38 289 242
-0.039660402 0.75400001 -0.0026440267 1.9078948e-38 290 242
-0.038338386 0.75400001 -0.0026440267 1.9078948e-38 291 242
-0.037016369 0.75400001 -0.0026440267 1.8987118e-38 292 242
-0.035741698 0.755 -0.0026475333 1.8894922e-38 293 242
-0.034417931 0.755 -0.0026475333 1.8802729e-38 294 242
-0.033094164 0.755 -0.0026475333 1.8802729e-38 295 242
-0.031770397 0.755 -0.0026475333 1.8618342e-38 296 242
-0.030527288 0.75700003 -0.0026545466 1.8618342e-38 297 242
-0.029200014 0.75700003 -0.0026545466 1.8434314e-38 298 242
-0.027872739 0.75700003 -0.0026545466 1.8250283e-38 299 242
-0.026615599 0.759 -0.00266156 1.8250283e-38 300 242
-0.025284819 0.759 -0.00266156 1.8158086e-38 301 242
-0.023954039 0.759 -0.00266156 1.8065887e-38 302 242
-0.02262326 0.759 -0.00266156 1.7973692e-38 303 242
-0.02129248 0.759 -0.00266156 1.788113e-38 304 242
-0.020014299 0.76099998 -0.0026685731 1.788113e-38 305 242
-0.01863092 0.759 -0.00266156 1.7696732e-38 306 242
-0.017300138 0.759 -0.00266156 1.7512341e-38 307 242
-0.015969358 0.759 -0.00266156 1.732831e-38 308 242
-0.014638579 0.759 -0.00266156 1.732831e-38 309 242
-0.0133078 0.759 -0.00266156 1.714356e-38 310 242
-0.01197702 0.759 -0.00266156 1.7051363e-38 311 242
-0.01064624 0.759 -0.00266156 1.6866971e-38 312 242
-0.0093400059 0.76099998 -0.0026685731 1.6590745e-38 313 242
-0.0080057196 0.76099998 -0.0026685731 1.6222681e-38 314 242
-0.0066714329 0.76099998 -0.0026685731 1.6130485e-38 315 242
-0.0053371461 0.76099998 -0.0026685731 1.6038653e-38 316 242
-0.0040081199 0.76200002 -0.00267208 1.5762426e-38 317 242
-0.00267208 0.76200002 -0.00267208 1.5670946e-38 318 242
-0.00133604 0.76200002 -0.00267208 1.5302523e-38 319 242
0 0.76200002 -0.00267208 1.5485469e-38 320 242
0.00133604 0.76200002 -0.00267208 1.5485469e-38 321 242
0.00267208 0.76200002 -0.00267208 1.5485116e-38 322 242
0.0040081199 0.76200002 -0.00267208 1.539292e-38 323 242
0.0053441599 0.76200002 -0.00267208 1.5116353e-38 324 242
0.0066801999 0.76200002 -0.00267208 1.5116353e-38 325 242
0.0080162399 0.76200002 -0.00267208 1.4748294e-38 326 242
0.0093522798 0.76200002 -0.00267208 1.4656098e-38 327 242
0.01068832 0.76200002 -0.00267208 1.456497e-38 328 242
0.01205592 0.764 -0.0026790933 1.456497e-38 329 242
0.013395466 0.764 -0.0026790933 1.4564618e-38 330 242
0.014735013 0.764 -0.0026790933 1.4564618e-38 331 242
0.016074561 0.764 -0.0026790933 1.483871e-38 332 242
0.017414106 0.764 -0.0026790933 1.5023101e-38 333 242
0.018753653 0.764 -0.0026790933 1.4563915e-38 334 242
0.020093199 0.764 -0.0026790933 1.4195491e-38 335 242
0.021432746 0.764 -0.0026790933 1.4195839e-38 336 242
0.022772292 0.764 -0.0026790933 1.4288393e-38 337 242
0.024111839 0.764 -0.0026790933 1.419656e-38 338 242
0.025451386 0.764 -0.0026790933 1.419656e-38 339 242
0.026861066 0.76599997 -0.0026861064 1.4013248e-38 340 242
0.028204117 0.76599997 -0.0026861064 1.4105444e-38 341 242
0.029547172 0.76599997 -0.0026861064 1.4563548e-38 342 242
0.030890226 0.76599997 -0.0026861064 1.4471352e-38 343 242
0.032233275 0.76599997 -0.0026861064 1.4195488e-38 344 242
0.033576332 0.76599997 -0.0026861064 1.4103293e-38 345 242
0.034919381 0.76599997 -0.0026861064 1.3918548e-38 346 242
0.036262438 0.76599997 -0.0026861064 1.4010744e-38 347 242
0.037605491 0.76599997 -0.0026861064 1.4103296e-38 348 242
0.038948543 0.76599997 -0.0026861064 1.40111e-38 349 242
0.040291596 0.76599997 -0.0026861064 1.3917462e-38 350 242
0.041634649 0.76599997 -0.0026861064 1.3825267e-38 351 242
0.042977702 0.76599997 -0.0026861064 1.3365356e-38 352 242
0.04437862 0.76700002 -0.0026896133 1.2167172e-38 353 242
0.045723427 0.76700002 -0.0026896133 1.2348685e-38 354 242
0.047006864 0.76599997 -0.0026861064 1.308625e-38 355 242
0.048349917 0.76599997 -0.0026861064 1.3090586e-38 356 242
0.04969297 0.76599997 -0.0026861064 1.3551924e-38 357 242
0.051036026 0.76599997 -0.0026861064 1.3827797e-38 358 242
0.052379075 0.76599997 -0.0026861064 1.3919993e-38 359 242
0.053722132 0.76599997 -0.0026861064 1.4195857e-38 360 242
0.055065181 0.76599997 -0.0026861064 1.4195857e-38 361 242
0.056481879 0.76700002 -0.0026896133 1.3920697e-38 362 242
0.057826683 0.76700002 -0.0026896133 1.4105447e-38 363 242
0.059171494 0.76700002 -0.0026896133 1.465717e-38 364 242
0.060516298 0.76700002 -0.0026896133 1.4749366e-38 365 242
0.061861109 0.76700002 -0.0026896133 1.502558e-38 366 242
0.063205913 0.76700002 -0.0026896133 1.5117775e-38 367 242
0.06455072 0.76700002 -0.0026896133 1.530324e-38 368 242
0.066067353 0.76899999 -0.0026966266 1.530324e-38 369 242
0.067415662 0.76899999 -0.0026966266 1.5487984e-38 370 242
0.068763971 0.76899999 -0.0026966266 1.5487984e-38 371 242
0.070112288 0.76899999 -0.0026966266 1.5395073e-38 372 242
0.071646459 0.77100003 -0.0027036399 1.5118126e-38 373 242
0.072998285 0.77100003 -0.0027036399 1.4382728e-38 374 242
0.074350104 0.77100003 -0.0027036399 1.4014305e-38 375 242
0.075701922 0.77100003 -0.0027036399 1.3737381e-38 376 242
0.077053741 0.77100003 -0.0027036399 1.3460795e-38 377 242
0.078405559 0.77100003 -0.0027036399 1.2077548e-38 378 242
-0.059764117 0.741 -0.0038976599 1.8436939e-38 274 243
-0.0584649 0.741 -0.0038976599 1.7791569e-38 275 243
-0.057165679 0.741 -0.0038976599 1.7973749e-38 276 243
-0.05594185 0.74199998 -0.0039029196 1.7881554e-38 277 243
-0.054788161 0.74400002 -0.0039134403 1.8433616e-38 278 243
-0.05348368 0.74400002 -0.0039134403 1.8710203e-38 279 243
-0.052319467 0.74599999 -0.0039239596 1.9078247e-38 280 243
-0.051011477 0.74599999 -0.0039239596 1.9078247e-38 281 243
-0.04970349 0.74599999 -0.0039239596 1.9079671e-38 282 243
-0.048460379 0.74699998 -0.0039292197 1.9079671e-38 283 243
-0.047150634 0.74699998 -0.0039292197 1.9262983e-38 284 243
-0.045963634 0.74900001 -0.0039397399 1.907895e-38 285 243
-0.044650383 0.74900001 -0.0039397399 1.9078953e-38 286 243
-0.04333714 0.74900001 -0.0039397399 1.9078953e-38 287 243
-0.042023893 0.74900001 -0.0039397399 1.9078953e-38 288 243
-0.040873703 0.75199997 -0.0039555198 1.9078953e-38 289 243
-0.039660402 0.75400001 -0.00396604 1.8894922e-38 290 243
-0.038338386 0.75400001 -0.00396604 1.8802726e-38 291 243
-0.037016369 0.75400001 -0.00396604 1.8802373e-38 292 243
-0.035694357 0.75400001 -0.00396604 1.8618342e-38 293 243
-0.034372345 0.75400001 -0.00396604 1.8617989e-38 294 243
-0.033094164 0.755 -0.0039712996 1.8525793e-38 295 243
-0.031770397 0.755 -0.0039712996 1.8526149e-38 296 243
-0.030446632 0.755 -0.0039712996 1.8433954e-38 297 243
-0.029200014 0.75700003 -0.0039818203 1.8249202e-38 298 243
-0.027872739 0.75700003 -0.0039818203 1.8157007e-38 299 243
-0.026545467 0.75700003 -0.0039818203 1.7974048e-38 300 243
-0.025218192 0.75700003 -0.0039818203 1.7881493e-38 301 243
-0.02389092 0.75700003 -0.0039818203 1.7788209e-38 302 243
-0.02262326 0.759 -0.0039923396 1.7696013e-38 303 243
-0.02129248 0.759 -0.0039923396 1.7329379e-38 304 243
-0.0199617 0.759 -0.0039923396 1.7144988e-38 305 243
-0.01863092 0.759 -0.0039923396 1.7051713e-38 306 243
-0.017300138 0.759 -0.0039923396 1.6959517e-38 307 243
-0.015969358 0.759 -0.0039923396 1.6498909e-38 308 243
-0.014638579 0.759 -0.0039923396 1.6222681e-38 309 243
-0.0133078 0.759 -0.0039923396 1.6037937e-38 310 243
-0.01197702 0.759 -0.0039923396 1.5945741e-38 311 243
-0.01064624 0.759 -0.0039923396 1.5760629e-38 312 243
-0.00931546 0.759 -0.0039923396 1.5391848e-38 313 243
-0.0080057196 0.76099998 -0.0040028598 1.5024157e-38 314 243
-0.0066714329 0.76099998 -0.0040028598 1.5116353e-38 315 243
-0.0053371461 0.76099998 -0.0040028598 1.4840861e-38 316 243
-0.0040028598 0.76099998 -0.0040028598 1.4840861e-38 317 243
-0.00267208 0.76200002 -0.0040081199 1.4748665e-38 318 243
-0.00133604 0.76200002 -0.0040081199 1.4656111e-38 319 243
0 0.76200002 -0.0040081199 1.4563548e-38 320 243
0.00133604 0.76200002 -0.0040081199 1.4655745e-38 321 243
0.00267208 0.76200002 -0.0040081199 1.4656101e-38 322 243
0.0040081199 0.76200002 -0.0040081199 1.4748296e-38 323 243
0.0053441599 0.76200002 -0.0040081199 1.4563915e-38 324 243
0.0066801999 0.76200002 -0.0040081199 1.4379882e-38 325 243
0.0080162399 0.76200002 -0.0040081199 1.4288406e-38 326 243
0.0093522798 0.76200002 -0.0040081199 1.419621e-38 327 243
0.01068832 0.76200002 -0.0040081199 1.4288406e-38 328 243
0.01205592 0.764 -0.0040186401 1.4288406e-38 329 243
0.013395466 0.764 -0.0040186401 1.4288408e-38 330 243
0.014735013 0.764 -0.0040186401 1.4288408e-38 331 243
0.016074561 0.764 -0.0040186401 1.45632e-38 332 243
0.017414106 0.764 -0.0040186401 1.45632e-38 333 243
0.018753653 0.764 -0.0040186401 1.45632e-38 334 243
0.020093199 0.764 -0.0040186401 1.4470646e-38 335 243
0.021432746 0.764 -0.0040186401 1.3919993e-38 336 243
0.022772292 0.764 -0.0040186401 1.3827797e-38 337 243
0.024111839 0.764 -0.0040186401 1.3736681e-38 338 243
0.025518013 0.76599997 -0.0040291594 1.3644485e-38 339 243
0.026861066 0.76599997 -0.0040291594 1.3827797e-38 340 243
0.028204117 0.76599997 -0.0040291594 1.3827797e-38 341 243
0.029547172 0.76599997 -0.0040291594 1.4011473e-38 342 243
0.030890226 0.76599997 -0.0040291594 1.3919277e-38 343 243
0.032233275 0.76599997 -0.0040291594 1.3826725e-38 344 243
0.033576332 0.76599997 -0.0040291594 1.3826725e-38 345 243
0.034919381 0.76599997 -0.0040291594 1.3458666e-38 346 243
0.036262438 0.76599997 -0.0040291594 1.355122e-38 347 243
0.037605491 0.76599997 -0.0040291594 1.373453e-38 348 243
0.038948543 0.76599997 -0.0040291594 1.373453e-38 349 243
0.040291596 0.76599997 -0.0040291594 1.3641611e-38 350 243
0.041634649 0.76599997 -0.0040291594 1.345722e-38 351 243
0.042977702 0.76599997 -0.0040291594 1.3089511e-38 352 243
0.044320758 0.76599997 -0.0040291594 1.2351946e-38 353 243
0.045663811 0.76599997 -0.0040291594 1.2900446e-38 354 243
0.047006864 0.76599997 -0.0040291594 1.2900446e-38 355 243
0.048349917 0.76599997 -0.0040291594 1.2445945e-38 356 243
0.04969297 0.76599997 -0.0040291594 1.3091314e-38 357 243
0.051036026 0.76599997 -0.0040291594 1.3367189e-38 358 243
0.052379075 0.76599997 -0.0040291594 1.3459385e-38 359 243
0.053722132 0.76599997 -0.0040291594 1.3734896e-38 360 243
0.055065181 0.76599997 -0.0040291594 1.3734896e-38 361 243
0.056481879 0.76700002 -0.00403442 1.3459019e-38 362 243
0.057826683 0.76700002 -0.00403442 1.3735605e-38 363 243
0.059171494 0.76700002 -0.00403442 1.3828153e-38 364 243
0.060516298 0.76700002 -0.00403442 1.3828153e-38 365 243
0.061861109 0.76700002 -0.00403442 1.3919625e-38 366 243
0.063205913 0.76700002 -0.00403442 1.3919625e-38 367 243
0.06455072 0.76700002 -0.00403442 1.419656e-38 368 243
0.065895528 0.76700002 -0.00403442 1.4012529e-38 369 243
0.067240335 0.76700002 -0.00403442 1.4289459e-38 370 243
0.068585135 0.76700002 -0.00403442 1.4473852e-38 371 243
0.070112288 0.76899999 -0.0040449398 1.456532e-38 372 243
0.071460605 0.76899999 -0.0040449398 1.4381289e-38 373 243
0.072998285 0.77100003 -0.0040554604 1.3922106e-38 374 243
0.074350104 0.77100003 -0.0040554604 1.3461128e-38 375 243
0.075701922 0.77100003 -0.0040554604 1.3093084e-38 376 243
0.077053741 0.77100003 -0.0040554604 1.3000888e-38 377 243
0.078405559 0.77100003 -0.0040554604 1.2078994e-38 378 243
0.079964265 0.773 -0.0040659797 8.6677541e-39 379 243
-0.061063338 0.741 -0.0051968796 1.7700818e-38 273 244
-0.059764117 0.741 -0.0051968796 1.8250709e-38 274 244
-0.0584649 0.741 -0.0051968796 1.7882285e-38 275 244
-0.057165679 0.741 -0.0051968796 1.8433613e-38 276 244
-0.055866458 0.741 -0.0051968796 1.8525809e-38 277 244
-0.054640878 0.74199998 -0.0052038929 1.8894928e-38 278 244
-0.05348368 0.74400002 -0.0052179201 1.8987123e-38 279 244
-0.052179199 0.74400002 -0.0052179201 1.9262986e-38 280 244
-0.051011477 0.74599999 -0.0052319462 1.9262986e-38 281 244
-0.04970349 0.74599999 -0.0052319462 1.9355179e-38 282 244
-0.048460379 0.74699998 -0.0052389596 1.9262983e-38 283 244
-0.047150634 0.74699998 -0.0052389596 1.9354463e-38 284 244
-0.045840897 0.74699998 -0.0052389596 1.917007e-38 285 244
-0.044531155 0.74699998 -0.0052389596 1.8986402e-38 286 244
-0.04333714 0.74900001 -0.0052529867 1.8986402e-38 287 244
-0.042023893 0.74900001 -0.0052529867 1.8894925e-38 288 244
-0.040710647 0.74900001 -0.0052529867 1.8802729e-38 289 244
-0.039555199 0.75199997 -0.0052740262 1.8619417e-38 290 244
-0.038236689 0.75199997 -0.0052740262 1.8526863e-38 291 244
-0.036918186 0.75199997 -0.0052740262 1.8526147e-38 292 244
-0.035599679 0.75199997 -0.0052740262 1.8433951e-38 293 244
-0.034281172 0.75199997 -0.0052740262 1.806589e-38 294 244
-0.033050332 0.75400001 -0.0052880533 1.806589e-38 295 244
-0.03172832 0.75400001 -0.0052880533 1.8249556e-38 296 244
-0.030406307 0.75400001 -0.0052880533 1.7973329e-38 297 244
-0.029122867 0.755 -0.0052950666 1.7788932e-38 298 244
-0.027799098 0.755 -0.0052950666 1.7604539e-38 299 244
-0.026545467 0.75700003 -0.0053090933 1.7145716e-38 300 244
-0.025218192 0.75700003 -0.0053090933 1.6960966e-38 301 244
-0.02389092 0.75700003 -0.0053090933 1.7050997e-38 302 244
-0.022563647 0.75700003 -0.0053090933 1.6958801e-38 303 244
-0.02129248 0.759 -0.0053231199 1.6499618e-38 304 244
-0.0199617 0.759 -0.0053231199 1.6223031e-38 305 244
-0.018581826 0.75700003 -0.0053090933 1.5762776e-38 306 244
-0.017254554 0.75700003 -0.0053090933 1.5670581e-38 307 244
-0.015927281 0.75700003 -0.0053090933 1.5209971e-38 308 244
-0.014600007 0.75700003 -0.0053090933 1.5117775e-38 309 244
-0.013272733 0.75700003 -0.0053090933 1.5025227e-38 310 244
-0.01194546 0.75700003 -0.0053090933 1.5025227e-38 311 244
-0.01064624 0.759 -0.0053231199 1.4931962e-38 312 244
-0.00931546 0.759 -0.0053231199 1.4931962e-38 313 244
-0.0079846792 0.759 -0.0053231199 1.4748665e-38 314 244
-0.0066714329 0.76099998 -0.0053371461 1.4840861e-38 315 244
-0.0053371461 0.76099998 -0.0053371461 1.4840154e-38 316 244
-0.0040028598 0.76099998 -0.0053371461 1.4840154e-38 317 244
-0.00267208 0.76200002 -0.0053441599 1.4747961e-38 318 244
-0.00133604 0.76200002 -0.0053441599 1.4747961e-38 319 244
0 0.76200002 -0.0053441599 1.4747959e-38 320 244
0.00133604 0.76200002 -0.0053441599 1.4655763e-38 321 244
0.00267208 0.76200002 -0.0053441599 1.4656113e-38 322 244
0.0040081199 0.76200002 -0.0053441599 1.4656113e-38 323 244
0.0053441599 0.76200002 -0.0053441599 1.4380605e-38 324 244
0.0066801999 0.76200002 -0.0053441599 1.4380605e-38 325 244
0.0080162399 0.76200002 -0.0053441599 1.438025e-38 326 244
0.0093522798 0.76200002 -0.0053441599 1.4288053e-38 327 244
0.01068832 0.76200002 -0.0053441599 1.4379529e-38 328 244
0.01205592 0.764 -0.0053581866 1.4379529e-38 329 244
0.013395466 0.764 -0.0053581866 1.4288055e-38 330 244
0.014735013 0.764 -0.0053581866 1.419586e-38 331 244
0.016074561 0.764 -0.0053581866 1.419586e-38 332 244
0.017414106 0.764 -0.0053581866 1.419586e-38 333 244
0.018753653 0.764 -0.0053581866 1.4195504e-38 334 244
0.020093199 0.764 -0.0053581866 1.4011473e-38 335 244
0.021432746 0.764 -0.0053581866 1.3919999e-38 336 244
0.022772292 0.764 -0.0053581866 1.3919999e-38 337 244
0.024111839 0.764 -0.0053581866 1.3827444e-38 338 244
0.025518013 0.76599997 -0.0053722127 1.3827444e-38 339 244
0.026861066 0.76599997 -0.0053722127 1.38278e-38 340 244
0.028204117 0.76599997 -0.0053722127 1.38278e-38 341 244
0.029547172 0.76599997 -0.0053722127 1.3918924e-38 342 244
0.030890226 0.76599997 -0.0053722127 1.3918924e-38 343 244
0.032233275 0.76599997 -0.0053722127 1.3734533e-38 344 244
0.033576332 0.76599997 -0.0053722127 1.3734533e-38 345 244
0.034919381 0.76599997 -0.0053722127 1.355122e-38 346 244
0.036262438 0.76599997 -0.0053722127 1.3458666e-38 347 244
0.037605491 0.76599997 -0.0053722127 1.3366469e-38 348 244
0.038948543 0.76599997 -0.0053722127 1.3274273e-38 349 244
0.040291596 0.76599997 -0.0053722127 1.3273557e-38 350 244
0.041634649 0.76599997 -0.0053722127 1.3273557e-38 351 244
0.042977702 0.76599997 -0.0053722127 1.2995891e-38 352 244
0.044320758 0.76599997 -0.0053722127 1.2627109e-38 353 244
0.045663811 0.76599997 -0.0053722127 1.2716786e-38 354 244
0.047006864 0.76599997 -0.0053722127 1.2808982e-38 355 244
0.048349917 0.76599997 -0.0053722127 1.2628907e-38 356 244
0.04969297 0.76599997 -0.0053722127 1.3182081e-38 357 244
0.051036026 0.76599997 -0.0053722127 1.3090964e-38 358 244
0.052379075 0.76599997 -0.0053722127 1.318316e-38 359 244
0.053722132 0.76599997 -0.0053722127 1.3642337e-38 360 244
0.055065181 0.76599997 -0.0053722127 1.3734533e-38 361 244
0.056481879 0.76700002 -0.0053792265 1.3642334e-38 362 244
0.057826683 0.76700002 -0.0053792265 1.373453e-38 363 244
0.059171494 0.76700002 -0.0053792265 1.3551215e-38 364 244
0.060516298 0.76700002 -0.0053792265 1.3551215e-38 365 244
0.061861109 0.76700002 -0.0053792265 1.3734883e-38 366 244
0.063205913 0.76700002 -0.0053792265 1.3734883e-38 367 244
0.06455072 0.76700002 -0.0053792265 1.3918548e-38 368 244
0.065895528 0.76700002 -0.0053792265 1.364232e-38 369 244
0.067240335 0.76700002 -0.0053792265 1.3734135e-38 370 244
0.068585135 0.76700002 -0.0053792265 1.3641939e-38 371 244
0.06992995 0.76700002 -0.0053792265 1.3550077e-38 372 244
0.071460605 0.76899999 -0.0053932532 1.3457881e-38 373 244
0.072808921 0.76899999 -0.0053932532 1.3090528e-38 374 244
0.074350104 0.77100003 -0.0054072798 1.2998332e-38 375 244
0.075701922 0.77100003 -0.0054072798 1.2262955e-38 376 244
0.077053741 0.77100003 -0.0054072798 1.1801977e-38 377 244
0.078405559 0.77100003 -0.0054072798 1.0513113e-38 378 244
0.079964265 0.773 -0.0054213065 7.1018745e-39 379 244
-0.062194239 0.73900002 -0.0064785667 1.7976267e-38 272 245
-0.060898528 0.73900002 -0.0064785667 1.705467e-38 273 245
-0.059764117 0.741 -0.0064960998 1.8341401e-38 274 245
-0.0584649 0.741 -0.0064960998 1.8617989e-38 275 245
-0.057165679 0.741 -0.0064960998 1.9079318e-38 276 245
-0.055866458 0.741 -0.0064960998 1.9079318e-38 277 245
-0.054640878 0.74199998 -0.0065048663 1.9171866e-38 278 245
-0.053339902 0.74199998 -0.0065048663 1.9171866e-38 279 245
-0.05203893 0.74199998 -0.0065048663 1.9079674e-38 280 245
-0.050874721 0.74400002 -0.0065223998 1.9079674e-38 281 245
-0.04957024 0.74400002 -0.0065223998 1.907932e-38 282 245
-0.048395503 0.74599999 -0.0065399334 1.907932e-38 283 245
-0.047087517 0.74599999 -0.0065399334 1.8894575e-38 284 245
-0.045779534 0.74599999 -0.0065399334 1.8802379e-38 285 245
-0.044471547 0.74599999 -0.0065399334 1.8802379e-38 286 245
-0.043221418 0.74699998 -0.0065486995 1.8617989e-38 287 245
-0.041911677 0.74699998 -0.0065486995 1.8526868e-38 288 245
-0.040710647 0.74900001 -0.0065662335 1.8526868e-38 289 245
-0.039449997 0.75 -0.006575 1.8251004e-38 290 245
-0.038135 0.75 -0.006575 1.8066612e-38 291 245
-0.036819998 0.75 -0.006575 1.8065887e-38 292 245
-0.035505001 0.75 -0.006575 1.7881496e-38 293 245
-0.034281172 0.75199997 -0.0065925326 1.7698184e-38 294 245
-0.032962665 0.75199997 -0.0065925326 1.7605988e-38 295 245
-0.031644158 0.75199997 -0.0065925326 1.7788932e-38 296 245
-0.030406307 0.75400001 -0.0066100666 1.7604539e-38 297 245
-0.029084291 0.75400001 -0.0066100666 1.7237183e-38 298 245
-0.027799098 0.755 -0.0066188332 1.6960598e-38 299 245
-0.026475333 0.755 -0.0066188332 1.6500347e-38 300 245
-0.025151566 0.755 -0.0066188332 1.6407793e-38 301 245
-0.023827799 0.755 -0.0066188332 1.6130851e-38 302 245
-0.022563647 0.75700003 -0.0066363667 1.5854624e-38 303 245
-0.021236373 0.75700003 -0.0066363667 1.5486568e-38 304 245
-0.019909101 0.75700003 -0.0066363667 1.5301816e-38 305 245
-0.018532733 0.755 -0.0066188332 1.5209284e-38 306 245
-0.017208965 0.755 -0.0066188332 1.5209284e-38 307 245
-0.015927281 0.75700003 -0.0066363667 1.484051e-38 308 245
-0.014600007 0.75700003 -0.0066363667 1.4747956e-38 309 245
-0.013272733 0.75700003 -0.0066363667 1.4565e-38 310 245
-0.01194546 0.75700003 -0.0066363667 1.4565e-38 311 245
-0.01064624 0.759 -0.0066538998 1.4564997e-38 312 245
-0.00931546 0.759 -0.0066538998 1.4564997e-38 313 245
-0.0079846792 0.759 -0.0066538998 1.4564997e-38 314 245
-0.0066538998 0.759 -0.0066538998 1.4564997e-38 315 245
-0.0053371461 0.76099998 -0.0066714329 1.4565e-38 316 245
-0.0040028598 0.76099998 -0.0066714329 1.4565e-38 317 245
-0.0026685731 0.76099998 -0.0066714329 1.4747956e-38 318 245
-0.0013342865 0.76099998 -0.0066714329 1.4747956e-38 319 245
0 0.76200002 -0.0066801999 1.4564997e-38 320 245
0.00133604 0.76200002 -0.0066801999 1.4472801e-38 321 245
0.00267208 0.76200002 -0.0066801999 1.4473154e-38 322 245
0.0040081199 0.76200002 -0.0066801999 1.4473154e-38 323 245
0.0053441599 0.76200002 -0.0066801999 1.4380603e-38 324 245
0.0066801999 0.76200002 -0.0066801999 1.4288406e-38 325 245
0.0080162399 0.76200002 -0.0066801999 1.4104737e-38 326 245
0.0093522798 0.76200002 -0.0066801999 1.4104737e-38 327 245
0.01068832 0.76200002 -0.0066801999 1.4288055e-38 328 245
0.01205592 0.764 -0.006697733 1.4288055e-38 329 245
0.013395466 0.764 -0.006697733 1.4288055e-38 330 245
0.014735013 0.764 -0.006697733 1.4288055e-38 331 245
0.016074561 0.764 -0.006697733 1.4195857e-38 332 245
0.017414106 0.764 -0.006697733 1.4195857e-38 333 245
0.018753653 0.764 -0.006697733 1.3919996e-38 334 245
0.020093199 0.764 -0.006697733 1.4012192e-38 335 245
0.021432746 0.764 -0.006697733 1.3736328e-38 336 245
0.022772292 0.764 -0.006697733 1.3644132e-38 337 245
0.024111839 0.764 -0.006697733 1.3827447e-38 338 245
0.025451386 0.764 -0.006697733 1.3735251e-38 339 245
0.026790932 0.764 -0.006697733 1.3735251e-38 340 245
0.028204117 0.76599997 -0.0067152665 1.355122e-38 341 245
0.029547172 0.76599997 -0.0067152665 1.3550864e-38 342 245
0.030890226 0.76599997 -0.0067152665 1.3550864e-38 343 245
0.032233275 0.76599997 -0.0067152665 1.3459385e-38 344 245
0.033576332 0.76599997 -0.0067152665 1.3367189e-38 345 245
0.034919381 0.76599997 -0.0067152665 1.3183157e-38 346 245
0.036262438 0.76599997 -0.0067152665 1.3090961e-38 347 245
0.037605491 0.76599997 -0.0067152665 1.3181359e-38 348 245
0.038948543 0.76599997 -0.0067152665 1.3089163e-38 349 245
0.040291596 0.76599997 -0.0067152665 1.2996247e-38 350 245
0.041634649 0.76599997 -0.0067152665 1.2996247e-38 351 245
0.042977702 0.76599997 -0.0067152665 1.2627832e-38 352 245
0.044320758 0.76599997 -0.0067152665 1.2166852e-38 353 245
0.045663811 0.76599997 -0.0067152665 1.1982112e-38 354 245
0.047006864 0.76599997 -0.0067152665 1.2166143e-38 355 245
0.048349917 0.76599997 -0.0067152665 1.2077913e-38 356 245
0.04969297 0.76599997 -0.0067152665 1.235486e-38 357 245
