# .PCD v.7 - Point Cloud Data file format
FIELDS x y z rgb imX imY
SIZE 4 4 4 4 4 4
TYPE F F F F F F
COUNT 1 1 1 1 1 1
WIDTH 846
HEIGHT 1
VIEWPOINT 0 0 0 1 0 0 0
POINTS 846
DATA ascii
0.036279973 0.73900002 -0.00388714 1.8064853e-38 348 243
0.037575684 0.73900002 -0.00388714 1.7603875e-38 349 243
0.0388714 0.73900002 -0.00388714 1.7328385e-38 350 243
0.0133078 0.759 -0.0053231199 1.7790808e-38 330 244
0.014600007 0.75700003 -0.0053090933 1.7329831e-38 331 244
0.015885198 0.755 -0.0052950666 1.7973009e-38 332 244
0.017208965 0.755 -0.0052950666 1.8065206e-38 333 244
0.018508185 0.75400001 -0.0052880533 1.8433266e-38 334 244
0.0197776 0.75199997 -0.0052740262 1.8248876e-38 335 244
0.021011947 0.74900001 -0.0052529867 1.8432547e-38 336 244
0.022325192 0.74900001 -0.0052529867 1.8339993e-38 337 244
0.02363844 0.74900001 -0.0052529867 1.8249229e-38 338 244
0.024951685 0.74900001 -0.0052529867 1.843326e-38 339 244
0.026264934 0.74900001 -0.0052529867 1.8342499e-38 340 244
0.027504537 0.74699998 -0.0052389596 1.8342499e-38 341 244
0.028814279 0.74699998 -0.0052389596 1.8618007e-38 342 244
0.03008369 0.74599999 -0.0052319462 1.8710203e-38 343 244
0.031391677 0.74599999 -0.0052319462 1.8710559e-38 344 244
0.032612 0.74400002 -0.0052179201 1.8802756e-38 345 244
0.033688545 0.73900002 -0.0051828534 1.8711275e-38 346 244
0.034936916 0.73799998 -0.0051758396 1.8527244e-38 347 244
0.036230877 0.73799998 -0.0051758396 1.834285e-38 348 244
0.037524838 0.73799998 -0.0051758396 1.8065903e-38 349 244
0.038713597 0.736 -0.005161813 1.7973357e-38 350 244
0.040004052 0.736 -0.005161813 1.7789326e-38 351 244
0.041294504 0.736 -0.005161813 1.6961771e-38 352 244
0.042584959 0.736 -0.005161813 1.7237999e-38 353 244
0.043875411 0.736 -0.005161813 1.6873946e-38 354 244
0.010674292 0.76099998 -0.0066714329 1.7699706e-38 328 245
0.01197702 0.759 -0.0066538998 1.6501162e-38 329 245
0.0133078 0.759 -0.0066538998 1.742056e-38 330 245
0.014600007 0.75700003 -0.0066363667 1.760495e-38 331 245
0.015885198 0.755 -0.0066188332 1.7973006e-38 332 245
0.017208965 0.755 -0.0066188332 1.8157399e-38 333 245
0.018508185 0.75400001 -0.0066100666 1.8065203e-38 334 245
0.0197776 0.75199997 -0.0065925326 1.7788975e-38 335 245
0.021011947 0.74900001 -0.0065662335 1.7972288e-38 336 245
0.022325192 0.74900001 -0.0065662335 1.8064483e-38 337 245
0.023575317 0.74699998 -0.0065486995 1.8157749e-38 338 245
0.024885058 0.74699998 -0.0065486995 1.8157749e-38 339 245
0.026194798 0.74699998 -0.0065486995 1.8066989e-38 340 245
0.027504537 0.74699998 -0.0065486995 1.8066989e-38 341 245
0.028775707 0.74599999 -0.0065399334 1.8434692e-38 342 245
0.03008369 0.74599999 -0.0065399334 1.8526888e-38 343 245
0.031307522 0.74400002 -0.0065223998 1.8710553e-38 344 245
0.032524332 0.74199998 -0.0065048663 1.8710553e-38 345 245
0.033688545 0.73900002 -0.0064785667 1.8711625e-38 346 245
0.034936916 0.73799998 -0.0064697997 1.8527594e-38 347 245
0.036230877 0.73799998 -0.0064697997 1.8803455e-38 348 245
0.037524838 0.73799998 -0.0064697997 1.871126e-38 349 245
0.038713597 0.736 -0.0064522666 1.880166e-38 350 245
0.040004052 0.736 -0.0064522666 1.8709106e-38 351 245
0.041294504 0.736 -0.0064522666 1.7880795e-38 352 245
0.042584959 0.736 -0.0064522666 1.714323e-38 353 245
0.043875411 0.736 -0.0064522666 1.631747e-38 354 245
0.045043133 0.73400003 -0.006434733 1.7239787e-38 355 245
0.0093400059 0.76099998 -0.0080057196 1.7328793e-38 327 246
0.010674292 0.76099998 -0.0080057196 1.7052519e-38 328 246
0.01197702 0.759 -0.0079846792 1.677593e-38 329 246
0.0133078 0.759 -0.0079846792 1.7511667e-38 330 246
0.014600007 0.75700003 -0.0079636406 1.723472e-38 331 246
0.015885198 0.755 -0.0079425992 1.7325118e-38 332 246
0.017208965 0.755 -0.0079425992 1.7232922e-38 333 246
0.018508185 0.75400001 -0.00793208 1.6866307e-38 334 246
0.0197776 0.75199997 -0.0079110395 1.7327284e-38 335 246
0.021011947 0.74900001 -0.0078794798 1.742056e-38 336 246
0.022325192 0.74900001 -0.0078794798 1.7697145e-38 337 246
0.023575317 0.74699998 -0.0078584393 1.8065554e-38 338 246
0.024885058 0.74699998 -0.0078584393 1.8065554e-38 339 246
0.026194798 0.74699998 -0.0078584393 1.8250298e-38 340 246
0.027467718 0.74599999 -0.0078479191 1.8250298e-38 341 246
0.02869856 0.74400002 -0.0078268806 1.8526165e-38 342 246
0.030003037 0.74400002 -0.0078268806 1.861836e-38 343 246
0.031223357 0.74199998 -0.0078058392 1.880167e-38 344 246
0.032392833 0.73900002 -0.0077742799 1.8894224e-38 345 246
0.033642959 0.73799998 -0.0077637597 1.8893868e-38 346 246
0.034842238 0.736 -0.0077427197 1.8986064e-38 347 246
0.036132693 0.736 -0.0077427197 1.8802756e-38 348 246
0.037423145 0.736 -0.0077427197 1.8894952e-38 349 246
0.038608398 0.73400003 -0.0077216802 1.8710559e-38 350 246
0.039840993 0.73299998 -0.0077111595 1.8618005e-38 351 246
0.041126184 0.73299998 -0.0077111595 1.8433969e-38 352 246
0.042411376 0.73299998 -0.0077111595 1.8065187e-38 353 246
0.043756187 0.73400003 -0.0077216802 1.76053e-38 354 246
0.045043133 0.73400003 -0.0077216802 1.7328715e-38 355 246
0.045951359 0.72799999 -0.0076585598 1.6410412e-38 356 246
0.0053932532 0.76899999 -0.0094381925 1.6040187e-38 324 247
0.006724033 0.76700002 -0.0094136465 1.5947991e-38 325 247
0.00806884 0.76700002 -0.0094136465 1.594689e-38 326 247
0.0093400059 0.76099998 -0.0093400059 1.5854694e-38 327 247
0.010674292 0.76099998 -0.0093400059 1.6315287e-38 328 247
0.01197702 0.759 -0.00931546 1.649932e-38 329 247
0.0133078 0.759 -0.00931546 1.67741e-38 330 247
0.014600007 0.75700003 -0.0092909131 1.6681546e-38 331 247
0.015885198 0.755 -0.0092663663 1.5943968e-38 332 247
0.017186172 0.75400001 -0.0092540924 1.5113849e-38 333 247
0.018459093 0.75199997 -0.0092295464 1.4840142e-38 334 247
0.019724999 0.75 -0.0092049995 1.5300761e-38 335 247
0.021011947 0.74900001 -0.0091927266 1.6131615e-38 336 247
0.022325192 0.74900001 -0.0091927266 1.686918e-38 337 247
0.023575317 0.74699998 -0.0091681797 1.7421988e-38 338 247
0.024851745 0.74599999 -0.0091559067 1.7514184e-38 339 247
0.026159734 0.74599999 -0.0091559067 1.8157749e-38 340 247
0.027394081 0.74400002 -0.0091313599 1.8250304e-38 341 247
0.028621411 0.74199998 -0.009106813 1.8066633e-38 342 247
0.029922385 0.74199998 -0.009106813 1.8343218e-38 343 247
0.03109712 0.73900002 -0.0090699932 1.8434695e-38 344 247
0.032348998 0.73799998 -0.0090577193 1.8434695e-38 345 247
0.033551786 0.736 -0.0090331733 1.880132e-38 346 247
0.03474756 0.73400003 -0.0090086265 1.8893515e-38 347 247
0.036034506 0.73400003 -0.0090086265 1.88024e-38 348 247
0.037321456 0.73400003 -0.0090086265 1.8894954e-38 349 247
0.038555797 0.73299998 -0.0089963535 1.8985345e-38 350 247
0.039732285 0.73100001 -0.0089718066 1.8893149e-38 351 247
0.041013971 0.73100001 -0.0089718066 1.89839e-38 352 247
0.042411376 0.73299998 -0.0089963535 1.8891705e-38 353 247
0.043398503 0.72799999 -0.0089349858 1.8341404e-38 354 247
0.044674929 0.72799999 -0.0089349858 1.7788231e-38 355 247
0.045951359 0.72799999 -0.0089349858 1.6683351e-38 356 247
0.047162913 0.727 -0.0089227129 1.6959578e-38 357 247
0.048437584 0.727 -0.0089227129 1.677957e-38 358 247
0.0040659797 0.773 -0.010842613 1.4379567e-38 323 248
0.0053932532 0.76899999 -0.010786506 1.5024568e-38 324 248
0.006724033 0.76700002 -0.010758453 1.5485186e-38 325 248
0.00806884 0.76700002 -0.010758453 1.5302227e-38 326 248
0.0093768267 0.764 -0.010716373 1.5394424e-38 327 248
0.010674292 0.76099998 -0.010674292 1.5669922e-38 328 248
0.01197702 0.759 -0.01064624 1.5669922e-38 329 248
0.0133078 0.759 -0.01064624 1.5760316e-38 330 248
0.014600007 0.75700003 -0.010618187 1.566812e-38 331 248
0.01586416 0.75400001 -0.010576107 1.4837987e-38 332 248
0.017186172 0.75400001 -0.010576107 1.4469204e-38 333 248
0.018459093 0.75199997 -0.010548052 1.401145e-38 334 248
0.019724999 0.75 -0.01052 1.3734863e-38 335 248
0.020955838 0.74699998 -0.010477919 1.4563551e-38 336 248
0.022265578 0.74699998 -0.010477919 1.6314909e-38 337 248
0.023543758 0.74599999 -0.010463892 1.6959928e-38 338 248
0.024851745 0.74599999 -0.010463892 1.7421266e-38 339 248
0.026089599 0.74400002 -0.01043584 1.7973357e-38 340 248
0.027320439 0.74199998 -0.010407786 1.8065554e-38 341 248
0.028582839 0.741 -0.010393759 1.8157749e-38 342 248
0.029801406 0.73900002 -0.010365707 1.8250304e-38 343 248
0.030970879 0.736 -0.010323626 1.8526165e-38 344 248
0.032173667 0.73400003 -0.010295574 1.8526165e-38 345 248
0.033460613 0.73400003 -0.010295574 1.8800957e-38 346 248
0.034700219 0.73299998 -0.010281546 1.8985348e-38 347 248
0.035985414 0.73299998 -0.010281546 1.9077548e-38 348 248
0.037270606 0.73299998 -0.010281546 1.9261579e-38 349 248
0.038555797 0.73299998 -0.010281546 1.9077548e-38 350 248
0.039732285 0.73100001 -0.010253493 1.8985351e-38 351 248
0.041013971 0.73100001 -0.010253493 1.8893152e-38 352 248
0.042295661 0.73100001 -0.010253493 1.8800957e-38 353 248
0.043398503 0.72799999 -0.010211413 1.8433248e-38 354 248
0.044674929 0.72799999 -0.010211413 1.8248855e-38 355 248
0.045888241 0.727 -0.010197386 1.769713e-38 356 248
0.047033165 0.72500002 -0.010169334 1.751238e-38 357 248
0.048304334 0.72500002 -0.010169334 1.6039446e-38 358 248
0.04937036 0.722 -0.010127253 1.6223837e-38 359 248
0.050636265 0.722 -0.010127253 1.6504796e-38 360 248
0.0027141599 0.77399999 -0.01221372 1.4011125e-38 322 249
0.0040554604 0.77100003 -0.01216638 1.4195156e-38 323 249
0.0053932532 0.76899999 -0.012134819 1.4932353e-38 324 249
0.006724033 0.76700002 -0.01210326 1.5301135e-38 325 249
0.0080583189 0.76599997 -0.012087479 1.5209663e-38 326 249
0.0093400059 0.76099998 -0.012008579 1.5301858e-38 327 249
0.010674292 0.76099998 -0.012008579 1.5485539e-38 328 249
0.01197702 0.759 -0.01197702 1.5485539e-38 329 249
0.013272733 0.75700003 -0.01194546 1.5577016e-38 330 249
0.014561433 0.755 -0.011913899 1.548482e-38 331 249
0.01586416 0.75400001 -0.01189812 1.5392259e-38 332 249
0.017140586 0.75199997 -0.011866559 1.5392259e-38 333 249
0.018409999 0.75 -0.011835 1.5023823e-38 334 249
0.0196987 0.74900001 -0.01181922 1.5023823e-38 335 249
0.020955838 0.74699998 -0.011787659 1.5391516e-38 336 249
0.022235774 0.74599999 -0.011771879 1.6221278e-38 337 249
0.023543758 0.74599999 -0.011771879 1.6774815e-38 338 249
0.02478512 0.74400002 -0.011740319 1.751238e-38 339 249
0.026019465 0.74199998 -0.01170876 1.7880445e-38 340 249
0.027283618 0.741 -0.01169298 1.7972641e-38 341 249
0.028505694 0.73900002 -0.01166142 1.7973354e-38 342 249
0.029599773 0.73400003 -0.011582521 1.8158105e-38 343 249
0.030844638 0.73299998 -0.011566739 1.8433969e-38 344 249
0.032129832 0.73299998 -0.011566739 1.8433969e-38 345 249
0.033415023 0.73299998 -0.011566739 1.8708758e-38 346 249
0.034605537 0.73100001 -0.01153518 1.8985345e-38 347 249
0.035838135 0.73000002 -0.011519399 1.8893871e-38 348 249
0.037118066 0.73000002 -0.011519399 1.9078264e-38 349 249
0.038398001 0.73000002 -0.011519399 1.9077897e-38 350 249
0.039677933 0.73000002 -0.011519399 1.9077897e-38 351 249
0.040845651 0.72799999 -0.01148784 1.8985698e-38 352 249
0.042122077 0.72799999 -0.01148784 1.8893503e-38 353 249
0.043219667 0.72500002 -0.0114405 1.8709109e-38 354 249
0.044490833 0.72500002 -0.0114405 1.843288e-38 355 249
0.045572639 0.722 -0.01139316 1.8156654e-38 356 249
0.046838548 0.722 -0.01139316 1.7880427e-38 357 249
0.048104454 0.722 -0.01139316 1.6867013e-38 358 249
0.04937036 0.722 -0.01139316 1.6406035e-38 359 249
0.050636265 0.722 -0.01139316 1.5948354e-38 360 249
0.051974058 0.72299999 -0.01140894 1.6593724e-38 361 249
0.0027141599 0.77399999 -0.013570799 1.4011505e-38 322 250
0.0040554604 0.77100003 -0.013518199 1.428845e-38 323 250
0.0053932532 0.76899999 -0.013483133 1.5024918e-38 324 250
0.006724033 0.76700002 -0.013448066 1.5117114e-38 325 250
0.0080583189 0.76599997 -0.013430533 1.5026343e-38 326 250
0.0093400059 0.76099998 -0.013342866 1.5118539e-38 327 250
0.010674292 0.76099998 -0.013342866 1.5209663e-38 328 250
0.01197702 0.759 -0.0133078 1.5209663e-38 329 250
0.013272733 0.75700003 -0.013272733 1.5485176e-38 330 250
0.014542146 0.75400001 -0.013220133 1.5485176e-38 331 250
0.015822079 0.75199997 -0.013185065 1.5392975e-38 332 250
0.017140586 0.75199997 -0.013185065 1.5485171e-38 333 250
0.018409999 0.75 -0.01315 1.5944334e-38 334 250
0.0196987 0.74900001 -0.013132467 1.603653e-38 335 250
0.020927785 0.74599999 -0.013079867 1.6129081e-38 336 250
0.022235774 0.74599999 -0.013079867 1.6497505e-38 337 250
0.023480639 0.74400002 -0.0130448 1.6589706e-38 338 250
0.02478512 0.74400002 -0.0130448 1.7235076e-38 339 250
0.025984399 0.741 -0.0129922 1.7329424e-38 340 250
0.02709952 0.736 -0.012904533 1.7421619e-38 341 250
0.028389972 0.736 -0.012904533 1.8065189e-38 342 250
0.029478792 0.73100001 -0.012816866 1.8065189e-38 343 250
0.03076048 0.73100001 -0.012816866 1.8340696e-38 344 250
0.031998333 0.73000002 -0.012799333 1.843325e-38 345 250
0.033278264 0.73000002 -0.012799333 1.8708758e-38 346 250
0.034463517 0.72799999 -0.012764266 1.8893149e-38 347 250
0.035739943 0.72799999 -0.012764266 1.8801676e-38 348 250
0.036965527 0.727 -0.012746733 1.8893871e-38 349 250
0.038240198 0.727 -0.012746733 1.898642e-38 350 250
0.039243106 0.722 -0.012659066 1.898642e-38 351 250
0.040509012 0.722 -0.012659066 1.8986054e-38 352 250
0.041485619 0.71700001 -0.0125714 1.88935e-38 353 250
0.042742759 0.71700001 -0.0125714 1.8801304e-38 354 250
0.043999899 0.71700001 -0.0125714 1.8616913e-38 355 250
0.045446403 0.72000003 -0.012624 1.8248849e-38 356 250
0.0467088 0.72000003 -0.012624 1.7972623e-38 357 250
0.0479712 0.72000003 -0.012624 1.760421e-38 358 250
0.04937036 0.722 -0.012659066 1.7419817e-38 359 250
0.050636265 0.722 -0.012659066 1.6314938e-38 360 250
0.051902171 0.722 -0.012659066 1.5669569e-38 361 250
0.053168077 0.722 -0.012659066 1.5304084e-38 362 250
0.0027141599 0.77399999 -0.014927879 1.3918223e-38 322 251
0.0040659797 0.773 -0.014908593 1.4471397e-38 323 251
0.0053932532 0.76899999 -0.014831445 1.5117117e-38 324 251
0.006724033 0.76700002 -0.014792874 1.5024921e-38 325 251
0.0080583189 0.76599997 -0.014773586 1.4841954e-38 326 251
0.0093400059 0.76099998 -0.014677152 1.5026343e-38 327 251
0.010674292 0.76099998 -0.014677152 1.5300779e-38 328 251
0.01197702 0.759 -0.014638579 1.5300779e-38 329 251
0.013272733 0.75700003 -0.014600007 1.5392981e-38 330 251
0.014542146 0.75400001 -0.014542146 1.5485176e-38 331 251
0.015822079 0.75199997 -0.014503572 1.5668842e-38 332 251
0.017140586 0.75199997 -0.014503572 1.5668842e-38 333 251
0.018409999 0.75 -0.014465 1.585322e-38 334 251
0.0196987 0.74900001 -0.014445714 1.6037251e-38 335 251
0.020927785 0.74599999 -0.014387853 1.6129446e-38 336 251
0.022176161 0.74400002 -0.01434928 1.6221641e-38 337 251
0.023417519 0.74199998 -0.014310705 1.6314196e-38 338 251
0.024685178 0.741 -0.01429142 1.6774815e-38 339 251
0.025879199 0.73799998 -0.014233559 1.6776613e-38 340 251
0.02702588 0.73400003 -0.014156413 1.705356e-38 341 251
0.028312827 0.73400003 -0.014156413 1.7788244e-38 342 251
0.029478792 0.73100001 -0.014098554 1.7972635e-38 343 251
0.030718399 0.73000002 -0.014079267 1.8248855e-38 344 251
0.031910665 0.72799999 -0.014040692 1.8433248e-38 345 251
0.033187091 0.72799999 -0.014040692 1.8616563e-38 346 251
0.03422682 0.72299999 -0.01394426 1.8708758e-38 347 251
0.035445385 0.722 -0.013924973 1.8800957e-38 348 251
0.036609601 0.72000003 -0.0138864 1.8893152e-38 349 251
0.037714198 0.71700001 -0.013828539 1.8985701e-38 350 251
0.038971342 0.71700001 -0.013828539 1.8985701e-38 351 251
0.040228479 0.71700001 -0.013828539 1.8894221e-38 352 251
0.041485619 0.71700001 -0.013828539 1.8894221e-38 353 251
0.042683143 0.71600002 -0.013809253 1.8617639e-38 354 251
0.043938532 0.71600002 -0.013809253 1.8433248e-38 355 251
0.045257039 0.71700001 -0.013828539 1.8341048e-38 356 251
0.046514176 0.71700001 -0.013828539 1.8156656e-38 357 251
0.04777132 0.71700001 -0.013828539 1.7697478e-38 358 251
0.04902846 0.71700001 -0.013828539 1.7420889e-38 359 251
0.050425861 0.71899998 -0.013867113 1.7235073e-38 360 251
0.05168651 0.71899998 -0.013867113 1.6681899e-38 361 251
0.052726239 0.71600002 -0.013809253 1.5395168e-38 362 251
0.053981625 0.71600002 -0.013809253 1.6317123e-38 363 251
0.0040659797 0.773 -0.016263919 1.3735627e-38 323 252
0.0053932532 0.76899999 -0.016179759 1.4288798e-38 324 252
0.006724033 0.76700002 -0.01613768 1.4473548e-38 325 252
0.0080583189 0.76599997 -0.016116638 1.5117114e-38 326 252
0.0093400059 0.76099998 -0.016011439 1.4932723e-38 327 252
0.010674292 0.76099998 -0.016011439 1.4932367e-38 328 252
0.01197702 0.759 -0.015969358 1.5024921e-38 329 252
0.013272733 0.75700003 -0.015927281 1.5392625e-38 330 252
0.014561433 0.755 -0.015885198 1.5392625e-38 331 252
0.015822079 0.75199997 -0.015822079 1.548482e-38 332 252
0.017140586 0.75199997 -0.015822079 1.5577016e-38 333 252
0.018409999 0.75 -0.01578 1.5760681e-38 334 252
0.0196987 0.74900001 -0.01575896 1.5853237e-38 335 252
0.020955838 0.74699998 -0.015716879 1.6129095e-38 336 252
0.022176161 0.74400002 -0.015653761 1.6221291e-38 337 252
0.023417519 0.74199998 -0.015611678 1.60387e-38 338 252
0.024618553 0.73900002 -0.01554856 1.6223092e-38 339 252
0.025809066 0.736 -0.015485439 1.649932e-38 340 252
0.02702588 0.73400003 -0.01544336 1.6868461e-38 341 252
0.028274251 0.73299998 -0.015422319 1.7237591e-38 342 252
0.029438468 0.73000002 -0.0153592 1.7421982e-38 343 252
0.030634239 0.72799999 -0.01531712 1.8065187e-38 344 252
0.03186683 0.727 -0.015296079 1.8249579e-38 345 252
0.032913569 0.722 -0.015190879 1.8616563e-38 346 252
0.034084801 0.72000003 -0.0151488 1.8708758e-38 347 252
0.035199918 0.71700001 -0.015085679 1.8800957e-38 348 252
0.036457058 0.71700001 -0.015085679 1.8800957e-38 349 252
0.037661601 0.71600002 -0.01506464 1.8894224e-38 350 252
0.038916986 0.71600002 -0.01506464 1.8894224e-38 351 252
0.040172372 0.71600002 -0.01506464 1.8894221e-38 352 252
0.041427758 0.71600002 -0.01506464 1.8802026e-38 353 252
0.042563915 0.71399999 -0.015022559 1.880166e-38 354 252
0.043815799 0.71399999 -0.015022559 1.8709106e-38 355 252
0.045193922 0.71600002 -0.01506464 1.8617263e-38 356 252
0.046449307 0.71600002 -0.01506464 1.8341035e-38 357 252
0.047704693 0.71600002 -0.01506464 1.815736e-38 358 252
0.048960082 0.71600002 -0.01506464 1.7788579e-38 359 252
0.050215468 0.71600002 -0.01506464 1.7420524e-38 360 252
0.051470853 0.71600002 -0.01506464 1.7327969e-38 361 252
0.052726239 0.71600002 -0.01506464 1.5948303e-38 362 252
0.053830836 0.71399999 -0.015022559 1.5487326e-38 363 252
0.05508272 0.71399999 -0.015022559 1.5213686e-38 364 252
0.0053932532 0.76899999 -0.017528072 1.2632507e-38 324 253
0.006724033 0.76700002 -0.017482487 1.3277876e-38 325 253
0.0080583189 0.76599997 -0.017459691 1.4379546e-38 326 253
0.0093400059 0.76099998 -0.017345725 1.44721e-38 327 253
0.01064624 0.759 -0.017300138 1.5114593e-38 328 253
0.01197702 0.759 -0.017300138 1.5207147e-38 329 253
0.013272733 0.75700003 -0.017254554 1.5299707e-38 330 253
0.014542146 0.75400001 -0.017186172 1.5392262e-38 331 253
0.015822079 0.75199997 -0.017140586 1.5575574e-38 332 253
0.017095 0.75 -0.017095 1.5759965e-38 333 253
0.018409999 0.75 -0.017095 1.5943633e-38 334 253
0.0196987 0.74900001 -0.017072206 1.6128026e-38 335 253
0.020955838 0.74699998 -0.017026618 1.6128023e-38 336 253
0.022176161 0.74400002 -0.016958239 1.6220578e-38 337 253
0.023291279 0.73799998 -0.016821479 1.6221291e-38 338 253
0.024518613 0.736 -0.016775893 1.6406041e-38 339 253
0.025738932 0.73400003 -0.016730307 1.6682615e-38 340 253
0.026989058 0.73299998 -0.016707512 1.6867367e-38 341 253
0.028197108 0.73100001 -0.016661927 1.7420889e-38 342 253
0.029357811 0.72799999 -0.016593546 1.7697478e-38 343 253
0.030592158 0.727 -0.016570752 1.824813e-38 344 253
0.03156 0.72000003 -0.0164112 1.843288e-38 345 253
0.0328224 0.72000003 -0.0164112 1.861691e-38 346 253
0.033942781 0.71700001 -0.016342819 1.8709106e-38 347 253
0.035150826 0.71600002 -0.016320027 1.8617992e-38 348 253
0.036406212 0.71600002 -0.016320027 1.8617992e-38 349 253
0.037556399 0.71399999 -0.016274439 1.8802023e-38 350 253
0.038808275 0.71399999 -0.016274439 1.8894219e-38 351 253
0.040004052 0.713 -0.016251646 1.8894221e-38 352 253
0.041254178 0.713 -0.016251646 1.8802026e-38 353 253
0.042504307 0.713 -0.016251646 1.8618714e-38 354 253
0.043754432 0.713 -0.016251646 1.8433964e-38 355 253
0.045067675 0.71399999 -0.016274439 1.8250288e-38 356 253
0.046319555 0.71399999 -0.016274439 1.8157733e-38 357 253
0.047571439 0.71399999 -0.016274439 1.7790748e-38 358 253
0.048823316 0.71399999 -0.016274439 1.7606357e-38 359 253
0.050075196 0.71399999 -0.016274439 1.7330493e-38 360 253
0.05132708 0.71399999 -0.016274439 1.696171e-38 361 253
0.052505318 0.713 -0.016251646 1.6960284e-38 362 253
0.053755447 0.713 -0.016251646 1.6499306e-38 363 253
0.05508272 0.71399999 -0.016274439 1.5671402e-38 364 253
0.0563346 0.71399999 -0.016274439 1.6869944e-38 365 253
0.006724033 0.76700002 -0.018827293 1.2722904e-38 325 254
0.0080583189 0.76599997 -0.018802745 1.3551236e-38 326 254
0.0093400059 0.76099998 -0.018680012 1.3827823e-38 327 254
0.01064624 0.759 -0.01863092 1.4471394e-38 328 254
0.01194546 0.75700003 -0.018581826 1.4655785e-38 329 254
0.013237666 0.755 -0.018532733 1.4932372e-38 330 254
0.014542146 0.75400001 -0.018508185 1.4932372e-38 331 254
0.015822079 0.75199997 -0.018459093 1.5207883e-38 332 254
0.017095 0.75 -0.018409999 1.5300079e-38 333 254
0.018409999 0.75 -0.018409999 1.5392627e-38 334 254
0.0196987 0.74900001 -0.018385453 1.5577019e-38 335 254
0.020927785 0.74599999 -0.018311813 1.6036193e-38 336 254
0.022116546 0.74199998 -0.018213626 1.6128748e-38 337 254
0.023228159 0.736 -0.018066347 1.6129821e-38 338 254
0.024451986 0.73400003 -0.018017253 1.6314211e-38 339 254
0.025703866 0.73299998 -0.017992707 1.6131965e-38 340 254
0.026915418 0.73100001 -0.017943613 1.6316358e-38 341 254
0.028197108 0.73100001 -0.017943613 1.7235779e-38 342 254
0.029317487 0.727 -0.017845426 1.7604563e-38 343 254
0.030381758 0.722 -0.017722692 1.815701e-38 344 254
0.03156 0.72000003 -0.017673599 1.8341401e-38 345 254
0.032685637 0.71700001 -0.017599959 1.843432e-38 346 254
0.03389544 0.71600002 -0.017575413 1.843432e-38 347 254
0.035150826 0.71600002 -0.017575413 1.8526515e-38 348 254
0.036253672 0.713 -0.017501773 1.8526515e-38 349 254
0.037503798 0.713 -0.017501773 1.8618711e-38 350 254
0.038753927 0.713 -0.017501773 1.8710906e-38 351 254
0.039835732 0.70999998 -0.017428132 1.8802023e-38 352 254
0.041080594 0.70999998 -0.017428132 1.8802023e-38 353 254
0.042325463 0.70999998 -0.017428132 1.8893856e-38 354 254
0.043570329 0.70999998 -0.017428132 1.880166e-38 355 254
0.045004558 0.713 -0.017501773 1.8526149e-38 356 254
0.046254687 0.713 -0.017501773 1.8433954e-38 357 254
0.047504812 0.713 -0.017501773 1.8158089e-38 358 254
0.048754938 0.713 -0.017501773 1.7973339e-38 359 254
0.050005067 0.713 -0.017501773 1.7605632e-38 360 254
0.05132708 0.71399999 -0.017526319 1.742124e-38 361 254
0.052505318 0.713 -0.017501773 1.7052461e-38 362 254
0.053755447 0.713 -0.017501773 1.6775873e-38 363 254
0.05508272 0.71399999 -0.017526319 1.5855401e-38 364 254
0.0563346 0.71399999 -0.017526319 1.6039793e-38 365 254
0.057102561 0.708 -0.017379038 1.604562e-38 366 254
0.0093400059 0.76099998 -0.020014299 1.2908031e-38 327 255
0.01064624 0.759 -0.0199617 1.3826391e-38 328 255
0.01194546 0.75700003 -0.019909101 1.4195533e-38 329 255
0.013237666 0.755 -0.0198565 1.4654709e-38 330 255
0.014542146 0.75400001 -0.019830201 1.4746905e-38 331 255
0.015822079 0.75199997 -0.0197776 1.4746539e-38 332 255
0.017095 0.75 -0.019724999 1.5114962e-38 333 255
0.018409999 0.75 -0.019724999 1.5208233e-38 334 255
0.0196987 0.74900001 -0.0196987 1.5392625e-38 335 255
0.020927785 0.74599999 -0.019619798 1.5852161e-38 336 255
0.022116546 0.74199998 -0.0195146 1.6128748e-38 337 255
0.023165042 0.73400003 -0.019304199 1.6220938e-38 338 255
0.024451986 0.73400003 -0.019304199 1.6220938e-38 339 255
0.025703866 0.73299998 -0.019277899 1.6406754e-38 340 255
0.026915418 0.73100001 -0.019225299 1.6499309e-38 341 255
0.028197108 0.73100001 -0.019225299 1.6959913e-38 342 255
0.029317487 0.727 -0.019120099 1.7513086e-38 343 255
0.030381758 0.722 -0.0189886 1.8155572e-38 344 255
0.031384666 0.71600002 -0.0188308 1.861619e-38 345 255
0.032548878 0.71399999 -0.018778199 1.8616913e-38 346 255
0.033800758 0.71399999 -0.018778199 1.8709109e-38 347 255
0.035003547 0.713 -0.018751899 1.8709106e-38 348 255
0.036151983 0.71100003 -0.0186993 1.880166e-38 349 255
0.037345998 0.70999998 -0.018672999 1.8802376e-38 350 255
0.038482159 0.708 -0.0186204 1.8618345e-38 351 255
0.039667413 0.70700002 -0.018594101 1.8802379e-38 352 255
0.040907022 0.70700002 -0.018594101 1.8894575e-38 353 255
0.042146627 0.70700002 -0.018594101 1.8802023e-38 354 255
0.043386232 0.70700002 -0.018594101 1.8617992e-38 355 255
0.044625837 0.70700002 -0.018594101 1.852544e-38 356 255
0.045865446 0.70700002 -0.018594101 1.8433245e-38 357 255
0.047304932 0.70999998 -0.018672999 1.8250288e-38 358 255
0.048618179 0.71100003 -0.0186993 1.8065537e-38 359 255
0.049864799 0.71100003 -0.0186993 1.7698547e-38 360 255
0.051111419 0.71100003 -0.0186993 1.7330124e-38 361 255
0.052358042 0.71100003 -0.0186993 1.7327969e-38 362 255
0.053529263 0.70999998 -0.018672999 1.7143578e-38 363 255
0.054619838 0.708 -0.0186204 1.6316714e-38 364 255
0.055861197 0.708 -0.0186204 1.5671344e-38 365 255
0.057102561 0.708 -0.0186204 1.54899e-38 366 255
0.01064624 0.759 -0.02129248 1.3089905e-38 328 256
0.01194546 0.75700003 -0.021236373 1.3550883e-38 329 256
0.013237666 0.755 -0.021180267 1.3918589e-38 330 256
0.014542146 0.75400001 -0.021152213 1.4010785e-38 331 256
0.015822079 0.75199997 -0.021096105 1.4285201e-38 332 256
0.017095 0.75 -0.02104 1.4285201e-38 333 256
0.018409999 0.75 -0.02104 1.4377397e-38 334 256
0.0196987 0.74900001 -0.021011947 1.5299713e-38 335 256
0.020927785 0.74599999 -0.020927785 1.5852528e-38 336 256
0.022116546 0.74199998 -0.020815572 1.5852528e-38 337 256
0.023133477 0.73299998 -0.020563092 1.6128742e-38 338 256
0.024418673 0.73299998 -0.020563092 1.6313492e-38 339 256
0.025703866 0.73299998 -0.020563092 1.6406038e-38 340 256
0.026804959 0.72799999 -0.020422826 1.6682265e-38 341 256
0.028081384 0.72799999 -0.020422826 1.6959915e-38 342 256
0.029357811 0.72799999 -0.020422826 1.7420535e-38 343 256
0.030634239 0.72799999 -0.020422826 1.8155935e-38 344 256
0.031384666 0.71600002 -0.020086186 1.8340685e-38 345 256
0.032548878 0.71399999 -0.020030079 1.8433245e-38 346 256
0.033800758 0.71399999 -0.020030079 1.8433245e-38 347 256
0.034758076 0.708 -0.01986176 1.8525796e-38 348 256
0.035948593 0.70700002 -0.019833706 1.8525796e-38 349 256
0.037188202 0.70700002 -0.019833706 1.8617989e-38 350 256
0.038373452 0.70599997 -0.019805651 1.8802379e-38 351 256
0.039499093 0.704 -0.019749546 1.8802379e-38 352 256
0.040733438 0.704 -0.019749546 1.8802379e-38 353 256
0.041967787 0.704 -0.019749546 1.8893503e-38 354 256
0.043202132 0.704 -0.019749546 1.8801307e-38 355 256
0.044436477 0.704 -0.019749546 1.8801307e-38 356 256
0.045670826 0.704 -0.019749546 1.8709111e-38 357 256
0.047038425 0.70599997 -0.019805651 1.8433598e-38 358 256
0.048276275 0.70599997 -0.019805651 1.8249205e-38 359 256
0.049584266 0.70700002 -0.019833706 1.7881496e-38 360 256
0.050895758 0.708 -0.01986176 1.7513072e-38 361 256
0.052137118 0.708 -0.01986176 1.7328325e-38 362 256
0.053378478 0.708 -0.01986176 1.7236129e-38 363 256
0.054619838 0.708 -0.01986176 1.6500728e-38 364 256
0.055861197 0.708 -0.01986176 1.585536e-38 365 256
0.057021905 0.70700002 -0.019833706 1.5578836e-38 366 256
0.05826151 0.70700002 -0.019833706 1.7975564e-38 367 256
0.01194546 0.75700003 -0.022563647 1.2906229e-38 329 257
0.013272733 0.75700003 -0.022563647 1.3457965e-38 330 257
0.014542146 0.75400001 -0.022474226 1.3550161e-38 331 257
0.015822079 0.75199997 -0.022414612 1.3732757e-38 332 257
0.017095 0.75 -0.022355 1.3548365e-38 333 257
0.018409999 0.75 -0.022355 1.3638406e-38 334 257
0.0196987 0.74900001 -0.022325192 1.4560721e-38 335 257
0.021011947 0.74900001 -0.022325192 1.5208962e-38 336 257
0.022325192 0.74900001 -0.022325192 1.5485189e-38 337 257
0.023133477 0.73299998 -0.021848286 1.6036901e-38 338 257
0.024418673 0.73299998 -0.021848286 1.6313489e-38 339 257
0.025703866 0.73299998 -0.021848286 1.6406754e-38 340 257
0.026804959 0.72799999 -0.021699252 1.6499309e-38 341 257
0.028081384 0.72799999 -0.021699252 1.6776603e-38 342 257
0.029357811 0.72799999 -0.021699252 1.7237222e-38 343 257
0.030634239 0.72799999 -0.021699252 1.815701e-38 344 257
0.031384666 0.71600002 -0.021341572 1.8249205e-38 345 257
0.03227536 0.708 -0.021103119 1.8433601e-38 346 257
0.033422034 0.70599997 -0.021043506 1.8433601e-38 347 257
0.034659892 0.70599997 -0.021043506 1.8525796e-38 348 257
0.035796054 0.704 -0.020983893 1.8525796e-38 349 257
0.037030395 0.704 -0.020983893 1.8525793e-38 350 257
0.038210396 0.70300001 -0.020954086 1.8617989e-38 351 257
0.039442986 0.70300001 -0.020954086 1.8893856e-38 352 257
0.040559858 0.70099998 -0.020894472 1.880166e-38 353 257
0.041788943 0.70099998 -0.020894472 1.8893503e-38 354 257
0.043140765 0.70300001 -0.020954086 1.8801307e-38 355 257
0.04437336 0.70300001 -0.020954086 1.8709111e-38 356 257
0.04560595 0.70300001 -0.020954086 1.8616916e-38 357 257
0.046838548 0.70300001 -0.020954086 1.8341404e-38 358 257
0.048071139 0.70300001 -0.020954086 1.8248849e-38 359 257
0.049373865 0.704 -0.020983893 1.7881499e-38 360 257
0.050751984 0.70599997 -0.021043506 1.7604913e-38 361 257
0.051989835 0.70599997 -0.021043506 1.7237577e-38 362 257
0.053378478 0.708 -0.021103119 1.7052827e-38 363 257
0.054542694 0.70700002 -0.021073313 1.6684049e-38 364 257
0.055782299 0.70700002 -0.021073313 1.6499656e-38 365 257
0.057021905 0.70700002 -0.021073313 1.6222038e-38 366 257
0.05826151 0.70700002 -0.021073313 1.7328385e-38 367 257
0.059585281 0.708 -0.021103119 1.7243454e-38 368 257
0.014542146 0.75400001 -0.02379624 1.3090628e-38 331 258
0.01586416 0.75400001 -0.02379624 1.3731674e-38 332 258
0.017095 0.75 -0.023669999 1.3731674e-38 333 258
0.018409999 0.75 -0.023669999 1.391427e-38 334 258
0.019724999 0.75 -0.023669999 1.3822075e-38 335 258
0.02104 0.75 -0.023669999 1.3826025e-38 336 258
0.022355 0.75 -0.023669999 1.5116764e-38 337 258
0.026804959 0.72799999 -0.022975679 1.631564e-38 341 258
0.028081384 0.72799999 -0.022975679 1.6776247e-38 342 258
0.029357811 0.72799999 -0.022975679 1.7329421e-38 343 258
0.030634239 0.72799999 -0.022975679 1.7972623e-38 344 258
0.031034 0.708 -0.022344479 1.8248849e-38 345 258
0.03227536 0.708 -0.022344479 1.8341401e-38 346 258
0.033280019 0.70300001 -0.02218668 1.8525793e-38 347 258
0.034512613 0.70300001 -0.02218668 1.8525793e-38 348 258
0.035643511 0.70099998 -0.022123558 1.8525793e-38 349 258
0.036819998 0.69999999 -0.022091998 1.880166e-38 350 258
0.038047329 0.69999999 -0.022091998 1.880166e-38 351 258
0.039162453 0.69800001 -0.02202888 1.880166e-38 352 258
0.040386278 0.69800001 -0.02202888 1.880166e-38 353 258
0.041610107 0.69800001 -0.02202888 1.8801304e-38 354 258
0.042956665 0.69999999 -0.022091998 1.8709109e-38 355 258
0.044183996 0.69999999 -0.022091998 1.8433601e-38 356 258
0.04541133 0.69999999 -0.022091998 1.8433601e-38 357 258
0.046638668 0.69999999 -0.022091998 1.8157733e-38 358 258
0.047934376 0.70099998 -0.022123558 1.7973341e-38 359 258
0.049163464 0.70099998 -0.022123558 1.788079e-38 360 258
0.050536323 0.70300001 -0.02218668 1.7604563e-38 361 258
0.051768921 0.70300001 -0.02218668 1.696136e-38 362 258
0.053227689 0.70599997 -0.022281358 1.6869164e-38 363 258
0.054465543 0.70599997 -0.022281358 1.668442e-38 364 258
0.055703394 0.70599997 -0.022281358 1.6592224e-38 365 258
0.056941248 0.70599997 -0.022281358 1.6498619e-38 366 258
0.058179103 0.70599997 -0.022281358 1.6222391e-38 367 258
0.059501119 0.70700002 -0.022312919 1.6506592e-38 368 258
0.060740728 0.70700002 -0.022312919 1.8442701e-38 369 258
0.017140586 0.75199997 -0.025051624 1.3364699e-38 333 259
0.018459093 0.75199997 -0.025051624 1.3363615e-38 334 259
0.0197776 0.75199997 -0.025051624 1.3087388e-38 335 259
0.021096105 0.75199997 -0.025051624 1.3270333e-38 336 259
0.029582238 0.70300001 -0.023419274 1.7972623e-38 344 259
0.030727165 0.70099998 -0.023352645 1.8248849e-38 345 259
0.031819493 0.69800001 -0.023252707 1.8341048e-38 346 259
0.033043321 0.69800001 -0.023252707 1.8433245e-38 347 259
0.034218054 0.69700003 -0.023219392 1.8433245e-38 348 259
0.035440128 0.69700003 -0.023219392 1.852544e-38 349 259
0.036662199 0.69700003 -0.023219392 1.8709109e-38 350 259
0.037884273 0.69700003 -0.023219392 1.8709109e-38 351 259
0.039106347 0.69700003 -0.023219392 1.8801304e-38 352 259
0.040328421 0.69700003 -0.023219392 1.8801304e-38 353 259
0.041550495 0.69700003 -0.023219392 1.8801304e-38 354 259
0.042772565 0.69700003 -0.023219392 1.8709109e-38 355 259
0.043994639 0.69700003 -0.023219392 1.8433601e-38 356 259
0.045281585 0.69800001 -0.023252707 1.8341404e-38 357 259
0.046505414 0.69800001 -0.023252707 1.8248852e-38 358 259
0.047729239 0.69800001 -0.023252707 1.8156656e-38 359 259
0.049093332 0.69999999 -0.023319334 1.7788597e-38 360 259
0.050392549 0.70099998 -0.023352645 1.7604566e-38 361 259
0.051621638 0.70099998 -0.023352645 1.7327985e-38 362 259
0.053001512 0.70300001 -0.023419274 1.7143953e-38 363 259
0.054311249 0.704 -0.023452586 1.6684064e-38 364 259
0.055545598 0.704 -0.023452586 1.6591868e-38 365 259
0.056779943 0.704 -0.023452586 1.6499673e-38 366 259
0.058179103 0.70599997 -0.023519212 1.5578075e-38 367 259
0.059501119 0.70700002 -0.023552528 1.6228541e-38 368 259
0.060740728 0.70700002 -0.023552528 1.8441236e-38 369 259
0.029582238 0.70300001 -0.024651866 1.8155938e-38 344 260
0.030727165 0.70099998 -0.024581732 1.8340329e-38 345 260
0.031819493 0.69800001 -0.024476532 1.8432878e-38 346 260
0.03299598 0.69700003 -0.024441468 1.8432878e-38 347 260
0.034168959 0.69599998 -0.0244064 1.8432878e-38 348 260
0.035389278 0.69599998 -0.0244064 1.8432878e-38 349 260
0.036609598 0.69599998 -0.0244064 1.8709106e-38 350 260
0.037829921 0.69599998 -0.0244064 1.8709106e-38 351 260
0.039050236 0.69599998 -0.0244064 1.880166e-38 352 260
0.040154841 0.69400001 -0.024336265 1.880166e-38 353 260
0.041371655 0.69400001 -0.024336265 1.8617992e-38 354 260
0.042711195 0.69599998 -0.0244064 1.8433601e-38 355 260
0.043931518 0.69599998 -0.0244064 1.8432524e-38 356 260
0.045151837 0.69599998 -0.0244064 1.8248133e-38 357 260
0.046438783 0.69700003 -0.024441468 1.8156301e-38 358 260
0.047660861 0.69700003 -0.024441468 1.7880074e-38 359 260
0.048882935 0.69700003 -0.024441468 1.77886e-38 360 260
0.050176892 0.69800001 -0.024476532 1.7512014e-38 361 260
0.051400717 0.69800001 -0.024476532 1.7143956e-38 362 260
0.052775331 0.69999999 -0.024546666 1.7051761e-38 363 260
0.054234106 0.70300001 -0.024651866 1.6684067e-38 364 260
0.0554667 0.70300001 -0.024651866 1.6591871e-38 365 260
0.056779943 0.704 -0.024686933 1.631564e-38 366 260
0.058179103 0.70599997 -0.024757065 1.5670271e-38 367 260
0.059501119 0.70700002 -0.024792133 1.5858677e-38 368 260
0.060740728 0.70700002 -0.024792133 1.8071731e-38 369 260
0.028349647 0.70300001 -0.025884461 1.7605297e-38 343 261
0.029582238 0.70300001 -0.025884461 1.8155938e-38 344 261
0.030727165 0.70099998 -0.025810819 1.8340329e-38 345 261
0.031819493 0.69800001 -0.025700359 1.8616193e-38 346 261
0.03299598 0.69700003 -0.025663542 1.8616193e-38 347 261
0.034168959 0.69599998 -0.025626717 1.843288e-38 348 261
0.035287585 0.69400001 -0.025553079 1.843288e-38 349 261
0.036504399 0.69400001 -0.025553079 1.8709106e-38 350 261
0.037721213 0.69400001 -0.025553079 1.8709106e-38 351 261
0.03888192 0.69300002 -0.02551626 1.880166e-38 352 261
0.04009698 0.69300002 -0.02551626 1.880166e-38 353 261
0.041312039 0.69300002 -0.02551626 1.8617992e-38 354 261
0.042527102 0.69300002 -0.02551626 1.8433601e-38 355 261
0.043805279 0.69400001 -0.025553079 1.8248855e-38 356 261
0.045022093 0.69400001 -0.025553079 1.8156301e-38 357 261
0.046372157 0.69599998 -0.025626717 1.788079e-38 358 261
0.047592476 0.69599998 -0.025626717 1.7788594e-38 359 261
0.048812799 0.69599998 -0.025626717 1.7513089e-38 360 261
0.050105009 0.69700003 -0.025663542 1.7328338e-38 361 261
0.051327083 0.69700003 -0.025663542 1.7052833e-38 362 261
0.052549154 0.69700003 -0.025663542 1.6776247e-38 363 261
0.054002665 0.69999999 -0.025773998 1.6683701e-38 364 261
0.055229999 0.69999999 -0.025773998 1.6591506e-38 365 261
0.056537982 0.70099998 -0.025810819 1.6223445e-38 366 261
0.058014292 0.704 -0.02592128 1.5578075e-38 367 261
0.059416957 0.70599997 -0.025994917 1.5580648e-38 368 261
0.060654808 0.70599997 -0.025994917 1.7701506e-38 369 261
0.061892662 0.70599997 -0.025994917 1.7795924e-38 370 261
0.029582238 0.70300001 -0.027117053 1.8248486e-38 344 262
0.030595668 0.69800001 -0.026924185 1.8340682e-38 345 262
0.03177391 0.69700003 -0.026885614 1.8524347e-38 346 262
0.032948639 0.69599998 -0.026847038 1.8524347e-38 347 262
0.034021679 0.69300002 -0.02673132 1.8616543e-38 348 262
0.035236739 0.69300002 -0.02673132 1.870874e-38 349 262
0.036451802 0.69300002 -0.02673132 1.8709462e-38 350 262
0.037666857 0.69300002 -0.02673132 1.8709462e-38 351 262
0.038769703 0.69099998 -0.026654173 1.8617992e-38 352 262
0.0399234 0.69 -0.026615599 1.8617992e-38 353 262
0.041133199 0.69 -0.026615599 1.861656e-38 354 262
0.042404365 0.69099998 -0.026654173 1.8340332e-38 355 262
0.043552797 0.69 -0.026615599 1.8248133e-38 356 262
0.0447626 0.69 -0.026615599 1.8063742e-38 357 262
0.04617228 0.69300002 -0.02673132 1.7788231e-38 358 262
0.047455717 0.69400001 -0.026769891 1.7696034e-38 359 262
0.048672531 0.69400001 -0.026769891 1.7512366e-38 360 262
0.050033119 0.69599998 -0.026847038 1.7327975e-38 361 262
0.051253434 0.69599998 -0.026847038 1.6960281e-38 362 262
0.052473757 0.69599998 -0.026847038 1.6684054e-38 363 262
0.053848371 0.69800001 -0.026924185 1.649967e-38 364 262
0.0550722 0.69800001 -0.026924185 1.6315638e-38 365 262
0.056457333 0.69999999 -0.027001332 1.6130893e-38 366 262
0.057931885 0.70300001 -0.027117053 1.5670274e-38 367 262
0.059248637 0.704 -0.027155625 1.5396254e-38 368 262
0.060482983 0.704 -0.027155625 1.6963938e-38 369 262
0.02932976 0.69700003 -0.028107686 1.8248484e-38 344 263
0.030551834 0.69700003 -0.028107686 1.8340679e-38 345 263
0.031637147 0.69400001 -0.027986705 1.8524345e-38 346 263
0.03280662 0.69300002 -0.027946379 1.861654e-38 347 263
0.033923492 0.69099998 -0.027865725 1.861654e-38 348 263
0.035135046 0.69099998 -0.027865725 1.8709096e-38 349 263
0.036293998 0.69 -0.027825398 1.8709462e-38 350 263
0.037395094 0.68800002 -0.027744746 1.8709462e-38 351 263
0.038601387 0.68800002 -0.027744746 1.8616916e-38 352 263
0.039749816 0.68699998 -0.027704418 1.8616916e-38 353 263
0.040954359 0.68699998 -0.027704418 1.8340332e-38 354 263
0.042220265 0.68800002 -0.027744746 1.8248136e-38 355 263
0.043363437 0.68699998 -0.027704418 1.8155219e-38 356 263
0.044567976 0.68699998 -0.027704418 1.8063023e-38 357 263
0.045839146 0.68800002 -0.027744746 1.7696031e-38 358 263
0.047250576 0.69099998 -0.027865725 1.7603836e-38 359 263
0.04846213 0.69099998 -0.027865725 1.714466e-38 360 263
0.049817458 0.69300002 -0.027946379 1.7052464e-38 361 263
0.051106159 0.69400001 -0.027986705 1.6867364e-38 362 263
0.052322973 0.69400001 -0.027986705 1.6775168e-38 363 263
0.053694077 0.69599998 -0.028067358 1.6315993e-38 364 263
0.054914396 0.69599998 -0.028067358 1.6223798e-38 365 263
0.056134716 0.69599998 -0.028067358 1.6038695e-38 366 263
0.057355035 0.69599998 -0.028067358 1.5670271e-38 367 263
0.058743682 0.69800001 -0.028148014 1.4936351e-38 368 263
0.059967503 0.69800001 -0.028148014 1.6135254e-38 369 263
0.060840666 0.69400001 -0.027986705 1.7057994e-38 370 263
0.023845334 0.68000001 -0.028614398 1.6864846e-38 340 264
0.026075572 0.676 -0.028446076 1.7695666e-38 342 264
0.027260827 0.676 -0.028446076 1.8156285e-38 343 264
0.028446076 0.676 -0.028446076 1.8248839e-38 344 264
0.030551834 0.69700003 -0.02932976 1.8341035e-38 345 264
0.031500384 0.69099998 -0.029077278 1.8433231e-38 346 264
0.032711938 0.69099998 -0.029077278 1.8433231e-38 347 264
0.0338744 0.69 -0.029035198 1.8617266e-38 348 264
0.034931656 0.68699998 -0.028908957 1.8617266e-38 349 264
0.036136195 0.68699998 -0.028908957 1.8708387e-38 350 264
0.037340738 0.68699998 -0.028908957 1.8708387e-38 351 264
0.03848917 0.68599999 -0.02886688 1.843288e-38 352 264
0.039691959 0.68599999 -0.02886688 1.8340685e-38 353 264
0.040954359 0.68699998 -0.028908957 1.833925e-38 354 264
0.042158898 0.68699998 -0.028908957 1.8155219e-38 355 264
0.043363437 0.68699998 -0.028908957 1.7971546e-38 356 264
0.044567976 0.68699998 -0.028908957 1.7787155e-38 357 264
0.045772515 0.68699998 -0.028908957 1.7420521e-38 358 264
0.047045439 0.68800002 -0.028951041 1.7328325e-38 359 264
0.048391998 0.69 -0.029035198 1.6960266e-38 360 264
0.049601797 0.69 -0.029035198 1.6960266e-38 361 264
0.050885238 0.69099998 -0.029077278 1.6591853e-38 362 264
0.052096792 0.69099998 -0.029077278 1.6499656e-38 363 264
0.053462639 0.69300002 -0.029161438 1.6407107e-38 364 264
0.054756597 0.69400001 -0.029203519 1.6130881e-38 365 264
0.055973411 0.69400001 -0.029203519 1.5946499e-38 366 264
0.057190225 0.69400001 -0.029203519 1.5393325e-38 367 264
0.058407038 0.69400001 -0.029203519 1.4292413e-38 368 264
0.059623852 0.69400001 -0.029203519 1.5490957e-38 369 264
0.060840666 0.69400001 -0.029203519 1.6781037e-38 370 264
0.021523919 0.68199998 -0.029894331 1.3828526e-38 338 265
0.022653066 0.68000001 -0.029806666 1.5488047e-38 339 265
0.023845334 0.68000001 -0.029806666 1.7232905e-38 340 265
0.025111238 0.68199998 -0.029894331 1.7878274e-38 341 265
0.026075572 0.676 -0.029631332 1.7971529e-38 342 265
0.027260827 0.676 -0.029631332 1.8339953e-38 343 265
0.028446076 0.676 -0.029631332 1.8432152e-38 344 265
0.029982001 0.68400002 -0.029982001 1.8524347e-38 345 265
0.03118128 0.68400002 -0.029982001 1.8524347e-38 346 265
0.032380559 0.68400002 -0.029982001 1.8616543e-38 347 265
0.033579841 0.68400002 -0.029982001 1.8708743e-38 348 265
0.034728274 0.68300003 -0.029938167 1.8708743e-38 349 265
0.035925802 0.68300003 -0.029938167 1.870839e-38 350 265
0.037123326 0.68300003 -0.029938167 1.8616193e-38 351 265
0.038320854 0.68300003 -0.029938167 1.8248839e-38 352 265
0.039518382 0.68300003 -0.029938167 1.7510916e-38 353 265
0.040715907 0.68300003 -0.029938167 1.7786063e-38 354 265
0.041974798 0.68400002 -0.029982001 1.806229e-38 355 265
0.043174081 0.68400002 -0.029982001 1.760348e-38 356 265
0.044503104 0.68599999 -0.030069664 1.760348e-38 357 265
0.045705888 0.68599999 -0.030069664 1.7328325e-38 358 265
0.047045439 0.68800002 -0.030157333 1.7236129e-38 359 265
0.048251733 0.68800002 -0.030157333 1.6960266e-38 360 265
0.049458027 0.68800002 -0.030157333 1.686807e-38 361 265
0.050664321 0.68800002 -0.030157333 1.6591856e-38 362 265
0.052021399 0.69 -0.030244999 1.6499659e-38 363 265
0.053308345 0.69099998 -0.030288832 1.6131243e-38 364 265
0.054677699 0.69300002 -0.0303765 1.6039048e-38 365 265
0.055892758 0.69300002 -0.0303765 1.5577719e-38 366 265
0.057107817 0.69300002 -0.0303765 1.4655763e-38 367 265
0.058407038 0.69400001 -0.030420333 1.3739963e-38 368 265
0.059623852 0.69400001 -0.030420333 1.5030701e-38 369 265
0.060840666 0.69400001 -0.030420333 1.6597006e-38 370 265
0.021523919 0.68199998 -0.031090107 1.4745457e-38 338 266
0.022653066 0.68000001 -0.030998932 1.6681566e-38 339 266
0.023845334 0.68000001 -0.030998932 1.7510568e-38 340 266
0.025111238 0.68199998 -0.031090107 1.7787155e-38 341 266
0.026191294 0.67900002 -0.030953348 1.8339956e-38 342 266
0.027260827 0.676 -0.030816587 1.8432152e-38 343 266
0.028446076 0.676 -0.030816587 1.852435e-38 344 266
0.029762832 0.67900002 -0.030953348 1.852435e-38 345 266
0.031090107 0.68199998 -0.031090107 1.8616543e-38 346 266
0.032285877 0.68199998 -0.031090107 1.8616543e-38 347 266
0.03348165 0.68199998 -0.031090107 1.8617266e-38 348 266
0.034575731 0.68000001 -0.030998932 1.8617266e-38 349 266
0.035767999 0.68000001 -0.030998932 1.8617266e-38 350 266
0.037068974 0.68199998 -0.031090107 1.8340679e-38 351 266
0.038264744 0.68199998 -0.031090107 1.8614745e-38 352 266
0.039460517 0.68199998 -0.031090107 1.8061571e-38 353 266
0.040656291 0.68199998 -0.031090107 1.7694234e-38 354 266
0.041852064 0.68199998 -0.031090107 1.7786429e-38 355 266
0.043110959 0.68300003 -0.031135695 1.7327975e-38 356 266
0.044308487 0.68300003 -0.031135695 1.7327975e-38 357 266
0.045572639 0.68400002 -0.03118128 1.7052111e-38 358 266
0.046908677 0.68599999 -0.031272452 1.6959915e-38 359 266
0.048181597 0.68699998 -0.031318039 1.6684049e-38 360 266
0.049386136 0.68699998 -0.031318039 1.6591853e-38 361 266
0.050590675 0.68699998 -0.031318039 1.6500379e-38 362 266
0.051870614 0.68800002 -0.031363625 1.6223792e-38 363 266
0.053231198 0.69 -0.031454802 1.6130878e-38 364 266
0.054519895 0.69099998 -0.031500384 1.5946486e-38 365 266
0.055731449 0.69099998 -0.031500384 1.5943984e-38 366 266
0.056942999 0.69099998 -0.031500384 1.4561049e-38 367 266
0.058322877 0.69300002 -0.031591557 1.3552344e-38 368 266
0.05953794 0.69300002 -0.031591557 1.5212224e-38 369 266
0.060752999 0.69300002 -0.031591557 1.6597006e-38 370 266
0.020238725 0.67900002 -0.032143861 1.3274318e-38 337 267
0.021429239 0.67900002 -0.032143861 1.5574855e-38 338 267
0.022619752 0.67900002 -0.032143861 1.7326212e-38 339 267
0.023775198 0.67799997 -0.03209652 1.8156303e-38 340 267
0.024963958 0.67799997 -0.03209652 1.8248499e-38 341 267
0.026152719 0.67799997 -0.03209652 1.7972623e-38 342 267
0.027260827 0.676 -0.032001842 1.8248849e-38 343 267
0.028446076 0.676 -0.032001842 1.852435e-38 344 267
0.029718997 0.67799997 -0.03209652 1.8616546e-38 345 267
0.030998932 0.68000001 -0.032191198 1.8709096e-38 346 267
0.032191198 0.68000001 -0.032191198 1.8801292e-38 347 267
0.033383466 0.68000001 -0.032191198 1.8709459e-38 348 267
0.034575731 0.68000001 -0.032191198 1.8617263e-38 349 267
0.035767999 0.68000001 -0.032191198 1.8341401e-38 350 267
0.036960267 0.68000001 -0.032191198 1.8341401e-38 351 267
0.038152531 0.68000001 -0.032191198 1.8339603e-38 352 267
0.039344799 0.68000001 -0.032191198 1.797082e-38 353 267
0.040477451 0.67900002 -0.032143861 1.7694231e-38 354 267
0.041667968 0.67900002 -0.032143861 1.7694231e-38 355 267
0.042921599 0.68000001 -0.032191198 1.7327606e-38 356 267
0.044243611 0.68199998 -0.032285877 1.7235411e-38 357 267
0.045439381 0.68199998 -0.032285877 1.6959913e-38 358 267
0.046771921 0.68400002 -0.032380559 1.6867717e-38 359 267
0.048111461 0.68599999 -0.032475237 1.6684054e-38 360 267
0.049314249 0.68599999 -0.032475237 1.6499303e-38 361 267
0.050590675 0.68699998 -0.032522578 1.6223795e-38 362 267
0.051795214 0.68699998 -0.032522578 1.6131599e-38 363 267
0.053076908 0.68800002 -0.032569919 1.6039051e-38 364 267
0.054440998 0.69 -0.032664597 1.5946855e-38 365 267
0.055650797 0.69 -0.032664597 1.5485171e-38 366 267
0.0568606 0.69 -0.032664597 1.3917845e-38 367 267
0.058154557 0.69099998 -0.032711938 1.2816933e-38 368 267
0.059366114 0.69099998 -0.032711938 1.4753041e-38 369 267
0.060577665 0.69099998 -0.032711938 1.6504087e-38 370 267
0.020030079 0.67199999 -0.03299072 1.3827489e-38 337 268
0.021334561 0.676 -0.033187091 1.6588631e-38 338 268
0.022519812 0.676 -0.033187091 1.7602782e-38 339 268
0.023705067 0.676 -0.033187091 1.8340679e-38 340 268
0.024890319 0.676 -0.033187091 1.8156288e-38 341 268
0.026037 0.67500001 -0.033137999 1.8156291e-38 342 268
0.027220501 0.67500001 -0.033137999 1.8340682e-38 343 268
0.028404001 0.67500001 -0.033137999 1.8433234e-38 344 268
0.0295875 0.67500001 -0.033137999 1.8617266e-38 345 268
0.030907756 0.67799997 -0.033285279 1.8709096e-38 346 268
0.03209652 0.67799997 -0.033285279 1.8801292e-38 347 268
0.033285279 0.67799997 -0.033285279 1.8617263e-38 348 268
0.034474038 0.67799997 -0.033285279 1.8617263e-38 349 268
0.0356628 0.67799997 -0.033285279 1.8433234e-38 350 268
0.036851559 0.67799997 -0.033285279 1.8340679e-38 351 268
