# .PCD v.7 - Point Cloud Data file format
FIELDS x y z rgb imX imY
SIZE 4 4 4 4 4 4
TYPE F F F F F F
COUNT 1 1 1 1 1 1
WIDTH 833
HEIGHT 1
VIEWPOINT 0 0 0 1 0 0 0
POINTS 833
DATA ascii
-0.073369987 0.68599999 -0.03848917 1.6774404e-38 259 272
-0.071956798 0.68400002 -0.038376961 1.6959873e-38 260 272
-0.070757523 0.68400002 -0.038376961 1.6959873e-38 261 272
-0.069456547 0.68300003 -0.038320854 1.7235028e-38 262 272
-0.068259016 0.68300003 -0.038320854 1.7419779e-38 263 272
-0.0669633 0.68199998 -0.038264744 1.769529e-38 264 272
-0.065767527 0.68199998 -0.038264744 1.769529e-38 265 272
-0.064382397 0.68000001 -0.038152531 1.7694934e-38 266 272
-0.063097201 0.67900002 -0.038096428 1.7879684e-38 267 272
-0.061906695 0.67900002 -0.038096428 1.797188e-38 268 272
-0.060626756 0.67799997 -0.038040318 1.797188e-38 269 272
-0.059437994 0.67799997 -0.038040318 1.8064074e-38 270 272
-0.058249239 0.67799997 -0.038040318 1.834066e-38 271 272
-0.057060476 0.67799997 -0.038040318 1.8340657e-38 272 272
-0.055706903 0.676 -0.037928104 1.8340657e-38 273 272
-0.054521654 0.676 -0.037928104 1.8432855e-38 274 272
-0.053336397 0.676 -0.037928104 1.8525051e-38 275 272
-0.052151144 0.676 -0.037928104 1.8616896e-38 276 272
-0.050965894 0.676 -0.037928104 1.8709093e-38 277 272
-0.049706999 0.67500001 -0.037871998 1.8984251e-38 278 272
-0.048523501 0.67500001 -0.037871998 1.9076446e-38 279 272
-0.047339998 0.67500001 -0.037871998 1.9077168e-38 280 272
-0.046088122 0.67400002 -0.037815895 1.9077168e-38 281 272
-0.044773117 0.67199999 -0.037703678 1.8894209e-38 282 272
-0.043530006 0.671 -0.037647571 1.8986404e-38 283 272
-0.042353518 0.671 -0.037647571 1.8986402e-38 284 272
-0.041177034 0.671 -0.037647571 1.8986402e-38 285 272
-0.040000543 0.671 -0.037647571 1.8987121e-38 286 272
-0.038824059 0.671 -0.037647571 1.8987121e-38 287 272
-0.037647571 0.671 -0.037647571 1.8986758e-38 288 272
-0.036471087 0.671 -0.037647571 1.8986758e-38 289 272
-0.0352946 0.671 -0.037647571 1.8894559e-38 290 272
-0.034118112 0.671 -0.037647571 1.8894559e-38 291 272
-0.032941625 0.671 -0.037647571 1.8894559e-38 292 272
-0.031765141 0.671 -0.037647571 1.8709809e-38 293 272
-0.030543067 0.67000002 -0.037591465 1.8435023e-38 294 272
-0.029236831 0.667 -0.037423145 1.8435023e-38 295 272
-0.028025279 0.66600001 -0.037367038 1.8800936e-38 296 272
-0.026857559 0.66600001 -0.037367038 1.9077521e-38 297 272
-0.025728412 0.667 -0.037423145 1.861726e-38 298 272
-0.011677199 0.66600001 -0.037367038 1.8157807e-38 310 272
-0.01050948 0.66600001 -0.037367038 1.806561e-38 311 272
-0.0093417596 0.66600001 -0.037367038 1.8158892e-38 312 272
-0.0081494926 0.66399997 -0.037254825 1.8435118e-38 313 272
-0.0069852793 0.66399997 -0.037254825 1.7884115e-38 314 272
0.024448479 0.66399997 -0.037254825 1.8163984e-38 341 272
0.025612691 0.66399997 -0.037254825 1.7980672e-38 342 272
0.026776904 0.66399997 -0.037254825 1.7888476e-38 343 272
0.048602402 0.69300002 -0.03888192 1.8439848e-38 360 272
0.049817458 0.69300002 -0.03888192 1.7702283e-38 361 272
0.051032521 0.69300002 -0.03888192 1.6408279e-38 362 272
0.053076904 0.704 -0.039499093 1.4195944e-38 363 272
0.054311249 0.704 -0.039499093 1.3361452e-38 364 272
0.055703394 0.70599997 -0.039611302 9.5814329e-39 365 272
0.057021905 0.70700002 -0.039667413 6.4503744e-39 366 272
0.05826151 0.70700002 -0.039667413 7.3723307e-39 367 272
0.059753593 0.70999998 -0.039835732 8.0227798e-39 368 272
0.060998458 0.70999998 -0.039835732 9.4057143e-39 369 272
0.062243331 0.70999998 -0.039835732 1.0418103e-38 370 272
0.063488193 0.70999998 -0.039835732 1.2538962e-38 371 272
-0.10001013 0.713 -0.041254178 1.290481e-38 240 273
-0.098482981 0.71100003 -0.041138459 1.2443832e-38 241 273
-0.097236358 0.71100003 -0.041138459 1.2996968e-38 242 273
-0.095854729 0.70999998 -0.041080594 1.3181359e-38 243 273
-0.094343357 0.708 -0.040964879 1.3182062e-38 244 273
-0.092970498 0.70700002 -0.040907022 1.3274258e-38 245 273
-0.091341652 0.704 -0.040733438 1.3640867e-38 246 273
-0.090107299 0.704 -0.040733438 1.3640867e-38 247 273
-0.088494234 0.70099998 -0.040559858 1.3641223e-38 248 273
-0.087140664 0.69999999 -0.040502001 1.3733419e-38 249 273
-0.085667863 0.69800001 -0.040386278 1.3641589e-38 250 273
-0.084323063 0.69700003 -0.040328421 1.3733784e-38 251 273
-0.082743309 0.69400001 -0.040154841 1.3918529e-38 252 273
-0.081174068 0.69099998 -0.039981257 1.3826333e-38 253 273
-0.079615362 0.68800002 -0.039807681 1.4377336e-38 254 273
-0.078409068 0.68800002 -0.039807681 1.511526e-38 255 273
-0.077090554 0.68699998 -0.039749816 1.5393286e-38 256 273
-0.075886011 0.68699998 -0.039749816 1.5762429e-38 257 273
-0.074572764 0.68599999 -0.039691959 1.603829e-38 258 273
-0.073156074 0.68400002 -0.03957624 1.6222681e-38 259 273
-0.071956798 0.68400002 -0.03957624 1.6590742e-38 260 273
-0.070654072 0.68300003 -0.039518382 1.6682937e-38 261 273
-0.069456547 0.68300003 -0.039518382 1.6683303e-38 262 273
-0.068159081 0.68199998 -0.039460517 1.6868053e-38 263 273
-0.0669633 0.68199998 -0.039460517 1.7143209e-38 264 273
-0.065767527 0.68199998 -0.039460517 1.7235405e-38 265 273
-0.064382397 0.68000001 -0.039344799 1.7327606e-38 266 273
-0.063097201 0.67900002 -0.039286941 1.7511637e-38 267 273
-0.061906695 0.67900002 -0.039286941 1.7511635e-38 268 273
-0.060626756 0.67799997 -0.039229076 1.7604189e-38 269 273
-0.059437994 0.67799997 -0.039229076 1.7696382e-38 270 273
-0.058077414 0.676 -0.039113361 1.7788579e-38 271 273
-0.056892153 0.676 -0.039113361 1.7880777e-38 272 273
-0.0556245 0.67500001 -0.039055496 1.7880777e-38 273 273
-0.054441001 0.67500001 -0.039055496 1.7881496e-38 274 273
-0.053257499 0.67500001 -0.039055496 1.7881496e-38 275 273
-0.052074 0.67500001 -0.039055496 1.815701e-38 276 273
-0.050890498 0.67500001 -0.039055496 1.8341401e-38 277 273
-0.049706999 0.67500001 -0.039055496 1.8249579e-38 278 273
-0.048451614 0.67400002 -0.038997639 1.8433969e-38 279 273
-0.047269866 0.67400002 -0.038997639 1.852509e-38 280 273
-0.045951359 0.67199999 -0.03888192 1.852509e-38 281 273
-0.044773117 0.67199999 -0.03888192 1.8525443e-38 282 273
-0.043465134 0.67000002 -0.038766202 1.880167e-38 283 273
-0.042290401 0.67000002 -0.038766202 1.8802023e-38 284 273
-0.041115668 0.67000002 -0.038766202 1.8802023e-38 285 273
-0.039940935 0.67000002 -0.038766202 1.8894575e-38 286 273
-0.038766202 0.67000002 -0.038766202 1.8894575e-38 287 273
-0.037591465 0.67000002 -0.038766202 1.8894928e-38 288 273
-0.036416732 0.67000002 -0.038766202 1.8802373e-38 289 273
-0.035241999 0.67000002 -0.038766202 1.8802729e-38 290 273
-0.034067266 0.67000002 -0.038766202 1.8802729e-38 291 273
-0.032892533 0.67000002 -0.038766202 1.8803082e-38 292 273
-0.0317178 0.67000002 -0.038766202 1.8803082e-38 293 273
-0.030543067 0.67000002 -0.038766202 1.8895275e-38 294 273
-0.029280664 0.66799998 -0.038650475 1.8619048e-38 295 273
-0.028025279 0.66600001 -0.03853476 1.8894912e-38 296 273
-0.026857559 0.66600001 -0.03853476 1.8894912e-38 297 273
-0.025728412 0.667 -0.038592618 1.9077859e-38 298 273
-0.024558939 0.667 -0.038592618 1.8985304e-38 299 273
-0.023389466 0.667 -0.038592618 1.898531e-38 300 273
-0.022219993 0.667 -0.038592618 1.898531e-38 301 273
-0.01284492 0.66600001 -0.03853476 1.7972623e-38 309 273
-0.011642133 0.66399997 -0.038419038 1.788079e-38 310 273
-0.010477919 0.66399997 -0.038419038 1.7788594e-38 311 273
-0.0093137063 0.66399997 -0.038419038 1.7605282e-38 312 273
-0.0081494926 0.66399997 -0.038419038 1.7605282e-38 313 273
-0.0069852793 0.66399997 -0.038419038 1.7604213e-38 314 273
-0.0058210664 0.66399997 -0.038419038 1.7788244e-38 315 273
-0.0046708798 0.66600001 -0.03853476 1.7421279e-38 316 273
-0.0035031599 0.66600001 -0.03853476 1.7606029e-38 317 273
-0.0023354399 0.66600001 -0.03853476 1.7697522e-38 318 273
-0.0011712266 0.66799998 -0.038650475 1.8065945e-38 319 273
0.0011712266 0.66799998 -0.038650475 1.806596e-38 321 273
0.0023179066 0.66100001 -0.038245458 1.7883021e-38 322 273
0.00347686 0.66100001 -0.038245458 1.7975216e-38 323 273
0.0046428265 0.662 -0.038303319 1.7974863e-38 324 273
0.019881045 0.667 -0.038592618 1.8530596e-38 337 273
0.02101896 0.66600001 -0.03853476 1.8622794e-38 338 273
0.02218668 0.66600001 -0.03853476 1.8622794e-38 339 273
0.023354398 0.66600001 -0.03853476 1.8531678e-38 340 273
0.024448479 0.66399997 -0.038419038 1.871571e-38 341 273
0.025612691 0.66399997 -0.038419038 1.7796999e-38 342 273
0.026776904 0.66399997 -0.038419038 1.7704445e-38 343 273
0.027941117 0.66399997 -0.038419038 1.7520066e-38 344 273
0.047660861 0.69700003 -0.040328421 1.8071438e-38 359 273
0.048602402 0.69300002 -0.04009698 1.7887397e-38 360 273
0.049817458 0.69300002 -0.04009698 1.6320071e-38 361 273
0.051327083 0.69700003 -0.040328421 1.4287058e-38 362 273
0.052624546 0.69800001 -0.040386278 1.2258752e-38 363 273
0.054234106 0.70300001 -0.040675577 1.004495e-38 364 273
0.0554667 0.70300001 -0.040675577 6.7259075e-39 365 273
0.056779943 0.704 -0.040733438 4.6990708e-39 366 273
0.058014292 0.704 -0.040733438 5.5288315e-39 367 273
0.059585281 0.708 -0.040964879 5.7175584e-39 368 273
0.060826641 0.708 -0.040964879 8.299036e-39 369 273
0.062068 0.708 -0.040964879 9.4954114e-39 370 273
0.063309364 0.708 -0.040964879 1.0878346e-38 371 273
-0.098482981 0.71100003 -0.042385083 1.2536766e-38 241 274
-0.097236358 0.71100003 -0.042385083 1.2259425e-38 242 274
-0.095989741 0.71100003 -0.042385083 1.2720403e-38 243 274
-0.094343357 0.708 -0.042206239 1.3365021e-38 244 274
-0.093101993 0.708 -0.042206239 1.3365021e-38 245 274
-0.091601141 0.70599997 -0.042087011 1.3641942e-38 246 274
-0.090107299 0.704 -0.041967787 1.3641942e-38 247 274
-0.088494234 0.70099998 -0.041788943 1.3641573e-38 248 274
-0.087140664 0.69999999 -0.041729331 1.3641573e-38 249 274
-0.085667863 0.69800001 -0.041610107 1.3641573e-38 250 274
-0.084323063 0.69700003 -0.041550495 1.3641573e-38 251 274
-0.082743309 0.69400001 -0.041371655 1.4008561e-38 252 274
-0.081056595 0.69 -0.041133199 1.4100756e-38 253 274
-0.079615362 0.68800002 -0.041013971 1.3640854e-38 254 274
-0.078409068 0.68800002 -0.041013971 1.4101831e-38 255 274
-0.077090554 0.68699998 -0.040954359 1.4380208e-38 256 274
-0.075886011 0.68699998 -0.040954359 1.474935e-38 257 274
-0.074572764 0.68599999 -0.040894743 1.5209974e-38 258 274
-0.073156074 0.68400002 -0.040775519 1.5670952e-38 259 274
-0.071851604 0.68300003 -0.040715907 1.6130838e-38 260 274
-0.070654072 0.68300003 -0.040715907 1.6130838e-38 261 274
-0.069354847 0.68199998 -0.040656291 1.6682558e-38 262 274
-0.068159081 0.68199998 -0.040656291 1.6867309e-38 263 274
-0.0669633 0.68199998 -0.040656291 1.6959154e-38 264 274
-0.065574668 0.68000001 -0.040537067 1.705135e-38 265 274
-0.064287722 0.67900002 -0.040477451 1.7234315e-38 266 274
-0.063004278 0.67799997 -0.040417835 1.732651e-38 267 274
-0.061815511 0.67799997 -0.040417835 1.7143562e-38 268 274
-0.06044792 0.676 -0.040298611 1.7235758e-38 269 274
-0.059175 0.67500001 -0.040238999 1.7511625e-38 270 274
-0.057991501 0.67500001 -0.040238999 1.760382e-38 271 274
-0.056723841 0.67400002 -0.040179387 1.7879684e-38 272 274
-0.055542093 0.67400002 -0.040179387 1.7879684e-38 273 274
-0.054199036 0.67199999 -0.040060159 1.7788212e-38 274 274
-0.053020798 0.67199999 -0.040060159 1.7972244e-38 275 274
-0.051996857 0.67400002 -0.040179387 1.8064443e-38 276 274
-0.050815105 0.67400002 -0.040179387 1.8064443e-38 277 274
-0.049633358 0.67400002 -0.040179387 1.8064089e-38 278 274
-0.048451614 0.67400002 -0.040179387 1.8156285e-38 279 274
-0.047129598 0.67199999 -0.040060159 1.8523631e-38 280 274
-0.045951359 0.67199999 -0.040060159 1.8707662e-38 281 274
-0.044706494 0.671 -0.040000543 1.8799855e-38 282 274
-0.043465134 0.67000002 -0.039940935 1.8892052e-38 283 274
-0.042164158 0.66799998 -0.039821707 1.8800936e-38 284 274
-0.040992931 0.66799998 -0.039821707 1.8985325e-38 285 274
-0.039821707 0.66799998 -0.039821707 1.8618345e-38 286 274
-0.038650475 0.66799998 -0.039821707 1.8618345e-38 287 274
-0.037479252 0.66799998 -0.039821707 1.8893853e-38 288 274
-0.036308024 0.66799998 -0.039821707 1.8893853e-38 289 274
-0.035084199 0.667 -0.039762091 1.8802023e-38 290 274
-0.033914726 0.667 -0.039762091 1.8802023e-38 291 274
-0.032745253 0.667 -0.039762091 1.88935e-38 292 274
-0.031623118 0.66799998 -0.039821707 1.88935e-38 293 274
-0.030451892 0.66799998 -0.039821707 1.8893853e-38 294 274
-0.029236831 0.667 -0.039762091 1.8986049e-38 295 274
-0.028025279 0.66600001 -0.039702479 1.8986404e-38 296 274
-0.026857559 0.66600001 -0.039702479 1.8986404e-38 297 274
-0.025728412 0.667 -0.039762091 1.8894206e-38 298 274
-0.024558939 0.667 -0.039762091 1.8894206e-38 299 274
-0.023389466 0.667 -0.039762091 1.8802361e-38 300 274
-0.02218668 0.66600001 -0.039702479 1.8802361e-38 301 274
-0.02101896 0.66600001 -0.039702479 1.8618693e-38 302 274
-0.012806346 0.66399997 -0.039583251 1.8619064e-38 309 274
-0.0116246 0.66299999 -0.039523639 1.8619064e-38 310 274
-0.01046214 0.66299999 -0.039523639 1.8526868e-38 311 274
-0.0092996797 0.66299999 -0.039523639 1.8618708e-38 312 274
-0.0081372196 0.66299999 -0.039523639 1.8526512e-38 313 274
-0.0069747595 0.66299999 -0.039523639 1.8526159e-38 314 274
-0.0058122999 0.66299999 -0.039523639 1.8526159e-38 315 274
-0.0046568532 0.66399997 -0.039583251 1.8434692e-38 316 274
-0.0034873798 0.66299999 -0.039523639 1.8526888e-38 317 274
-0.0023249199 0.66299999 -0.039523639 1.8435064e-38 318 274
-0.0011607066 0.662 -0.039464023 1.8435064e-38 319 274
0 0.66100001 -0.039404415 1.8251048e-38 320 274
0.0011589533 0.66100001 -0.039404415 1.8251048e-38 321 274
0.0023179066 0.66100001 -0.039404415 1.8342895e-38 322 274
0.00347686 0.66100001 -0.039404415 1.825034e-38 323 274
0.0046428265 0.662 -0.039464023 1.8341811e-38 324 274
0.0058385995 0.66600001 -0.039702479 1.8065226e-38 325 274
0.0070063197 0.66600001 -0.039702479 1.8341446e-38 326 274
0.0081740404 0.66600001 -0.039702479 1.8341446e-38 327 274
0.018711573 0.667 -0.039762091 1.7790102e-38 336 274
0.019881045 0.667 -0.039762091 1.7513875e-38 337 274
0.02101896 0.66600001 -0.039702479 1.7513875e-38 338 274
0.02218668 0.66600001 -0.039702479 1.7697906e-38 339 274
0.023284266 0.66399997 -0.039583251 1.7239093e-38 340 274
0.024448479 0.66399997 -0.039583251 1.7423845e-38 341 274
0.025612691 0.66399997 -0.039583251 1.7607532e-38 342 274
0.026776904 0.66399997 -0.039583251 1.7791564e-38 343 274
0.027941117 0.66399997 -0.039583251 1.7425677e-38 344 274
0.02910533 0.66399997 -0.039583251 1.7702264e-38 345 274
0.047660861 0.69700003 -0.041550495 1.8439497e-38 359 274
0.048812799 0.69599998 -0.041490879 1.6133865e-38 360 274
0.050033119 0.69599998 -0.041490879 1.3920811e-38 361 274
0.051327083 0.69700003 -0.041550495 1.1793055e-38 362 274
0.052624546 0.69800001 -0.041610107 9.0268256e-39 363 274
0.054234106 0.70300001 -0.041908171 5.5269902e-39 364 274
0.0554667 0.70300001 -0.041908171 4.6972421e-39 365 274
0.056779943 0.704 -0.041967787 5.4348324e-39 366 274
0.058014292 0.704 -0.041967787 5.8958091e-39 367 274
0.059585281 0.708 -0.042206239 5.2551383e-39 368 274
0.060826641 0.708 -0.042206239 7.0986922e-39 369 274
0.062068 0.708 -0.042206239 9.032648e-39 370 274
0.063309364 0.708 -0.042206239 1.0968756e-38 371 274
-0.097236358 0.71100003 -0.043631699 1.2261242e-38 242 275
-0.095989741 0.71100003 -0.043631699 1.2076491e-38 243 275
-0.094609864 0.70999998 -0.043570329 1.2721105e-38 244 275
-0.093364999 0.70999998 -0.043570329 1.2905498e-38 245 275
-0.091601141 0.70599997 -0.043324865 1.3365725e-38 246 275
-0.089979313 0.70300001 -0.043140765 1.3457921e-38 247 275
-0.088494234 0.70099998 -0.043018032 1.3641573e-38 248 275
-0.087140664 0.69999999 -0.042956665 1.3641573e-38 249 275
-0.085667863 0.69800001 -0.042833932 1.3641573e-38 250 275
-0.084323063 0.69700003 -0.042772565 1.3641573e-38 251 275
-0.082743309 0.69400001 -0.042588469 1.3641223e-38 252 275
-0.081056595 0.69 -0.042342998 1.3641223e-38 253 275
-0.079615362 0.68800002 -0.042220265 1.3824538e-38 254 275
-0.078409068 0.68800002 -0.042220265 1.3824538e-38 255 275
-0.077090554 0.68699998 -0.042158898 1.4102544e-38 256 275
-0.075886011 0.68699998 -0.042158898 1.4287296e-38 257 275
-0.074572764 0.68599999 -0.042097531 1.4564602e-38 258 275
-0.073156074 0.68400002 -0.041974798 1.502558e-38 259 275
-0.071851604 0.68300003 -0.041913435 1.5577665e-38 260 275
-0.070654072 0.68300003 -0.041913435 1.5761697e-38 261 275
-0.069354847 0.68199998 -0.041852064 1.5946798e-38 262 275
-0.067959204 0.68000001 -0.041729335 1.631558e-38 263 275
-0.066766933 0.68000001 -0.041729335 1.6498912e-38 264 275
-0.065381795 0.67799997 -0.041606598 1.6591108e-38 265 275
-0.06419304 0.67799997 -0.041606598 1.6682237e-38 266 275
-0.063004278 0.67799997 -0.041606598 1.6866268e-38 267 275
-0.061633173 0.676 -0.041483864 1.6958464e-38 268 275
-0.06044792 0.676 -0.041483864 1.7050659e-38 269 275
-0.059175 0.67500001 -0.041422497 1.7143212e-38 270 275
-0.057905588 0.67400002 -0.041361131 1.7143212e-38 271 275
-0.056723841 0.67400002 -0.041361131 1.7235408e-38 272 275
-0.055542093 0.67400002 -0.041361131 1.7327603e-38 273 275
-0.054199036 0.67199999 -0.041238401 1.7511637e-38 274 275
-0.053020798 0.67199999 -0.041238401 1.7511637e-38 275 275
-0.051842555 0.67199999 -0.041238401 1.7327969e-38 276 275
-0.050664317 0.67199999 -0.041238401 1.7420524e-38 277 275
-0.049486078 0.67199999 -0.041238401 1.7695682e-38 278 275
-0.04830784 0.67199999 -0.041238401 1.7695682e-38 279 275
-0.047129598 0.67199999 -0.041238401 1.7787881e-38 280 275
-0.045882981 0.671 -0.041177034 1.7880077e-38 281 275
-0.044639867 0.67000002 -0.041115668 1.8156291e-38 282 275
-0.043335386 0.66799998 -0.040992931 1.8340682e-38 283 275
-0.042164158 0.66799998 -0.040992931 1.8340679e-38 284 275
-0.040931564 0.667 -0.040931564 1.8433234e-38 285 275
-0.039762091 0.667 -0.040931564 1.8250288e-38 286 275
-0.038592618 0.667 -0.040931564 1.8250288e-38 287 275
-0.037423145 0.667 -0.040931564 1.8433245e-38 288 275
-0.036253672 0.667 -0.040931564 1.852544e-38 289 275
-0.035084199 0.667 -0.040931564 1.8433966e-38 290 275
-0.033914726 0.667 -0.040931564 1.8526162e-38 291 275
-0.032745253 0.667 -0.040931564 1.8802026e-38 292 275
-0.03157578 0.667 -0.040931564 1.8617995e-38 293 275
-0.030360719 0.66600001 -0.040870197 1.8617989e-38 294 275
-0.029192999 0.66600001 -0.040870197 1.8617989e-38 295 275
-0.028025279 0.66600001 -0.040870197 1.8893856e-38 296 275
-0.026857559 0.66600001 -0.040870197 1.8893856e-38 297 275
-0.025728412 0.667 -0.040931564 1.8894209e-38 298 275
-0.024558939 0.667 -0.040931564 1.8801654e-38 299 275
-0.023389466 0.667 -0.040931564 1.880201e-38 300 275
-0.02218668 0.66600001 -0.040870197 1.8894206e-38 301 275
-0.02101896 0.66600001 -0.040870197 1.8618342e-38 302 275
-0.019881045 0.667 -0.040931564 1.8618342e-38 303 275
-0.018683519 0.66600001 -0.040870197 1.8802376e-38 304 275
-0.017515799 0.66600001 -0.040870197 1.8618345e-38 305 275
-0.016298985 0.66399997 -0.040747464 1.8802376e-38 306 275
-0.015134773 0.66399997 -0.040747464 1.8894572e-38 307 275
-0.013949519 0.66299999 -0.040686097 1.8987123e-38 308 275
-0.012787059 0.66299999 -0.040686097 1.8894928e-38 309 275
-0.0116246 0.66299999 -0.040686097 1.8802376e-38 310 275
-0.01046214 0.66299999 -0.040686097 1.8802376e-38 311 275
-0.0092996797 0.66299999 -0.040686097 1.8618711e-38 312 275
-0.0081372196 0.66299999 -0.040686097 1.8618711e-38 313 275
-0.0069747595 0.66299999 -0.040686097 1.8618714e-38 314 275
-0.0058122999 0.66299999 -0.040686097 1.8618714e-38 315 275
-0.0046498398 0.66299999 -0.040686097 1.8801673e-38 316 275
-0.0034821199 0.662 -0.04062473 1.8893868e-38 317 275
-0.0023179066 0.66100001 -0.040563367 1.8710206e-38 318 275
-0.0011589533 0.66100001 -0.040563367 1.861801e-38 319 275
0 0.66100001 -0.040563367 1.861766e-38 320 275
0.0011589533 0.66100001 -0.040563367 1.8709855e-38 321 275
0.0023179066 0.66100001 -0.040563367 1.852619e-38 322 275
0.00347686 0.66100001 -0.040563367 1.852619e-38 323 275
0.0046358132 0.66100001 -0.040563367 1.8342149e-38 324 275
0.0058035329 0.662 -0.04062473 1.8249595e-38 325 275
0.0069642398 0.662 -0.04062473 1.8525809e-38 326 275
0.0081494926 0.66399997 -0.040747464 1.8433613e-38 327 275
0.0093137063 0.66399997 -0.040747464 1.8250301e-38 328 275
0.010477919 0.66399997 -0.040747464 1.8342497e-38 329 275
0.011607066 0.662 -0.04062473 1.8342144e-38 330 275
0.012748486 0.66100001 -0.040563367 1.8157752e-38 331 275
0.01390744 0.66100001 -0.040563367 1.8065557e-38 332 275
0.0175421 0.667 -0.040931564 1.7789691e-38 335 275
0.018683519 0.66600001 -0.040870197 1.7513828e-38 336 275
0.019851239 0.66600001 -0.040870197 1.7329436e-38 337 275
0.02101896 0.66600001 -0.040870197 1.7328715e-38 338 275
0.02218668 0.66600001 -0.040870197 1.7236519e-38 339 275
0.023284266 0.66399997 -0.040747464 1.696138e-38 340 275
0.024448479 0.66399997 -0.040747464 1.7237967e-38 341 275
0.025612691 0.66399997 -0.040747464 1.7330548e-38 342 275
0.026776904 0.66399997 -0.040747464 1.7515298e-38 343 275
0.027941117 0.66399997 -0.040747464 1.7514604e-38 344 275
0.02910533 0.66399997 -0.040747464 1.7514604e-38 345 275
0.030269546 0.66399997 -0.040747464 1.742351e-38 346 275
0.047729239 0.69800001 -0.042833932 1.7701208e-38 359 275
0.048953064 0.69800001 -0.042833932 1.4748397e-38 360 275
0.050176892 0.69800001 -0.042833932 1.3272908e-38 361 275
0.051400717 0.69800001 -0.042833932 1.2532062e-38 362 275
0.052624546 0.69800001 -0.042833932 1.1610105e-38 363 275
0.054234106 0.70300001 -0.043140765 9.0314989e-39 364 275
0.0554667 0.70300001 -0.043140765 8.5705208e-39 365 275
0.056779943 0.704 -0.043202132 8.5691167e-39 366 275
0.058014292 0.704 -0.043202132 8.476921e-39 367 275
0.059501119 0.70700002 -0.043386232 8.2925522e-39 368 275
0.060740728 0.70700002 -0.043386232 8.660976e-39 369 275
0.062068 0.708 -0.043447599 6.8203284e-39 370 275
-0.092444502 0.70300001 -0.04437336 1.2812599e-38 245 276
-0.0912119 0.70300001 -0.04437336 1.3089511e-38 246 276
-0.089979313 0.70300001 -0.04437336 1.3182065e-38 247 276
-0.088494234 0.70099998 -0.044247117 1.3641586e-38 248 276
-0.087140664 0.69999999 -0.044183996 1.3641586e-38 249 276
-0.085667863 0.69800001 -0.04405776 1.3457905e-38 250 276
-0.084323063 0.69700003 -0.043994639 1.3365709e-38 251 276
-0.082743309 0.69400001 -0.043805279 1.3549022e-38 252 276
-0.081056595 0.69 -0.043552797 1.3549022e-38 253 276
-0.079615362 0.68800002 -0.043426562 1.3640501e-38 254 276
-0.078409068 0.68800002 -0.043426562 1.3824532e-38 255 276
-0.077090554 0.68699998 -0.043363437 1.3917084e-38 256 276
-0.075775556 0.68599999 -0.043300316 1.400928e-38 257 276
-0.074355356 0.68400002 -0.043174081 1.3826683e-38 258 276
-0.073049128 0.68300003 -0.043110959 1.4287662e-38 259 276
-0.071851604 0.68300003 -0.043110959 1.4747914e-38 260 276
-0.070550621 0.68199998 -0.043047838 1.4932665e-38 261 276
-0.069354847 0.68199998 -0.043047838 1.5209605e-38 262 276
-0.067959204 0.68000001 -0.042921599 1.5762779e-38 263 276
-0.066766933 0.68000001 -0.042921599 1.6220883e-38 264 276
-0.065381795 0.67799997 -0.042795356 1.6405274e-38 265 276
-0.06419304 0.67799997 -0.042795356 1.6405277e-38 266 276
-0.063004278 0.67799997 -0.042795356 1.6773701e-38 267 276
-0.061633173 0.676 -0.042669121 1.6590392e-38 268 276
-0.060358498 0.67500001 -0.042606 1.6682587e-38 269 276
-0.059087332 0.67400002 -0.042542879 1.6866618e-38 270 276
-0.057905588 0.67400002 -0.042542879 1.6866618e-38 271 276
-0.056555521 0.67199999 -0.042416636 1.695917e-38 272 276
-0.055377278 0.67199999 -0.042416636 1.7051365e-38 273 276
-0.054118387 0.671 -0.042353518 1.7051363e-38 274 276
-0.052941896 0.671 -0.042353518 1.7051363e-38 275 276
-0.051842555 0.67199999 -0.042416636 1.7234681e-38 276 276
-0.050664317 0.67199999 -0.042416636 1.7419073e-38 277 276
-0.049412437 0.671 -0.042353518 1.7418367e-38 278 276
-0.048235953 0.671 -0.042353518 1.7510921e-38 279 276
-0.047059465 0.671 -0.042353518 1.7510565e-38 280 276
-0.0458146 0.67000002 -0.042290401 1.7602761e-38 281 276
-0.044439986 0.667 -0.042101037 1.751164e-38 282 276
-0.04327051 0.667 -0.042101037 1.7696031e-38 283 276
-0.042101037 0.667 -0.042101037 1.7971894e-38 284 276
-0.040931564 0.667 -0.042101037 1.8064089e-38 285 276
-0.039762091 0.667 -0.042101037 1.8248484e-38 286 276
-0.038592618 0.667 -0.042101037 1.8248484e-38 287 276
-0.037367038 0.66600001 -0.042037919 1.8248852e-38 288 276
-0.03619932 0.66600001 -0.042037919 1.8248852e-38 289 276
-0.035031598 0.66600001 -0.042037919 1.8433245e-38 290 276
-0.03386388 0.66600001 -0.042037919 1.8433245e-38 291 276
-0.032696161 0.66600001 -0.042037919 1.8525796e-38 292 276
-0.031528439 0.66600001 -0.042037919 1.8433601e-38 293 276
-0.030360719 0.66600001 -0.042037919 1.8616913e-38 294 276
-0.029192999 0.66600001 -0.042037919 1.8616913e-38 295 276
-0.028025279 0.66600001 -0.042037919 1.8709111e-38 296 276
-0.026857559 0.66600001 -0.042037919 1.8801307e-38 297 276
-0.025728412 0.667 -0.042101037 1.8617995e-38 298 276
-0.02452212 0.66600001 -0.042037919 1.8617995e-38 299 276
-0.023354398 0.66600001 -0.042037919 1.8802023e-38 300 276
-0.02218668 0.66600001 -0.042037919 1.8617992e-38 301 276
-0.02101896 0.66600001 -0.042037919 1.8618358e-38 302 276
-0.019851239 0.66600001 -0.042037919 1.8618358e-38 303 276
-0.018571306 0.662 -0.041785441 1.861836e-38 304 276
-0.017410601 0.662 -0.041785441 1.861836e-38 305 276
-0.016249891 0.662 -0.041785441 1.861836e-38 306 276
-0.015089186 0.662 -0.041785441 1.8710556e-38 307 276
-0.01392848 0.662 -0.041785441 1.8710553e-38 308 276
-0.012767773 0.662 -0.041785441 1.8618358e-38 309 276
-0.011607066 0.662 -0.041785441 1.8801673e-38 310 276
-0.01044636 0.662 -0.041785441 1.8801673e-38 311 276
-0.009285653 0.662 -0.041785441 1.8801676e-38 312 276
-0.0081249457 0.662 -0.041785441 1.8801676e-38 313 276
-0.0069642398 0.662 -0.041785441 1.880167e-38 314 276
-0.0058035329 0.662 -0.041785441 1.880167e-38 315 276
-0.0046358132 0.66100001 -0.04172232 1.880167e-38 316 276
-0.00347686 0.66100001 -0.04172232 1.880167e-38 317 276
-0.0023179066 0.66100001 -0.04172232 1.8801676e-38 318 276
-0.0011589533 0.66100001 -0.04172232 1.8617286e-38 319 276
0 0.65899998 -0.041596077 1.8525812e-38 320 276
0.0011554466 0.65899998 -0.041596077 1.8618007e-38 321 276
0.0023108933 0.65899998 -0.041596077 1.8618005e-38 322 276
0.00347686 0.66100001 -0.04172232 1.8618005e-38 323 276
0.0046358132 0.66100001 -0.04172232 1.8525809e-38 324 276
0.0058035329 0.662 -0.041785441 1.8525809e-38 325 276
0.0069642398 0.662 -0.041785441 1.8342497e-38 326 276
0.0081249457 0.662 -0.041785441 1.8342497e-38 327 276
0.009285653 0.662 -0.041785441 1.8250301e-38 328 276
0.01044636 0.662 -0.041785441 1.8250301e-38 329 276
0.011607066 0.662 -0.041785441 1.8250304e-38 330 276
0.012748486 0.66100001 -0.04172232 1.8250304e-38 331 276
0.01390744 0.66100001 -0.04172232 1.7974084e-38 332 276
0.015066394 0.66100001 -0.04172232 1.7974084e-38 333 276
0.016348081 0.66600001 -0.042037919 1.7881891e-38 334 276
0.017515799 0.66600001 -0.042037919 1.7881891e-38 335 276
0.018683519 0.66600001 -0.042037919 1.7789341e-38 336 276
0.019851239 0.66600001 -0.042037919 1.7697145e-38 337 276
0.020955838 0.66399997 -0.041911677 1.7697143e-38 338 276
0.022120051 0.66399997 -0.041911677 1.7604947e-38 339 276
0.023284266 0.66399997 -0.041911677 1.7421635e-38 340 276
0.024448479 0.66399997 -0.041911677 1.7421635e-38 341 276
0.025612691 0.66399997 -0.041911677 1.7145774e-38 342 276
0.026776904 0.66399997 -0.041911677 1.7145774e-38 343 276
0.027941117 0.66399997 -0.041911677 1.723654e-38 344 276
0.02910533 0.66399997 -0.041911677 1.705215e-38 345 276
0.030269546 0.66399997 -0.041911677 1.6592265e-38 346 276
0.031528439 0.66600001 -0.042037919 1.6592265e-38 347 276
0.046505414 0.69800001 -0.04405776 1.6778135e-38 358 276
0.047729239 0.69800001 -0.04405776 1.5211168e-38 359 276
0.048953064 0.69800001 -0.04405776 1.3086687e-38 360 276
0.050320663 0.69999999 -0.044183996 1.2994491e-38 361 276
0.051400717 0.69800001 -0.04405776 1.354586e-38 362 276
0.052624546 0.69800001 -0.04405776 1.3453665e-38 363 276
0.054234106 0.70300001 -0.04437336 1.2718991e-38 364 276
0.0554667 0.70300001 -0.04437336 1.2626794e-38 365 276
0.056699295 0.70300001 -0.04437336 1.2073274e-38 366 276
0.057931885 0.70300001 -0.04437336 1.1888881e-38 367 276
0.059501119 0.70700002 -0.044625837 1.15201e-38 368 276
0.060740728 0.70700002 -0.044625837 1.0505588e-38 369 276
-0.0912119 0.70300001 -0.04560595 1.3088444e-38 246 277
-0.089979313 0.70300001 -0.04560595 1.3272475e-38 247 277
-0.088494234 0.70099998 -0.045476202 1.3457921e-38 248 277
-0.087140664 0.69999999 -0.04541133 1.3457921e-38 249 277
-0.085667863 0.69800001 -0.045281585 1.3641939e-38 250 277
-0.084323063 0.69700003 -0.045216713 1.3457908e-38 251 277
-0.082743309 0.69400001 -0.045022093 1.3365709e-38 252 277
-0.081056595 0.69 -0.0447626 1.3365709e-38 253 277
-0.079846799 0.69 -0.0447626 1.3549025e-38 254 277
-0.078409068 0.68800002 -0.044632856 1.3549025e-38 255 277
-0.077090554 0.68699998 -0.044567976 1.3549027e-38 256 277
-0.075775556 0.68599999 -0.044503104 1.3641223e-38 257 277
-0.074355356 0.68400002 -0.04437336 1.3641576e-38 258 277
-0.073049128 0.68300003 -0.044308487 1.3733772e-38 259 277
-0.071746394 0.68199998 -0.044243611 1.4102544e-38 260 277
-0.070550621 0.68199998 -0.044243611 1.4287296e-38 261 277
-0.069151461 0.68000001 -0.044113863 1.4288368e-38 262 277
-0.067859262 0.67900002 -0.044048995 1.4472759e-38 263 277
-0.066668749 0.67900002 -0.044048995 1.4933018e-38 264 277
-0.065381795 0.67799997 -0.043984115 1.5209605e-38 265 277
-0.06419304 0.67799997 -0.043984115 1.5577679e-38 266 277
-0.062818423 0.676 -0.043854371 1.5854624e-38 267 277
-0.061542001 0.67500001 -0.043789499 1.6222331e-38 268 277
-0.060358498 0.67500001 -0.043789499 1.6222331e-38 269 277
-0.059087332 0.67400002 -0.043724626 1.6590392e-38 270 277
-0.057733759 0.67199999 -0.043594878 1.6498196e-38 271 277
-0.056555521 0.67199999 -0.043594878 1.6682587e-38 272 277
-0.055377278 0.67199999 -0.043594878 1.6590392e-38 273 277
-0.054118387 0.671 -0.043530006 1.6407795e-38 274 277
-0.052941896 0.671 -0.043530006 1.63156e-38 275 277
-0.051765412 0.671 -0.043530006 1.6682584e-38 276 277
-0.050513536 0.67000002 -0.043465134 1.6682584e-38 277 277
-0.04919152 0.66799998 -0.043335386 1.6682237e-38 278 277
-0.048020288 0.66799998 -0.043335386 1.6958464e-38 279 277
-0.046778932 0.667 -0.04327051 1.7049946e-38 280 277
-0.045609459 0.667 -0.04327051 1.7326174e-38 281 277
-0.04437336 0.66600001 -0.043205637 1.686735e-38 282 277
-0.043205637 0.66600001 -0.043205637 1.7143578e-38 283 277
-0.042037919 0.66600001 -0.043205637 1.7236127e-38 284 277
-0.040870197 0.66600001 -0.043205637 1.7328322e-38 285 277
-0.039702479 0.66600001 -0.043205637 1.7787864e-38 286 277
-0.03853476 0.66600001 -0.043205637 1.7787864e-38 287 277
-0.037367038 0.66600001 -0.043205637 1.7512363e-38 288 277
-0.03619932 0.66600001 -0.043205637 1.7604919e-38 289 277
-0.035031598 0.66600001 -0.043205637 1.778895e-38 290 277
-0.033762183 0.66399997 -0.043075889 1.778895e-38 291 277
-0.03259797 0.66399997 -0.043075889 1.788043e-38 292 277
-0.031433757 0.66399997 -0.043075889 1.8156656e-38 293 277
-0.030269546 0.66399997 -0.043075889 1.8248136e-38 294 277
-0.02910533 0.66399997 -0.043075889 1.8248136e-38 295 277
-0.028025279 0.66600001 -0.043205637 1.8248855e-38 296 277
-0.026857559 0.66600001 -0.043205637 1.834105e-38 297 277
-0.02568984 0.66600001 -0.043205637 1.8157735e-38 298 277
-0.024448479 0.66399997 -0.043075889 1.8157735e-38 299 277
-0.023284266 0.66399997 -0.043075889 1.8433245e-38 300 277
-0.022053426 0.662 -0.042946145 1.8433245e-38 301 277
-0.02086116 0.66100001 -0.042881273 1.8249579e-38 302 277
-0.019702207 0.66100001 -0.042881273 1.8433969e-38 303 277
-0.018543253 0.66100001 -0.042881273 1.8433613e-38 304 277
-0.0173843 0.66100001 -0.042881273 1.8525809e-38 305 277
-0.016225345 0.66100001 -0.042881273 1.8525809e-38 306 277
-0.015066394 0.66100001 -0.042881273 1.8618005e-38 307 277
-0.01390744 0.66100001 -0.042881273 1.8525809e-38 308 277
-0.012748486 0.66100001 -0.042881273 1.8525809e-38 309 277
-0.011589534 0.66100001 -0.042881273 1.8617286e-38 310 277
-0.01043058 0.66100001 -0.042881273 1.8617286e-38 311 277
-0.0092716264 0.66100001 -0.042881273 1.8526165e-38 312 277
-0.0081126727 0.66100001 -0.042881273 1.8526165e-38 313 277
-0.00695372 0.66100001 -0.042881273 1.8526165e-38 314 277
-0.0057947668 0.66100001 -0.042881273 1.8433969e-38 315 277
-0.0046358132 0.66100001 -0.042881273 1.852509e-38 316 277
-0.0034663398 0.65899998 -0.042751525 1.852509e-38 317 277
-0.0023108933 0.65899998 -0.042751525 1.8525093e-38 318 277
-0.0011554466 0.65899998 -0.042751525 1.8617288e-38 319 277
0 0.65899998 -0.042751525 1.8525812e-38 320 277
0.0011554466 0.65899998 -0.042751525 1.8525812e-38 321 277
0.0023108933 0.65899998 -0.042751525 1.8525809e-38 322 277
0.0034663398 0.65899998 -0.042751525 1.8433613e-38 323 277
0.0046358132 0.66100001 -0.042881273 1.852509e-38 324 277
0.0057947668 0.66100001 -0.042881273 1.852509e-38 325 277
0.00695372 0.66100001 -0.042881273 1.8250301e-38 326 277
0.0081126727 0.66100001 -0.042881273 1.8250301e-38 327 277
0.0092716264 0.66100001 -0.042881273 1.8433613e-38 328 277
0.01043058 0.66100001 -0.042881273 1.8157387e-38 329 277
0.011589534 0.66100001 -0.042881273 1.8157031e-38 330 277
0.012748486 0.66100001 -0.042881273 1.8157031e-38 331 277
0.01390744 0.66100001 -0.042881273 1.8065201e-38 332 277
0.015066394 0.66100001 -0.042881273 1.7973004e-38 333 277
0.016249891 0.662 -0.042946145 1.7973009e-38 334 277
0.017436899 0.66299999 -0.043011017 1.7973009e-38 335 277
0.018627413 0.66399997 -0.043075889 1.7697143e-38 336 277
0.019791625 0.66399997 -0.043075889 1.7604947e-38 337 277
0.020955838 0.66399997 -0.043075889 1.732872e-38 338 277
0.022120051 0.66399997 -0.043075889 1.7236166e-38 339 277
0.023284266 0.66399997 -0.043075889 1.7052856e-38 340 277
0.024448479 0.66399997 -0.043075889 1.7052856e-38 341 277
0.025612691 0.66399997 -0.043075889 1.6960659e-38 342 277
0.026776904 0.66399997 -0.043075889 1.6868464e-38 343 277
0.027941117 0.66399997 -0.043075889 1.6774467e-38 344 277
0.029192999 0.66600001 -0.043205637 1.668227e-38 345 277
0.030360719 0.66600001 -0.043205637 1.5668839e-38 346 277
0.031528439 0.66600001 -0.043205637 1.5761034e-38 347 277
0.032892533 0.67000002 -0.043465134 1.5486269e-38 348 277
0.046505414 0.69800001 -0.045281585 1.5024583e-38 358 277
0.047729239 0.69800001 -0.045281585 1.4379214e-38 359 277
0.048953064 0.69800001 -0.045281585 1.3365052e-38 360 277
0.050320663 0.69999999 -0.04541133 1.3180302e-38 361 277
0.051547997 0.69999999 -0.04541133 1.3087754e-38 362 277
0.052775331 0.69999999 -0.04541133 1.1981765e-38 363 277
0.054234106 0.70300001 -0.04560595 1.1430052e-38 364 277
0.0554667 0.70300001 -0.04560595 1.2444204e-38 365 277
0.056699295 0.70300001 -0.04560595 1.1801001e-38 366 277
0.057931885 0.70300001 -0.04560595 1.1247829e-38 367 277
-0.0912119 0.70300001 -0.046838548 1.2812599e-38 246 278
-0.089979313 0.70300001 -0.046838548 1.2812599e-38 247 278
-0.088115521 0.69800001 -0.046505414 1.3181709e-38 248 278
-0.086891696 0.69800001 -0.046505414 1.3181709e-38 249 278
-0.08554513 0.69700003 -0.046438783 1.3366078e-38 250 278
-0.084202074 0.69599998 -0.046372157 1.3273882e-38 251 278
-0.082743309 0.69400001 -0.046238903 1.3274233e-38 252 278
-0.081174068 0.69099998 -0.046039023 1.3274233e-38 253 278
-0.079846799 0.69 -0.045972396 1.3456827e-38 254 278
-0.078409068 0.68800002 -0.045839146 1.3549025e-38 255 278
-0.077202775 0.68800002 -0.045839146 1.3456827e-38 256 278
-0.075886011 0.68699998 -0.045772515 1.3549025e-38 257 278
-0.074355356 0.68400002 -0.045572639 1.3365709e-38 258 278
-0.073049128 0.68300003 -0.045506012 1.3457905e-38 259 278
-0.071746394 0.68199998 -0.045439381 1.3551176e-38 260 278
-0.070550621 0.68199998 -0.045439381 1.3643371e-38 261 278
-0.069151461 0.68000001 -0.045306131 1.391779e-38 262 278
-0.067859262 0.67900002 -0.045239504 1.4194377e-38 263 278
-0.066570558 0.67799997 -0.045172878 1.4104702e-38 264 278
-0.065381795 0.67799997 -0.045172878 1.4289094e-38 265 278
-0.064003684 0.676 -0.045039624 1.4932315e-38 266 278
-0.062818423 0.676 -0.045039624 1.5392933e-38 267 278
-0.061542001 0.67500001 -0.044972997 1.5577679e-38 268 278
-0.06026908 0.67400002 -0.044906374 1.5762429e-38 269 278
-0.058911994 0.67199999 -0.044773117 1.6313798e-38 270 278
-0.057733759 0.67199999 -0.044773117 1.6221602e-38 271 278
-0.056471359 0.671 -0.044706494 1.6221605e-38 272 278
-0.055294871 0.671 -0.044706494 1.63138e-38 273 278
-0.054118387 0.671 -0.044706494 1.6130851e-38 274 278
-0.052863002 0.67000002 -0.044639867 1.6130851e-38 275 278
-0.051688269 0.67000002 -0.044639867 1.6405646e-38 276 278
-0.050362743 0.66799998 -0.044506609 1.6497843e-38 277 278
-0.049117878 0.667 -0.044439986 1.6313824e-38 278 278
-0.047948405 0.667 -0.044439986 1.6497855e-38 279 278
-0.046708796 0.66600001 -0.04437336 1.6588982e-38 280 278
-0.045541082 0.66600001 -0.04437336 1.6865567e-38 281 278
-0.04437336 0.66600001 -0.04437336 1.6406388e-38 282 278
-0.043205637 0.66600001 -0.04437336 1.6682615e-38 283 278
-0.042037919 0.66600001 -0.04437336 1.6775168e-38 284 278
-0.040870197 0.66600001 -0.04437336 1.6867364e-38 285 278
-0.039702479 0.66600001 -0.04437336 1.7052458e-38 286 278
-0.03853476 0.66600001 -0.04437336 1.6960263e-38 287 278
-0.037367038 0.66600001 -0.04437336 1.7327606e-38 288 278
-0.036090612 0.66399997 -0.044240102 1.7511637e-38 289 278
-0.0349264 0.66399997 -0.044240102 1.7143956e-38 290 278
-0.033762183 0.66399997 -0.044240102 1.7327987e-38 291 278
-0.032548878 0.66299999 -0.044173479 1.7510581e-38 292 278
-0.031386416 0.66299999 -0.044173479 1.7602776e-38 293 278
-0.030269546 0.66399997 -0.044240102 1.797119e-38 294 278
-0.029061496 0.66299999 -0.044173479 1.8063386e-38 295 278
-0.027856959 0.662 -0.044106852 1.7788594e-38 296 278
-0.026696252 0.662 -0.044106852 1.7788594e-38 297 278
-0.025535546 0.662 -0.044106852 1.7788945e-38 298 278
-0.024374841 0.662 -0.044106852 1.7881499e-38 299 278
-0.023214132 0.662 -0.044106852 1.8156656e-38 300 278
-0.022053426 0.662 -0.044106852 1.8248852e-38 301 278
-0.02086116 0.66100001 -0.044040225 1.7789694e-38 302 278
-0.019702207 0.66100001 -0.044040225 1.7881891e-38 303 278
-0.018543253 0.66100001 -0.044040225 1.7882244e-38 304 278
-0.017331699 0.65899998 -0.043906972 1.7882244e-38 305 278
-0.016176252 0.65899998 -0.043906972 1.8433613e-38 306 278
-0.015066394 0.66100001 -0.044040225 1.8433613e-38 307 278
-0.013865359 0.65899998 -0.043906972 1.8249582e-38 308 278
-0.012709912 0.65899998 -0.043906972 1.8157387e-38 309 278
-0.011554466 0.65899998 -0.043906972 1.8433613e-38 310 278
-0.010399019 0.65899998 -0.043906972 1.8433613e-38 311 278
-0.0092435731 0.65899998 -0.043906972 1.8250301e-38 312 278
-0.0081126727 0.66100001 -0.044040225 1.8250301e-38 313 278
-0.0069326796 0.65899998 -0.043906972 1.8342497e-38 314 278
-0.0057772328 0.65899998 -0.043906972 1.8250301e-38 315 278
-0.0046358132 0.66100001 -0.044040225 1.8433616e-38 316 278
-0.0034663398 0.65899998 -0.043906972 1.8249585e-38 317 278
-0.0023108933 0.65899998 -0.043906972 1.8249232e-38 318 278
-0.0011554466 0.65899998 -0.043906972 1.8433263e-38 319 278
0 0.65799999 -0.043840345 1.8342144e-38 320 278
0.0011536933 0.65799999 -0.043840345 1.8342144e-38 321 278
0.0023073866 0.65799999 -0.043840345 1.8066633e-38 322 278
0.0034663398 0.65899998 -0.043906972 1.7974437e-38 323 278
0.0046217865 0.65899998 -0.043906972 1.8249585e-38 324 278
0.0057947668 0.66100001 -0.044040225 1.8249585e-38 325 278
0.00695372 0.66100001 -0.044040225 1.8525812e-38 326 278
0.0081126727 0.66100001 -0.044040225 1.8249585e-38 327 278
0.0092716264 0.66100001 -0.044040225 1.8065201e-38 328 278
0.01043058 0.66100001 -0.044040225 1.7973004e-38 329 278
0.011589534 0.66100001 -0.044040225 1.7971934e-38 330 278
0.012748486 0.66100001 -0.044040225 1.7971934e-38 331 278
0.01390744 0.66100001 -0.044040225 1.760495e-38 332 278
0.015066394 0.66100001 -0.044040225 1.760495e-38 333 278
0.016249891 0.662 -0.044106852 1.7604581e-38 334 278
0.017436899 0.66299999 -0.044173479 1.7696777e-38 335 278
0.018627413 0.66399997 -0.044240102 1.7420916e-38 336 278
0.019791625 0.66399997 -0.044240102 1.7236166e-38 337 278
0.020955838 0.66399997 -0.044240102 1.6868108e-38 338 278
0.022120051 0.66399997 -0.044240102 1.6868108e-38 339 278
0.023284266 0.66399997 -0.044240102 1.6776628e-38 340 278
0.024448479 0.66399997 -0.044240102 1.6776628e-38 341 278
0.025612691 0.66399997 -0.044240102 1.65926e-38 342 278
0.026776904 0.66399997 -0.044240102 1.6408209e-38 343 278
0.027941117 0.66399997 -0.044240102 1.6313487e-38 344 278
0.029192999 0.66600001 -0.04437336 1.5575921e-38 345 278
0.030360719 0.66600001 -0.04437336 1.4653592e-38 346 278
0.031528439 0.66600001 -0.04437336 1.4561397e-38 347 278
0.032745253 0.667 -0.044439986 1.4932703e-38 348 278
0.033914726 0.667 -0.044439986 1.4932703e-38 349 278
0.035136797 0.66799998 -0.044506609 1.3922186e-38 350 278
0.036471087 0.671 -0.044706494 1.4936338e-38 351 278
0.037647571 0.671 -0.044706494 1.6040202e-38 352 278
0.040675577 0.70300001 -0.046838548 1.6408985e-38 353 278
0.041908171 0.70300001 -0.046838548 1.6408616e-38 354 278
0.043140765 0.70300001 -0.046838548 1.5302269e-38 355 278
0.04437336 0.70300001 -0.046838548 1.4839454e-38 356 278
0.046638668 0.69999999 -0.046638668 1.4011122e-38 358 278
0.047865998 0.69999999 -0.046638668 1.4379546e-38 359 278
0.049093332 0.69999999 -0.046638668 1.4104407e-38 360 278
0.050320663 0.69999999 -0.046638668 1.3459037e-38 361 278
0.051547997 0.69999999 -0.046638668 1.1615841e-38 362 278
0.052850723 0.70099998 -0.046705291 9.7722869e-39 363 278
0.054234106 0.70300001 -0.046838548 8.3915427e-39 364 278
0.0554667 0.70300001 -0.046838548 1.0880825e-38 365 278
-0.089083351 0.69599998 -0.047592476 1.24424e-38 247 279
-0.087863036 0.69599998 -0.047592476 1.3179204e-38 248 279
-0.08664272 0.69599998 -0.047592476 1.3363955e-38 249 279
-0.085422389 0.69599998 -0.047592476 1.3365728e-38 250 279
-0.084202074 0.69599998 -0.047592476 1.3273532e-38 251 279
-0.082743309 0.69400001 -0.047455717 1.327388e-38 252 279
-0.081174068 0.69099998 -0.047250576 1.3089847e-38 253 279
-0.079846799 0.69 -0.047182199 1.345683e-38 254 279
-0.078409068 0.68800002 -0.047045439 1.345683e-38 255 279
-0.077202775 0.68800002 -0.047045439 1.3365712e-38 256 279
-0.075886011 0.68699998 -0.046977058 1.3365712e-38 257 279
-0.074572764 0.68599999 -0.046908677 1.3457181e-38 258 279
-0.073049128 0.68300003 -0.04670354 1.3457181e-38 259 279
-0.071851604 0.68300003 -0.04670354 1.3549729e-38 260 279
-0.070550621 0.68199998 -0.046635158 1.3549729e-38 261 279
-0.069151461 0.68000001 -0.046498399 1.3825239e-38 262 279
-0.067859262 0.67900002 -0.046430022 1.400963e-38 263 279
-0.066570558 0.67799997 -0.046361636 1.3641924e-38 264 279
-0.065188929 0.676 -0.046224877 1.3641924e-38 265 279
-0.064003684 0.676 -0.046224877 1.4011431e-38 266 279
-0.062725499 0.67500001 -0.0461565 1.4287659e-38 267 279
-0.061450824 0.67400002 -0.046088122 1.4564248e-38 268 279
-0.06026908 0.67400002 -0.046088122 1.4749e-38 269 279
-0.058911994 0.67199999 -0.045951359 1.5209255e-38 270 279
-0.057733759 0.67199999 -0.045951359 1.5393286e-38 271 279
-0.056471359 0.671 -0.045882981 1.5485129e-38 272 279
-0.055294871 0.671 -0.045882981 1.566988e-38 273 279
-0.054037735 0.67000002 -0.0458146 1.5945391e-38 274 279
-0.052863002 0.67000002 -0.0458146 1.5945391e-38 275 279
-0.051533967 0.66799998 -0.045677837 1.6220177e-38 276 279
-0.050362743 0.66799998 -0.045677837 1.6312731e-38 277 279
-0.049117878 0.667 -0.045609459 1.6312731e-38 278 279
-0.047948405 0.667 -0.045609459 1.6404927e-38 279 279
-0.046708796 0.66600001 -0.045541082 1.6404574e-38 280 279
-0.045541082 0.66600001 -0.045541082 1.6588605e-38 281 279
-0.044240102 0.66399997 -0.045404319 1.6588605e-38 282 279
-0.043075889 0.66399997 -0.045404319 1.6773356e-38 283 279
-0.041911677 0.66399997 -0.045404319 1.6682237e-38 284 279
-0.040747464 0.66399997 -0.045404319 1.6866268e-38 285 279
-0.039583251 0.66399997 -0.045404319 1.6958817e-38 286 279
-0.038419038 0.66399997 -0.045404319 1.6866621e-38 287 279
-0.037254825 0.66399997 -0.045404319 1.7233606e-38 288 279
-0.036090612 0.66399997 -0.045404319 1.732616e-38 289 279
-0.0349264 0.66399997 -0.045404319 1.7233977e-38 290 279
-0.033711337 0.66299999 -0.045335937 1.7326174e-38 291 279
-0.032548878 0.66299999 -0.045335937 1.7233974e-38 292 279
-0.031386416 0.66299999 -0.045335937 1.7233974e-38 293 279
-0.030223956 0.66299999 -0.045335937 1.723433e-38 294 279
-0.029061496 0.66299999 -0.045335937 1.7326527e-38 295 279
-0.027856959 0.662 -0.04526756 1.7235411e-38 296 279
-0.026696252 0.662 -0.04526756 1.7235411e-38 297 279
-0.025496973 0.66100001 -0.045199182 1.7143934e-38 298 279
-0.02433802 0.66100001 -0.045199182 1.7143934e-38 299 279
-0.023179067 0.66100001 -0.045199182 1.7052464e-38 300 279
-0.022020113 0.66100001 -0.045199182 1.714466e-38 301 279
-0.020798039 0.65899998 -0.045062415 1.742054e-38 302 279
-0.019642593 0.65899998 -0.045062415 1.7604932e-38 303 279
-0.018487146 0.65899998 -0.045062415 1.7879721e-38 304 279
-0.017331699 0.65899998 -0.045062415 1.7879721e-38 305 279
-0.016176252 0.65899998 -0.045062415 1.7512014e-38 306 279
-0.015020805 0.65899998 -0.045062415 1.760421e-38 307 279
-0.013865359 0.65899998 -0.045062415 1.7606004e-38 308 279
-0.012709912 0.65899998 -0.045062415 1.7421972e-38 309 279
-0.011554466 0.65899998 -0.045062415 1.7880795e-38 310 279
-0.010399019 0.65899998 -0.045062415 1.7880795e-38 311 279
-0.0092435731 0.65899998 -0.045062415 1.7697483e-38 312 279
-0.0080881258 0.65899998 -0.045062415 1.7697483e-38 313 279
-0.0069326796 0.65899998 -0.045062415 1.7514531e-38 314 279
-0.0057772328 0.65899998 -0.045062415 1.7606727e-38 315 279
-0.0046217865 0.65899998 -0.045062415 1.8248502e-38 316 279
-0.0034663398 0.65899998 -0.045062415 1.8156306e-38 317 279
-0.0023108933 0.65899998 -0.045062415 1.7880445e-38 318 279
-0.0011536933 0.65799999 -0.044994038 1.7972641e-38 319 279
0 0.65799999 -0.044994038 1.7790045e-38 320 279
0.0011536933 0.65799999 -0.044994038 1.7697849e-38 321 279
0.0023073866 0.65799999 -0.044994038 1.7972991e-38 322 279
0.0034610799 0.65799999 -0.044994038 1.7972991e-38 323 279
0.0046217865 0.65899998 -0.045062415 1.7421617e-38 324 279
0.0057772328 0.65899998 -0.045062415 1.7697843e-38 325 279
0.0069326796 0.65899998 -0.045062415 1.7697483e-38 326 279
0.0080881258 0.65899998 -0.045062415 1.7604929e-38 327 279
0.0092435731 0.65899998 -0.045062415 1.7879726e-38 328 279
0.010399019 0.65899998 -0.045062415 1.7879726e-38 329 279
0.011554466 0.65899998 -0.045062415 1.7786459e-38 330 279
0.012709912 0.65899998 -0.045062415 1.7786459e-38 331 279
0.013865359 0.65899998 -0.045062415 1.696101e-38 332 279
0.015020805 0.65899998 -0.045062415 1.6868814e-38 333 279
0.016225345 0.66100001 -0.045199182 1.7052126e-38 334 279
0.017410601 0.662 -0.04526756 1.7144322e-38 335 279
0.018599359 0.66299999 -0.045335937 1.7235076e-38 336 279
0.019761819 0.66299999 -0.045335937 1.695849e-38 337 279
0.020955838 0.66399997 -0.045404319 1.6683345e-38 338 279
0.022120051 0.66399997 -0.045404319 1.6683345e-38 339 279
0.023284266 0.66399997 -0.045404319 1.668407e-38 340 279
0.024448479 0.66399997 -0.045404319 1.6776265e-38 341 279
0.025612691 0.66399997 -0.045404319 1.6408206e-38 342 279
0.026776904 0.66399997 -0.045404319 1.6131259e-38 343 279
0.027941117 0.66399997 -0.045404319 1.5578438e-38 344 279
0.02910533 0.66399997 -0.045404319 1.5025625e-38 345 279
0.030360719 0.66600001 -0.045541082 1.4102224e-38 346 279
0.031528439 0.66600001 -0.045541082 1.4286255e-38 347 279
0.032696161 0.66600001 -0.045541082 1.4746513e-38 348 279
0.033914726 0.667 -0.045609459 1.4746513e-38 349 279
0.035136797 0.66799998 -0.045677837 1.4195156e-38 350 279
0.036471087 0.671 -0.045882981 1.4840526e-38 351 279
0.037647571 0.671 -0.045882981 1.51193e-38 352 279
0.046705291 0.70099998 -0.047934376 1.4382063e-38 358 279
0.047934376 0.70099998 -0.047934376 1.4382063e-38 359 279
-0.089083351 0.69599998 -0.048812799 1.1707728e-38 247 280
