# .PCD v.7 - Point Cloud Data file format
FIELDS x y z rgb imX imY
SIZE 4 4 4 4 4 4
TYPE F F F F F F
COUNT 1 1 1 1 1 1
WIDTH 832
HEIGHT 1
VIEWPOINT 0 0 0 1 0 0 0
POINTS 832
DATA ascii
0.01189812 0.75400001 -0.00396604 1.7512341e-38 329 243
0.013220133 0.75400001 -0.00396604 1.7696735e-38 330 243
0.014503572 0.75199997 -0.0039555198 1.7696735e-38 331 243
0.015822079 0.75199997 -0.0039555198 1.7879331e-38 332 243
0.017140586 0.75199997 -0.0039555198 1.7879331e-38 333 243
0.018459093 0.75199997 -0.0039555198 1.7878975e-38 334 243
0.019724999 0.75 -0.003945 1.7878975e-38 335 243
0.02104 0.75 -0.003945 1.7787861e-38 336 243
0.022355 0.75 -0.003945 1.7787861e-38 337 243
0.023669999 0.75 -0.003945 1.7971894e-38 338 243
0.024984999 0.75 -0.003945 1.7971894e-38 339 243
0.02637013 0.75199997 -0.0039555198 1.8063724e-38 340 243
0.027688639 0.75199997 -0.0039555198 1.8063724e-38 341 243
0.029007144 0.75199997 -0.0039555198 1.8063727e-38 342 243
0.030244999 0.75 -0.003945 1.8155922e-38 343 243
0.03156 0.75 -0.003945 1.8063736e-38 344 243
0.032874998 0.75 -0.003945 1.8063736e-38 345 243
0.034189999 0.75 -0.003945 1.8155216e-38 346 243
0.03545766 0.74900001 -0.0039397399 1.8339247e-38 347 243
0.036770906 0.74900001 -0.0039397399 1.8431077e-38 348 243
0.038084153 0.74900001 -0.0039397399 1.8523631e-38 349 243
0.0393974 0.74900001 -0.0039397399 1.8432152e-38 350 243
0.040601939 0.74699998 -0.0039292197 1.8432152e-38 351 243
0.041911677 0.74699998 -0.0039292197 1.8432505e-38 352 243
0.043221418 0.74699998 -0.0039292197 1.8432505e-38 353 243
0.044531155 0.74699998 -0.0039292197 1.824919e-38 354 243
0.045840897 0.74699998 -0.0039292197 1.824919e-38 355 243
0.047087517 0.74599999 -0.0039239596 1.8432499e-38 356 243
0.048265759 0.74400002 -0.0039134403 1.8432499e-38 357 243
0.04957024 0.74400002 -0.0039134403 1.8432502e-38 358 243
0.050874721 0.74400002 -0.0039134403 1.8432502e-38 359 243
0.052179199 0.74400002 -0.0039134403 1.8432502e-38 360 243
0.053339902 0.74199998 -0.0039029196 1.8432502e-38 361 243
0.054640878 0.74199998 -0.0039029196 1.8156989e-38 362 243
0.05594185 0.74199998 -0.0039029196 1.8156989e-38 363 243
0.057165679 0.741 -0.0038976599 1.8156623e-38 364 243
0.0584649 0.741 -0.0038976599 1.8340654e-38 365 243
0.059764117 0.741 -0.0038976599 1.8339585e-38 366 243
0.060898528 0.73900002 -0.00388714 1.8339585e-38 367 243
0.062194239 0.73900002 -0.00388714 1.824813e-38 368 243
0.063489959 0.73900002 -0.00388714 1.8340685e-38 369 243
0.064785667 0.73900002 -0.00388714 1.8246335e-38 370 243
0.066081382 0.73900002 -0.00388714 1.7693162e-38 371 243
0.06737709 0.73900002 -0.00388714 1.6954878e-38 372 243
0.068672806 0.73900002 -0.00388714 1.6217311e-38 373 243
0.070157878 0.741 -0.0038976599 1.4375569e-38 374 243
0.071457103 0.741 -0.0038976599 1.308483e-38 375 243
0.072559945 0.73900002 -0.00388714 1.1517894e-38 376 243
0.073855661 0.73900002 -0.00388714 1.0687773e-38 377 243
0.075151369 0.73900002 -0.00388714 9.5821518e-39 378 243
0.076447085 0.73900002 -0.00388714 7.7382392e-39 379 243
0.0777428 0.73900002 -0.00388714 6.9077779e-39 380 243
-0.060006075 0.74400002 -0.0052179201 1.825034e-38 274 244
-0.058701597 0.74400002 -0.0052179201 1.8158143e-38 275 244
-0.057551414 0.74599999 -0.0052319462 1.8803122e-38 276 244
-0.056318816 0.74699998 -0.0052389596 1.8803122e-38 277 244
-0.055156358 0.74900001 -0.0052529867 1.8620163e-38 278 244
-0.053843111 0.74900001 -0.0052529867 1.8896389e-38 279 244
-0.0526 0.75 -0.00526 1.9171531e-38 280 244
-0.051284999 0.75 -0.00526 1.9171531e-38 281 244
-0.049969997 0.75 -0.00526 1.9171166e-38 282 244
-0.048655 0.75 -0.00526 1.9171166e-38 283 244
-0.047466237 0.75199997 -0.0052740262 1.9078614e-38 284 244
-0.04614773 0.75199997 -0.0052740262 1.8986417e-38 285 244
-0.044829223 0.75199997 -0.0052740262 1.8710909e-38 286 244
-0.04351072 0.75199997 -0.0052740262 1.8710909e-38 287 244
-0.04219221 0.75199997 -0.0052740262 1.8802379e-38 288 244
-0.040873703 0.75199997 -0.0052740262 1.8617989e-38 289 244
-0.039555199 0.75199997 -0.0052740262 1.843467e-38 290 244
-0.038338386 0.75400001 -0.0052880533 1.8250639e-38 291 244
-0.037016369 0.75400001 -0.0052880533 1.8433954e-38 292 244
-0.035694357 0.75400001 -0.0052880533 1.8433954e-38 293 244
-0.034372345 0.75400001 -0.0052880533 1.8340685e-38 294 244
-0.033050332 0.75400001 -0.0052880533 1.824813e-38 295 244
-0.03172832 0.75400001 -0.0052880533 1.7880777e-38 296 244
-0.030446632 0.755 -0.0052950666 1.7880777e-38 297 244
-0.029122867 0.755 -0.0052950666 1.7513437e-38 298 244
-0.027799098 0.755 -0.0052950666 1.7513437e-38 299 244
-0.026475333 0.755 -0.0052950666 1.7513083e-38 300 244
-0.025151566 0.755 -0.0052950666 1.714466e-38 301 244
-0.023827799 0.755 -0.0052950666 1.7604189e-38 302 244
-0.022504034 0.755 -0.0052950666 1.7511635e-38 303 244
-0.021180267 0.755 -0.0052950666 1.7143928e-38 304 244
-0.0198565 0.755 -0.0052950666 1.7236124e-38 305 244
-0.018508185 0.75400001 -0.0052880533 1.6777307e-38 306 244
-0.017186172 0.75400001 -0.0052880533 1.6684752e-38 307 244
-0.01586416 0.75400001 -0.0052880533 1.6592911e-38 308 244
-0.014542146 0.75400001 -0.0052880533 1.6408161e-38 309 244
-0.013220133 0.75400001 -0.0052880533 1.6407798e-38 310 244
-0.01189812 0.75400001 -0.0052880533 1.6407798e-38 311 244
-0.010576107 0.75400001 -0.0052880533 1.6315602e-38 312 244
-0.0092540924 0.75400001 -0.0052880533 1.6315602e-38 313 244
-0.00793208 0.75400001 -0.0052880533 1.6498549e-38 314 244
-0.0066100666 0.75400001 -0.0052880533 1.6313798e-38 315 244
-0.0052880533 0.75400001 -0.0052880533 1.5946088e-38 316 244
-0.00396604 0.75400001 -0.0052880533 1.5946088e-38 317 244
-0.0026440267 0.75400001 -0.0052880533 1.5946091e-38 318 244
-0.0013220133 0.75400001 -0.0052880533 1.6130483e-38 319 244
0 0.75400001 -0.0052880533 1.6038653e-38 320 244
0.0013220133 0.75400001 -0.0052880533 1.6038653e-38 321 244
0.0026440267 0.75400001 -0.0052880533 1.6130485e-38 322 244
0.00396604 0.75400001 -0.0052880533 1.6222681e-38 323 244
0.0052880533 0.75400001 -0.0052880533 1.6038287e-38 324 244
0.0066100666 0.75400001 -0.0052880533 1.5853896e-38 325 244
0.0079110395 0.75199997 -0.0052740262 1.6037571e-38 326 244
0.0092295464 0.75199997 -0.0052740262 1.6037571e-38 327 244
0.010548052 0.75199997 -0.0052740262 1.5854977e-38 328 244
0.011866559 0.75199997 -0.0052740262 1.6039009e-38 329 244
0.013185065 0.75199997 -0.0052740262 1.6498546e-38 330 244
0.014503572 0.75199997 -0.0052740262 1.6498546e-38 331 244
0.015822079 0.75199997 -0.0052740262 1.6498193e-38 332 244
0.017140586 0.75199997 -0.0052740262 1.6682584e-38 333 244
0.018459093 0.75199997 -0.0052740262 1.6499643e-38 334 244
0.019724999 0.75 -0.00526 1.6683675e-38 335 244
0.021011947 0.74900001 -0.0052529867 1.6592202e-38 336 244
0.022325192 0.74900001 -0.0052529867 1.6592202e-38 337 244
0.023669999 0.75 -0.00526 1.7143212e-38 338 244
0.024984999 0.75 -0.00526 1.7327603e-38 339 244
0.02637013 0.75199997 -0.0052740262 1.7236124e-38 340 244
0.027688639 0.75199997 -0.0052740262 1.7236124e-38 341 244
0.028929999 0.75 -0.00526 1.7603467e-38 342 244
0.030244999 0.75 -0.00526 1.7787858e-38 343 244
0.03156 0.75 -0.00526 1.7604189e-38 344 244
0.032831166 0.74900001 -0.0052529867 1.7696385e-38 345 244
0.034144413 0.74900001 -0.0052529867 1.8063727e-38 346 244
0.035362978 0.74699998 -0.0052389596 1.8063727e-38 347 244
0.036672719 0.74699998 -0.0052389596 1.8247039e-38 348 244
0.03798246 0.74699998 -0.0052389596 1.8247039e-38 349 244
0.039292198 0.74699998 -0.0052389596 1.8339232e-38 350 244
0.040601939 0.74699998 -0.0052389596 1.8339232e-38 351 244
0.041911677 0.74699998 -0.0052389596 1.8340306e-38 352 244
0.043221418 0.74699998 -0.0052389596 1.8156275e-38 353 244
0.044471547 0.74599999 -0.0052319462 1.8156272e-38 354 244
0.045779534 0.74599999 -0.0052319462 1.8156272e-38 355 244
0.047087517 0.74599999 -0.0052319462 1.8156275e-38 356 244
0.048395503 0.74599999 -0.0052319462 1.8340306e-38 357 244
0.04957024 0.74400002 -0.0052179201 1.8155919e-38 358 244
0.050874721 0.74400002 -0.0052179201 1.8155919e-38 359 244
0.05203893 0.74199998 -0.0052038929 1.8156272e-38 360 244
0.053339902 0.74199998 -0.0052038929 1.8340304e-38 361 244
0.054640878 0.74199998 -0.0052038929 1.815627e-38 362 244
0.05594185 0.74199998 -0.0052038929 1.815627e-38 363 244
0.057165679 0.741 -0.0051968796 1.8339215e-38 364 244
0.0584649 0.741 -0.0051968796 1.8247019e-38 365 244
0.059764117 0.741 -0.0051968796 1.806443e-38 366 244
0.060898528 0.73900002 -0.0051828534 1.8156626e-38 367 244
0.062194239 0.73900002 -0.0051828534 1.8064796e-38 368 244
0.063489959 0.73900002 -0.0051828534 1.8156991e-38 369 244
0.064785667 0.73900002 -0.0051828534 1.8432136e-38 370 244
0.066081382 0.73900002 -0.0051828534 1.8339941e-38 371 244
0.06737709 0.73900002 -0.0051828534 1.8339234e-38 372 244
0.068672806 0.73900002 -0.0051828534 1.8154842e-38 373 244
0.069968522 0.73900002 -0.0051828534 1.7418019e-38 374 244
0.07126423 0.73900002 -0.0051828534 1.6864846e-38 375 244
0.072559945 0.73900002 -0.0051828534 1.5942186e-38 376 244
0.073855661 0.73900002 -0.0051828534 1.437486e-38 377 244
0.075151369 0.73900002 -0.0051828534 1.3630809e-38 378 244
0.076447085 0.73900002 -0.0051828534 1.0496517e-38 379 244
0.0777428 0.73900002 -0.0051828534 6.3556621e-39 380 244
0.079252414 0.741 -0.0051968796 6.1709149e-39 381 244
-0.061557774 0.74699998 -0.0065486995 1.8065945e-38 273 245
-0.060006075 0.74400002 -0.0065223998 1.852654e-38 274 245
-0.058701597 0.74400002 -0.0065223998 1.8894964e-38 275 245
-0.057551414 0.74599999 -0.0065399334 1.8896742e-38 276 245
-0.056318816 0.74699998 -0.0065486995 1.8896742e-38 277 245
-0.055009075 0.74699998 -0.0065486995 1.8896024e-38 278 245
-0.053843111 0.74900001 -0.0065662335 1.8988219e-38 279 245
-0.052529868 0.74900001 -0.0065662335 1.889567e-38 280 245
-0.051216617 0.74900001 -0.0065662335 1.889567e-38 281 245
-0.04990337 0.74900001 -0.0065662335 1.8803475e-38 282 245
-0.048655 0.75 -0.006575 1.8711279e-38 283 245
-0.047339998 0.75 -0.006575 1.8710556e-38 284 245
-0.046024997 0.75 -0.006575 1.861836e-38 285 245
-0.044650383 0.74900001 -0.0065662335 1.8342853e-38 286 245
-0.04333714 0.74900001 -0.0065662335 1.8342853e-38 287 245
-0.04208 0.75 -0.006575 1.8250286e-38 288 245
-0.040764999 0.75 -0.006575 1.8250286e-38 289 245
-0.039555199 0.75199997 -0.0065925326 1.8066962e-38 290 245
-0.038236689 0.75199997 -0.0065925326 1.7790377e-38 291 245
-0.036918186 0.75199997 -0.0065925326 1.7972973e-38 292 245
-0.035694357 0.75400001 -0.0066100666 1.7972973e-38 293 245
-0.034372345 0.75400001 -0.0066100666 1.788113e-38 294 245
-0.033050332 0.75400001 -0.0066100666 1.7696738e-38 295 245
-0.03172832 0.75400001 -0.0066100666 1.7421221e-38 296 245
-0.030406307 0.75400001 -0.0066100666 1.7329026e-38 297 245
-0.029122867 0.755 -0.0066188332 1.6960613e-38 298 245
-0.027799098 0.755 -0.0066188332 1.6868418e-38 299 245
-0.026475333 0.755 -0.0066188332 1.6775867e-38 300 245
-0.025151566 0.755 -0.0066188332 1.6683672e-38 301 245
-0.023827799 0.755 -0.0066188332 1.6775858e-38 302 245
-0.022504034 0.755 -0.0066188332 1.6775858e-38 303 245
-0.021180267 0.755 -0.0066188332 1.6407798e-38 304 245
-0.0198565 0.755 -0.0066188332 1.6130851e-38 305 245
-0.018508185 0.75400001 -0.0066100666 1.6130498e-38 306 245
-0.017186172 0.75400001 -0.0066100666 1.6130498e-38 307 245
-0.01586416 0.75400001 -0.0066100666 1.5854987e-38 308 245
-0.014542146 0.75400001 -0.0066100666 1.5670596e-38 309 245
-0.013220133 0.75400001 -0.0066100666 1.5394013e-38 310 245
-0.01189812 0.75400001 -0.0066100666 1.5301816e-38 311 245
-0.010576107 0.75400001 -0.0066100666 1.5209991e-38 312 245
-0.0092540924 0.75400001 -0.0066100666 1.5302186e-38 313 245
-0.00793208 0.75400001 -0.0066100666 1.5392936e-38 314 245
-0.0066100666 0.75400001 -0.0066100666 1.5116709e-38 315 245
-0.0052880533 0.75400001 -0.0066100666 1.5024876e-38 316 245
-0.00396604 0.75400001 -0.0066100666 1.5024876e-38 317 245
-0.0026440267 0.75400001 -0.0066100666 1.4840845e-38 318 245
-0.0013220133 0.75400001 -0.0066100666 1.5024876e-38 319 245
0 0.75400001 -0.0066100666 1.5024873e-38 320 245
0.0013220133 0.75400001 -0.0066100666 1.5024873e-38 321 245
0.0026440267 0.75400001 -0.0066100666 1.5025952e-38 322 245
0.00396604 0.75400001 -0.0066100666 1.4933757e-38 323 245
0.0052880533 0.75400001 -0.0066100666 1.4841198e-38 324 245
0.0065925326 0.75199997 -0.0065925326 1.4748644e-38 325 245
0.0079110395 0.75199997 -0.0065925326 1.4839763e-38 326 245
0.0092295464 0.75199997 -0.0065925326 1.4839763e-38 327 245
0.010548052 0.75199997 -0.0065925326 1.4749e-38 328 245
0.011866559 0.75199997 -0.0065925326 1.4841195e-38 329 245
0.013185065 0.75199997 -0.0065925326 1.5300725e-38 330 245
0.014503572 0.75199997 -0.0065925326 1.539292e-38 331 245
0.015822079 0.75199997 -0.0065925326 1.5209255e-38 332 245
0.017140586 0.75199997 -0.0065925326 1.5485482e-38 333 245
0.018409999 0.75 -0.006575 1.5486215e-38 334 245
0.019724999 0.75 -0.006575 1.5670246e-38 335 245
0.021011947 0.74900001 -0.0065662335 1.5854274e-38 336 245
0.022325192 0.74900001 -0.0065662335 1.6130501e-38 337 245
0.02363844 0.74900001 -0.0065662335 1.6405999e-38 338 245
0.024951685 0.74900001 -0.0065662335 1.6590392e-38 339 245
0.0263 0.75 -0.006575 1.6315602e-38 340 245
0.027615 0.75 -0.006575 1.6407798e-38 341 245
0.028929999 0.75 -0.006575 1.6775504e-38 342 245
0.030244999 0.75 -0.006575 1.6959897e-38 343 245
0.031517919 0.74900001 -0.0065662335 1.6960253e-38 344 245
0.032831166 0.74900001 -0.0065662335 1.7144284e-38 345 245
0.034053236 0.74699998 -0.0065486995 1.7329026e-38 346 245
0.035362978 0.74699998 -0.0065486995 1.7329026e-38 347 245
0.036672719 0.74699998 -0.0065486995 1.7604171e-38 348 245
0.03793161 0.74599999 -0.0065399334 1.7604171e-38 349 245
0.039239597 0.74599999 -0.0065399334 1.7879681e-38 350 245
0.040547583 0.74599999 -0.0065399334 1.7879681e-38 351 245
0.04185557 0.74599999 -0.0065399334 1.7788214e-38 352 245
0.04316356 0.74599999 -0.0065399334 1.7788214e-38 353 245
0.044471547 0.74599999 -0.0065399334 1.7971894e-38 354 245
0.045779534 0.74599999 -0.0065399334 1.7787861e-38 355 245
0.047087517 0.74599999 -0.0065399334 1.7788228e-38 356 245
0.048395503 0.74599999 -0.0065399334 1.7788228e-38 357 245
0.04957024 0.74400002 -0.0065223998 1.7787864e-38 358 245
0.050737958 0.74199998 -0.0065048663 1.7971897e-38 359 245
0.05203893 0.74199998 -0.0065048663 1.7972247e-38 360 245
0.053339902 0.74199998 -0.0065048663 1.7972247e-38 361 245
0.054640878 0.74199998 -0.0065048663 1.79726e-38 362 245
0.055866458 0.741 -0.0064960998 1.79726e-38 363 245
0.057165679 0.741 -0.0064960998 1.7971874e-38 364 245
0.0584649 0.741 -0.0064960998 1.806443e-38 365 245
0.059764117 0.741 -0.0064960998 1.7972949e-38 366 245
0.060898528 0.73900002 -0.0064785667 1.7972949e-38 367 245
0.062194239 0.73900002 -0.0064785667 1.8156976e-38 368 245
0.063489959 0.73900002 -0.0064785667 1.8064779e-38 369 245
0.064785667 0.73900002 -0.0064785667 1.8248797e-38 370 245
0.066081382 0.73900002 -0.0064785667 1.8156243e-38 371 245
0.067285918 0.73799998 -0.0064697997 1.8248088e-38 372 245
0.068579875 0.73799998 -0.0064697997 1.843284e-38 373 245
0.069873832 0.73799998 -0.0064697997 1.85247e-38 374 245
0.07126423 0.73900002 -0.0064785667 1.833995e-38 375 245
0.072559945 0.73900002 -0.0064785667 1.8339237e-38 376 245
0.073855661 0.73900002 -0.0064785667 1.7601313e-38 377 245
0.075151369 0.73900002 -0.0064785667 1.6769018e-38 378 245
0.076447085 0.73900002 -0.0064785667 1.4095345e-38 379 245
0.0777428 0.73900002 -0.0064785667 1.0775604e-38 380 245
0.079038516 0.73900002 -0.0064785667 8.6551368e-39 381 245
0.080334224 0.73900002 -0.0064785667 7.9143544e-39 382 245
-0.064091347 0.74599999 -0.0078479191 1.7698607e-38 271 246
-0.062783353 0.74599999 -0.0078479191 1.8342512e-38 272 246
-0.06147537 0.74599999 -0.0078479191 1.8526905e-38 273 246
-0.060006075 0.74400002 -0.0078268806 1.8712358e-38 274 246
-0.058701597 0.74400002 -0.0078268806 1.8896389e-38 275 246
-0.05739712 0.74400002 -0.0078268806 1.9079689e-38 276 246
-0.056243423 0.74599999 -0.0078479191 1.8895658e-38 277 246
-0.054935437 0.74599999 -0.0078479191 1.8894219e-38 278 246
-0.053699337 0.74699998 -0.0078584393 1.8894219e-38 279 246
-0.052389596 0.74699998 -0.0078584393 1.8986054e-38 280 246
-0.051079858 0.74699998 -0.0078584393 1.8801304e-38 281 246
-0.049770117 0.74699998 -0.0078584393 1.880167e-38 282 246
-0.048460379 0.74699998 -0.0078584393 1.8617639e-38 283 246
-0.047150634 0.74699998 -0.0078584393 1.8066989e-38 284 246
-0.045840897 0.74699998 -0.0078584393 1.7974793e-38 285 246
-0.044531155 0.74699998 -0.0078584393 1.8248855e-38 286 246
-0.043221418 0.74699998 -0.0078584393 1.8248855e-38 287 246
-0.042023893 0.74900001 -0.0078794798 1.7698181e-38 288 246
-0.040710647 0.74900001 -0.0078794798 1.7605985e-38 289 246
-0.039449997 0.75 -0.00789 1.7421224e-38 290 246
-0.038135 0.75 -0.00789 1.7236833e-38 291 246
-0.036819998 0.75 -0.00789 1.7144281e-38 292 246
-0.035599679 0.75199997 -0.0079110395 1.696025e-38 293 246
-0.034281172 0.75199997 -0.0079110395 1.6683659e-38 294 246
-0.032962665 0.75199997 -0.0079110395 1.6314878e-38 295 246
-0.03172832 0.75400001 -0.00793208 1.6223037e-38 296 246
-0.030406307 0.75400001 -0.00793208 1.6038287e-38 297 246
-0.029084291 0.75400001 -0.00793208 1.5486918e-38 298 246
-0.027762281 0.75400001 -0.00793208 1.5302167e-38 299 246
-0.026440267 0.75400001 -0.00793208 1.5484763e-38 300 246
-0.025118252 0.75400001 -0.00793208 1.5300372e-38 301 246
-0.02379624 0.75400001 -0.00793208 1.5209255e-38 302 246
-0.022474226 0.75400001 -0.00793208 1.5209255e-38 303 246
-0.021152213 0.75400001 -0.00793208 1.5024864e-38 304 246
-0.019830201 0.75400001 -0.00793208 1.4932309e-38 305 246
-0.018459093 0.75199997 -0.0079110395 1.4840112e-38 306 246
-0.017140586 0.75199997 -0.0079110395 1.4840112e-38 307 246
-0.015822079 0.75199997 -0.0079110395 1.4565323e-38 308 246
-0.014503572 0.75199997 -0.0079110395 1.4289096e-38 309 246
-0.013185065 0.75199997 -0.0079110395 1.4472058e-38 310 246
-0.01189812 0.75400001 -0.00793208 1.4656451e-38 311 246
-0.010576107 0.75400001 -0.00793208 1.4564994e-38 312 246
-0.0092540924 0.75400001 -0.00793208 1.4657548e-38 313 246
-0.00793208 0.75400001 -0.00793208 1.4472798e-38 314 246
-0.0066100666 0.75400001 -0.00793208 1.4380603e-38 315 246
-0.0052880533 0.75400001 -0.00793208 1.4931611e-38 316 246
-0.00396604 0.75400001 -0.00793208 1.4839057e-38 317 246
-0.0026440267 0.75400001 -0.00793208 1.5114568e-38 318 246
-0.0013220133 0.75400001 -0.00793208 1.5114568e-38 319 246
0 0.75400001 -0.00793208 1.5114568e-38 320 246
0.0013220133 0.75400001 -0.00793208 1.4930537e-38 321 246
0.0026370131 0.75199997 -0.0079110395 1.5114924e-38 322 246
0.0039555198 0.75199997 -0.0079110395 1.5114924e-38 323 246
0.0052740262 0.75199997 -0.0079110395 1.4931256e-38 324 246
0.0065925326 0.75199997 -0.0079110395 1.4931256e-38 325 246
0.0079110395 0.75199997 -0.0079110395 1.4746863e-38 326 246
0.0092295464 0.75199997 -0.0079110395 1.483906e-38 327 246
0.010548052 0.75199997 -0.0079110395 1.4470984e-38 328 246
0.011866559 0.75199997 -0.0079110395 1.4470984e-38 329 246
0.013185065 0.75199997 -0.0079110395 1.438021e-38 330 246
0.014503572 0.75199997 -0.0079110395 1.438021e-38 331 246
0.015822079 0.75199997 -0.0079110395 1.4471334e-38 332 246
0.017095 0.75 -0.00789 1.4932312e-38 333 246
0.018409999 0.75 -0.00789 1.4656814e-38 334 246
0.019724999 0.75 -0.00789 1.4380586e-38 335 246
0.021011947 0.74900001 -0.0078794798 1.4839759e-38 336 246
0.022325192 0.74900001 -0.0078794798 1.4839759e-38 337 246
0.02363844 0.74900001 -0.0078794798 1.4840468e-38 338 246
0.024951685 0.74900001 -0.0078794798 1.4840468e-38 339 246
0.0263 0.75 -0.00789 1.4656797e-38 340 246
0.027578179 0.74900001 -0.0078794798 1.4841549e-38 341 246
0.028891427 0.74900001 -0.0078794798 1.5208899e-38 342 246
0.030204674 0.74900001 -0.0078794798 1.5577682e-38 343 246
0.031517919 0.74900001 -0.0078794798 1.5760629e-38 344 246
0.032743499 0.74699998 -0.0078584393 1.6037218e-38 345 246
0.034053236 0.74699998 -0.0078584393 1.5948259e-38 346 246
0.03531564 0.74599999 -0.0078479191 1.5948259e-38 347 246
0.036623627 0.74599999 -0.0078479191 1.6407798e-38 348 246
0.03793161 0.74599999 -0.0078479191 1.6499994e-38 349 246
0.039239597 0.74599999 -0.0078479191 1.6867697e-38 350 246
0.040547583 0.74599999 -0.0078479191 1.6867697e-38 351 246
0.04185557 0.74599999 -0.0078479191 1.7418352e-38 352 246
0.04316356 0.74599999 -0.0078479191 1.7418352e-38 353 246
0.044471547 0.74599999 -0.0078479191 1.778713e-38 354 246
0.045779534 0.74599999 -0.0078479191 1.7694934e-38 355 246
0.047087517 0.74599999 -0.0078479191 1.778713e-38 356 246
0.048265759 0.74400002 -0.0078268806 1.778713e-38 357 246
0.049436983 0.74199998 -0.0078058392 1.7878963e-38 358 246
0.050737958 0.74199998 -0.0078058392 1.7878963e-38 359 246
0.05203893 0.74199998 -0.0078058392 1.8154826e-38 360 246
0.053339902 0.74199998 -0.0078058392 1.8247022e-38 361 246
0.054640878 0.74199998 -0.0078058392 1.8063347e-38 362 246
0.055866458 0.741 -0.0077953199 1.8155542e-38 363 246
0.057165679 0.741 -0.0077953199 1.7972227e-38 364 246
0.0584649 0.741 -0.0077953199 1.7972227e-38 365 246
0.059602812 0.73900002 -0.0077742799 1.8064423e-38 366 246
0.060898528 0.73900002 -0.0077742799 1.8064423e-38 367 246
0.062194239 0.73900002 -0.0077742799 1.8247738e-38 368 246
0.063489959 0.73900002 -0.0077742799 1.8247738e-38 369 246
0.064785667 0.73900002 -0.0077742799 1.8248094e-38 370 246
0.066081382 0.73900002 -0.0077742799 1.815554e-38 371 246
0.067285918 0.73799998 -0.0077637597 1.8155896e-38 372 246
0.068579875 0.73799998 -0.0077637597 1.8155896e-38 373 246
0.069873832 0.73799998 -0.0077637597 1.7973302e-38 374 246
0.071167797 0.73799998 -0.0077637597 1.7788912e-38 375 246
0.072461754 0.73799998 -0.0077637597 1.8246669e-38 376 246
0.073755711 0.73799998 -0.0077637597 1.8522897e-38 377 246
0.075049676 0.73799998 -0.0077637597 1.833925e-38 378 246
0.076343641 0.73799998 -0.0077637597 1.8431445e-38 379 246
0.0777428 0.73900002 -0.0077742799 1.7873605e-38 380 246
0.079038516 0.73900002 -0.0077742799 1.5569075e-38 381 246
0.080225512 0.73799998 -0.0077637597 1.307619e-38 382 246
0.081519477 0.73799998 -0.0077637597 9.6649685e-39 383 246
-0.065223999 0.74400002 -0.0091313599 1.8065557e-38 270 247
-0.063919522 0.74400002 -0.0091313599 1.8526893e-38 271 247
-0.062615044 0.74400002 -0.0091313599 1.8894952e-38 272 247
-0.061310563 0.74400002 -0.0091313599 1.9078983e-38 273 247
-0.060006075 0.74400002 -0.0091313599 1.8988935e-38 274 247
-0.058701597 0.74400002 -0.0091313599 1.8712708e-38 275 247
-0.05739712 0.74400002 -0.0091313599 1.8527594e-38 276 247
-0.056092639 0.74400002 -0.0091313599 1.8343203e-38 277 247
-0.054788161 0.74400002 -0.0091313599 1.834285e-38 278 247
-0.05348368 0.74400002 -0.0091313599 1.8250654e-38 279 247
-0.052179199 0.74400002 -0.0091313599 1.7974437e-38 280 247
-0.051011477 0.74599999 -0.0091559067 1.7974437e-38 281 247
-0.04970349 0.74599999 -0.0091559067 1.806591e-38 282 247
-0.048395503 0.74599999 -0.0091559067 1.8158105e-38 283 247
-0.047150634 0.74699998 -0.0091681797 1.7882242e-38 284 247
-0.045840897 0.74699998 -0.0091681797 1.7697849e-38 285 247
-0.044531155 0.74699998 -0.0091681797 1.7605648e-38 286 247
-0.043221418 0.74699998 -0.0091681797 1.7329421e-38 287 247
-0.041911677 0.74699998 -0.0091681797 1.7329397e-38 288 247
-0.040601939 0.74699998 -0.0091681797 1.7052812e-38 289 247
-0.039292198 0.74699998 -0.0091681797 1.6868771e-38 290 247
-0.038084153 0.74900001 -0.0091927266 1.6776574e-38 291 247
-0.036770906 0.74900001 -0.0091927266 1.6499638e-38 292 247
-0.03545766 0.74900001 -0.0091927266 1.6223051e-38 293 247
-0.034189999 0.75 -0.0092049995 1.5854987e-38 294 247
-0.032962665 0.75199997 -0.0092295464 1.5762792e-38 295 247
-0.031644158 0.75199997 -0.0092295464 1.5486568e-38 296 247
-0.030406307 0.75400001 -0.0092540924 1.5301816e-38 297 247
-0.029084291 0.75400001 -0.0092540924 1.4657546e-38 298 247
-0.027762281 0.75400001 -0.0092540924 1.4841577e-38 299 247
-0.026440267 0.75400001 -0.0092540924 1.4657928e-38 300 247
-0.025118252 0.75400001 -0.0092540924 1.43817e-38 301 247
-0.02379624 0.75400001 -0.0092540924 1.4564662e-38 302 247
-0.022474226 0.75400001 -0.0092540924 1.4472466e-38 303 247
-0.021152213 0.75400001 -0.0092540924 1.4564293e-38 304 247
-0.019830201 0.75400001 -0.0092540924 1.4472098e-38 305 247
-0.018459093 0.75199997 -0.0092295464 1.4288406e-38 306 247
-0.017140586 0.75199997 -0.0092295464 1.4288406e-38 307 247
-0.015822079 0.75199997 -0.0092295464 1.419621e-38 308 247
-0.014503572 0.75199997 -0.0092295464 1.4288406e-38 309 247
-0.013185065 0.75199997 -0.0092295464 1.4380971e-38 310 247
-0.011866559 0.75199997 -0.0092295464 1.4380971e-38 311 247
-0.010548052 0.75199997 -0.0092295464 1.4472814e-38 312 247
-0.0092295464 0.75199997 -0.0092295464 1.4380618e-38 313 247
-0.0079110395 0.75199997 -0.0092295464 1.4380618e-38 314 247
-0.0066100666 0.75400001 -0.0092540924 1.4196587e-38 315 247
-0.0052880533 0.75400001 -0.0092540924 1.4563567e-38 316 247
-0.00396604 0.75400001 -0.0092540924 1.4563567e-38 317 247
-0.0026440267 0.75400001 -0.0092540924 1.4380255e-38 318 247
-0.0013220133 0.75400001 -0.0092540924 1.4380255e-38 319 247
0 0.75400001 -0.0092540924 1.4380255e-38 320 247
0.0013220133 0.75400001 -0.0092540924 1.4380255e-38 321 247
0.0026370131 0.75199997 -0.0092295464 1.4380252e-38 322 247
0.0039555198 0.75199997 -0.0092295464 1.4380252e-38 323 247
0.0052740262 0.75199997 -0.0092295464 1.438025e-38 324 247
0.0065925326 0.75199997 -0.0092295464 1.438025e-38 325 247
0.0079110395 0.75199997 -0.0092295464 1.4288408e-38 326 247
0.0092295464 0.75199997 -0.0092295464 1.4288408e-38 327 247
0.010548052 0.75199997 -0.0092295464 1.4380238e-38 328 247
0.011866559 0.75199997 -0.0092295464 1.4380238e-38 329 247
0.013185065 0.75199997 -0.0092295464 1.4563548e-38 330 247
0.014503572 0.75199997 -0.0092295464 1.4655745e-38 331 247
0.015822079 0.75199997 -0.0092295464 1.4655395e-38 332 247
0.017095 0.75 -0.0092049995 1.474759e-38 333 247
0.018409999 0.75 -0.0092049995 1.4472095e-38 334 247
0.019724999 0.75 -0.0092049995 1.4564649e-38 335 247
0.021011947 0.74900001 -0.0091927266 1.4472098e-38 336 247
0.022325192 0.74900001 -0.0091927266 1.4472098e-38 337 247
0.02363844 0.74900001 -0.0091927266 1.4472098e-38 338 247
0.024951685 0.74900001 -0.0091927266 1.4564293e-38 339 247
0.026264934 0.74900001 -0.0091927266 1.4656489e-38 340 247
0.027578179 0.74900001 -0.0091927266 1.4472098e-38 341 247
0.028891427 0.74900001 -0.0091927266 1.4748312e-38 342 247
0.030204674 0.74900001 -0.0091927266 1.4563921e-38 343 247
0.031433757 0.74699998 -0.0091681797 1.4930887e-38 344 247
0.032743499 0.74699998 -0.0091681797 1.5207472e-38 345 247
0.034053236 0.74699998 -0.0091681797 1.5117072e-38 346 247
0.03531564 0.74599999 -0.0091559067 1.5209268e-38 347 247
0.036623627 0.74599999 -0.0091559067 1.5394019e-38 348 247
0.03793161 0.74599999 -0.0091559067 1.5486215e-38 349 247
0.039239597 0.74599999 -0.0091559067 1.6037586e-38 350 247
0.040547583 0.74599999 -0.0091559067 1.6037586e-38 351 247
0.04185557 0.74599999 -0.0091559067 1.6130135e-38 352 247
0.04316356 0.74599999 -0.0091559067 1.6498559e-38 353 247
0.044352323 0.74400002 -0.0091313599 1.7051365e-38 354 247
0.0456568 0.74400002 -0.0091313599 1.695917e-38 355 247
0.046961278 0.74400002 -0.0091313599 1.6959167e-38 356 247
0.048265759 0.74400002 -0.0091313599 1.7051363e-38 357 247
0.049436983 0.74199998 -0.009106813 1.7143928e-38 358 247
0.050737958 0.74199998 -0.009106813 1.7236124e-38 359 247
0.051968798 0.741 -0.0090945391 1.7511269e-38 360 247
0.053268019 0.741 -0.0090945391 1.7511269e-38 361 247
0.054567236 0.741 -0.0090945391 1.7603464e-38 362 247
0.055866458 0.741 -0.0090945391 1.7696019e-38 363 247
0.057165679 0.741 -0.0090945391 1.7604183e-38 364 247
0.0583071 0.73900002 -0.0090699932 1.7604183e-38 365 247
0.059602812 0.73900002 -0.0090699932 1.7696735e-38 366 247
0.060898528 0.73900002 -0.0090699932 1.7788932e-38 367 247
0.062194239 0.73900002 -0.0090699932 1.7972247e-38 368 247
0.063404039 0.73799998 -0.0090577193 1.7788214e-38 369 247
0.064697996 0.73799998 -0.0090577193 1.7788212e-38 370 247
0.06599196 0.73799998 -0.0090577193 1.7696016e-38 371 247
0.067285918 0.73799998 -0.0090577193 1.7788565e-38 372 247
0.06839402 0.736 -0.0090331733 1.7788565e-38 373 247
0.069684476 0.736 -0.0090331733 1.797223e-38 374 247
0.070974931 0.736 -0.0090331733 1.7787839e-38 375 247
0.072265387 0.736 -0.0090331733 1.7971136e-38 376 247
0.073555835 0.736 -0.0090331733 1.7971136e-38 377 247
0.07484629 0.736 -0.0090331733 1.8063347e-38 378 247
0.076136746 0.736 -0.0090331733 1.8339935e-38 379 247
0.077427194 0.736 -0.0090331733 1.8523631e-38 380 247
0.078931555 0.73799998 -0.0090577193 1.7785708e-38 381 247
0.080008104 0.736 -0.0090331733 1.6493523e-38 382 247
0.08129856 0.736 -0.0090331733 1.4004242e-38 383 247
0.082589008 0.736 -0.0090331733 1.2156019e-38 384 247
-0.067650609 0.74199998 -0.010407786 1.760495e-38 268 248
-0.066349633 0.74199998 -0.010407786 1.8250319e-38 269 248
-0.065048665 0.74199998 -0.010407786 1.8803124e-38 270 248
-0.063747689 0.74199998 -0.010407786 1.9079711e-38 271 248
-0.062615044 0.74400002 -0.01043584 1.8987863e-38 272 248
-0.061310563 0.74400002 -0.01043584 1.8895668e-38 273 248
-0.060006075 0.74400002 -0.01043584 1.8803825e-38 274 248
-0.058701597 0.74400002 -0.01043584 1.8527597e-38 275 248
-0.05739712 0.74400002 -0.01043584 1.8158456e-38 276 248
-0.056092639 0.74400002 -0.01043584 1.8066259e-38 277 248
-0.054788161 0.74400002 -0.01043584 1.8157733e-38 278 248
-0.05348368 0.74400002 -0.01043584 1.8065537e-38 279 248
-0.052179199 0.74400002 -0.01043584 1.7973344e-38 280 248
-0.050874721 0.74400002 -0.01043584 1.788079e-38 281 248
-0.04957024 0.74400002 -0.01043584 1.7421617e-38 282 248
-0.048395503 0.74599999 -0.010463892 1.7605648e-38 283 248
-0.047087517 0.74599999 -0.010463892 1.7421619e-38 284 248
-0.045779534 0.74599999 -0.010463892 1.7329424e-38 285 248
-0.044471547 0.74599999 -0.010463892 1.7327975e-38 286 248
-0.04316356 0.74599999 -0.010463892 1.6959194e-38 287 248
-0.041911677 0.74699998 -0.010477919 1.6499641e-38 288 248
-0.040601939 0.74699998 -0.010477919 1.6407445e-38 289 248
-0.039292198 0.74699998 -0.010477919 1.6130488e-38 290 248
-0.038084153 0.74900001 -0.010505973 1.5853543e-38 291 248
-0.036770906 0.74900001 -0.010505973 1.5393286e-38 292 248
-0.03545766 0.74900001 -0.010505973 1.5209255e-38 293 248
-0.034189999 0.75 -0.01052 1.4749366e-38 294 248
-0.032874998 0.75 -0.01052 1.4749366e-38 295 248
-0.031644158 0.75199997 -0.010548052 1.4748294e-38 296 248
-0.030325651 0.75199997 -0.010548052 1.4656098e-38 297 248
-0.029007144 0.75199997 -0.010548052 1.4564268e-38 298 248
-0.027762281 0.75400001 -0.010576107 1.4656464e-38 299 248
-0.02637013 0.75199997 -0.010548052 1.4656111e-38 300 248
-0.025051624 0.75199997 -0.010548052 1.4656111e-38 301 248
-0.02379624 0.75400001 -0.010576107 1.4656116e-38 302 248
-0.022474226 0.75400001 -0.010576107 1.4656116e-38 303 248
-0.021152213 0.75400001 -0.010576107 1.4563565e-38 304 248
-0.019830201 0.75400001 -0.010576107 1.4563565e-38 305 248
-0.018459093 0.75199997 -0.010548052 1.4563921e-38 306 248
-0.017140586 0.75199997 -0.010548052 1.4563921e-38 307 248
-0.015822079 0.75199997 -0.010548052 1.438025e-38 308 248
-0.014503572 0.75199997 -0.010548052 1.438025e-38 309 248
-0.013185065 0.75199997 -0.010548052 1.4104743e-38 310 248
-0.011866559 0.75199997 -0.010548052 1.419694e-38 311 248
-0.010548052 0.75199997 -0.010548052 1.4196584e-38 312 248
-0.0092295464 0.75199997 -0.010548052 1.4196584e-38 313 248
-0.0079110395 0.75199997 -0.010548052 1.4379536e-38 314 248
-0.0066100666 0.75400001 -0.010576107 1.4379536e-38 315 248
-0.0052880533 0.75400001 -0.010576107 1.4287336e-38 316 248
-0.00396604 0.75400001 -0.010576107 1.4379532e-38 317 248
-0.0026440267 0.75400001 -0.010576107 1.4379529e-38 318 248
-0.0013220133 0.75400001 -0.010576107 1.4379529e-38 319 248
0 0.75199997 -0.010548052 1.4379529e-38 320 248
0.0013185065 0.75199997 -0.010548052 1.4379529e-38 321 248
0.0026370131 0.75199997 -0.010548052 1.4288055e-38 322 248
0.0039555198 0.75199997 -0.010548052 1.4288055e-38 323 248
0.0052740262 0.75199997 -0.010548052 1.4379529e-38 324 248
0.0065925326 0.75199997 -0.010548052 1.4379529e-38 325 248
0.0079110395 0.75199997 -0.010548052 1.4379882e-38 326 248
0.0092295464 0.75199997 -0.010548052 1.4379882e-38 327 248
0.010548052 0.75199997 -0.010548052 1.4288037e-38 328 248
0.011866559 0.75199997 -0.010548052 1.4380233e-38 329 248
0.013185065 0.75199997 -0.010548052 1.4563901e-38 330 248
0.014503572 0.75199997 -0.010548052 1.4563901e-38 331 248
0.015822079 0.75199997 -0.010548052 1.4656101e-38 332 248
0.017140586 0.75199997 -0.010548052 1.4656101e-38 333 248
0.018409999 0.75 -0.01052 1.4655748e-38 334 248
0.019724999 0.75 -0.01052 1.4747943e-38 335 248
0.021011947 0.74900001 -0.010505973 1.4656113e-38 336 248
0.022325192 0.74900001 -0.010505973 1.4656113e-38 337 248
0.02363844 0.74900001 -0.010505973 1.4655395e-38 338 248
0.024951685 0.74900001 -0.010505973 1.474759e-38 339 248
0.026264934 0.74900001 -0.010505973 1.465575e-38 340 248
0.027578179 0.74900001 -0.010505973 1.465575e-38 341 248
0.028891427 0.74900001 -0.010505973 1.4655395e-38 342 248
0.030124018 0.74699998 -0.010477919 1.4655395e-38 343 248
0.031433757 0.74699998 -0.010477919 1.4563551e-38 344 248
0.032743499 0.74699998 -0.010477919 1.4655748e-38 345 248
0.034053236 0.74699998 -0.010477919 1.4563548e-38 346 248
0.03531564 0.74599999 -0.010463892 1.4471352e-38 347 248
0.036623627 0.74599999 -0.010463892 1.4563548e-38 348 248
0.03793161 0.74599999 -0.010463892 1.474794e-38 349 248
0.039239597 0.74599999 -0.010463892 1.4839763e-38 350 248
0.040547583 0.74599999 -0.010463892 1.4839763e-38 351 248
0.04185557 0.74599999 -0.010463892 1.5024508e-38 352 248
0.04316356 0.74599999 -0.010463892 1.5208899e-38 353 248
0.044352323 0.74400002 -0.01043584 1.5209623e-38 354 248
0.0456568 0.74400002 -0.01043584 1.5486212e-38 355 248
0.046961278 0.74400002 -0.01043584 1.6038305e-38 356 248
0.048136011 0.74199998 -0.010407786 1.6222698e-38 357 248
0.049436983 0.74199998 -0.010407786 1.6683672e-38 358 248
0.050669577 0.741 -0.010393759 1.6868423e-38 359 248
0.051968798 0.741 -0.010393759 1.6959897e-38 360 248
0.053268019 0.741 -0.010393759 1.7143928e-38 361 248
0.054567236 0.741 -0.010393759 1.7418357e-38 362 248
0.055715673 0.73900002 -0.010365707 1.7418357e-38 363 248
0.057011388 0.73900002 -0.010365707 1.7511622e-38 364 248
0.0583071 0.73900002 -0.010365707 1.7511622e-38 365 248
0.059602812 0.73900002 -0.010365707 1.7604171e-38 366 248
0.060816113 0.73799998 -0.010351679 1.7604171e-38 367 248
0.062110078 0.73799998 -0.010351679 1.778713e-38 368 248
0.063404039 0.73799998 -0.010351679 1.778713e-38 369 248
0.064697996 0.73799998 -0.010351679 1.7878612e-38 370 248
0.065813117 0.736 -0.010323626 1.7878612e-38 371 248
0.067103572 0.736 -0.010323626 1.7878609e-38 372 248
0.068208173 0.73400003 -0.010295574 1.7878609e-38 373 248
0.069495119 0.73400003 -0.010295574 1.7878963e-38 374 248
0.070782073 0.73400003 -0.010295574 1.8062994e-38 375 248
0.072069012 0.73400003 -0.010295574 1.8062631e-38 376 248
0.073355958 0.73400003 -0.010295574 1.8062631e-38 377 248
0.074642912 0.73400003 -0.010295574 1.7787483e-38 378 248
0.076136746 0.736 -0.010323626 1.7787483e-38 379 248
0.077427194 0.736 -0.010323626 1.7696019e-38 380 248
0.078717649 0.736 -0.010323626 1.8156638e-38 381 248
0.079790697 0.73400003 -0.010295574 1.7973344e-38 382 248
0.081077635 0.73400003 -0.010295574 1.7788594e-38 383 248
0.082252368 0.73299998 -0.010281546 1.6953076e-38 384 248
0.083537564 0.73299998 -0.010281546 1.4556348e-38 385 248
-0.068951584 0.74199998 -0.01170876 1.7052506e-38 267 249
-0.067650609 0.74199998 -0.01170876 1.8158105e-38 268 249
-0.066349633 0.74199998 -0.01170876 1.8342497e-38 269 249
-0.065048665 0.74199998 -0.01170876 1.8527963e-38 270 249
-0.063747689 0.74199998 -0.01170876 1.862016e-38 271 249
-0.062446713 0.74199998 -0.01170876 1.8711628e-38 272 249
-0.061145745 0.74199998 -0.01170876 1.8435043e-38 273 249
-0.05984477 0.74199998 -0.01170876 1.8617989e-38 274 249
-0.058543798 0.74199998 -0.01170876 1.8433598e-38 275 249
-0.057242822 0.74199998 -0.01170876 1.7790392e-38 276 249
-0.05594185 0.74199998 -0.01170876 1.7606001e-38 277 249
-0.054640878 0.74199998 -0.01170876 1.7697483e-38 278 249
-0.053339902 0.74199998 -0.01170876 1.7420538e-38 279 249
-0.05203893 0.74199998 -0.01170876 1.7328341e-38 280 249
-0.050737958 0.74199998 -0.01170876 1.7328341e-38 281 249
-0.049436983 0.74199998 -0.01170876 1.7235423e-38 282 249
-0.048265759 0.74400002 -0.011740319 1.7143228e-38 283 249
-0.046961278 0.74400002 -0.011740319 1.6592205e-38 284 249
-0.0456568 0.74400002 -0.011740319 1.6315618e-38 285 249
-0.044352323 0.74400002 -0.011740319 1.6407448e-38 286 249
-0.04316356 0.74599999 -0.011771879 1.6130501e-38 287 249
-0.04185557 0.74599999 -0.011771879 1.5762439e-38 288 249
-0.040547583 0.74599999 -0.011771879 1.5486212e-38 289 249
-0.039292198 0.74699998 -0.011787659 1.5301816e-38 290 249
-0.03798246 0.74699998 -0.011787659 1.5025229e-38 291 249
-0.036770906 0.74900001 -0.01181922 1.4564618e-38 292 249
-0.03545766 0.74900001 -0.01181922 1.4749368e-38 293 249
-0.034189999 0.75 -0.011835 1.4564997e-38 294 249
-0.032874998 0.75 -0.011835 1.4564997e-38 295 249
-0.031644158 0.75199997 -0.011866559 1.465576e-38 296 249
-0.030325651 0.75199997 -0.011866559 1.465576e-38 297 249
-0.029007144 0.75199997 -0.011866559 1.4197293e-38 298 249
-0.027688639 0.75199997 -0.011866559 1.4197293e-38 299 249
-0.02637013 0.75199997 -0.011866559 1.438025e-38 300 249
-0.025051624 0.75199997 -0.011866559 1.438025e-38 301 249
-0.02379624 0.75400001 -0.01189812 1.4380252e-38 302 249
-0.022474226 0.75400001 -0.01189812 1.4380252e-38 303 249
-0.021152213 0.75400001 -0.01189812 1.4196584e-38 304 249
-0.019830201 0.75400001 -0.01189812 1.4104389e-38 305 249
-0.018459093 0.75199997 -0.011866559 1.4012912e-38 306 249
-0.017140586 0.75199997 -0.011866559 1.4012912e-38 307 249
-0.015822079 0.75199997 -0.011866559 1.4104389e-38 308 249
-0.014503572 0.75199997 -0.011866559 1.4104389e-38 309 249
-0.013185065 0.75199997 -0.011866559 1.4012915e-38 310 249
-0.011866559 0.75199997 -0.011866559 1.4012915e-38 311 249
-0.010548052 0.75199997 -0.011866559 1.4012559e-38 312 249
-0.0092295464 0.75199997 -0.011866559 1.4012559e-38 313 249
-0.0079110395 0.75199997 -0.011866559 1.4104391e-38 314 249
-0.0066100666 0.75400001 -0.01189812 1.4012194e-38 315 249
-0.0052880533 0.75400001 -0.01189812 1.419586e-38 316 249
-0.00396604 0.75400001 -0.01189812 1.419586e-38 317 249
-0.0026440267 0.75400001 -0.01189812 1.4195504e-38 318 249
-0.0013220133 0.75400001 -0.01189812 1.4195504e-38 319 249
0 0.75199997 -0.011866559 1.4195504e-38 320 249
0.0013185065 0.75199997 -0.011866559 1.4195504e-38 321 249
0.0026370131 0.75199997 -0.011866559 1.4012192e-38 322 249
0.0039555198 0.75199997 -0.011866559 1.4104389e-38 323 249
0.0052740262 0.75199997 -0.011866559 1.419586e-38 324 249
0.0065925326 0.75199997 -0.011866559 1.4288055e-38 325 249
0.0079110395 0.75199997 -0.011866559 1.4288406e-38 326 249
0.0092295464 0.75199997 -0.011866559 1.4288406e-38 327 249
0.010548052 0.75199997 -0.011866559 1.4380238e-38 328 249
0.011866559 0.75199997 -0.011866559 1.4380238e-38 329 249
0.013185065 0.75199997 -0.011866559 1.4563548e-38 330 249
0.014503572 0.75199997 -0.011866559 1.4563548e-38 331 249
0.015822079 0.75199997 -0.011866559 1.4564271e-38 332 249
0.017140586 0.75199997 -0.011866559 1.4564271e-38 333 249
0.018459093 0.75199997 -0.011866559 1.4656111e-38 334 249
0.019724999 0.75 -0.011835 1.4656111e-38 335 249
0.021011947 0.74900001 -0.01181922 1.4380605e-38 336 249
0.022325192 0.74900001 -0.01181922 1.4380605e-38 337 249
0.02363844 0.74900001 -0.01181922 1.4563918e-38 338 249
0.024984999 0.75 -0.011835 1.4563918e-38 339 249
0.026264934 0.74900001 -0.01181922 1.4563918e-38 340 249
0.027578179 0.74900001 -0.01181922 1.4563918e-38 341 249
0.028891427 0.74900001 -0.01181922 1.4563921e-38 342 249
0.030124018 0.74699998 -0.011787659 1.4563921e-38 343 249
0.031433757 0.74699998 -0.011787659 1.4563565e-38 344 249
0.032743499 0.74699998 -0.011787659 1.4563565e-38 345 249
0.034053236 0.74699998 -0.011787659 1.4563565e-38 346 249
0.03531564 0.74599999 -0.011771879 1.465576e-38 347 249
0.036623627 0.74599999 -0.011771879 1.4655763e-38 348 249
0.03793161 0.74599999 -0.011771879 1.4747959e-38 349 249
0.039239597 0.74599999 -0.011771879 1.483906e-38 350 249
0.040547583 0.74599999 -0.011771879 1.4746863e-38 351 249
0.04185557 0.74599999 -0.011771879 1.474794e-38 352 249
0.043047838 0.74400002 -0.011740319 1.474794e-38 353 249
0.044352323 0.74400002 -0.011740319 1.4748662e-38 354 249
0.045534063 0.74199998 -0.01170876 1.4656467e-38 355 249
0.046835039 0.74199998 -0.01170876 1.4840489e-38 356 249
0.048136011 0.74199998 -0.01170876 1.5117075e-38 357 249
0.049370356 0.741 -0.01169298 1.5302183e-38 358 249
0.050669577 0.741 -0.01169298 1.5579129e-38 359 249
0.051968798 0.741 -0.01169298 1.5947189e-38 360 249
0.053124249 0.73900002 -0.01166142 1.6039386e-38 361 249
0.054419957 0.73900002 -0.01166142 1.6131581e-38 362 249
0.055715673 0.73900002 -0.01166142 1.6315612e-38 363 249
0.057011388 0.73900002 -0.01166142 1.695917e-38 364 249
0.0583071 0.73900002 -0.01166142 1.695917e-38 365 249
0.059522156 0.73799998 -0.011645639 1.7235034e-38 366 249
0.060816113 0.73799998 -0.011645639 1.7235034e-38 367 249
0.062110078 0.73799998 -0.011645639 1.7143212e-38 368 249
0.063232213 0.736 -0.01161408 1.7051015e-38 369 249
0.064522661 0.736 -0.01161408 1.7233609e-38 370 249
0.065813117 0.736 -0.01161408 1.7325804e-38 371 249
0.066921227 0.73400003 -0.011582521 1.7418357e-38 372 249
0.068208173 0.73400003 -0.011582521 1.7510553e-38 373 249
0.069495119 0.73400003 -0.011582521 1.7694218e-38 374 249
0.070782073 0.73400003 -0.011582521 1.7694218e-38 375 249
0.072069012 0.73400003 -0.011582521 1.7694215e-38 376 249
0.073355958 0.73400003 -0.011582521 1.7694215e-38 377 249
0.074642912 0.73400003 -0.011582521 1.7511256e-38 378 249
0.07592985 0.73400003 -0.011582521 1.7511256e-38 379 249
0.077216797 0.73400003 -0.011582521 1.7511609e-38 380 249
0.07850375 0.73400003 -0.011582521 1.769564e-38 381 249
0.079790697 0.73400003 -0.011582521 1.7603818e-38 382 249
0.080967173 0.73299998 -0.011566739 1.7696013e-38 383 249
0.082027942 0.73100001 -0.01153518 1.7418004e-38 384 249
0.083309628 0.73100001 -0.01153518 1.6680438e-38 385 249
0.084475599 0.73000002 -0.011519399 1.5666308e-38 386 249
0.085755527 0.73000002 -0.011519399 1.4006428e-38 387 249
-0.071553528 0.74199998 -0.013009733 1.6774856e-38 265 250
-0.07025256 0.74199998 -0.013009733 1.7421985e-38 266 250
-0.068951584 0.74199998 -0.013009733 1.7698573e-38 267 250
-0.067650609 0.74199998 -0.013009733 1.8342497e-38 268 250
-0.066349633 0.74199998 -0.013009733 1.8342497e-38 269 250
-0.065048665 0.74199998 -0.013009733 1.8435048e-38 270 250
-0.063747689 0.74199998 -0.013009733 1.8435048e-38 271 250
-0.062446713 0.74199998 -0.013009733 1.8617995e-38 272 250
-0.061145745 0.74199998 -0.013009733 1.8248852e-38 273 250
-0.05984477 0.74199998 -0.013009733 1.8248852e-38 274 250
-0.058543798 0.74199998 -0.013009733 1.7972625e-38 275 250
-0.057242822 0.74199998 -0.013009733 1.7605285e-38 276 250
-0.05594185 0.74199998 -0.013009733 1.7420535e-38 277 250
-0.054640878 0.74199998 -0.013009733 1.742017e-38 278 250
-0.053339902 0.74199998 -0.013009733 1.7143225e-38 279 250
-0.05203893 0.74199998 -0.013009733 1.6959915e-38 280 250
-0.050737958 0.74199998 -0.013009733 1.686772e-38 281 250
-0.049436983 0.74199998 -0.013009733 1.6590407e-38 282 250
-0.048136011 0.74199998 -0.013009733 1.631418e-38 283 250
-0.046835039 0.74199998 -0.013009733 1.5762076e-38 284 250
-0.0456568 0.74400002 -0.0130448 1.5485129e-38 285 250
-0.044352323 0.74400002 -0.0130448 1.5024873e-38 286 250
-0.04316356 0.74599999 -0.013079867 1.5117428e-38 287 250
-0.04185557 0.74599999 -0.013079867 1.4657899e-38 288 250
-0.040547583 0.74599999 -0.013079867 1.4473149e-38 289 250
-0.039292198 0.74699998 -0.013097399 1.4472798e-38 290 250
-0.03798246 0.74699998 -0.013097399 1.4472798e-38 291 250
-0.036770906 0.74900001 -0.013132467 1.4012189e-38 292 250
-0.03545766 0.74900001 -0.013132467 1.4380971e-38 293 250
-0.034144413 0.74900001 -0.013132467 1.4288055e-38 294 250
-0.032874998 0.75 -0.01315 1.4288055e-38 295 250
-0.031644158 0.75199997 -0.013185065 1.4104737e-38 296 250
-0.030325651 0.75199997 -0.013185065 1.4104737e-38 297 250
-0.029007144 0.75199997 -0.013185065 1.4104737e-38 298 250
-0.027688639 0.75199997 -0.013185065 1.4104737e-38 299 250
-0.02637013 0.75199997 -0.013185065 1.4288055e-38 300 250
-0.025051624 0.75199997 -0.013185065 1.4288055e-38 301 250
-0.023733119 0.75199997 -0.013185065 1.4287704e-38 302 250
-0.022414612 0.75199997 -0.013185065 1.4287704e-38 303 250
-0.021152213 0.75400001 -0.013220133 1.4104035e-38 304 250
-0.019830201 0.75400001 -0.013220133 1.4011838e-38 305 250
-0.018459093 0.75199997 -0.013185065 1.4011838e-38 306 250
-0.017140586 0.75199997 -0.013185065 1.4011838e-38 307 250
-0.015822079 0.75199997 -0.013185065 1.4195153e-38 308 250
-0.014503572 0.75199997 -0.013185065 1.4195153e-38 309 250
-0.013185065 0.75199997 -0.013185065 1.391929e-38 310 250
-0.011866559 0.75199997 -0.013185065 1.391929e-38 311 250
-0.010548052 0.75199997 -0.013185065 1.391929e-38 312 250
-0.0092295464 0.75199997 -0.013185065 1.391929e-38 313 250
-0.0079110395 0.75199997 -0.013185065 1.4011475e-38 314 250
-0.0066100666 0.75400001 -0.013220133 1.4011475e-38 315 250
-0.0052880533 0.75400001 -0.013220133 1.4011473e-38 316 250
-0.00396604 0.75400001 -0.013220133 1.4011473e-38 317 250
-0.0026440267 0.75400001 -0.013220133 1.4011475e-38 318 250
-0.0013220133 0.75400001 -0.013220133 1.4011475e-38 319 250
0 0.75199997 -0.013185065 1.401112e-38 320 250
0.0013185065 0.75199997 -0.013185065 1.401112e-38 321 250
0.0026370131 0.75199997 -0.013185065 1.401112e-38 322 250
0.0039555198 0.75199997 -0.013185065 1.401112e-38 323 250
0.0052740262 0.75199997 -0.013185065 1.4011473e-38 324 250
0.006575 0.75 -0.01315 1.4011473e-38 325 250
0.00789 0.75 -0.01315 1.419586e-38 326 250
0.0092049995 0.75 -0.01315 1.419586e-38 327 250
0.010548052 0.75199997 -0.013185065 1.4195857e-38 328 250
0.011866559 0.75199997 -0.013185065 1.4195857e-38 329 250
0.013185065 0.75199997 -0.013185065 1.4379529e-38 330 250
0.014465 0.75 -0.01315 1.4379529e-38 331 250
0.01578 0.75 -0.01315 1.4379529e-38 332 250
0.017140586 0.75199997 -0.013185065 1.4379529e-38 333 250
0.018459093 0.75199997 -0.013185065 1.4380252e-38 334 250
0.019724999 0.75 -0.01315 1.4472448e-38 335 250
0.021011947 0.74900001 -0.013132467 1.4380974e-38 336 250
0.022325192 0.74900001 -0.013132467 1.4380974e-38 337 250
0.023669999 0.75 -0.01315 1.4287701e-38 338 250
0.024984999 0.75 -0.01315 1.4380255e-38 339 250
0.026264934 0.74900001 -0.013132467 1.4380252e-38 340 250
0.027578179 0.74900001 -0.013132467 1.4288055e-38 341 250
0.028891427 0.74900001 -0.013132467 1.4288053e-38 342 250
0.030124018 0.74699998 -0.013097399 1.438025e-38 343 250
0.031433757 0.74699998 -0.013097399 1.4288053e-38 344 250
0.032743499 0.74699998 -0.013097399 1.4288053e-38 345 250
0.034053236 0.74699998 -0.013097399 1.4379885e-38 346 250
0.03531564 0.74599999 -0.013079867 1.4379885e-38 347 250
0.036623627 0.74599999 -0.013079867 1.4379882e-38 348 250
0.03793161 0.74599999 -0.013079867 1.4379882e-38 349 250
0.039239597 0.74599999 -0.013079867 1.4563551e-38 350 250
0.040438879 0.74400002 -0.0130448 1.4563551e-38 351 250
0.04174336 0.74400002 -0.0130448 1.4380236e-38 352 250
0.043047838 0.74400002 -0.0130448 1.428804e-38 353 250
0.044233091 0.74199998 -0.013009733 1.4287687e-38 354 250
0.045534063 0.74199998 -0.013009733 1.4195491e-38 355 250
0.046835039 0.74199998 -0.013009733 1.428769e-38 356 250
0.048136011 0.74199998 -0.013009733 1.428769e-38 357 250
0.049370356 0.741 -0.0129922 1.4564268e-38 358 250
0.050669577 0.741 -0.0129922 1.4656464e-38 359 250
