# .PCD v.7 - Point Cloud Data file format
FIELDS x y z rgb imX imY
SIZE 4 4 4 4 4 4
TYPE F F F F F F
COUNT 1 1 1 1 1 1
WIDTH 855
HEIGHT 1
VIEWPOINT 0 0 0 1 0 0 0
POINTS 855
DATA ascii
0.020014299 0.76099998 0.0040028598 1.9261549e-38 335 237
0.02129248 0.759 0.0039923396 1.926191e-38 336 237
0.02262326 0.759 0.0039923396 1.926191e-38 337 237
0.023954039 0.759 0.0039923396 1.9077874e-38 338 237
0.025284819 0.759 0.0039923396 1.9077874e-38 339 237
0.026545467 0.75700003 0.0039818203 1.9168995e-38 340 237
0.027872739 0.75700003 0.0039818203 1.8984604e-38 341 237
0.029200014 0.75700003 0.0039818203 1.8984616e-38 342 237
0.030527288 0.75700003 0.0039818203 1.8984616e-38 343 237
0.031854562 0.75700003 0.0039818203 1.8799882e-38 344 237
0.033181835 0.75700003 0.0039818203 1.8615491e-38 345 237
0.034509107 0.75700003 0.0039818203 1.8430023e-38 346 237
0.03583638 0.75700003 0.0039818203 1.8245632e-38 347 237
0.037163652 0.75700003 0.0039818203 1.7786453e-38 348 237
0.038490929 0.75700003 0.0039818203 1.760206e-38 349 237
0.039660402 0.75400001 0.00396604 1.7784659e-38 350 237
0.040982414 0.75400001 0.00396604 1.7507714e-38 351 237
0.042304426 0.75400001 0.00396604 1.7138581e-38 352 237
0.043626439 0.75400001 0.00396604 1.6585766e-38 353 237
0.044948451 0.75400001 0.00396604 1.557235e-38 354 237
0.046270464 0.75400001 0.00396604 1.5019176e-38 355 237
0.04759248 0.75400001 0.00396604 1.4372374e-38 356 237
0.048914492 0.75400001 0.00396604 1.3542974e-38 357 237
0.050303131 0.755 0.0039712996 1.2900125e-38 358 237
0.051626898 0.755 0.0039712996 1.2530983e-38 359 237
0.052740261 0.75199997 0.0039555198 1.1423919e-38 360 237
0.054058768 0.75199997 0.0039555198 1.0594158e-38 361 237
-0.033181835 0.75700003 0.0026545466 1.843436e-38 295 238
-0.031854562 0.75700003 0.0026545466 1.9262676e-38 296 238
-0.030527288 0.75700003 0.0026545466 1.9354872e-38 297 238
-0.029200014 0.75700003 0.0026545466 1.9904806e-38 298 238
-0.027872739 0.75700003 0.0026545466 2.0181034e-38 299 238
-0.026545467 0.75700003 0.0026545466 2.0090273e-38 300 238
-0.025218192 0.75700003 0.0026545466 2.0090273e-38 301 238
-0.02389092 0.75700003 0.0026545466 1.9998072e-38 302 238
-0.022563647 0.75700003 0.0026545466 1.9905876e-38 303 238
-0.02129248 0.759 0.00266156 1.9722537e-38 304 238
-0.020014299 0.76099998 0.0026685731 1.9353756e-38 305 238
-0.01863092 0.759 0.00266156 1.9538124e-38 306 238
-0.017300138 0.759 0.00266156 1.9445928e-38 307 238
-0.015969358 0.759 0.00266156 1.9446284e-38 308 238
-0.014677152 0.76099998 0.0026685731 1.9169699e-38 309 238
-0.013342866 0.76099998 0.0026685731 1.9170054e-38 310 238
-0.012008579 0.76099998 0.0026685731 1.9170054e-38 311 238
-0.010674292 0.76099998 0.0026685731 1.9169699e-38 312 238
-0.0093400059 0.76099998 0.0026685731 1.9169699e-38 313 238
-0.0080057196 0.76099998 0.0026685731 1.9077506e-38 314 238
-0.0066714329 0.76099998 0.0026685731 1.9077506e-38 315 238
-0.0053371461 0.76099998 0.0026685731 1.907715e-38 316 238
-0.0040028598 0.76099998 0.0026685731 1.907715e-38 317 238
-0.0026685731 0.76099998 0.0026685731 1.907715e-38 318 238
-0.00133078 0.759 0.00266156 1.907715e-38 319 238
0 0.759 0.00266156 1.907715e-38 320 238
0.00133078 0.759 0.00266156 1.907715e-38 321 238
0.00266156 0.759 0.00266156 1.9168266e-38 322 238
0.0039923396 0.759 0.00266156 1.9260821e-38 323 238
0.0053231199 0.759 0.00266156 1.9260821e-38 324 238
0.0066363667 0.75700003 0.0026545466 1.9168266e-38 325 238
0.0079425992 0.755 0.0026475333 1.9260821e-38 326 238
0.0092663663 0.755 0.0026475333 1.9260821e-38 327 238
0.010590133 0.755 0.0026475333 1.9260818e-38 328 238
0.01197702 0.759 0.00266156 1.9168622e-38 329 238
0.013272733 0.75700003 0.0026545466 1.898531e-38 330 238
0.014600007 0.75700003 0.0026545466 1.898531e-38 331 238
0.015969358 0.759 0.00266156 1.9077506e-38 332 238
0.017300138 0.759 0.00266156 1.898531e-38 333 238
0.01863092 0.759 0.00266156 1.9077506e-38 334 238
0.0199617 0.759 0.00266156 1.9077506e-38 335 238
0.02129248 0.759 0.00266156 1.907715e-38 336 238
0.022563647 0.75700003 0.0026545466 1.907715e-38 337 238
0.02389092 0.75700003 0.0026545466 1.9168622e-38 338 238
0.025218192 0.75700003 0.0026545466 1.9168622e-38 339 238
0.026545467 0.75700003 0.0026545466 1.8984584e-38 340 238
0.027872739 0.75700003 0.0026545466 1.9168975e-38 341 238
0.029200014 0.75700003 0.0026545466 1.9168622e-38 342 238
0.030527288 0.75700003 0.0026545466 1.9353014e-38 343 238
0.031854562 0.75700003 0.0026545466 1.9261549e-38 344 238
0.033181835 0.75700003 0.0026545466 1.9261549e-38 345 238
0.034509107 0.75700003 0.0026545466 1.9260117e-38 346 238
0.03583638 0.75700003 0.0026545466 1.9260117e-38 347 238
0.037163652 0.75700003 0.0026545466 1.9076446e-38 348 238
0.038490929 0.75700003 0.0026545466 1.9076446e-38 349 238
0.039555199 0.75199997 0.0026370131 1.9260115e-38 350 238
0.040873703 0.75199997 0.0026370131 1.9167919e-38 351 238
0.04219221 0.75199997 0.0026370131 1.8891688e-38 352 238
0.043684296 0.755 0.0026475333 1.8522547e-38 353 238
0.044948451 0.75400001 0.0026440267 1.8246688e-38 354 238
0.046270464 0.75400001 0.0026440267 1.8154491e-38 355 238
0.04759248 0.75400001 0.0026440267 1.7509852e-38 356 238
0.048914492 0.75400001 0.0026440267 1.6864483e-38 357 238
0.050303131 0.755 0.0026475333 1.6494618e-38 358 238
0.051626898 0.755 0.0026475333 1.5849249e-38 359 238
0.052740261 0.75199997 0.0026370131 1.4834026e-38 360 238
0.054058768 0.75199997 0.0026370131 1.3911711e-38 361 238
0.055377278 0.75199997 0.0026370131 1.1977799e-38 362 238
-0.048914492 0.75400001 0.0013220133 1.6595939e-38 283 239
-0.04759248 0.75400001 0.0013220133 1.7239491e-38 284 239
-0.046270464 0.75400001 0.0013220133 1.7331687e-38 285 239
-0.044948451 0.75400001 0.0013220133 1.8433699e-38 286 239
-0.040982414 0.75400001 0.0013220133 1.8432599e-38 289 239
-0.039660402 0.75400001 0.0013220133 1.8893913e-38 290 239
-0.038389232 0.755 0.0013237667 1.9078304e-38 291 239
-0.037065465 0.755 0.0013237667 1.9446718e-38 292 239
-0.035741698 0.755 0.0013237667 1.9446718e-38 293 239
-0.034509107 0.75700003 0.0013272733 1.9722933e-38 294 239
-0.033181835 0.75700003 0.0013272733 1.9630737e-38 295 239
-0.031854562 0.75700003 0.0013272733 1.9721831e-38 296 239
-0.030527288 0.75700003 0.0013272733 1.9445604e-38 297 239
-0.029200014 0.75700003 0.0013272733 1.9354112e-38 298 239
-0.027872739 0.75700003 0.0013272733 1.9446308e-38 299 239
-0.026545467 0.75700003 0.0013272733 1.9813288e-38 300 239
-0.025218192 0.75700003 0.0013272733 1.9813288e-38 301 239
-0.02389092 0.75700003 0.0013272733 1.9904768e-38 302 239
-0.022563647 0.75700003 0.0013272733 1.9812213e-38 303 239
-0.02129248 0.759 0.00133078 1.9445225e-38 304 239
-0.020014299 0.76099998 0.0013342865 1.9445225e-38 305 239
-0.01863092 0.759 0.00133078 1.9445575e-38 306 239
-0.017300138 0.759 0.00133078 1.9261544e-38 307 239
-0.015969358 0.759 0.00133078 1.9261897e-38 308 239
-0.014638579 0.759 0.00133078 1.9169701e-38 309 239
-0.0133078 0.759 0.00133078 1.9260818e-38 310 239
-0.012008579 0.76099998 0.0013342865 1.9260818e-38 311 239
-0.01064624 0.759 0.00133078 1.9260818e-38 312 239
-0.00931546 0.759 0.00133078 1.9260818e-38 313 239
-0.0079846792 0.759 0.00133078 1.898531e-38 314 239
-0.0066538998 0.759 0.00133078 1.898531e-38 315 239
-0.0053231199 0.759 0.00133078 1.9260099e-38 316 239
-0.0039923396 0.759 0.00133078 1.9260099e-38 317 239
-0.00266156 0.759 0.00133078 1.9260102e-38 318 239
-0.00133078 0.759 0.00133078 1.9260102e-38 319 239
0 0.75700003 0.0013272733 1.9260102e-38 320 239
0.0013272733 0.75700003 0.0013272733 1.9352298e-38 321 239
0.0026545466 0.75700003 0.0013272733 1.9168266e-38 322 239
0.0039818203 0.75700003 0.0013272733 1.9260821e-38 323 239
0.0053090933 0.75700003 0.0013272733 1.9168269e-38 324 239
0.0066188332 0.755 0.0013237667 1.9168269e-38 325 239
0.0079425992 0.755 0.0013237667 1.9260102e-38 326 239
0.0092663663 0.755 0.0013237667 1.9260102e-38 327 239
0.010590133 0.755 0.0013237667 1.8984235e-38 328 239
0.01194546 0.75700003 0.0013272733 1.8984235e-38 329 239
0.013272733 0.75700003 0.0013272733 1.916755e-38 330 239
0.014600007 0.75700003 0.0013272733 1.9075353e-38 331 239
0.015927281 0.75700003 0.0013272733 1.9167548e-38 332 239
0.017208965 0.755 0.0013237667 1.9167548e-38 333 239
0.018532733 0.755 0.0013237667 1.9167548e-38 334 239
0.019909101 0.75700003 0.0013272733 1.9167548e-38 335 239
0.021180267 0.755 0.0013237667 1.8984238e-38 336 239
0.022504034 0.755 0.0013237667 1.8984238e-38 337 239
0.023827799 0.755 0.0013237667 1.8984235e-38 338 239
0.025151566 0.755 0.0013237667 1.8984235e-38 339 239
0.026475333 0.755 0.0013237667 1.8984587e-38 340 239
0.027872739 0.75700003 0.0013272733 1.8984587e-38 341 239
0.029200014 0.75700003 0.0013272733 1.889311e-38 342 239
0.030446632 0.755 0.0013237667 1.8800915e-38 343 239
0.031770397 0.755 0.0013237667 1.9167903e-38 344 239
0.033181835 0.75700003 0.0013272733 1.9167903e-38 345 239
0.034509107 0.75700003 0.0013272733 1.8892391e-38 346 239
0.03583638 0.75700003 0.0013272733 1.8892391e-38 347 239
0.037065465 0.755 0.0013237667 1.8892391e-38 348 239
0.038389232 0.755 0.0013237667 1.8800196e-38 349 239
0.039555199 0.75199997 0.0013185065 1.8800912e-38 350 239
0.040873703 0.75199997 0.0013185065 1.8708716e-38 351 239
0.04219221 0.75199997 0.0013185065 1.8707644e-38 352 239
0.043626439 0.75400001 0.0013220133 1.8984591e-38 353 239
0.044948451 0.75400001 0.0013220133 1.8800211e-38 354 239
0.046270464 0.75400001 0.0013220133 1.8984604e-38 355 239
0.04759248 0.75400001 0.0013220133 1.8800585e-38 356 239
0.048784744 0.75199997 0.0013185065 1.8984616e-38 357 239
0.050103247 0.75199997 0.0013185065 1.8800957e-38 358 239
0.051558517 0.75400001 0.0013220133 1.8800957e-38 359 239
0.052740261 0.75199997 0.0013185065 1.8707336e-38 360 239
0.054058768 0.75199997 0.0013185065 1.8522943e-38 361 239
0.055377278 0.75199997 0.0013185065 1.8060181e-38 362 239
0.056695782 0.75199997 0.0013185065 1.6861638e-38 363 239
0.058014289 0.75199997 0.0013185065 1.5571628e-38 364 239
-0.051284999 0.75 -0 1.8711767e-38 281 240
-0.049969997 0.75 -0 1.8805372e-38 282 240
-0.048784744 0.75199997 -0 1.8805372e-38 283 240
-0.047466237 0.75199997 -0 1.8804258e-38 284 240
-0.04614773 0.75199997 -0 1.8619867e-38 285 240
-0.044829223 0.75199997 -0 1.9077926e-38 286 240
-0.043626439 0.75400001 -0 1.8709502e-38 287 240
-0.042304426 0.75400001 -0 1.8800954e-38 288 240
-0.040982414 0.75400001 -0 1.8985345e-38 289 240
-0.039660402 0.75400001 -0 1.9445602e-38 290 240
-0.038338386 0.75400001 -0 1.9998775e-38 291 240
-0.037065465 0.755 -0 1.9722913e-38 292 240
-0.035741698 0.755 -0 1.9630717e-38 293 240
-0.034417931 0.755 -0 1.9538875e-38 294 240
-0.033181835 0.75700003 -0 1.944632e-38 295 240
-0.031854562 0.75700003 -0 1.9353756e-38 296 240
-0.030527288 0.75700003 -0 1.9261559e-38 297 240
-0.029200014 0.75700003 -0 1.9445225e-38 298 240
-0.027872739 0.75700003 -0 1.9445225e-38 299 240
-0.026545467 0.75700003 -0 1.9445227e-38 300 240
-0.025218192 0.75700003 -0 1.9261196e-38 301 240
-0.02389092 0.75700003 -0 1.9444872e-38 302 240
-0.022563647 0.75700003 -0 1.9444872e-38 303 240
-0.02129248 0.759 -0 1.8986051e-38 304 240
-0.0199617 0.759 -0 1.8986051e-38 305 240
-0.01863092 0.759 -0 1.916972e-38 306 240
-0.017300138 0.759 -0 1.9077165e-38 307 240
-0.015969358 0.759 -0 1.8985325e-38 308 240
-0.014638579 0.759 -0 1.8985325e-38 309 240
-0.0133078 0.759 -0 1.880201e-38 310 240
-0.01197702 0.759 -0 1.8709815e-38 311 240
-0.010618187 0.75700003 -0 1.8709459e-38 312 240
-0.0092909131 0.75700003 -0 1.8709459e-38 313 240
-0.0079636406 0.75700003 -0 1.8800936e-38 314 240
-0.0066363667 0.75700003 -0 1.870874e-38 315 240
-0.0052950666 0.755 -0 1.8617263e-38 316 240
-0.0039712996 0.755 -0 1.8617263e-38 317 240
-0.0026545466 0.75700003 -0 1.861691e-38 318 240
-0.0013272733 0.75700003 -0 1.861691e-38 319 240
0 0.75700003 -0 1.870874e-38 320 240
0.0013272733 0.75700003 -0 1.8800936e-38 321 240
0.0026545466 0.75700003 -0 1.8709459e-38 322 240
0.0039818203 0.75700003 -0 1.8709459e-38 323 240
0.0052950666 0.755 -0 1.8616546e-38 324 240
0.0066188332 0.755 -0 1.8616546e-38 325 240
0.0079425992 0.755 -0 1.861654e-38 326 240
0.0092663663 0.755 -0 1.861654e-38 327 240
0.010590133 0.755 -0 1.8433231e-38 328 240
0.011913899 0.755 -0 1.8433231e-38 329 240
0.013237666 0.755 -0 1.8523994e-38 330 240
0.014561433 0.755 -0 1.861619e-38 331 240
0.015885198 0.755 -0 1.8707662e-38 332 240
0.017186172 0.75400001 -0 1.8799858e-38 333 240
0.018508185 0.75400001 -0 1.8523994e-38 334 240
0.0198565 0.755 -0 1.861619e-38 335 240
0.021180267 0.755 -0 1.8432878e-38 336 240
0.022474226 0.75400001 -0 1.8340682e-38 337 240
0.02379624 0.75400001 -0 1.852435e-38 338 240
0.025151566 0.755 -0 1.852435e-38 339 240
0.026475333 0.755 -0 1.861654e-38 340 240
0.027799098 0.755 -0 1.861654e-38 341 240
0.029122867 0.755 -0 1.8433231e-38 342 240
0.030446632 0.755 -0 1.8433231e-38 343 240
0.031770397 0.755 -0 1.861654e-38 344 240
0.033094164 0.755 -0 1.861654e-38 345 240
0.034417931 0.755 -0 1.870801e-38 346 240
0.035741698 0.755 -0 1.870801e-38 347 240
0.037065465 0.755 -0 1.8708363e-38 348 240
0.038338386 0.75400001 -0 1.8708363e-38 349 240
0.039660402 0.75400001 -0 1.8707997e-38 350 240
0.040982414 0.75400001 -0 1.8707997e-38 351 240
0.042304426 0.75400001 -0 1.8616152e-38 352 240
0.04351072 0.75199997 -0 1.8708348e-38 353 240
0.044829223 0.75199997 -0 1.8707629e-38 354 240
0.04614773 0.75199997 -0 1.8983856e-38 355 240
0.047466237 0.75199997 -0 1.8800915e-38 356 240
0.048590127 0.74900001 -0 1.8800915e-38 357 240
0.04990337 0.74900001 -0 1.8891685e-38 358 240
0.051284999 0.75 -0 1.8983882e-38 359 240
0.052740261 0.75199997 -0 1.8800211e-38 360 240
0.053914998 0.75 -0 1.8892408e-38 361 240
0.055229999 0.75 -0 1.8615451e-38 362 240
0.056544997 0.75 -0 1.8246669e-38 363 240
0.057859998 0.75 -0 1.7786063e-38 364 240
0.058938295 0.74699998 -0 1.7416921e-38 365 240
0.060248036 0.74699998 -0 1.6494984e-38 366 240
0.06147537 0.74599999 -0 1.5849615e-38 367 240
0.062783353 0.74599999 -0 1.5296814e-38 368 240
0.064091347 0.74599999 -0 1.4375216e-38 369 240
0.065399326 0.74599999 -0 1.3726639e-38 370 240
0.066707321 0.74599999 -0 1.2712847e-38 371 240
0.068015307 0.74599999 -0 1.1791279e-38 372 240
-0.052740261 0.75199997 -0.0013185065 1.8893225e-38 280 241
-0.051216617 0.74900001 -0.0013132467 1.8247856e-38 281 241
-0.04990337 0.74900001 -0.0013132467 1.8433658e-38 282 241
-0.048784744 0.75199997 -0.0013185065 1.8525854e-38 283 241
-0.047466237 0.75199997 -0.0013185065 1.8893895e-38 284 241
-0.04614773 0.75199997 -0.0013185065 1.9262676e-38 285 241
-0.044829223 0.75199997 -0.0013185065 1.9353774e-38 286 241
-0.04351072 0.75199997 -0.0013185065 1.9538166e-38 287 241
-0.042304426 0.75400001 -0.0013220133 1.9813661e-38 288 241
-0.040982414 0.75400001 -0.0013220133 1.9813661e-38 289 241
-0.039660402 0.75400001 -0.0013220133 1.9630339e-38 290 241
-0.038338386 0.75400001 -0.0013220133 1.9446308e-38 291 241
-0.037016369 0.75400001 -0.0013220133 1.9354112e-38 292 241
-0.035741698 0.755 -0.0013237667 1.9261915e-38 293 241
-0.034417931 0.755 -0.0013237667 1.9261559e-38 294 241
-0.033094164 0.755 -0.0013237667 1.9261559e-38 295 241
-0.031770397 0.755 -0.0013237667 1.9261562e-38 296 241
-0.030527288 0.75700003 -0.0013272733 1.9261562e-38 297 241
-0.029200014 0.75700003 -0.0013272733 1.916901e-38 298 241
-0.027872739 0.75700003 -0.0013272733 1.916901e-38 299 241
-0.026545467 0.75700003 -0.0013272733 1.9077168e-38 300 241
-0.025218192 0.75700003 -0.0013272733 1.9169364e-38 301 241
-0.02389092 0.75700003 -0.0013272733 1.9077165e-38 302 241
-0.022563647 0.75700003 -0.0013272733 1.9077165e-38 303 241
-0.021236373 0.75700003 -0.0013272733 1.8984972e-38 304 241
-0.0199617 0.759 -0.00133078 1.8984972e-38 305 241
-0.018581826 0.75700003 -0.0013272733 1.8984972e-38 306 241
-0.017254554 0.75700003 -0.0013272733 1.8800941e-38 307 241
-0.015927281 0.75700003 -0.0013272733 1.8801292e-38 308 241
-0.014600007 0.75700003 -0.0013272733 1.8709096e-38 309 241
-0.013272733 0.75700003 -0.0013272733 1.870909e-38 310 241
-0.01194546 0.75700003 -0.0013272733 1.8616893e-38 311 241
-0.010590133 0.755 -0.0013237667 1.8800206e-38 312 241
-0.0092663663 0.755 -0.0013237667 1.870801e-38 313 241
-0.0079425992 0.755 -0.0013237667 1.8523626e-38 314 241
-0.0066188332 0.755 -0.0013237667 1.8708016e-38 315 241
-0.0052880533 0.75400001 -0.0013220133 1.8524347e-38 316 241
-0.00396604 0.75400001 -0.0013220133 1.8524347e-38 317 241
-0.0026545466 0.75700003 -0.0013272733 1.8707294e-38 318 241
-0.0013272733 0.75700003 -0.0013272733 1.8615098e-38 319 241
0 0.755 -0.0013237667 1.8340306e-38 320 241
0.0013237667 0.755 -0.0013237667 1.8340306e-38 321 241
0.0026475333 0.755 -0.0013237667 1.8615098e-38 322 241
0.0039712996 0.755 -0.0013237667 1.8707294e-38 323 241
0.0052950666 0.755 -0.0013237667 1.8614742e-38 324 241
0.0066188332 0.755 -0.0013237667 1.8522547e-38 325 241
0.00793208 0.75400001 -0.0013220133 1.8432136e-38 326 241
0.0092540924 0.75400001 -0.0013220133 1.8432136e-38 327 241
0.010576107 0.75400001 -0.0013220133 1.8523253e-38 328 241
0.011913899 0.755 -0.0013237667 1.8615449e-38 329 241
0.013237666 0.755 -0.0013237667 1.8614377e-38 330 241
0.014542146 0.75400001 -0.0013220133 1.8614377e-38 331 241
0.01586416 0.75400001 -0.0013220133 1.8614732e-38 332 241
0.017186172 0.75400001 -0.0013220133 1.8614732e-38 333 241
0.018508185 0.75400001 -0.0013220133 1.8522547e-38 334 241
0.019830201 0.75400001 -0.0013220133 1.8614742e-38 335 241
0.021152213 0.75400001 -0.0013220133 1.8431077e-38 336 241
0.022474226 0.75400001 -0.0013220133 1.8431077e-38 337 241
0.02379624 0.75400001 -0.0013220133 1.8339237e-38 338 241
0.025118252 0.75400001 -0.0013220133 1.8431433e-38 339 241
0.026440267 0.75400001 -0.0013220133 1.8339234e-38 340 241
0.027762281 0.75400001 -0.0013220133 1.843143e-38 341 241
0.029122867 0.755 -0.0013237667 1.843143e-38 342 241
0.030406307 0.75400001 -0.0013220133 1.843143e-38 343 241
0.03172832 0.75400001 -0.0013220133 1.8707297e-38 344 241
0.033050332 0.75400001 -0.0013220133 1.8614742e-38 345 241
0.034372345 0.75400001 -0.0013220133 1.8706222e-38 346 241
0.035694357 0.75400001 -0.0013220133 1.8706222e-38 347 241
0.037016369 0.75400001 -0.0013220133 1.8706578e-38 348 241
0.038338386 0.75400001 -0.0013220133 1.8706578e-38 349 241
0.039660402 0.75400001 -0.0013220133 1.8706928e-38 350 241
0.040873703 0.75199997 -0.0013185065 1.8706928e-38 351 241
0.04219221 0.75199997 -0.0013185065 1.8432133e-38 352 241
0.04351072 0.75199997 -0.0013185065 1.8432133e-38 353 241
0.044829223 0.75199997 -0.0013185065 1.8432133e-38 354 241
0.04614773 0.75199997 -0.0013185065 1.8432133e-38 355 241
0.047339998 0.75 -0.001315 1.8432136e-38 356 241
0.048590127 0.74900001 -0.0013132467 1.8432136e-38 357 241
0.04990337 0.74900001 -0.0013132467 1.8615449e-38 358 241
0.051284999 0.75 -0.001315 1.8523253e-38 359 241
0.052389596 0.74699998 -0.0013097399 1.8339938e-38 360 241
0.053699337 0.74699998 -0.0013097399 1.8247742e-38 361 241
0.055009075 0.74699998 -0.0013097399 1.7972583e-38 362 241
0.056318816 0.74699998 -0.0013097399 1.8064779e-38 363 241
0.057628557 0.74699998 -0.0013097399 1.8524332e-38 364 241
0.058859397 0.74599999 -0.0013079866 1.8892756e-38 365 241
0.06016738 0.74599999 -0.0013079866 1.8616916e-38 366 241
0.061310563 0.74400002 -0.00130448 1.8432524e-38 367 241
0.062615044 0.74400002 -0.00130448 1.8616209e-38 368 241
0.064091347 0.74599999 -0.0013079866 1.8432178e-38 369 241
0.065399326 0.74599999 -0.0013079866 1.8336025e-38 370 241
0.066707321 0.74599999 -0.0013079866 1.7414429e-38 371 241
0.068015307 0.74599999 -0.0013079866 1.6125128e-38 372 241
0.069323286 0.74599999 -0.0013079866 1.4926586e-38 373 241
-0.053914998 0.75 -0.00263 1.8434399e-38 279 242
-0.0526 0.75 -0.00263 1.8800619e-38 280 242
-0.051216617 0.74900001 -0.0026264933 1.8524392e-38 281 242
-0.04990337 0.74900001 -0.0026264933 1.8893871e-38 282 242
-0.048655 0.75 -0.00263 1.9170459e-38 283 242
-0.047339998 0.75 -0.00263 1.917081e-38 284 242
-0.046024997 0.75 -0.00263 1.917081e-38 285 242
-0.044709999 0.75 -0.00263 1.9446305e-38 286 242
-0.04351072 0.75199997 -0.0026370131 1.9446305e-38 287 242
-0.04219221 0.75199997 -0.0026370131 1.9537778e-38 288 242
-0.040982414 0.75400001 -0.0026440267 1.9537778e-38 289 242
-0.039660402 0.75400001 -0.0026440267 1.926191e-38 290 242
-0.038338386 0.75400001 -0.0026440267 1.9169714e-38 291 242
-0.037016369 0.75400001 -0.0026440267 1.916972e-38 292 242
-0.035694357 0.75400001 -0.0026440267 1.916972e-38 293 242
-0.034417931 0.755 -0.0026475333 1.9077171e-38 294 242
-0.033094164 0.755 -0.0026475333 1.9169366e-38 295 242
-0.031770397 0.755 -0.0026475333 1.9076815e-38 296 242
-0.030446632 0.755 -0.0026475333 1.9076815e-38 297 242
-0.029122867 0.755 -0.0026475333 1.8800954e-38 298 242
-0.027872739 0.75700003 -0.0026545466 1.8800954e-38 299 242
-0.026545467 0.75700003 -0.0026545466 1.8708755e-38 300 242
-0.025218192 0.75700003 -0.0026545466 1.8708755e-38 301 242
-0.02389092 0.75700003 -0.0026545466 1.8709111e-38 302 242
-0.022563647 0.75700003 -0.0026545466 1.8709111e-38 303 242
-0.021236373 0.75700003 -0.0026545466 1.834105e-38 304 242
-0.019909101 0.75700003 -0.0026545466 1.8433248e-38 305 242
-0.018581826 0.75700003 -0.0026545466 1.8708037e-38 306 242
-0.017208965 0.755 -0.0026475333 1.861584e-38 307 242
-0.015885198 0.755 -0.0026475333 1.8248484e-38 308 242
-0.014561433 0.755 -0.0026475333 1.8156288e-38 309 242
-0.013237666 0.755 -0.0026475333 1.824919e-38 310 242
-0.011913899 0.755 -0.0026475333 1.824919e-38 311 242
-0.010590133 0.755 -0.0026475333 1.815627e-38 312 242
-0.0092663663 0.755 -0.0026475333 1.7971877e-38 313 242
-0.0079425992 0.755 -0.0026475333 1.7971524e-38 314 242
-0.0066188332 0.755 -0.0026475333 1.8063721e-38 315 242
-0.0052880533 0.75400001 -0.0026440267 1.7788582e-38 316 242
-0.00396604 0.75400001 -0.0026440267 1.7788582e-38 317 242
-0.0026475333 0.755 -0.0026475333 1.8062646e-38 318 242
-0.0013237667 0.755 -0.0026475333 1.8062646e-38 319 242
0 0.755 -0.0026475333 1.7787133e-38 320 242
0.0013237667 0.755 -0.0026475333 1.7787133e-38 321 242
0.0026475333 0.755 -0.0026475333 1.7878609e-38 322 242
0.0039712996 0.755 -0.0026475333 1.8062641e-38 323 242
0.0052950666 0.755 -0.0026475333 1.7787135e-38 324 242
0.0066100666 0.75400001 -0.0026440267 1.7694581e-38 325 242
0.00793208 0.75400001 -0.0026440267 1.7511975e-38 326 242
0.0092540924 0.75400001 -0.0026440267 1.7511975e-38 327 242
0.010576107 0.75400001 -0.0026440267 1.778712e-38 328 242
0.01189812 0.75400001 -0.0026440267 1.7879316e-38 329 242
0.013220133 0.75400001 -0.0026440267 1.8062275e-38 330 242
0.014542146 0.75400001 -0.0026440267 1.815447e-38 331 242
0.01586416 0.75400001 -0.0026440267 1.7603467e-38 332 242
0.017186172 0.75400001 -0.0026440267 1.7695663e-38 333 242
0.018508185 0.75400001 -0.0026440267 1.7878628e-38 334 242
0.019830201 0.75400001 -0.0026440267 1.7970823e-38 335 242
0.021152213 0.75400001 -0.0026440267 1.7787155e-38 336 242
0.022474226 0.75400001 -0.0026440267 1.7694959e-38 337 242
0.02379624 0.75400001 -0.0026440267 1.7970826e-38 338 242
0.025118252 0.75400001 -0.0026440267 1.7970826e-38 339 242
0.026440267 0.75400001 -0.0026440267 1.7971544e-38 340 242
0.027762281 0.75400001 -0.0026440267 1.7787511e-38 341 242
0.029084291 0.75400001 -0.0026440267 1.8063376e-38 342 242
0.030406307 0.75400001 -0.0026440267 1.8155572e-38 343 242
0.03172832 0.75400001 -0.0026440267 1.8246688e-38 344 242
0.033050332 0.75400001 -0.0026440267 1.8338884e-38 345 242
0.034372345 0.75400001 -0.0026440267 1.8338165e-38 346 242
0.035694357 0.75400001 -0.0026440267 1.8522196e-38 347 242
0.036918186 0.75199997 -0.0026370131 1.8338518e-38 348 242
0.038236689 0.75199997 -0.0026370131 1.8338518e-38 349 242
0.039555199 0.75199997 -0.0026370131 1.8338513e-38 350 242
0.040873703 0.75199997 -0.0026370131 1.8338513e-38 351 242
0.04219221 0.75199997 -0.0026370131 1.8064077e-38 352 242
0.04351072 0.75199997 -0.0026370131 1.8064077e-38 353 242
0.044829223 0.75199997 -0.0026370131 1.8339585e-38 354 242
0.046024997 0.75 -0.00263 1.8247389e-38 355 242
0.047276881 0.74900001 -0.0026264933 1.8339588e-38 356 242
0.048590127 0.74900001 -0.0026264933 1.8339588e-38 357 242
0.04990337 0.74900001 -0.0026264933 1.8338869e-38 358 242
0.051284999 0.75 -0.00263 1.8338869e-38 359 242
0.052389596 0.74699998 -0.0026194798 1.8247389e-38 360 242
0.053699337 0.74699998 -0.0026194798 1.8247389e-38 361 242
0.055009075 0.74699998 -0.0026194798 1.7972583e-38 362 242
0.056318816 0.74699998 -0.0026194798 1.7972583e-38 363 242
0.057551414 0.74599999 -0.0026159731 1.8431744e-38 364 242
0.058859397 0.74599999 -0.0026159731 1.8431744e-38 365 242
0.06016738 0.74599999 -0.0026159731 1.8432837e-38 366 242
0.061310563 0.74400002 -0.00260896 1.8432837e-38 367 242
0.062615044 0.74400002 -0.00260896 1.8615446e-38 368 242
0.064091347 0.74599999 -0.0026159731 1.8615446e-38 369 242
0.065399326 0.74599999 -0.0026159731 1.8522531e-38 370 242
0.066528477 0.74400002 -0.00260896 1.8430334e-38 371 242
0.067832954 0.74400002 -0.00260896 1.7784259e-38 372 242
0.069323286 0.74599999 -0.0026159731 1.7231445e-38 373 242
0.070631281 0.74599999 -0.0026159731 1.6402794e-38 374 242
0.07193926 0.74599999 -0.0026159731 1.5480839e-38 375 242
0.073247254 0.74599999 -0.0026159731 1.4189047e-38 376 242
0.074155472 0.74199998 -0.0026019465 1.2806112e-38 377 242
0.075354755 0.741 -0.0025984398 1.1976001e-38 378 242
0.076653972 0.741 -0.0025984398 8.1959803e-39 379 242
-0.05984477 0.74199998 -0.0039029196 1.8251105e-38 274 243
-0.058543798 0.74199998 -0.0039029196 1.7605736e-38 275 243
-0.05739712 0.74400002 -0.0039134403 1.788085e-38 276 243
-0.056318816 0.74699998 -0.0039292197 1.7696819e-38 277 243
-0.055009075 0.74699998 -0.0039292197 1.8249247e-38 278 243
-0.053843111 0.74900001 -0.0039397399 1.8525834e-38 279 243
-0.052529868 0.74900001 -0.0039397399 1.9261582e-38 280 243
-0.051216617 0.74900001 -0.0039397399 1.9445973e-38 281 243
-0.04990337 0.74900001 -0.0039397399 1.9446676e-38 282 243
-0.048655 0.75 -0.003945 1.9446676e-38 283 243
-0.047339998 0.75 -0.003945 1.9446311e-38 284 243
-0.046024997 0.75 -0.003945 1.9353756e-38 285 243
-0.044709999 0.75 -0.003945 1.9261915e-38 286 243
-0.043394998 0.75 -0.003945 1.9261915e-38 287 243
-0.04208 0.75 -0.003945 1.9169364e-38 288 243
-0.040873703 0.75199997 -0.0039555198 1.9169364e-38 289 243
-0.039555199 0.75199997 -0.0039555198 1.8802023e-38 290 243
-0.038236689 0.75199997 -0.0039555198 1.8617992e-38 291 243
-0.036918186 0.75199997 -0.0039555198 1.8801304e-38 292 243
-0.035694357 0.75400001 -0.00396604 1.8709109e-38 293 243
-0.034372345 0.75400001 -0.00396604 1.8800588e-38 294 243
-0.033050332 0.75400001 -0.00396604 1.8708392e-38 295 243
-0.031770397 0.755 -0.0039712996 1.8891705e-38 296 243
-0.030446632 0.755 -0.0039712996 1.8891705e-38 297 243
-0.029122867 0.755 -0.0039712996 1.8616195e-38 298 243
-0.027799098 0.755 -0.0039712996 1.8616195e-38 299 243
-0.026545467 0.75700003 -0.0039818203 1.8340682e-38 300 243
-0.025218192 0.75700003 -0.0039818203 1.8340682e-38 301 243
-0.02389092 0.75700003 -0.0039818203 1.8524347e-38 302 243
-0.022563647 0.75700003 -0.0039818203 1.8339956e-38 303 243
-0.021236373 0.75700003 -0.0039818203 1.7880424e-38 304 243
-0.019909101 0.75700003 -0.0039818203 1.7788228e-38 305 243
-0.018532733 0.755 -0.0039712996 1.8063376e-38 306 243
-0.017208965 0.755 -0.0039712996 1.8063376e-38 307 243
-0.015885198 0.755 -0.0039712996 1.7604183e-38 308 243
-0.014561433 0.755 -0.0039712996 1.7511988e-38 309 243
-0.013220133 0.75400001 -0.00396604 1.7787133e-38 310 243
-0.01189812 0.75400001 -0.00396604 1.7694937e-38 311 243
-0.010576107 0.75400001 -0.00396604 1.7694215e-38 312 243
-0.0092540924 0.75400001 -0.00396604 1.7509823e-38 313 243
-0.00793208 0.75400001 -0.00396604 1.7326875e-38 314 243
-0.0066100666 0.75400001 -0.00396604 1.741907e-38 315 243
-0.0052880533 0.75400001 -0.00396604 1.7143565e-38 316 243
-0.00396604 0.75400001 -0.00396604 1.7143565e-38 317 243
-0.0026475333 0.755 -0.0039712996 1.7233606e-38 318 243
-0.0013237667 0.755 -0.0039712996 1.7233606e-38 319 243
0 0.755 -0.0039712996 1.7141766e-38 320 243
0.0013237667 0.755 -0.0039712996 1.7049212e-38 321 243
0.0026440267 0.75400001 -0.00396604 1.7141042e-38 322 243
0.00396604 0.75400001 -0.00396604 1.7141042e-38 323 243
0.0052880533 0.75400001 -0.00396604 1.6866255e-38 324 243
0.0066100666 0.75400001 -0.00396604 1.6958451e-38 325 243
0.00793208 0.75400001 -0.00396604 1.6866971e-38 326 243
0.0092540924 0.75400001 -0.00396604 1.668294e-38 327 243
0.010576107 0.75400001 -0.00396604 1.6865531e-38 328 243
0.01189812 0.75400001 -0.00396604 1.6865531e-38 329 243
0.013220133 0.75400001 -0.00396604 1.7417627e-38 330 243
0.014542146 0.75400001 -0.00396604 1.7509823e-38 331 243
0.01586416 0.75400001 -0.00396604 1.7234315e-38 332 243
0.017186172 0.75400001 -0.00396604 1.7234315e-38 333 243
0.018508185 0.75400001 -0.00396604 1.7509467e-38 334 243
0.019830201 0.75400001 -0.00396604 1.7602022e-38 335 243
0.021152213 0.75400001 -0.00396604 1.7326157e-38 336 243
0.022414612 0.75199997 -0.0039555198 1.7326157e-38 337 243
0.023733119 0.75199997 -0.0039555198 1.7601313e-38 338 243
0.025051624 0.75199997 -0.0039555198 1.7786063e-38 339 243
0.02637013 0.75199997 -0.0039555198 1.7787133e-38 340 243
0.027762281 0.75400001 -0.00396604 1.7694937e-38 341 243
0.029007144 0.75199997 -0.0039555198 1.7878965e-38 342 243
0.030325651 0.75199997 -0.0039555198 1.7878965e-38 343 243
0.031644158 0.75199997 -0.0039555198 1.8061922e-38 344 243
0.032962665 0.75199997 -0.0039555198 1.8061922e-38 345 243
0.034281172 0.75199997 -0.0039555198 1.8062275e-38 346 243
0.035599679 0.75199997 -0.0039555198 1.8062275e-38 347 243
0.036918186 0.75199997 -0.0039555198 1.824559e-38 348 243
0.038236689 0.75199997 -0.0039555198 1.8337785e-38 349 243
0.039555199 0.75199997 -0.0039555198 1.8061922e-38 350 243
0.040873703 0.75199997 -0.0039555198 1.8154476e-38 351 243
0.04219221 0.75199997 -0.0039555198 1.8155192e-38 352 243
0.043394998 0.75 -0.003945 1.8062996e-38 353 243
0.044709999 0.75 -0.003945 1.8062641e-38 354 243
0.046024997 0.75 -0.003945 1.8062641e-38 355 243
0.047276881 0.74900001 -0.0039397399 1.8154839e-38 356 243
0.048590127 0.74900001 -0.0039397399 1.8154839e-38 357 243
0.04990337 0.74900001 -0.0039397399 1.8154123e-38 358 243
0.051079858 0.74699998 -0.0039292197 1.8154123e-38 359 243
0.052389596 0.74699998 -0.0039292197 1.806229e-38 360 243
0.053699337 0.74699998 -0.0039292197 1.8154486e-38 361 243
0.055009075 0.74699998 -0.0039292197 1.7971524e-38 362 243
0.056318816 0.74699998 -0.0039292197 1.7971524e-38 363 243
0.057551414 0.74599999 -0.0039239596 1.8247022e-38 364 243
0.058859397 0.74599999 -0.0039239596 1.8247022e-38 365 243
0.060006075 0.74400002 -0.0039134403 1.8247022e-38 366 243
0.061310563 0.74400002 -0.0039134403 1.8247022e-38 367 243
0.062615044 0.74400002 -0.0039134403 1.8247019e-38 368 243
0.063919522 0.74400002 -0.0039134403 1.8154824e-38 369 243
0.065223999 0.74400002 -0.0039134403 1.8338136e-38 370 243
0.066349633 0.74199998 -0.0039029196 1.8430331e-38 371 243
0.067650609 0.74199998 -0.0039029196 1.8154123e-38 372 243
0.069137439 0.74400002 -0.0039134403 1.8338516e-38 373 243
0.070441924 0.74400002 -0.0039134403 1.8430373e-38 374 243
0.071746401 0.74400002 -0.0039134403 1.8245982e-38 375 243
0.072854504 0.74199998 -0.0039029196 1.741695e-38 376 243
0.074155472 0.74199998 -0.0039029196 1.6034016e-38 377 243
0.075354755 0.741 -0.0038976599 1.4005692e-38 378 243
0.076653972 0.741 -0.0038976599 9.9490846e-39 379 243
0.077953197 0.741 -0.0038976599 7.5477298e-39 380 243
0.079252414 0.741 -0.0038976599 7.3633414e-39 381 243
0.080660343 0.74199998 -0.0039029196 6.9967309e-39 382 243
-0.062446713 0.74199998 -0.0052038929 1.825147e-38 272 244
-0.061145745 0.74199998 -0.0052038929 1.7975242e-38 273 244
-0.05984477 0.74199998 -0.0052038929 1.8157793e-38 274 244
-0.058543798 0.74199998 -0.0052038929 1.7973402e-38 275 244
-0.05739712 0.74400002 -0.0052179201 1.8433992e-38 276 244
-0.056243423 0.74599999 -0.0052319462 1.871022e-38 277 244
-0.054935437 0.74599999 -0.0052319462 1.9261579e-38 278 244
-0.053699337 0.74699998 -0.0052389596 1.9077548e-38 279 244
-0.052529868 0.74900001 -0.0052529867 1.9261929e-38 280 244
-0.051216617 0.74900001 -0.0052529867 1.9261929e-38 281 244
-0.04990337 0.74900001 -0.0052529867 1.962927e-38 282 244
-0.048590127 0.74900001 -0.0052529867 1.9537074e-38 283 244
-0.047276881 0.74900001 -0.0052529867 1.9444874e-38 284 244
-0.046024997 0.75 -0.00526 1.9260843e-38 285 244
-0.044650383 0.74900001 -0.0052529867 1.9169366e-38 286 244
-0.04333714 0.74900001 -0.0052529867 1.9077171e-38 287 244
-0.04208 0.75 -0.00526 1.8984616e-38 288 244
-0.040764999 0.75 -0.00526 1.8984616e-38 289 244
-0.039555199 0.75199997 -0.0052740262 1.8433601e-38 290 244
-0.038236689 0.75199997 -0.0052740262 1.8433601e-38 291 244
-0.036918186 0.75199997 -0.0052740262 1.8065537e-38 292 244
-0.035599679 0.75199997 -0.0052740262 1.8065537e-38 293 244
-0.034281172 0.75199997 -0.0052740262 1.8523997e-38 294 244
-0.033050332 0.75400001 -0.0052880533 1.8431801e-38 295 244
-0.03172832 0.75400001 -0.0052880533 1.8431799e-38 296 244
-0.030406307 0.75400001 -0.0052880533 1.8339603e-38 297 244
-0.029084291 0.75400001 -0.0052880533 1.7971541e-38 298 244
-0.027799098 0.755 -0.0052950666 1.7971541e-38 299 244
-0.026475333 0.755 -0.0052950666 1.7604189e-38 300 244
-0.025151566 0.755 -0.0052950666 1.7604189e-38 301 244
-0.023827799 0.755 -0.0052950666 1.760382e-38 302 244
-0.022504034 0.755 -0.0052950666 1.7511625e-38 303 244
-0.021236373 0.75700003 -0.0053090933 1.7235405e-38 304 244
-0.0198565 0.755 -0.0052950666 1.7143209e-38 305 244
-0.018532733 0.755 -0.0052950666 1.6683672e-38 306 244
-0.017186172 0.75400001 -0.0052880533 1.6499641e-38 307 244
-0.01586416 0.75400001 -0.0052880533 1.6407798e-38 308 244
-0.014542146 0.75400001 -0.0052880533 1.6315602e-38 309 244
-0.013220133 0.75400001 -0.0052880533 1.6590392e-38 310 244
-0.01189812 0.75400001 -0.0052880533 1.6405999e-38 311 244
-0.010576107 0.75400001 -0.0052880533 1.6220886e-38 312 244
-0.0092540924 0.75400001 -0.0052880533 1.6128332e-38 313 244
-0.00793208 0.75400001 -0.0052880533 1.6128687e-38 314 244
-0.0066100666 0.75400001 -0.0052880533 1.6036492e-38 315 244
-0.0052880533 0.75400001 -0.0052880533 1.5761347e-38 316 244
-0.0039712996 0.755 -0.0052950666 1.5577314e-38 317 244
-0.0026475333 0.755 -0.0052950666 1.5759908e-38 318 244
-0.0013237667 0.755 -0.0052950666 1.5759908e-38 319 244
0 0.755 -0.0052950666 1.5759905e-38 320 244
0.0013237667 0.755 -0.0052950666 1.5575514e-38 321 244
0.0026440267 0.75400001 -0.0052880533 1.5483315e-38 322 244
0.00396604 0.75400001 -0.0052880533 1.539112e-38 323 244
0.0052880533 0.75400001 -0.0052880533 1.5390767e-38 324 244
0.0066100666 0.75400001 -0.0052880533 1.5667712e-38 325 244
0.00793208 0.75400001 -0.0052880533 1.5576235e-38 326 244
0.0092540924 0.75400001 -0.0052880533 1.5391846e-38 327 244
0.010576107 0.75400001 -0.0052880533 1.5207807e-38 328 244
0.01189812 0.75400001 -0.0052880533 1.5300003e-38 329 244
0.013220133 0.75400001 -0.0052880533 1.5760261e-38 330 244
0.014542146 0.75400001 -0.0052880533 1.5760261e-38 331 244
0.015822079 0.75199997 -0.0052740262 1.5759905e-38 332 244
0.017140586 0.75199997 -0.0052740262 1.5944295e-38 333 244
0.018459093 0.75199997 -0.0052740262 1.5852824e-38 334 244
0.0197776 0.75199997 -0.0052740262 1.5852824e-38 335 244
0.021096105 0.75199997 -0.0052740262 1.5852826e-38 336 244
0.022414612 0.75199997 -0.0052740262 1.5945022e-38 337 244
0.023733119 0.75199997 -0.0052740262 1.6220177e-38 338 244
0.025051624 0.75199997 -0.0052740262 1.6588958e-38 339 244
0.02637013 0.75199997 -0.0052740262 1.6589308e-38 340 244
0.027688639 0.75199997 -0.0052740262 1.6589308e-38 341 244
0.029007144 0.75199997 -0.0052740262 1.6773701e-38 342 244
0.030325651 0.75199997 -0.0052740262 1.6866255e-38 343 244
0.031644158 0.75199997 -0.0052740262 1.7049568e-38 344 244
0.032962665 0.75199997 -0.0052740262 1.7141763e-38 345 244
0.034281172 0.75199997 -0.0052740262 1.6958801e-38 346 244
0.035599679 0.75199997 -0.0052740262 1.6958801e-38 347 244
0.036918186 0.75199997 -0.0052740262 1.7234678e-38 348 244
0.038236689 0.75199997 -0.0052740262 1.741907e-38 349 244
0.039555199 0.75199997 -0.0052740262 1.7510906e-38 350 244
0.040764999 0.75 -0.00526 1.7694937e-38 351 244
0.04208 0.75 -0.00526 1.7878965e-38 352 244
0.043394998 0.75 -0.00526 1.7786411e-38 353 244
0.044650383 0.74900001 -0.0052529867 1.7786411e-38 354 244
0.045963634 0.74900001 -0.0052529867 1.7694215e-38 355 244
0.047276881 0.74900001 -0.0052529867 1.7786411e-38 356 244
0.048460379 0.74699998 -0.0052389596 1.7878965e-38 357 244
0.049770117 0.74699998 -0.0052389596 1.8061924e-38 358 244
0.051079858 0.74699998 -0.0052389596 1.8061924e-38 359 244
0.052319467 0.74599999 -0.0052319462 1.7878256e-38 360 244
0.053627454 0.74599999 -0.0052319462 1.8062646e-38 361 244
0.054935437 0.74599999 -0.0052319462 1.8062641e-38 362 244
0.056243423 0.74599999 -0.0052319462 1.8062641e-38 363 244
0.057551414 0.74599999 -0.0052319462 1.815447e-38 364 244
0.058701597 0.74400002 -0.0052179201 1.815447e-38 365 244
0.060006075 0.74400002 -0.0052179201 1.8154826e-38 366 244
0.061310563 0.74400002 -0.0052179201 1.8154826e-38 367 244
0.062446713 0.74199998 -0.0052038929 1.8338136e-38 368 244
0.063747689 0.74199998 -0.0052038929 1.824594e-38 369 244
0.065048665 0.74199998 -0.0052038929 1.8338139e-38 370 244
0.066349633 0.74199998 -0.0052038929 1.8338139e-38 371 244
0.067650609 0.74199998 -0.0052038929 1.8062275e-38 372 244
0.068951584 0.74199998 -0.0052038929 1.8062275e-38 373 244
0.07025256 0.74199998 -0.0052038929 1.7878609e-38 374 244
0.071553528 0.74199998 -0.0052038929 1.8062641e-38 375 244
0.072854504 0.74199998 -0.0052038929 1.8063376e-38 376 244
0.074155472 0.74199998 -0.0052038929 1.7878625e-38 377 244
0.075354755 0.741 -0.0051968796 1.7416573e-38 378 244
0.076653972 0.741 -0.0051968796 1.6125834e-38 379 244
0.077953197 0.741 -0.0051968796 1.4184689e-38 380 244
0.079252414 0.741 -0.0051968796 1.1695407e-38 381 244
0.080551639 0.741 -0.0051968796 9.3891033e-39 382 244
0.081850857 0.741 -0.0051968796 7.6377717e-39 383 244
0.083486721 0.74400002 -0.0052179201 6.2606134e-39 384 244
-0.063747689 0.74199998 -0.0065048663 1.7698636e-38 271 245
-0.062446713 0.74199998 -0.0065048663 1.7971951e-38 272 245
-0.061145745 0.74199998 -0.0065048663 1.8248897e-38 273 245
-0.05984477 0.74199998 -0.0065048663 1.8341796e-38 274 245
-0.058543798 0.74199998 -0.0065048663 1.8526187e-38 275 245
-0.05739712 0.74400002 -0.0065223998 1.8894952e-38 276 245
-0.056243423 0.74599999 -0.0065399334 1.9171178e-38 277 245
-0.054935437 0.74599999 -0.0065399334 1.9354481e-38 278 245
-0.053627454 0.74599999 -0.0065399334 1.9077894e-38 279 245
-0.052389596 0.74699998 -0.0065486995 1.9077897e-38 280 245
-0.051079858 0.74699998 -0.0065486995 1.9077897e-38 281 245
-0.049770117 0.74699998 -0.0065486995 1.9077897e-38 282 245
-0.048590127 0.74900001 -0.0065662335 1.8985701e-38 283 245
-0.047276881 0.74900001 -0.0065662335 1.8800951e-38 284 245
-0.045963634 0.74900001 -0.0065662335 1.8800951e-38 285 245
-0.044650383 0.74900001 -0.0065662335 1.8617639e-38 286 245
-0.04333714 0.74900001 -0.0065662335 1.8433248e-38 287 245
-0.042023893 0.74900001 -0.0065662335 1.8341401e-38 288 245
-0.040710647 0.74900001 -0.0065662335 1.8341401e-38 289 245
-0.039449997 0.75 -0.006575 1.815736e-38 290 245
-0.038135 0.75 -0.006575 1.7973329e-38 291 245
-0.036819998 0.75 -0.006575 1.7605282e-38 292 245
-0.035505001 0.75 -0.006575 1.7605282e-38 293 245
-0.034281172 0.75199997 -0.0065925326 1.7971544e-38 294 245
-0.032962665 0.75199997 -0.0065925326 1.7787511e-38 295 245
-0.03172832 0.75400001 -0.0066100666 1.7696013e-38 296 245
-0.030406307 0.75400001 -0.0066100666 1.7603818e-38 297 245
-0.029084291 0.75400001 -0.0066100666 1.7327957e-38 298 245
-0.027799098 0.755 -0.0066188332 1.7327957e-38 299 245
-0.026475333 0.755 -0.0066188332 1.7235405e-38 300 245
-0.025151566 0.755 -0.0066188332 1.7051012e-38 301 245
-0.023827799 0.755 -0.0066188332 1.6866618e-38 302 245
-0.022504034 0.755 -0.0066188332 1.6682587e-38 303 245
-0.021180267 0.755 -0.0066188332 1.631453e-38 304 245
-0.0198565 0.755 -0.0066188332 1.6222333e-38 305 245
-0.018508185 0.75400001 -0.0066100666 1.5854274e-38 306 245
-0.017186172 0.75400001 -0.0066100666 1.5762078e-38 307 245
-0.01586416 0.75400001 -0.0066100666 1.5669527e-38 308 245
-0.014542146 0.75400001 -0.0066100666 1.5577331e-38 309 245
-0.013220133 0.75400001 -0.0066100666 1.5392583e-38 310 245
-0.01189812 0.75400001 -0.0066100666 1.5116356e-38 311 245
-0.010576107 0.75400001 -0.0066100666 1.5116353e-38 312 245
-0.0092540924 0.75400001 -0.0066100666 1.5024157e-38 313 245
-0.00793208 0.75400001 -0.0066100666 1.4930537e-38 314 245
-0.0066100666 0.75400001 -0.0066100666 1.5207122e-38 315 245
-0.0052880533 0.75400001 -0.0066100666 1.5023472e-38 316 245
-0.00396604 0.75400001 -0.0066100666 1.4746887e-38 317 245
-0.0026475333 0.755 -0.0066188332 1.4930184e-38 318 245
-0.0013220133 0.75400001 -0.0066100666 1.4930184e-38 319 245
0 0.75400001 -0.0066100666 1.5114555e-38 320 245
0.0013220133 0.75400001 -0.0066100666 1.5022358e-38 321 245
0.0026440267 0.75400001 -0.0066100666 1.45621e-38 322 245
0.00396604 0.75400001 -0.0066100666 1.45621e-38 323 245
0.0052880533 0.75400001 -0.0066100666 1.456175e-38 324 245
0.0066100666 0.75400001 -0.0066100666 1.4653946e-38 325 245
0.00793208 0.75400001 -0.0066100666 1.4562829e-38 326 245
0.0092540924 0.75400001 -0.0066100666 1.4470633e-38 327 245
0.010576107 0.75400001 -0.0066100666 1.4469905e-38 328 245
0.01189812 0.75400001 -0.0066100666 1.4654296e-38 329 245
0.013220133 0.75400001 -0.0066100666 1.474721e-38 330 245
0.014503572 0.75199997 -0.0065925326 1.474721e-38 331 245
0.015822079 0.75199997 -0.0065925326 1.4839046e-38 332 245
0.017140586 0.75199997 -0.0065925326 1.520747e-38 333 245
0.018459093 0.75199997 -0.0065925326 1.5023454e-38 334 245
0.0197776 0.75199997 -0.0065925326 1.5023454e-38 335 245
0.021096105 0.75199997 -0.0065925326 1.5115299e-38 336 245
0.022414612 0.75199997 -0.0065925326 1.5115299e-38 337 245
0.023733119 0.75199997 -0.0065925326 1.5114568e-38 338 245
0.025051624 0.75199997 -0.0065925326 1.5299318e-38 339 245
0.02637013 0.75199997 -0.0065925326 1.5391864e-38 340 245
0.027688639 0.75199997 -0.0065925326 1.5299668e-38 341 245
0.029007144 0.75199997 -0.0065925326 1.539258e-38 342 245
0.030325651 0.75199997 -0.0065925326 1.5669527e-38 343 245
0.031644158 0.75199997 -0.0065925326 1.5945025e-38 344 245
0.032962665 0.75199997 -0.0065925326 1.6221252e-38 345 245
0.034189999 0.75 -0.006575 1.6037934e-38 346 245
0.035505001 0.75 -0.006575 1.6130488e-38 347 245
0.036819998 0.75 -0.006575 1.6222331e-38 348 245
0.038135 0.75 -0.006575 1.6498559e-38 349 245
0.039449997 0.75 -0.006575 1.6682587e-38 350 245
0.040764999 0.75 -0.006575 1.6866618e-38 351 245
0.04208 0.75 -0.006575 1.7050644e-38 352 245
0.043394998 0.75 -0.006575 1.7050644e-38 353 245
0.044650383 0.74900001 -0.0065662335 1.7326508e-38 354 245
0.045963634 0.74900001 -0.0065662335 1.7326508e-38 355 245
0.047276881 0.74900001 -0.0065662335 1.732651e-38 356 245
0.048460379 0.74699998 -0.0065486995 1.7418707e-38 357 245
0.049770117 0.74699998 -0.0065486995 1.7418367e-38 358 245
0.051011477 0.74599999 -0.0065399334 1.7510921e-38 359 245
0.052319467 0.74599999 -0.0065399334 1.769388e-38 360 245
0.053627454 0.74599999 -0.0065399334 1.769388e-38 361 245
0.054935437 0.74599999 -0.0065399334 1.7694587e-38 362 245
0.056243423 0.74599999 -0.0065399334 1.7786782e-38 363 245
0.057551414 0.74599999 -0.0065399334 1.7786779e-38 364 245
0.058701597 0.74400002 -0.0065223998 1.7786779e-38 365 245
0.060006075 0.74400002 -0.0065223998 1.7786417e-38 366 245
0.061310563 0.74400002 -0.0065223998 1.7878612e-38 367 245
0.062446713 0.74199998 -0.0065048663 1.7786061e-38 368 245
0.063747689 0.74199998 -0.0065048663 1.7786061e-38 369 245
0.065048665 0.74199998 -0.0065048663 1.7878259e-38 370 245
0.066349633 0.74199998 -0.0065048663 1.7878259e-38 371 245
0.067650609 0.74199998 -0.0065048663 1.7786414e-38 372 245
0.068951584 0.74199998 -0.0065048663 1.7786414e-38 373 245
0.07025256 0.74199998 -0.0065048663 1.769529e-38 374 245
0.071553528 0.74199998 -0.0065048663 1.769529e-38 375 245
0.072854504 0.74199998 -0.0065048663 1.7786414e-38 376 245
0.074055538 0.741 -0.0064960998 1.8154836e-38 377 245
0.075354755 0.741 -0.0064960998 1.8338884e-38 378 245
0.076757424 0.74199998 -0.0065048663 1.8246688e-38 379 245
0.077953197 0.741 -0.0064960998 1.7783908e-38 380 245
0.079252414 0.741 -0.0064960998 1.5387182e-38 381 245
0.080551639 0.741 -0.0064960998 1.326236e-38 382 245
0.081850857 0.741 -0.0064960998 1.0035539e-38 383 245
0.083262287 0.74199998 -0.0065048663 8.2831313e-39 384 245
0.084791198 0.74400002 -0.0065223998 7.9143544e-39 385 245
-0.064960994 0.741 -0.0077953199 1.824926e-38 270 246
-0.063661776 0.741 -0.0077953199 1.8341455e-38 271 246
-0.062362559 0.741 -0.0077953199 1.8434345e-38 272 246
-0.061063338 0.741 -0.0077953199 1.8710573e-38 273 246
-0.05984477 0.74199998 -0.0078058392 1.9078985e-38 274 246
-0.058543798 0.74199998 -0.0078058392 1.9171181e-38 275 246
-0.057242822 0.74199998 -0.0078058392 1.9170813e-38 276 246
-0.056092639 0.74400002 -0.0078268806 1.898642e-38 277 246
-0.054788161 0.74400002 -0.0078268806 1.9261565e-38 278 246
-0.05348368 0.74400002 -0.0078268806 1.916901e-38 279 246
-0.052179199 0.74400002 -0.0078268806 1.9169366e-38 280 246
-0.051011477 0.74599999 -0.0078479191 1.9077171e-38 281 246
-0.04970349 0.74599999 -0.0078479191 1.8984616e-38 282 246
-0.048460379 0.74699998 -0.0078584393 1.8800585e-38 283 246
-0.047150634 0.74699998 -0.0078584393 1.8433601e-38 284 246
-0.045840897 0.74699998 -0.0078584393 1.8433601e-38 285 246
-0.044531155 0.74699998 -0.0078584393 1.8340685e-38 286 246
-0.043221418 0.74699998 -0.0078584393 1.8340685e-38 287 246
-0.041911677 0.74699998 -0.0078584393 1.8064089e-38 288 246
-0.040710647 0.74900001 -0.0078794798 1.7971894e-38 289 246
-0.0393974 0.74900001 -0.0078794798 1.760382e-38 290 246
-0.038084153 0.74900001 -0.0078794798 1.741907e-38 291 246
-0.036770906 0.74900001 -0.0078794798 1.7326524e-38 292 246
-0.03545766 0.74900001 -0.0078794798 1.741872e-38 293 246
-0.034189999 0.75 -0.00789 1.6683672e-38 294 246
-0.032874998 0.75 -0.00789 1.6315249e-38 295 246
-0.031644158 0.75199997 -0.0079110395 1.6589308e-38 296 246
-0.030325651 0.75199997 -0.0079110395 1.6589308e-38 297 246
-0.029007144 0.75199997 -0.0079110395 1.6313444e-38 298 246
-0.027762281 0.75400001 -0.00793208 1.5945022e-38 299 246
-0.026440267 0.75400001 -0.00793208 1.5943942e-38 300 246
-0.025151566 0.755 -0.0079425992 1.5667356e-38 301 246
-0.02379624 0.75400001 -0.00793208 1.5575879e-38 302 246
-0.022474226 0.75400001 -0.00793208 1.5299653e-38 303 246
-0.021152213 0.75400001 -0.00793208 1.520782e-38 304 246
-0.019830201 0.75400001 -0.00793208 1.520782e-38 305 246
-0.018459093 0.75199997 -0.0079110395 1.4657167e-38 306 246
-0.017140586 0.75199997 -0.0079110395 1.4196548e-38 307 246
-0.015822079 0.75199997 -0.0079110395 1.4653933e-38 308 246
-0.014542146 0.75400001 -0.00793208 1.5114552e-38 309 246
-0.013220133 0.75400001 -0.00793208 1.4747213e-38 310 246
-0.01189812 0.75400001 -0.00793208 1.4563182e-38 311 246
-0.010576107 0.75400001 -0.00793208 1.4288403e-38 312 246
-0.0092540924 0.75400001 -0.00793208 1.4473154e-38 313 246
-0.00793208 0.75400001 -0.00793208 1.4930539e-38 314 246
-0.0066100666 0.75400001 -0.00793208 1.4930539e-38 315 246
-0.0052880533 0.75400001 -0.00793208 1.520605e-38 316 246
-0.00396604 0.75400001 -0.00793208 1.5113855e-38 317 246
-0.0026440267 0.75400001 -0.00793208 1.5113855e-38 318 246
-0.0013220133 0.75400001 -0.00793208 1.5021657e-38 319 246
0 0.75400001 -0.00793208 1.5113849e-38 320 246
0.0013220133 0.75400001 -0.00793208 1.5021652e-38 321 246
0.0026440267 0.75400001 -0.00793208 1.4746863e-38 322 246
0.00396604 0.75400001 -0.00793208 1.4746863e-38 323 246
0.0052880533 0.75400001 -0.00793208 1.4562476e-38 324 246
0.0066100666 0.75400001 -0.00793208 1.4562476e-38 325 246
