# .PCD v.7 - Point Cloud Data file format
FIELDS x y z rgb imX imY
SIZE 4 4 4 4 4 4
TYPE F F F F F F
COUNT 1 1 1 1 1 1
WIDTH 846
HEIGHT 1
VIEWPOINT 0 0 0 1 0 0 0
POINTS 846
DATA ascii
-0.020172099 0.76700002 -0.013448066 1.3735977e-38 305 250
-0.018827293 0.76700002 -0.013448066 1.373598e-38 306 250
-0.017459691 0.76599997 -0.013430533 1.373598e-38 307 250
-0.016116638 0.76599997 -0.013430533 1.3919295e-38 308 250
-0.01469644 0.76200002 -0.0133604 1.4011491e-38 309 250
-0.0133604 0.76200002 -0.0133604 1.4010416e-38 310 250
-0.012008579 0.76099998 -0.013342866 1.4194806e-38 311 250
-0.010674292 0.76099998 -0.013342866 1.4286283e-38 312 250
-0.0093400059 0.76099998 -0.013342866 1.4286283e-38 313 250
-0.0080057196 0.76099998 -0.013342866 1.4194803e-38 314 250
-0.0066714329 0.76099998 -0.013342866 1.4287e-38 315 250
-0.0053231199 0.759 -0.0133078 1.4287e-38 316 250
-0.0039923396 0.759 -0.0133078 1.4287e-38 317 250
-0.0026545466 0.75700003 -0.013272733 1.4287e-38 318 250
-0.0013272733 0.75700003 -0.013272733 1.4471391e-38 319 250
0 0.755 -0.013237666 1.44721e-38 320 250
0.0013220133 0.75400001 -0.013220133 1.44721e-38 321 250
0.0026440267 0.75400001 -0.013220133 1.4655763e-38 322 250
0.0039555198 0.75199997 -0.013185065 1.4747959e-38 323 250
0.0052740262 0.75199997 -0.013185065 1.484051e-38 324 250
0.006575 0.75 -0.01315 1.484051e-38 325 250
0.0078794798 0.74900001 -0.013132467 1.4933056e-38 326 250
0.0091681797 0.74699998 -0.013097399 1.4933056e-38 327 250
0.010477919 0.74699998 -0.013097399 1.5208917e-38 328 250
0.011771879 0.74599999 -0.013079867 1.5301114e-38 329 250
0.013079867 0.74599999 -0.013079867 1.5485508e-38 330 250
0.01434928 0.74400002 -0.0130448 1.5669539e-38 331 250
0.015611678 0.74199998 -0.013009733 1.5485877e-38 332 250
0.016889861 0.741 -0.0129922 1.5670268e-38 333 250
0.018189078 0.741 -0.0129922 1.6038332e-38 334 250
0.019488299 0.741 -0.0129922 1.6130527e-38 335 250
0.020731414 0.73900002 -0.012957133 1.6407463e-38 336 250
0.021937706 0.736 -0.012904533 1.6776247e-38 337 250
0.023228159 0.736 -0.012904533 1.6962066e-38 338 250
0.024451986 0.73400003 -0.012869466 1.7422686e-38 339 250
0.025738932 0.73400003 -0.012869466 1.806589e-38 340 250
0.026989058 0.73299998 -0.012851933 1.8158086e-38 341 250
0.028197108 0.73100001 -0.012816866 1.8433951e-38 342 250
0.029357811 0.72799999 -0.012764266 1.8526147e-38 343 250
0.030634239 0.72799999 -0.012764266 1.8618698e-38 344 250
0.031910665 0.72799999 -0.012764266 1.8802729e-38 345 250
0.033187091 0.72799999 -0.012764266 1.8894209e-38 346 250
0.03441618 0.727 -0.012746733 1.8801654e-38 347 250
0.035690852 0.727 -0.012746733 1.8893853e-38 348 250
0.036965527 0.727 -0.012746733 1.8893853e-38 349 250
0.038240198 0.727 -0.012746733 1.8894206e-38 350 250
0.039514873 0.727 -0.012746733 1.8894206e-38 351 250
0.040789545 0.727 -0.012746733 1.9077506e-38 352 250
0.041659199 0.72000003 -0.012624 1.9077506e-38 353 250
0.042861983 0.71899998 -0.012606465 1.8801995e-38 354 250
0.044122629 0.71899998 -0.012606465 1.8709798e-38 355 250
0.045257039 0.71700001 -0.0125714 1.8617249e-38 356 250
0.046514176 0.71700001 -0.0125714 1.8340304e-38 357 250
0.04777132 0.71700001 -0.0125714 1.7971894e-38 358 250
0.04902846 0.71700001 -0.0125714 1.7787861e-38 359 250
0.0502856 0.71700001 -0.0125714 1.7419817e-38 360 250
0.051542737 0.71700001 -0.0125714 1.7235426e-38 361 250
0.052799881 0.71700001 -0.0125714 1.5580638e-38 362 250
0.054057021 0.71700001 -0.0125714 1.6778821e-38 363 250
-0.035375252 0.77600002 -0.014966453 1.2905845e-38 294 251
-0.034014668 0.77600002 -0.014966453 1.3182431e-38 295 251
-0.032569919 0.77399999 -0.014927879 1.3090958e-38 296 251
-0.031212838 0.77399999 -0.014927879 1.3183154e-38 297 251
-0.029855758 0.77399999 -0.014927879 1.3366822e-38 298 251
-0.028461859 0.773 -0.014908593 1.3366822e-38 299 251
-0.027106533 0.773 -0.014908593 1.3551934e-38 300 251
-0.02568458 0.77100003 -0.01487002 1.3551934e-38 301 251
-0.024269639 0.76899999 -0.014831445 1.3736328e-38 302 251
-0.022921326 0.76899999 -0.014831445 1.3736328e-38 303 251
-0.021573013 0.76899999 -0.014831445 1.3644135e-38 304 251
-0.0202247 0.76899999 -0.014831445 1.3644135e-38 305 251
-0.018827293 0.76700002 -0.014792874 1.3643782e-38 306 251
-0.017459691 0.76599997 -0.014773586 1.3643782e-38 307 251
-0.016074561 0.764 -0.014735013 1.3827097e-38 308 251
-0.01469644 0.76200002 -0.01469644 1.3919292e-38 309 251
-0.0133604 0.76200002 -0.01469644 1.4194084e-38 310 251
-0.012008579 0.76099998 -0.014677152 1.4194084e-38 311 251
-0.010674292 0.76099998 -0.014677152 1.4194081e-38 312 251
-0.0093400059 0.76099998 -0.014677152 1.4194081e-38 313 251
-0.0080057196 0.76099998 -0.014677152 1.4010769e-38 314 251
-0.0066714329 0.76099998 -0.014677152 1.4010769e-38 315 251
-0.0053371461 0.76099998 -0.014677152 1.4194084e-38 316 251
-0.0039923396 0.759 -0.014638579 1.428628e-38 317 251
-0.0026545466 0.75700003 -0.014600007 1.4469592e-38 318 251
-0.0013272733 0.75700003 -0.014600007 1.4561789e-38 319 251
0 0.755 -0.014561433 1.4562142e-38 320 251
0.0013220133 0.75400001 -0.014542146 1.4654338e-38 321 251
0.0026440267 0.75400001 -0.014542146 1.4655413e-38 322 251
0.0039555198 0.75199997 -0.014503572 1.4655413e-38 323 251
0.0052740262 0.75199997 -0.014503572 1.4839438e-38 324 251
0.006575 0.75 -0.014465 1.4839438e-38 325 251
0.0078794798 0.74900001 -0.014445714 1.4839786e-38 326 251
0.0091681797 0.74699998 -0.014407139 1.5024176e-38 327 251
0.010477919 0.74699998 -0.014407139 1.520892e-38 328 251
0.011771879 0.74599999 -0.014387853 1.5301117e-38 329 251
0.013079867 0.74599999 -0.014387853 1.5576625e-38 330 251
0.01434928 0.74400002 -0.01434928 1.5668821e-38 331 251
0.015611678 0.74199998 -0.014310705 1.5761741e-38 332 251
0.016889861 0.741 -0.01429142 1.5853936e-38 333 251
0.018189078 0.741 -0.01429142 1.6129446e-38 334 251
0.019488299 0.741 -0.01429142 1.6221641e-38 335 251
0.020731414 0.73900002 -0.014252847 1.594684e-38 336 251
0.021878093 0.73400003 -0.014156413 1.6039035e-38 337 251
0.023165042 0.73400003 -0.014156413 1.6592558e-38 338 251
0.024418673 0.73299998 -0.014137126 1.7053177e-38 339 251
0.025703866 0.73299998 -0.014137126 1.7330127e-38 340 251
0.026878599 0.73000002 -0.014079267 1.7606354e-38 341 251
0.028158534 0.73000002 -0.014079267 1.8340679e-38 342 251
0.029357811 0.72799999 -0.014040692 1.8617266e-38 343 251
0.030634239 0.72799999 -0.014040692 1.8617616e-38 344 251
0.03186683 0.727 -0.014021406 1.8709812e-38 345 251
0.033141505 0.727 -0.014021406 1.8801292e-38 346 251
0.034321502 0.72500002 -0.013982833 1.8801292e-38 347 251
0.035592668 0.72500002 -0.013982833 1.8801292e-38 348 251
0.036762137 0.72299999 -0.01394426 1.8985323e-38 349 251
0.0379772 0.722 -0.013924973 1.898532e-38 350 251
0.039080046 0.71899998 -0.013867113 1.898532e-38 351 251
0.040340692 0.71899998 -0.013867113 1.9077871e-38 352 251
0.041485619 0.71700001 -0.013828539 1.9077871e-38 353 251
0.042742759 0.71700001 -0.013828539 1.8985673e-38 354 251
0.043999899 0.71700001 -0.013828539 1.8801642e-38 355 251
0.045193922 0.71600002 -0.013809253 1.8709446e-38 356 251
0.046449307 0.71600002 -0.013809253 1.8432499e-38 357 251
0.047704693 0.71600002 -0.013809253 1.8156994e-38 358 251
0.048960082 0.71600002 -0.013809253 1.7788212e-38 359 251
0.050215468 0.71600002 -0.013809253 1.7513067e-38 360 251
0.051470853 0.71600002 -0.013809253 1.723648e-38 361 251
0.052726239 0.71600002 -0.013809253 1.6774465e-38 362 251
0.053981625 0.71600002 -0.013809253 1.6774465e-38 363 251
-0.033927001 0.77399999 -0.016284959 1.2538526e-38 295 252
-0.032569919 0.77399999 -0.016284959 1.2630721e-38 296 252
-0.031212838 0.77399999 -0.016284959 1.2722917e-38 297 252
-0.029855758 0.77399999 -0.016284959 1.3090964e-38 298 252
-0.028461859 0.773 -0.016263919 1.318316e-38 299 252
-0.027106533 0.773 -0.016263919 1.3366839e-38 300 252
-0.025751207 0.773 -0.016263919 1.3366839e-38 301 252
-0.024269639 0.76899999 -0.016179759 1.3092776e-38 302 252
-0.022921326 0.76899999 -0.016179759 1.3092776e-38 303 252
-0.021573013 0.76899999 -0.016179759 1.318389e-38 304 252
-0.0202247 0.76899999 -0.016179759 1.3276444e-38 305 252
-0.018827293 0.76700002 -0.01613768 1.3275369e-38 306 252
-0.017459691 0.76599997 -0.016116638 1.3367565e-38 307 252
-0.016074561 0.764 -0.016074561 1.355088e-38 308 252
-0.01469644 0.76200002 -0.01603248 1.355088e-38 309 252
-0.0133604 0.76200002 -0.01603248 1.3826744e-38 310 252
-0.012008579 0.76099998 -0.016011439 1.3734548e-38 311 252
-0.010674292 0.76099998 -0.016011439 1.3826741e-38 312 252
-0.0093400059 0.76099998 -0.016011439 1.3734545e-38 313 252
-0.0080057196 0.76099998 -0.016011439 1.355088e-38 314 252
-0.0066714329 0.76099998 -0.016011439 1.355088e-38 315 252
-0.0053371461 0.76099998 -0.016011439 1.3826025e-38 316 252
-0.0039923396 0.759 -0.015969358 1.3733829e-38 317 252
-0.0026545466 0.75700003 -0.015927281 1.3641984e-38 318 252
-0.0013272733 0.75700003 -0.015927281 1.3826375e-38 319 252
0 0.755 -0.015885198 1.4286997e-38 320 252
0.0013220133 0.75400001 -0.01586416 1.4471747e-38 321 252
0.0026440267 0.75400001 -0.01586416 1.4471394e-38 322 252
0.0039555198 0.75199997 -0.015822079 1.456359e-38 323 252
0.0052740262 0.75199997 -0.015822079 1.4195884e-38 324 252
0.006575 0.75 -0.01578 1.4379915e-38 325 252
0.0078794798 0.74900001 -0.01575896 1.4564649e-38 326 252
0.0091681797 0.74699998 -0.015716879 1.4656845e-38 327 252
0.010477919 0.74699998 -0.015716879 1.4933422e-38 328 252
0.011771879 0.74599999 -0.015695838 1.5025619e-38 329 252
0.013079867 0.74599999 -0.015695838 1.5393681e-38 330 252
0.01434928 0.74400002 -0.015653761 1.5485877e-38 331 252
0.015611678 0.74199998 -0.015611678 1.5761741e-38 332 252
0.016889861 0.741 -0.01559064 1.5853936e-38 333 252
0.018189078 0.741 -0.01559064 1.6037604e-38 334 252
0.0194357 0.73900002 -0.01554856 1.6129802e-38 335 252
0.020703359 0.73799998 -0.015527519 1.6129799e-38 336 252
0.021878093 0.73400003 -0.01544336 1.6221994e-38 337 252
0.023165042 0.73400003 -0.01544336 1.613195e-38 338 252
0.024418673 0.73299998 -0.015422319 1.6316341e-38 339 252
0.025703866 0.73299998 -0.015422319 1.6959913e-38 340 252
0.026878599 0.73000002 -0.0153592 1.7420889e-38 341 252
0.028081384 0.72799999 -0.01531712 1.7881143e-38 342 252
0.029317487 0.727 -0.015296079 1.8065893e-38 343 252
0.030592158 0.727 -0.015296079 1.8433231e-38 344 252
0.03186683 0.727 -0.015296079 1.8433231e-38 345 252
0.033050332 0.72500002 -0.015254001 1.8617266e-38 346 252
0.03422682 0.72299999 -0.015211919 1.8617266e-38 347 252
0.035445385 0.722 -0.015190879 1.8617263e-38 348 252
0.036609601 0.72000003 -0.0151488 1.8709459e-38 349 252
0.037819397 0.71899998 -0.01512776 1.8985323e-38 350 252
0.038916986 0.71600002 -0.01506464 1.8985323e-38 351 252
0.040172372 0.71600002 -0.01506464 1.8894203e-38 352 252
0.041427758 0.71600002 -0.01506464 1.8894203e-38 353 252
0.042683143 0.71600002 -0.01506464 1.9077506e-38 354 252
0.043938532 0.71600002 -0.01506464 1.898531e-38 355 252
0.045193922 0.71600002 -0.01506464 1.8984937e-38 356 252
0.046319555 0.71399999 -0.015022559 1.8616155e-38 357 252
0.047571439 0.71399999 -0.015022559 1.8156973e-38 358 252
0.048754938 0.713 -0.015001519 1.8064776e-38 359 252
0.050005067 0.713 -0.015001519 1.7787839e-38 360 252
0.05132708 0.71399999 -0.015022559 1.7695285e-38 361 252
0.052578956 0.71399999 -0.015022559 1.7235761e-38 362 252
0.053830836 0.71399999 -0.015022559 1.6682587e-38 363 252
0.05508272 0.71399999 -0.015022559 1.5118915e-38 364 252
-0.032569919 0.77399999 -0.01764204 1.2444885e-38 296 253
-0.031212838 0.77399999 -0.01764204 1.2168299e-38 297 253
-0.029855758 0.77399999 -0.01764204 1.20761e-38 298 253
-0.028461859 0.773 -0.017619247 1.2353046e-38 299 253
-0.027106533 0.773 -0.017619247 1.2628907e-38 300 253
-0.025751207 0.773 -0.017619247 1.2721102e-38 301 253
-0.024269639 0.76899999 -0.017528072 1.3089882e-38 302 253
-0.022921326 0.76899999 -0.017528072 1.3182078e-38 303 253
-0.021573013 0.76899999 -0.017528072 1.3090961e-38 304 253
-0.0202247 0.76899999 -0.017528072 1.3090961e-38 305 253
-0.018827293 0.76700002 -0.017482487 1.3365753e-38 306 253
-0.017459691 0.76599997 -0.017459691 1.3549784e-38 307 253
-0.016074561 0.764 -0.017414106 1.3641984e-38 308 253
-0.01469644 0.76200002 -0.01736852 1.3734179e-38 309 253
-0.0133604 0.76200002 -0.01736852 1.3734533e-38 310 253
-0.012008579 0.76099998 -0.017345725 1.3734533e-38 311 253
-0.010674292 0.76099998 -0.017345725 1.3642337e-38 312 253
-0.0093400059 0.76099998 -0.017345725 1.3642337e-38 313 253
-0.0080057196 0.76099998 -0.017345725 1.3365756e-38 314 253
-0.0066714329 0.76099998 -0.017345725 1.3273201e-38 315 253
-0.0053371461 0.76099998 -0.017345725 1.3363249e-38 316 253
-0.0039923396 0.759 -0.017300138 1.308666e-38 317 253
-0.00266156 0.759 -0.017300138 1.2259048e-38 318 253
-0.00133078 0.759 -0.017300138 1.2351245e-38 319 253
0 0.75700003 -0.017254554 1.2814371e-38 320 253
0.0013220133 0.75400001 -0.017186172 1.2906567e-38 321 253
0.0026440267 0.75400001 -0.017186172 1.3456516e-38 322 253
0.0039555198 0.75199997 -0.017140586 1.400969e-38 323 253
0.0052740262 0.75199997 -0.017140586 1.4194084e-38 324 253
0.006575 0.75 -0.017095 1.4378477e-38 325 253
0.0078794798 0.74900001 -0.017072206 1.4563565e-38 326 253
0.0091681797 0.74699998 -0.017026618 1.465576e-38 327 253
0.010477919 0.74699998 -0.017026618 1.5116371e-38 328 253
0.011771879 0.74599999 -0.017003827 1.5208567e-38 329 253
0.013079867 0.74599999 -0.017003827 1.5576275e-38 330 253
0.01434928 0.74400002 -0.016958239 1.566847e-38 331 253
0.015611678 0.74199998 -0.016912652 1.5944334e-38 332 253
0.016889861 0.741 -0.016889861 1.603653e-38 333 253
0.018139986 0.73900002 -0.016844273 1.6036883e-38 334 253
0.0194357 0.73900002 -0.016844273 1.6129078e-38 335 253
0.020647252 0.736 -0.016775893 1.6129432e-38 336 253
0.021878093 0.73400003 -0.016730307 1.6221629e-38 337 253
0.023133477 0.73299998 -0.016707512 1.6314177e-38 338 253
0.024352046 0.73100001 -0.016661927 1.622198e-38 339 253
0.025598666 0.73000002 -0.016639132 1.6957748e-38 340 253
0.026804959 0.72799999 -0.016593546 1.7326171e-38 341 253
0.028042812 0.727 -0.016570752 1.7420886e-38 342 253
0.029317487 0.727 -0.016570752 1.7697833e-38 343 253
0.030592158 0.727 -0.016570752 1.8431433e-38 344 253
0.031779166 0.72500002 -0.016525166 1.870766e-38 345 253
0.032959159 0.72299999 -0.01647958 1.870801e-38 346 253
0.034179479 0.722 -0.016456785 1.8892761e-38 347 253
0.035347197 0.72000003 -0.0164112 1.8709446e-38 348 253
0.036558751 0.71899998 -0.016388407 1.8801642e-38 349 253
0.037661601 0.71600002 -0.016320027 1.8801642e-38 350 253
0.038808275 0.71399999 -0.016274439 1.8985673e-38 351 253
0.040004052 0.713 -0.016251646 1.9077869e-38 352 253
0.041254178 0.713 -0.016251646 1.9077869e-38 353 253
0.042504307 0.713 -0.016251646 1.9077871e-38 354 253
0.043754432 0.713 -0.016251646 1.8985676e-38 355 253
0.045004558 0.713 -0.016251646 1.898531e-38 356 253
0.046254687 0.713 -0.016251646 1.8800559e-38 357 253
0.047504812 0.713 -0.016251646 1.8525051e-38 358 253
0.048618179 0.71100003 -0.01620606 1.815627e-38 359 253
0.049864799 0.71100003 -0.01620606 1.7327957e-38 360 253
0.051255193 0.713 -0.016251646 1.6958814e-38 361 253
0.052284397 0.70999998 -0.016183265 1.7143212e-38 362 253
0.053529263 0.70999998 -0.016183265 1.7143212e-38 363 253
0.054774132 0.70999998 -0.016183265 1.6957407e-38 364 253
-0.02433276 0.77100003 -0.018925481 1.2078267e-38 302 254
-0.02298094 0.77100003 -0.018925481 1.2262659e-38 303 254
-0.021573013 0.76899999 -0.018876385 1.2354492e-38 304 254
-0.0202247 0.76899999 -0.018876385 1.2630719e-38 305 254
-0.018827293 0.76700002 -0.018827293 1.2722198e-38 306 254
-0.017459691 0.76599997 -0.018802745 1.2906229e-38 307 254
-0.016116638 0.76599997 -0.018802745 1.2906232e-38 308 254
-0.014735013 0.764 -0.018753653 1.2998428e-38 309 254
-0.013395466 0.764 -0.018753653 1.3090974e-38 310 254
-0.01202436 0.76200002 -0.01870456 1.3090974e-38 311 254
-0.01068832 0.76200002 -0.01870456 1.3090608e-38 312 254
-0.0093400059 0.76099998 -0.018680012 1.3090608e-38 313 254
-0.0080057196 0.76099998 -0.018680012 1.3273923e-38 314 254
-0.0066714329 0.76099998 -0.018680012 1.3089532e-38 315 254
-0.0053371461 0.76099998 -0.018680012 1.2996264e-38 316 254
-0.0039923396 0.759 -0.01863092 1.2627482e-38 317 254
-0.00266156 0.759 -0.01863092 1.2810797e-38 318 254
-0.00133078 0.759 -0.01863092 1.2718601e-38 319 254
0 0.75700003 -0.018581826 1.2810781e-38 320 254
0.0013220133 0.75400001 -0.018508185 1.2441639e-38 321 254
0.0026440267 0.75400001 -0.018508185 1.2074285e-38 322 254
0.0039555198 0.75199997 -0.018459093 1.2627459e-38 323 254
0.0052740262 0.75199997 -0.018459093 1.2631069e-38 324 254
0.006575 0.75 -0.018409999 1.3184243e-38 325 254
0.0078794798 0.74900001 -0.018385453 1.4287706e-38 326 254
0.0091681797 0.74699998 -0.018336359 1.4564293e-38 327 254
0.010477919 0.74699998 -0.018336359 1.4840157e-38 328 254
0.011771879 0.74599999 -0.018311813 1.4932353e-38 329 254
0.0130448 0.74400002 -0.01826272 1.5208587e-38 330 254
0.01434928 0.74400002 -0.01826272 1.5300782e-38 331 254
0.015611678 0.74199998 -0.018213626 1.5668839e-38 332 254
0.016889861 0.741 -0.018189078 1.5761034e-38 333 254
0.018139986 0.73900002 -0.018139986 1.585322e-38 334 254
0.019409399 0.73799998 -0.018115439 1.6037251e-38 335 254
0.020647252 0.736 -0.018066347 1.6037602e-38 336 254
0.021848286 0.73299998 -0.017992707 1.6129799e-38 337 254
0.02307036 0.73100001 -0.017943613 1.6038682e-38 338 254
0.024318734 0.73000002 -0.017919067 1.6038682e-38 339 254
0.025598666 0.73000002 -0.017919067 1.6131953e-38 340 254
0.026804959 0.72799999 -0.017869972 1.6224148e-38 341 254
0.028042812 0.727 -0.017845426 1.6592209e-38 342 254
0.029317487 0.727 -0.017845426 1.7052827e-38 343 254
0.030508002 0.72500002 -0.017796334 1.7788945e-38 344 254
0.031647664 0.722 -0.017722692 1.7973694e-38 345 254
0.0328224 0.72000003 -0.017673599 1.8157357e-38 346 254
0.03389544 0.71600002 -0.017575413 1.8342107e-38 347 254
0.035150826 0.71600002 -0.017575413 1.8433948e-38 348 254
0.036406212 0.71600002 -0.017575413 1.8526144e-38 349 254
0.037503798 0.713 -0.017501773 1.8526144e-38 350 254
0.038753927 0.713 -0.017501773 1.8618698e-38 351 254
0.039891839 0.71100003 -0.01745268 1.880201e-38 352 254
0.041138459 0.71100003 -0.01745268 1.8894206e-38 353 254
0.042385083 0.71100003 -0.01745268 1.9077874e-38 354 254
0.043631699 0.71100003 -0.01745268 1.898532e-38 355 254
0.044815198 0.70999998 -0.017428132 1.8985307e-38 356 254
0.046060063 0.70999998 -0.017428132 1.8800915e-38 357 254
0.047304932 0.70999998 -0.017428132 1.870836e-38 358 254
0.048549797 0.70999998 -0.017428132 1.870836e-38 359 254
0.049794663 0.70999998 -0.017428132 1.8155192e-38 360 254
0.051039528 0.70999998 -0.017428132 1.760202e-38 361 254
0.052284397 0.70999998 -0.017428132 1.7236111e-38 362 254
0.053529263 0.70999998 -0.017428132 1.7328307e-38 363 254
0.054774132 0.70999998 -0.017428132 1.7418707e-38 364 254
0.055545598 0.704 -0.017280852 1.6865534e-38 365 254
0.056699295 0.70300001 -0.017256306 1.5210379e-38 366 254
-0.017459691 0.76599997 -0.020145798 1.2721472e-38 307 255
-0.016116638 0.76599997 -0.020145798 1.2813668e-38 308 255
-0.014773586 0.76599997 -0.020145798 1.2813668e-38 309 255
-0.013395466 0.764 -0.020093199 1.2722904e-38 310 255
-0.01205592 0.764 -0.020093199 1.2722904e-38 311 255
-0.01068832 0.76200002 -0.0200406 1.2722904e-38 312 255
-0.0093400059 0.76099998 -0.020014299 1.2722904e-38 313 255
-0.0080057196 0.76099998 -0.020014299 1.2906217e-38 314 255
-0.0066714329 0.76099998 -0.020014299 1.2814021e-38 315 255
-0.0053371461 0.76099998 -0.020014299 1.2814015e-38 316 255
-0.0040028598 0.76099998 -0.020014299 1.2537787e-38 317 255
-0.00266156 0.759 -0.0199617 1.2721453e-38 318 255
-0.00133078 0.759 -0.0199617 1.2629257e-38 319 255
0 0.759 -0.0199617 1.2812569e-38 320 255
0.0013272733 0.75700003 -0.019909101 1.2444147e-38 321 255
0.0026545466 0.75700003 -0.019909101 1.2074288e-38 322 255
0.00396604 0.75400001 -0.019830201 1.1981734e-38 323 255
0.0052740262 0.75199997 -0.0197776 1.1158093e-38 324 255
0.006575 0.75 -0.019724999 1.208005e-38 325 255
0.0078794798 0.74900001 -0.0196987 1.3641984e-38 326 255
0.0091681797 0.74699998 -0.019646099 1.4379549e-38 327 255
0.010477919 0.74699998 -0.019646099 1.465541e-38 328 255
0.011771879 0.74599999 -0.019619798 1.4839801e-38 329 255
0.0130448 0.74400002 -0.019567199 1.5208217e-38 330 255
0.01434928 0.74400002 -0.019567199 1.5300414e-38 331 255
0.015611678 0.74199998 -0.0195146 1.5576277e-38 332 255
0.016889861 0.741 -0.019488299 1.5668473e-38 333 255
0.018139986 0.73900002 -0.0194357 1.5760666e-38 334 255
0.019409399 0.73799998 -0.019409399 1.585322e-38 335 255
0.020647252 0.736 -0.019356798 1.6129081e-38 336 255
0.021848286 0.73299998 -0.019277899 1.6129081e-38 337 255
0.02307036 0.73100001 -0.019225299 1.6129799e-38 338 255
0.024318734 0.73000002 -0.019199001 1.6221994e-38 339 255
0.025528532 0.72799999 -0.0191464 1.631419e-38 340 255
0.026768139 0.727 -0.019120099 1.631419e-38 341 255
0.028042812 0.727 -0.019120099 1.6038679e-38 342 255
0.029115854 0.722 -0.0189886 1.640746e-38 343 255
0.0302976 0.72000003 -0.018935999 1.7328691e-38 344 255
0.03156 0.72000003 -0.018935999 1.7513083e-38 345 255
0.032640055 0.71600002 -0.0188308 1.7972973e-38 346 255
0.03389544 0.71600002 -0.0188308 1.8249558e-38 347 255
0.035052639 0.71399999 -0.018778199 1.8433228e-38 348 255
0.036304519 0.71399999 -0.018778199 1.861726e-38 349 255
0.037398599 0.71100003 -0.0186993 1.8709459e-38 350 255
0.038645219 0.71100003 -0.0186993 1.8709459e-38 351 255
0.039835732 0.70999998 -0.018672999 1.898497e-38 352 255
0.041080594 0.70999998 -0.018672999 1.898497e-38 353 255
0.042325463 0.70999998 -0.018672999 1.8801657e-38 354 255
0.043570329 0.70999998 -0.018672999 1.8893853e-38 355 255
0.044815198 0.70999998 -0.018672999 1.880201e-38 356 255
0.045930319 0.708 -0.0186204 1.8709815e-38 357 255
0.047171678 0.708 -0.0186204 1.8617967e-38 358 255
0.048413038 0.708 -0.0186204 1.8341739e-38 359 255
0.049654398 0.708 -0.0186204 1.8525404e-38 360 255
0.050895758 0.708 -0.0186204 1.8156623e-38 361 255
0.05206348 0.70700002 -0.018594101 1.751377e-38 362 255
0.053227689 0.70599997 -0.018567799 1.7329379e-38 363 255
0.054311249 0.704 -0.018515198 1.7695285e-38 364 255
0.055545598 0.704 -0.018515198 1.7511253e-38 365 255
0.056699295 0.70300001 -0.018488899 1.6868067e-38 366 255
0.057931885 0.70300001 -0.018488899 1.5485131e-38 367 255
0.059164476 0.70300001 -0.018488899 1.4755557e-38 368 255
-0.01205592 0.764 -0.021432746 1.2354492e-38 311 256
-0.01068832 0.76200002 -0.02137664 1.2630353e-38 312 256
-0.0093522798 0.76200002 -0.02137664 1.2538157e-38 313 256
-0.0080162399 0.76200002 -0.02137664 1.2537434e-38 314 256
-0.0066714329 0.76099998 -0.021348584 1.2537434e-38 315 256
-0.0053371461 0.76099998 -0.021348584 1.272182e-38 316 256
-0.0040028598 0.76099998 -0.021348584 1.2537787e-38 317 256
-0.0026685731 0.76099998 -0.021348584 1.253814e-38 318 256
-0.00133078 0.759 -0.02129248 1.2445945e-38 319 256
0 0.759 -0.02129248 1.2445589e-38 320 256
0.0013272733 0.75700003 -0.021236373 1.2445589e-38 321 256
0.0026545466 0.75700003 -0.021236373 1.2628907e-38 322 256
0.00396604 0.75400001 -0.021152213 1.2628907e-38 323 256
0.0052740262 0.75199997 -0.021096105 1.2261566e-38 324 256
0.006575 0.75 -0.02104 1.2538154e-38 325 256
0.0078794798 0.74900001 -0.021011947 1.3365756e-38 326 256
0.0091681797 0.74699998 -0.020955838 1.3918571e-38 327 256
0.010477919 0.74699998 -0.020955838 1.4287353e-38 328 256
0.011771879 0.74599999 -0.020927785 1.456394e-38 329 256
0.0130448 0.74400002 -0.02087168 1.5115668e-38 330 256
0.01434928 0.74400002 -0.02087168 1.5207865e-38 331 256
0.015611678 0.74199998 -0.020815572 1.5392612e-38 332 256
0.016889861 0.741 -0.020787518 1.5484808e-38 333 256
0.018115439 0.73799998 -0.020703359 1.5668473e-38 334 256
0.019356798 0.736 -0.020647252 1.5852864e-38 335 256
0.020591147 0.73400003 -0.020591147 1.6036532e-38 336 256
0.021848286 0.73299998 -0.020563092 1.6128728e-38 337 256
0.023133477 0.73299998 -0.020563092 1.6129802e-38 338 256
0.024318734 0.73000002 -0.020478934 1.6129802e-38 339 256
0.025528532 0.72799999 -0.020422826 1.6038685e-38 340 256
0.026768139 0.727 -0.020394772 1.6038685e-38 341 256
0.027965667 0.72500002 -0.020338668 1.6038682e-38 342 256
0.029115854 0.722 -0.020254506 1.6130878e-38 343 256
0.030255521 0.71899998 -0.020170346 1.6775517e-38 344 256
0.031384666 0.71600002 -0.020086186 1.7328691e-38 345 256
0.032640055 0.71600002 -0.020086186 1.7788947e-38 346 256
0.033800758 0.71399999 -0.020030079 1.7973339e-38 347 256
0.035052639 0.71399999 -0.020030079 1.8157007e-38 348 256
0.036253672 0.713 -0.020002026 1.8249202e-38 349 256
0.037398599 0.71100003 -0.01994592 1.861691e-38 350 256
0.038590867 0.70999998 -0.019917866 1.8709106e-38 351 256
0.039723519 0.708 -0.01986176 1.8801657e-38 352 256
0.040964879 0.708 -0.01986176 1.8801657e-38 353 256
0.042206239 0.708 -0.01986176 1.898497e-38 354 256
0.043447599 0.708 -0.01986176 1.898497e-38 355 256
0.044625837 0.70700002 -0.019833706 1.8801654e-38 356 256
0.04580057 0.70599997 -0.019805651 1.8801654e-38 357 256
0.047038425 0.70599997 -0.019805651 1.8801639e-38 358 256
0.048276275 0.70599997 -0.019805651 1.8525051e-38 359 256
0.04951413 0.70599997 -0.019805651 1.8525401e-38 360 256
0.050751984 0.70599997 -0.019805651 1.8433205e-38 361 256
0.051842559 0.704 -0.019749546 1.8156623e-38 362 256
0.053076904 0.704 -0.019749546 1.797223e-38 363 256
0.054311249 0.704 -0.019749546 1.7604168e-38 364 256
0.0554667 0.70300001 -0.019721493 1.7419777e-38 365 256
0.056699295 0.70300001 -0.019721493 1.6960603e-38 366 256
0.057931885 0.70300001 -0.019721493 1.6130483e-38 367 256
0.059164476 0.70300001 -0.019721493 1.4935239e-38 368 256
0.06039707 0.70300001 -0.019721493 1.6041947e-38 369 256
-0.0093522798 0.76200002 -0.02271268 1.2353046e-38 313 257
-0.0053371461 0.76099998 -0.022682872 1.2445241e-38 316 257
-0.0040028598 0.76099998 -0.022682872 1.2445241e-38 317 257
-0.0026685731 0.76099998 -0.022682872 1.235269e-38 318 257
-0.00133078 0.759 -0.02262326 1.235269e-38 319 257
0 0.759 -0.02262326 1.2261216e-38 320 257
0.0013272733 0.75700003 -0.022563647 1.2353411e-38 321 257
0.0026545466 0.75700003 -0.022563647 1.2538154e-38 322 257
0.0039712996 0.755 -0.022504034 1.263035e-38 323 257
0.0052880533 0.75400001 -0.022474226 1.2722176e-38 324 257
0.0065925326 0.75199997 -0.022414612 1.2814371e-38 325 257
0.00789 0.75 -0.022355 1.2998412e-38 326 257
0.0091681797 0.74699998 -0.022265578 1.3366836e-38 327 257
0.010477919 0.74699998 -0.022265578 1.3643429e-38 328 257
0.011771879 0.74599999 -0.022235774 1.4012211e-38 329 257
0.013079867 0.74599999 -0.022235774 1.4655413e-38 330 257
0.01434928 0.74400002 -0.022176161 1.4747608e-38 331 257
0.01559064 0.741 -0.02208674 1.5115668e-38 332 257
0.016889861 0.741 -0.02208674 1.5392256e-38 333 257
0.018066347 0.736 -0.021937706 1.5392256e-38 334 257
0.019304199 0.73400003 -0.021878093 1.5484452e-38 335 257
0.020591147 0.73400003 -0.021878093 1.5668473e-38 336 257
0.021788673 0.73100001 -0.021788673 1.5852864e-38 337 257
0.023038799 0.73000002 -0.021758866 1.6037249e-38 338 257
0.024252106 0.72799999 -0.021699252 1.6129446e-38 339 257
0.025528532 0.72799999 -0.021699252 1.6038682e-38 340 257
0.026768139 0.727 -0.021669446 1.6038682e-38 341 257
0.027849946 0.722 -0.021520413 1.6038679e-38 342 257
0.029035201 0.72000003 -0.021460801 1.6131234e-38 343 257
0.030171359 0.71700001 -0.021371379 1.6224501e-38 344 257
0.031384666 0.71600002 -0.021341572 1.6592925e-38 345 257
0.032548878 0.71399999 -0.021281958 1.7145729e-38 346 257
0.033753417 0.713 -0.021252153 1.7330122e-38 347 257
0.035003547 0.713 -0.021252153 1.8157004e-38 348 257
0.036151983 0.71100003 -0.021192541 1.8249558e-38 349 257
0.037345998 0.70999998 -0.021162732 1.8433598e-38 350 257
0.038482159 0.708 -0.021103119 1.8525793e-38 351 257
0.039667413 0.70700002 -0.021073313 1.8709462e-38 352 257
0.040907022 0.70700002 -0.021073313 1.8709462e-38 353 257
0.042087011 0.70599997 -0.021043506 1.8800938e-38 354 257
0.043324865 0.70599997 -0.021043506 1.8800938e-38 355 257
0.044562716 0.70599997 -0.021043506 1.8618342e-38 356 257
0.045670826 0.704 -0.020983893 1.8618342e-38 357 257
0.046905171 0.704 -0.020983893 1.8801995e-38 358 257
0.048071139 0.70300001 -0.020954086 1.8709798e-38 359 257
0.049303733 0.70300001 -0.020954086 1.8525401e-38 360 257
0.050536323 0.70300001 -0.020954086 1.8433205e-38 361 257
0.051768921 0.70300001 -0.020954086 1.8432133e-38 362 257
0.053001512 0.70300001 -0.020954086 1.8339938e-38 363 257
0.054234106 0.70300001 -0.020954086 1.7788562e-38 364 257
0.0554667 0.70300001 -0.020954086 1.7604171e-38 365 257
0.056699295 0.70300001 -0.020954086 1.7327231e-38 366 257
0.057767071 0.70099998 -0.020894472 1.7050644e-38 367 257
0.058996156 0.70099998 -0.020894472 1.5946131e-38 368 257
0.06039707 0.70300001 -0.020954086 1.5393315e-38 369 257
0.061629668 0.70300001 -0.020954086 1.5216554e-38 370 257
0.0026545466 0.75700003 -0.02389092 1.2720752e-38 322 258
0.0039818203 0.75700003 -0.02389092 1.2812949e-38 323 258
0.0052880533 0.75400001 -0.02379624 1.2905498e-38 324 258
0.0065925326 0.75199997 -0.023733119 1.2813302e-38 325 258
0.00789 0.75 -0.023669999 1.2814371e-38 326 258
0.0091927266 0.74900001 -0.02363844 1.2998763e-38 327 258
0.010477919 0.74699998 -0.023575317 1.3183157e-38 328 258
0.011771879 0.74599999 -0.023543758 1.3459385e-38 329 258
0.013079867 0.74599999 -0.023543758 1.4011485e-38 330 258
0.01434928 0.74400002 -0.023480639 1.4196237e-38 331 258
0.01559064 0.741 -0.023385961 1.4930558e-38 332 258
0.016889861 0.741 -0.023385961 1.5207145e-38 333 258
0.018066347 0.736 -0.023228159 1.5483006e-38 334 258
0.019304199 0.73400003 -0.023165042 1.5575203e-38 335 258
0.020591147 0.73400003 -0.023165042 1.5759943e-38 336 258
0.021788673 0.73100001 -0.02307036 1.5944334e-38 337 258
0.023038799 0.73000002 -0.023038799 1.5853571e-38 338 258
0.024252106 0.72799999 -0.022975679 1.6037602e-38 339 258
0.025493465 0.727 -0.022944121 1.6129799e-38 340 258
0.026694499 0.72500002 -0.022880999 1.6129799e-38 341 258
0.027772799 0.72000003 -0.022723202 1.6222347e-38 342 258
0.028914221 0.71700001 -0.02262852 1.6314543e-38 343 258
0.03012928 0.71600002 -0.022596961 1.6407092e-38 344 258
0.031296998 0.71399999 -0.022533838 1.6499287e-38 345 258
0.032548878 0.71399999 -0.022533838 1.6776951e-38 346 258
0.033753417 0.713 -0.022502279 1.7145732e-38 347 258
0.035003547 0.713 -0.022502279 1.806589e-38 348 258
0.036101133 0.70999998 -0.022407599 1.806589e-38 349 258
0.0372408 0.708 -0.022344479 1.8341751e-38 350 258
0.038427804 0.70700002 -0.022312919 1.8341751e-38 351 258
0.039611302 0.70599997 -0.022281358 1.8616896e-38 352 258
0.040733438 0.704 -0.022218239 1.8616896e-38 353 258
0.041967787 0.704 -0.022218239 1.8709093e-38 354 258
0.043202132 0.704 -0.022218239 1.8709093e-38 355 258
0.04437336 0.70300001 -0.02218668 1.8801289e-38 356 258
0.04560595 0.70300001 -0.02218668 1.9077874e-38 357 258
0.046838548 0.70300001 -0.02218668 1.8802358e-38 358 258
0.047934376 0.70099998 -0.022123558 1.8617967e-38 359 258
0.049163464 0.70099998 -0.022123558 1.8617246e-38 360 258
0.050392549 0.70099998 -0.022123558 1.8525051e-38 361 258
0.051547997 0.69999999 -0.022091998 1.8432502e-38 362 258
0.052775331 0.69999999 -0.022091998 1.8432502e-38 363 258
0.054079808 0.70099998 -0.022123558 1.7972244e-38 364 258
0.055229999 0.69999999 -0.022091998 1.7696016e-38 365 258
0.056457333 0.69999999 -0.022091998 1.741907e-38 366 258
0.05768466 0.69999999 -0.022091998 1.7326875e-38 367 258
0.058911994 0.69999999 -0.022091998 1.6131228e-38 368 258
0.060225245 0.70099998 -0.022123558 1.5762444e-38 369 258
0.061629668 0.70300001 -0.02218668 1.4935988e-38 370 258
0.0052950666 0.755 -0.025151566 1.2537087e-38 324 259
0.0066100666 0.75400001 -0.025118252 1.2444891e-38 325 259
0.0079110395 0.75199997 -0.025051624 1.2170815e-38 326 259
0.0092049995 0.75 -0.024984999 1.2263012e-38 327 259
0.010477919 0.74699998 -0.024885058 1.2722917e-38 328 259
0.011787659 0.74699998 -0.024885058 1.2907308e-38 329 259
0.013079867 0.74599999 -0.024851745 1.3275369e-38 330 259
0.01434928 0.74400002 -0.02478512 1.3551955e-38 331 259
0.015611678 0.74199998 -0.024718491 1.4286983e-38 332 259
0.016889861 0.741 -0.024685178 1.4747961e-38 333 259
0.018115439 0.73799998 -0.024585238 1.5023457e-38 334 259
0.019356798 0.736 -0.024518613 1.5207848e-38 335 259
0.020591147 0.73400003 -0.024451986 1.5484432e-38 336 259
0.021848286 0.73299998 -0.024418673 1.5761019e-38 337 259
0.023038799 0.73000002 -0.024318734 1.5578072e-38 338 259
0.024252106 0.72799999 -0.024252106 1.5854659e-38 339 259
0.025493465 0.727 -0.024218792 1.5854657e-38 340 259
0.026584039 0.722 -0.024052227 1.5854657e-38 341 259
0.027734226 0.71899998 -0.023952285 1.6130152e-38 342 259
0.028914221 0.71700001 -0.02388566 1.6314543e-38 343 259
0.03012928 0.71600002 -0.023852346 1.6314543e-38 344 259
0.031296998 0.71399999 -0.02378572 1.6406739e-38 345 259
0.032503292 0.713 -0.023752406 1.6682968e-38 346 259
0.033753417 0.713 -0.023752406 1.6959915e-38 347 259
0.034856264 0.70999998 -0.023652466 1.778895e-38 348 259
0.03599944 0.708 -0.023585839 1.7973341e-38 349 259
0.037188202 0.70700002 -0.023552528 1.806589e-38 350 259
0.038373452 0.70599997 -0.023519212 1.806589e-38 351 259
0.039499093 0.704 -0.023452586 1.8433228e-38 352 259
0.040675577 0.70300001 -0.023419274 1.8433228e-38 353 259
0.041908171 0.70300001 -0.023419274 1.861726e-38 354 259
0.043018032 0.70099998 -0.023352645 1.861726e-38 355 259
0.044247117 0.70099998 -0.023352645 1.8526147e-38 356 259
0.045476202 0.70099998 -0.023352645 1.8618342e-38 357 259
0.046638668 0.69999999 -0.023319334 1.8985676e-38 358 259
0.047865998 0.69999999 -0.023319334 1.870909e-38 359 259
0.049093332 0.69999999 -0.023319334 1.8892391e-38 360 259
0.050320663 0.69999999 -0.023319334 1.8800196e-38 361 259
0.051400717 0.69800001 -0.023252707 1.8524332e-38 362 259
0.052624546 0.69800001 -0.023252707 1.8432136e-38 363 259
0.053848371 0.69800001 -0.023252707 1.8247386e-38 364 259
0.0550722 0.69800001 -0.023252707 1.8155189e-38 365 259
0.056296028 0.69800001 -0.023252707 1.7786764e-38 366 259
0.057519849 0.69800001 -0.023252707 1.7510176e-38 367 259
0.058743682 0.69800001 -0.023252707 1.6958101e-38 368 259
0.060139328 0.69999999 -0.023319334 1.6681155e-38 369 259
0.061366666 0.69999999 -0.023319334 1.5024199e-38 370 259
0.0079110395 0.75199997 -0.02637013 1.235304e-38 326 260
0.0092295464 0.75199997 -0.02637013 1.235304e-38 327 260
0.010477919 0.74699998 -0.026194798 1.2904412e-38 328 260
0.011787659 0.74699998 -0.026194798 1.2996968e-38 329 260
0.013097399 0.74699998 -0.026194798 1.2905495e-38 330 260
0.014387853 0.74599999 -0.026159734 1.3089526e-38 331 260
0.015653761 0.74400002 -0.026089599 1.3274273e-38 332 260
0.016889861 0.741 -0.025984399 1.3827447e-38 333 260
0.018066347 0.736 -0.025809066 1.4380255e-38 334 260
0.019304199 0.73400003 -0.025738932 1.4564646e-38 335 260
0.020563092 0.73299998 -0.025703866 1.5116018e-38 336 260
0.021788673 0.73100001 -0.025633732 1.5392606e-38 337 260
0.023038799 0.73000002 -0.025598666 1.5760671e-38 338 260
0.024252106 0.72799999 -0.025528532 1.5852867e-38 339 260
0.025493465 0.727 -0.025493465 1.6037251e-38 340 260
0.026584039 0.722 -0.025318133 1.6129448e-38 341 260
0.027657079 0.71700001 -0.0251428 1.6038679e-38 342 260
0.028873893 0.71600002 -0.025107734 1.6131234e-38 343 260
0.030045118 0.71399999 -0.025037598 1.6497855e-38 344 260
0.031253166 0.713 -0.025002534 1.6497855e-38 345 260
0.032412119 0.71100003 -0.024932399 1.6680805e-38 346 260
0.033611398 0.70999998 -0.024897331 1.6773e-38 347 260
0.034758076 0.708 -0.024827199 1.7511635e-38 348 260
0.035948593 0.70700002 -0.024792133 1.7696385e-38 349 260
0.037135597 0.70599997 -0.024757065 1.8155919e-38 350 260
0.038264744 0.704 -0.024686933 1.8432505e-38 351 260
0.039330769 0.70099998 -0.024581732 1.8523979e-38 352 260
0.040559858 0.70099998 -0.024581732 1.8523979e-38 353 260
0.041788943 0.70099998 -0.024581732 1.8524698e-38 354 260
0.042956665 0.69999999 -0.024546666 1.8616893e-38 355 260
0.044183996 0.69999999 -0.024546666 1.8709096e-38 356 260
0.04541133 0.69999999 -0.024546666 1.8801292e-38 357 260
0.046638668 0.69999999 -0.024546666 1.8985323e-38 358 260
0.047729239 0.69800001 -0.024476532 1.8709096e-38 359 260
0.048953064 0.69800001 -0.024476532 1.8801645e-38 360 260
0.050176892 0.69800001 -0.024476532 1.8616893e-38 361 260
0.051327083 0.69700003 -0.024441468 1.8341383e-38 362 260
0.052549154 0.69700003 -0.024441468 1.8249187e-38 363 260
0.053771228 0.69700003 -0.024441468 1.8064796e-38 364 260
0.054993302 0.69700003 -0.024441468 1.79726e-38 365 260
0.056215372 0.69700003 -0.024441468 1.7511622e-38 366 260
0.05743745 0.69700003 -0.024441468 1.7511622e-38 367 260
0.05865952 0.69700003 -0.024441468 1.6775504e-38 368 260
0.059967503 0.69800001 -0.024476532 1.6590754e-38 369 260
0.061191335 0.69800001 -0.024476532 1.5853215e-38 370 260
0.062415157 0.69800001 -0.024476532 1.5761019e-38 371 260
0.010505973 0.74900001 -0.027578179 1.1432897e-38 328 261
0.01181922 0.74900001 -0.027578179 1.180204e-38 329 261
0.013097399 0.74699998 -0.027504537 1.2445258e-38 330 261
0.014387853 0.74599999 -0.027467718 1.2537454e-38 331 261
0.015695838 0.74599999 -0.027467718 1.2997359e-38 332 261
0.016889861 0.741 -0.027283618 1.3181751e-38 333 261
0.018066347 0.736 -0.02709952 1.3826746e-38 334 261
0.019304199 0.73400003 -0.02702588 1.4103335e-38 335 261
0.020563092 0.73299998 -0.026989058 1.456394e-38 336 261
0.021788673 0.73100001 -0.026915418 1.5024918e-38 337 261
0.023038799 0.73000002 -0.026878599 1.5484455e-38 338 261
0.024252106 0.72799999 -0.026804959 1.5668486e-38 339 261
0.025493465 0.727 -0.026768139 1.5578075e-38 340 261
0.026584039 0.722 -0.026584039 1.5854303e-38 341 261
0.027618507 0.71600002 -0.026363119 1.5946849e-38 342 261
0.028793238 0.71399999 -0.026289478 1.6039404e-38 343 261
0.030003037 0.713 -0.026252659 1.6497858e-38 344 261
0.031253166 0.713 -0.026252659 1.6497858e-38 345 261
0.032412119 0.71100003 -0.026179021 1.6589338e-38 346 261
0.033611398 0.70999998 -0.026142199 1.6681533e-38 347 261
0.034708988 0.70700002 -0.02603174 1.7326171e-38 348 261
0.035897743 0.70599997 -0.025994917 1.7603117e-38 349 261
0.037030395 0.704 -0.02592128 1.7789654e-38 350 261
0.038210396 0.70300001 -0.025884461 1.7881849e-38 351 261
0.039274666 0.69999999 -0.025773998 1.8248837e-38 352 261
0.040502001 0.69999999 -0.025773998 1.8248837e-38 353 261
0.041729331 0.69999999 -0.025773998 1.8341035e-38 354 261
0.042833932 0.69800001 -0.025700359 1.8433231e-38 355 261
0.04405776 0.69800001 -0.025700359 1.861691e-38 356 261
0.045281585 0.69800001 -0.025700359 1.8709106e-38 357 261
0.046438783 0.69700003 -0.025663542 1.8801292e-38 358 261
0.047660861 0.69700003 -0.025663542 1.8801292e-38 359 261
0.048882935 0.69700003 -0.025663542 1.8984587e-38 360 261
0.050033119 0.69599998 -0.025626717 1.8892391e-38 361 261
0.051253434 0.69599998 -0.025626717 1.8708716e-38 362 261
0.052473757 0.69599998 -0.025626717 1.8524685e-38 363 261
0.053694077 0.69599998 -0.025626717 1.8156626e-38 364 261
0.054756597 0.69400001 -0.025553079 1.7971874e-38 365 261
0.055973411 0.69400001 -0.025553079 1.787896e-38 366 261
0.057355035 0.69599998 -0.025626717 1.7694568e-38 367 261
0.058575355 0.69599998 -0.025626717 1.7050644e-38 368 261
0.059795678 0.69599998 -0.025626717 1.6866253e-38 369 261
0.061103668 0.69700003 -0.025663542 1.6129782e-38 370 261
0.062325738 0.69700003 -0.025663542 1.5760641e-38 371 261
0.063183114 0.69300002 -0.02551626 1.4751592e-38 372 261
0.015695838 0.74599999 -0.028775707 1.2628556e-38 332 262
0.016912652 0.74199998 -0.028621411 1.2905145e-38 333 262
0.018189078 0.741 -0.028582839 1.3182809e-38 334 262
0.019304199 0.73400003 -0.028312827 1.3551233e-38 335 262
0.020563092 0.73299998 -0.028274251 1.4195886e-38 336 262
0.021788673 0.73100001 -0.028197108 1.4656504e-38 337 262
0.022975679 0.72799999 -0.028081384 1.530006e-38 338 262
0.024218792 0.727 -0.028042812 1.5392256e-38 339 262
0.025318133 0.722 -0.027849946 1.5669189e-38 340 262
0.026510401 0.72000003 -0.027772799 1.5853939e-38 341 262
0.027618507 0.71600002 -0.027618507 1.5946849e-38 342 262
0.028793238 0.71399999 -0.02754136 1.6039404e-38 343 262
0.030003037 0.713 -0.027502786 1.6497855e-38 344 262
0.031165501 0.71100003 -0.027425639 1.6313824e-38 345 262
0.032366529 0.70999998 -0.027387066 1.6680805e-38 346 262
0.033516716 0.708 -0.027309919 1.6865196e-38 347 262
0.034708988 0.70700002 -0.027271347 1.7233974e-38 348 262
0.035897743 0.70599997 -0.027232772 1.7510921e-38 349 262
0.036977798 0.70300001 -0.027117053 1.788113e-38 350 262
0.038101684 0.70099998 -0.027039904 1.788113e-38 351 262
0.039162453 0.69800001 -0.026924185 1.8432502e-38 352 262
0.040386278 0.69800001 -0.026924185 1.8432502e-38 353 262
0.041550495 0.69700003 -0.026885614 1.8432149e-38 354 262
0.042772565 0.69700003 -0.026885614 1.8524345e-38 355 262
0.043994639 0.69700003 -0.026885614 1.8432878e-38 356 262
0.045216713 0.69700003 -0.026885614 1.8709106e-38 357 262
0.046372157 0.69599998 -0.026847038 1.8800936e-38 358 262
0.047455717 0.69400001 -0.026769891 1.8800936e-38 359 262
0.048602402 0.69300002 -0.02673132 1.8984954e-38 360 262
0.049817458 0.69300002 -0.02673132 1.8800561e-38 361 262
0.051032521 0.69300002 -0.02673132 1.8525051e-38 362 262
0.05224758 0.69300002 -0.02673132 1.8432855e-38 363 262
0.053462639 0.69300002 -0.02673132 1.8156272e-38 364 262
0.054677699 0.69300002 -0.02673132 1.8064077e-38 365 262
0.055892758 0.69300002 -0.02673132 1.7787133e-38 366 262
0.057107817 0.69300002 -0.02673132 1.7787133e-38 367 262
0.058322877 0.69300002 -0.02673132 1.7143565e-38 368 262
0.05953794 0.69300002 -0.02673132 1.6958814e-38 369 262
0.060752999 0.69300002 -0.02673132 1.6314528e-38 370 262
0.061968062 0.69300002 -0.02673132 1.5853189e-38 371 262
0.063183114 0.69300002 -0.02673132 1.4379196e-38 372 262
0.018189078 0.741 -0.029882059 1.2537451e-38 334 263
0.019356798 0.736 -0.029680425 1.2906232e-38 335 263
0.020591147 0.73400003 -0.029599773 1.3458684e-38 336 263
0.021848286 0.73299998 -0.029559445 1.3827825e-38 337 263
0.022975679 0.72799999 -0.029357811 1.4747608e-38 338 263
0.024218792 0.727 -0.029317487 1.4932e-38 339 263
0.025318133 0.722 -0.029115854 1.5208937e-38 340 263
0.026510401 0.72000003 -0.029035201 1.5485524e-38 341 263
0.027618507 0.71600002 -0.028873893 1.5853939e-38 342 263
0.028752912 0.713 -0.028752912 1.6130527e-38 343 263
0.029918881 0.71100003 -0.028672259 1.6497858e-38 344 263
0.031121666 0.70999998 -0.028631933 1.6497858e-38 345 263
0.03227536 0.708 -0.02855128 1.6865196e-38 346 263
0.033516716 0.708 -0.02855128 1.6957392e-38 347 263
0.034659892 0.70599997 -0.028470624 1.7049943e-38 348 263
0.035796054 0.704 -0.028389972 1.7326171e-38 349 263
0.036872596 0.70099998 -0.028268991 1.7878978e-38 350 263
0.038047329 0.69999999 -0.028228667 1.8063371e-38 351 263
0.039106347 0.69700003 -0.028107686 1.8155919e-38 352 263
0.040328421 0.69700003 -0.028107686 1.8155919e-38 353 263
0.041490879 0.69599998 -0.028067358 1.8339956e-38 354 263
0.042527102 0.69300002 -0.027946379 1.8339956e-38 355 263
0.043615919 0.69099998 -0.027865725 1.8340682e-38 356 263
0.044827472 0.69099998 -0.027865725 1.8432878e-38 357 263
0.046238903 0.69400001 -0.027986705 1.870874e-38 358 263
0.047387339 0.69300002 -0.027946379 1.870874e-38 359 263
0.048391998 0.69 -0.027825398 1.8892761e-38 360 263
0.049601797 0.69 -0.027825398 1.8800206e-38 361 263
0.050664321 0.68800002 -0.027744746 1.8708363e-38 362 263
0.051870614 0.68800002 -0.027744746 1.8524332e-38 363 263
0.053231198 0.69 -0.027825398 1.8156275e-38 364 263
0.054440998 0.69 -0.027825398 1.7971524e-38 365 263
0.055489492 0.68800002 -0.027744746 1.7879331e-38 366 263
0.056695789 0.68800002 -0.027744746 1.7694581e-38 367 263
0.058070395 0.69 -0.027825398 1.7234681e-38 368 263
0.059280202 0.69 -0.027825398 1.7050649e-38 369 263
0.060577665 0.69099998 -0.027865725 1.6590392e-38 370 263
0.061789215 0.69099998 -0.027865725 1.6313444e-38 371 263
0.063000768 0.69099998 -0.027865725 1.4930558e-38 372 263
0.064119399 0.69 -0.027825398 1.5760318e-38 373 263
0.020591147 0.73400003 -0.030886721 1.2538173e-38 336 264
0.021848286 0.73299998 -0.030844638 1.281476e-38 337 264
0.023038799 0.73000002 -0.030718399 1.4010769e-38 338 264
0.024218792 0.727 -0.030592158 1.4286997e-38 339 264
0.025493465 0.727 -0.030592158 1.465541e-38 340 264
0.026768139 0.727 -0.030592158 1.5208584e-38 341 264
0.027618507 0.71600002 -0.03012928 1.5668836e-38 342 264
0.028672259 0.71100003 -0.029918881 1.6037979e-38 343 264
0.029876797 0.70999998 -0.029876797 1.6314193e-38 344 264
0.031034 0.708 -0.02979264 1.6406388e-38 345 264
0.03227536 0.708 -0.02979264 1.6682605e-38 346 264
0.033469379 0.70700002 -0.029750559 1.6682605e-38 347 264
0.034561705 0.704 -0.029624319 1.6774801e-38 348 264
0.035745207 0.70300001 -0.029582238 1.6959194e-38 349 264
0.036872596 0.70099998 -0.029498078 1.7603117e-38 350 264
0.037938625 0.69800001 -0.029371841 1.7695313e-38 351 264
0.039050236 0.69599998 -0.029287677 1.8063727e-38 352 264
0.040270556 0.69599998 -0.029287677 1.8155922e-38 353 264
0.041312039 0.69300002 -0.029161438 1.8339234e-38 354 264
0.042404365 0.69099998 -0.029077278 1.843143e-38 355 264
0.043426562 0.68800002 -0.028951041 1.8248484e-38 356 264
0.044567976 0.68699998 -0.028908957 1.8433234e-38 357 264
0.045772515 0.68699998 -0.028908957 1.8799858e-38 358 264
0.046977058 0.68699998 -0.028908957 1.8892055e-38 359 264
0.048181597 0.68699998 -0.028908957 1.8800208e-38 360 264
0.049386136 0.68699998 -0.028908957 1.8800208e-38 361 264
0.050590675 0.68699998 -0.028908957 1.870801e-38 362 264
0.051719822 0.68599999 -0.02886688 1.8523979e-38 363 264
0.05292261 0.68599999 -0.02886688 1.8155919e-38 364 264
0.054204296 0.68699998 -0.028908957 1.7971527e-38 365 264
0.055408835 0.68699998 -0.028908957 1.7878256e-38 366 264
0.056613375 0.68699998 -0.028908957 1.7693865e-38 367 264
0.057817914 0.68699998 -0.028908957 1.7234327e-38 368 264
0.059022456 0.68699998 -0.028908957 1.6958101e-38 369 264
0.060314666 0.68800002 -0.028951041 1.6590036e-38 370 264
0.061699796 0.69 -0.029035198 1.6405643e-38 371 264
0.062909603 0.69 -0.029035198 1.5575556e-38 372 264
0.064119399 0.69 -0.029035198 1.5851783e-38 373 264
0.026179021 0.71100003 -0.031165501 1.4469942e-38 341 265
0.027425639 0.71100003 -0.031165501 1.5208937e-38 342 265
0.028672259 0.71100003 -0.031165501 1.6038697e-38 343 265
0.029876797 0.70999998 -0.031121666 1.6497152e-38 344 265
0.031034 0.708 -0.031034 1.6681902e-38 345 265
0.032229774 0.70700002 -0.030990168 1.6865564e-38 346 265
0.033469379 0.70700002 -0.030990168 1.695776e-38 347 265
0.034561705 0.704 -0.030858666 1.6957763e-38 348 265
0.035745207 0.70300001 -0.030814834 1.7142156e-38 349 265
0.036662199 0.69700003 -0.030551834 1.7510565e-38 350 265
0.037829921 0.69599998 -0.030507999 1.7602761e-38 351 265
0.038938027 0.69400001 -0.030420333 1.7971524e-38 352 265
0.04009698 0.69300002 -0.0303765 1.8063721e-38 353 265
0.041133199 0.69 -0.030244999 1.8064796e-38 354 265
0.042220265 0.68800002 -0.030157333 1.8064796e-38 355 265
0.043300316 0.68599999 -0.030069664 1.8156994e-38 356 265
0.044503104 0.68599999 -0.030069664 1.824919e-38 357 265
0.045705888 0.68599999 -0.030069664 1.8708013e-38 358 265
0.046908677 0.68599999 -0.030069664 1.8800208e-38 359 265
0.048111461 0.68599999 -0.030069664 1.8800208e-38 360 265
0.049314249 0.68599999 -0.030069664 1.8708013e-38 361 265
0.050517038 0.68599999 -0.030069664 1.8523982e-38 362 265
0.051569041 0.68400002 -0.029982001 1.8431786e-38 363 265
0.05276832 0.68400002 -0.029982001 1.8155919e-38 364 265
0.054125395 0.68599999 -0.030069664 1.8063724e-38 365 265
0.055166878 0.68400002 -0.029982001 1.7786061e-38 366 265
0.056366164 0.68400002 -0.029982001 1.7786061e-38 367 265
0.057565439 0.68400002 -0.029982001 1.7234681e-38 368 265
0.05867881 0.68300003 -0.029938167 1.6958095e-38 369 265
0.059788663 0.68199998 -0.029894331 1.6498912e-38 370 265
