# .PCD v.7 - Point Cloud Data file format
FIELDS x y z rgb imX imY
SIZE 4 4 4 4 4 4
TYPE F F F F F F
COUNT 1 1 1 1 1 1
WIDTH 846
HEIGHT 1
VIEWPOINT 0 0 0 1 0 0 0
POINTS 846
DATA ascii
-0.011740319 0.83700001 0.054298978 1.0136758e-38 312 203
-0.010297326 0.83899999 0.054428723 1.0044562e-38 313 203
-0.00882628 0.83899999 0.054428723 9.9527293e-39 314 203
-0.0073552327 0.83899999 0.054428723 9.9527293e-39 315 203
-0.0058841864 0.83899999 0.054428723 9.7694143e-39 316 203
0.014710465 0.83899999 0.054428723 9.4010031e-39 330 203
0.016181514 0.83899999 0.054428723 9.4932001e-39 331 203
0.01765256 0.83899999 0.054428723 9.6768683e-39 332 203
0.01907802 0.83700001 0.054298978 9.769064e-39 333 203
0.020545561 0.83700001 0.054298978 9.952379e-39 334 203
0.022065699 0.83899999 0.054428723 9.952379e-39 335 203
0.023480639 0.83700001 0.054298978 9.7687108e-39 336 203
0.02494818 0.83700001 0.054298978 9.6765152e-39 337 203
0.026415719 0.83700001 0.054298978 9.4932029e-39 338 203
0.02788326 0.83700001 0.054298978 9.4932029e-39 339 203
0.029350799 0.83700001 0.054298978 9.4935561e-39 340 203
0.030818338 0.83700001 0.054298978 9.5857517e-39 341 203
0.032285877 0.83700001 0.054298978 9.7690612e-39 342 203
0.033753417 0.83700001 0.054298978 9.8616155e-39 343 203
0.035136797 0.83499998 0.05416923 9.6768683e-39 344 203
0.036600832 0.83499998 0.05416923 9.769064e-39 345 203
0.03815604 0.83700001 0.054298978 9.4946477e-39 346 203
0.039623581 0.83700001 0.054298978 1.0140017e-38 347 203
0.041091122 0.83700001 0.054298978 1.0602067e-38 348 203
0.042558659 0.83700001 0.054298978 1.1339632e-38 349 203
0.0440262 0.83700001 0.054298978 1.1985349e-38 350 203
0.045493741 0.83700001 0.054298978 1.2354492e-38 351 203
0.046961278 0.83700001 0.054298978 1.2723267e-38 352 203
0.048313096 0.83499998 0.05416923 1.2631072e-38 353 203
0.049777132 0.83499998 0.05416923 1.2539952e-38 354 203
0.051241163 0.83499998 0.05416923 1.2816538e-38 355 203
0.05257896 0.833 0.054039486 1.2538901e-38 356 203
0.053779993 0.829 0.053779993 1.2631097e-38 357 203
0.055233505 0.829 0.053779993 1.3096449e-38 358 203
-0.075035654 0.82300001 0.051947758 1.567355e-38 268 204
-0.073592655 0.82300001 0.051947758 1.4935985e-38 269 204
-0.072149664 0.82300001 0.051947758 1.5761725e-38 270 204
-0.070534848 0.82099998 0.051821519 1.6407095e-38 271 204
-0.069095351 0.82099998 0.051821519 1.6868771e-38 272 204
-0.067655869 0.82099998 0.051821519 1.6960966e-38 273 204
-0.066216379 0.82099998 0.051821519 1.7329382e-38 274 204
-0.064776897 0.82099998 0.051821519 1.7513773e-38 275 204
-0.063337415 0.82099998 0.051821519 1.7605622e-38 276 204
-0.061747137 0.81900001 0.05169528 1.7789654e-38 277 204
-0.060311157 0.81900001 0.05169528 1.7788945e-38 278 204
-0.058875177 0.81900001 0.05169528 1.7604913e-38 279 204
-0.057579465 0.82099998 0.051821519 1.7696034e-38 280 204
-0.05613998 0.82099998 0.051821519 1.760348e-38 281 204
-0.05470049 0.82099998 0.051821519 1.7327253e-38 282 204
-0.053261004 0.82099998 0.051821519 1.7050665e-38 283 204
-0.051947758 0.82300001 0.051947758 1.714141e-38 284 204
-0.050504766 0.82300001 0.051947758 1.6588236e-38 285 204
-0.049180996 0.82499999 0.052073997 1.6403492e-38 286 204
-0.047734499 0.82499999 0.052073997 1.6127265e-38 287 204
-0.046287999 0.82499999 0.052073997 1.5850321e-38 288 204
-0.044841498 0.82499999 0.052073997 1.5389344e-38 289 204
-0.043394998 0.82499999 0.052073997 1.5390063e-38 290 204
-0.041948497 0.82499999 0.052073997 1.5113835e-38 291 204
-0.040502001 0.82499999 0.052073997 1.4929812e-38 292 204
-0.039055496 0.82499999 0.052073997 1.4653227e-38 293 204
-0.037700173 0.82700002 0.052200239 1.4469186e-38 294 204
-0.036250167 0.82700002 0.052200239 1.3823816e-38 295 204
-0.034800157 0.82700002 0.052200239 1.3637254e-38 296 204
-0.033350151 0.82700002 0.052200239 1.2991885e-38 297 204
-0.031900145 0.82700002 0.052200239 1.2163925e-38 298 204
-0.030523779 0.829 0.052326478 1.1702947e-38 299 204
-0.029070266 0.829 0.052326478 1.1793738e-38 300 204
-0.027616752 0.829 0.052326478 1.1701543e-38 301 204
-0.026226358 0.83099997 0.052452717 1.1424978e-38 302 204
-0.02476934 0.83099997 0.052452717 1.1332424e-38 303 204
-0.023312319 0.83099997 0.052452717 1.0965439e-38 304 204
-0.0219079 0.833 0.05257896 1.0965439e-38 305 204
-0.020447372 0.833 0.05257896 1.0689926e-38 306 204
-0.019032432 0.83499998 0.052705199 1.0597729e-38 307 204
-0.017568398 0.83499998 0.052705199 1.050553e-38 308 204
-0.016142938 0.83700001 0.052831437 1.0413335e-38 309 204
-0.014675399 0.83700001 0.052831437 1.0412263e-38 310 204
-0.013239419 0.83899999 0.052957676 1.0412263e-38 311 204
-0.011768373 0.83899999 0.052957676 1.0044206e-38 312 204
0.023536745 0.83899999 0.052957676 9.6757921e-39 336 204
0.025007792 0.83899999 0.052957676 9.6757921e-39 337 204
0.026415719 0.83700001 0.052831437 9.4010031e-39 338 204
0.02788326 0.83700001 0.052831437 9.3088075e-39 339 204
0.029350799 0.83700001 0.052831437 9.4013562e-39 340 204
0.030818338 0.83700001 0.052831437 9.4013562e-39 341 204
0.032285877 0.83700001 0.052831437 9.4935533e-39 342 204
0.033753417 0.83700001 0.052831437 9.4935533e-39 343 204
0.035136797 0.83499998 0.052705199 9.5843154e-39 344 204
0.036600832 0.83499998 0.052705199 9.5843154e-39 345 204
0.03815604 0.83700001 0.052831437 9.9516728e-39 346 204
0.039623581 0.83700001 0.052831437 1.0136423e-38 347 204
0.041091122 0.83700001 0.052831437 9.6786816e-39 348 204
0.042558659 0.83700001 0.052831437 9.8630743e-39 349 204
0.0440262 0.83700001 0.052831437 9.9599418e-39 350 204
0.045493741 0.83700001 0.052831437 1.1342876e-38 351 204
0.046849065 0.83499998 0.052705199 1.2171543e-38 352 204
0.048313096 0.83499998 0.052705199 1.2171543e-38 353 204
0.049777132 0.83499998 0.052705199 1.2816169e-38 354 204
0.051118433 0.833 0.05257896 1.2816169e-38 355 204
0.05257896 0.833 0.05257896 1.2998778e-38 356 204
0.053779993 0.829 0.052326478 1.3090974e-38 357 204
0.055233505 0.829 0.052326478 1.272513e-38 358 204
0.056413498 0.82499999 0.052073997 1.3738921e-38 359 204
0.057859998 0.82499999 0.052073997 1.512262e-38 360 204
-0.07629279 0.82099998 0.050382029 1.5583913e-38 267 205
-0.074853301 0.82099998 0.050382029 1.502455e-38 268 205
-0.073413812 0.82099998 0.050382029 1.5485527e-38 269 205
-0.07197433 0.82099998 0.050382029 1.659111e-38 270 205
-0.070534848 0.82099998 0.050382029 1.6867697e-38 271 205
-0.069095351 0.82099998 0.050382029 1.6960966e-38 272 205
-0.067655869 0.82099998 0.050382029 1.7145716e-38 273 205
-0.066216379 0.82099998 0.050382029 1.7604536e-38 274 205
-0.064776897 0.82099998 0.050382029 1.7788929e-38 275 205
-0.063183114 0.81900001 0.0502593 1.77893e-38 276 205
-0.061747137 0.81900001 0.0502593 1.77893e-38 277 205
-0.060311157 0.81900001 0.0502593 1.7513086e-38 278 205
-0.058875177 0.81900001 0.0502593 1.7420889e-38 279 205
-0.057439201 0.81900001 0.0502593 1.7328338e-38 280 205
-0.056003217 0.81900001 0.0502593 1.7052111e-38 281 205
-0.054567236 0.81900001 0.0502593 1.7142862e-38 282 205
-0.053131256 0.81900001 0.0502593 1.6681884e-38 283 205
-0.051821519 0.82099998 0.050382029 1.6497843e-38 284 205
-0.050504766 0.82300001 0.050504766 1.6036865e-38 285 205
-0.049061771 0.82300001 0.050504766 1.6035432e-38 286 205
-0.04761878 0.82300001 0.050504766 1.5759204e-38 287 205
-0.046175785 0.82300001 0.050504766 1.5389713e-38 288 205
-0.044841498 0.82499999 0.0506275 1.5297517e-38 289 205
-0.043394998 0.82499999 0.0506275 1.4929456e-38 290 205
-0.041948497 0.82499999 0.0506275 1.465323e-38 291 205
-0.040502001 0.82499999 0.0506275 1.4652501e-38 292 205
-0.039055496 0.82499999 0.0506275 1.4283718e-38 293 205
-0.037608996 0.82499999 0.0506275 1.4007833e-38 294 205
-0.036250167 0.82700002 0.050750233 1.3178433e-38 295 205
-0.034800157 0.82700002 0.050750233 1.2807869e-38 296 205
-0.033350151 0.82700002 0.050750233 1.2254696e-38 297 205
-0.031900145 0.82700002 0.050750233 1.1518596e-38 298 205
-0.030523779 0.829 0.050872963 1.1241651e-38 299 205
-0.029070266 0.829 0.050872963 1.1150184e-38 300 205
-0.027683379 0.83099997 0.050995696 1.0965792e-38 301 205
-0.026226358 0.83099997 0.050995696 1.0782477e-38 302 205
-0.02476934 0.83099997 0.050995696 1.0690282e-38 303 205
-0.023368426 0.833 0.051118433 1.0781045e-38 304 205
-0.0219079 0.833 0.051118433 1.0781045e-38 305 205
-0.020447372 0.833 0.051118433 1.0597729e-38 306 205
-0.019032432 0.83499998 0.051241163 1.0597729e-38 307 205
-0.017610481 0.83700001 0.051363897 1.050553e-38 308 205
-0.016142938 0.83700001 0.051363897 1.0413335e-38 309 205
-0.014675399 0.83700001 0.051363897 1.0228953e-38 310 205
0.032285877 0.83700001 0.051363897 8.3897421e-39 342 205
0.033753417 0.83700001 0.051363897 8.4819377e-39 343 205
0.035220962 0.83700001 0.051363897 8.7578043e-39 344 205
0.036688499 0.83700001 0.051363897 8.66525e-39 345 205
0.03815604 0.83700001 0.051363897 8.8489308e-39 346 205
0.039718259 0.83899999 0.05148663 9.1251589e-39 347 205
0.041189305 0.83899999 0.05148663 9.0326059e-39 348 205
0.042558659 0.83700001 0.051363897 9.1251617e-39 349 205
0.0440262 0.83700001 0.051363897 8.6674178e-39 350 205
0.045493741 0.83700001 0.051363897 9.9581566e-39 351 205
0.046849065 0.83499998 0.051241163 1.1341432e-38 352 205
0.048313096 0.83499998 0.051241163 1.1709854e-38 353 205
0.049657907 0.833 0.051118433 1.2906217e-38 354 205
0.051118433 0.833 0.051118433 1.2998412e-38 355 205
0.052452717 0.83099997 0.050995696 1.2999134e-38 356 205
0.053779993 0.829 0.050872963 1.3183527e-38 357 205
0.055233505 0.829 0.050872963 1.2538198e-38 358 205
0.056413498 0.82499999 0.0506275 1.2906622e-38 359 205
0.057439201 0.81900001 0.0502593 1.3373411e-38 360 205
0.058875177 0.81900001 0.0502593 1.44794e-38 361 205
-0.07629279 0.82099998 0.048942544 1.466049e-38 267 206
-0.074853301 0.82099998 0.048942544 1.5853568e-38 268 206
-0.073413812 0.82099998 0.048942544 1.6314546e-38 269 206
-0.071799003 0.81900001 0.048823319 1.6684025e-38 270 206
-0.070363015 0.81900001 0.048823319 1.6868418e-38 271 206
-0.068927035 0.81900001 0.048823319 1.7236833e-38 272 206
-0.067655869 0.82099998 0.048942544 1.7329029e-38 273 206
-0.066055074 0.81900001 0.048823319 1.7696735e-38 274 206
-0.064619094 0.81900001 0.048823319 1.7788932e-38 275 206
-0.063183114 0.81900001 0.048823319 1.7788582e-38 276 206
-0.061747137 0.81900001 0.048823319 1.7696385e-38 277 206
-0.060311157 0.81900001 0.048823319 1.7420524e-38 278 206
-0.058875177 0.81900001 0.048823319 1.7327969e-38 279 206
-0.057439201 0.81900001 0.048823319 1.732725e-38 280 206
-0.056003217 0.81900001 0.048823319 1.7050662e-38 281 206
-0.054567236 0.81900001 0.048823319 1.6866265e-38 282 206
-0.053131256 0.81900001 0.048823319 1.631345e-38 283 206
-0.051821519 0.82099998 0.048942544 1.6219461e-38 284 206
-0.050382029 0.82099998 0.048942544 1.6219461e-38 285 206
-0.049061771 0.82300001 0.049061771 1.5941445e-38 286 206
-0.04761878 0.82300001 0.049061771 1.5757053e-38 287 206
-0.046175785 0.82300001 0.049061771 1.5113482e-38 288 206
-0.044732794 0.82300001 0.049061771 1.5021286e-38 289 206
-0.043394998 0.82499999 0.049180996 1.4652501e-38 290 206
-0.041948497 0.82499999 0.049180996 1.4099327e-38 291 206
-0.040502001 0.82499999 0.049180996 1.3821649e-38 292 206
-0.039055496 0.82499999 0.049180996 1.3176279e-38 293 206
-0.037608996 0.82499999 0.049180996 1.2256121e-38 294 206
-0.036250167 0.82700002 0.049300224 1.1795143e-38 295 206
-0.034800157 0.82700002 0.049300224 1.1517502e-38 296 206
-0.033350151 0.82700002 0.049300224 1.1609698e-38 297 206
-0.031900145 0.82700002 0.049300224 1.1240579e-38 298 206
-0.030523779 0.829 0.049419452 1.1148383e-38 299 206
-0.029070266 0.829 0.049419452 1.0781397e-38 300 206
-0.027683379 0.83099997 0.049538679 1.0873594e-38 301 206
-0.026226358 0.83099997 0.049538679 1.0781394e-38 302 206
-0.024828954 0.833 0.049657907 1.0781394e-38 303 206
-0.023368426 0.833 0.049657907 1.0597729e-38 304 206
-0.0219079 0.833 0.049657907 1.0505533e-38 305 206
-0.020447372 0.833 0.049657907 1.0597366e-38 306 206
-0.019032432 0.83499998 0.049777132 1.0597366e-38 307 206
-0.017610481 0.83700001 0.049896359 1.0413691e-38 308 206
-0.016142938 0.83700001 0.049896359 1.0413691e-38 309 206
0.036688499 0.83700001 0.049896359 9.1204912e-39 345 206
0.03815604 0.83700001 0.049896359 8.9371761e-39 346 206
0.039718259 0.83899999 0.050015584 9.0293732e-39 347 206
0.041189305 0.83899999 0.050015584 9.1226408e-39 348 206
0.042558659 0.83700001 0.049896359 9.2148364e-39 349 206
0.0440262 0.83700001 0.049896359 9.0322402e-39 350 206
0.045493741 0.83700001 0.049896359 9.4010227e-39 351 206
0.046849065 0.83499998 0.049777132 9.4971686e-39 352 206
0.048313096 0.83499998 0.049777132 1.0418765e-38 353 206
0.049657907 0.833 0.049657907 1.1249235e-38 354 206
0.051118433 0.833 0.049657907 1.1894604e-38 355 206
0.052452717 0.83099997 0.049538679 1.2903715e-38 356 206
0.053909738 0.83099997 0.049538679 1.3180302e-38 357 206
0.055233505 0.829 0.049419452 1.327215e-38 358 206
0.056550261 0.82700002 0.049300224 1.3548379e-38 359 206
0.057439201 0.81900001 0.048823319 1.1438001e-38 360 206
0.058731399 0.81699997 0.048704091 1.3005325e-38 361 206
0.060163878 0.81699997 0.048704091 1.4385778e-38 362 206
-0.077542923 0.81900001 0.047387339 1.5209312e-38 266 207
-0.076106943 0.81900001 0.047387339 1.5117117e-38 267 207
-0.074670963 0.81900001 0.047387339 1.6590389e-38 268 207
-0.073234983 0.81900001 0.047387339 1.6866974e-38 269 207
-0.071799003 0.81900001 0.047387339 1.7234678e-38 270 207
-0.070363015 0.81900001 0.047387339 1.7511625e-38 271 207
-0.068927035 0.81900001 0.047387339 1.7512341e-38 272 207
-0.067491055 0.81900001 0.047387339 1.7696732e-38 273 207
-0.066055074 0.81900001 0.047387339 1.7696385e-38 274 207
-0.064619094 0.81900001 0.047387339 1.7788582e-38 275 207
-0.063183114 0.81900001 0.047387339 1.7788228e-38 276 207
-0.061747137 0.81900001 0.047387339 1.7696031e-38 277 207
-0.060163878 0.81699997 0.047271617 1.7327969e-38 278 207
-0.058731399 0.81699997 0.047271617 1.7143578e-38 279 207
-0.057439201 0.81900001 0.047387339 1.6775521e-38 280 207
-0.056003217 0.81900001 0.047387339 1.6406739e-38 281 207
-0.054567236 0.81900001 0.047387339 1.6221631e-38 282 207
-0.053131256 0.81900001 0.047387339 1.6129076e-38 283 207
-0.05169528 0.81900001 0.047387339 1.6127278e-38 284 207
-0.0502593 0.81900001 0.047387339 1.5758854e-38 285 207
-0.048942544 0.82099998 0.047503054 1.5574463e-38 286 207
-0.04761878 0.82300001 0.04761878 1.5297517e-38 287 207
-0.046175785 0.82300001 0.04761878 1.4929093e-38 288 207
-0.044732794 0.82300001 0.04761878 1.4836539e-38 289 207
-0.043289799 0.82300001 0.04761878 1.409968e-38 290 207
-0.041948497 0.82499999 0.047734499 1.3362115e-38 291 207
-0.040502001 0.82499999 0.047734499 1.2808222e-38 292 207
-0.039055496 0.82499999 0.047734499 1.2531275e-38 293 207
-0.037608996 0.82499999 0.047734499 1.1886657e-38 294 207
-0.036250167 0.82700002 0.047850218 1.160971e-38 295 207
-0.034800157 0.82700002 0.047850218 1.1057638e-38 296 207
-0.033350151 0.82700002 0.047850218 1.0965083e-38 297 207
-0.031977292 0.829 0.04796594 1.0873244e-38 298 207
-0.030597419 0.83099997 0.048081655 1.0781048e-38 299 207
-0.029140398 0.83099997 0.048081655 1.0781041e-38 300 207
-0.027683379 0.83099997 0.048081655 1.059701e-38 301 207
-0.02628948 0.833 0.048197377 1.0505886e-38 302 207
-0.024828954 0.833 0.048197377 1.0598082e-38 303 207
-0.023368426 0.833 0.048197377 1.0597013e-38 304 207
-0.021960499 0.83499998 0.048313096 1.0597013e-38 305 207
-0.020496465 0.83499998 0.048313096 1.0321871e-38 306 207
0.0440262 0.83700001 0.048428819 8.2961367e-39 350 207
0.045493741 0.83700001 0.048428819 8.5730823e-39 351 207
0.046961278 0.83700001 0.048428819 8.2997367e-39 352 207
0.048313096 0.83499998 0.048313096 9.1291372e-39 353 207
0.049657907 0.833 0.048197377 1.0416273e-38 354 207
0.050995696 0.83099997 0.048081655 1.1245674e-38 355 207
0.052452717 0.83099997 0.048081655 1.1799185e-38 356 207
0.053909738 0.83099997 0.048081655 1.2352358e-38 357 207
0.055366758 0.83099997 0.048081655 1.2444902e-38 358 207
0.05668702 0.829 0.04796594 1.2537457e-38 359 207
0.057579465 0.82099998 0.047503054 1.1891399e-38 360 207
0.058731399 0.81699997 0.047271617 1.2628964e-38 361 207
0.060163878 0.81699997 0.047271617 1.2818086e-38 362 207
0.061596353 0.81699997 0.047271617 1.4201021e-38 363 207
-0.077353559 0.81699997 0.045839142 1.5761034e-38 266 208
-0.075921081 0.81699997 0.045839142 1.6130177e-38 267 208
-0.074670963 0.81900001 0.045951359 1.6958101e-38 268 208
-0.073056139 0.81699997 0.045839142 1.7234327e-38 269 208
-0.071623661 0.81699997 0.045839142 1.7511622e-38 270 208
-0.07019119 0.81699997 0.045839142 1.7603818e-38 271 208
-0.068758719 0.81699997 0.045839142 1.7696732e-38 272 208
-0.06732624 0.81699997 0.045839142 1.7696732e-38 273 208
-0.065893769 0.81699997 0.045839142 1.7788579e-38 274 208
-0.064461298 0.81699997 0.045839142 1.7788579e-38 275 208
-0.06302882 0.81699997 0.045839142 1.7787861e-38 276 208
-0.061596353 0.81699997 0.045839142 1.760347e-38 277 208
-0.060163878 0.81699997 0.045839142 1.7235408e-38 278 208
-0.058731399 0.81699997 0.045839142 1.6958819e-38 279 208
-0.057298932 0.81699997 0.045839142 1.6682603e-38 280 208
-0.055866458 0.81699997 0.045839142 1.6221626e-38 281 208
-0.054433983 0.81699997 0.045839142 1.6036517e-38 282 208
-0.053001508 0.81699997 0.045839142 1.5851767e-38 283 208
-0.05169528 0.81900001 0.045951359 1.5942169e-38 284 208
-0.0502593 0.81900001 0.045951359 1.5573388e-38 285 208
-0.048823319 0.81900001 0.045951359 1.5113855e-38 286 208
-0.047503054 0.82099998 0.046063572 1.4929103e-38 287 208
-0.046063572 0.82099998 0.046063572 1.4468115e-38 288 208
-0.044624086 0.82099998 0.046063572 1.3822746e-38 289 208
-0.043289799 0.82300001 0.046175785 1.2717474e-38 290 208
-0.041948497 0.82499999 0.046287999 1.2072105e-38 291 208
-0.040502001 0.82499999 0.046287999 1.1516427e-38 292 208
-0.039055496 0.82499999 0.046287999 1.1885208e-38 293 208
-0.037700173 0.82700002 0.046400212 1.1792309e-38 294 208
-0.036250167 0.82700002 0.046400212 1.1515724e-38 295 208
-0.034800157 0.82700002 0.046400212 1.0965074e-38 296 208
-0.033350151 0.82700002 0.046400212 1.0965074e-38 297 208
-0.031977292 0.829 0.046512425 1.0781041e-38 298 208
-0.030597419 0.83099997 0.046624638 1.0781041e-38 299 208
-0.029140398 0.83099997 0.046624638 1.0597013e-38 300 208
-0.027750006 0.833 0.046736851 1.0597013e-38 301 208
-0.02628948 0.833 0.046736851 1.0505536e-38 302 208
-0.024828954 0.833 0.046736851 1.0412982e-38 303 208
-0.023424532 0.83499998 0.046849065 1.0504817e-38 304 208
-0.021960499 0.83499998 0.046849065 1.0412263e-38 305 208
0.048313096 0.83499998 0.046849065 9.2173573e-39 353 208
0.049657907 0.833 0.046736851 9.6779754e-39 354 208
0.050995696 0.83099997 0.046624638 1.0047118e-38 355 208
0.052452717 0.83099997 0.046624638 1.0692485e-38 356 208
0.053909738 0.83099997 0.046624638 1.1337854e-38 357 208
0.055366758 0.83099997 0.046624638 1.2166876e-38 358 208
0.05668702 0.829 0.046512425 1.2259072e-38 359 208
0.057719734 0.82300001 0.046175785 1.2717895e-38 360 208
0.059018951 0.82099998 0.046063572 1.2349472e-38 361 208
0.060163878 0.81699997 0.045839142 1.0604273e-38 362 208
0.061596353 0.81699997 0.045839142 1.1802816e-38 363 208
0.063183114 0.81900001 0.045951359 1.2909201e-38 364 208
0.064619094 0.81900001 0.045951359 1.3738964e-38 365 208
0.066055074 0.81900001 0.045951359 1.392516e-38 366 208
-0.078786023 0.81699997 0.044406671 1.4750517e-38 265 209
-0.077353559 0.81699997 0.044406671 1.6313827e-38 266 209
-0.075921081 0.81699997 0.044406671 1.6590054e-38 267 209
-0.074488603 0.81699997 0.044406671 1.7233606e-38 268 209
-0.073056139 0.81699997 0.044406671 1.7510553e-38 269 209
-0.071623661 0.81699997 0.044406671 1.7603818e-38 270 209
-0.07019119 0.81699997 0.044406671 1.7696013e-38 271 209
-0.068758719 0.81699997 0.044406671 1.7972247e-38 272 209
-0.06732624 0.81699997 0.044406671 1.7972247e-38 273 209
-0.065893769 0.81699997 0.044406671 1.7971541e-38 274 209
-0.064461298 0.81699997 0.044406671 1.7787508e-38 275 209
-0.06302882 0.81699997 0.044406671 1.7603836e-38 276 209
-0.061596353 0.81699997 0.044406671 1.7235055e-38 277 209
-0.060163878 0.81699997 0.044406671 1.7050662e-38 278 209
-0.058731399 0.81699997 0.044406671 1.6866271e-38 279 209
-0.057298932 0.81699997 0.044406671 1.631418e-38 280 209
-0.055866458 0.81699997 0.044406671 1.6037233e-38 281 209
-0.054433983 0.81699997 0.044406671 1.5851767e-38 282 209
-0.053001508 0.81699997 0.044406671 1.5667374e-38 283 209
-0.051569037 0.81699997 0.044406671 1.5298599e-38 284 209
-0.0502593 0.81900001 0.044515379 1.5113849e-38 285 209
-0.048823319 0.81900001 0.044515379 1.4745791e-38 286 209
-0.047387339 0.81900001 0.044515379 1.4192617e-38 287 209
-0.046063572 0.82099998 0.044624086 1.3823466e-38 288 209
-0.044624086 0.82099998 0.044624086 1.30859e-38 289 209
-0.043289799 0.82300001 0.044732794 1.2164666e-38 290 209
-0.041948497 0.82499999 0.044841498 1.1519297e-38 291 209
-0.040502001 0.82499999 0.044841498 1.1426398e-38 292 209
-0.039055496 0.82499999 0.044841498 1.1242007e-38 293 209
-0.037700173 0.82700002 0.044950206 1.1057269e-38 294 209
-0.036250167 0.82700002 0.044950206 1.0965074e-38 295 209
-0.034800157 0.82700002 0.044950206 1.0964718e-38 296 209
-0.033430804 0.829 0.04505891 1.0872522e-38 297 209
-0.032054439 0.83099997 0.045167617 1.050518e-38 298 209
-0.030597419 0.83099997 0.045167617 1.050518e-38 299 209
-0.029210532 0.833 0.045276325 1.0780328e-38 300 209
-0.027750006 0.833 0.045276325 1.0780328e-38 301 209
-0.02628948 0.833 0.045276325 1.0229316e-38 302 209
0.049657907 0.833 0.045276325 8.8496664e-39 354 209
0.050995696 0.83099997 0.045167617 9.1262533e-39 355 209
0.052452717 0.83099997 0.045167617 9.8620079e-39 356 209
0.053909738 0.83099997 0.045167617 1.0507377e-38 357 209
0.055366758 0.83099997 0.045167617 1.1336761e-38 358 209
0.05668702 0.829 0.04505891 1.1797739e-38 359 209
0.057719734 0.82300001 0.044732794 1.2164355e-38 360 209
0.059018951 0.82099998 0.044624086 1.207216e-38 361 209
0.060311157 0.81900001 0.044515379 1.1335339e-38 362 209
0.061747137 0.81900001 0.044515379 1.1335339e-38 363 209
0.063183114 0.81900001 0.044515379 1.1244267e-38 364 209
0.064619094 0.81900001 0.044515379 1.1244267e-38 365 209
0.066055074 0.81900001 0.044515379 1.04174e-38 366 209
0.067491055 0.81900001 0.044515379 9.4036081e-39 367 209
-0.080218501 0.81699997 0.042974196 1.5485539e-38 264 210
-0.078786023 0.81699997 0.042974196 1.5762486e-38 265 210
-0.077353559 0.81699997 0.042974196 1.6681886e-38 266 210
-0.075921081 0.81699997 0.042974196 1.6865918e-38 267 210
-0.074488603 0.81699997 0.042974196 1.7418357e-38 268 210
-0.073056139 0.81699997 0.042974196 1.7694584e-38 269 210
-0.071448334 0.815 0.042869002 1.7696019e-38 270 210
-0.070019364 0.815 0.042869002 1.7788214e-38 271 210
-0.068590395 0.815 0.042869002 1.7788228e-38 272 210
-0.067161433 0.815 0.042869002 1.7696031e-38 273 210
-0.065732464 0.815 0.042869002 1.7695327e-38 274 210
-0.064461298 0.81699997 0.042974196 1.760313e-38 275 210
-0.06302882 0.81699997 0.042974196 1.7326903e-38 276 210
-0.061596353 0.81699997 0.042974196 1.7049957e-38 277 210
-0.060163878 0.81699997 0.042974196 1.6681884e-38 278 210
-0.058731399 0.81699997 0.042974196 1.6405297e-38 279 210
-0.057298932 0.81699997 0.042974196 1.603723e-38 280 210
-0.055866458 0.81699997 0.042974196 1.5852839e-38 281 210
-0.054433983 0.81699997 0.042974196 1.5575176e-38 282 210
-0.053001508 0.81699997 0.042974196 1.5298949e-38 283 210
-0.051569037 0.81699997 0.042974196 1.5022008e-38 284 210
-0.0502593 0.81900001 0.043079399 1.4745422e-38 285 210
-0.048823319 0.81900001 0.043079399 1.4101491e-38 286 210
-0.047387339 0.81900001 0.043079399 1.3179894e-38 287 210
-0.045951359 0.81900001 0.043079399 1.2810033e-38 288 210
-0.044624086 0.82099998 0.043184597 1.2164664e-38 289 210
-0.043289799 0.82300001 0.043289799 1.1611146e-38 290 210
-0.041948497 0.82499999 0.043394998 1.1334199e-38 291 210
-0.040502001 0.82499999 0.043394998 1.1241653e-38 292 210
-0.039055496 0.82499999 0.043394998 1.1057622e-38 293 210
-0.037700173 0.82700002 0.0435002 1.0965071e-38 294 210
-0.036250167 0.82700002 0.0435002 1.0872874e-38 295 210
-0.034884319 0.829 0.043605398 1.0780328e-38 296 210
-0.033430804 0.829 0.043605398 1.0687773e-38 297 210
-0.032131586 0.833 0.043815799 1.0412987e-38 298 210
-0.030671058 0.833 0.043815799 1.0412987e-38 299 210
-0.029210532 0.833 0.043815799 1.0137121e-38 300 210
0.051241163 0.83499998 0.043920998 8.8496664e-39 355 210
0.05257896 0.833 0.043815799 9.2166511e-39 356 210
0.053909738 0.83099997 0.043710597 9.4935967e-39 357 210
0.055366758 0.83099997 0.043710597 1.0046415e-38 358 210
0.056823779 0.83099997 0.043710597 1.0507393e-38 359 210
0.058140531 0.829 0.043605398 1.1517579e-38 360 210
0.059450272 0.82700002 0.0435002 1.1701969e-38 361 210
0.060752995 0.82499999 0.043394998 1.1517582e-38 362 210
0.062199496 0.82499999 0.043394998 1.1056243e-38 363 210
0.06349171 0.82300001 0.043289799 1.0133947e-38 364 210
0.064776897 0.82099998 0.043184597 9.5807729e-39 365 210
0.066216379 0.82099998 0.043184597 8.4762302e-39 366 210
0.067655869 0.82099998 0.043184597 5.065352e-39 367 210
0.069095351 0.82099998 0.043184597 4.8089214e-39 368 210
-0.08165098 0.81699997 0.041541722 1.4109115e-38 263 211
-0.080218501 0.81699997 0.041541722 1.6220925e-38 264 211
-0.078786023 0.81699997 0.041541722 1.6497152e-38 265 211
-0.077164195 0.815 0.041440032 1.6681886e-38 266 211
-0.075735234 0.815 0.041440032 1.705031e-38 267 211
-0.074306265 0.815 0.041440032 1.7418723e-38 268 211
-0.072877295 0.815 0.041440032 1.7603114e-38 269 211
-0.071448334 0.815 0.041440032 1.7695666e-38 270 211
-0.070019364 0.815 0.041440032 1.7787861e-38 271 211
-0.068590395 0.815 0.041440032 1.7696034e-38 272 211
-0.067161433 0.815 0.041440032 1.7696034e-38 273 211
-0.065732464 0.815 0.041440032 1.760313e-38 274 211
-0.064303495 0.815 0.041440032 1.7326903e-38 275 211
-0.06302882 0.81699997 0.041541722 1.7142512e-38 276 211
-0.061596353 0.81699997 0.041541722 1.6865564e-38 277 211
-0.060163878 0.81699997 0.041541722 1.6221629e-38 278 211
-0.058731399 0.81699997 0.041541722 1.594504e-38 279 211
-0.057298932 0.81699997 0.041541722 1.5852123e-38 280 211
-0.055866458 0.81699997 0.041541722 1.5575176e-38 281 211
-0.054433983 0.81699997 0.041541722 1.5482261e-38 282 211
-0.053001508 0.81699997 0.041541722 1.529787e-38 283 211
-0.051569037 0.81699997 0.041541722 1.4654301e-38 284 211
-0.050136562 0.81699997 0.041541722 1.3916378e-38 285 211
-0.048704091 0.81699997 0.041541722 1.3180611e-38 286 211
-0.047271617 0.81699997 0.041541722 1.2074623e-38 287 211
-0.045951359 0.81900001 0.041643418 1.2072118e-38 288 211
-0.044515379 0.81900001 0.041643418 1.1611141e-38 289 211
-0.043184597 0.82099998 0.041745111 1.1426048e-38 290 211
-0.041948497 0.82499999 0.041948497 1.1241298e-38 291 211
-0.040502001 0.82499999 0.041948497 1.0873597e-38 292 211
-0.039055496 0.82499999 0.041948497 1.0873597e-38 293 211
-0.037700173 0.82700002 0.04205019 1.0872874e-38 294 211
-0.036250167 0.82700002 0.04205019 1.0780678e-38 295 211
-0.034884319 0.829 0.042151887 1.0688127e-38 296 211
-0.033511456 0.83099997 0.042253576 1.0595931e-38 297 211
0.053909738 0.83099997 0.042253576 9.0337046e-39 357 211
0.055366758 0.83099997 0.042253576 9.9524197e-39 358 211
0.056823779 0.83099997 0.042253576 1.0229008e-38 359 211
0.058140531 0.829 0.042151887 1.1331388e-38 360 211
0.059450272 0.82700002 0.04205019 1.1607977e-38 361 211
0.060900278 0.82700002 0.04205019 1.1425736e-38 362 211
0.062350284 0.82700002 0.04205019 1.114915e-38 363 211
0.063645996 0.82499999 0.041948497 1.0778216e-38 364 211
0.065092497 0.82499999 0.041948497 1.0409792e-38 365 211
0.066377692 0.82300001 0.041846808 9.4896436e-39 366 211
0.067820683 0.82300001 0.041846808 7.000363e-39 367 211
0.069263682 0.82300001 0.041846808 7.9244956e-39 368 211
-0.086158797 0.81900001 0.040207438 1.7519321e-38 260 212
-0.084722817 0.81900001 0.040207438 1.5675408e-38 261 212
-0.083286837 0.81900001 0.040207438 1.5486988e-38 262 212
-0.08165098 0.81699997 0.040109251 1.4933814e-38 263 212
-0.080218501 0.81699997 0.040109251 1.631418e-38 264 212
-0.078786023 0.81699997 0.040109251 1.6590407e-38 265 212
-0.077164195 0.815 0.040011063 1.7233974e-38 266 212
-0.075735234 0.815 0.040011063 1.7326171e-38 267 212
-0.074123919 0.81300002 0.039912879 1.7603114e-38 268 212
-0.072698459 0.81300002 0.039912879 1.769531e-38 269 212
-0.071097665 0.81099999 0.039814692 1.7696029e-38 270 212
-0.069675706 0.81099999 0.039814692 1.7603833e-38 271 212
-0.068253763 0.81099999 0.039814692 1.760348e-38 272 212
-0.066831805 0.81099999 0.039814692 1.7511284e-38 273 212
-0.065409854 0.81099999 0.039814692 1.7418373e-38 274 212
-0.064303495 0.815 0.040011063 1.7326177e-38 275 212
-0.062874533 0.815 0.040011063 1.6865564e-38 276 212
-0.06144556 0.815 0.040011063 1.6497142e-38 277 212
-0.060016599 0.815 0.040011063 1.6220195e-38 278 212
-0.058731399 0.81699997 0.040109251 1.5943968e-38 279 212
-0.057298932 0.81699997 0.040109251 1.5484062e-38 280 212
-0.055866458 0.81699997 0.040109251 1.5114921e-38 281 212
-0.054433983 0.81699997 0.040109251 1.483869e-38 282 212
-0.053001508 0.81699997 0.040109251 1.4654299e-38 283 212
-0.051569037 0.81699997 0.040109251 1.4285518e-38 284 212
-0.050136562 0.81699997 0.040109251 1.336356e-38 285 212
-0.048704091 0.81699997 0.040109251 1.2626373e-38 286 212
-0.047271617 0.81699997 0.040109251 1.1981004e-38 287 212
-0.045951359 0.81900001 0.040207438 1.1795556e-38 288 212
-0.044515379 0.81900001 0.040207438 1.1426413e-38 289 212
-0.043184597 0.82099998 0.040305622 1.1150187e-38 290 212
-0.041948497 0.82499999 0.040502001 1.0965437e-38 291 212
-0.040502001 0.82499999 0.040502001 1.0873597e-38 292 212
-0.039055496 0.82499999 0.040502001 1.0873597e-38 293 212
-0.037700173 0.82700002 0.040600184 1.0780322e-38 294 212
-0.036250167 0.82700002 0.040600184 1.0595931e-38 295 212
-0.034884319 0.829 0.040698372 1.0136758e-38 296 212
-0.033430804 0.829 0.040698372 9.9520077e-39 297 212
0.055500012 0.833 0.040894743 9.5843448e-39 358 212
0.056823779 0.83099997 0.040796559 9.8605716e-39 359 212
0.058280796 0.83099997 0.040796559 1.0412673e-38 360 212
0.059594043 0.829 0.040698372 1.0873651e-38 361 212
0.060900278 0.82700002 0.040600184 1.1150592e-38 362 212
0.062350284 0.82700002 0.040600184 1.0689972e-38 363 212
0.06380029 0.82700002 0.040600184 1.0778216e-38 364 212
0.0652503 0.82700002 0.040600184 1.0409792e-38 365 212
0.066538997 0.82499999 0.040502001 9.9481037e-39 366 212
0.067985497 0.82499999 0.040502001 8.0119954e-39 367 212
0.069431998 0.82499999 0.040502001 9.8566507e-39 368 212
0.071050331 0.82700002 0.040600184 1.5849367e-38 369 212
-0.087594777 0.81900001 0.038771462 1.7335305e-38 259 213
-0.086158797 0.81900001 0.038771462 1.6412582e-38 260 213
-0.084722817 0.81900001 0.038771462 1.4015496e-38 261 213
-0.083286837 0.81900001 0.038771462 1.5760666e-38 262 213
-0.08165098 0.81699997 0.03867678 1.6129448e-38 263 213
-0.080218501 0.81699997 0.03867678 1.6773707e-38 264 213
-0.078593165 0.815 0.038582098 1.7050293e-38 265 213
-0.077164195 0.815 0.038582098 1.7234327e-38 266 213
-0.075735234 0.815 0.038582098 1.760347e-38 267 213
-0.074123919 0.81300002 0.038487419 1.769531e-38 268 213
-0.072698459 0.81300002 0.038487419 1.7787864e-38 269 213
-0.071097665 0.81099999 0.038392738 1.7420874e-38 270 213
-0.069675706 0.81099999 0.038392738 1.7420874e-38 271 213
-0.068253763 0.81099999 0.038392738 1.7510916e-38 272 213
-0.066831805 0.81099999 0.038392738 1.7510916e-38 273 213
-0.065409854 0.81099999 0.038392738 1.7050662e-38 274 213
-0.064303495 0.815 0.038582098 1.6866271e-38 275 213
-0.062874533 0.815 0.038582098 1.6773e-38 276 213
-0.06144556 0.815 0.038582098 1.6404577e-38 277 213
-0.060016599 0.815 0.038582098 1.5944321e-38 278 213
-0.058731399 0.81699997 0.03867678 1.5575179e-38 279 213
-0.057298932 0.81699997 0.03867678 1.5115274e-38 280 213
-0.055866458 0.81699997 0.03867678 1.474685e-38 281 213
-0.054433983 0.81699997 0.03867678 1.4654652e-38 282 213
-0.053001508 0.81699997 0.03867678 1.3824532e-38 283 213
-0.051569037 0.81699997 0.03867678 1.2810386e-38 284 213
-0.050136562 0.81699997 0.03867678 1.2165017e-38 285 213
-0.048704091 0.81699997 0.03867678 1.2346556e-38 286 213
-0.047387339 0.81900001 0.038771462 1.2162165e-38 287 213
-0.045951359 0.81900001 0.038771462 1.1701202e-38 288 213
-0.044624086 0.82099998 0.03886614 1.1424976e-38 289 213
-0.043289799 0.82300001 0.038960818 1.1057985e-38 290 213
-0.041948497 0.82499999 0.039055496 1.0873594e-38 291 213
-0.040502001 0.82499999 0.039055496 1.0781394e-38 292 213
-0.039055496 0.82499999 0.039055496 1.0505167e-38 293 213
-0.037700173 0.82700002 0.039150178 1.0688127e-38 294 213
-0.036250167 0.82700002 0.039150178 1.0227509e-38 295 213
-0.034800157 0.82700002 0.039150178 9.8569436e-39 296 213
0.056960538 0.833 0.039434217 8.9443788e-39 359 213
0.058280796 0.83099997 0.039339535 1.0321181e-38 360 213
0.059594043 0.829 0.039244857 1.0413377e-38 361 213
0.061047558 0.829 0.039244857 1.123954e-38 362 213
0.062501073 0.829 0.039244857 1.0963314e-38 363 213
0.06380029 0.82700002 0.039150178 1.0593823e-38 364 213
0.0652503 0.82700002 0.039150178 9.948454e-39 365 213
0.066700302 0.82700002 0.039150178 9.9448639e-39 366 213
0.067985497 0.82499999 0.039055496 8.3771794e-39 367 213
0.069431998 0.82499999 0.039055496 1.1241736e-38 368 213
0.071050331 0.82700002 0.039150178 1.7050061e-38 369 213
-0.089030758 0.81900001 0.037335481 1.7887397e-38 258 214
-0.087594777 0.81900001 0.037335481 1.6688854e-38 259 214
-0.086158797 0.81900001 0.037335481 1.6134155e-38 260 214
-0.084722817 0.81900001 0.037335481 1.4013656e-38 261 214
-0.083286837 0.81900001 0.037335481 1.6037218e-38 262 214
-0.08165098 0.81699997 0.037244301 1.6498196e-38 263 214
-0.080218501 0.81699997 0.037244301 1.7049212e-38 264 214
-0.078593165 0.815 0.037153132 1.7326157e-38 265 214
-0.077164195 0.815 0.037153132 1.7511272e-38 266 214
-0.075549379 0.81300002 0.03706196 1.7603467e-38 267 214
-0.074123919 0.81300002 0.03706196 1.7695666e-38 268 214
-0.072519615 0.81099999 0.036970787 1.7695666e-38 269 214
-0.071097665 0.81099999 0.036970787 1.7695666e-38 270 214
-0.069675706 0.81099999 0.036970787 1.760347e-38 271 214
-0.068253763 0.81099999 0.036970787 1.7510202e-38 272 214
-0.066831805 0.81099999 0.036970787 1.7325451e-38 273 214
-0.065409854 0.81099999 0.036970787 1.6957397e-38 274 214
-0.064145707 0.81300002 0.03706196 1.6772647e-38 275 214
-0.062874533 0.815 0.037153132 1.6403867e-38 276 214
-0.06144556 0.815 0.037153132 1.6219476e-38 277 214
-0.060016599 0.815 0.037153132 1.594324e-38 278 214
-0.058731399 0.81699997 0.037244301 1.5482261e-38 279 214
-0.057298932 0.81699997 0.037244301 1.4747566e-38 280 214
-0.055866458 0.81699997 0.037244301 1.4378785e-38 281 214
-0.054433983 0.81699997 0.037244301 1.3916731e-38 282 214
-0.053001508 0.81699997 0.037244301 1.2995135e-38 283 214
-0.051569037 0.81699997 0.037244301 1.2255433e-38 284 214
-0.050136562 0.81699997 0.037244301 1.2071402e-38 285 214
-0.048823319 0.81900001 0.037335481 1.1885951e-38 286 214
-0.047387339 0.81900001 0.037335481 1.1609363e-38 287 214
-0.045951359 0.81900001 0.037335481 1.1150184e-38 288 214
-0.044732794 0.82300001 0.037517827 1.1057988e-38 289 214
-0.043394998 0.82499999 0.037608996 1.0965787e-38 290 214
-0.041948497 0.82499999 0.037608996 1.0781394e-38 291 214
-0.040502001 0.82499999 0.037608996 1.0504812e-38 292 214
-0.039055496 0.82499999 0.037608996 1.0412616e-38 293 214
-0.037700173 0.82700002 0.037700173 9.8587443e-39 294 214
-0.036250167 0.82700002 0.037700173 9.489603e-39 295 214
0.059594043 0.829 0.037791345 1.0595603e-38 361 214
0.061047558 0.829 0.037791345 1.0595257e-38 362 214
0.062501073 0.829 0.037791345 1.0595257e-38 363 214
0.063954584 0.829 0.037791345 1.1236306e-38 364 214
0.0652503 0.82700002 0.037700173 1.1144111e-38 365 214
0.066700302 0.82700002 0.037700173 1.0958644e-38 366 214
0.068150312 0.82700002 0.037700173 9.2069275e-39 367 214
0.069600314 0.82700002 0.037700173 1.0603201e-38 368 214
0.071050331 0.82700002 0.037700173 1.5858352e-38 369 214
-0.089030758 0.81900001 0.035899501 1.7427475e-38 258 215
-0.087594777 0.81900001 0.035899501 1.4845998e-38 259 215
-0.086158797 0.81900001 0.035899501 1.5210034e-38 260 215
-0.084515922 0.81699997 0.03581183 1.5210034e-38 261 215
-0.083083443 0.81699997 0.03581183 1.640529e-38 262 215
-0.08165098 0.81699997 0.03581183 1.6682237e-38 263 215
-0.080218501 0.81699997 0.03581183 1.7234325e-38 264 215
-0.078593165 0.815 0.035724167 1.7419076e-38 265 215
-0.077164195 0.815 0.035724167 1.7603467e-38 266 215
-0.075549379 0.81300002 0.0356365 1.7695663e-38 267 215
-0.073941574 0.81099999 0.035548832 1.7604189e-38 268 215
-0.072519615 0.81099999 0.035548832 1.7604189e-38 269 215
-0.071097665 0.81099999 0.035548832 1.760347e-38 270 215
-0.069675706 0.81099999 0.035548832 1.741872e-38 271 215
-0.068253763 0.81099999 0.035548832 1.7325454e-38 272 215
-0.066831805 0.81099999 0.035548832 1.7141063e-38 273 215
-0.065409854 0.81099999 0.035548832 1.6771931e-38 274 215
-0.063987896 0.81099999 0.035548832 1.6587538e-38 275 215
-0.062720239 0.81300002 0.0356365 1.6494624e-38 276 215
-0.06144556 0.815 0.035724167 1.6217678e-38 277 215
-0.060016599 0.815 0.035724167 1.5758128e-38 278 215
-0.058587633 0.815 0.035724167 1.5389347e-38 279 215
-0.057158664 0.815 0.035724167 1.474685e-38 280 215
-0.055729698 0.815 0.035724167 1.4008926e-38 281 215
-0.054433983 0.81699997 0.03581183 1.317846e-38 282 215
-0.053001508 0.81699997 0.03581183 1.2349059e-38 283 215
-0.051569037 0.81699997 0.03581183 1.2162168e-38 284 215
-0.050136562 0.81699997 0.03581183 1.2069613e-38 285 215
-0.048823319 0.81900001 0.035899501 1.1701558e-38 286 215
-0.047387339 0.81900001 0.035899501 1.1609363e-38 287 215
-0.045951359 0.81900001 0.035899501 1.1058707e-38 288 215
-0.044732794 0.82300001 0.036074832 1.0874676e-38 289 215
-0.043394998 0.82499999 0.036162499 1.0690279e-38 290 215
-0.041948497 0.82499999 0.036162499 1.0505886e-38 291 215
-0.040502001 0.82499999 0.036162499 1.04119e-38 292 215
-0.039055496 0.82499999 0.036162499 9.7665304e-39 293 215
0.059594043 0.829 0.036337834 1.0870762e-38 361 215
0.061047558 0.829 0.036337834 1.077892e-38 362 215
0.062501073 0.829 0.036337834 1.0871115e-38 363 215
0.063954584 0.829 0.036337834 1.0687815e-38 364 215
0.065408096 0.829 0.036337834 1.0872565e-38 365 215
0.066700302 0.82700002 0.036250167 1.0963679e-38 366 215
0.068150312 0.82700002 0.036250167 9.8576905e-39 367 215
0.069768637 0.829 0.036337834 1.0603201e-38 368 215
-0.090466738 0.81900001 0.034463517 1.7059078e-38 257 216
-0.089030758 0.81900001 0.034463517 1.6597329e-38 258 216
-0.087594777 0.81900001 0.034463517 1.429208e-38 259 216
-0.086158797 0.81900001 0.034463517 1.5851788e-38 260 216
-0.084515922 0.81699997 0.034379359 1.6312768e-38 261 216
-0.083083443 0.81699997 0.034379359 1.6589685e-38 262 216
-0.08165098 0.81699997 0.034379359 1.6866271e-38 263 216
-0.080022126 0.815 0.034295198 1.732688e-38 264 216
-0.078593165 0.815 0.034295198 1.7511272e-38 265 216
-0.077164195 0.815 0.034295198 1.769531e-38 266 216
-0.075363517 0.81099999 0.034126882 1.769531e-38 267 216
-0.073941574 0.81099999 0.034126882 1.7696029e-38 268 216
-0.072519615 0.81099999 0.034126882 1.7511637e-38 269 216
-0.071097665 0.81099999 0.034126882 1.7694231e-38 270 216
-0.069675706 0.81099999 0.034126882 1.7418004e-38 271 216
-0.06808544 0.80900002 0.03404272 1.7232539e-38 272 216
-0.066666998 0.80900002 0.03404272 1.7047789e-38 273 216
-0.065409854 0.81099999 0.034126882 1.6770851e-38 274 216
-0.063987896 0.81099999 0.034126882 1.6494624e-38 275 216
-0.062720239 0.81300002 0.03421104 1.6126562e-38 276 216
-0.061294779 0.81300002 0.03421104 1.5849615e-38 277 216
-0.059869319 0.81300002 0.03421104 1.5390069e-38 278 216
-0.058587633 0.815 0.034295198 1.5113482e-38 279 216
-0.057158664 0.815 0.034295198 1.3916378e-38 280 216
-0.055729698 0.815 0.034295198 1.3363563e-38 281 216
-0.054433983 0.81699997 0.034379359 1.2532021e-38 282 216
-0.053001508 0.81699997 0.034379359 1.2347628e-38 283 216
-0.051569037 0.81699997 0.034379359 1.1978502e-38 284 216
-0.0502593 0.81900001 0.034463517 1.1701555e-38 285 216
-0.048823319 0.81900001 0.034463517 1.1425692e-38 286 216
-0.047387339 0.81900001 0.034463517 1.1333496e-38 287 216
-0.046063572 0.82099998 0.034547675 1.0874673e-38 288 216
-0.044732794 0.82300001 0.034631841 1.0690282e-38 289 216
-0.043394998 0.82499999 0.034715999 1.0597366e-38 290 216
-0.041948497 0.82499999 0.034715999 1.032042e-38 291 216
-0.040600184 0.82700002 0.034800157 9.2133692e-39 292 216
0.061047558 0.829 0.034884319 1.0688525e-38 362 216
0.062501073 0.829 0.034884319 1.0503775e-38 363 216
0.063954584 0.829 0.034884319 1.0778935e-38 364 216
0.065408096 0.829 0.034884319 1.1148076e-38 365 216
0.066861607 0.829 0.034884319 1.124027e-38 366 216
0.068315126 0.829 0.034884319 1.0778932e-38 367 216
-0.090466738 0.81900001 0.033027537 1.6413343e-38 257 217
-0.089030758 0.81900001 0.033027537 1.5673547e-38 258 217
-0.087594777 0.81900001 0.033027537 1.4290613e-38 259 217
-0.086158797 0.81900001 0.033027537 1.640529e-38 260 217
-0.084515922 0.81699997 0.032946885 1.6497846e-38 261 217
-0.083083443 0.81699997 0.032946885 1.6682234e-38 262 217
-0.08165098 0.81699997 0.032946885 1.7051015e-38 263 217
-0.080022126 0.815 0.032866232 1.7418723e-38 264 217
-0.078400299 0.81300002 0.03278558 1.7603114e-38 265 217
-0.076974839 0.81300002 0.03278558 1.7696031e-38 266 217
-0.075363517 0.81099999 0.032704927 1.7603836e-38 267 217
-0.073941574 0.81099999 0.032704927 1.7603114e-38 268 217
-0.072519615 0.81099999 0.032704927 1.7510918e-38 269 217
-0.071097665 0.81099999 0.032704927 1.7326171e-38 270 217
-0.069675706 0.81099999 0.032704927 1.7049943e-38 271 217
-0.06808544 0.80900002 0.032624274 1.7140707e-38 272 217
-0.066666998 0.80900002 0.032624274 1.6680089e-38 273 217
-0.065409854 0.81099999 0.032704927 1.6494621e-38 274 217
-0.063987896 0.81099999 0.032704927 1.631023e-38 275 217
-0.062720239 0.81300002 0.03278558 1.5942166e-38 276 217
-0.061294779 0.81300002 0.03278558 1.5573744e-38 277 217
-0.059869319 0.81300002 0.03278558 1.5113485e-38 278 217
-0.058587633 0.815 0.032866232 1.4836539e-38 279 217
-0.057158664 0.815 0.032866232 1.317846e-38 280 217
-0.055729698 0.815 0.032866232 1.2625645e-38 281 217
-0.054433983 0.81699997 0.032946885 1.1979572e-38 282 217
-0.053001508 0.81699997 0.032946885 1.1887376e-38 283 217
-0.05169528 0.81900001 0.033027537 1.1702639e-38 284 217
-0.0502593 0.81900001 0.033027537 1.1425692e-38 285 217
-0.048823319 0.81900001 0.033027537 1.11509e-38 286 217
-0.047503054 0.82099998 0.03310819 1.0874673e-38 287 217
-0.046175785 0.82300001 0.033188846 1.096579e-38 288 217
-0.044732794 0.82300001 0.033188846 1.0781397e-38 289 217
-0.043394998 0.82499999 0.033269498 1.0411544e-38 290 217
-0.090245813 0.81699997 0.03151441 1.530662e-38 257 218
-0.088813342 0.81699997 0.03151441 1.5301861e-38 258 218
-0.087380864 0.81699997 0.03151441 1.5209666e-38 259 218
-0.085948393 0.81699997 0.03151441 1.63138e-38 260 218
-0.084515922 0.81699997 0.03151441 1.6498193e-38 261 218
-0.083083443 0.81699997 0.03151441 1.6958098e-38 262 218
-0.081451096 0.815 0.031437267 1.7234325e-38 263 218
-0.080022126 0.815 0.031437267 1.7510918e-38 264 218
-0.078400299 0.81300002 0.03136012 1.769531e-38 265 218
-0.076974839 0.81300002 0.03136012 1.7603833e-38 266 218
-0.075363517 0.81099999 0.031282969 1.7511637e-38 267 218
-0.073941574 0.81099999 0.031282969 1.7510916e-38 268 218
-0.072519615 0.81099999 0.031282969 1.741872e-38 269 218
-0.07092233 0.80900002 0.031205826 1.7233974e-38 270 218
-0.069503881 0.80900002 0.031205826 1.6957748e-38 271 218
-0.06808544 0.80900002 0.031205826 1.6680807e-38 272 218
-0.066666998 0.80900002 0.031205826 1.6404221e-38 273 218
-0.065248549 0.80900002 0.031205826 1.621911e-38 274 218
-0.063987896 0.81099999 0.031282969 1.5942163e-38 275 218
-0.062565938 0.81099999 0.031282969 1.5574463e-38 276 218
-0.061294779 0.81300002 0.03136012 1.5297517e-38 277 218
-0.059869319 0.81300002 0.03136012 1.4376285e-38 278 218
-0.058587633 0.815 0.031437267 1.3823113e-38 279 218
-0.057158664 0.815 0.031437267 1.207392e-38 280 218
-0.055729698 0.815 0.031437267 1.1704777e-38 281 218
-0.054433983 0.81699997 0.03151441 1.1611156e-38 282 218
-0.053001508 0.81699997 0.03151441 1.1611156e-38 283 218
-0.05169528 0.81900001 0.031591557 1.1426413e-38 284 218
-0.0502593 0.81900001 0.031591557 1.1242382e-38 285 218
-0.049061771 0.82300001 0.031745855 1.1057988e-38 286 218
-0.04761878 0.82300001 0.031745855 1.1057988e-38 287 218
-0.046175785 0.82300001 0.031745855 1.0689926e-38 288 218
-0.044732794 0.82300001 0.031745855 1.0136752e-38 289 218
-0.090245813 0.81699997 0.030081939 1.4109484e-38 257 219
-0.088813342 0.81699997 0.030081939 1.5299318e-38 258 219
-0.087380864 0.81699997 0.030081939 1.6036883e-38 259 219
-0.085948393 0.81699997 0.030081939 1.6130135e-38 260 219
-0.084309027 0.815 0.030008299 1.6498559e-38 261 219
-0.082880065 0.815 0.030008299 1.6866271e-38 262 219
-0.081251219 0.81300002 0.02993466 1.7142859e-38 263 219
-0.079825759 0.81300002 0.02993466 1.7235423e-38 264 219
-0.078207433 0.81099999 0.02986102 1.7419814e-38 265 219
-0.076785475 0.81099999 0.02986102 1.7511287e-38 266 219
-0.075363517 0.81099999 0.02986102 1.7511287e-38 267 219
-0.073759228 0.80900002 0.02978738 1.7142862e-38 268 219
-0.072340779 0.80900002 0.02978738 1.7050665e-38 269 219
-0.07092233 0.80900002 0.02978738 1.7048508e-38 270 219
-0.069503881 0.80900002 0.02978738 1.6772281e-38 271 219
-0.06808544 0.80900002 0.02978738 1.6771201e-38 272 219
-0.066666998 0.80900002 0.02978738 1.6402779e-38 273 219
-0.065248549 0.80900002 0.02978738 1.594324e-38 274 219
-0.063830093 0.80900002 0.02978738 1.5574457e-38 275 219
-0.062565938 0.81099999 0.02986102 1.5297514e-38 276 219
-0.061143994 0.81099999 0.02986102 1.4836895e-38 277 219
-0.059869319 0.81300002 0.02993466 1.3639803e-38 278 219
-0.058587633 0.815 0.030008299 1.3178465e-38 279 219
-0.057158664 0.815 0.030008299 1.1796622e-38 280 219
-0.055866458 0.81699997 0.030081939 1.1520396e-38 281 219
-0.054433983 0.81699997 0.030081939 1.1427491e-38 282 219
-0.053131256 0.81900001 0.030155579 1.1335295e-38 283 219
-0.05169528 0.81900001 0.030155579 1.1242746e-38 284 219
-0.0502593 0.81900001 0.030155579 1.1058354e-38 285 219
-0.048942544 0.82099998 0.030229218 1.1057988e-38 286 219
-0.04761878 0.82300001 0.03030286 1.0873597e-38 287 219
-0.046175785 0.82300001 0.03030286 1.0412268e-38 288 219
-0.044732794 0.82300001 0.03030286 9.582149e-39 289 219
-0.089803979 0.81300002 0.0285092 1.4016555e-38 257 220
-0.088378519 0.81300002 0.0285092 1.5760646e-38 258 220
-0.086525239 0.80900002 0.028368933 1.5945038e-38 259 220
-0.085106798 0.80900002 0.028368933 1.6589311e-38 260 220
-0.084102139 0.81300002 0.0285092 1.6773704e-38 261 220
-0.082676686 0.81300002 0.0285092 1.7141413e-38 262 220
-0.081051342 0.81099999 0.028439065 1.7325804e-38 263 220
-0.079629384 0.81099999 0.028439065 1.7418367e-38 264 220
-0.078207433 0.81099999 0.028439065 1.7510921e-38 265 220
-0.076785475 0.81099999 0.028439065 1.7694234e-38 266 220
-0.075363517 0.81099999 0.028439065 1.7510202e-38 267 220
-0.073759228 0.80900002 0.028368933 1.7050662e-38 268 220
-0.072340779 0.80900002 0.028368933 1.6866271e-38 269 220
-0.07092233 0.80900002 0.028368933 1.6772284e-38 270 220
-0.069503881 0.80900002 0.028368933 1.6680089e-38 271 220
-0.06808544 0.80900002 0.028368933 1.6403142e-38 272 220
-0.066666998 0.80900002 0.028368933 1.621911e-38 273 220
-0.065248549 0.80900002 0.028368933 1.5667009e-38 274 220
-0.063830093 0.80900002 0.028368933 1.5390063e-38 275 220
-0.062565938 0.81099999 0.028439065 1.4561384e-38 276 220
-0.061143994 0.81099999 0.028439065 1.400821e-38 277 220
-0.059869319 0.81300002 0.0285092 1.2534528e-38 278 220
-0.058587633 0.815 0.028579332 1.1981354e-38 279 220
-0.057158664 0.815 0.028579332 1.142855e-38 280 220
-0.055866458 0.81699997 0.028649466 1.1336355e-38 281 220
-0.054567236 0.81900001 0.0287196 1.151861e-38 282 220
