# .PCD v.7 - Point Cloud Data file format
FIELDS x y z rgb imX imY
SIZE 4 4 4 4 4 4
TYPE F F F F F F
COUNT 1 1 1 1 1 1
WIDTH 851
HEIGHT 1
VIEWPOINT 0 0 0 1 0 0 0
POINTS 851
DATA ascii
0.07127475 0.76700002 -0.029585747 1.4651447e-38 373 262
0.072619557 0.76700002 -0.029585747 1.3917126e-38 374 262
0.073867925 0.76599997 -0.029547172 1.4101517e-38 375 262
0.075210981 0.76599997 -0.029547172 1.4377378e-38 376 262
0.076354161 0.764 -0.029470026 1.4469933e-38 377 262
0.077693708 0.764 -0.029470026 1.4380621e-38 378 262
0.079033248 0.764 -0.029470026 1.5118186e-38 379 262
0.080162399 0.76200002 -0.029392879 1.6129827e-38 380 262
0.081498444 0.76200002 -0.029392879 1.6406053e-38 381 262
0.082725771 0.76099998 -0.029354304 1.6775191e-38 382 262
0.084060051 0.76099998 -0.029354304 1.695958e-38 383 262
0.085169919 0.759 -0.029277159 1.751023e-38 384 262
0.086500697 0.759 -0.029277159 1.7787177e-38 385 262
0.087831482 0.759 -0.029277159 1.8154518e-38 386 262
0.08916226 0.759 -0.029277159 1.8430745e-38 387 262
0.090493038 0.759 -0.029277159 1.8431828e-38 388 262
0.091339901 0.755 -0.029122867 1.8615859e-38 389 262
0.092663661 0.755 -0.029122867 1.8615859e-38 390 262
0.093987428 0.755 -0.029122867 1.8708055e-38 391 262
0.095311195 0.755 -0.029122867 1.8064834e-38 392 262
0.096634962 0.755 -0.029122867 1.6128725e-38 393 262
0.097958729 0.755 -0.029122867 1.6124041e-38 394 262
0.099150993 0.75400001 -0.029084291 1.5386476e-38 395 262
0.10047301 0.75400001 -0.029084291 1.5571959e-38 396 262
0.10179503 0.75400001 -0.029084291 1.6309524e-38 397 262
0.10257 0.75 -0.028929999 1.6681549e-38 398 262
0.10388499 0.75 -0.028929999 1.6865941e-38 399 262
0.1052 0.75 -0.028929999 1.7232199e-38 400 262
0.106515 0.75 -0.028929999 1.7324755e-38 401 262
0.10783 0.75 -0.028929999 1.6681915e-38 402 262
0.10914499 0.75 -0.028929999 1.6313492e-38 403 262
0.11046 0.75 -0.028929999 1.5213313e-38 404 262
0.111775 0.75 -0.028929999 1.7149421e-38 405 262
0.11308999 0.75 -0.028929999 1.8435882e-38 406 262
0.11516769 0.755 -0.029122867 1.8159296e-38 407 262
0.11649147 0.755 -0.029122867 1.7787979e-38 408 262
-0.057512842 0.78100002 -0.031495128 3.2350909e-39 278 263
-0.056143485 0.78100002 -0.031495128 1.852155e-39 279 263
-0.055054668 0.78500003 -0.031656433 7.3752202e-39 280 263
-0.0536783 0.78500003 -0.031656433 9.403524e-39 281 263
-0.052168678 0.78299999 -0.031575777 1.0788231e-38 282 263
-0.05079582 0.78299999 -0.031575777 1.1157374e-38 283 263
-0.049422957 0.78299999 -0.031575777 1.1893119e-38 284 263
-0.047927368 0.78100002 -0.031495128 1.2169705e-38 285 263
-0.046558015 0.78100002 -0.031495128 1.2630314e-38 286 263
-0.045188658 0.78100002 -0.031495128 1.2722509e-38 287 263
-0.043819305 0.78100002 -0.031495128 1.3366078e-38 288 263
-0.042449951 0.78100002 -0.031495128 1.3458274e-38 289 263
-0.041080598 0.78100002 -0.031495128 1.4008929e-38 290 263
-0.039711244 0.78100002 -0.031495128 1.4008929e-38 291 263
-0.038341891 0.78100002 -0.031495128 1.4101125e-38 292 263
-0.037067216 0.78299999 -0.031575777 1.4101125e-38 293 263
-0.035694357 0.78299999 -0.031575777 1.4008223e-38 294 263
-0.034321502 0.78299999 -0.031575777 1.4008223e-38 295 263
-0.032864477 0.78100002 -0.031495128 1.3823128e-38 296 263
-0.031495128 0.78100002 -0.031495128 1.3546902e-38 297 263
-0.030125774 0.78100002 -0.031495128 1.3269589e-38 298 263
-0.028756421 0.78100002 -0.031495128 1.2624219e-38 299 263
-0.027387068 0.78100002 -0.031495128 1.2531281e-38 300 263
-0.026017714 0.78100002 -0.031495128 1.1609326e-38 301 263
-0.024648361 0.78100002 -0.031495128 1.1515328e-38 302 263
-0.023279008 0.78100002 -0.031495128 1.0962513e-38 303 263
-0.021965759 0.78299999 -0.031575777 9.7657877e-39 304 263
-0.020645501 0.78500003 -0.031656433 9.1204183e-39 305 263
-0.019318225 0.787 -0.031737085 8.2921136e-39 306 263
-0.017938353 0.787 -0.031737085 7.9236898e-39 307 263
-0.01655848 0.787 -0.031737085 7.555643e-39 308 263
-0.015178605 0.787 -0.031737085 7.555643e-39 309 263
-0.013798732 0.787 -0.031737085 7.5570947e-39 310 263
-0.01241886 0.787 -0.031737085 8.4786909e-39 311 263
-0.011010934 0.78500003 -0.031656433 9.3081068e-39 312 263
-0.0096100196 0.78299999 -0.031575777 9.6768908e-39 313 263
-0.0082371598 0.78299999 -0.031575777 1.0412658e-38 314 263
-0.0068642995 0.78299999 -0.031575777 1.0689243e-38 315 263
-0.0055054668 0.78500003 -0.031656433 1.1332089e-38 316 263
-0.0041291001 0.78500003 -0.031656433 1.1424285e-38 317 263
-0.0027527334 0.78500003 -0.031656433 1.1516835e-38 318 263
-0.0013763667 0.78500003 -0.031656433 1.1701585e-38 319 263
0 0.78500003 -0.031656433 1.1427146e-38 320 263
0.0013763667 0.78500003 -0.031656433 1.1519342e-38 321 263
0.0027597465 0.787 -0.031737085 1.1795566e-38 322 263
0.0041396199 0.787 -0.031737085 1.1888122e-38 323 263
0.005519493 0.787 -0.031737085 1.1980317e-38 324 263
0.0069168997 0.78899997 -0.031817738 1.2164708e-38 325 263
0.0082792398 0.787 -0.031737085 1.2164706e-38 326 263
0.0096591124 0.787 -0.031737085 1.2164706e-38 327 263
0.011067039 0.78899997 -0.031817738 1.2164706e-38 328 263
0.01241886 0.787 -0.031737085 1.2164706e-38 329 263
0.013798732 0.787 -0.031737085 1.2348377e-38 330 263
0.015140033 0.78500003 -0.031656433 1.2255822e-38 331 263
0.016516401 0.78500003 -0.031656433 1.2347658e-38 332 263
0.017892767 0.78500003 -0.031656433 1.2531689e-38 333 263
0.019269135 0.78500003 -0.031656433 1.1889566e-38 334 263
0.020645501 0.78500003 -0.031656433 1.1981762e-38 335 263
0.021965759 0.78299999 -0.031575777 1.234767e-38 336 263
0.02333862 0.78299999 -0.031575777 1.2255475e-38 337 263
0.0247746 0.78500003 -0.031656433 1.2348023e-38 338 263
0.026150968 0.78500003 -0.031656433 1.2255828e-38 339 263
0.027527334 0.78500003 -0.031656433 1.2256178e-38 340 263
0.0289037 0.78500003 -0.031656433 1.2348374e-38 341 263
0.030280067 0.78500003 -0.031656433 1.2256531e-38 342 263
0.031656433 0.78500003 -0.031656433 1.2348727e-38 343 263
0.033032801 0.78500003 -0.031656433 1.2714635e-38 344 263
0.034409165 0.78500003 -0.031656433 1.2714635e-38 345 263
0.035785533 0.78500003 -0.031656433 1.2438769e-38 346 263
0.037161902 0.78500003 -0.031656433 1.2531323e-38 347 263
0.03853827 0.78500003 -0.031656433 1.2530601e-38 348 263
0.039914634 0.78500003 -0.031656433 1.2438404e-38 349 263
0.0411858 0.78299999 -0.031575777 1.2530599e-38 350 263
0.042558655 0.78299999 -0.031575777 1.2807184e-38 351 263
0.043931518 0.78299999 -0.031575777 1.271643e-38 352 263
0.045188658 0.78100002 -0.031495128 1.2808626e-38 353 263
0.046558015 0.78100002 -0.031495128 1.2718233e-38 354 263
0.047927368 0.78100002 -0.031495128 1.2994459e-38 355 263
0.049233593 0.77999997 -0.031454798 1.3270683e-38 356 263
0.050601196 0.77999997 -0.031454798 1.354727e-38 357 263
0.051968798 0.77999997 -0.031454798 1.3639816e-38 358 263
0.053199638 0.778 -0.031374145 1.3639816e-38 359 263
0.054563731 0.778 -0.031374145 1.3915324e-38 360 263
0.055927824 0.778 -0.031374145 1.3915324e-38 361 263
0.057144642 0.77600002 -0.031293493 1.3732009e-38 362 263
0.058505226 0.77600002 -0.031293493 1.3824563e-38 363 263
0.059865814 0.77600002 -0.031293493 1.3733084e-38 364 263
0.061226401 0.77600002 -0.031293493 1.3825279e-38 365 263
0.062425677 0.77399999 -0.031212838 1.3825282e-38 366 263
0.063782752 0.77399999 -0.031212838 1.3825282e-38 367 263
0.065055676 0.773 -0.03117251 1.3824926e-38 368 263
0.066239186 0.77100003 -0.031091858 1.3732731e-38 369 263
0.067591004 0.77100003 -0.031091858 1.3824563e-38 370 263
0.068763971 0.76899999 -0.031011207 1.3824563e-38 371 263
0.070112288 0.76899999 -0.031011207 1.4007876e-38 372 263
0.07127475 0.76700002 -0.030930554 1.4100071e-38 373 263
0.072619557 0.76700002 -0.030930554 1.3916406e-38 374 263
0.073867925 0.76599997 -0.030890226 1.4192634e-38 375 263
0.075210981 0.76599997 -0.030890226 1.4284464e-38 376 263
0.076354161 0.764 -0.030809574 1.4284464e-38 377 263
0.077693708 0.764 -0.030809574 1.4469933e-38 378 263
0.079033248 0.764 -0.030809574 1.4930552e-38 379 263
0.080162399 0.76200002 -0.030728921 1.511747e-38 380 263
0.081498444 0.76200002 -0.030728921 1.5670285e-38 381 263
0.082725771 0.76099998 -0.030688593 1.6222738e-38 382 263
0.084060051 0.76099998 -0.030688593 1.6499325e-38 383 263
0.085169919 0.759 -0.030607941 1.695814e-38 384 263
0.086500697 0.759 -0.030607941 1.7326921e-38 385 263
0.087831482 0.759 -0.030607941 1.806053e-38 386 263
0.08916226 0.759 -0.030607941 1.8337477e-38 387 263
0.09025459 0.75700003 -0.030527288 1.8338196e-38 388 263
0.091218919 0.75400001 -0.030406307 1.8522587e-38 389 263
0.092540927 0.75400001 -0.030406307 1.8339272e-38 390 263
0.093862943 0.75400001 -0.030406307 1.8431828e-38 391 263
0.095184959 0.75400001 -0.030406307 1.8064836e-38 392 263
0.096506968 0.75400001 -0.030406307 1.6497152e-38 393 263
0.097828984 0.75400001 -0.030406307 1.6123318e-38 394 263
0.099150993 0.75400001 -0.030406307 1.4371601e-38 395 263
0.10020649 0.75199997 -0.030325651 1.4371964e-38 396 263
0.10152501 0.75199997 -0.030325651 1.5202084e-38 397 263
0.10257 0.75 -0.030244999 1.5207862e-38 398 263
0.10388499 0.75 -0.030244999 1.6037981e-38 399 263
0.1052 0.75 -0.030244999 1.6681552e-38 400 263
0.106515 0.75 -0.030244999 1.6773747e-38 401 263
0.10783 0.75 -0.030244999 1.6681902e-38 402 263
0.10914499 0.75 -0.030244999 1.6497152e-38 403 263
0.11046 0.75 -0.030244999 1.5761427e-38 404 263
0.111775 0.75 -0.030244999 1.6499351e-38 405 263
0.11339156 0.75199997 -0.030325651 1.6872151e-38 406 263
0.11501516 0.75400001 -0.030406307 1.8162889e-38 407 263
0.11649147 0.755 -0.030446632 1.8434797e-38 408 263
0.11781523 0.755 -0.030446632 1.7696874e-38 409 263
-0.057807401 0.78500003 -0.033032801 5.9001125e-39 278 264
-0.056431033 0.78500003 -0.033032801 2.9494978e-39 279 264
-0.055054668 0.78500003 -0.033032801 7.8289901e-39 280 264
-0.0536783 0.78500003 -0.033032801 9.3963158e-39 281 264
-0.052168678 0.78299999 -0.032948639 1.0604903e-38 282 264
-0.05079582 0.78299999 -0.032948639 1.1158077e-38 283 264
-0.049422957 0.78299999 -0.032948639 1.2169333e-38 284 264
-0.047927368 0.78100002 -0.032864477 1.244592e-38 285 264
-0.046558015 0.78100002 -0.032864477 1.2813973e-38 286 264
-0.045188658 0.78100002 -0.032864477 1.2998723e-38 287 264
-0.043931518 0.78299999 -0.032948639 1.3457908e-38 288 264
-0.042449951 0.78100002 -0.032864477 1.3641939e-38 289 264
-0.041080598 0.78100002 -0.032864477 1.3733421e-38 290 264
-0.039711244 0.78100002 -0.032864477 1.3733421e-38 291 264
-0.038341891 0.78100002 -0.032864477 1.3733068e-38 292 264
-0.037067216 0.78299999 -0.032948639 1.3733068e-38 293 264
-0.035694357 0.78299999 -0.032948639 1.363945e-38 294 264
-0.034321502 0.78299999 -0.032948639 1.3547255e-38 295 264
-0.032948639 0.78299999 -0.032948639 1.3637298e-38 296 264
-0.031575777 0.78299999 -0.032948639 1.3360352e-38 297 264
-0.03020292 0.78299999 -0.032948639 1.2623866e-38 298 264
-0.028830061 0.78299999 -0.032948639 1.1978497e-38 299 264
-0.027457198 0.78299999 -0.032948639 1.206673e-38 300 264
-0.026084339 0.78299999 -0.032948639 1.05916e-38 301 264
-0.024711479 0.78299999 -0.032948639 9.4845261e-39 302 264
-0.02333862 0.78299999 -0.032948639 8.5629426e-39 303 264
-0.022021867 0.78500003 -0.033032801 7.9157963e-39 304 264
-0.0206981 0.787 -0.033116959 7.6392094e-39 305 264
-0.019367319 0.78899997 -0.033201117 7.0864434e-39 306 264
-0.017983939 0.78899997 -0.033201117 6.718021e-39 307 264
-0.016600559 0.78899997 -0.033201117 4.6983464e-39 308 264
-0.015217179 0.78899997 -0.033201117 4.9749318e-39 309 264
-0.013833799 0.78899997 -0.033201117 5.8976084e-39 310 264
-0.012450419 0.78899997 -0.033201117 7.3727385e-39 311 264
-0.011010934 0.78500003 -0.033032801 8.9389782e-39 312 264
-0.0096345674 0.78500003 -0.033032801 9.6765432e-39 313 264
-0.0082371598 0.78299999 -0.032948639 1.0321534e-38 314 264
-0.0068642995 0.78299999 -0.032948639 1.0598121e-38 315 264
-0.0055054668 0.78500003 -0.033032801 1.0691742e-38 316 264
-0.0041291001 0.78500003 -0.033032801 1.0968689e-38 317 264
-0.0027527334 0.78500003 -0.033032801 1.115307e-38 318 264
-0.0013798733 0.787 -0.033116959 1.1245266e-38 319 264
0 0.787 -0.033116959 1.1154503e-38 320 264
0.0013798733 0.787 -0.033116959 1.1154503e-38 321 264
0.0027667598 0.78899997 -0.033201117 1.1796272e-38 322 264
0.0041501396 0.78899997 -0.033201117 1.1796272e-38 323 264
0.0055335197 0.78899997 -0.033201117 1.179555e-38 324 264
0.0069168997 0.78899997 -0.033201117 1.179555e-38 325 264
0.0082792398 0.787 -0.033116959 1.1703007e-38 326 264
0.0096591124 0.787 -0.033116959 1.1518257e-38 327 264
0.011067039 0.78899997 -0.033201117 1.0692112e-38 328 264
0.01241886 0.787 -0.033116959 1.0692112e-38 329 264
0.013798732 0.787 -0.033116959 1.1150549e-38 330 264
0.015140033 0.78500003 -0.033032801 1.1058354e-38 331 264
0.016516401 0.78500003 -0.033032801 1.1333496e-38 332 264
0.017892767 0.78500003 -0.033032801 1.12413e-38 333 264
0.019269135 0.78500003 -0.033032801 1.0782493e-38 334 264
0.020645501 0.78500003 -0.033032801 1.0966884e-38 335 264
0.022021867 0.78500003 -0.033032801 1.1242032e-38 336 264
0.023398234 0.78500003 -0.033032801 1.1242032e-38 337 264
0.026284218 0.78899997 -0.033201117 1.1424991e-38 339 264
0.027667599 0.78899997 -0.033201117 1.0783589e-38 340 264
0.02905098 0.78899997 -0.033201117 1.0783589e-38 341 264
0.030434359 0.78899997 -0.033201117 1.1335667e-38 342 264
0.031737085 0.787 -0.033116959 1.1427862e-38 343 264
0.033116959 0.787 -0.033116959 1.2071414e-38 344 264
0.034496833 0.787 -0.033116959 1.216361e-38 345 264
0.035785533 0.78500003 -0.033032801 1.2255807e-38 346 264
0.037161902 0.78500003 -0.033032801 1.216361e-38 347 264
0.03863645 0.787 -0.033116959 1.2256163e-38 348 264
0.039914634 0.78500003 -0.033032801 1.2348358e-38 349 264
0.0411858 0.78299999 -0.032948639 1.2348005e-38 350 264
0.042558655 0.78299999 -0.032948639 1.225581e-38 351 264
0.043931518 0.78299999 -0.032948639 1.1797721e-38 352 264
0.045188658 0.78100002 -0.032864477 1.1889917e-38 353 264
0.046558015 0.78100002 -0.032864477 1.2258343e-38 354 264
0.047927368 0.78100002 -0.032864477 1.2442734e-38 355 264
0.049296722 0.78100002 -0.032864477 1.2994465e-38 356 264
0.050666075 0.78100002 -0.032864477 1.3178856e-38 357 264
0.051968798 0.77999997 -0.032822397 1.327105e-38 358 264
0.053199638 0.778 -0.032738242 1.327105e-38 359 264
0.054563731 0.778 -0.032738242 1.3638747e-38 360 264
0.055927824 0.778 -0.032738242 1.3638747e-38 361 264
0.057291918 0.778 -0.032738242 1.3456151e-38 362 264
0.058505226 0.77600002 -0.032654081 1.3640182e-38 363 264
0.059865814 0.77600002 -0.032654081 1.3456867e-38 364 264
0.061226401 0.77600002 -0.032654081 1.3456867e-38 365 264
0.062425677 0.77399999 -0.032569919 1.3549418e-38 366 264
0.063782752 0.77399999 -0.032569919 1.3457223e-38 367 264
0.065055676 0.773 -0.032527838 1.345687e-38 368 264
0.066239186 0.77100003 -0.032443684 1.345687e-38 369 264
0.067591004 0.77100003 -0.032443684 1.3640538e-38 370 264
0.068763971 0.76899999 -0.032359518 1.3640538e-38 371 264
0.070112288 0.76899999 -0.032359518 1.3732009e-38 372 264
0.071460605 0.76899999 -0.032359518 1.3732009e-38 373 264
0.072619557 0.76700002 -0.03227536 1.3732365e-38 374 264
0.073964365 0.76700002 -0.03227536 1.382456e-38 375 264
0.075210981 0.76599997 -0.032233275 1.4007876e-38 376 264
0.076354161 0.764 -0.032149121 1.4192268e-38 377 264
0.077490322 0.76200002 -0.032064959 1.410152e-38 378 264
0.07882636 0.76200002 -0.032064959 1.4377747e-38 379 264
0.080162399 0.76200002 -0.032064959 1.4011122e-38 380 264
0.081391476 0.76099998 -0.032022879 1.4840523e-38 381 264
0.082725771 0.76099998 -0.032022879 1.5577722e-38 382 264
0.084060051 0.76099998 -0.032022879 1.60387e-38 383 264
0.085169919 0.759 -0.031938717 1.6773747e-38 384 264
0.086272769 0.75700003 -0.031854562 1.695814e-38 385 264
0.087368593 0.755 -0.031770397 1.760171e-38 386 264
0.08869236 0.755 -0.031770397 1.7693906e-38 387 264
0.089896902 0.75400001 -0.03172832 1.7970137e-38 388 264
0.091218919 0.75400001 -0.03172832 1.8154528e-38 389 264
0.092540927 0.75400001 -0.03172832 1.81556e-38 390 264
0.093862943 0.75400001 -0.03172832 1.8247795e-38 391 264
0.095184959 0.75400001 -0.03172832 1.7971919e-38 392 264
0.096506968 0.75400001 -0.03172832 1.668118e-38 393 264
0.097828984 0.75400001 -0.03172832 1.6123668e-38 394 264
0.098887995 0.75199997 -0.031644158 1.3634386e-38 395 264
0.10020649 0.75199997 -0.031644158 1.3633664e-38 396 264
0.101255 0.75 -0.03156 1.4002445e-38 397 264
0.10257 0.75 -0.03156 1.410114e-38 398 264
0.10388499 0.75 -0.03156 1.5484076e-38 399 264
0.10505974 0.74900001 -0.031517919 1.6313842e-38 400 264
0.10637298 0.74900001 -0.031517919 1.6406038e-38 401 264
0.10768622 0.74900001 -0.031517919 1.6681902e-38 402 264
0.10914499 0.75 -0.03156 1.6681902e-38 403 264
0.11046 0.75 -0.03156 1.6313492e-38 404 264
0.111775 0.75 -0.03156 1.5852514e-38 405 264
0.11339156 0.75199997 -0.031644158 1.5028926e-38 406 264
0.11501516 0.75400001 -0.03172832 1.7610404e-38 407 264
0.11649147 0.755 -0.031770397 1.8529527e-38 408 264
0.11765919 0.75400001 -0.03172832 1.8345135e-38 409 264
0.1189812 0.75400001 -0.03172832 1.843336e-38 410 264
-0.056574803 0.787 -0.034496833 5.33902e-39 279 265
-0.055054668 0.78500003 -0.034409165 5.3469065e-39 280 265
-0.0536783 0.78500003 -0.034409165 7.7439677e-39 281 265
-0.052168678 0.78299999 -0.034321502 1.1155909e-38 282 265
-0.05079582 0.78299999 -0.034321502 1.2077506e-38 283 265
-0.0495492 0.78500003 -0.034409165 1.2354453e-38 284 265
-0.048050098 0.78299999 -0.034321502 1.2446648e-38 285 265
-0.046677239 0.78299999 -0.034321502 1.2997654e-38 286 265
-0.04530438 0.78299999 -0.034321502 1.3273882e-38 287 265
-0.043931518 0.78299999 -0.034321502 1.364087e-38 288 265
-0.042558655 0.78299999 -0.034321502 1.364087e-38 289 265
-0.0411858 0.78299999 -0.034321502 1.3823829e-38 290 265
-0.039812941 0.78299999 -0.034321502 1.3639798e-38 291 265
-0.038440078 0.78299999 -0.034321502 1.382276e-38 292 265
-0.037067216 0.78299999 -0.034321502 1.3638367e-38 293 265
-0.035694357 0.78299999 -0.034321502 1.3820613e-38 294 265
-0.034409165 0.78500003 -0.034409165 1.3728059e-38 295 265
-0.032948639 0.78299999 -0.034321502 1.3452551e-38 296 265
-0.031575777 0.78299999 -0.034321502 1.3084127e-38 297 265
-0.030280067 0.78500003 -0.034409165 1.2532039e-38 298 265
-0.0289037 0.78500003 -0.034409165 1.2071061e-38 299 265
-0.027527334 0.78500003 -0.034409165 1.1700133e-38 300 265
-0.026150968 0.78500003 -0.034409165 1.1054764e-38 301 265
-0.0247746 0.78500003 -0.034409165 1.0316477e-38 302 265
-0.023398234 0.78500003 -0.034409165 9.6711076e-39 303 265
-0.022077972 0.787 -0.034496833 9.3016174e-39 304 265
-0.0207507 0.78899997 -0.034584496 9.0253907e-39 305 265
-0.011010934 0.78500003 -0.034409165 1.0690676e-38 312 265
-0.0096345674 0.78500003 -0.034409165 1.0690676e-38 313 265
-0.0082582003 0.78500003 -0.034409165 1.0784645e-38 314 265
-0.0068818335 0.78500003 -0.034409165 1.0692448e-38 315 265
-0.0055054668 0.78500003 -0.034409165 1.0784645e-38 316 265
-0.0041291001 0.78500003 -0.034409165 1.0784645e-38 317 265
-0.0027527334 0.78500003 -0.034409165 1.1058001e-38 318 265
0.040016327 0.787 -0.034496833 1.050626e-38 349 265
0.041291002 0.78500003 -0.034409165 1.1058001e-38 350 265
0.042558655 0.78299999 -0.034321502 1.1150196e-38 351 265
0.043931518 0.78299999 -0.034321502 1.1059803e-38 352 265
0.04530438 0.78299999 -0.034321502 1.133639e-38 353 265
0.046677239 0.78299999 -0.034321502 1.1979245e-38 354 265
0.048050098 0.78299999 -0.034321502 1.2440222e-38 355 265
0.049422957 0.78299999 -0.034321502 1.2991592e-38 356 265
0.050666075 0.78100002 -0.034233831 1.3268538e-38 357 265
0.052035429 0.78100002 -0.034233831 1.2903343e-38 358 265
0.053336397 0.77999997 -0.034189999 1.2903343e-38 359 265
0.054703996 0.77999997 -0.034189999 1.3453277e-38 360 265
0.055927824 0.778 -0.034102332 1.3637666e-38 361 265
0.057291918 0.778 -0.034102332 1.3546548e-38 362 265
0.058505226 0.77600002 -0.034014668 1.3546548e-38 363 265
0.059865814 0.77600002 -0.034014668 1.3547264e-38 364 265
0.061226401 0.77600002 -0.034014668 1.3547264e-38 365 265
0.062425677 0.77399999 -0.033927001 1.3365027e-38 366 265
0.063782752 0.77399999 -0.033927001 1.3365027e-38 367 265
0.065055676 0.773 -0.033883166 1.3547264e-38 368 265
0.066411003 0.773 -0.033883166 1.3547264e-38 369 265
0.067591004 0.77100003 -0.033795502 1.3547264e-38 370 265
0.068942823 0.77100003 -0.033795502 1.3639819e-38 371 265
0.070112288 0.76899999 -0.033707831 1.3639813e-38 372 265
0.071460605 0.76899999 -0.033707831 1.3732009e-38 373 265
0.072619557 0.76700002 -0.033620168 1.3640532e-38 374 265
0.073964365 0.76700002 -0.033620168 1.3640532e-38 375 265
0.075210981 0.76599997 -0.033576332 1.4007873e-38 376 265
0.076354161 0.764 -0.033488665 1.4100068e-38 377 265
0.077490322 0.76200002 -0.033401001 1.4101143e-38 378 265
0.07882636 0.76200002 -0.033401001 1.419334e-38 379 265
0.080162399 0.76200002 -0.033401001 1.4468848e-38 380 265
0.081391476 0.76099998 -0.033357166 1.4561044e-38 381 265
0.082725771 0.76099998 -0.033357166 1.4840154e-38 382 265
0.083839141 0.759 -0.033269498 1.5393328e-38 383 265
0.085169919 0.759 -0.033269498 1.6312773e-38 384 265
0.086272769 0.75700003 -0.033181835 1.6773391e-38 385 265
0.087252878 0.75400001 -0.033050332 1.7507717e-38 386 265
0.088574894 0.75400001 -0.033050332 1.7784303e-38 387 265
0.089896902 0.75400001 -0.033050332 1.806053e-38 388 265
0.090976954 0.75199997 -0.032962665 1.8245282e-38 389 265
0.09229546 0.75199997 -0.032962665 1.7879373e-38 390 265
0.093613967 0.75199997 -0.032962665 1.81556e-38 391 265
0.094932474 0.75199997 -0.032962665 1.83389e-38 392 265
0.095994994 0.75 -0.032874998 1.7232552e-38 393 265
0.097309999 0.75 -0.032874998 1.6124394e-38 394 265
0.098624997 0.75 -0.032874998 1.3542916e-38 395 265
0.099939995 0.75 -0.032874998 1.3908477e-38 396 265
0.101255 0.75 -0.032874998 1.4092868e-38 397 265
0.10243323 0.74900001 -0.032831166 1.4280514e-38 398 265
0.10374649 0.74900001 -0.032831166 1.5479057e-38 399 265
0.10505974 0.74900001 -0.032831166 1.6681549e-38 400 265
0.10637298 0.74900001 -0.032831166 1.6681549e-38 401 265
0.10768622 0.74900001 -0.032831166 1.6681183e-38 402 265
0.10899947 0.74900001 -0.032831166 1.6865214e-38 403 265
0.11031272 0.74900001 -0.032831166 1.6406035e-38 404 265
0.11162596 0.74900001 -0.032831166 1.6129448e-38 405 265
0.11308999 0.75 -0.032874998 1.5762151e-38 406 265
0.11471007 0.75199997 -0.032962665 1.6684109e-38 407 265
0.11602858 0.75199997 -0.032962665 1.7149106e-38 408 265
0.11765919 0.75400001 -0.033050332 1.8071422e-38 409 265
0.1189812 0.75400001 -0.033050332 1.871212e-38 410 265
-0.055194929 0.787 -0.035876706 8.7545785e-39 280 266
-0.053815059 0.787 -0.035876706 8.0170121e-39 281 266
-0.052301936 0.78500003 -0.035785533 1.0142538e-38 282 266
-0.050925564 0.78500003 -0.035785533 1.1433277e-38 283 266
-0.049675439 0.787 -0.035876706 1.2813276e-38 284 266
-0.048172832 0.78500003 -0.035785533 1.2997667e-38 285 266
-0.046796467 0.78500003 -0.035785533 1.2997667e-38 286 266
-0.045535821 0.787 -0.035876706 1.3089864e-38 287 266
-0.044043735 0.78500003 -0.035785533 1.3272826e-38 288 266
-0.042558655 0.78299999 -0.035694357 1.3088795e-38 289 266
-0.0411858 0.78299999 -0.035694357 1.3087011e-38 290 266
-0.039812941 0.78299999 -0.035694357 1.3087011e-38 291 266
-0.038440078 0.78299999 -0.035694357 1.2718601e-38 292 266
-0.037161902 0.78500003 -0.035785533 1.2626405e-38 293 266
-0.035785533 0.78500003 -0.035785533 1.2717526e-38 294 266
-0.034409165 0.78500003 -0.035785533 1.2625331e-38 295 266
-0.033116959 0.787 -0.035876706 1.2625319e-38 296 266
-0.031737085 0.787 -0.035876706 1.2532765e-38 297 266
-0.03035721 0.787 -0.035876706 1.2165415e-38 298 266
0.05079582 0.78299999 -0.035694357 1.1520426e-38 357 266
0.052035429 0.78100002 -0.035603184 1.1889563e-38 358 266
0.053404782 0.78100002 -0.035603184 1.2350542e-38 359 266
0.054703996 0.77999997 -0.035557598 1.2626405e-38 360 266
0.056071598 0.77999997 -0.035557598 1.2718601e-38 361 266
0.057291918 0.778 -0.035466425 1.3178134e-38 362 266
0.058505226 0.77600002 -0.035375252 1.327033e-38 363 266
0.059865814 0.77600002 -0.035375252 1.2995897e-38 364 266
0.061226401 0.77600002 -0.035375252 1.3088094e-38 365 266
0.062425677 0.77399999 -0.03528408 1.3088807e-38 366 266
0.063782752 0.77399999 -0.03528408 1.3088807e-38 367 266
0.065139838 0.77399999 -0.03528408 1.3271759e-38 368 266
0.066411003 0.773 -0.035238493 1.3271759e-38 369 266
0.067766331 0.773 -0.035238493 1.3363955e-38 370 266
0.068942823 0.77100003 -0.03514732 1.3363955e-38 371 266
0.070112288 0.76899999 -0.035056144 1.3364671e-38 372 266
0.071460605 0.76899999 -0.035056144 1.3364671e-38 373 266
0.072619557 0.76700002 -0.034964975 1.3457223e-38 374 266
0.073964365 0.76700002 -0.034964975 1.3457223e-38 375 266
0.075210981 0.76599997 -0.034919381 1.3457576e-38 376 266
0.076354161 0.764 -0.034828212 1.3549771e-38 377 266
0.077490322 0.76200002 -0.034737039 1.3641967e-38 378 266
0.07882636 0.76200002 -0.034737039 1.3734164e-38 379 266
0.080162399 0.76200002 -0.034737039 1.419299e-38 380 266
0.081391476 0.76099998 -0.034691449 1.4285185e-38 381 266
0.082725771 0.76099998 -0.034691449 1.4377034e-38 382 266
0.083839141 0.759 -0.034600276 1.4929849e-38 383 266
0.084945492 0.75700003 -0.034509107 1.5575574e-38 384 266
0.086044833 0.755 -0.034417931 1.6128748e-38 385 266
0.087252878 0.75400001 -0.034372345 1.6956708e-38 386 266
0.088574894 0.75400001 -0.034372345 1.7048903e-38 387 266
0.089658447 0.75199997 -0.034281172 1.7325849e-38 388 266
0.090976954 0.75199997 -0.034281172 1.7602076e-38 389 266
0.092049994 0.75 -0.034189999 1.7512386e-38 390 266
0.093364999 0.75 -0.034189999 1.7512386e-38 391 266
0.094679996 0.75 -0.034189999 1.833925e-38 392 266
0.095994994 0.75 -0.034189999 1.7509849e-38 393 266
0.097180255 0.74900001 -0.034144413 1.676941e-38 394 266
0.098493494 0.74900001 -0.034144413 1.3911346e-38 395 266
0.099806741 0.74900001 -0.034144413 1.3263123e-38 396 266
0.10111999 0.74900001 -0.034144413 1.3170569e-38 397 266
0.10243323 0.74900001 -0.034144413 1.3083421e-38 398 266
0.10374649 0.74900001 -0.034144413 1.4281964e-38 399 266
0.10505974 0.74900001 -0.034144413 1.6128029e-38 400 266
0.10637298 0.74900001 -0.034144413 1.6773398e-38 401 266
0.10768622 0.74900001 -0.034144413 1.6406041e-38 402 266
0.10899947 0.74900001 -0.034144413 1.6406041e-38 403 266
0.11001815 0.74699998 -0.034053236 1.668083e-38 404 266
0.11132789 0.74699998 -0.034053236 1.668083e-38 405 266
0.11293921 0.74900001 -0.034144413 1.6313502e-38 406 266
0.114405 0.75 -0.034189999 1.5760687e-38 407 266
0.11602858 0.75199997 -0.034281172 1.5951256e-38 408 266
0.11765919 0.75400001 -0.034372345 1.7887365e-38 409 266
-0.041291002 0.78500003 -0.037161902 1.2809002e-38 290 267
-0.039812941 0.78299999 -0.037067216 1.2532415e-38 291 267
-0.038440078 0.78299999 -0.037067216 1.2806481e-38 292 267
0.056143485 0.78100002 -0.036972538 1.1062322e-38 361 267
0.057439197 0.77999997 -0.036925197 1.2165062e-38 362 267
0.058806792 0.77999997 -0.036925197 1.2533484e-38 363 267
0.0600201 0.778 -0.036830518 1.3084494e-38 364 267
0.061226401 0.77600002 -0.036735836 1.3268885e-38 365 267
0.062425677 0.77399999 -0.036641158 1.3178844e-38 366 267
0.063782752 0.77399999 -0.036641158 1.3086289e-38 367 267
0.065139838 0.77399999 -0.036641158 1.317956e-38 368 267
0.066411003 0.773 -0.036593821 1.3087364e-38 369 267
0.067766331 0.773 -0.036593821 1.3546546e-38 370 267
0.068942823 0.77100003 -0.036499143 1.36391e-38 371 267
0.070112288 0.76899999 -0.036404461 1.3547264e-38 372 267
0.071460605 0.76899999 -0.036404461 1.3639819e-38 373 267
0.072619557 0.76700002 -0.036309779 1.3640535e-38 374 267
0.073964365 0.76700002 -0.036309779 1.3640535e-38 375 267
0.075210981 0.76599997 -0.036262438 1.3640888e-38 376 267
0.076354161 0.764 -0.036167759 1.3640888e-38 377 267
0.077693708 0.764 -0.036167759 1.3733081e-38 378 267
0.07882636 0.76200002 -0.036073081 1.3825277e-38 379 267
0.080162399 0.76200002 -0.036073081 1.3917476e-38 380 267
0.081391476 0.76099998 -0.036025736 1.3917476e-38 381 267
0.082725771 0.76099998 -0.036025736 1.4560328e-38 382 267
0.083839141 0.759 -0.035931058 1.4652523e-38 383 267
0.084945492 0.75700003 -0.03583638 1.4930555e-38 384 267
0.086044833 0.755 -0.035741698 1.566812e-38 385 267
0.087252878 0.75400001 -0.035694357 1.6496804e-38 386 267
0.088574894 0.75400001 -0.035694357 1.6681196e-38 387 267
0.089658447 0.75199997 -0.035599679 1.7141805e-38 388 267
0.090976954 0.75199997 -0.035599679 1.7234001e-38 389 267
0.092049994 0.75 -0.035505001 1.7694256e-38 390 267
0.093364999 0.75 -0.035505001 1.7786453e-38 391 267
0.094553761 0.74900001 -0.03545766 1.7786806e-38 392 267
0.095867008 0.74900001 -0.03545766 1.8063392e-38 393 267
0.097180255 0.74900001 -0.03545766 1.741478e-38 394 267
0.098230496 0.74699998 -0.035362978 1.4371964e-38 395 267
0.099540234 0.74699998 -0.035362978 1.2709581e-38 396 267
0.10111999 0.74900001 -0.03545766 1.1787625e-38 397 267
0.10215972 0.74699998 -0.035362978 1.1516092e-38 398 267
0.10346945 0.74699998 -0.035362978 1.2714635e-38 399 267
0.10477919 0.74699998 -0.035362978 1.5390104e-38 400 267
0.10608894 0.74699998 -0.035362978 1.6496451e-38 401 267
0.10739867 0.74699998 -0.035362978 1.6957059e-38 402 267
0.10870842 0.74699998 -0.035362978 1.6864864e-38 403 267
0.11001815 0.74699998 -0.035362978 1.6680827e-38 404 267
0.11132789 0.74699998 -0.035362978 1.6588631e-38 405 267
0.11293921 0.74900001 -0.03545766 1.6406038e-38 406 267
0.114405 0.75 -0.035505001 1.6036895e-38 407 267
0.11572 0.75 -0.035505001 1.5763963e-38 408 267
0.0600201 0.778 -0.038194612 1.0968333e-38 364 268
0.061384194 0.778 -0.038194612 1.1521507e-38 365 268
0.062586986 0.77600002 -0.038096428 1.2165077e-38 366 268
0.063947573 0.77600002 -0.038096428 1.2441665e-38 367 268
0.065139838 0.77399999 -0.037998237 1.2626403e-38 368 268
0.066496916 0.77399999 -0.037998237 1.2718598e-38 369 268
0.067766331 0.773 -0.037949149 1.3087014e-38 370 268
0.068942823 0.77100003 -0.037850961 1.3179209e-38 371 268
0.070294641 0.77100003 -0.037850961 1.3271403e-38 372 268
0.071460605 0.76899999 -0.03775277 1.3363599e-38 373 268
0.072619557 0.76700002 -0.037654586 1.3272478e-38 374 268
0.073964365 0.76700002 -0.037654586 1.3272478e-38 375 268
0.075210981 0.76599997 -0.037605491 1.3089163e-38 376 268
0.076354161 0.764 -0.037507307 1.3273554e-38 377 268
0.077693708 0.764 -0.037507307 1.3274629e-38 378 268
0.07882636 0.76200002 -0.037409119 1.3366825e-38 379 268
0.080162399 0.76200002 -0.037409119 1.3642334e-38 380 268
0.081391476 0.76099998 -0.037360024 1.3642334e-38 381 268
0.082508355 0.759 -0.03726184 1.4192634e-38 382 268
0.083839141 0.759 -0.03726184 1.4192634e-38 383 268
0.084945492 0.75700003 -0.037163652 1.4469224e-38 384 268
0.086044833 0.755 -0.037065465 1.5207147e-38 385 268
0.08702144 0.75199997 -0.036918186 1.5760316e-38 386 268
0.08833994 0.75199997 -0.036918186 1.6221294e-38 387 268
0.089658447 0.75199997 -0.036918186 1.668083e-38 388 268
0.090734996 0.75 -0.036819998 1.6957057e-38 389 268
0.091927268 0.74900001 -0.036770906 1.7142174e-38 390 268
0.093240514 0.74900001 -0.036770906 1.7326565e-38 391 268
0.094553761 0.74900001 -0.036770906 1.7511314e-38 392 268
0.095611013 0.74699998 -0.036672719 1.7879736e-38 393 268
0.096920758 0.74699998 -0.036672719 1.7876121e-38 394 268
0.098230496 0.74699998 -0.036672719 1.5479393e-38 395 268
0.099540234 0.74699998 -0.036672719 1.3814129e-38 396 268
0.10084997 0.74699998 -0.036672719 1.1785467e-38 397 268
0.10202295 0.74599999 -0.036623627 1.142066e-38 398 268
0.10333094 0.74599999 -0.036623627 1.1973833e-38 399 268
0.10463893 0.74599999 -0.036623627 1.4377034e-38 400 268
0.10594691 0.74599999 -0.036623627 1.5852164e-38 401 268
0.10725491 0.74599999 -0.036623627 1.7049259e-38 402 268
0.10870842 0.74699998 -0.036672719 1.6957062e-38 403 268
0.11001815 0.74699998 -0.036672719 1.6681183e-38 404 268
0.11132789 0.74699998 -0.036672719 1.6681183e-38 405 268
0.11293921 0.74900001 -0.036770906 1.6680827e-38 406 268
0.11425246 0.74900001 -0.036770906 1.6312043e-38 407 268
0.11556571 0.74900001 -0.036770906 1.5576682e-38 408 268
0.11687896 0.74900001 -0.036770906 1.6498997e-38 409 268
0.065308161 0.77600002 -0.039457016 1.2073585e-38 368 269
0.066668749 0.77600002 -0.039457016 1.2350172e-38 369 269
0.067854002 0.77399999 -0.039355319 1.2901901e-38 370 269
0.069121659 0.773 -0.039304473 1.2994096e-38 371 269
0.070294641 0.77100003 -0.03920278 1.3178488e-38 372 269
0.071460605 0.76899999 -0.039101087 1.3178488e-38 373 269
0.072808921 0.76899999 -0.039101087 1.3179206e-38 374 269
0.073964365 0.76700002 -0.038999394 1.3179206e-38 375 269
0.075210981 0.76599997 -0.038948543 1.2904415e-38 376 269
0.076354161 0.764 -0.038846854 1.3088807e-38 377 269
0.077490322 0.76200002 -0.038745161 1.3182075e-38 378 269
0.07882636 0.76200002 -0.038745161 1.3274629e-38 379 269
0.080162399 0.76200002 -0.038745161 1.355049e-38 380 269
0.081391476 0.76099998 -0.038694311 1.355049e-38 381 269
0.082508355 0.759 -0.038592618 1.4100791e-38 382 269
0.083839141 0.759 -0.038592618 1.4192987e-38 383 269
0.084945492 0.75700003 -0.038490929 1.4377381e-38 384 269
0.086044833 0.755 -0.038389232 1.4838359e-38 385 269
0.08702144 0.75199997 -0.038236689 1.502455e-38 386 269
0.08833994 0.75199997 -0.038236689 1.5485527e-38 387 269
0.089419998 0.75 -0.038135 1.6312768e-38 388 269
0.090614013 0.74900001 -0.038084153 1.6681549e-38 389 269
0.091927268 0.74900001 -0.038084153 1.6865588e-38 390 269
0.092991538 0.74699998 -0.03798246 1.7142174e-38 391 269
0.094301268 0.74699998 -0.03798246 1.695958e-38 392 269
0.095611013 0.74699998 -0.03798246 1.7236169e-38 393 269
0.096920758 0.74699998 -0.03798246 1.7785726e-38 394 269
0.098099001 0.74599999 -0.03793161 1.621876e-38 395 269
0.09940698 0.74599999 -0.03793161 1.4827904e-38 396 269
0.10071497 0.74599999 -0.03793161 1.2062395e-38 397 269
0.10147592 0.74199998 -0.037728224 1.1787625e-38 398 269
0.10277689 0.74199998 -0.037728224 1.169507e-38 399 269
0.10407786 0.74199998 -0.037728224 1.3638391e-38 400 269
0.10566287 0.74400002 -0.037829921 1.5390107e-38 401 269
0.10696736 0.74400002 -0.037829921 1.7141821e-38 402 269
0.10856289 0.74599999 -0.03793161 1.6865594e-38 403 269
0.10987087 0.74599999 -0.03793161 1.6589353e-38 404 269
0.11117886 0.74599999 -0.03793161 1.6589353e-38 405 269
0.11263763 0.74699998 -0.03798246 1.6588631e-38 406 269
0.11394738 0.74699998 -0.03798246 1.6496436e-38 407 269
0.11556571 0.74900001 -0.038084153 1.5760331e-38 408 269
0.11687896 0.74900001 -0.038084153 1.5668135e-38 409 269
0.069389917 0.77600002 -0.0408176 1.1706617e-38 371 270
0.070294641 0.77100003 -0.040554602 1.2808283e-38 372 270
0.071460605 0.76899999 -0.0404494 1.3176705e-38 373 270
0.072808921 0.76899999 -0.0404494 1.2810078e-38 374 270
0.073964365 0.76700002 -0.040344197 1.2810078e-38 375 270
0.075210981 0.76599997 -0.040291596 1.2627482e-38 376 270
0.076354161 0.764 -0.040186398 1.2904067e-38 377 270
0.077490322 0.76200002 -0.040081199 1.2998763e-38 378 270
0.07882636 0.76200002 -0.040081199 1.2998763e-38 379 270
0.080162399 0.76200002 -0.040081199 1.3274258e-38 380 270
0.081391476 0.76099998 -0.040028598 1.3366454e-38 381 270
0.082508355 0.759 -0.0399234 1.3825282e-38 382 270
0.083618224 0.75700003 -0.039818201 1.4009675e-38 383 270
0.084945492 0.75700003 -0.039818201 1.4377381e-38 384 270
0.086044833 0.755 -0.039712999 1.4561772e-38 385 270
0.08702144 0.75199997 -0.039555199 1.4929836e-38 386 270
0.08833994 0.75199997 -0.039555199 1.5390813e-38 387 270
0.089300767 0.74900001 -0.0393974 1.594543e-38 388 270
0.090614013 0.74900001 -0.0393974 1.6129821e-38 389 270
0.091681793 0.74699998 -0.039292198 1.6497886e-38 390 270
0.092991538 0.74699998 -0.039292198 1.6681919e-38 391 270
0.094301268 0.74699998 -0.039292198 1.6866663e-38 392 270
0.095611013 0.74699998 -0.039292198 1.6958859e-38 393 270
0.096791007 0.74599999 -0.039239597 1.7602776e-38 394 270
0.098099001 0.74599999 -0.039239597 1.7142158e-38 395 270
0.09940698 0.74599999 -0.039239597 1.6028596e-38 396 270
0.10044496 0.74400002 -0.039134398 1.2894303e-38 397 270
0.10147592 0.74199998 -0.0390292 1.2060946e-38 398 270
0.10277689 0.74199998 -0.0390292 1.1692165e-38 399 270
0.10407786 0.74199998 -0.0390292 1.3175594e-38 400 270
0.10537883 0.74199998 -0.0390292 1.5111702e-38 401 270
0.10653604 0.741 -0.038976599 1.6496448e-38 402 270
0.10783526 0.741 -0.038976599 1.6865591e-38 403 270
0.10928176 0.74199998 -0.0390292 1.6681552e-38 404 270
0.11058273 0.74199998 -0.0390292 1.6588997e-38 405 270
0.11248685 0.74599999 -0.039239597 1.6680104e-38 406 270
0.11379483 0.74599999 -0.039239597 1.6680104e-38 407 270
0.11510283 0.74599999 -0.039239597 1.5852514e-38 408 270
0.11641081 0.74599999 -0.039239597 1.5668123e-38 409 270
0.071646459 0.77100003 -0.04190642 1.2348766e-38 373 271
0.072808921 0.76899999 -0.041797712 1.2349116e-38 374 271
0.073964365 0.76700002 -0.041689005 1.2349116e-38 375 271
0.075210981 0.76599997 -0.041634649 1.1981759e-38 376 271
0.076354161 0.764 -0.041525945 1.2350542e-38 377 271
0.077490322 0.76200002 -0.041417241 1.3089882e-38 378 271
0.07882636 0.76200002 -0.041417241 1.2905851e-38 379 271
0.080162399 0.76200002 -0.041417241 1.3090232e-38 380 271
0.081391476 0.76099998 -0.041362885 1.3090232e-38 381 271
0.082725771 0.76099998 -0.041362885 1.3549421e-38 382 271
0.083618224 0.75700003 -0.041145474 1.3641617e-38 383 271
0.084945492 0.75700003 -0.041145474 1.3917848e-38 384 271
0.086044833 0.755 -0.041036766 1.4102239e-38 385 271
0.08702144 0.75199997 -0.040873703 1.4561772e-38 386 271
0.08833994 0.75199997 -0.040873703 1.4561772e-38 387 271
0.089300767 0.74900001 -0.040710647 1.5575924e-38 388 271
0.090372056 0.74699998 -0.040601939 1.6036901e-38 389 271
0.091681793 0.74699998 -0.040601939 1.6129827e-38 390 271
0.092867047 0.74599999 -0.040547583 1.6313858e-38 391 271
0.093922555 0.74400002 -0.040438879 1.6681563e-38 392 271
0.09522704 0.74400002 -0.040438879 1.6774117e-38 393 271
0.096531518 0.74400002 -0.040438879 1.7142174e-38 394 271
0.097836003 0.74400002 -0.040438879 1.7603512e-38 395 271
0.09914048 0.74400002 -0.040438879 1.7045624e-38 396 271
0.10017494 0.74199998 -0.040330172 1.3910973e-38 397 271
0.10133915 0.741 -0.04027582 1.3071874e-38 398 271
0.10263838 0.741 -0.04027582 1.1965526e-38 399 271
0.1039376 0.741 -0.04027582 1.2253995e-38 400 271
0.10523681 0.741 -0.04027582 1.4097908e-38 401 271
0.10653604 0.741 -0.04027582 1.6219476e-38 402 271
0.10783526 0.741 -0.04027582 1.677265e-38 403 271
0.10913447 0.741 -0.04027582 1.6864864e-38 404 271
0.1104337 0.741 -0.04027582 1.6588278e-38 405 271
0.1118837 0.74199998 -0.040330172 1.6496436e-38 406 271
0.11348976 0.74400002 -0.040438879 1.640424e-38 407 271
0.11448564 0.74199998 -0.040330172 1.6036901e-38 408 271
0.11578663 0.74199998 -0.040330172 1.5760316e-38 409 271
0.1170876 0.74199998 -0.040330172 1.4935647e-38 410 271
0.074157231 0.76899999 -0.043146025 1.1152744e-38 375 272
0.075309172 0.76700002 -0.043033812 1.225332e-38 376 272
0.076354161 0.764 -0.042865492 1.2530267e-38 377 272
0.077693708 0.764 -0.042865492 1.1709122e-38 378 272
0.07882636 0.76200002 -0.042753279 1.2354492e-38 379 272
0.080162399 0.76200002 -0.042753279 1.2905495e-38 380 272
0.081498444 0.76200002 -0.042753279 1.2813299e-38 381 272
0.082725771 0.76099998 -0.042697169 1.3365027e-38 382 272
0.083618224 0.75700003 -0.042472746 1.3641614e-38 383 272
0.084945492 0.75700003 -0.042472746 1.4009322e-38 384 272
0.086044833 0.755 -0.042360533 1.4285907e-38 385 272
0.087252878 0.75400001 -0.042304426 1.456034e-38 386 272
0.088105001 0.75 -0.04208 1.4837287e-38 387 272
0.089300767 0.74900001 -0.042023893 1.5114593e-38 388 272
0.090372056 0.74699998 -0.041911677 1.5759962e-38 389 272
0.091559067 0.74599999 -0.04185557 1.6313136e-38 390 272
0.092867047 0.74599999 -0.04185557 1.6313136e-38 391 272
0.093922555 0.74400002 -0.04174336 1.6589e-38 392 272
0.09522704 0.74400002 -0.04174336 1.6681196e-38 393 272
0.096531518 0.74400002 -0.04174336 1.7048903e-38 394 272
0.097836003 0.74400002 -0.04174336 1.750988e-38 395 272
0.098873965 0.74199998 -0.041631144 1.7600262e-38 396 272
0.10017494 0.74199998 -0.041631144 1.6125131e-38 397 272
0.10133915 0.741 -0.041575037 1.5377841e-38 398 272
0.10263838 0.741 -0.041575037 1.4271493e-38 399 272
0.10365707 0.73900002 -0.041462827 1.3636554e-38 400 272
0.10495277 0.73900002 -0.041462827 1.4835096e-38 401 272
0.1062485 0.73900002 -0.041462827 1.6311677e-38 402 272
0.10754421 0.73900002 -0.041462827 1.6772297e-38 403 272
0.10883991 0.73900002 -0.041462827 1.6863776e-38 404 272
0.11013564 0.73900002 -0.041462827 1.6494634e-38 405 272
0.11173292 0.741 -0.041575037 1.6311322e-38 406 272
0.11318468 0.74199998 -0.041631144 1.6311322e-38 407 272
0.11448564 0.74199998 -0.041631144 1.5761034e-38 408 272
0.11578663 0.74199998 -0.041631144 1.5761034e-38 409 272
0.1170876 0.74199998 -0.041631144 1.456541e-38 410 272
0.07550554 0.76899999 -0.044494338 1.0507024e-38 376 273
0.076554038 0.76599997 -0.044320758 1.0968001e-38 377 273
0.077897087 0.76599997 -0.044320758 1.1429311e-38 378 273
0.079033248 0.764 -0.04420504 1.2074681e-38 379 273
0.080372795 0.764 -0.04420504 1.2903359e-38 380 273
0.081498444 0.76200002 -0.044089317 1.2903359e-38 381 273
0.082725771 0.76099998 -0.044031456 1.2813312e-38 382 273
0.083618224 0.75700003 -0.043800019 1.3182453e-38 383 273
0.084945492 0.75700003 -0.043800019 1.3550511e-38 384 273
0.086044833 0.755 -0.043684296 1.3734901e-38 385 273
0.087252878 0.75400001 -0.043626439 1.4194084e-38 386 273
0.088105001 0.75 -0.043394998 1.428628e-38 387 273
0.089300767 0.74900001 -0.04333714 1.4747255e-38 388 273
0.090372056 0.74699998 -0.043221418 1.5208233e-38 389 273
0.091559067 0.74599999 -0.04316356 1.6128745e-38 390 273
0.092618078 0.74400002 -0.043047838 1.6220941e-38 391 273
0.093922555 0.74400002 -0.043047838 1.6037991e-38 392 273
0.094971053 0.74199998 -0.042932119 1.6222741e-38 393 273
0.096272022 0.74199998 -0.042932119 1.6314941e-38 394 273
0.09757299 0.74199998 -0.042932119 1.6683363e-38 395 273
0.098740712 0.741 -0.042874258 1.7509161e-38 396 273
0.10003994 0.741 -0.042874258 1.732477e-38 397 273
0.10106564 0.73900002 -0.042758539 1.6398865e-38 398 273
0.10236135 0.73900002 -0.042758539 1.5108126e-38 399 273
0.10365707 0.73900002 -0.042758539 1.4653988e-38 400 273
0.10481076 0.73799998 -0.042700678 1.5207161e-38 401 273
0.10610472 0.73799998 -0.042700678 1.658865e-38 402 273
0.10739867 0.73799998 -0.042700678 1.6680845e-38 403 273
0.10869263 0.73799998 -0.042700678 1.640389e-38 404 273
0.1099866 0.73799998 -0.042700678 1.6219138e-38 405 273
0.11143135 0.73900002 -0.042758539 1.5851785e-38 406 273
0.11303214 0.741 -0.042874258 1.5943981e-38 407 273
0.11433136 0.741 -0.042874258 1.5761385e-38 408 273
0.11563057 0.741 -0.042874258 1.5669189e-38 409 273
0.1170876 0.74199998 -0.042932119 1.4472113e-38 410 273
0.11838856 0.74199998 -0.042932119 1.4379917e-38 411 273
0.076853856 0.76899999 -0.045842651 1.0872563e-38 377 274
0.077998787 0.76700002 -0.045723427 1.1518989e-38 378 274
0.079240143 0.76599997 -0.045663811 1.1887412e-38 379 274
0.080583192 0.76599997 -0.045663811 1.1798074e-38 380 274
0.081712343 0.764 -0.045544583 1.2351248e-38 381 274
0.082725771 0.76099998 -0.045365743 1.3271403e-38 382 274
0.083618224 0.75700003 -0.045127295 1.3640185e-38 383 274
0.084721066 0.755 -0.045008067 1.3642337e-38 384 274
0.086044833 0.755 -0.045008067 1.3734533e-38 385 274
0.08702144 0.75199997 -0.044829223 1.4285188e-38 386 274
0.088105001 0.75 -0.044709999 1.4377384e-38 387 274
0.089300767 0.74900001 -0.044650383 1.4744734e-38 388 274
0.090372056 0.74699998 -0.044531155 1.5297908e-38 389 274
0.091559067 0.74599999 -0.044471547 1.5392978e-38 390 274
0.092618078 0.74400002 -0.044352323 1.5577369e-38 391 274
0.093670078 0.74199998 -0.044233091 1.6220575e-38 392 274
0.094971053 0.74199998 -0.044233091 1.6496802e-38 393 274
0.096272022 0.74199998 -0.044233091 1.6681552e-38 394 274
0.097441494 0.741 -0.044173479 1.6681552e-38 395 274
0.098740712 0.741 -0.044173479 1.6773391e-38 396 274
0.09976992 0.73900002 -0.044054255 1.6865588e-38 397 274
0.10106564 0.73900002 -0.044054255 1.6955987e-38 398 274
0.10222283 0.73799998 -0.043994635 1.7048185e-38 399 274
0.10351679 0.73799998 -0.043994635 1.6500051e-38 400 274
0.10481076 0.73799998 -0.043994635 1.631566e-38 401 274
0.10610472 0.73799998 -0.043994635 1.6498606e-38 402 274
0.10710762 0.736 -0.043875411 1.6313855e-38 403 274
0.10839808 0.736 -0.043875411 1.6403523e-38 404 274
0.10968854 0.736 -0.043875411 1.6126577e-38 405 274
0.11128055 0.73799998 -0.043994635 1.5943615e-38 406 274
0.11257452 0.73799998 -0.043994635 1.5943615e-38 407 274
0.11402278 0.73900002 -0.044054255 1.5578426e-38 408 274
0.11563057 0.741 -0.044173479 1.5394034e-38 409 274
0.1170876 0.74199998 -0.044233091 1.4471391e-38 410 274
0.11838856 0.74199998 -0.044233091 1.3918576e-38 411 274
0.081926249 0.76599997 -0.047006864 1.1797371e-38 381 275
0.082725771 0.76099998 -0.046700031 1.2443453e-38 382 275
0.083839141 0.759 -0.046577301 1.2904792e-38 383 275
0.084721066 0.755 -0.04633183 1.3365403e-38 384 275
0.086044833 0.755 -0.04633183 1.3641631e-38 385 275
0.08702144 0.75199997 -0.04614773 1.400969e-38 386 275
0.088105001 0.75 -0.046024997 1.400969e-38 387 275
0.089062311 0.74699998 -0.045840897 1.4194437e-38 388 275
0.090251073 0.74599999 -0.045779534 1.4286633e-38 389 275
0.091313601 0.74400002 -0.0456568 1.4564662e-38 390 275
0.092369102 0.74199998 -0.045534063 1.5117836e-38 391 275
0.093670078 0.74199998 -0.045534063 1.5760687e-38 392 275
0.094843052 0.741 -0.045472696 1.594508e-38 393 275
0.096142277 0.741 -0.045472696 1.6037631e-38 394 275
0.097178504 0.73900002 -0.045349967 1.6129827e-38 395 275
0.098474212 0.73900002 -0.045349967 1.6405685e-38 396 275
0.09976992 0.73900002 -0.045349967 1.6497881e-38 397 275
0.10092887 0.73799998 -0.0452886 1.6773747e-38 398 275
0.10222283 0.73799998 -0.0452886 1.6865944e-38 399 275
0.10351679 0.73799998 -0.0452886 1.659115e-38 400 275
0.10452672 0.736 -0.045165867 1.6314561e-38 401 275
0.10581717 0.736 -0.045165867 1.6130527e-38 402 275
0.10710762 0.736 -0.045165867 1.5946136e-38 403 275
0.10839808 0.736 -0.045165867 1.6219848e-38 404 275
0.10968854 0.736 -0.045165867 1.5851066e-38 405 275
0.11097898 0.736 -0.045165867 1.5576272e-38 406 275
0.11226943 0.736 -0.045165867 1.5576272e-38 407 275
0.11402278 0.73900002 -0.045349967 1.5118171e-38 408 275
0.11531849 0.73900002 -0.045349967 1.4933778e-38 409 275
0.1169298 0.741 -0.045472696 1.3551949e-38 410 275
0.11822902 0.741 -0.045472696 1.2630353e-38 411 275
0.08305189 0.764 -0.048223678 1.1524038e-38 382 276
0.083839141 0.759 -0.047908079 1.2261961e-38 383 276
0.084945492 0.75700003 -0.04778184 1.3456169e-38 384 276
0.086044833 0.755 -0.047655597 1.364056e-38 385 276
0.08702144 0.75199997 -0.047466237 1.3917495e-38 386 276
0.088105001 0.75 -0.047339998 1.3917495e-38 387 276
0.089062311 0.74699998 -0.047150634 1.4101886e-38 388 276
0.090251073 0.74599999 -0.047087517 1.4194081e-38 389 276
0.091313601 0.74400002 -0.046961278 1.4012211e-38 390 276
0.092369102 0.74199998 -0.046835039 1.4473548e-38 391 276
0.093670078 0.74199998 -0.046835039 1.5117833e-38 392 276
0.094843052 0.741 -0.046771921 1.5210028e-38 393 276
0.096142277 0.741 -0.046771921 1.5852517e-38 394 276
0.097178504 0.73900002 -0.046645679 1.6036549e-38 395 276
0.098474212 0.73900002 -0.046645679 1.6219869e-38 396 276
0.099634908 0.73799998 -0.046582557 1.6496454e-38 397 276
0.10092887 0.73799998 -0.046582557 1.658865e-38 398 276
0.10194581 0.736 -0.046456318 1.6680845e-38 399 276
0.10323627 0.736 -0.046456318 1.6313855e-38 400 276
0.10452672 0.736 -0.046456318 1.6129824e-38 401 276
0.10581717 0.736 -0.046456318 1.6037979e-38 402 276
0.10710762 0.736 -0.046456318 1.5853586e-38 403 276
0.10810352 0.73400003 -0.046330083 1.5851783e-38 404 276
0.10939047 0.73400003 -0.046330083 1.5759587e-38 405 276
0.11067741 0.73400003 -0.046330083 1.530148e-38 406 276
0.11226943 0.736 -0.046456318 1.5209284e-38 407 276
0.11355989 0.736 -0.046456318 1.4933775e-38 408 276
0.11516243 0.73799998 -0.046582557 1.4564994e-38 409 276
0.11645639 0.73799998 -0.046582557 1.3000577e-38 410 276
