# .PCD v.7 - Point Cloud Data file format
FIELDS x y z rgb imX imY
SIZE 4 4 4 4 4 4
TYPE F F F F F F
COUNT 1 1 1 1 1 1
WIDTH 848
HEIGHT 1
VIEWPOINT 0 0 0 1 0 0 0
POINTS 848
DATA ascii
-0.042858478 0.67900002 -0.097622089 1.0228616e-38 284 322
-0.041667968 0.67900002 -0.097622089 1.0966181e-38 285 322
-0.040477451 0.67900002 -0.097622089 1.1613352e-38 286 322
-0.039286941 0.67900002 -0.097622089 1.27197e-38 287 322
-0.038040318 0.67799997 -0.097478308 1.364093e-38 288 322
-0.036851559 0.67799997 -0.097478308 1.4194104e-38 289 322
-0.035557602 0.676 -0.097190768 1.428593e-38 290 322
-0.034372345 0.676 -0.097190768 1.4378127e-38 291 322
-0.033285279 0.67799997 -0.097478308 1.4104079e-38 292 322
-0.032001842 0.676 -0.097190768 1.4933479e-38 293 322
-0.030816587 0.676 -0.097190768 1.5304828e-38 294 322
-0.029631332 0.676 -0.097190768 1.6503371e-38 295 322
0.028973831 0.66100001 -0.095034167 1.7880487e-38 345 322
0.030132787 0.66100001 -0.095034167 1.7971572e-38 346 322
0.031291738 0.66100001 -0.095034167 1.7786822e-38 347 322
0.032450691 0.66100001 -0.095034167 1.7787525e-38 348 322
0.033609647 0.66100001 -0.095034167 1.7972275e-38 349 322
0.0347686 0.66100001 -0.095034167 1.8248149e-38 350 322
0.035927553 0.66100001 -0.095034167 1.8155953e-38 351 322
0.037086505 0.66100001 -0.095034167 1.8247783e-38 352 322
0.038245458 0.66100001 -0.095034167 1.8247783e-38 353 322
0.039404415 0.66100001 -0.095034167 1.8248133e-38 354 322
0.040563367 0.66100001 -0.095034167 1.8248133e-38 355 322
0.04172232 0.66100001 -0.095034167 1.824813e-38 356 322
0.042881273 0.66100001 -0.095034167 1.824813e-38 357 322
0.044040225 0.66100001 -0.095034167 1.8523644e-38 358 322
0.045199182 0.66100001 -0.095034167 1.8523644e-38 359 322
0.046358135 0.66100001 -0.095034167 1.8616195e-38 360 322
0.047517084 0.66100001 -0.095034167 1.8708392e-38 361 322
0.04867604 0.66100001 -0.095034167 1.8616916e-38 362 322
0.049834993 0.66100001 -0.095034167 1.8616916e-38 363 322
0.050839648 0.65899998 -0.094746619 1.8523997e-38 364 322
0.051995095 0.65899998 -0.094746619 1.8523997e-38 365 322
0.053150542 0.65899998 -0.094746619 1.8431445e-38 366 322
0.054305989 0.65899998 -0.094746619 1.833925e-38 367 322
0.055377278 0.65799999 -0.094602853 1.8062667e-38 368 322
0.056530971 0.65799999 -0.094602853 1.7970472e-38 369 322
0.057772331 0.65899998 -0.094746619 1.7785723e-38 370 322
0.058927774 0.65899998 -0.094746619 1.7509496e-38 371 322
0.060083222 0.65899998 -0.094746619 1.7417298e-38 372 322
0.061424527 0.66100001 -0.095034167 1.7325102e-38 373 322
0.062583476 0.66100001 -0.095034167 1.7141063e-38 374 322
0.063742429 0.66100001 -0.095034167 1.6772281e-38 375 322
0.064901382 0.66100001 -0.095034167 1.6770485e-38 376 322
0.066060342 0.66100001 -0.095034167 1.6677931e-38 377 322
0.067320988 0.662 -0.095177941 1.640207e-38 378 322
0.068378247 0.66100001 -0.095034167 1.6125481e-38 379 322
0.0695372 0.66100001 -0.095034167 1.5848899e-38 380 322
0.070803106 0.662 -0.095177941 1.5664507e-38 381 322
0.071963809 0.662 -0.095177941 1.5113131e-38 382 322
0.07312452 0.662 -0.095177941 1.492874e-38 383 322
0.074397437 0.66299999 -0.095321715 1.4560678e-38 384 322
0.075559892 0.66299999 -0.095321715 1.4376285e-38 385 322
0.076838076 0.66399997 -0.095465489 1.4283371e-38 386 322
0.078002289 0.66399997 -0.095465489 1.4191175e-38 387 322
0.079404958 0.66600001 -0.095753036 1.3915311e-38 388 322
0.08057268 0.66600001 -0.095753036 1.3730919e-38 389 322
0.081863128 0.667 -0.09589681 1.345398e-38 390 322
0.083157085 0.66799998 -0.096040577 1.3361784e-38 391 322
0.084328316 0.66799998 -0.096040577 1.2994081e-38 392 322
0.085883528 0.671 -0.096471906 1.2532743e-38 393 322
0.087449253 0.67400002 -0.096903227 1.1981734e-38 394 322
0.088762499 0.67500001 -0.097047001 1.1797703e-38 395 322
0.090079248 0.676 -0.097190768 1.1981021e-38 396 322
0.091264501 0.676 -0.097190768 1.1888824e-38 397 322
0.092723273 0.67799997 -0.097478308 1.1705155e-38 398 322
0.093912028 0.67799997 -0.097478308 1.161296e-38 399 322
-0.049706999 0.67500001 -0.098230496 1.1437258e-38 278 323
-0.048523501 0.67500001 -0.098230496 5.8133259e-39 279 323
-0.047410134 0.676 -0.098376028 4.6143932e-39 280 323
-0.046361636 0.67799997 -0.09866707 6.642697e-39 281 323
-0.045172878 0.67799997 -0.09866707 8.9382439e-39 282 323
-0.043984115 0.67799997 -0.09866707 9.3073852e-39 283 323
-0.042795356 0.67799997 -0.09866707 9.4928526e-39 284 323
-0.041606598 0.67799997 -0.09866707 1.0046025e-38 285 323
-0.040417835 0.67799997 -0.09866707 1.0967986e-38 286 323
-0.039229076 0.67799997 -0.09866707 1.216617e-38 287 323
-0.037928104 0.676 -0.098376028 1.3180674e-38 288 323
-0.036742851 0.676 -0.098376028 1.4010436e-38 289 323
-0.035557602 0.676 -0.098376028 1.4378129e-38 290 323
-0.034372345 0.676 -0.098376028 1.4746552e-38 291 323
-0.033187091 0.676 -0.098376028 1.4931663e-38 292 323
-0.031954501 0.67500001 -0.098230496 1.4931663e-38 293 323
-0.030771 0.67500001 -0.098230496 1.3828934e-38 294 323
-0.0295875 0.67500001 -0.098230496 1.4474303e-38 295 323
-0.028404001 0.67500001 -0.098230496 1.5028588e-38 296 323
0.024190739 0.65700001 -0.095611021 1.7327311e-38 341 323
0.025342681 0.65700001 -0.095611021 1.7419484e-38 342 323
0.026494619 0.65700001 -0.095611021 1.7327287e-38 343 323
0.027646558 0.65700001 -0.095611021 1.7602429e-38 344 323
0.028798498 0.65700001 -0.095611021 1.7879017e-38 345 323
0.030041611 0.65899998 -0.09590207 1.7971566e-38 346 323
0.031197058 0.65899998 -0.09590207 1.7971566e-38 347 323
0.032352503 0.65899998 -0.09590207 1.7972272e-38 348 323
0.033609647 0.66100001 -0.096193127 1.7972272e-38 349 323
0.0347686 0.66100001 -0.096193127 1.8248136e-38 350 323
0.035927553 0.66100001 -0.096193127 1.8248136e-38 351 323
0.037086505 0.66100001 -0.096193127 1.8248136e-38 352 323
0.038245458 0.66100001 -0.096193127 1.8340332e-38 353 323
0.039404415 0.66100001 -0.096193127 1.8248133e-38 354 323
0.040563367 0.66100001 -0.096193127 1.8248133e-38 355 323
0.041596077 0.65899998 -0.09590207 1.8155584e-38 356 323
0.042751525 0.65899998 -0.09590207 1.824778e-38 357 323
0.044040225 0.66100001 -0.096193127 1.8431092e-38 358 323
0.045062415 0.65899998 -0.09590207 1.8523647e-38 359 323
0.046217863 0.65899998 -0.09590207 1.8523641e-38 360 323
0.04737331 0.65899998 -0.09590207 1.8616195e-38 361 323
0.048528757 0.65899998 -0.09590207 1.8340329e-38 362 323
0.049684204 0.65899998 -0.09590207 1.8340329e-38 363 323
0.050762504 0.65799999 -0.095756538 1.8339247e-38 364 323
0.051916201 0.65799999 -0.095756538 1.8339247e-38 365 323
0.05306989 0.65799999 -0.095756538 1.8155572e-38 366 323
0.054223582 0.65799999 -0.095756538 1.797082e-38 367 323
0.055377278 0.65799999 -0.095756538 1.7878625e-38 368 323
0.056530971 0.65799999 -0.095756538 1.7694234e-38 369 323
0.057684667 0.65799999 -0.095756538 1.7600963e-38 370 323
0.058838356 0.65799999 -0.095756538 1.741657e-38 371 323
0.060083222 0.65899998 -0.09590207 1.7140707e-38 372 323
0.061238669 0.65899998 -0.09590207 1.686448e-38 373 323
0.062394116 0.65899998 -0.09590207 1.6771204e-38 374 323
0.063549563 0.65899998 -0.09590207 1.6494618e-38 375 323
0.064705007 0.65899998 -0.09590207 1.6126559e-38 376 323
0.066060342 0.66100001 -0.096193127 1.6034363e-38 377 323
0.067219295 0.66100001 -0.096193127 1.5942166e-38 378 323
0.068378247 0.66100001 -0.096193127 1.5573744e-38 379 323
0.0695372 0.66100001 -0.096193127 1.5388997e-38 380 323
0.070696153 0.66100001 -0.096193127 1.5204604e-38 381 323
0.071963809 0.662 -0.096338652 1.4928384e-38 382 323
0.07312452 0.662 -0.096338652 1.4743993e-38 383 323
0.074285224 0.662 -0.096338652 1.4283734e-38 384 323
0.075559892 0.66299999 -0.096484177 1.4099703e-38 385 323
0.076722354 0.66299999 -0.096484177 1.4098621e-38 386 323
0.078002289 0.66399997 -0.096629702 1.4006425e-38 387 323
0.079166502 0.66399997 -0.096629702 1.3638364e-38 388 323
0.080330715 0.66399997 -0.096629702 1.3454333e-38 389 323
0.081863128 0.667 -0.097066283 1.3178115e-38 390 323
0.083032601 0.667 -0.097066283 1.2901529e-38 391 323
0.084328316 0.66799998 -0.097211808 1.2533469e-38 392 323
0.086011514 0.67199999 -0.097793922 1.2164686e-38 393 323
0.087449253 0.67400002 -0.098084971 1.1981018e-38 394 323
0.088762499 0.67500001 -0.098230496 1.1888821e-38 395 323
0.090079248 0.676 -0.098376028 1.1705155e-38 396 323
0.091264501 0.676 -0.098376028 1.1705155e-38 397 323
0.092723273 0.67799997 -0.09866707 1.161333e-38 398 323
0.093912028 0.67799997 -0.09866707 1.1336743e-38 399 323
-0.049706999 0.67500001 -0.099413998 1.3922925e-38 278 324
-0.048523501 0.67500001 -0.099413998 7.7458174e-39 279 324
-0.047410134 0.676 -0.099561274 1.3021986e-39 280 324
-0.046224877 0.676 -0.099561274 4.3449739e-39 281 324
-0.045039624 0.676 -0.099561274 8.1124349e-39 282 324
-0.043984115 0.67799997 -0.099855833 8.5730543e-39 283 324
-0.042669121 0.676 -0.099561274 9.308104e-39 284 324
-0.041483864 0.676 -0.099561274 9.6772467e-39 285 324
-0.040417835 0.67799997 -0.099855833 1.0873269e-38 286 324
-0.039229076 0.67799997 -0.099855833 1.1979258e-38 287 324
-0.037928104 0.676 -0.099561274 1.2075772e-38 288 324
-0.036742851 0.676 -0.099561274 1.2997727e-38 289 324
-0.035505001 0.67500001 -0.099413998 1.3826037e-38 290 324
-0.034321502 0.67500001 -0.099413998 1.419518e-38 291 324
-0.033137999 0.67500001 -0.099413998 1.5022769e-38 292 324
-0.031954501 0.67500001 -0.099413998 1.5299357e-38 293 324
-0.030725412 0.67400002 -0.099266715 1.4932372e-38 294 324
-0.029543666 0.67400002 -0.099266715 1.5024568e-38 295 324
-0.02827776 0.67199999 -0.098972157 1.4749448e-38 296 324
-0.027099518 0.67199999 -0.098972157 1.5394818e-38 297 324
-0.025921278 0.67199999 -0.098972157 1.5488125e-38 298 324
0.021920172 0.65799999 -0.096910238 1.7787922e-38 339 324
0.023038799 0.65700001 -0.096762955 1.7879023e-38 340 324
0.024190739 0.65700001 -0.096762955 1.7879023e-38 341 324
0.025342681 0.65700001 -0.096762955 1.7787881e-38 342 324
0.026494619 0.65700001 -0.096762955 1.7787881e-38 343 324
0.027646558 0.65700001 -0.096762955 1.7787878e-38 344 324
0.028798498 0.65700001 -0.096762955 1.7972269e-38 345 324
0.029996024 0.65799999 -0.096910238 1.7972272e-38 346 324
0.031197058 0.65899998 -0.097057514 1.8156303e-38 347 324
0.032352503 0.65899998 -0.097057514 1.8156656e-38 348 324
0.033609647 0.66100001 -0.09735208 1.8156656e-38 349 324
0.034663398 0.65899998 -0.097057514 1.8248852e-38 350 324
0.035818845 0.65899998 -0.097057514 1.8248852e-38 351 324
0.036974292 0.65899998 -0.097057514 1.8339976e-38 352 324
0.038129739 0.65899998 -0.097057514 1.8339976e-38 353 324
0.039285187 0.65899998 -0.097057514 1.8155584e-38 354 324
0.04044063 0.65899998 -0.097057514 1.8155584e-38 355 324
0.041596077 0.65899998 -0.097057514 1.8154868e-38 356 324
0.042686652 0.65799999 -0.096910238 1.83389e-38 357 324
0.043840345 0.65799999 -0.096910238 1.8522928e-38 358 324
0.044994038 0.65799999 -0.096910238 1.8522928e-38 359 324
0.04614773 0.65799999 -0.096910238 1.8522922e-38 360 324
0.047301427 0.65799999 -0.096910238 1.8707312e-38 361 324
0.048455119 0.65799999 -0.096910238 1.8431445e-38 362 324
0.049533416 0.65700001 -0.096762955 1.8431445e-38 363 324
0.050685361 0.65700001 -0.096762955 1.8338528e-38 364 324
0.051837299 0.65700001 -0.096762955 1.8246333e-38 365 324
0.052989237 0.65700001 -0.096762955 1.8062293e-38 366 324
0.054141179 0.65700001 -0.096762955 1.7878262e-38 367 324
0.055293117 0.65700001 -0.096762955 1.7601669e-38 368 324
0.056445058 0.65700001 -0.096762955 1.7417277e-38 369 324
0.057596996 0.65700001 -0.096762955 1.7232887e-38 370 324
0.058838356 0.65799999 -0.096910238 1.7140691e-38 371 324
0.059992049 0.65799999 -0.096910238 1.7047426e-38 372 324
0.061238669 0.65899998 -0.097057514 1.6863034e-38 373 324
0.062394116 0.65899998 -0.097057514 1.6586091e-38 374 324
0.063549563 0.65899998 -0.097057514 1.640206e-38 375 324
0.064705007 0.65899998 -0.097057514 1.6125834e-38 376 324
0.065860458 0.65899998 -0.097057514 1.5849249e-38 377 324
0.067219295 0.66100001 -0.09735208 1.5573388e-38 378 324
0.068378247 0.66100001 -0.09735208 1.5388997e-38 379 324
0.0695372 0.66100001 -0.09735208 1.5020936e-38 380 324
0.070696153 0.66100001 -0.09735208 1.4836545e-38 381 324
0.071855105 0.66100001 -0.09735208 1.4651795e-38 382 324
0.07312452 0.662 -0.097499363 1.4375566e-38 383 324
0.074285224 0.662 -0.097499363 1.4098624e-38 384 324
0.075445928 0.662 -0.097499363 1.4006428e-38 385 324
0.076722354 0.66299999 -0.097646631 1.3913509e-38 386 324
0.078002289 0.66399997 -0.097793914 1.3821314e-38 387 324
0.079166502 0.66399997 -0.097793914 1.3362138e-38 388 324
0.080330715 0.66399997 -0.097793914 1.3177746e-38 389 324
0.081740394 0.66600001 -0.098088481 1.2809332e-38 390 324
0.083032601 0.667 -0.098235756 1.2532745e-38 391 324
0.084328316 0.66799998 -0.098383039 1.2255807e-38 392 324
0.085883528 0.671 -0.098824874 1.216361e-38 393 324
0.087578997 0.67500001 -0.099413998 1.1705153e-38 394 324
0.088762499 0.67500001 -0.099413998 1.1612957e-38 395 324
0.090079248 0.676 -0.099561274 1.1705158e-38 396 324
0.09153451 0.67799997 -0.099855833 1.1612604e-38 397 324
0.092860043 0.67900002 -0.10000312 1.1337114e-38 398 324
0.094050556 0.67900002 -0.10000312 1.0968333e-38 399 324
-0.048595384 0.676 -0.10074653 1.2169057e-38 279 325
-0.047410134 0.676 -0.10074653 5.9937277e-39 280 325
-0.046224877 0.676 -0.10074653 4.7951859e-39 281 325
-0.045039624 0.676 -0.10074653 7.2816177e-39 282 325
-0.043854371 0.676 -0.10074653 7.9269871e-39 283 325
-0.042669121 0.676 -0.10074653 8.5716194e-39 284 325
-0.041483864 0.676 -0.10074653 9.4010199e-39 285 325
-0.040298611 0.676 -0.10074653 1.0596326e-38 286 325
-0.039113361 0.676 -0.10074653 1.1426087e-38 287 325
-0.037928104 0.676 -0.10074653 1.1430406e-38 288 325
-0.036742851 0.676 -0.10074653 1.2075775e-38 289 325
-0.035452399 0.67400002 -0.10044847 1.2997359e-38 290 325
-0.034270655 0.67400002 -0.10044847 1.3734924e-38 291 325
-0.033088908 0.67400002 -0.10044847 1.456324e-38 292 325
-0.03190716 0.67400002 -0.10044847 1.5208609e-38 293 325
-0.030634239 0.67199999 -0.10015039 1.4841266e-38 294 325
-0.029455997 0.67199999 -0.10015039 1.493382e-38 295 325
-0.028235679 0.671 -0.10000136 1.5026016e-38 296 325
-0.027059194 0.671 -0.10000136 1.4841266e-38 297 325
-0.025882706 0.671 -0.10000136 1.4290603e-38 298 325
-0.024669399 0.67000002 -0.099852331 1.456683e-38 299 325
-0.023424532 0.66799998 -0.099554263 1.5578836e-38 300 325
-0.022253305 0.66799998 -0.099554263 1.6316401e-38 301 325
-0.021050518 0.667 -0.099405229 1.6685939e-38 302 325
-0.019881045 0.667 -0.099405229 1.7147276e-38 303 325
0.01843104 0.65700001 -0.097914897 1.7786105e-38 336 325
0.019582979 0.65700001 -0.097914897 1.8062332e-38 337 325
0.020734919 0.65700001 -0.097914897 1.8155247e-38 338 325
0.021886859 0.65700001 -0.097914897 1.8155247e-38 339 325
0.023038799 0.65700001 -0.097914897 1.8339625e-38 340 325
0.024190739 0.65700001 -0.097914897 1.824743e-38 341 325
0.025342681 0.65700001 -0.097914897 1.824813e-38 342 325
0.026494619 0.65700001 -0.097914897 1.824813e-38 343 325
0.027646558 0.65700001 -0.097914897 1.8248486e-38 344 325
0.028798498 0.65700001 -0.097914897 1.8248486e-38 345 325
0.02995044 0.65700001 -0.097914897 1.8431799e-38 346 325
0.031149717 0.65799999 -0.098063931 1.8431799e-38 347 325
0.032303412 0.65799999 -0.098063931 1.8523994e-38 348 325
0.033507951 0.65899998 -0.098212965 1.8523994e-38 349 325
0.034610797 0.65799999 -0.098063931 1.8340329e-38 350 325
0.035764489 0.65799999 -0.098063931 1.8340329e-38 351 325
0.036918186 0.65799999 -0.098063931 1.8339976e-38 352 325
0.038071878 0.65799999 -0.098063931 1.8155584e-38 353 325
0.039165959 0.65700001 -0.097914897 1.8155584e-38 354 325
0.0403179 0.65700001 -0.097914897 1.8063389e-38 355 325
0.041469838 0.65700001 -0.097914897 1.806232e-38 356 325
0.042492028 0.65499997 -0.097616829 1.8154515e-38 357 325
0.043640465 0.65499997 -0.097616829 1.8063038e-38 358 325
0.04492566 0.65700001 -0.097914897 1.8155234e-38 359 325
0.046077598 0.65700001 -0.097914897 1.8155584e-38 360 325
0.047085766 0.65499997 -0.097616829 1.8155584e-38 361 325
0.048234195 0.65499997 -0.097616829 1.8063392e-38 362 325
0.049382631 0.65499997 -0.097616829 1.7970837e-38 363 325
0.050531063 0.65499997 -0.097616829 1.7970118e-38 364 325
0.051679496 0.65499997 -0.097616829 1.7877921e-38 365 325
0.052827932 0.65499997 -0.097616829 1.7785004e-38 366 325
0.053976361 0.65499997 -0.097616829 1.7600613e-38 367 325
0.055124797 0.65499997 -0.097616829 1.7232902e-38 368 325
0.056445058 0.65700001 -0.097914897 1.7048511e-38 369 325
0.057596996 0.65700001 -0.097914897 1.6772281e-38 370 325
0.058748938 0.65700001 -0.097914897 1.6680086e-38 371 325
0.059992049 0.65799999 -0.098063931 1.6586814e-38 372 325
0.061145745 0.65799999 -0.098063931 1.6402423e-38 373 325
0.062299434 0.65799999 -0.098063931 1.6217676e-38 374 325
0.063549563 0.65899998 -0.098212965 1.5941447e-38 375 325
0.064705007 0.65899998 -0.098212965 1.5573388e-38 376 325
0.065860458 0.65899998 -0.098212965 1.5388997e-38 377 325
0.067015901 0.65899998 -0.098212965 1.5113131e-38 378 325
0.068171352 0.65899998 -0.098212965 1.492874e-38 379 325
0.069326796 0.65899998 -0.098212965 1.4652874e-38 380 325
0.070482239 0.65899998 -0.098212965 1.4376285e-38 381 325
0.071855105 0.66100001 -0.098511033 1.4283371e-38 382 325
0.073014058 0.66100001 -0.098511033 1.4098621e-38 383 325
0.074285224 0.662 -0.098660067 1.3730919e-38 384 325
0.075445928 0.662 -0.098660067 1.3454333e-38 385 325
0.076606639 0.662 -0.098660067 1.3454336e-38 386 325
0.077884816 0.66299999 -0.098809093 1.336214e-38 387 325
0.079166502 0.66399997 -0.098958127 1.2993725e-38 388 325
0.080330715 0.66399997 -0.098958127 1.2717137e-38 389 325
0.081740394 0.66600001 -0.099256195 1.2532392e-38 390 325
0.083032601 0.667 -0.099405229 1.2255807e-38 391 325
0.084328316 0.66799998 -0.099554263 1.1796269e-38 392 325
0.085883528 0.671 -0.10000136 1.1796269e-38 393 325
0.087578997 0.67500001 -0.10059749 1.1705158e-38 394 325
0.088893995 0.676 -0.10074653 1.1705158e-38 395 325
0.090079248 0.676 -0.10074653 1.1704802e-38 396 325
0.09153451 0.67799997 -0.1010446 1.1704802e-38 397 325
0.092723273 0.67799997 -0.1010446 1.0968699e-38 398 325
-0.047410134 0.676 -0.10193179 1.5943338e-38 280 326
-0.046224877 0.676 -0.10193179 1.3731003e-38 281 326
-0.045039624 0.676 -0.10193179 1.2440983e-38 282 326
-0.043854371 0.676 -0.10193179 1.1150244e-38 283 326
-0.042669121 0.676 -0.10193179 1.0321181e-38 284 326
-0.041483864 0.676 -0.10193179 9.6758118e-39 285 326
-0.040298611 0.676 -0.10193179 1.0316848e-38 286 326
-0.039113361 0.676 -0.10193179 9.8558716e-39 287 326
-0.037928104 0.676 -0.10193179 1.0779624e-38 288 326
-0.036688499 0.67500001 -0.101781 1.1701582e-38 289 326
-0.035452399 0.67400002 -0.10163021 1.2260147e-38 290 326
-0.034270655 0.67400002 -0.10163021 1.3089907e-38 291 326
-0.032941625 0.671 -0.10117785 1.36438e-38 292 326
-0.031765141 0.671 -0.10117785 1.4012584e-38 293 326
-0.030634239 0.67199999 -0.10132863 1.4380994e-38 294 326
-0.029412165 0.671 -0.10117785 1.4657581e-38 295 326
-0.028235679 0.671 -0.10117785 1.5208587e-38 296 326
-0.027018867 0.67000002 -0.10102707 1.5300782e-38 297 326
-0.025844134 0.67000002 -0.10102707 1.5117464e-38 298 326
-0.024669399 0.67000002 -0.10102707 1.5117464e-38 299 326
-0.023424532 0.66799998 -0.10072549 1.4566814e-38 300 326
-0.022253305 0.66799998 -0.10072549 1.4566814e-38 301 326
-0.021050518 0.667 -0.1005747 1.4934186e-38 302 326
-0.019851239 0.66600001 -0.10042392 1.5210774e-38 303 326
-0.018683519 0.66600001 -0.10042392 1.5852569e-38 304 326
-0.0174632 0.66399997 -0.10012234 1.6313547e-38 305 326
-0.016249891 0.662 -0.09982077 1.6407544e-38 306 326
-0.015020805 0.65899998 -0.099368408 1.6591576e-38 307 326
-0.013865359 0.65899998 -0.099368408 1.7050746e-38 308 326
-0.012709912 0.65899998 -0.099368408 1.7234777e-38 309 326
-0.011554466 0.65899998 -0.099368408 1.7510272e-38 310 326
-0.010399019 0.65899998 -0.099368408 1.7510272e-38 311 326
-0.0092295464 0.65799999 -0.099217616 1.7602102e-38 312 326
-0.0080758529 0.65799999 -0.099217616 1.7786133e-38 313 326
-0.0069221598 0.65799999 -0.099217616 1.7695017e-38 314 326
-0.0057772328 0.65899998 -0.099368408 1.7695017e-38 315 326
-0.0023179066 0.66100001 -0.099669985 1.7877963e-38 318 326
-0.0011589533 0.66100001 -0.099669985 1.7970159e-38 319 326
0 0.66100001 -0.099669985 1.7786484e-38 320 326
0.0172791 0.65700001 -0.099066831 1.824778e-38 335 326
0.01843104 0.65700001 -0.099066831 1.7972991e-38 336 326
0.019582979 0.65700001 -0.099066831 1.8065187e-38 337 326
0.020734919 0.65700001 -0.099066831 1.8248499e-38 338 326
0.021886859 0.65700001 -0.099066831 1.8248499e-38 339 326
0.023038799 0.65700001 -0.099066831 1.8340332e-38 340 326
0.024190739 0.65700001 -0.099066831 1.8340332e-38 341 326
0.025265532 0.65499997 -0.098765261 1.8432527e-38 342 326
0.026413966 0.65499997 -0.098765261 1.8432527e-38 343 326
0.027646558 0.65700001 -0.099066831 1.8248499e-38 344 326
0.028798498 0.65700001 -0.099066831 1.8248499e-38 345 326
0.02995044 0.65700001 -0.099066831 1.8248855e-38 346 326
0.031149717 0.65799999 -0.099217616 1.834105e-38 347 326
0.032303412 0.65799999 -0.099217616 1.8432524e-38 348 326
0.033457108 0.65799999 -0.099217616 1.8340329e-38 349 326
0.034558199 0.65700001 -0.099066831 1.8340332e-38 350 326
0.03560143 0.65499997 -0.098765261 1.8248136e-38 351 326
0.036749862 0.65499997 -0.098765261 1.8155587e-38 352 326
0.037898298 0.65499997 -0.098765261 1.8155587e-38 353 326
0.038987119 0.65399998 -0.098614477 1.8063036e-38 354 326
0.040133797 0.65399998 -0.098614477 1.7786809e-38 355 326
0.041280478 0.65399998 -0.098614477 1.8061234e-38 356 326
0.04242716 0.65399998 -0.098614477 1.8153789e-38 357 326
0.043640465 0.65499997 -0.098765261 1.8337459e-38 358 326
0.044788897 0.65499997 -0.098765261 1.8614044e-38 359 326
0.045867197 0.65399998 -0.098614477 1.8338534e-38 360 326
0.047013879 0.65399998 -0.098614477 1.8153784e-38 361 326
0.048160557 0.65399998 -0.098614477 1.8153066e-38 362 326
0.049307238 0.65399998 -0.098614477 1.8060871e-38 363 326
0.050453916 0.65399998 -0.098614477 1.7876121e-38 364 326
0.051600594 0.65399998 -0.098614477 1.769209e-38 365 326
0.052747279 0.65399998 -0.098614477 1.7691359e-38 366 326
0.053976361 0.65499997 -0.098765261 1.7415133e-38 367 326
0.055124797 0.65499997 -0.098765261 1.6955229e-38 368 326
0.056273226 0.65499997 -0.098765261 1.6863034e-38 369 326
0.057421666 0.65499997 -0.098765261 1.667864e-38 370 326
0.058748938 0.65700001 -0.099066831 1.6586085e-38 371 326
0.05990088 0.65700001 -0.099066831 1.6493525e-38 372 326
0.061145745 0.65799999 -0.099217616 1.6308775e-38 373 326
0.062299434 0.65799999 -0.099217616 1.6032195e-38 374 326
0.06345313 0.65799999 -0.099217616 1.5847804e-38 375 326
0.064606823 0.65799999 -0.099217616 1.5479743e-38 376 326
0.065760516 0.65799999 -0.099217616 1.5387548e-38 377 326
0.067015901 0.65899998 -0.099368408 1.4836895e-38 378 326
0.068171352 0.65899998 -0.099368408 1.4744699e-38 379 326
0.069326796 0.65899998 -0.099368408 1.4193326e-38 380 326
0.070482239 0.65899998 -0.099368408 1.4008576e-38 381 326
0.071855105 0.66100001 -0.099669985 1.4098977e-38 382 326
0.073014058 0.66100001 -0.099669985 1.3822749e-38 383 326
0.074173011 0.66100001 -0.099669985 1.3637999e-38 384 326
0.075331964 0.66100001 -0.099669985 1.3453607e-38 385 326
0.076606639 0.662 -0.09982077 1.3361056e-38 386 326
0.077884816 0.66299999 -0.099971555 1.2992632e-38 387 326
0.079047278 0.66299999 -0.099971555 1.2716421e-38 388 326
0.080330715 0.66399997 -0.10012234 1.2439475e-38 389 326
0.081740394 0.66600001 -0.10042392 1.2071414e-38 390 326
0.083032601 0.667 -0.1005747 1.1979219e-38 391 326
0.084328316 0.66799998 -0.10072549 1.1521112e-38 392 326
0.085883528 0.671 -0.10117785 1.1521112e-38 393 326
0.087189756 0.67199999 -0.10132863 1.1796625e-38 394 326
0.088893995 0.676 -0.10193179 1.1888821e-38 395 326
0.090079248 0.676 -0.10193179 1.1612974e-38 396 326
0.091264501 0.676 -0.10193179 1.1336746e-38 397 326
0.092723273 0.67799997 -0.10223336 1.0782885e-38 398 326
-0.042669121 0.676 -0.10311703 1.5392316e-38 284 327
-0.041483864 0.676 -0.10311703 1.3732435e-38 285 327
-0.040298611 0.676 -0.10311703 1.280613e-38 286 327
-0.039113361 0.676 -0.10311703 1.0501241e-38 287 327
-0.037928104 0.676 -0.10311703 9.3041356e-39 288 327
-0.036688499 0.67500001 -0.1029645 1.0318648e-38 289 327
-0.0352946 0.671 -0.10235433 1.0601714e-38 290 327
-0.034067266 0.67000002 -0.1022018 1.2076844e-38 291 327
-0.032794341 0.66799998 -0.10189671 1.2354139e-38 292 327
-0.031623118 0.66799998 -0.10189671 1.2999508e-38 293 327
-0.030588651 0.671 -0.10235433 1.3553034e-38 294 327
-0.029368332 0.67000002 -0.1022018 1.4198403e-38 295 327
-0.028193599 0.67000002 -0.1022018 1.4474263e-38 296 327
-0.026938211 0.66799998 -0.10189671 1.4474263e-38 297 327
-0.025766984 0.66799998 -0.10189671 1.4750126e-38 298 327
-0.02459576 0.66799998 -0.10189671 1.4750126e-38 299 327
-0.023424532 0.66799998 -0.10189671 1.4382053e-38 300 327
-0.022219993 0.667 -0.10174417 1.4474249e-38 301 327
-0.021050518 0.667 -0.10174417 1.5026341e-38 302 327
-0.019851239 0.66600001 -0.10159164 1.5395482e-38 303 327
-0.018627413 0.66399997 -0.10128655 1.5945786e-38 304 327
-0.017436899 0.66299999 -0.10113402 1.6130177e-38 305 327
-0.016225345 0.66100001 -0.10082894 1.6683351e-38 306 327
-0.015020805 0.65899998 -0.10052385 1.6775546e-38 307 327
-0.013865359 0.65899998 -0.10052385 1.7143969e-38 308 327
-0.012709912 0.65899998 -0.10052385 1.7143969e-38 309 327
-0.011554466 0.65899998 -0.10052385 1.7602426e-38 310 327
-0.010399019 0.65899998 -0.10052385 1.7326199e-38 311 327
-0.0092295464 0.65799999 -0.10037132 1.7415867e-38 312 327
-0.0080758529 0.65799999 -0.10037132 1.7047445e-38 313 327
-0.0069221598 0.65799999 -0.10037132 1.7139635e-38 314 327
-0.0057772328 0.65899998 -0.10052385 1.7139635e-38 315 327
-0.0046217865 0.65899998 -0.10052385 1.7322955e-38 316 327
-0.0034663398 0.65899998 -0.10052385 1.7322955e-38 317 327
-0.0023073866 0.65799999 -0.10037132 1.7047445e-38 318 327
-0.00115194 0.65700001 -0.10021878 1.713964e-38 319 327
0 0.65700001 -0.10021878 1.713964e-38 320 327
0.00115194 0.65700001 -0.10021878 1.7415867e-38 321 327
0.0023038799 0.65700001 -0.10021878 1.7693533e-38 322 327
0.0034452998 0.65499997 -0.099913694 1.7877924e-38 323 327
0.0045937328 0.65499997 -0.099913694 1.7877571e-38 324 327
0.0057596997 0.65700001 -0.10021878 1.7785375e-38 325 327
0.0068905996 0.65499997 -0.099913694 1.7602063e-38 326 327
0.0080267601 0.65399998 -0.099761158 1.7786456e-38 327 327
0.0091734398 0.65399998 -0.099761158 1.8062683e-38 328 327
0.01032012 0.65399998 -0.099761158 1.8062683e-38 329 327
0.011431733 0.65200001 -0.099456072 1.7879373e-38 330 327
0.012574906 0.65200001 -0.099456072 1.7971569e-38 331 327
0.016078066 0.65499997 -0.099913694 1.8523641e-38 334 327
0.017226499 0.65499997 -0.099913694 1.8523641e-38 335 327
0.01843104 0.65700001 -0.10021878 1.8523641e-38 336 327
0.019523365 0.65499997 -0.099913694 1.8616195e-38 337 327
0.020671798 0.65499997 -0.099913694 1.8707309e-38 338 327
0.021820232 0.65499997 -0.099913694 1.8799505e-38 339 327
0.022968665 0.65499997 -0.099913694 1.8616193e-38 340 327
0.024117097 0.65499997 -0.099913694 1.8616193e-38 341 327
0.025265532 0.65499997 -0.099913694 1.8432527e-38 342 327
0.026413966 0.65499997 -0.099913694 1.8432527e-38 343 327
0.027562398 0.65499997 -0.099913694 1.8340696e-38 344 327
0.028710833 0.65499997 -0.099913694 1.8248499e-38 345 327
0.029859263 0.65499997 -0.099913694 1.8432527e-38 346 327
0.03110238 0.65700001 -0.10021878 1.8432527e-38 347 327
0.03225432 0.65700001 -0.10021878 1.8523644e-38 348 327
0.033406258 0.65700001 -0.10021878 1.8523644e-38 349 327
0.034452997 0.65499997 -0.099913694 1.824778e-38 350 327
0.035547078 0.65399998 -0.099761158 1.824778e-38 351 327
0.036693759 0.65399998 -0.099761158 1.8156306e-38 352 327
0.03778258 0.653 -0.099608615 1.7879721e-38 353 327
0.038867895 0.65200001 -0.099456072 1.8154866e-38 354 327
0.040011063 0.65200001 -0.099456072 1.7970474e-38 355 327
0.041217357 0.653 -0.099608615 1.7694609e-38 356 327
0.042362284 0.653 -0.099608615 1.7694609e-38 357 327
0.043507211 0.653 -0.099608615 1.7602782e-38 358 327
0.044720516 0.65399998 -0.099761158 1.7694979e-38 359 327
0.045867197 0.65399998 -0.099761158 1.7694256e-38 360 327
0.047013879 0.65399998 -0.099761158 1.7509865e-38 361 327
0.048086919 0.653 -0.099608615 1.7141802e-38 362 327
0.049231846 0.653 -0.099608615 1.7049607e-38 363 327
0.050376773 0.653 -0.099608615 1.6865214e-38 364 327
0.051600594 0.65399998 -0.099761158 1.6681183e-38 365 327
0.052747279 0.65399998 -0.099761158 1.686448e-38 366 327
0.053893957 0.65399998 -0.099761158 1.6495337e-38 367 327
0.055040635 0.65399998 -0.099761158 1.6127631e-38 368 327
0.056187313 0.65399998 -0.099761158 1.6127631e-38 369 327
0.057421666 0.65499997 -0.099913694 1.6034366e-38 370 327
0.058570094 0.65499997 -0.099913694 1.5849615e-38 371 327
0.05990088 0.65700001 -0.10021878 1.5757419e-38 372 327
0.061052818 0.65700001 -0.10021878 1.5481192e-38 373 327
0.06220476 0.65700001 -0.10021878 1.52968e-38 374 327
0.063356705 0.65700001 -0.10021878 1.5204604e-38 375 327
0.064508639 0.65700001 -0.10021878 1.4836539e-38 376 327
0.065760516 0.65799999 -0.10037132 1.4744343e-38 377 327
0.066914216 0.65799999 -0.10037132 1.4376638e-38 378 327
0.068067901 0.65799999 -0.10037132 1.4284443e-38 379 327
0.069221593 0.65799999 -0.10037132 1.4008579e-38 380 327
0.070375293 0.65799999 -0.10037132 1.3823829e-38 381 327
0.07163769 0.65899998 -0.10052385 1.3730913e-38 382 327
0.073014058 0.66100001 -0.10082894 1.3638717e-38 383 327
0.074173011 0.66100001 -0.10082894 1.3178465e-38 384 327
0.075331964 0.66100001 -0.10082894 1.290188e-38 385 327
0.076490916 0.66100001 -0.10082894 1.2624575e-38 386 327
0.077767342 0.662 -0.10098148 1.2439825e-38 387 327
0.078928046 0.662 -0.10098148 1.1981015e-38 388 327
0.080209732 0.66299999 -0.10113402 1.1796622e-38 389 327
0.081740394 0.66600001 -0.10159164 1.1520761e-38 390 327
0.083032601 0.667 -0.10174417 1.1520761e-38 391 327
0.084328316 0.66799998 -0.10189671 1.1520759e-38 392 327
0.085755527 0.67000002 -0.1022018 1.1613313e-38 393 327
0.087060012 0.671 -0.10235433 1.1796272e-38 394 327
0.088893995 0.676 -0.10311703 1.1796272e-38 395 327
0.090079248 0.676 -0.10311703 1.1243844e-38 396 327
0.091264501 0.676 -0.10311703 1.0967257e-38 397 327
0.092723273 0.67799997 -0.10342211 1.0229727e-38 398 327
-0.037928104 0.676 -0.10430229 1.2073271e-38 288 328
-0.036688499 0.67500001 -0.104148 9.95277e-39 289 328
-0.035084199 0.667 -0.10291365 9.8648749e-39 290 328
-0.03386388 0.66600001 -0.10275936 1.0971223e-38 291 328
-0.032696161 0.66600001 -0.10275936 1.1246715e-38 292 328
-0.031528439 0.66600001 -0.10275936 1.2076476e-38 293 328
-0.030360719 0.66600001 -0.10275936 1.2908031e-38 294 328
-0.029236831 0.667 -0.10291365 1.3645596e-38 295 328
-0.028025279 0.66600001 -0.10275936 1.4290953e-38 296 328
-0.026857559 0.66600001 -0.10275936 1.4198756e-38 297 328
-0.025612691 0.66399997 -0.10245077 1.4749761e-38 298 328
-0.024448479 0.66399997 -0.10245077 1.4749761e-38 299 328
-0.023354398 0.66600001 -0.10275936 1.4750477e-38 300 328
-0.022120051 0.66399997 -0.10245077 1.4935227e-38 301 328
-0.020955838 0.66399997 -0.10245077 1.5395482e-38 302 328
-0.019791625 0.66399997 -0.10245077 1.5856101e-38 303 328
-0.018599359 0.66299999 -0.10229647 1.6499673e-38 304 328
-0.017410601 0.662 -0.10214218 1.6684064e-38 305 328
-0.016176252 0.65899998 -0.1016793 1.7052126e-38 306 328
-0.015020805 0.65899998 -0.1016793 1.7236519e-38 307 328
-0.013865359 0.65899998 -0.1016793 1.7420187e-38 308 328
-0.012709912 0.65899998 -0.1016793 1.732799e-38 309 328
-0.011554466 0.65899998 -0.1016793 1.7510581e-38 310 328
-0.010399019 0.65899998 -0.1016793 1.6312038e-38 311 328
-0.0092295464 0.65799999 -0.10152501 1.5755604e-38 312 328
-0.0080758529 0.65799999 -0.10152501 1.3819496e-38 313 328
-0.0069221598 0.65799999 -0.10152501 1.3447471e-38 314 328
-0.0057772328 0.65899998 -0.1016793 1.3447471e-38 315 328
-0.0046147732 0.65799999 -0.10152501 1.3355301e-38 316 328
-0.0034610799 0.65799999 -0.10152501 1.3631529e-38 317 328
-0.0023038799 0.65700001 -0.10137072 1.3540065e-38 318 328
-0.00115194 0.65700001 -0.10137072 1.3816291e-38 319 328
0 0.65499997 -0.10106213 1.3911358e-38 320 328
0.0011484332 0.65499997 -0.10106213 1.4096108e-38 321 328
0.0022968664 0.65499997 -0.10106213 1.464856e-38 322 328
0.0034452998 0.65499997 -0.10106213 1.5201734e-38 323 328
0.0045937328 0.65499997 -0.10106213 1.5479406e-38 324 328
0.0057421662 0.65499997 -0.10106213 1.5756353e-38 325 328
0.0068800794 0.65399998 -0.10090783 1.6125855e-38 326 328
0.0080267601 0.65399998 -0.10090783 1.6679029e-38 327 328
0.0091594132 0.653 -0.10075355 1.7140006e-38 328 328
0.010304339 0.653 -0.10075355 1.7416594e-38 329 328
0.011431733 0.65200001 -0.10059925 1.7785373e-38 330 328
0.012574906 0.65200001 -0.10059925 1.7970124e-38 331 328
0.01371808 0.65200001 -0.10059925 1.8338181e-38 332 328
0.014861252 0.65200001 -0.10059925 1.8706603e-38 333 328
0.01605352 0.65399998 -0.10090783 1.8523644e-38 334 328
0.017226499 0.65499997 -0.10106213 1.861584e-38 335 328
0.01843104 0.65700001 -0.10137072 1.8432527e-38 336 328
0.019523365 0.65499997 -0.10106213 1.8432527e-38 337 328
0.020671798 0.65499997 -0.10106213 1.861584e-38 338 328
0.021820232 0.65499997 -0.10106213 1.861584e-38 339 328
0.022968665 0.65499997 -0.10106213 1.8616195e-38 340 328
0.024080278 0.65399998 -0.10090783 1.8616195e-38 341 328
0.025226958 0.65399998 -0.10090783 1.8340332e-38 342 328
0.02637364 0.65399998 -0.10090783 1.8432527e-38 343 328
0.027520318 0.65399998 -0.10090783 1.8432176e-38 344 328
0.028666999 0.65399998 -0.10090783 1.8432176e-38 345 328
0.029813679 0.65399998 -0.10090783 1.8615488e-38 346 328
0.030960357 0.65399998 -0.10090783 1.8523291e-38 347 328
0.03210704 0.65399998 -0.10090783 1.8523647e-38 348 328
0.033202872 0.653 -0.10075355 1.8431092e-38 349 328
0.034347799 0.653 -0.10075355 1.8156306e-38 350 328
0.035492726 0.653 -0.10075355 1.8156306e-38 351 328
0.036637653 0.653 -0.10075355 1.8063392e-38 352 328
0.03778258 0.653 -0.10075355 1.7970837e-38 353 328
0.038867895 0.65200001 -0.10059925 1.7694606e-38 354 328
0.040011063 0.65200001 -0.10059925 1.7602411e-38 355 328
0.041154239 0.65200001 -0.10059925 1.7693527e-38 356 328
0.042297412 0.65200001 -0.10059925 1.7693527e-38 357 328
0.043507211 0.653 -0.10075355 1.769353e-38 358 328
0.044652138 0.653 -0.10075355 1.769353e-38 359 328
0.045797065 0.653 -0.10075355 1.7693164e-38 360 328
0.046941992 0.653 -0.10075355 1.7232186e-38 361 328
0.048086919 0.653 -0.10075355 1.7047792e-38 362 328
0.049231846 0.653 -0.10075355 1.6955597e-38 363 328
0.050376773 0.653 -0.10075355 1.6680089e-38 364 328
0.0515217 0.653 -0.10075355 1.6587533e-38 365 328
0.052666627 0.653 -0.10075355 1.6494971e-38 366 328
0.05381155 0.653 -0.10075355 1.5941798e-38 367 328
0.055040635 0.65399998 -0.10090783 1.5941798e-38 368 328
0.056187313 0.65399998 -0.10090783 1.5941798e-38 369 328
0.057333998 0.65399998 -0.10090783 1.5757053e-38 370 328
0.058570094 0.65499997 -0.10106213 1.5572662e-38 371 328
0.059718527 0.65499997 -0.10106213 1.5664492e-38 372 328
0.061052818 0.65700001 -0.10137072 1.5387545e-38 373 328
0.06220476 0.65700001 -0.10137072 1.5112034e-38 374 328
0.063356705 0.65700001 -0.10137072 1.5019839e-38 375 328
0.064508639 0.65700001 -0.10137072 1.4651778e-38 376 328
0.065660581 0.65700001 -0.10137072 1.4467386e-38 377 328
0.066914216 0.65799999 -0.10152501 1.4008208e-38 378 328
0.068067901 0.65799999 -0.10152501 1.3916012e-38 379 328
0.069221593 0.65799999 -0.10152501 1.4006778e-38 380 328
0.070375293 0.65799999 -0.10152501 1.373055e-38 381 328
0.07163769 0.65899998 -0.1016793 1.3545806e-38 382 328
0.072793134 0.65899998 -0.1016793 1.3361056e-38 383 328
0.074173011 0.66100001 -0.10198789 1.2809685e-38 384 328
0.075331964 0.66100001 -0.10198789 1.253274e-38 385 328
0.076490916 0.66100001 -0.10198789 1.1796259e-38 386 328
0.077767342 0.662 -0.10214218 1.1888455e-38 387 328
0.078928046 0.662 -0.10214218 1.1979216e-38 388 328
0.080209732 0.66299999 -0.10229647 1.1979216e-38 389 328
0.081740394 0.66600001 -0.10275936 1.1520396e-38 390 328
0.083032601 0.667 -0.10291365 1.1520396e-38 391 328
0.084328316 0.66799998 -0.10306793 1.1704427e-38 392 328
0.085755527 0.67000002 -0.10337654 1.1796622e-38 393 328
0.087060012 0.671 -0.10353082 1.1245619e-38 394 328
0.088893995 0.676 -0.10430229 1.1153424e-38 395 328
0.090079248 0.676 -0.10430229 1.0966548e-38 396 328
0.09153451 0.67799997 -0.10461088 1.0505928e-38 397 328
-0.0349264 0.66399997 -0.10361498 1.4375288e-38 290 329
-0.033762183 0.66399997 -0.10361498 1.2992352e-38 291 329
-0.03259797 0.66399997 -0.10361498 1.1152717e-38 292 329
-0.031433757 0.66399997 -0.10361498 1.1337109e-38 293 329
-0.030360719 0.66600001 -0.10392708 1.1435052e-38 294 329
-0.029192999 0.66600001 -0.10392708 1.2357009e-38 295 329
-0.028025279 0.66600001 -0.10392708 1.3370089e-38 296 329
-0.026776904 0.66399997 -0.10361498 1.3830707e-38 297 329
-0.025574118 0.66299999 -0.10345893 1.4474263e-38 298 329
-0.024411658 0.66299999 -0.10345893 1.4474263e-38 299 329
-0.0232492 0.66299999 -0.10345893 1.465936e-38 300 329
-0.022053426 0.662 -0.10330289 1.4935587e-38 301 329
-0.020892721 0.662 -0.10330289 1.5396202e-38 302 329
-0.019732011 0.662 -0.10330289 1.5764985e-38 303 329
-0.018543253 0.66100001 -0.10314685 1.6592224e-38 304 329
-0.017331699 0.65899998 -0.10283475 1.6776616e-38 305 329
-0.016176252 0.65899998 -0.10283475 1.732799e-38 306 329
-0.014998012 0.65799999 -0.1026787 1.732799e-38 307 329
-0.01384432 0.65799999 -0.1026787 1.7602779e-38 308 329
-0.012690626 0.65799999 -0.1026787 1.7602779e-38 309 329
-0.011536933 0.65799999 -0.1026787 1.7509496e-38 310 329
-0.01038324 0.65799999 -0.1026787 1.5942169e-38 311 329
-0.0092295464 0.65799999 -0.1026787 1.4100033e-38 312 329
-0.0080758529 0.65799999 -0.1026787 1.1518556e-38 313 329
-0.0069221598 0.65799999 -0.1026787 1.1970921e-38 314 329
-0.0057684663 0.65799999 -0.1026787 1.2523735e-38 315 329
-0.0046147732 0.65799999 -0.1026787 1.1876966e-38 316 329
-0.0034558198 0.65700001 -0.10252266 1.1784769e-38 317 329
-0.0022968664 0.65499997 -0.10221056 1.1417791e-38 318 329
-0.0011484332 0.65499997 -0.10221056 1.1970606e-38 319 329
0 0.65399998 -0.10205451 1.1974552e-38 320 329
0.00114668 0.65399998 -0.10205451 1.2343336e-38 321 329
0.00229336 0.65399998 -0.10205451 1.2619916e-38 322 329
0.0034400397 0.65399998 -0.10205451 1.3450035e-38 323 329
0.0045867199 0.65399998 -0.10205451 1.3544383e-38 324 329
0.0057333997 0.65399998 -0.10205451 1.3912806e-38 325 329
0.0068800794 0.65399998 -0.10205451 1.4283018e-38 326 329
0.0080144862 0.653 -0.10189847 1.4836191e-38 327 329
0.0091594132 0.653 -0.10189847 1.5389365e-38 328 329
0.010304339 0.653 -0.10189847 1.6034735e-38 329 329
0.011396666 0.64999998 -0.10143033 1.6313487e-38 330 329
0.012536332 0.64999998 -0.10143033 1.705141e-38 331 329
0.013675999 0.64999998 -0.10143033 1.7879726e-38 332 329
0.014815666 0.64999998 -0.10143033 1.7971922e-38 333 329
0.016004426 0.65200001 -0.10174242 1.8523291e-38 334 329
0.017226499 0.65499997 -0.10221056 1.8523291e-38 335 329
0.018374931 0.65499997 -0.10221056 1.8615488e-38 336 329
0.019493559 0.65399998 -0.10205451 1.8708042e-38 337 329
0.020640239 0.65399998 -0.10205451 1.8708039e-38 338 329
0.021753605 0.653 -0.10189847 1.8615844e-38 339 329
0.022898532 0.653 -0.10189847 1.861584e-38 340 329
0.024043459 0.653 -0.10189847 1.8523644e-38 341 329
0.025188386 0.653 -0.10189847 1.8523647e-38 342 329
0.026333313 0.653 -0.10189847 1.8523647e-38 343 329
0.02743616 0.65200001 -0.10174242 1.8339979e-38 344 329
0.028579334 0.65200001 -0.10174242 1.8339979e-38 345 329
0.029722504 0.65200001 -0.10174242 1.8431095e-38 346 329
0.03091302 0.653 -0.10189847 1.8431095e-38 347 329
0.032057945 0.653 -0.10189847 1.8155587e-38 348 329
0.033152029 0.65200001 -0.10174242 1.8155587e-38 349 329
0.034295198 0.65200001 -0.10174242 1.8063036e-38 350 329
0.035438374 0.65200001 -0.10174242 1.797084e-38 351 329
0.036581546 0.65200001 -0.10174242 1.7786809e-38 352 329
0.037608996 0.64999998 -0.10143033 1.7509862e-38 353 329
0.038748663 0.64999998 -0.10143033 1.7510218e-38 354 329
0.039888334 0.64999998 -0.10143033 1.7418022e-38 355 329
0.041154239 0.65200001 -0.10174242 1.7325471e-38 356 329
0.042297412 0.65200001 -0.10174242 1.7233275e-38 357 329
0.043440588 0.65200001 -0.10174242 1.7233275e-38 358 329
0.044583756 0.65200001 -0.10174242 1.6956688e-38 359 329
0.045726933 0.65200001 -0.10174242 1.6587903e-38 360 329
0.046870105 0.65200001 -0.10174242 1.6587903e-38 361 329
0.048086919 0.653 -0.10189847 1.6585735e-38 362 329
0.049156453 0.65200001 -0.10174242 1.6585735e-38 363 329
0.050299626 0.65200001 -0.10174242 1.6219113e-38 364 329
0.0515217 0.653 -0.10189847 1.6034363e-38 365 329
0.052666627 0.653 -0.10189847 1.594324e-38 366 329
0.05381155 0.653 -0.10189847 1.5482261e-38 367 329
0.054956477 0.653 -0.10189847 1.5481543e-38 368 329
0.056187313 0.65399998 -0.10205451 1.5389347e-38 369 329
0.057333998 0.65399998 -0.10205451 1.52968e-38 370 329
0.058570094 0.65499997 -0.10221056 1.5204604e-38 371 329
0.059718527 0.65499997 -0.10221056 1.4836176e-38 372 329
0.060866963 0.65499997 -0.10221056 1.474398e-38 373 329
0.062015396 0.65499997 -0.10221056 1.4375917e-38 374 329
0.063356705 0.65700001 -0.10252266 1.4283721e-38 375 329
0.064508639 0.65700001 -0.10252266 1.4283721e-38 376 329
0.065660581 0.65700001 -0.10252266 1.409933e-38 377 329
0.066812515 0.65700001 -0.10252266 1.3823466e-38 378 329
0.067964457 0.65700001 -0.10252266 1.3731269e-38 379 329
0.069221593 0.65799999 -0.1026787 1.3637645e-38 380 329
0.070375293 0.65799999 -0.1026787 1.3453254e-38 381 329
0.07163769 0.65899998 -0.10283475 1.3176674e-38 382 329
0.072793134 0.65899998 -0.10283475 1.2992282e-38 383 329
0.074173011 0.66100001 -0.10314685 1.2348358e-38 384 329
0.075331964 0.66100001 -0.10314685 1.2163966e-38 385 329
0.076490916 0.66100001 -0.10314685 1.179555e-38 386 329
0.077767342 0.662 -0.10330289 1.1703355e-38 387 329
0.079047278 0.66299999 -0.10345893 1.133637e-38 388 329
0.080330715 0.66399997 -0.10361498 1.1428566e-38 389 329
0.081863128 0.667 -0.10408312 1.1245253e-38 390 329
0.083032601 0.667 -0.10408312 1.1337449e-38 391 329
0.084328316 0.66799998 -0.10423917 1.1244897e-38 392 329
0.085755527 0.67000002 -0.10455126 1.1337093e-38 393 329
0.087060012 0.671 -0.10470732 1.1152001e-38 394 329
0.088893995 0.676 -0.10548755 1.0875054e-38 395 329
0.090079248 0.676 -0.10548755 1.0504869e-38 396 329
-0.033762183 0.66399997 -0.10477919 1.603483e-38 291 330
-0.03259797 0.66399997 -0.10477919 1.2440941e-38 292 330
-0.031433757 0.66399997 -0.10477919 1.1057648e-38 293 330
-0.030360719 0.66600001 -0.1050948 1.0971906e-38 294 330
-0.029192999 0.66600001 -0.1050948 1.1709473e-38 295 330
-0.027941117 0.66399997 -0.10477919 1.2539973e-38 296 330
-0.026776904 0.66399997 -0.10477919 1.3369735e-38 297 330
-0.025574118 0.66299999 -0.1046214 1.4106923e-38 298 330
-0.024411658 0.66299999 -0.1046214 1.4199121e-38 299 330
-0.023214132 0.662 -0.1044636 1.4567883e-38 300 330
-0.022020113 0.66100001 -0.1043058 1.4937025e-38 301 330
-0.02086116 0.66100001 -0.1043058 1.5580591e-38 302 330
-0.019702207 0.66100001 -0.1043058 1.5949372e-38 303 330
-0.018543253 0.66100001 -0.1043058 1.6591868e-38 304 330
-0.017331699 0.65899998 -0.10399019 1.6776618e-38 305 330
-0.016176252 0.65899998 -0.10399019 1.7143606e-38 306 330
-0.014998012 0.65799999 -0.1038324 1.7143606e-38 307 330
-0.01384432 0.65799999 -0.1038324 1.7326918e-38 308 330
-0.012690626 0.65799999 -0.1038324 1.7419114e-38 309 330
-0.011536933 0.65799999 -0.1038324 1.7785729e-38 310 330
-0.01036746 0.65700001 -0.1036746 1.6034013e-38 311 330
-0.0092155198 0.65700001 -0.1036746 1.4100756e-38 312 330
-0.0080635799 0.65700001 -0.1036746 1.2256484e-38 313 330
-0.0069116396 0.65700001 -0.1036746 1.2803919e-38 314 330
-0.0057596997 0.65700001 -0.1036746 1.3080865e-38 315 330
-0.0046077599 0.65700001 -0.1036746 1.2341534e-38 316 330
-0.0034558198 0.65700001 -0.1036746 1.1696523e-38 317 330
-0.0022968664 0.65499997 -0.10335899 1.1420309e-38 318 330
-0.00114668 0.65399998 -0.10320119 1.1696536e-38 319 330
0 0.653 -0.1030434 1.1605784e-38 320 330
0.0011449266 0.653 -0.1030434 1.1974925e-38 321 330
0.0022898533 0.653 -0.1030434 1.2343702e-38 322 330
0.0034347798 0.653 -0.1030434 1.2989071e-38 323 330
0.0045797066 0.653 -0.1030434 1.2806109e-38 324 330
0.0057246331 0.653 -0.1030434 1.2898664e-38 325 330
0.0068695596 0.653 -0.1030434 1.3360352e-38 326 330
0.0080022132 0.65200001 -0.1028856 1.3821691e-38 327 330
0.0091453865 0.65200001 -0.1028856 1.4375583e-38 328 330
0.01028856 0.65200001 -0.1028856 1.529754e-38 329 330
0.011396666 0.64999998 -0.10256999 1.5761034e-38 330 330
0.012517046 0.64899999 -0.10241219 1.6498599e-38 331 330
0.013654959 0.64899999 -0.10241219 1.7786456e-38 332 330
0.014792874 0.64899999 -0.10241219 1.8155237e-38 333 330
0.015955333 0.64999998 -0.10256999 1.8706609e-38 334 330
0.017173899 0.653 -0.1030434 1.8706609e-38 335 330
0.018318826 0.653 -0.1030434 1.8615493e-38 336 330
0.019463753 0.653 -0.1030434 1.8707689e-38 337 330
0.020608678 0.653 -0.1030434 1.8431822e-38 338 330
0.021720294 0.65200001 -0.1028856 1.8431822e-38 339 330
0.022863466 0.65200001 -0.1028856 1.8432178e-38 340 330
0.024006641 0.65200001 -0.1028856 1.8247427e-38 341 330
0.025149813 0.65200001 -0.1028856 1.8247427e-38 342 330
0.026292987 0.65200001 -0.1028856 1.8247427e-38 343 330
0.027351998 0.64999998 -0.10256999 1.8247427e-38 344 330
0.028491667 0.64999998 -0.10256999 1.8247427e-38 345 330
0.029722504 0.65200001 -0.1028856 1.83389e-38 346 330
0.030865679 0.65200001 -0.1028856 1.83389e-38 347 330
0.032008853 0.65200001 -0.1028856 1.8062673e-38 348 330
0.033152029 0.65200001 -0.1028856 1.7970118e-38 349 330
0.034295198 0.65200001 -0.1028856 1.7785726e-38 350 330
0.035329666 0.64999998 -0.10256999 1.7785726e-38 351 330
0.036469329 0.64999998 -0.10256999 1.7509862e-38 352 330
0.037608996 0.64999998 -0.10256999 1.7049242e-38 353 330
0.038748663 0.64999998 -0.10256999 1.7233275e-38 354 330
0.039888334 0.64999998 -0.10256999 1.6956688e-38 355 330
0.041027997 0.64999998 -0.10256999 1.6864492e-38 356 330
0.042297412 0.65200001 -0.1028856 1.6772297e-38 357 330
0.043440588 0.65200001 -0.1028856 1.6773003e-38 358 330
0.044583756 0.65200001 -0.1028856 1.6404221e-38 359 330
0.045726933 0.65200001 -0.1028856 1.6127987e-38 360 330
0.046870105 0.65200001 -0.1028856 1.6035432e-38 361 330
0.048013281 0.65200001 -0.1028856 1.6125113e-38 362 330
0.049156453 0.65200001 -0.1028856 1.6125113e-38 363 330
0.050299626 0.65200001 -0.1028856 1.5850324e-38 364 330
0.051442798 0.65200001 -0.1028856 1.5758128e-38 365 330
0.052585974 0.65200001 -0.1028856 1.5390069e-38 366 330
0.05381155 0.653 -0.1030434 1.5113482e-38 367 330
0.054956477 0.653 -0.1030434 1.5021289e-38 368 330
0.056187313 0.65399998 -0.10320119 1.4929093e-38 369 330
0.057333998 0.65399998 -0.10320119 1.4836545e-38 370 330
0.058570094 0.65499997 -0.10335899 1.474399e-38 371 330
0.059718527 0.65499997 -0.10335899 1.4100775e-38 372 330
0.060866963 0.65499997 -0.10335899 1.4100775e-38 373 330
0.062015396 0.65499997 -0.10335899 1.400786e-38 374 330
0.063163824 0.65499997 -0.10335899 1.382311e-38 375 330
0.064312264 0.65499997 -0.10335899 1.3639798e-38 376 330
0.065660581 0.65700001 -0.1036746 1.3547601e-38 377 330
0.066812515 0.65700001 -0.1036746 1.363872e-38 378 330
0.067964457 0.65700001 -0.1036746 1.3362135e-38 379 330
0.069116399 0.65700001 -0.1036746 1.3361056e-38 380 330
0.070375293 0.65799999 -0.1038324 1.2992632e-38 381 330
0.07163769 0.65899998 -0.10399019 1.2807888e-38 382 330
0.072793134 0.65899998 -0.10399019 1.2531302e-38 383 330
0.074173011 0.66100001 -0.1043058 1.1979221e-38 384 330
0.075331964 0.66100001 -0.1043058 1.1886667e-38 385 330
0.076606639 0.662 -0.1044636 1.1611162e-38 386 330
0.077767342 0.662 -0.1044636 1.1518608e-38 387 330
0.079047278 0.66299999 -0.1046214 1.1335295e-38 388 330
0.08057268 0.66600001 -0.1050948 1.1427491e-38 389 330
0.081863128 0.667 -0.10525259 1.1336014e-38 390 330
