# .PCD v.7 - Point Cloud Data file format
FIELDS x y z rgb imX imY
SIZE 4 4 4 4 4 4
TYPE F F F F F F
COUNT 1 1 1 1 1 1
WIDTH 838
HEIGHT 1
VIEWPOINT 0 0 0 1 0 0 0
POINTS 838
DATA ascii
-0.011536933 0.65799999 -0.094602853 1.8064092e-38 310 322
-0.01038324 0.65799999 -0.094602853 1.8156288e-38 311 322
-0.0092435731 0.65899998 -0.094746619 1.8156288e-38 312 322
-0.0081126727 0.66100001 -0.095034167 1.8156288e-38 313 322
0.0011694733 0.667 -0.09589681 1.7878625e-38 321 322
0.0023354399 0.66600001 -0.095753036 1.8063376e-38 322 322
0.00347686 0.66100001 -0.095034167 1.8339603e-38 323 322
0.0046077599 0.65700001 -0.094459079 1.7972623e-38 324 322
0.0057596997 0.65700001 -0.094459079 1.7972623e-38 325 322
0.0069116396 0.65700001 -0.094459079 1.8155935e-38 326 322
0.0080635799 0.65700001 -0.094459079 1.8155935e-38 327 322
0.0092155198 0.65700001 -0.094459079 1.8155938e-38 328 322
0.01036746 0.65700001 -0.094459079 1.8155938e-38 329 322
0.011536933 0.65799999 -0.094602853 1.8156656e-38 330 322
0.012690626 0.65799999 -0.094602853 1.8248852e-38 331 322
0.01384432 0.65799999 -0.094602853 1.8432176e-38 332 322
0.015020805 0.65899998 -0.094746619 1.8616207e-38 333 322
0.016176252 0.65899998 -0.094746619 1.8339979e-38 334 322
0.017305398 0.65799999 -0.094602853 1.8432176e-38 335 322
0.018459093 0.65799999 -0.094602853 1.8340685e-38 336 322
0.019612785 0.65799999 -0.094602853 1.824813e-38 337 322
0.020734919 0.65700001 -0.094459079 1.8707309e-38 338 322
0.021886859 0.65700001 -0.094459079 1.8707309e-38 339 322
0.023038799 0.65700001 -0.094459079 1.8523994e-38 340 322
0.02422756 0.65799999 -0.094602853 1.861619e-38 341 322
0.025381252 0.65799999 -0.094602853 1.8707662e-38 342 322
0.026534945 0.65799999 -0.094602853 1.8799858e-38 343 322
0.027688639 0.65799999 -0.094602853 1.8616543e-38 344 322
0.028842334 0.65799999 -0.094602853 1.8524347e-38 345 322
0.030041611 0.65899998 -0.094746619 1.8523982e-38 346 322
0.031197058 0.65899998 -0.094746619 1.8708013e-38 347 322
0.032352503 0.65899998 -0.094746619 1.85247e-38 348 322
0.033507951 0.65899998 -0.094746619 1.85247e-38 349 322
0.034663398 0.65899998 -0.094746619 1.8707662e-38 350 322
0.035818845 0.65899998 -0.094746619 1.8523631e-38 351 322
0.036974292 0.65899998 -0.094746619 1.8522922e-38 352 322
0.038245458 0.66100001 -0.095034167 1.8522922e-38 353 322
0.039404415 0.66100001 -0.095034167 1.8155582e-38 354 322
0.040563367 0.66100001 -0.095034167 1.8248136e-38 355 322
0.04172232 0.66100001 -0.095034167 1.8339253e-38 356 322
0.042881273 0.66100001 -0.095034167 1.8339253e-38 357 322
0.044040225 0.66100001 -0.095034167 1.8154866e-38 358 322
0.045199182 0.66100001 -0.095034167 1.8154866e-38 359 322
0.046358135 0.66100001 -0.095034167 1.7970118e-38 360 322
0.04737331 0.65899998 -0.094746619 1.7970118e-38 361 322
0.048528757 0.65899998 -0.094746619 1.7786079e-38 362 322
0.049834993 0.66100001 -0.095034167 1.7509852e-38 363 322
0.050839648 0.65899998 -0.094746619 1.7325458e-38 364 322
0.051995095 0.65899998 -0.094746619 1.7232902e-38 365 322
0.053150542 0.65899998 -0.094746619 1.7232189e-38 366 322
0.054305989 0.65899998 -0.094746619 1.7139635e-38 367 322
0.05562976 0.66100001 -0.095034167 1.6863401e-38 368 322
0.056788713 0.66100001 -0.095034167 1.6494618e-38 369 322
0.057947662 0.66100001 -0.095034167 1.6403495e-38 370 322
0.059106622 0.66100001 -0.095034167 1.6127268e-38 371 322
0.060356744 0.662 -0.095177941 1.5942163e-38 372 322
0.061517447 0.662 -0.095177941 1.5757772e-38 373 322
0.062678158 0.662 -0.095177941 1.5390069e-38 374 322
0.063838862 0.662 -0.095177941 1.5113482e-38 375 322
0.064999565 0.662 -0.095177941 1.5204598e-38 376 322
0.066260219 0.66299999 -0.095321715 1.4928372e-38 377 322
0.067422673 0.66299999 -0.095321715 1.4835823e-38 378 322
0.068688579 0.66399997 -0.095465489 1.465143e-38 379 322
0.069852799 0.66399997 -0.095465489 1.4375569e-38 380 322
0.071017005 0.66399997 -0.095465489 1.4283015e-38 381 322
0.07239864 0.66600001 -0.095753036 1.3914955e-38 382 322
0.073566355 0.66600001 -0.095753036 1.382276e-38 383 322
0.07484629 0.667 -0.09589681 1.3638364e-38 384 322
0.076015763 0.667 -0.09589681 1.3362138e-38 385 322
0.077300951 0.66799998 -0.096040577 1.3177746e-38 386 322
0.078707129 0.67000002 -0.096328132 1.2900799e-38 387 322
0.079881869 0.67000002 -0.096328132 1.2254361e-38 388 322
0.081177577 0.671 -0.096471906 1.1516796e-38 389 322
0.082354069 0.671 -0.096471906 1.0409747e-38 390 322
0.083655037 0.67199999 -0.09661568 1.0317552e-38 391 322
0.085085757 0.67400002 -0.096903227 9.7654738e-39 392 322
0.086267509 0.67400002 -0.096903227 1.0134255e-38 393 322
0.087708741 0.676 -0.097190768 9.8619813e-39 394 322
0.089156993 0.67799997 -0.097478308 1.0046373e-38 395 322
0.090479009 0.67900002 -0.097622089 1.0506629e-38 396 322
0.091804534 0.68000001 -0.09776587 1.0598825e-38 397 322
0.093270317 0.68199998 -0.098053411 1.069067e-38 398 322
0.09446609 0.68199998 -0.098053411 1.0506279e-38 399 322
-0.069151461 0.68000001 -0.098958135 1.8348376e-38 262 323
-0.067859262 0.67900002 -0.09881261 1.7057638e-38 263 323
-0.066570558 0.67799997 -0.09866707 1.3555944e-38 264 323
-0.065381795 0.67799997 -0.09866707 1.217301e-38 265 323
-0.064003684 0.676 -0.098376028 1.3922164e-38 266 323
-0.062818423 0.676 -0.098376028 1.4659729e-38 267 323
-0.061542001 0.67500001 -0.098230496 1.5947596e-38 268 323
-0.060090236 0.67199999 -0.097793922 1.650077e-38 269 323
-0.058824331 0.671 -0.09764839 1.6868831e-38 270 323
-0.057647847 0.671 -0.09764839 1.7053222e-38 271 323
-0.056387197 0.67000002 -0.097502865 1.7329439e-38 272 323
-0.05504765 0.66799998 -0.097211808 1.7421635e-38 273 323
-0.05379577 0.667 -0.097066283 1.7604944e-38 274 323
-0.052626297 0.667 -0.097066283 1.7604944e-38 275 323
-0.051379681 0.66600001 -0.096920758 1.769678e-38 276 323
-0.050211959 0.66600001 -0.096920758 1.769678e-38 277 323
-0.04904424 0.66600001 -0.096920758 1.7605297e-38 278 323
-0.047732744 0.66399997 -0.096629702 1.7421266e-38 279 323
-0.046568532 0.66399997 -0.096629702 1.7604932e-38 280 323
-0.045404319 0.66399997 -0.096629702 1.7604932e-38 281 323
-0.044173479 0.66299999 -0.096484177 1.760565e-38 282 323
-0.043011017 0.66299999 -0.096484177 1.7790042e-38 283 323
-0.041785441 0.662 -0.096338652 1.852474e-38 284 323
-0.04062473 0.662 -0.096338652 1.852474e-38 285 323
-0.039464023 0.662 -0.096338652 1.843291e-38 286 323
-0.038303319 0.662 -0.096338652 1.843291e-38 287 323
-0.037198719 0.66299999 -0.096484177 1.8249229e-38 288 323
-0.036036257 0.66299999 -0.096484177 1.843326e-38 289 323
-0.034873798 0.66299999 -0.096484177 1.8800957e-38 290 323
-0.033711337 0.66299999 -0.096484177 1.8708761e-38 291 323
-0.032548878 0.66299999 -0.096484177 1.8708758e-38 292 323
-0.031339079 0.662 -0.096338652 1.8800954e-38 293 323
-0.030178372 0.662 -0.096338652 1.8617639e-38 294 323
-0.029017664 0.662 -0.096338652 1.8617639e-38 295 323
-0.02781488 0.66100001 -0.096193127 1.880167e-38 296 323
-0.026655925 0.66100001 -0.096193127 1.8617639e-38 297 323
-0.025419824 0.65899998 -0.09590207 1.8709111e-38 298 323
-0.024264378 0.65899998 -0.09590207 1.8709111e-38 299 323
-0.023179067 0.66100001 -0.096193127 1.861691e-38 300 323
-0.022020113 0.66100001 -0.096193127 1.861691e-38 301 323
-0.020798039 0.65899998 -0.09590207 1.8433234e-38 302 323
-0.019642593 0.65899998 -0.09590207 1.8433234e-38 303 323
-0.018459093 0.65799999 -0.095756538 1.8341754e-38 304 323
-0.017305398 0.65799999 -0.095756538 1.8341754e-38 305 323
-0.016176252 0.65899998 -0.09590207 1.806589e-38 306 323
-0.015066394 0.66100001 -0.096193127 1.806589e-38 307 323
-0.013865359 0.65899998 -0.09590207 1.8249202e-38 308 323
-0.012709912 0.65899998 -0.09590207 1.8249202e-38 309 323
-0.011536933 0.65799999 -0.095756538 1.8157007e-38 310 323
-0.01038324 0.65799999 -0.095756538 1.8249202e-38 311 323
-0.0092435731 0.65899998 -0.09590207 1.8249202e-38 312 323
-0.0080881258 0.65899998 -0.09590207 1.8249202e-38 313 323
-0.0069221598 0.65799999 -0.095756538 1.8340682e-38 314 323
-0.0057684663 0.65799999 -0.095756538 1.8340682e-38 315 323
-0.0046147732 0.65799999 -0.095756538 1.8065893e-38 316 323
-0.0034610799 0.65799999 -0.095756538 1.8065893e-38 317 323
-0.0023108933 0.65899998 -0.09590207 1.8249202e-38 318 323
-0.0011536933 0.65799999 -0.095756538 1.8249202e-38 319 323
0 0.65700001 -0.095611021 1.8431796e-38 320 323
0.00115194 0.65700001 -0.095611021 1.8431796e-38 321 323
0.0023073866 0.65799999 -0.095756538 1.8340679e-38 322 323
0.0034610799 0.65799999 -0.095756538 1.8340679e-38 323 323
0.0046077599 0.65700001 -0.095611021 1.8341401e-38 324 323
0.0057596997 0.65700001 -0.095611021 1.8341401e-38 325 323
0.0069116396 0.65700001 -0.095611021 1.8432878e-38 326 323
0.0080635799 0.65700001 -0.095611021 1.8432878e-38 327 323
0.0092155198 0.65700001 -0.095611021 1.8432878e-38 328 323
0.01036746 0.65700001 -0.095611021 1.8432878e-38 329 323
0.011519399 0.65700001 -0.095611021 1.8433234e-38 330 323
0.012690626 0.65799999 -0.095756538 1.8433234e-38 331 323
0.01384432 0.65799999 -0.095756538 1.8433231e-38 332 323
0.015020805 0.65899998 -0.09590207 1.8433231e-38 333 323
0.016176252 0.65899998 -0.09590207 1.8341035e-38 334 323
0.017331699 0.65899998 -0.09590207 1.8341035e-38 335 323
0.018487146 0.65899998 -0.09590207 1.8433231e-38 336 323
0.019612785 0.65799999 -0.095756538 1.8433231e-38 337 323
0.02076648 0.65799999 -0.095756538 1.861619e-38 338 323
0.021920172 0.65799999 -0.095756538 1.8708387e-38 339 323
0.023073865 0.65799999 -0.095756538 1.8616913e-38 340 323
0.02422756 0.65799999 -0.095756538 1.8616913e-38 341 323
0.025381252 0.65799999 -0.095756538 1.8616193e-38 342 323
0.026494619 0.65700001 -0.095611021 1.870839e-38 343 323
0.027646558 0.65700001 -0.095611021 1.861619e-38 344 323
0.028798498 0.65700001 -0.095611021 1.861619e-38 345 323
0.029996024 0.65799999 -0.095756538 1.852435e-38 346 323
0.031149717 0.65799999 -0.095756538 1.852435e-38 347 323
0.032303412 0.65799999 -0.095756538 1.8523994e-38 348 323
0.033457108 0.65799999 -0.095756538 1.8523994e-38 349 323
0.034610797 0.65799999 -0.095756538 1.8431445e-38 350 323
0.035764489 0.65799999 -0.095756538 1.8431445e-38 351 323
0.036918186 0.65799999 -0.095756538 1.8155582e-38 352 323
0.038071878 0.65799999 -0.095756538 1.8063386e-38 353 323
0.039225571 0.65799999 -0.095756538 1.8063389e-38 354 323
0.040379263 0.65799999 -0.095756538 1.7971193e-38 355 323
0.04153296 0.65799999 -0.095756538 1.8062673e-38 356 323
0.042686652 0.65799999 -0.095756538 1.8062673e-38 357 323
0.043840345 0.65799999 -0.095756538 1.7786809e-38 358 323
0.045062415 0.65899998 -0.09590207 1.7602058e-38 359 323
0.046217863 0.65899998 -0.09590207 1.7693533e-38 360 323
0.047301427 0.65799999 -0.095756538 1.7509143e-38 361 323
0.048455119 0.65799999 -0.095756538 1.7325102e-38 362 323
0.049684204 0.65899998 -0.09590207 1.7140709e-38 363 323
0.050839648 0.65899998 -0.09590207 1.686448e-38 364 323
0.051995095 0.65899998 -0.09590207 1.686448e-38 365 323
0.053150542 0.65899998 -0.09590207 1.6863401e-38 366 323
0.054305989 0.65899998 -0.09590207 1.6586814e-38 367 323
0.055461437 0.65899998 -0.09590207 1.6219108e-38 368 323
0.056616884 0.65899998 -0.09590207 1.5942519e-38 369 323
0.057947662 0.66100001 -0.096193127 1.5667009e-38 370 323
0.059106622 0.66100001 -0.096193127 1.5482617e-38 371 323
0.060356744 0.662 -0.096338652 1.5389347e-38 372 323
0.061517447 0.662 -0.096338652 1.529715e-38 373 323
0.062678158 0.662 -0.096338652 1.5021286e-38 374 323
0.063838862 0.662 -0.096338652 1.4836895e-38 375 323
0.064999565 0.662 -0.096338652 1.483582e-38 376 323
0.066160277 0.662 -0.096338652 1.4743624e-38 377 323
0.067422673 0.66299999 -0.096484177 1.465143e-38 378 323
0.068585135 0.66299999 -0.096484177 1.446668e-38 379 323
0.069747597 0.66299999 -0.096484177 1.4190819e-38 380 323
0.070910059 0.66299999 -0.096484177 1.4006428e-38 381 323
0.072181225 0.66399997 -0.096629702 1.3730567e-38 382 323
0.073566355 0.66600001 -0.096920758 1.345398e-38 383 323
0.07484629 0.667 -0.097066283 1.3453251e-38 384 323
0.076015763 0.667 -0.097066283 1.3177023e-38 385 323
0.077300951 0.66799998 -0.097211808 1.3084099e-38 386 323
0.078707129 0.67000002 -0.097502865 1.243873e-38 387 323
0.079881869 0.67000002 -0.097502865 1.1149087e-38 388 323
0.081177577 0.671 -0.09764839 1.041152e-38 389 323
0.082354069 0.671 -0.09764839 1.0132802e-38 390 323
0.083655037 0.67199999 -0.097793922 1.0132802e-38 391 323
0.085085757 0.67400002 -0.098084971 9.9502112e-39 392 323
0.086267509 0.67400002 -0.098084971 1.02268e-38 393 323
0.087708741 0.676 -0.098376028 1.0047079e-38 394 323
0.089156993 0.67799997 -0.09866707 1.0231471e-38 395 323
0.090479009 0.67900002 -0.09881261 1.0691376e-38 396 323
0.092074543 0.68199998 -0.099249184 1.0691376e-38 397 323
0.093270317 0.68199998 -0.099249184 1.0323332e-38 398 323
-0.067859262 0.67900002 -0.10000312 1.7426419e-38 263 324
-0.066570558 0.67799997 -0.099855833 1.4107319e-38 264 324
-0.065188929 0.676 -0.099561274 1.217121e-38 265 324
-0.064003684 0.676 -0.099561274 1.3276073e-38 266 324
-0.062818423 0.676 -0.099561274 1.4106192e-38 267 324
-0.061542001 0.67500001 -0.099413998 1.5211828e-38 268 324
-0.060000818 0.671 -0.098824874 1.5765001e-38 269 324
-0.058824331 0.671 -0.098824874 1.65926e-38 270 324
-0.057561934 0.67000002 -0.098677598 1.6776631e-38 271 324
-0.056218877 0.66799998 -0.098383039 1.7236522e-38 272 324
-0.054965243 0.667 -0.098235756 1.7328717e-38 273 324
-0.05379577 0.667 -0.098235756 1.7328715e-38 274 324
-0.052547399 0.66600001 -0.098088481 1.7421269e-38 275 324
-0.051379681 0.66600001 -0.098088481 1.7604578e-38 276 324
-0.050211959 0.66600001 -0.098088481 1.7696774e-38 277 324
-0.048896957 0.66399997 -0.097793914 1.7788247e-38 278 324
-0.047732744 0.66399997 -0.097793914 1.7880442e-38 279 324
-0.046498399 0.66299999 -0.097646631 1.7880439e-38 280 324
-0.045335937 0.66299999 -0.097646631 1.7880439e-38 281 324
-0.044106852 0.662 -0.097499363 1.8248502e-38 282 324
-0.042946145 0.662 -0.097499363 1.8340699e-38 283 324
-0.04172232 0.66100001 -0.09735208 1.8432541e-38 284 324
-0.040563367 0.66100001 -0.09735208 1.8432541e-38 285 324
-0.039464023 0.662 -0.097499363 1.852474e-38 286 324
-0.038303319 0.662 -0.097499363 1.8432544e-38 287 324
-0.037142612 0.662 -0.097499363 1.8432894e-38 288 324
-0.035981905 0.662 -0.097499363 1.852509e-38 289 324
-0.034821201 0.662 -0.097499363 1.8708755e-38 290 324
-0.033660494 0.662 -0.097499363 1.8800951e-38 291 324
-0.032499783 0.662 -0.097499363 1.8984622e-38 292 324
-0.031339079 0.662 -0.097499363 1.9076818e-38 293 324
-0.030132787 0.66100001 -0.09735208 1.8894224e-38 294 324
-0.028973831 0.66100001 -0.09735208 1.880167e-38 295 324
-0.02781488 0.66100001 -0.09735208 1.8893505e-38 296 324
-0.026655925 0.66100001 -0.09735208 1.8893505e-38 297 324
-0.025419824 0.65899998 -0.097057514 1.8800951e-38 298 324
-0.024264378 0.65899998 -0.097057514 1.8800951e-38 299 324
-0.023108931 0.65899998 -0.097057514 1.8801307e-38 300 324
-0.021953486 0.65899998 -0.097057514 1.8801307e-38 301 324
-0.02076648 0.65799999 -0.096910238 1.8709109e-38 302 324
-0.019612785 0.65799999 -0.096910238 1.8709109e-38 303 324
-0.01843104 0.65700001 -0.096762955 1.8525793e-38 304 324
-0.0172791 0.65700001 -0.096762955 1.8433598e-38 305 324
-0.016151706 0.65799999 -0.096910238 1.8250286e-38 306 324
-0.015020805 0.65899998 -0.097057514 1.8250286e-38 307 324
-0.013865359 0.65899998 -0.097057514 1.8341401e-38 308 324
-0.012690626 0.65799999 -0.096910238 1.8341401e-38 309 324
-0.011536933 0.65799999 -0.096910238 1.8249202e-38 310 324
-0.010399019 0.65899998 -0.097057514 1.8341398e-38 311 324
-0.0092435731 0.65899998 -0.097057514 1.8341401e-38 312 324
-0.0080881258 0.65899998 -0.097057514 1.8341401e-38 313 324
-0.0069221598 0.65799999 -0.096910238 1.8432878e-38 314 324
-0.0057684663 0.65799999 -0.096910238 1.8432878e-38 315 324
-0.0046147732 0.65799999 -0.096910238 1.8341398e-38 316 324
-0.0034610799 0.65799999 -0.096910238 1.8341398e-38 317 324
-0.0023073866 0.65799999 -0.096910238 1.8433598e-38 318 324
-0.00115194 0.65700001 -0.096762955 1.8433598e-38 319 324
0 0.65700001 -0.096762955 1.861691e-38 320 324
0.00115194 0.65700001 -0.096762955 1.861691e-38 321 324
0.0023038799 0.65700001 -0.096762955 1.8433954e-38 322 324
0.0034558198 0.65700001 -0.096762955 1.8433954e-38 323 324
0.0046077599 0.65700001 -0.096762955 1.8433954e-38 324 324
0.0057596997 0.65700001 -0.096762955 1.8433954e-38 325 324
0.0069116396 0.65700001 -0.096762955 1.8709462e-38 326 324
0.0080635799 0.65700001 -0.096762955 1.8709462e-38 327 324
0.0092155198 0.65700001 -0.096762955 1.8708743e-38 328 324
0.01036746 0.65700001 -0.096762955 1.8800938e-38 329 324
0.011519399 0.65700001 -0.096762955 1.8800936e-38 330 324
0.01267134 0.65700001 -0.096762955 1.8800936e-38 331 324
0.01384432 0.65799999 -0.096910238 1.8800936e-38 332 324
0.014998012 0.65799999 -0.096910238 1.870874e-38 333 324
0.016151706 0.65799999 -0.096910238 1.8617263e-38 334 324
0.017305398 0.65799999 -0.096910238 1.8617263e-38 335 324
0.018459093 0.65799999 -0.096910238 1.870874e-38 336 324
0.019582979 0.65700001 -0.096762955 1.8800936e-38 337 324
0.020734919 0.65700001 -0.096762955 1.8800941e-38 338 324
0.021920172 0.65799999 -0.096910238 1.8800941e-38 339 324
0.023073865 0.65799999 -0.096910238 1.8800588e-38 340 324
0.02422756 0.65799999 -0.096910238 1.8800588e-38 341 324
0.025342681 0.65700001 -0.096762955 1.8891705e-38 342 324
0.026494619 0.65700001 -0.096762955 1.8891705e-38 343 324
0.027646558 0.65700001 -0.096762955 1.8799505e-38 344 324
0.028798498 0.65700001 -0.096762955 1.8799505e-38 345 324
0.02995044 0.65700001 -0.096762955 1.861619e-38 346 324
0.031149717 0.65799999 -0.096910238 1.8523994e-38 347 324
0.03225432 0.65700001 -0.096762955 1.8707306e-38 348 324
0.033406258 0.65700001 -0.096762955 1.8523275e-38 349 324
0.034558199 0.65700001 -0.096762955 1.8431445e-38 350 324
0.035710141 0.65700001 -0.096762955 1.833925e-38 351 324
0.036862079 0.65700001 -0.096762955 1.8154866e-38 352 324
0.038071878 0.65799999 -0.096910238 1.806267e-38 353 324
0.039165959 0.65700001 -0.096762955 1.7970118e-38 354 324
0.0403179 0.65700001 -0.096762955 1.7877921e-38 355 324
0.041469838 0.65700001 -0.096762955 1.7877921e-38 356 324
0.04262178 0.65700001 -0.096762955 1.769353e-38 357 324
0.043773718 0.65700001 -0.096762955 1.769353e-38 358 324
0.044994038 0.65799999 -0.096910238 1.7417303e-38 359 324
0.04614773 0.65799999 -0.096910238 1.7325102e-38 360 324
0.04722954 0.65700001 -0.096762955 1.7140709e-38 361 324
0.048381478 0.65700001 -0.096762955 1.7048511e-38 362 324
0.049608808 0.65799999 -0.096910238 1.6772284e-38 363 324
0.050762504 0.65799999 -0.096910238 1.6771201e-38 364 324
0.051916201 0.65799999 -0.096910238 1.6771201e-38 365 324
0.05306989 0.65799999 -0.096910238 1.6402779e-38 366 324
0.054223582 0.65799999 -0.096910238 1.6310224e-38 367 324
0.055461437 0.65899998 -0.097057514 1.5850318e-38 368 324
0.056616884 0.65899998 -0.097057514 1.5481896e-38 369 324
0.057772331 0.65899998 -0.097057514 1.5389696e-38 370 324
0.059106622 0.66100001 -0.09735208 1.52975e-38 371 324
0.060265575 0.66100001 -0.09735208 1.5296428e-38 372 324
0.061517447 0.662 -0.097499363 1.5112037e-38 373 324
0.062678158 0.662 -0.097499363 1.4836173e-38 374 324
0.063838862 0.662 -0.097499363 1.4651781e-38 375 324
0.064999565 0.662 -0.097499363 1.4559232e-38 376 324
0.066160277 0.662 -0.097499363 1.4374841e-38 377 324
0.067320988 0.662 -0.097499363 1.4374485e-38 378 324
0.068481691 0.662 -0.097499363 1.4006061e-38 379 324
0.069747597 0.66299999 -0.097646631 1.3913509e-38 380 324
0.070910059 0.66299999 -0.097646631 1.3821314e-38 381 324
0.072181225 0.66399997 -0.097793914 1.3269945e-38 382 324
0.073566355 0.66600001 -0.098088481 1.317739e-38 383 324
0.07484629 0.667 -0.098235756 1.271497e-38 384 324
0.076015763 0.667 -0.098235756 1.2253992e-38 385 324
0.077300951 0.66799998 -0.098383039 1.1054723e-38 386 324
0.078707129 0.67000002 -0.098677598 1.0686299e-38 387 324
0.079881869 0.67000002 -0.098677598 9.7676024e-39 388 324
0.081177577 0.671 -0.098824874 9.859798e-39 389 324
0.082354069 0.671 -0.098824874 1.0134602e-38 390 324
0.083655037 0.67199999 -0.098972157 1.0042407e-38 391 324
0.085085757 0.67400002 -0.099266715 1.0135676e-38 392 324
0.086267509 0.67400002 -0.099266715 1.0412263e-38 393 324
0.08796823 0.67799997 -0.099855833 1.0507332e-38 394 324
0.089288503 0.67900002 -0.10000312 1.0691724e-38 395 324
0.090612262 0.68000001 -0.10015039 1.0875407e-38 396 324
0.091804534 0.68000001 -0.10015039 1.0599181e-38 397 324
-0.066374183 0.676 -0.10074653 1.484273e-38 264 325
-0.065188929 0.676 -0.10074653 1.2538198e-38 265 325
-0.063909002 0.67500001 -0.10059749 1.2999119e-38 266 325
-0.062632568 0.67400002 -0.10044847 1.3644488e-38 267 325
-0.061268479 0.67199999 -0.10015039 1.4475335e-38 268 325
-0.060000818 0.671 -0.10000136 1.52129e-38 269 325
-0.058736663 0.67000002 -0.099852331 1.6315657e-38 270 325
-0.057561934 0.67000002 -0.099852331 1.6500048e-38 271 325
-0.056218877 0.66799998 -0.099554263 1.6959578e-38 272 325
-0.054965243 0.667 -0.099405229 1.7051773e-38 273 325
-0.05379577 0.667 -0.099405229 1.6960657e-38 274 325
-0.052547399 0.66600001 -0.099256195 1.7052854e-38 275 325
-0.051379681 0.66600001 -0.099256195 1.732872e-38 276 325
-0.05006117 0.66399997 -0.098958127 1.732872e-38 277 325
-0.048896957 0.66399997 -0.098958127 1.7604228e-38 278 325
-0.047660857 0.66299999 -0.098809093 1.7604228e-38 279 325
-0.046498399 0.66299999 -0.098809093 1.7787896e-38 280 325
-0.04526756 0.662 -0.098660067 1.7880092e-38 281 325
-0.044106852 0.662 -0.098660067 1.7880092e-38 282 325
-0.042946145 0.662 -0.098660067 1.8064483e-38 283 325
-0.04172232 0.66100001 -0.098511033 1.8156683e-38 284 325
-0.040563367 0.66100001 -0.098511033 1.8156683e-38 285 325
-0.039404415 0.66100001 -0.098511033 1.8156683e-38 286 325
-0.038245458 0.66100001 -0.098511033 1.8248879e-38 287 325
-0.037086505 0.66100001 -0.098511033 1.8157036e-38 288 325
-0.035927553 0.66100001 -0.098511033 1.8249232e-38 289 325
-0.0347686 0.66100001 -0.098511033 1.8525093e-38 290 325
-0.033609647 0.66100001 -0.098511033 1.8525093e-38 291 325
-0.032450691 0.66100001 -0.098511033 1.8708405e-38 292 325
-0.031197058 0.65899998 -0.098212965 1.8985351e-38 293 325
-0.030041611 0.65899998 -0.098212965 1.8618007e-38 294 325
-0.028886165 0.65899998 -0.098212965 1.8525812e-38 295 325
-0.027730718 0.65899998 -0.098212965 1.8801322e-38 296 325
-0.026575271 0.65899998 -0.098212965 1.8801322e-38 297 325
-0.025381252 0.65799999 -0.098063931 1.8893152e-38 298 325
-0.02422756 0.65799999 -0.098063931 1.8800957e-38 299 325
-0.023073865 0.65799999 -0.098063931 1.8617642e-38 300 325
-0.021953486 0.65899998 -0.098212965 1.8525446e-38 301 325
-0.02076648 0.65799999 -0.098063931 1.8617995e-38 302 325
-0.019612785 0.65799999 -0.098063931 1.8617995e-38 303 325
-0.01843104 0.65700001 -0.097914897 1.8525796e-38 304 325
-0.0172791 0.65700001 -0.097914897 1.8525796e-38 305 325
-0.016151706 0.65799999 -0.098063931 1.8433964e-38 306 325
-0.014998012 0.65799999 -0.098063931 1.8433964e-38 307 325
-0.01384432 0.65799999 -0.098063931 1.8433598e-38 308 325
-0.012690626 0.65799999 -0.098063931 1.8433598e-38 309 325
-0.011536933 0.65799999 -0.098063931 1.8433234e-38 310 325
-0.01038324 0.65799999 -0.098063931 1.8433234e-38 311 325
-0.0092295464 0.65799999 -0.098063931 1.8341401e-38 312 325
-0.0080758529 0.65799999 -0.098063931 1.8249205e-38 313 325
-0.0069221598 0.65799999 -0.098063931 1.8340685e-38 314 325
-0.0057596997 0.65700001 -0.097914897 1.843288e-38 315 325
-0.0046077599 0.65700001 -0.097914897 1.843288e-38 316 325
-0.0034558198 0.65700001 -0.097914897 1.8709109e-38 317 325
-0.0023038799 0.65700001 -0.097914897 1.8525793e-38 318 325
-0.00115194 0.65700001 -0.097914897 1.8525793e-38 319 325
0 0.65700001 -0.097914897 1.8709106e-38 320 325
0.00115194 0.65700001 -0.097914897 1.8709106e-38 321 325
0.0023038799 0.65700001 -0.097914897 1.8618342e-38 322 325
0.0034558198 0.65700001 -0.097914897 1.8526147e-38 323 325
0.0046077599 0.65700001 -0.097914897 1.8709462e-38 324 325
0.0057596997 0.65700001 -0.097914897 1.8709462e-38 325 325
0.0069116396 0.65700001 -0.097914897 1.8800941e-38 326 325
0.0080635799 0.65700001 -0.097914897 1.8800941e-38 327 325
0.0092155198 0.65700001 -0.097914897 1.8709462e-38 328 325
0.01036746 0.65700001 -0.097914897 1.8801657e-38 329 325
0.011484332 0.65499997 -0.097616829 1.8985325e-38 330 325
0.012632766 0.65499997 -0.097616829 1.8800936e-38 331 325
0.013823279 0.65700001 -0.097914897 1.9167919e-38 332 325
0.01497522 0.65700001 -0.097914897 1.9167919e-38 333 325
0.01612716 0.65700001 -0.097914897 1.8708743e-38 334 325
0.0172791 0.65700001 -0.097914897 1.8708743e-38 335 325
0.01843104 0.65700001 -0.097914897 1.8709109e-38 336 325
0.019582979 0.65700001 -0.097914897 1.8709109e-38 337 325
0.020734919 0.65700001 -0.097914897 1.8709111e-38 338 325
0.021886859 0.65700001 -0.097914897 1.8709111e-38 339 325
0.023038799 0.65700001 -0.097914897 1.8708758e-38 340 325
0.024190739 0.65700001 -0.097914897 1.8616563e-38 341 325
0.025342681 0.65700001 -0.097914897 1.8891708e-38 342 325
0.026494619 0.65700001 -0.097914897 1.8891708e-38 343 325
0.027646558 0.65700001 -0.097914897 1.8616195e-38 344 325
0.028798498 0.65700001 -0.097914897 1.8616195e-38 345 325
0.02995044 0.65700001 -0.097914897 1.8523644e-38 346 325
0.03110238 0.65700001 -0.097914897 1.8523644e-38 347 325
0.03225432 0.65700001 -0.097914897 1.8339253e-38 348 325
0.033406258 0.65700001 -0.097914897 1.8339253e-38 349 325
0.034452997 0.65499997 -0.097616829 1.8063389e-38 350 325
0.03560143 0.65499997 -0.097616829 1.7971193e-38 351 325
0.036862079 0.65700001 -0.097914897 1.7786809e-38 352 325
0.038014017 0.65700001 -0.097914897 1.7694612e-38 353 325
0.039046731 0.65499997 -0.097616829 1.7509862e-38 354 325
0.040195163 0.65499997 -0.097616829 1.7417666e-38 355 325
0.041343596 0.65499997 -0.097616829 1.7325473e-38 356 325
0.042492028 0.65499997 -0.097616829 1.7232919e-38 357 325
0.043640465 0.65499997 -0.097616829 1.6957413e-38 358 325
0.04492566 0.65700001 -0.097914897 1.6865217e-38 359 325
0.046077598 0.65700001 -0.097914897 1.677265e-38 360 325
0.04722954 0.65700001 -0.097914897 1.6403867e-38 361 325
0.048381478 0.65700001 -0.097914897 1.6588609e-38 362 325
0.049533416 0.65700001 -0.097914897 1.6404577e-38 363 325
0.050685361 0.65700001 -0.097914897 1.6220182e-38 364 325
0.051837299 0.65700001 -0.097914897 1.5943237e-38 365 325
0.052989237 0.65700001 -0.097914897 1.6125829e-38 366 325
0.054223582 0.65799999 -0.098063931 1.5757406e-38 367 325
0.055377278 0.65799999 -0.098063931 1.5297514e-38 368 325
0.056530971 0.65799999 -0.098063931 1.5021286e-38 369 325
0.057772331 0.65899998 -0.098212965 1.4745775e-38 370 325
0.058927774 0.65899998 -0.098212965 1.465358e-38 371 325
0.060265575 0.66100001 -0.098511033 1.4836176e-38 372 325
0.061424527 0.66100001 -0.098511033 1.474398e-38 373 325
0.062678158 0.662 -0.098660067 1.4375564e-38 374 325
0.063838862 0.662 -0.098660067 1.4191172e-38 375 325
0.064999565 0.662 -0.098660067 1.4098621e-38 376 325
0.066160277 0.662 -0.098660067 1.4006425e-38 377 325
0.067320988 0.662 -0.098660067 1.3822393e-38 378 325
0.068481691 0.662 -0.098660067 1.3545806e-38 379 325
0.069747597 0.66299999 -0.098809093 1.3453254e-38 380 325
0.070910059 0.66299999 -0.098809093 1.3177027e-38 381 325
0.072181225 0.66399997 -0.098958127 1.2992291e-38 382 325
0.073566355 0.66600001 -0.099256195 1.2623869e-38 383 325
0.074734077 0.66600001 -0.099256195 1.2069616e-38 384 325
0.076015763 0.667 -0.099405229 1.1424247e-38 385 325
0.077300951 0.66799998 -0.099554263 1.0225353e-38 386 325
0.078707129 0.67000002 -0.099852331 1.0040962e-38 387 325
0.079881869 0.67000002 -0.099852331 9.6743474e-39 388 325
0.081177577 0.671 -0.10000136 9.951293e-39 389 325
0.082354069 0.671 -0.10000136 1.0319704e-38 390 325
0.083655037 0.67199999 -0.10015039 1.04119e-38 391 325
0.085085757 0.67400002 -0.10044847 1.0505165e-38 392 325
0.086267509 0.67400002 -0.10044847 1.0873947e-38 393 325
0.08796823 0.67799997 -0.1010446 1.0874676e-38 394 325
0.089156993 0.67799997 -0.1010446 1.1058707e-38 395 325
0.090612262 0.68000001 -0.10134266 1.0598474e-38 396 325
-0.066374183 0.676 -0.10193179 1.5487749e-38 264 326
-0.065188929 0.676 -0.10193179 1.2906271e-38 265 326
-0.063909002 0.67500001 -0.101781 1.2630353e-38 266 326
-0.062632568 0.67400002 -0.10163021 1.3183527e-38 267 326
-0.061268479 0.67199999 -0.10132863 1.3553384e-38 268 326
-0.060000818 0.671 -0.10117785 1.4567177e-38 269 326
-0.058736663 0.67000002 -0.10102707 1.5579174e-38 270 326
-0.057390101 0.66799998 -0.10072549 1.5855401e-38 271 326
-0.056218877 0.66799998 -0.10072549 1.6315643e-38 272 326
-0.054882839 0.66600001 -0.10042392 1.6591871e-38 273 326
-0.053715117 0.66600001 -0.10042392 1.723472e-38 274 326
-0.052389596 0.66399997 -0.10012234 1.723472e-38 275 326
-0.051225383 0.66399997 -0.10012234 1.7326918e-38 276 326
-0.05006117 0.66399997 -0.10012234 1.7326918e-38 277 326
-0.048823316 0.66299999 -0.099971555 1.7602426e-38 278 326
-0.047588971 0.662 -0.09982077 1.7602426e-38 279 326
-0.046428263 0.662 -0.09982077 1.7877571e-38 280 326
-0.04526756 0.662 -0.09982077 1.7969768e-38 281 326
-0.044106852 0.662 -0.09982077 1.806232e-38 282 326
-0.042881273 0.66100001 -0.099669985 1.8154515e-38 283 326
-0.04172232 0.66100001 -0.099669985 1.8155234e-38 284 326
-0.040563367 0.66100001 -0.099669985 1.8155234e-38 285 326
-0.039404415 0.66100001 -0.099669985 1.8155597e-38 286 326
-0.038245458 0.66100001 -0.099669985 1.8155597e-38 287 326
-0.037086505 0.66100001 -0.099669985 1.824743e-38 288 326
-0.035927553 0.66100001 -0.099669985 1.8339625e-38 289 326
-0.0347686 0.66100001 -0.099669985 1.8523294e-38 290 326
-0.033507951 0.65899998 -0.099368408 1.8523294e-38 291 326
-0.032303412 0.65799999 -0.099217616 1.8431092e-38 292 326
-0.031149717 0.65799999 -0.099217616 1.8523647e-38 293 326
-0.030041611 0.65899998 -0.099368408 1.8339976e-38 294 326
-0.028886165 0.65899998 -0.099368408 1.8616563e-38 295 326
-0.027730718 0.65899998 -0.099368408 1.8707689e-38 296 326
-0.026534945 0.65799999 -0.099217616 1.8799885e-38 297 326
-0.025342681 0.65700001 -0.099066831 1.8799882e-38 298 326
-0.024190739 0.65700001 -0.099066831 1.8799882e-38 299 326
-0.023038799 0.65700001 -0.099066831 1.8525443e-38 300 326
-0.021886859 0.65700001 -0.099066831 1.8617639e-38 301 326
-0.020734919 0.65700001 -0.099066831 1.8617639e-38 302 326
-0.019582979 0.65700001 -0.099066831 1.8617639e-38 303 326
-0.01843104 0.65700001 -0.099066831 1.8708761e-38 304 326
-0.0172791 0.65700001 -0.099066831 1.8800957e-38 305 326
-0.01612716 0.65700001 -0.099066831 1.8617288e-38 306 326
-0.01497522 0.65700001 -0.099066831 1.8617288e-38 307 326
-0.013823279 0.65700001 -0.099066831 1.8433969e-38 308 326
-0.01267134 0.65700001 -0.099066831 1.8249579e-38 309 326
-0.011519399 0.65700001 -0.099066831 1.8341404e-38 310 326
-0.01036746 0.65700001 -0.099066831 1.8341404e-38 311 326
-0.0092155198 0.65700001 -0.099066831 1.8616193e-38 312 326
-0.0080635799 0.65700001 -0.099066831 1.8523997e-38 313 326
-0.0069116396 0.65700001 -0.099066831 1.8707312e-38 314 326
-0.0057596997 0.65700001 -0.099066831 1.8799508e-38 315 326
-0.0046077599 0.65700001 -0.099066831 1.8433245e-38 316 326
-0.0034558198 0.65700001 -0.099066831 1.852544e-38 317 326
-0.0023038799 0.65700001 -0.099066831 1.8617642e-38 318 326
-0.0011484332 0.65499997 -0.098765261 1.8617642e-38 319 326
0 0.65499997 -0.098765261 1.8800951e-38 320 326
0.0011484332 0.65499997 -0.098765261 1.8800951e-38 321 326
0.0022968664 0.65499997 -0.098765261 1.8617995e-38 322 326
0.0034452998 0.65499997 -0.098765261 1.8617995e-38 323 326
0.0045937328 0.65499997 -0.098765261 1.8984619e-38 324 326
0.0057421662 0.65499997 -0.098765261 1.8984619e-38 325 326
0.0068905996 0.65499997 -0.098765261 1.8801307e-38 326 326
0.008039033 0.65499997 -0.098765261 1.8709111e-38 327 326
0.0091874655 0.65499997 -0.098765261 1.8525796e-38 328 326
0.010304339 0.653 -0.098463692 1.8617992e-38 329 326
0.011449266 0.653 -0.098463692 1.8984616e-38 330 326
0.012594193 0.653 -0.098463692 1.8800585e-38 331 326
0.013781199 0.65499997 -0.098765261 1.89839e-38 332 326
0.014929632 0.65499997 -0.098765261 1.8891705e-38 333 326
0.016078066 0.65499997 -0.098765261 1.8800585e-38 334 326
0.0172791 0.65700001 -0.099066831 1.870839e-38 335 326
0.01843104 0.65700001 -0.099066831 1.8708387e-38 336 326
0.019582979 0.65700001 -0.099066831 1.8708387e-38 337 326
0.020734919 0.65700001 -0.099066831 1.8708392e-38 338 326
0.021820232 0.65499997 -0.098765261 1.8708392e-38 339 326
0.022968665 0.65499997 -0.098765261 1.861584e-38 340 326
0.024117097 0.65499997 -0.098765261 1.8708037e-38 341 326
0.025265532 0.65499997 -0.098765261 1.8799508e-38 342 326
0.026413966 0.65499997 -0.098765261 1.8799508e-38 343 326
0.027562398 0.65499997 -0.098765261 1.8706956e-38 344 326
0.028710833 0.65499997 -0.098765261 1.8522925e-38 345 326
0.029859263 0.65499997 -0.098765261 1.8522925e-38 346 326
0.031007698 0.65499997 -0.098765261 1.8430729e-38 347 326
0.032156132 0.65499997 -0.098765261 1.8246688e-38 348 326
0.033304565 0.65499997 -0.098765261 1.8154491e-38 349 326
0.034452997 0.65499997 -0.098765261 1.7878272e-38 350 326
0.03560143 0.65499997 -0.098765261 1.7786076e-38 351 326
0.036749862 0.65499997 -0.098765261 1.7509499e-38 352 326
0.037898298 0.65499997 -0.098765261 1.7509499e-38 353 326
0.039046731 0.65499997 -0.098765261 1.7325105e-38 354 326
0.040195163 0.65499997 -0.098765261 1.7140354e-38 355 326
0.041343596 0.65499997 -0.098765261 1.6955597e-38 356 326
0.042492028 0.65499997 -0.098765261 1.6955597e-38 357 326
0.043640465 0.65499997 -0.098765261 1.6863401e-38 358 326
0.04492566 0.65700001 -0.099066831 1.6771204e-38 359 326
0.04593733 0.65499997 -0.098765261 1.6954148e-38 360 326
0.047085766 0.65499997 -0.098765261 1.6677921e-38 361 326
0.048234195 0.65499997 -0.098765261 1.6586441e-38 362 326
0.049533416 0.65700001 -0.099066831 1.6310213e-38 363 326
0.050685361 0.65700001 -0.099066831 1.5849952e-38 364 326
0.051837299 0.65700001 -0.099066831 1.5481168e-38 365 326
0.052989237 0.65700001 -0.099066831 1.5480815e-38 366 326
0.054141179 0.65700001 -0.099066831 1.5480815e-38 367 326
0.055377278 0.65799999 -0.099217616 1.5112759e-38 368 326
0.056530971 0.65799999 -0.099217616 1.4836173e-38 369 326
0.057772331 0.65899998 -0.099368408 1.4652854e-38 370 326
0.058927774 0.65899998 -0.099368408 1.4468463e-38 371 326
0.060265575 0.66100001 -0.099669985 1.4834371e-38 372 326
0.061424527 0.66100001 -0.099669985 1.464998e-38 373 326
0.062678158 0.662 -0.09982077 1.4374116e-38 374 326
0.063742429 0.66100001 -0.099669985 1.4189723e-38 375 326
0.064901382 0.66100001 -0.099669985 1.391386e-38 376 326
0.066160277 0.662 -0.09982077 1.3821664e-38 377 326
0.067320988 0.662 -0.09982077 1.3729468e-38 378 326
0.068481691 0.662 -0.09982077 1.3453242e-38 379 326
0.069642402 0.662 -0.09982077 1.3176297e-38 380 326
0.070910059 0.66299999 -0.099971555 1.2899712e-38 381 326
0.072072513 0.66299999 -0.099971555 1.2622417e-38 382 326
0.073566355 0.66600001 -0.10042392 1.2069604e-38 383 326
0.074734077 0.66600001 -0.10042392 1.0228225e-38 384 326
0.075901799 0.66600001 -0.10042392 1.0136028e-38 385 326
0.077300951 0.66799998 -0.10072549 1.0685613e-38 386 326
0.078472182 0.66799998 -0.10072549 1.0593416e-38 387 326
0.079881869 0.67000002 -0.10102707 9.7690514e-39 388 326
0.081177577 0.671 -0.10117785 1.0137474e-38 389 326
0.082354069 0.671 -0.10117785 1.0230741e-38 390 326
0.083655037 0.67199999 -0.10132863 1.0415134e-38 391 326
0.085085757 0.67400002 -0.10163021 1.1057985e-38 392 326
0.086267509 0.67400002 -0.10163021 1.1150181e-38 393 326
0.087708741 0.676 -0.10193179 1.096796e-38 394 326
0.089156993 0.67799997 -0.10223336 1.0599178e-38 395 326
-0.066374183 0.676 -0.10311703 1.6410077e-38 264 327
-0.065092497 0.67500001 -0.1029645 1.3275427e-38 265 327
-0.06381432 0.67400002 -0.10281195 1.2629652e-38 266 327
-0.062446721 0.67199999 -0.10250688 1.3090272e-38 267 327
-0.061268479 0.67199999 -0.10250688 1.3551236e-38 268 327
-0.060000818 0.671 -0.10235433 1.4011855e-38 269 327
-0.058736663 0.67000002 -0.1022018 1.4657581e-38 270 327
-0.057304189 0.667 -0.10174417 1.4934167e-38 271 327
-0.056134716 0.667 -0.10174417 1.5855032e-38 272 327
-0.054882839 0.66600001 -0.10159164 1.6131259e-38 273 327
-0.053553808 0.66399997 -0.10128655 1.6590799e-38 274 327
-0.052389596 0.66399997 -0.10128655 1.6590799e-38 275 327
-0.051148236 0.66299999 -0.10113402 1.6775196e-38 276 327
-0.049985778 0.66299999 -0.10113402 1.6959227e-38 277 327
-0.048749682 0.662 -0.10098148 1.6958155e-38 278 327
-0.047588971 0.662 -0.10098148 1.7050351e-38 279 327
-0.046358135 0.66100001 -0.10082894 1.7234019e-38 280 327
-0.045199182 0.66100001 -0.10082894 1.7234019e-38 281 327
-0.044040225 0.66100001 -0.10082894 1.751023e-38 282 327
-0.042881273 0.66100001 -0.10082894 1.7602426e-38 283 327
-0.04172232 0.66100001 -0.10082894 1.7236166e-38 284 327
-0.040563367 0.66100001 -0.10082894 1.732872e-38 285 327
-0.039404415 0.66100001 -0.10082894 1.7328014e-38 286 327
-0.038245458 0.66100001 -0.10082894 1.7328014e-38 287 327
-0.036974292 0.65899998 -0.10052385 1.7603878e-38 288 327
-0.035818845 0.65899998 -0.10052385 1.7603878e-38 289 327
-0.034663398 0.65899998 -0.10052385 1.7787543e-38 290 327
-0.033457108 0.65799999 -0.10037132 1.7879739e-38 291 327
-0.03225432 0.65700001 -0.10021878 1.7879726e-38 292 327
-0.03110238 0.65700001 -0.10021878 1.7879726e-38 293 327
-0.02995044 0.65700001 -0.10021878 1.8155234e-38 294 327
-0.028798498 0.65700001 -0.10021878 1.824743e-38 295 327
-0.027646558 0.65700001 -0.10021878 1.8247798e-38 296 327
-0.026413966 0.65499997 -0.099913694 1.8339995e-38 297 327
-0.025265532 0.65499997 -0.099913694 1.8432544e-38 298 327
-0.024117097 0.65499997 -0.099913694 1.8432544e-38 299 327
-0.022968665 0.65499997 -0.099913694 1.8432897e-38 300 327
-0.021820232 0.65499997 -0.099913694 1.8432897e-38 301 327
-0.020734919 0.65700001 -0.10021878 1.843326e-38 302 327
-0.019582979 0.65700001 -0.10021878 1.843326e-38 303 327
-0.018374931 0.65499997 -0.099913694 1.8525096e-38 304 327
-0.017226499 0.65499997 -0.099913694 1.8525096e-38 305 327
-0.016078066 0.65499997 -0.099913694 1.8249948e-38 306 327
-0.014929632 0.65499997 -0.099913694 1.8249948e-38 307 327
-0.013781199 0.65499997 -0.099913694 1.8433613e-38 308 327
-0.012632766 0.65499997 -0.099913694 1.8249582e-38 309 327
-0.011484332 0.65499997 -0.099913694 1.8432527e-38 310 327
-0.01036746 0.65700001 -0.10021878 1.8340332e-38 311 327
-0.0092155198 0.65700001 -0.10021878 1.8339976e-38 312 327
-0.0080635799 0.65700001 -0.10021878 1.8339976e-38 313 327
-0.0069116396 0.65700001 -0.10021878 1.8523291e-38 314 327
-0.0057596997 0.65700001 -0.10021878 1.8615488e-38 315 327
-0.0045937328 0.65499997 -0.099913694 1.843325e-38 316 327
-0.0034452998 0.65499997 -0.099913694 1.8617642e-38 317 327
-0.0022968664 0.65499997 -0.099913694 1.8617286e-38 318 327
-0.0011484332 0.65499997 -0.099913694 1.8617286e-38 319 327
0 0.65399998 -0.099761158 1.8800954e-38 320 327
0.00114668 0.65399998 -0.099761158 1.8800954e-38 321 327
0.00229336 0.65399998 -0.099761158 1.8800954e-38 322 327
0.0034400397 0.65399998 -0.099761158 1.8800954e-38 323 327
0.0045867199 0.65399998 -0.099761158 1.8525443e-38 324 327
0.0057333997 0.65399998 -0.099761158 1.8525443e-38 325 327
0.0068800794 0.65399998 -0.099761158 1.8617639e-38 326 327
0.0080267601 0.65399998 -0.099761158 1.8617639e-38 327 327
0.0091594132 0.653 -0.099608615 1.8708758e-38 328 327
0.010304339 0.653 -0.099608615 1.8708758e-38 329 327
0.011449266 0.653 -0.099608615 1.8708758e-38 330 327
0.012594193 0.653 -0.099608615 1.8616563e-38 331 327
0.013760159 0.65399998 -0.099761158 1.8616563e-38 332 327
0.014906839 0.65399998 -0.099761158 1.8616563e-38 333 327
0.016078066 0.65499997 -0.099913694 1.8616563e-38 334 327
0.017226499 0.65499997 -0.099913694 1.8616563e-38 335 327
0.018374931 0.65499997 -0.099913694 1.834105e-38 336 327
0.019523365 0.65499997 -0.099913694 1.834105e-38 337 327
0.020671798 0.65499997 -0.099913694 1.8340699e-38 338 327
0.021820232 0.65499997 -0.099913694 1.8340699e-38 339 327
0.022968665 0.65499997 -0.099913694 1.8340702e-38 340 327
0.024117097 0.65499997 -0.099913694 1.8340702e-38 341 327
0.025226958 0.65399998 -0.099761158 1.8247783e-38 342 327
0.02637364 0.65399998 -0.099761158 1.8247783e-38 343 327
0.027562398 0.65499997 -0.099913694 1.8247427e-38 344 327
0.028710833 0.65499997 -0.099913694 1.8155231e-38 345 327
0.029859263 0.65499997 -0.099913694 1.7787525e-38 346 327
0.031007698 0.65499997 -0.099913694 1.7787525e-38 347 327
0.032156132 0.65499997 -0.099913694 1.7878259e-38 348 327
0.033304565 0.65499997 -0.099913694 1.7693868e-38 349 327
0.034452997 0.65499997 -0.099913694 1.7418004e-38 350 327
0.03560143 0.65499997 -0.099913694 1.7233611e-38 351 327
0.036749862 0.65499997 -0.099913694 1.695741e-38 352 327
0.037840437 0.65399998 -0.099761158 1.6588987e-38 353 327
0.038987119 0.65399998 -0.099761158 1.6589338e-38 354 327
0.040133797 0.65399998 -0.099761158 1.6404588e-38 355 327
0.041280478 0.65399998 -0.099761158 1.6494987e-38 356 327
0.04242716 0.65399998 -0.099761158 1.6494987e-38 357 327
0.043640465 0.65499997 -0.099913694 1.6126577e-38 358 327
0.044788897 0.65499997 -0.099913694 1.6126577e-38 359 327
0.04593733 0.65499997 -0.099913694 1.5942533e-38 360 327
0.047085766 0.65499997 -0.099913694 1.5758501e-38 361 327
0.048234195 0.65499997 -0.099913694 1.5757772e-38 362 327
0.049382631 0.65499997 -0.099913694 1.5481545e-38 363 327
0.050531063 0.65499997 -0.099913694 1.5113849e-38 364 327
0.051679496 0.65499997 -0.099913694 1.4929456e-38 365 327
0.052827932 0.65499997 -0.099913694 1.4652876e-38 366 327
0.054141179 0.65700001 -0.10021878 1.4560681e-38 367 327
0.055293117 0.65700001 -0.10021878 1.4376285e-38 368 327
0.056530971 0.65799999 -0.10037132 1.4100059e-38 369 327
0.057684667 0.65799999 -0.10037132 1.4100056e-38 370 327
0.058927774 0.65899998 -0.10052385 1.400786e-38 371 327
0.060265575 0.66100001 -0.10082894 1.3823113e-38 372 327
0.061424527 0.66100001 -0.10082894 1.3823113e-38 373 327
0.062678158 0.662 -0.10098148 1.363872e-38 374 327
0.063742429 0.66100001 -0.10082894 1.363872e-38 375 327
0.064901382 0.66100001 -0.10082894 1.3362856e-38 376 327
0.066160277 0.662 -0.10098148 1.3178465e-38 377 327
0.067320988 0.662 -0.10098148 1.2810036e-38 378 327
0.068481691 0.662 -0.10098148 1.2533449e-38 379 327
0.069642402 0.662 -0.10098148 1.2532021e-38 380 327
0.070910059 0.66299999 -0.10113402 1.1886652e-38 381 327
0.072072513 0.66299999 -0.10113402 1.1425329e-38 382 327
0.073566355 0.66600001 -0.10159164 1.0779959e-38 383 327
0.074734077 0.66600001 -0.10159164 1.04119e-38 384 327
0.075901799 0.66600001 -0.10159164 1.04119e-38 385 327
0.077185236 0.667 -0.10174417 1.0228225e-38 386 327
0.078354709 0.667 -0.10174417 1.032042e-38 387 327
0.079643413 0.66799998 -0.10189671 1.0413685e-38 388 327
0.081056595 0.67000002 -0.1022018 1.0506239e-38 389 327
0.082354069 0.671 -0.10235433 1.0690282e-38 390 327
0.083655037 0.67199999 -0.10250688 1.0782477e-38 391 327
0.084833272 0.67199999 -0.10250688 1.1057635e-38 392 327
0.086267509 0.67400002 -0.10281195 1.1057635e-38 393 327
0.087708741 0.676 -0.10311703 1.0689238e-38 394 327
-0.064996064 0.67400002 -0.10399371 1.4473266e-38 265 328
-0.063624956 0.67199999 -0.10368511 1.27197e-38 266 328
-0.06235379 0.671 -0.10353082 1.3088122e-38 267 328
-0.061177302 0.671 -0.10353082 1.3640913e-38 268 328
-0.0599114 0.67000002 -0.10337654 1.373311e-38 269 328
-0.058561329 0.66799998 -0.10306793 1.336864e-38 270 328
-0.057304189 0.667 -0.10291365 1.3921813e-38 271 328
-0.056134716 0.667 -0.10291365 1.5209666e-38 272 328
-0.054882839 0.66600001 -0.10275936 1.5670285e-38 273 328
-0.053553808 0.66399997 -0.10245077 1.6129821e-38 274 328
-0.052310698 0.66299999 -0.10229647 1.6314211e-38 275 328
-0.051148236 0.66299999 -0.10229647 1.6497883e-38 276 328
-0.049910385 0.662 -0.10214218 1.6681915e-38 277 328
-0.048749682 0.662 -0.10214218 1.6957059e-38 278 328
-0.047517084 0.66100001 -0.10198789 1.6957059e-38 279 328
-0.046358135 0.66100001 -0.10198789 1.7048536e-38 280 328
-0.045199182 0.66100001 -0.10198789 1.7048536e-38 281 328
-0.044040225 0.66100001 -0.10198789 1.6865944e-38 282 328
-0.042881273 0.66100001 -0.10198789 1.7142171e-38 283 328
-0.04172232 0.66100001 -0.10198789 1.7234367e-38 284 328
-0.040563367 0.66100001 -0.10198789 1.7234367e-38 285 328
-0.039404415 0.66100001 -0.10198789 1.7234367e-38 286 328
-0.038129739 0.65899998 -0.1016793 1.7234367e-38 287 328
-0.036918186 0.65799999 -0.10152501 1.751023e-38 288 328
-0.035764489 0.65799999 -0.10152501 1.7602426e-38 289 328
-0.034558199 0.65700001 -0.10137072 1.7693903e-38 290 328
-0.033304565 0.65499997 -0.10106213 1.7693903e-38 291 328
-0.032156132 0.65499997 -0.10106213 1.7694256e-38 292 328
-0.031007698 0.65499997 -0.10106213 1.7786453e-38 293 328
-0.029859263 0.65499997 -0.10106213 1.7970124e-38 294 328
-0.028710833 0.65499997 -0.10106213 1.7970124e-38 295 328
-0.027562398 0.65499997 -0.10106213 1.7603862e-38 296 328
-0.026413966 0.65499997 -0.10106213 1.7880089e-38 297 328
-0.025265532 0.65499997 -0.10106213 1.8431098e-38 298 328
-0.024117097 0.65499997 -0.10106213 1.8431098e-38 299 328
-0.022968665 0.65499997 -0.10106213 1.8248502e-38 300 328
-0.021820232 0.65499997 -0.10106213 1.8248502e-38 301 328
-0.020671798 0.65499997 -0.10106213 1.8340346e-38 302 328
-0.019523365 0.65499997 -0.10106213 1.8340346e-38 303 328
-0.018374931 0.65499997 -0.10106213 1.8340346e-38 304 328
-0.017226499 0.65499997 -0.10106213 1.8340346e-38 305 328
-0.016078066 0.65499997 -0.10106213 1.8340346e-38 306 328
-0.014906839 0.65399998 -0.10090783 1.8340346e-38 307 328
-0.013760159 0.65399998 -0.10090783 1.8157387e-38 308 328
-0.012613479 0.65399998 -0.10090783 1.8157387e-38 309 328
-0.011484332 0.65499997 -0.10106213 1.8339976e-38 310 328
-0.010335899 0.65499997 -0.10106213 1.8339976e-38 311 328
-0.0091874655 0.65499997 -0.10106213 1.8339253e-38 312 328
-0.008039033 0.65499997 -0.10106213 1.8431448e-38 313 328
-0.0068800794 0.65399998 -0.10090783 1.8339976e-38 314 328
-0.0057333997 0.65399998 -0.10090783 1.8432531e-38 315 328
-0.0045867199 0.65399998 -0.10090783 1.8432894e-38 316 328
-0.0034400397 0.65399998 -0.10090783 1.852509e-38 317 328
-0.00229336 0.65399998 -0.10090783 1.8525093e-38 318 328
-0.00114668 0.65399998 -0.10090783 1.8525093e-38 319 328
0 0.65399998 -0.10090783 1.8800601e-38 320 328
0.00114668 0.65399998 -0.10090783 1.8800601e-38 321 328
0.0022898533 0.653 -0.10075355 1.8800957e-38 322 328
0.0034347798 0.653 -0.10075355 1.8708761e-38 323 328
0.0045797066 0.653 -0.10075355 1.8708758e-38 324 328
0.0057246331 0.653 -0.10075355 1.8616563e-38 325 328
0.0068590399 0.65200001 -0.10059925 1.8433248e-38 326 328
0.0080022132 0.65200001 -0.10059925 1.8433248e-38 327 328
0.0091453865 0.65200001 -0.10059925 1.8432531e-38 328 328
0.01028856 0.65200001 -0.10059925 1.8432531e-38 329 328
0.011431733 0.65200001 -0.10059925 1.8615844e-38 330 328
0.012574906 0.65200001 -0.10059925 1.8615844e-38 331 328
0.013739119 0.653 -0.10075355 1.8615844e-38 332 328
0.014884046 0.653 -0.10075355 1.8615844e-38 333 328
0.016028972 0.653 -0.10075355 1.8432531e-38 334 328
0.017200198 0.65399998 -0.10090783 1.8339976e-38 335 328
0.01834688 0.65399998 -0.10090783 1.8340332e-38 336 328
0.019493559 0.65399998 -0.10090783 1.8248136e-38 337 328
0.020640239 0.65399998 -0.10090783 1.824778e-38 338 328
0.021786919 0.65399998 -0.10090783 1.824778e-38 339 328
0.022933599 0.65399998 -0.10090783 1.8247427e-38 340 328
0.024080278 0.65399998 -0.10090783 1.8155231e-38 341 328
0.025226958 0.65399998 -0.10090783 1.806267e-38 342 328
0.02637364 0.65399998 -0.10090783 1.806267e-38 343 328
0.027520318 0.65399998 -0.10090783 1.8154138e-38 344 328
0.028623167 0.653 -0.10075355 1.7877553e-38 345 328
0.029768093 0.653 -0.10075355 1.7600969e-38 346 328
0.03091302 0.653 -0.10075355 1.7508414e-38 347 328
0.032057945 0.653 -0.10075355 1.723146e-38 348 328
0.033152029 0.65200001 -0.10059925 1.723146e-38 349 328
0.034295198 0.65200001 -0.10059925 1.6588605e-38 350 328
0.035492726 0.653 -0.10075355 1.6588605e-38 351 328
