# .PCD v.7 - Point Cloud Data file format
FIELDS x y z rgb imX imY
SIZE 4 4 4 4 4 4
TYPE F F F F F F
COUNT 1 1 1 1 1 1
WIDTH 855
HEIGHT 1
VIEWPOINT 0 0 0 1 0 0 0
POINTS 855
DATA ascii
0.0202247 0.76899999 0.0053932532 1.8523982e-38 335 236
0.021573013 0.76899999 0.0053932532 1.8523982e-38 336 236
0.022921326 0.76899999 0.0053932532 1.8431786e-38 337 236
0.02433276 0.77100003 0.0054072798 1.8340306e-38 338 236
0.02568458 0.77100003 0.0054072798 1.8340306e-38 339 236
0.027036399 0.77100003 0.0054072798 1.8340306e-38 340 236
0.028388219 0.77100003 0.0054072798 1.8156275e-38 341 236
0.029740039 0.77100003 0.0054072798 1.8338866e-38 342 236
0.031091858 0.77100003 0.0054072798 1.8338866e-38 343 236
0.032443684 0.77100003 0.0054072798 1.8338866e-38 344 236
0.033795502 0.77100003 0.0054072798 1.8522897e-38 345 236
0.035238493 0.773 0.0054213065 1.8338866e-38 346 236
0.036593821 0.773 0.0054213065 1.8338866e-38 347 236
0.037949149 0.773 0.0054213065 1.8338866e-38 348 236
0.03920278 0.77100003 0.0054072798 1.8338866e-38 349 236
0.040554602 0.77100003 0.0054072798 1.8155192e-38 350 236
0.042015124 0.773 0.0054213065 1.8155192e-38 351 236
0.043258239 0.77100003 0.0054072798 1.8155192e-38 352 236
0.044610061 0.77100003 0.0054072798 1.8155192e-38 353 236
0.045961879 0.77100003 0.0054072798 1.8062994e-38 354 236
0.047313701 0.77100003 0.0054072798 1.8062994e-38 355 236
0.048791755 0.773 0.0054213065 1.7878965e-38 356 236
0.050147086 0.773 0.0054213065 1.8062996e-38 357 236
0.051569037 0.77399999 0.0054283198 1.8063371e-38 358 236
0.052857738 0.773 0.0054213065 1.8432152e-38 359 236
0.054213066 0.773 0.0054213065 1.8340696e-38 360 236
0.055568393 0.773 0.0054213065 1.8340696e-38 361 236
0.056923717 0.773 0.0054213065 1.8155234e-38 362 236
0.058279041 0.773 0.0054213065 1.7232919e-38 363 236
0.059634373 0.773 0.0054213065 1.6401e-38 364 236
0.060989697 0.773 0.0054213065 1.5202097e-38 365 236
0.06234502 0.773 0.0054213065 1.2993731e-38 366 236
0.063700356 0.773 0.0054213065 1.1610437e-38 367 236
-0.035931058 0.759 0.0039923396 1.6867071e-38 293 237
-0.034600276 0.759 0.0039923396 1.7786484e-38 294 237
-0.033357166 0.76099998 0.0040028598 1.8155626e-38 295 237
-0.032022879 0.76099998 0.0040028598 1.8524036e-38 296 237
-0.030688593 0.76099998 0.0040028598 1.8800622e-38 297 237
-0.029392879 0.76200002 0.0040081199 1.9353421e-38 298 237
-0.028056841 0.76200002 0.0040081199 1.9353421e-38 299 237
-0.0267208 0.76200002 0.0040081199 1.9537074e-38 300 237
-0.02538476 0.76200002 0.0040081199 1.962927e-38 301 237
-0.02404872 0.76200002 0.0040081199 1.9446308e-38 302 237
-0.02271268 0.76200002 0.0040081199 1.9446308e-38 303 237
-0.02137664 0.76200002 0.0040081199 1.9354112e-38 304 237
-0.0200406 0.76200002 0.0040081199 1.916972e-38 305 237
-0.018680012 0.76099998 0.0040028598 1.9261547e-38 306 237
-0.017345725 0.76099998 0.0040028598 1.9261547e-38 307 237
-0.01603248 0.76200002 0.0040081199 1.9353014e-38 308 237
-0.01469644 0.76200002 0.0040081199 1.9353014e-38 309 237
-0.0133604 0.76200002 0.0040081199 1.916862e-38 310 237
-0.01205592 0.764 0.0040186401 1.916862e-38 311 237
-0.010716373 0.764 0.0040186401 1.9077506e-38 312 237
-0.0094013726 0.76599997 0.0040291594 1.9077506e-38 313 237
-0.0080583189 0.76599997 0.0040291594 1.907715e-38 314 237
-0.0067152665 0.76599997 0.0040291594 1.907715e-38 315 237
-0.0053722127 0.76599997 0.0040291594 1.8984954e-38 316 237
-0.0040291594 0.76599997 0.0040291594 1.8892759e-38 317 237
-0.0026861064 0.76599997 0.0040291594 1.8984238e-38 318 237
-0.0013430532 0.76599997 0.0040291594 1.8892041e-38 319 237
0 0.76599997 0.0040291594 1.861654e-38 320 237
0.0013430532 0.76599997 0.0040291594 1.861654e-38 321 237
0.0026861064 0.76599997 0.0040291594 1.8708016e-38 322 237
0.0040291594 0.76599997 0.0040291594 1.8708016e-38 323 237
0.0053792265 0.76700002 0.00403442 1.8431783e-38 324 237
0.006724033 0.76700002 0.00403442 1.8523979e-38 325 237
0.00806884 0.76700002 0.00403442 1.8707294e-38 326 237
0.0094136465 0.76700002 0.00403442 1.8707294e-38 327 237
0.010786506 0.76899999 0.0040449398 1.8707297e-38 328 237
0.012134819 0.76899999 0.0040449398 1.8614742e-38 329 237
0.013483133 0.76899999 0.0040449398 1.8614379e-38 330 237
0.014831445 0.76899999 0.0040449398 1.8614379e-38 331 237
0.01613768 0.76700002 0.00403442 1.8431786e-38 332 237
0.017482487 0.76700002 0.00403442 1.8339232e-38 333 237
0.018827293 0.76700002 0.00403442 1.8339232e-38 334 237
0.020172099 0.76700002 0.00403442 1.8339232e-38 335 237
0.021516906 0.76700002 0.00403442 1.8247392e-38 336 237
0.022861714 0.76700002 0.00403442 1.8247392e-38 337 237
0.024206521 0.76700002 0.00403442 1.8154836e-38 338 237
0.025617953 0.76899999 0.0040449398 1.8154836e-38 339 237
0.026966266 0.76899999 0.0040449398 1.7971524e-38 340 237
0.028314579 0.76899999 0.0040449398 1.7879328e-38 341 237
0.02966289 0.76899999 0.0040449398 1.8154476e-38 342 237
0.031011207 0.76899999 0.0040449398 1.8154476e-38 343 237
0.032359518 0.76899999 0.0040449398 1.8062996e-38 344 237
0.033707831 0.76899999 0.0040449398 1.8062996e-38 345 237
0.035056144 0.76899999 0.0040449398 1.8154476e-38 346 237
0.036404461 0.76899999 0.0040449398 1.8154476e-38 347 237
0.037850961 0.77100003 0.0040554604 1.8061922e-38 348 237
0.038999394 0.76700002 0.00403442 1.8154476e-38 349 237
0.040344197 0.76700002 0.00403442 1.7786414e-38 350 237
0.04190642 0.77100003 0.0040554604 1.7786414e-38 351 237
0.043146025 0.76899999 0.0040449398 1.7786411e-38 352 237
0.044494338 0.76899999 0.0040449398 1.7786411e-38 353 237
0.045842651 0.76899999 0.0040449398 1.7695287e-38 354 237
0.047190964 0.76899999 0.0040449398 1.7695287e-38 355 237
0.04866552 0.77100003 0.0040554604 1.7786764e-38 356 237
0.050147086 0.773 0.0040659797 1.7694568e-38 357 237
0.051502414 0.773 0.0040659797 1.7969726e-38 358 237
0.052857738 0.773 0.0040659797 1.8154476e-38 359 237
0.054213066 0.773 0.0040659797 1.7879331e-38 360 237
0.055568393 0.773 0.0040659797 1.7879331e-38 361 237
0.056923717 0.773 0.0040659797 1.7603464e-38 362 237
0.058279041 0.773 0.0040659797 1.7603464e-38 363 237
0.059634373 0.773 0.0040659797 1.7418367e-38 364 237
0.060989697 0.773 0.0040659797 1.7049943e-38 365 237
0.06234502 0.773 0.0040659797 1.6496439e-38 366 237
0.063700356 0.773 0.0040659797 1.5666318e-38 367 237
0.065139838 0.77399999 0.0040712398 1.465039e-38 368 237
0.066411003 0.773 0.0040659797 1.3451847e-38 369 237
0.067766331 0.773 0.0040659797 1.1887045e-38 370 237
-0.039712999 0.755 0.0026475333 1.7328017e-38 290 238
-0.038389232 0.755 0.0026475333 1.8065582e-38 291 238
-0.037065465 0.755 0.0026475333 1.9170109e-38 292 238
-0.03583638 0.75700003 0.0026545466 1.953889e-38 293 238
-0.034509107 0.75700003 0.0026545466 1.9629638e-38 294 238
-0.033269498 0.759 0.00266156 1.9721834e-38 295 238
-0.031938717 0.759 0.00266156 1.9722187e-38 296 238
-0.030688593 0.76099998 0.0026685731 1.9445602e-38 297 238
-0.029354304 0.76099998 0.0026685731 1.9812935e-38 298 238
-0.028056841 0.76200002 0.00267208 1.9628904e-38 299 238
-0.0267208 0.76200002 0.00267208 1.9537057e-38 300 238
-0.02538476 0.76200002 0.00267208 1.9537057e-38 301 238
-0.02404872 0.76200002 0.00267208 1.9445581e-38 302 238
-0.02271268 0.76200002 0.00267208 1.9261549e-38 303 238
-0.02137664 0.76200002 0.00267208 1.9168998e-38 304 238
-0.0200406 0.76200002 0.00267208 1.9168998e-38 305 238
-0.018680012 0.76099998 0.0026685731 1.9076799e-38 306 238
-0.017345725 0.76099998 0.0026685731 1.9076799e-38 307 238
-0.016011439 0.76099998 0.0026685731 1.9077155e-38 308 238
-0.01469644 0.76200002 0.00267208 1.9077155e-38 309 238
-0.0133604 0.76200002 0.00267208 1.8984601e-38 310 238
-0.01202436 0.76200002 0.00267208 1.8892405e-38 311 238
-0.01068832 0.76200002 0.00267208 1.8801289e-38 312 238
-0.0093768267 0.764 0.0026790933 1.8709093e-38 313 238
-0.0080583189 0.76599997 0.0026861064 1.8709096e-38 314 238
-0.0067152665 0.76599997 0.0026861064 1.861654e-38 315 238
-0.0053722127 0.76599997 0.0026861064 1.8616543e-38 316 238
-0.0040291594 0.76599997 0.0026861064 1.8524347e-38 317 238
-0.0026861064 0.76599997 0.0026861064 1.8523994e-38 318 238
-0.0013430532 0.76599997 0.0026861064 1.8523994e-38 319 238
0 0.764 0.0026790933 1.8248486e-38 320 238
0.0013395466 0.764 0.0026790933 1.8156291e-38 321 238
0.0026790933 0.764 0.0026790933 1.8339603e-38 322 238
0.0040291594 0.76599997 0.0026861064 1.8339603e-38 323 238
0.0053722127 0.76599997 0.0026861064 1.8155219e-38 324 238
0.0067152665 0.76599997 0.0026861064 1.8063023e-38 325 238
0.0080583189 0.76599997 0.0026861064 1.8155216e-38 326 238
0.0094013726 0.76599997 0.0026861064 1.806302e-38 327 238
0.010758453 0.76700002 0.0026896133 1.8246686e-38 328 238
0.01210326 0.76700002 0.0026896133 1.8246686e-38 329 238
0.013448066 0.76700002 0.0026896133 1.8154486e-38 330 238
0.014792874 0.76700002 0.0026896133 1.8154486e-38 331 238
0.016116638 0.76599997 0.0026861064 1.7971541e-38 332 238
0.017459691 0.76599997 0.0026861064 1.7787508e-38 333 238
0.018827293 0.76700002 0.0026896133 1.7787511e-38 334 238
0.020145798 0.76599997 0.0026861064 1.7602761e-38 335 238
0.021488851 0.76599997 0.0026861064 1.7786782e-38 336 238
0.022831906 0.76599997 0.0026861064 1.7694587e-38 337 238
0.024206521 0.76700002 0.0026896133 1.7694937e-38 338 238
0.025551327 0.76700002 0.0026896133 1.7694937e-38 339 238
0.026896132 0.76700002 0.0026896133 1.751055e-38 340 238
0.02824094 0.76700002 0.0026896133 1.7694581e-38 341 238
0.029585747 0.76700002 0.0026896133 1.7327603e-38 342 238
0.030930554 0.76700002 0.0026896133 1.7327603e-38 343 238
0.03227536 0.76700002 0.0026896133 1.7511622e-38 344 238
0.033620168 0.76700002 0.0026896133 1.7419426e-38 345 238
0.034964975 0.76700002 0.0026896133 1.7694568e-38 346 238
0.036309779 0.76700002 0.0026896133 1.7694568e-38 347 238
0.037654586 0.76700002 0.0026896133 1.751055e-38 348 238
0.038999394 0.76700002 0.0026896133 1.751055e-38 349 238
0.040344197 0.76700002 0.0026896133 1.7417627e-38 350 238
0.041689005 0.76700002 0.0026896133 1.7233596e-38 351 238
0.043146025 0.76899999 0.0026966266 1.723359e-38 352 238
0.044494338 0.76899999 0.0026966266 1.7510176e-38 353 238
0.045842651 0.76899999 0.0026966266 1.7510176e-38 354 238
0.047190964 0.76899999 0.0026966266 1.7510176e-38 355 238
0.048539277 0.76899999 0.0026966266 1.7510176e-38 356 238
0.050017338 0.77100003 0.0027036399 1.7510176e-38 357 238
0.051502414 0.773 0.0027106532 1.7509823e-38 358 238
0.052857738 0.773 0.0027106532 1.760202e-38 359 238
0.054072797 0.77100003 0.0027036399 1.7418707e-38 360 238
0.055424623 0.77100003 0.0027036399 1.732651e-38 361 238
0.056923717 0.773 0.0027106532 1.7235034e-38 362 238
0.058279041 0.773 0.0027106532 1.7050644e-38 363 238
0.059634373 0.773 0.0027106532 1.7419076e-38 364 238
0.060989697 0.773 0.0027106532 1.7695663e-38 365 238
0.062183715 0.77100003 0.0027036399 1.7787159e-38 366 238
0.063535534 0.77100003 0.0027036399 1.7510212e-38 367 238
0.065055676 0.773 0.0027106532 1.6957041e-38 368 238
0.066411003 0.773 0.0027106532 1.5758498e-38 369 238
0.067766331 0.773 0.0027106532 1.4285167e-38 370 238
0.069121659 0.773 0.0027106532 1.2994428e-38 371 238
0.070476986 0.773 0.0027106532 1.1337096e-38 372 238
0.071832314 0.773 0.0027106532 1.0322585e-38 373 238
0.073187642 0.773 0.0027106532 1.0230433e-38 374 238
0.074639395 0.77399999 0.0027141599 1.0322629e-38 375 238
-0.043626439 0.75400001 0.0013220133 1.8524782e-38 287 239
-0.042304426 0.75400001 0.0013220133 1.9169771e-38 288 239
-0.040982414 0.75400001 0.0013220133 1.9262326e-38 289 239
-0.039660402 0.75400001 0.0013220133 1.9538537e-38 290 239
-0.038338386 0.75400001 0.0013220133 1.9630734e-38 291 239
-0.037016369 0.75400001 0.0013220133 1.9997329e-38 292 239
-0.035741698 0.755 0.0013237667 1.9536351e-38 293 239
-0.034417931 0.755 0.0013237667 1.9169714e-38 294 239
-0.033181835 0.75700003 0.0013272733 1.9169714e-38 295 239
-0.031854562 0.75700003 0.0013272733 1.9261194e-38 296 239
-0.030607941 0.759 0.00133078 1.9168998e-38 297 239
-0.029277159 0.759 0.00133078 1.935231e-38 298 239
-0.028056841 0.76200002 0.00133604 1.935231e-38 299 239
-0.0267208 0.76200002 0.00133604 1.9076802e-38 300 239
-0.02538476 0.76200002 0.00133604 1.9168998e-38 301 239
-0.024017159 0.76099998 0.0013342865 1.935231e-38 302 239
-0.022682872 0.76099998 0.0013342865 1.935231e-38 303 239
-0.02137664 0.76200002 0.00133604 1.9260115e-38 304 239
-0.0200406 0.76200002 0.00133604 1.9260115e-38 305 239
-0.018680012 0.76099998 0.0013342865 1.9077155e-38 306 239
-0.017345725 0.76099998 0.0013342865 1.8984601e-38 307 239
-0.016011439 0.76099998 0.0013342865 1.8983885e-38 308 239
-0.014677152 0.76099998 0.0013342865 1.8983885e-38 309 239
-0.013342866 0.76099998 0.0013342865 1.8800211e-38 310 239
-0.01202436 0.76200002 0.00133604 1.8800211e-38 311 239
-0.01068832 0.76200002 0.00133604 1.8708016e-38 312 239
-0.0093522798 0.76200002 0.00133604 1.8708016e-38 313 239
-0.0080372803 0.764 0.0013395466 1.8708016e-38 314 239
-0.006697733 0.764 0.0013395466 1.843143e-38 315 239
-0.0053581866 0.764 0.0013395466 1.843143e-38 316 239
-0.0040186401 0.764 0.0013395466 1.8247039e-38 317 239
-0.0026790933 0.764 0.0013395466 1.8247039e-38 318 239
-0.0013430532 0.76599997 0.0013430532 1.8247039e-38 319 239
0 0.764 0.0013395466 1.7788214e-38 320 239
0.0013395466 0.764 0.0013395466 1.7788214e-38 321 239
0.0026790933 0.764 0.0013395466 1.8154839e-38 322 239
0.0040291594 0.76599997 0.0013430532 1.8154839e-38 323 239
0.0053722127 0.76599997 0.0013430532 1.8154842e-38 324 239
0.0067152665 0.76599997 0.0013430532 1.8062646e-38 325 239
0.0080583189 0.76599997 0.0013430532 1.8062643e-38 326 239
0.0094013726 0.76599997 0.0013430532 1.7878612e-38 327 239
0.010744425 0.76599997 0.0013430532 1.824559e-38 328 239
0.012087479 0.76599997 0.0013430532 1.7969363e-38 329 239
0.013430533 0.76599997 0.0013430532 1.7877165e-38 330 239
0.014773586 0.76599997 0.0013430532 1.7877165e-38 331 239
0.016116638 0.76599997 0.0013430532 1.7877533e-38 332 239
0.017459691 0.76599997 0.0013430532 1.7877533e-38 333 239
0.018802745 0.76599997 0.0013430532 1.7876824e-38 334 239
0.020145798 0.76599997 0.0013430532 1.7876824e-38 335 239
0.021488851 0.76599997 0.0013430532 1.7235408e-38 336 239
0.022831906 0.76599997 0.0013430532 1.7051015e-38 337 239
0.024174958 0.76599997 0.0013430532 1.7326157e-38 338 239
0.025518013 0.76599997 0.0013430532 1.7326157e-38 339 239
0.026861066 0.76599997 0.0013430532 1.7326508e-38 340 239
0.02824094 0.76700002 0.0013448066 1.7234312e-38 341 239
0.029585747 0.76700002 0.0013448066 1.750982e-38 342 239
0.030930554 0.76700002 0.0013448066 1.7417624e-38 343 239
0.03227536 0.76700002 0.0013448066 1.6958448e-38 344 239
0.033620168 0.76700002 0.0013448066 1.7050644e-38 345 239
0.034964975 0.76700002 0.0013448066 1.7051365e-38 346 239
0.036309779 0.76700002 0.0013448066 1.6866974e-38 347 239
0.037654586 0.76700002 0.0013448066 1.6956647e-38 348 239
0.038999394 0.76700002 0.0013448066 1.686445e-38 349 239
0.040344197 0.76700002 0.0013448066 1.6864804e-38 350 239
0.041689005 0.76700002 0.0013448066 1.6772608e-38 351 239
0.043033812 0.76700002 0.0013448066 1.6313798e-38 352 239
0.04437862 0.76700002 0.0013448066 1.6498549e-38 353 239
0.045723427 0.76700002 0.0013448066 1.6589308e-38 354 239
0.047068235 0.76700002 0.0013448066 1.6405277e-38 355 239
0.048539277 0.76899999 0.0013483133 1.6681141e-38 356 239
0.04988759 0.76899999 0.0013483133 1.6773338e-38 357 239
0.05136916 0.77100003 0.00135182 1.7231445e-38 358 239
0.052720979 0.77100003 0.00135182 1.7323641e-38 359 239
0.054072797 0.77100003 0.00135182 1.7323638e-38 360 239
0.055424623 0.77100003 0.00135182 1.7323638e-38 361 239
0.056776438 0.77100003 0.00135182 1.7141397e-38 362 239
0.058128256 0.77100003 0.00135182 1.7233593e-38 363 239
0.059634373 0.773 0.0013553266 1.7234312e-38 364 239
0.060831897 0.77100003 0.00135182 1.7234312e-38 365 239
0.062183715 0.77100003 0.00135182 1.714141e-38 366 239
0.063535534 0.77100003 0.00135182 1.7233606e-38 367 239
0.065055676 0.773 0.0013553266 1.6775154e-38 368 239
0.066411003 0.773 0.0013553266 1.66826e-38 369 239
0.067591004 0.77100003 0.00135182 1.6497861e-38 370 239
0.068942823 0.77100003 0.00135182 1.6221275e-38 371 239
0.070294641 0.77100003 0.00135182 1.5117114e-38 372 239
0.071646459 0.77100003 0.00135182 1.3826375e-38 373 239
0.073187642 0.773 0.0013553266 1.2534936e-38 374 239
0.074542962 0.773 0.0013553266 1.1520424e-38 375 239
0.075898297 0.773 0.0013553266 1.0230062e-38 376 239
0.077353559 0.77399999 0.0013570799 1.004567e-38 377 239
-0.046024997 0.75 -0 1.8710223e-38 285 240
-0.044709999 0.75 -0 1.9261562e-38 286 240
-0.04351072 0.75199997 -0 1.9353759e-38 287 240
-0.04219221 0.75199997 -0 1.9630342e-38 288 240
-0.040982414 0.75400001 -0 1.9446311e-38 289 240
-0.039660402 0.75400001 -0 1.9537408e-38 290 240
-0.038338386 0.75400001 -0 1.9445212e-38 291 240
-0.037016369 0.75400001 -0 1.926225e-38 292 240
-0.035741698 0.755 -0 1.9170054e-38 293 240
-0.034417931 0.755 -0 1.9169348e-38 294 240
-0.033094164 0.755 -0 1.9169348e-38 295 240
-0.031854562 0.75700003 -0 1.9169001e-38 296 240
-0.030527288 0.75700003 -0 1.9076446e-38 297 240
-0.029200014 0.75700003 -0 1.8984972e-38 298 240
-0.028056841 0.76200002 -0 1.8984972e-38 299 240
-0.026685731 0.76099998 -0 1.8984972e-38 300 240
-0.025351444 0.76099998 -0 1.8800941e-38 301 240
-0.024017159 0.76099998 -0 1.8984616e-38 302 240
-0.022682872 0.76099998 -0 1.8984616e-38 303 240
-0.021348584 0.76099998 -0 1.8801304e-38 304 240
-0.0200406 0.76200002 -0 1.8709109e-38 305 240
-0.018680012 0.76099998 -0 1.8433598e-38 306 240
-0.017345725 0.76099998 -0 1.8341401e-38 307 240
-0.016011439 0.76099998 -0 1.8340685e-38 308 240
-0.014677152 0.76099998 -0 1.8340685e-38 309 240
-0.013342866 0.76099998 -0 1.8249205e-38 310 240
-0.012008579 0.76099998 -0 1.8249205e-38 311 240
-0.01068832 0.76200002 -0 1.8156288e-38 312 240
-0.0093522798 0.76200002 -0 1.8156288e-38 313 240
-0.0080162399 0.76200002 -0 1.8064092e-38 314 240
-0.0066714329 0.76099998 -0 1.7971897e-38 315 240
-0.0053371461 0.76099998 -0 1.7972247e-38 316 240
-0.0040186401 0.764 -0 1.7696019e-38 317 240
-0.0026790933 0.764 -0 1.769529e-38 318 240
-0.0013395466 0.764 -0 1.75109e-38 319 240
0 0.764 -0 1.7511256e-38 320 240
0.0013395466 0.764 -0 1.7511256e-38 321 240
0.0026790933 0.764 -0 1.7326875e-38 322 240
0.0040291594 0.76599997 -0 1.741907e-38 323 240
0.0053722127 0.76599997 -0 1.7051368e-38 324 240
0.0067152665 0.76599997 -0 1.6866618e-38 325 240
0.0080583189 0.76599997 -0 1.7142114e-38 326 240
0.0094013726 0.76599997 -0 1.7142114e-38 327 240
0.010744425 0.76599997 -0 1.7142101e-38 328 240
0.012087479 0.76599997 -0 1.7049905e-38 329 240
0.013430533 0.76599997 -0 1.6590365e-38 330 240
0.014773586 0.76599997 -0 1.6590365e-38 331 240
0.016116638 0.76599997 -0 1.6590009e-38 332 240
0.017459691 0.76599997 -0 1.6590009e-38 333 240
0.018802745 0.76599997 -0 1.640563e-38 334 240
0.020145798 0.76599997 -0 1.6589661e-38 335 240
0.021488851 0.76599997 -0 1.649784e-38 336 240
0.022831906 0.76599997 -0 1.6405643e-38 337 240
0.024174958 0.76599997 -0 1.6589308e-38 338 240
0.025518013 0.76599997 -0 1.6405277e-38 339 240
0.026861066 0.76599997 -0 1.6406346e-38 340 240
0.028204117 0.76599997 -0 1.6314151e-38 341 240
0.029585747 0.76700002 -0 1.6313429e-38 342 240
0.030930554 0.76700002 -0 1.6221233e-38 343 240
0.03227536 0.76700002 -0 1.6037571e-38 344 240
0.033620168 0.76700002 -0 1.6037571e-38 345 240
0.034964975 0.76700002 -0 1.6221605e-38 346 240
0.036309779 0.76700002 -0 1.5945019e-38 347 240
0.037654586 0.76700002 -0 1.5943939e-38 348 240
0.038999394 0.76700002 -0 1.5943939e-38 349 240
0.040291596 0.76599997 -0 1.5668065e-38 350 240
0.041634649 0.76599997 -0 1.539112e-38 351 240
0.042977702 0.76599997 -0 1.48401e-38 352 240
0.04437862 0.76700002 -0 1.4932295e-38 353 240
0.045723427 0.76700002 -0 1.5300372e-38 354 240
0.047068235 0.76700002 -0 1.5484763e-38 355 240
0.048413042 0.76700002 -0 1.5943589e-38 356 240
0.04988759 0.76899999 -0 1.5943589e-38 357 240
0.051235907 0.76899999 -0 1.6036142e-38 358 240
0.052584216 0.76899999 -0 1.6128337e-38 359 240
0.053932533 0.76899999 -0 1.6220886e-38 360 240
0.055280842 0.76899999 -0 1.6220886e-38 361 240
0.056776438 0.77100003 -0 1.6313798e-38 362 240
0.058128256 0.77100003 -0 1.6590745e-38 363 240
0.059634373 0.773 -0 1.6314884e-38 364 240
0.060831897 0.77100003 -0 1.659111e-38 365 240
0.062022414 0.76899999 -0 1.6590036e-38 366 240
0.063370727 0.76899999 -0 1.6590036e-38 367 240
0.064887367 0.77100003 -0 1.6590742e-38 368 240
0.066239186 0.77100003 -0 1.6406349e-38 369 240
0.067591004 0.77100003 -0 1.6222308e-38 370 240
0.068942823 0.77100003 -0 1.6314504e-38 371 240
0.070294641 0.77100003 -0 1.5395088e-38 372 240
0.071646459 0.77100003 -0 1.5210337e-38 373 240
0.073187642 0.773 -0 1.3643036e-38 374 240
0.074542962 0.773 -0 1.2629244e-38 375 240
0.075898297 0.773 -0 1.1797355e-38 376 240
0.077353559 0.77399999 -0 1.0875039e-38 377 240
-0.052529868 0.74900001 -0.0013132467 1.8525147e-38 280 241
-0.051216617 0.74900001 -0.0013132467 1.8432952e-38 281 241
-0.04990337 0.74900001 -0.0013132467 1.8709867e-38 282 241
-0.048590127 0.74900001 -0.0013132467 1.8709867e-38 283 241
-0.047276881 0.74900001 -0.0013132467 1.8986071e-38 284 241
-0.046024997 0.75 -0.001315 1.9078267e-38 285 241
-0.044709999 0.75 -0.001315 1.926228e-38 286 241
-0.04351072 0.75199997 -0.0013185065 1.926228e-38 287 241
-0.04219221 0.75199997 -0.0013185065 1.9537778e-38 288 241
-0.040873703 0.75199997 -0.0013185065 1.9537778e-38 289 241
-0.039660402 0.75400001 -0.0013220133 1.9445225e-38 290 241
-0.038338386 0.75400001 -0.0013220133 1.9261194e-38 291 241
-0.037016369 0.75400001 -0.0013220133 1.9261912e-38 292 241
-0.035694357 0.75400001 -0.0013220133 1.9077521e-38 293 241
-0.034417931 0.755 -0.0013237667 1.916972e-38 294 241
-0.033094164 0.755 -0.0013237667 1.898497e-38 295 241
-0.031770397 0.755 -0.0013237667 1.9077165e-38 296 241
-0.030527288 0.75700003 -0.0013272733 1.898497e-38 297 241
-0.029200014 0.75700003 -0.0013272733 1.8800941e-38 298 241
-0.027872739 0.75700003 -0.0013272733 1.8800941e-38 299 241
-0.026545467 0.75700003 -0.0013272733 1.8708743e-38 300 241
-0.025284819 0.759 -0.00133078 1.8708743e-38 301 241
-0.023954039 0.759 -0.00133078 1.8616546e-38 302 241
-0.02262326 0.759 -0.00133078 1.8616546e-38 303 241
-0.021348584 0.76099998 -0.0013342865 1.870766e-38 304 241
-0.020014299 0.76099998 -0.0013342865 1.8523628e-38 305 241
-0.018680012 0.76099998 -0.0013342865 1.843143e-38 306 241
-0.017345725 0.76099998 -0.0013342865 1.8339234e-38 307 241
-0.016011439 0.76099998 -0.0013342865 1.8339232e-38 308 241
-0.014677152 0.76099998 -0.0013342865 1.8247036e-38 309 241
-0.013342866 0.76099998 -0.0013342865 1.8063724e-38 310 241
-0.012008579 0.76099998 -0.0013342865 1.7971527e-38 311 241
-0.010674292 0.76099998 -0.0013342865 1.7694937e-38 312 241
-0.0093400059 0.76099998 -0.0013342865 1.7418352e-38 313 241
-0.0080057196 0.76099998 -0.0013342865 1.7418354e-38 314 241
-0.0066714329 0.76099998 -0.0013342865 1.7326157e-38 315 241
-0.0053371461 0.76099998 -0.0013342865 1.7050649e-38 316 241
-0.0040028598 0.76099998 -0.0013342865 1.6865899e-38 317 241
-0.0026790933 0.764 -0.0013395466 1.6681861e-38 318 241
-0.0013395466 0.764 -0.0013395466 1.6589664e-38 319 241
0 0.764 -0.0013395466 1.6588943e-38 320 241
0.0013395466 0.764 -0.0013395466 1.6496747e-38 321 241
0.0026790933 0.764 -0.0013395466 1.6404551e-38 322 241
0.0040186401 0.764 -0.0013395466 1.6404551e-38 323 241
0.0053581866 0.764 -0.0013395466 1.5852826e-38 324 241
0.0067152665 0.76599997 -0.0013430532 1.5668075e-38 325 241
0.0080583189 0.76599997 -0.0013430532 1.5391846e-38 326 241
0.0094013726 0.76599997 -0.0013430532 1.5391846e-38 327 241
0.010744425 0.76599997 -0.0013430532 1.5392564e-38 328 241
0.012087479 0.76599997 -0.0013430532 1.5392564e-38 329 241
0.013430533 0.76599997 -0.0013430532 1.5208173e-38 330 241
0.014773586 0.76599997 -0.0013430532 1.5115977e-38 331 241
0.016074561 0.764 -0.0013395466 1.520781e-38 332 241
0.017414106 0.764 -0.0013395466 1.5115254e-38 333 241
0.018753653 0.764 -0.0013395466 1.4930866e-38 334 241
0.020145798 0.76599997 -0.0013430532 1.4930866e-38 335 241
0.021488851 0.76599997 -0.0013430532 1.4563886e-38 336 241
0.022831906 0.76599997 -0.0013430532 1.4563886e-38 337 241
0.024174958 0.76599997 -0.0013430532 1.4839749e-38 338 241
0.025518013 0.76599997 -0.0013430532 1.4747195e-38 339 241
0.026861066 0.76599997 -0.0013430532 1.4563886e-38 340 241
0.028204117 0.76599997 -0.0013430532 1.4747917e-38 341 241
0.029547172 0.76599997 -0.0013430532 1.4654999e-38 342 241
0.030890226 0.76599997 -0.0013430532 1.4562804e-38 343 241
0.03227536 0.76700002 -0.0013448066 1.4469888e-38 344 241
0.033620168 0.76700002 -0.0013448066 1.465428e-38 345 241
0.034964975 0.76700002 -0.0013448066 1.4471334e-38 346 241
0.036309779 0.76700002 -0.0013448066 1.4194746e-38 347 241
0.037605491 0.76599997 -0.0013430532 1.4284787e-38 348 241
0.038948543 0.76599997 -0.0013430532 1.4377342e-38 349 241
0.040291596 0.76599997 -0.0013430532 1.410146e-38 350 241
0.041634649 0.76599997 -0.0013430532 1.3087306e-38 351 241
0.042977702 0.76599997 -0.0013430532 1.2349367e-38 352 241
0.044320758 0.76599997 -0.0013430532 1.2164976e-38 353 241
0.045663811 0.76599997 -0.0013430532 1.2535579e-38 354 241
0.047068235 0.76700002 -0.0013448066 1.3918513e-38 355 241
0.048413042 0.76700002 -0.0013448066 1.4286242e-38 356 241
0.049757849 0.76700002 -0.0013448066 1.4470633e-38 357 241
0.051102653 0.76700002 -0.0013448066 1.4562829e-38 358 241
0.052584216 0.76899999 -0.0013483133 1.4562829e-38 359 241
0.053792264 0.76700002 -0.0013448066 1.4929809e-38 360 241
0.055137072 0.76700002 -0.0013448066 1.5022005e-38 361 241
0.056629159 0.76899999 -0.0013483133 1.4841198e-38 362 241
0.057977475 0.76899999 -0.0013483133 1.5025229e-38 363 241
0.059480079 0.77100003 -0.00135182 1.5208902e-38 364 241
0.060831897 0.77100003 -0.00135182 1.566988e-38 365 241
0.062022414 0.76899999 -0.0013483133 1.6037939e-38 366 241
0.063370727 0.76899999 -0.0013483133 1.6037939e-38 367 241
0.064887367 0.77100003 -0.00135182 1.6406349e-38 368 241
0.066239186 0.77100003 -0.00135182 1.6498546e-38 369 241
0.067591004 0.77100003 -0.00135182 1.6039362e-38 370 241
0.068942823 0.77100003 -0.00135182 1.5670581e-38 371 241
0.070294641 0.77100003 -0.00135182 1.4934813e-38 372 241
0.071646459 0.77100003 -0.00135182 1.4565671e-38 373 241
0.073187642 0.773 -0.0013553266 1.3921403e-38 374 241
0.074542962 0.773 -0.0013553266 1.3829207e-38 375 241
0.075898297 0.773 -0.0013553266 1.3182453e-38 376 241
0.077353559 0.77399999 -0.0013570799 1.1522932e-38 377 241
0.078710638 0.77399999 -0.0013570799 9.7719787e-39 378 241
0.080067717 0.77399999 -0.0013570799 7.2826967e-39 379 241
-0.053843111 0.74900001 -0.0026264933 1.8341835e-38 279 242
-0.052529868 0.74900001 -0.0026264933 1.8800604e-38 280 242
-0.051079858 0.74699998 -0.0026194798 1.8616212e-38 281 242
-0.049770117 0.74699998 -0.0026194798 1.9077168e-38 282 242
-0.048590127 0.74900001 -0.0026264933 1.9169364e-38 283 242
-0.047276881 0.74900001 -0.0026264933 1.9078603e-38 284 242
-0.045963634 0.74900001 -0.0026264933 1.9262635e-38 285 242
-0.044709999 0.75 -0.00263 1.9445225e-38 286 242
-0.043394998 0.75 -0.00263 1.9445225e-38 287 242
-0.04208 0.75 -0.00263 1.9445225e-38 288 242
-0.040873703 0.75199997 -0.0026370131 1.9445225e-38 289 242
-0.039555199 0.75199997 -0.0026370131 1.9261912e-38 290 242
-0.038236689 0.75199997 -0.0026370131 1.9169717e-38 291 242
-0.036918186 0.75199997 -0.0026370131 1.9077521e-38 292 242
-0.035694357 0.75400001 -0.0026440267 1.9077521e-38 293 242
-0.034372345 0.75400001 -0.0026440267 1.8893853e-38 294 242
-0.033094164 0.755 -0.0026475333 1.8893853e-38 295 242
-0.031770397 0.755 -0.0026475333 1.8801657e-38 296 242
-0.030446632 0.755 -0.0026475333 1.8709462e-38 297 242
-0.029122867 0.755 -0.0026475333 1.8617266e-38 298 242
-0.027872739 0.75700003 -0.0026545466 1.8433234e-38 299 242
-0.026545467 0.75700003 -0.0026545466 1.8340682e-38 300 242
-0.025284819 0.759 -0.00266156 1.8248486e-38 301 242
-0.023954039 0.759 -0.00266156 1.815701e-38 302 242
-0.02262326 0.759 -0.00266156 1.7880424e-38 303 242
-0.021348584 0.76099998 -0.0026685731 1.7971174e-38 304 242
-0.020014299 0.76099998 -0.0026685731 1.8063371e-38 305 242
-0.01863092 0.759 -0.00266156 1.7787135e-38 306 242
-0.017300138 0.759 -0.00266156 1.7694581e-38 307 242
-0.015969358 0.759 -0.00266156 1.7327231e-38 308 242
-0.014638579 0.759 -0.00266156 1.7327231e-38 309 242
-0.0133078 0.759 -0.00266156 1.7326508e-38 310 242
-0.01197702 0.759 -0.00266156 1.7142116e-38 311 242
-0.010674292 0.76099998 -0.0026685731 1.6681858e-38 312 242
-0.0093400059 0.76099998 -0.0026685731 1.6313435e-38 313 242
-0.0080057196 0.76099998 -0.0026685731 1.63138e-38 314 242
-0.0066714329 0.76099998 -0.0026685731 1.6221605e-38 315 242
-0.0053371461 0.76099998 -0.0026685731 1.5945741e-38 316 242
-0.0040028598 0.76099998 -0.0026685731 1.576135e-38 317 242
-0.00267208 0.76200002 -0.00267208 1.5760994e-38 318 242
-0.00133604 0.76200002 -0.00267208 1.5484766e-38 319 242
0 0.764 -0.0026790933 1.5668075e-38 320 242
0.0013395466 0.764 -0.0026790933 1.5575879e-38 321 242
0.0026790933 0.764 -0.0026790933 1.5575161e-38 322 242
0.0040186401 0.764 -0.0026790933 1.5575161e-38 323 242
0.0053581866 0.764 -0.0026790933 1.4839766e-38 324 242
0.006697733 0.764 -0.0026790933 1.4839766e-38 325 242
0.0080372803 0.764 -0.0026790933 1.493089e-38 326 242
0.0093768267 0.764 -0.0026790933 1.493089e-38 327 242
0.010716373 0.764 -0.0026790933 1.4839786e-38 328 242
0.01205592 0.764 -0.0026790933 1.474759e-38 329 242
0.013395466 0.764 -0.0026790933 1.4930905e-38 330 242
0.014735013 0.764 -0.0026790933 1.483871e-38 331 242
0.016074561 0.764 -0.0026790933 1.4930537e-38 332 242
0.017414106 0.764 -0.0026790933 1.4930537e-38 333 242
0.018753653 0.764 -0.0026790933 1.4563551e-38 334 242
0.020145798 0.76599997 -0.0026861064 1.4286605e-38 335 242
0.021488851 0.76599997 -0.0026861064 1.4286242e-38 336 242
0.022831906 0.76599997 -0.0026861064 1.4378438e-38 337 242
0.024174958 0.76599997 -0.0026861064 1.4470636e-38 338 242
0.025518013 0.76599997 -0.0026861064 1.4378082e-38 339 242
0.026861066 0.76599997 -0.0026861064 1.40111e-38 340 242
0.028204117 0.76599997 -0.0026861064 1.4195491e-38 341 242
0.029547172 0.76599997 -0.0026861064 1.4471002e-38 342 242
0.030890226 0.76599997 -0.0026861064 1.4378806e-38 343 242
0.03227536 0.76700002 -0.0026896133 1.4102224e-38 344 242
0.033576332 0.76599997 -0.0026861064 1.4286255e-38 345 242
0.034919381 0.76599997 -0.0026861064 1.4285533e-38 346 242
0.036262438 0.76599997 -0.0026861064 1.4193337e-38 347 242
0.037605491 0.76599997 -0.0026861064 1.4100791e-38 348 242
0.038948543 0.76599997 -0.0026861064 1.4100791e-38 349 242
0.040291596 0.76599997 -0.0026861064 1.382456e-38 350 242
0.041634649 0.76599997 -0.0026861064 1.3086995e-38 351 242
0.042977702 0.76599997 -0.0026861064 1.2900799e-38 352 242
0.044320758 0.76599997 -0.0026861064 1.2532377e-38 353 242
0.045663811 0.76599997 -0.0026861064 1.2348712e-38 354 242
0.047068235 0.76700002 -0.0026896133 1.3823481e-38 355 242
0.048413042 0.76700002 -0.0026896133 1.3641611e-38 356 242
0.049757849 0.76700002 -0.0026896133 1.3918198e-38 357 242
0.051102653 0.76700002 -0.0026896133 1.4009687e-38 358 242
0.052447457 0.76700002 -0.0026896133 1.4194437e-38 359 242
0.053792264 0.76700002 -0.0026896133 1.4102236e-38 360 242
0.055137072 0.76700002 -0.0026896133 1.4102236e-38 361 242
0.056481879 0.76700002 -0.0026896133 1.3919978e-38 362 242
0.057826683 0.76700002 -0.0026896133 1.3919978e-38 363 242
0.059480079 0.77100003 -0.0027036399 1.447134e-38 364 242
0.060674097 0.76899999 -0.0026966266 1.4563535e-38 365 242
0.062022414 0.76899999 -0.0026966266 1.4931589e-38 366 242
0.063535534 0.77100003 -0.0027036399 1.511598e-38 367 242
0.064887367 0.77100003 -0.0027036399 1.5208523e-38 368 242
0.066239186 0.77100003 -0.0027036399 1.5300719e-38 369 242
0.067591004 0.77100003 -0.0027036399 1.5118128e-38 370 242
0.068942823 0.77100003 -0.0027036399 1.5025933e-38 371 242
0.070294641 0.77100003 -0.0027036399 1.4564967e-38 372 242
0.071646459 0.77100003 -0.0027036399 1.4288741e-38 373 242
0.073187642 0.773 -0.0027106532 1.3551541e-38 374 242
0.074542962 0.773 -0.0027106532 1.3551541e-38 375 242
0.075898297 0.773 -0.0027106532 1.2816182e-38 376 242
0.077253617 0.773 -0.0027106532 1.1249216e-38 377 242
0.078608945 0.773 -0.0027106532 9.2209699e-39 378 242
0.079964265 0.773 -0.0027106532 6.6394923e-39 379 242
0.081424795 0.77399999 -0.0027141599 7.5513872e-39 380 242
-0.056243423 0.74599999 -0.0039239596 1.7788289e-38 277 243
-0.054935437 0.74599999 -0.0039239596 1.8339995e-38 278 243
-0.053627454 0.74599999 -0.0039239596 1.8893168e-38 279 243
-0.052389596 0.74699998 -0.0039292197 1.916866e-38 280 243
-0.051079858 0.74699998 -0.0039292197 1.916866e-38 281 243
-0.049770117 0.74699998 -0.0039292197 1.9261559e-38 282 243
-0.048460379 0.74699998 -0.0039292197 1.9261559e-38 283 243
-0.047150634 0.74699998 -0.0039292197 1.9445225e-38 284 243
-0.045963634 0.74900001 -0.0039397399 1.9445225e-38 285 243
-0.044650383 0.74900001 -0.0039397399 1.9261194e-38 286 243
-0.04333714 0.74900001 -0.0039397399 1.9261194e-38 287 243
-0.042023893 0.74900001 -0.0039397399 1.916972e-38 288 243
-0.040710647 0.74900001 -0.0039397399 1.9077165e-38 289 243
-0.039449997 0.75 -0.003945 1.9077168e-38 290 243
-0.038135 0.75 -0.003945 1.8984972e-38 291 243
-0.036819998 0.75 -0.003945 1.8800938e-38 292 243
-0.035599679 0.75199997 -0.0039555198 1.8800938e-38 293 243
-0.034281172 0.75199997 -0.0039555198 1.8709106e-38 294 243
-0.033050332 0.75400001 -0.00396604 1.8709106e-38 295 243
-0.03172832 0.75400001 -0.00396604 1.861691e-38 296 243
-0.030446632 0.755 -0.0039712996 1.8340682e-38 297 243
-0.029122867 0.755 -0.0039712996 1.8432149e-38 298 243
-0.027799098 0.755 -0.0039712996 1.8155922e-38 299 243
-0.026545467 0.75700003 -0.0039818203 1.7971894e-38 300 243
-0.025218192 0.75700003 -0.0039818203 1.7971894e-38 301 243
-0.02389092 0.75700003 -0.0039818203 1.7695666e-38 302 243
-0.022563647 0.75700003 -0.0039818203 1.760347e-38 303 243
-0.02129248 0.759 -0.0039923396 1.7510906e-38 304 243
-0.0199617 0.759 -0.0039923396 1.7233959e-38 305 243
-0.01863092 0.759 -0.0039923396 1.714176e-38 306 243
-0.017300138 0.759 -0.0039923396 1.7049565e-38 307 243
-0.015969358 0.759 -0.0039923396 1.6498549e-38 308 243
-0.014638579 0.759 -0.0039923396 1.6221602e-38 309 243
-0.0133078 0.759 -0.0039923396 1.622053e-38 310 243
-0.01197702 0.759 -0.0039923396 1.6036139e-38 311 243
-0.01064624 0.759 -0.0039923396 1.5391851e-38 312 243
-0.0093400059 0.76099998 -0.0040028598 1.5207101e-38 313 243
-0.0080057196 0.76099998 -0.0040028598 1.502416e-38 314 243
-0.0066714329 0.76099998 -0.0040028598 1.5116356e-38 315 243
-0.0053371461 0.76099998 -0.0040028598 1.5024173e-38 316 243
-0.0040081199 0.76200002 -0.0040081199 1.4840142e-38 317 243
-0.00267208 0.76200002 -0.0040081199 1.4931258e-38 318 243
-0.00133604 0.76200002 -0.0040081199 1.4931258e-38 319 243
0 0.764 -0.0040186401 1.4931256e-38 320 243
0.0013395466 0.764 -0.0040186401 1.483906e-38 321 243
0.0026790933 0.764 -0.0040186401 1.483906e-38 322 243
0.0040186401 0.764 -0.0040186401 1.4931256e-38 323 243
0.0053581866 0.764 -0.0040186401 1.4563195e-38 324 243
0.006697733 0.764 -0.0040186401 1.4563195e-38 325 243
0.0080372803 0.764 -0.0040186401 1.4563195e-38 326 243
0.0093768267 0.764 -0.0040186401 1.465575e-38 327 243
0.010716373 0.764 -0.0040186401 1.474651e-38 328 243
0.01205592 0.764 -0.0040186401 1.474651e-38 329 243
0.013395466 0.764 -0.0040186401 1.4746513e-38 330 243
0.014735013 0.764 -0.0040186401 1.4746513e-38 331 243
0.016074561 0.764 -0.0040186401 1.4746157e-38 332 243
0.017414106 0.764 -0.0040186401 1.4746157e-38 333 243
0.018753653 0.764 -0.0040186401 1.4561772e-38 334 243
0.020093199 0.764 -0.0040186401 1.4469577e-38 335 243
0.021488851 0.76599997 -0.0040291594 1.4285902e-38 336 243
0.022831906 0.76599997 -0.0040291594 1.4285902e-38 337 243
0.024174958 0.76599997 -0.0040291594 1.4286257e-38 338 243
0.025518013 0.76599997 -0.0040291594 1.4286257e-38 339 243
0.026861066 0.76599997 -0.0040291594 1.3827081e-38 340 243
0.028204117 0.76599997 -0.0040291594 1.3919277e-38 341 243
0.029547172 0.76599997 -0.0040291594 1.4102592e-38 342 243
0.030890226 0.76599997 -0.0040291594 1.4010396e-38 343 243
0.03227536 0.76700002 -0.00403442 1.4009678e-38 344 243
0.033576332 0.76599997 -0.0040291594 1.4009678e-38 345 243
0.034919381 0.76599997 -0.0040291594 1.3917123e-38 346 243
0.036262438 0.76599997 -0.0040291594 1.3917123e-38 347 243
0.037605491 0.76599997 -0.0040291594 1.3732728e-38 348 243
0.038948543 0.76599997 -0.0040291594 1.3640532e-38 349 243
0.040291596 0.76599997 -0.0040291594 1.3547974e-38 350 243
0.041689005 0.76700002 -0.00403442 1.3086995e-38 351 243
0.043033812 0.76700002 -0.00403442 1.3176321e-38 352 243
0.04437862 0.76700002 -0.00403442 1.2899733e-38 353 243
0.045723427 0.76700002 -0.00403442 1.2532039e-38 354 243
0.047068235 0.76700002 -0.00403442 1.3453995e-38 355 243
0.048413042 0.76700002 -0.00403442 1.3181725e-38 356 243
0.049757849 0.76700002 -0.00403442 1.3366475e-38 357 243
0.051102653 0.76700002 -0.00403442 1.3916773e-38 358 243
0.052447457 0.76700002 -0.00403442 1.4008969e-38 359 243
0.053792264 0.76700002 -0.00403442 1.3734177e-38 360 243
0.055137072 0.76700002 -0.00403442 1.3826731e-38 361 243
0.056481879 0.76700002 -0.00403442 1.3734886e-38 362 243
0.057826683 0.76700002 -0.00403442 1.3734886e-38 363 243
0.059325781 0.76899999 -0.0040449398 1.4010381e-38 364 243
0.060674097 0.76899999 -0.0040449398 1.3917825e-38 365 243
0.062022414 0.76899999 -0.0040449398 1.3918181e-38 366 243
0.063370727 0.76899999 -0.0040449398 1.3918181e-38 367 243
0.064719036 0.76899999 -0.0040449398 1.3918534e-38 368 243
0.066067353 0.76899999 -0.0040449398 1.382598e-38 369 243
0.067415662 0.76899999 -0.0040449398 1.3919249e-38 370 243
0.068763971 0.76899999 -0.0040449398 1.4011445e-38 371 243
0.070294641 0.77100003 -0.0040554604 1.3918885e-38 372 243
0.071646459 0.77100003 -0.0040554604 1.3734135e-38 373 243
0.073187642 0.773 -0.0040659797 1.3182763e-38 374 243
0.074542962 0.773 -0.0040659797 1.299837e-38 375 243
0.075898297 0.773 -0.0040659797 1.2355208e-38 376 243
0.077253617 0.773 -0.0040659797 1.060385e-38 377 243
0.078608945 0.773 -0.0040659797 8.5730823e-39 378 243
0.079964265 0.773 -0.0040659797 6.7291712e-39 379 243
0.0813196 0.773 -0.0040659797 7.2755234e-39 380 243
0.083209693 0.778 -0.0040922803 7.2755234e-39 381 243
-0.0584649 0.741 -0.0051968796 1.7880853e-38 275 244
-0.057242822 0.74199998 -0.0052038929 1.8432547e-38 276 244
-0.056092639 0.74400002 -0.0052179201 1.8616938e-38 277 244
-0.054788161 0.74400002 -0.0052179201 1.9076818e-38 278 244
-0.05348368 0.74400002 -0.0052179201 1.9261209e-38 279 244
-0.052319467 0.74599999 -0.0052319462 1.9353759e-38 280 244
-0.051079858 0.74699998 -0.0052389596 1.9353759e-38 281 244
-0.049770117 0.74699998 -0.0052389596 1.9354112e-38 282 244
-0.048460379 0.74699998 -0.0052389596 1.9261915e-38 283 244
-0.047150634 0.74699998 -0.0052389596 1.9261194e-38 284 244
-0.045840897 0.74699998 -0.0052389596 1.9261194e-38 285 244
-0.044650383 0.74900001 -0.0052529867 1.9168998e-38 286 244
-0.04333714 0.74900001 -0.0052529867 1.9168998e-38 287 244
-0.042023893 0.74900001 -0.0052529867 1.9077165e-38 288 244
-0.040710647 0.74900001 -0.0052529867 1.898497e-38 289 244
-0.0393974 0.74900001 -0.0052529867 1.8709462e-38 290 244
-0.038084153 0.74900001 -0.0052529867 1.8709462e-38 291 244
-0.036770906 0.74900001 -0.0052529867 1.8617266e-38 292 244
-0.035505001 0.75 -0.00526 1.8433234e-38 293 244
-0.034281172 0.75199997 -0.0052740262 1.861619e-38 294 244
-0.032962665 0.75199997 -0.0052740262 1.8523994e-38 295 244
-0.03172832 0.75400001 -0.0052880533 1.8431796e-38 296 244
-0.030406307 0.75400001 -0.0052880533 1.8155569e-38 297 244
-0.029084291 0.75400001 -0.0052880533 1.7696016e-38 298 244
-0.027799098 0.755 -0.0052950666 1.741907e-38 299 244
-0.026475333 0.755 -0.0052950666 1.7143565e-38 300 244
-0.025151566 0.755 -0.0052950666 1.7051368e-38 301 244
-0.02389092 0.75700003 -0.0053090933 1.6958817e-38 302 244
-0.022563647 0.75700003 -0.0053090933 1.668259e-38 303 244
-0.021236373 0.75700003 -0.0053090933 1.6589664e-38 304 244
-0.0199617 0.759 -0.0053231199 1.6220883e-38 305 244
-0.01863092 0.759 -0.0053231199 1.5760627e-38 306 244
-0.017300138 0.759 -0.0053231199 1.5576235e-38 307 244
-0.015969358 0.759 -0.0053231199 1.5300372e-38 308 244
-0.014638579 0.759 -0.0053231199 1.511598e-38 309 244
-0.0133078 0.759 -0.0053231199 1.4931959e-38 310 244
-0.01197702 0.759 -0.0053231199 1.5024155e-38 311 244
-0.01064624 0.759 -0.0053231199 1.4839413e-38 312 244
-0.00931546 0.759 -0.0053231199 1.4839413e-38 313 244
-0.0080057196 0.76099998 -0.0053371461 1.4931258e-38 314 244
-0.0066714329 0.76099998 -0.0053371461 1.5023454e-38 315 244
-0.0053371461 0.76099998 -0.0053371461 1.4839435e-38 316 244
-0.0040028598 0.76099998 -0.0053371461 1.4839435e-38 317 244
-0.00267208 0.76200002 -0.0053441599 1.474724e-38 318 244
-0.00133604 0.76200002 -0.0053441599 1.474724e-38 319 244
0 0.76200002 -0.0053441599 1.4747596e-38 320 244
0.00133604 0.76200002 -0.0053441599 1.4655041e-38 321 244
0.00267208 0.76200002 -0.0053441599 1.4655397e-38 322 244
0.0040186401 0.764 -0.0053581866 1.4655397e-38 323 244
0.0053581866 0.764 -0.0053581866 1.4379532e-38 324 244
0.006697733 0.764 -0.0053581866 1.4379532e-38 325 244
0.0080372803 0.764 -0.0053581866 1.4286981e-38 326 244
0.0093768267 0.764 -0.0053581866 1.4286981e-38 327 244
0.010716373 0.764 -0.0053581866 1.4287336e-38 328 244
0.01205592 0.764 -0.0053581866 1.4287336e-38 329 244
0.013395466 0.764 -0.0053581866 1.4287334e-38 330 244
0.014735013 0.764 -0.0053581866 1.4287334e-38 331 244
0.016074561 0.764 -0.0053581866 1.4286981e-38 332 244
0.017414106 0.764 -0.0053581866 1.4194785e-38 333 244
0.018753653 0.764 -0.0053581866 1.4194432e-38 334 244
0.020093199 0.764 -0.0053581866 1.4102236e-38 335 244
0.021432746 0.764 -0.0053581866 1.401112e-38 336 244
0.022772292 0.764 -0.0053581866 1.3918924e-38 337 244
0.024174958 0.76599997 -0.0053722127 1.4102592e-38 338 244
0.025518013 0.76599997 -0.0053722127 1.4102592e-38 339 244
0.026861066 0.76599997 -0.0053722127 1.3826725e-38 340 244
0.028204117 0.76599997 -0.0053722127 1.3826725e-38 341 244
0.029547172 0.76599997 -0.0053722127 1.3917842e-38 342 244
0.030890226 0.76599997 -0.0053722127 1.3733811e-38 343 244
0.03227536 0.76700002 -0.0053792265 1.3641614e-38 344 244
0.033576332 0.76599997 -0.0053722127 1.3641614e-38 345 244
0.034919381 0.76599997 -0.0053722127 1.3549421e-38 346 244
0.036262438 0.76599997 -0.0053722127 1.3456867e-38 347 244
0.037605491 0.76599997 -0.0053722127 1.3364671e-38 348 244
0.038999394 0.76700002 -0.0053792265 1.3272475e-38 349 244
0.040344197 0.76700002 -0.0053792265 1.3271757e-38 350 244
0.041689005 0.76700002 -0.0053792265 1.2995168e-38 351 244
0.043033812 0.76700002 -0.0053792265 1.2808982e-38 352 244
0.04437862 0.76700002 -0.0053792265 1.2624591e-38 353 244
0.045723427 0.76700002 -0.0053792265 1.2348371e-38 354 244
0.047068235 0.76700002 -0.0053792265 1.3270686e-38 355 244
0.048413042 0.76700002 -0.0053792265 1.2905498e-38 356 244
0.049757849 0.76700002 -0.0053792265 1.3181725e-38 357 244
0.051102653 0.76700002 -0.0053792265 1.3365753e-38 358 244
0.052447457 0.76700002 -0.0053792265 1.3549784e-38 359 244
0.053792264 0.76700002 -0.0053792265 1.3641261e-38 360 244
0.055137072 0.76700002 -0.0053792265 1.3733458e-38 361 244
0.056629159 0.76899999 -0.0053932532 1.3733811e-38 362 244
0.057977475 0.76899999 -0.0053932532 1.3733811e-38 363 244
0.059325781 0.76899999 -0.0053932532 1.4009672e-38 364 244
0.060674097 0.76899999 -0.0053932532 1.3917476e-38 365 244
0.062022414 0.76899999 -0.0053932532 1.373416e-38 366 244
0.063370727 0.76899999 -0.0053932532 1.3549769e-38 367 244
0.064719036 0.76899999 -0.0053932532 1.3824558e-38 368 244
0.066067353 0.76899999 -0.0053932532 1.3824558e-38 369 244
0.067415662 0.76899999 -0.0053932532 1.3457202e-38 370 244
0.068763971 0.76899999 -0.0053932532 1.3365006e-38 371 244
0.070112288 0.76899999 -0.0053932532 1.3088049e-38 372 244
0.071646459 0.77100003 -0.0054072798 1.3180245e-38 373 244
0.072998285 0.77100003 -0.0054072798 1.2537762e-38 374 244
0.074542962 0.773 -0.0054213065 1.2076784e-38 375 244
0.075898297 0.773 -0.0054213065 1.0697484e-38 376 244
0.077253617 0.773 -0.0054213065 8.4851481e-39 377 244
0.078608945 0.773 -0.0054213065 6.7280908e-39 378 244
0.079964265 0.773 -0.0054213065 5.8064946e-39 379 244
0.0813196 0.773 -0.0054213065 5.8943896e-39 380 244
-0.059764117 0.741 -0.0064960998 1.8339979e-38 274 245
-0.0584649 0.741 -0.0064960998 1.8800957e-38 275 245
-0.057242822 0.74199998 -0.0065048663 1.9078603e-38 276 245
-0.05594185 0.74199998 -0.0065048663 1.9078603e-38 277 245
-0.054788161 0.74400002 -0.0065223998 1.9354463e-38 278 245
-0.05348368 0.74400002 -0.0065223998 1.9354463e-38 279 245
-0.052179199 0.74400002 -0.0065223998 1.9262635e-38 280 245
-0.051011477 0.74599999 -0.0065399334 1.9262635e-38 281 245
-0.04970349 0.74599999 -0.0065399334 1.907825e-38 282 245
-0.048395503 0.74599999 -0.0065399334 1.8986054e-38 283 245
-0.047087517 0.74599999 -0.0065399334 1.88935e-38 284 245
-0.045840897 0.74699998 -0.0065486995 1.8801304e-38 285 245
-0.044531155 0.74699998 -0.0065486995 1.8801304e-38 286 245
-0.043221418 0.74699998 -0.0065486995 1.8801304e-38 287 245
-0.041911677 0.74699998 -0.0065486995 1.8709111e-38 288 245
-0.040601939 0.74699998 -0.0065486995 1.8616916e-38 289 245
-0.0393974 0.74900001 -0.0065662335 1.8433231e-38 290 245
-0.038084153 0.74900001 -0.0065662335 1.8341035e-38 291 245
-0.036770906 0.74900001 -0.0065662335 1.8248837e-38 292 245
-0.03545766 0.74900001 -0.0065662335 1.8156641e-38 293 245
-0.034189999 0.75 -0.006575 1.8156288e-38 294 245
-0.032962665 0.75199997 -0.0065925326 1.7971897e-38 295 245
-0.031644158 0.75199997 -0.0065925326 1.7787861e-38 296 245
-0.030325651 0.75199997 -0.0065925326 1.760347e-38 297 245
-0.029084291 0.75400001 -0.0066100666 1.7053168e-38 298 245
-0.027762281 0.75400001 -0.0066100666 1.6684025e-38 299 245
-0.026475333 0.755 -0.0066188332 1.6866974e-38 300 245
-0.025151566 0.755 -0.0066188332 1.6498193e-38 301 245
-0.023827799 0.755 -0.0066188332 1.6130132e-38 302 245
-0.022504034 0.755 -0.0066188332 1.6037937e-38 303 245
-0.021180267 0.755 -0.0066188332 1.5576981e-38 304 245
-0.019909101 0.75700003 -0.0066363667 1.5484427e-38 305 245
-0.018581826 0.75700003 -0.0066363667 1.5023469e-38 306 245
-0.017254554 0.75700003 -0.0066363667 1.5115665e-38 307 245
-0.015927281 0.75700003 -0.0066363667 1.4839435e-38 308 245
-0.014638579 0.759 -0.0066538998 1.474724e-38 309 245
-0.0133078 0.759 -0.0066538998 1.465576e-38 310 245
-0.01197702 0.759 -0.0066538998 1.465576e-38 311 245
-0.01064624 0.759 -0.0066538998 1.4656116e-38 312 245
-0.00931546 0.759 -0.0066538998 1.4656116e-38 313 245
-0.0079846792 0.759 -0.0066538998 1.4656116e-38 314 245
-0.0066714329 0.76099998 -0.0066714329 1.4748312e-38 315 245
-0.0053371461 0.76099998 -0.0066714329 1.4748309e-38 316 245
-0.0040028598 0.76099998 -0.0066714329 1.4656113e-38 317 245
-0.0026685731 0.76099998 -0.0066714329 1.4564997e-38 318 245
-0.00133604 0.76200002 -0.0066801999 1.4472801e-38 319 245
0 0.76200002 -0.0066801999 1.4472798e-38 320 245
0.00133604 0.76200002 -0.0066801999 1.4472798e-38 321 245
0.00267208 0.76200002 -0.0066801999 1.4380605e-38 322 245
0.0040081199 0.76200002 -0.0066801999 1.4380605e-38 323 245
0.0053581866 0.764 -0.006697733 1.4379536e-38 324 245
0.006697733 0.764 -0.006697733 1.4379536e-38 325 245
0.0080372803 0.764 -0.006697733 1.4286983e-38 326 245
0.0093768267 0.764 -0.006697733 1.4286983e-38 327 245
0.010716373 0.764 -0.006697733 1.4195504e-38 328 245
0.01205592 0.764 -0.006697733 1.4195504e-38 329 245
0.013395466 0.764 -0.006697733 1.4195857e-38 330 245
0.014735013 0.764 -0.006697733 1.4011826e-38 331 245
0.016074561 0.764 -0.006697733 1.4011473e-38 332 245
0.017414106 0.764 -0.006697733 1.4011473e-38 333 245
0.018753653 0.764 -0.006697733 1.4011122e-38 334 245
