# .PCD v.7 - Point Cloud Data file format
FIELDS x y z rgb imX imY
SIZE 4 4 4 4 4 4
TYPE F F F F F F
COUNT 1 1 1 1 1 1
WIDTH 840
HEIGHT 1
VIEWPOINT 0 0 0 1 0 0 0
POINTS 840
DATA ascii
0.094122432 0.778 -0.016369121 1.4469183e-38 389 252
0.095854737 0.78100002 -0.016432239 1.4375191e-38 390 252
0.097224087 0.78100002 -0.016432239 1.3914213e-38 391 252
0.098845914 0.78299999 -0.01647432 1.3544734e-38 392 252
0.10021878 0.78299999 -0.01647432 1.3452538e-38 393 252
0.10185113 0.78500003 -0.016516401 1.198213e-38 394 252
0.1032275 0.78500003 -0.016516401 1.2811892e-38 395 252
0.066402234 0.78899997 -0.017983939 1.2904091e-38 368 253
0.067613788 0.787 -0.017938353 1.354946e-38 369 253
0.068993665 0.787 -0.017938353 1.3827097e-38 370 253
0.070194699 0.78500003 -0.017892767 1.4011488e-38 371 253
0.071571067 0.78500003 -0.017892767 1.4562495e-38 372 253
0.07276158 0.78299999 -0.017847179 1.5023472e-38 373 253
0.074134432 0.78299999 -0.017847179 1.5391526e-38 374 253
0.075314432 0.78100002 -0.017801592 1.5760669e-38 375 253
0.076683782 0.78100002 -0.017801592 1.6036532e-38 376 253
0.078053139 0.78100002 -0.017801592 1.6313121e-38 377 253
0.079320796 0.77999997 -0.017778799 1.6221644e-38 378 253
0.080688395 0.77999997 -0.017778799 1.631384e-38 379 253
0.082055993 0.77999997 -0.017778799 1.6221294e-38 380 253
0.083423592 0.77999997 -0.017778799 1.5114946e-38 381 253
0.084573783 0.778 -0.017733213 1.446958e-38 382 253
0.085716955 0.77600002 -0.017687626 1.382421e-38 383 253
0.087077543 0.77600002 -0.017687626 1.4011838e-38 384 253
0.088438138 0.77600002 -0.017687626 1.4565012e-38 385 253
0.089798726 0.77600002 -0.017687626 1.5389365e-38 386 253
0.091394253 0.778 -0.017733213 1.5112778e-38 387 253
0.092519894 0.77600002 -0.017687626 1.4746497e-38 388 253
0.093880482 0.77600002 -0.017687626 1.428552e-38 389 253
0.095731996 0.77999997 -0.017778799 1.4007857e-38 390 253
0.097224087 0.78100002 -0.017801592 1.3731269e-38 391 253
0.098845914 0.78299999 -0.017847179 1.3269942e-38 392 253
0.10021878 0.78299999 -0.017847179 1.3177746e-38 393 253
0.10159164 0.78299999 -0.017847179 1.2809346e-38 394 253
0.066402234 0.78899997 -0.019367319 1.1892828e-38 368 254
0.067613788 0.787 -0.019318225 1.2814426e-38 369 254
0.068818331 0.78500003 -0.019269135 1.3550527e-38 370 254
0.070194699 0.78500003 -0.019269135 1.3827472e-38 371 254
0.071388714 0.78299999 -0.019220039 1.4379546e-38 372 254
0.07276158 0.78299999 -0.019220039 1.4564296e-38 373 254
0.073945075 0.78100002 -0.019170946 1.5300414e-38 374 254
0.075314432 0.78100002 -0.019170946 1.5668836e-38 375 254
0.076585598 0.77999997 -0.0191464 1.5853583e-38 376 254
0.077953197 0.77999997 -0.0191464 1.6037976e-38 377 254
0.079320796 0.77999997 -0.0191464 1.6130527e-38 378 254
0.080688395 0.77999997 -0.0191464 1.6038332e-38 379 254
0.081845596 0.778 -0.019097306 1.6034754e-38 380 254
0.083209693 0.778 -0.019097306 1.465182e-38 381 254
0.084356368 0.77600002 -0.019048214 1.400645e-38 382 254
0.085716955 0.77600002 -0.019048214 1.3361081e-38 383 254
0.087077543 0.77600002 -0.019048214 1.345722e-38 384 254
0.088438138 0.77600002 -0.019048214 1.4102589e-38 385 254
0.089798726 0.77600002 -0.019048214 1.4562125e-38 386 254
0.091394253 0.778 -0.019097306 1.4746157e-38 387 254
0.092519894 0.77600002 -0.019048214 1.4561747e-38 388 254
0.093880482 0.77600002 -0.019048214 1.4193323e-38 389 254
0.095731996 0.77999997 -0.0191464 1.4191523e-38 390 254
0.097224087 0.78100002 -0.019170946 1.3730903e-38 391 254
0.098593444 0.78100002 -0.019170946 1.3453254e-38 392 254
0.10021878 0.78299999 -0.019220039 1.3177027e-38 393 254
0.10159164 0.78299999 -0.019220039 1.2533491e-38 394 254
0.066402234 0.78899997 -0.0207507 1.1985391e-38 368 255
0.067613788 0.787 -0.0206981 1.2722956e-38 369 255
0.068818331 0.78500003 -0.020645501 1.3826037e-38 370 255
0.070194699 0.78500003 -0.020645501 1.4102984e-38 371 255
0.071388714 0.78299999 -0.0205929 1.4655057e-38 372 255
0.07276158 0.78299999 -0.0205929 1.4932002e-38 373 255
0.073945075 0.78100002 -0.020540299 1.5300414e-38 374 255
0.075314432 0.78100002 -0.020540299 1.5668836e-38 375 255
0.076585598 0.77999997 -0.020513998 1.5853939e-38 376 255
0.077953197 0.77999997 -0.020513998 1.5946136e-38 377 255
0.07911741 0.778 -0.020461399 1.6037976e-38 378 255
0.080481507 0.778 -0.020461399 1.594578e-38 379 255
0.081845596 0.778 -0.020461399 1.5114949e-38 380 255
0.082995787 0.77600002 -0.0204088 1.3178841e-38 381 255
0.084356368 0.77600002 -0.0204088 1.3174169e-38 382 255
0.085716955 0.77600002 -0.0204088 1.2989778e-38 383 255
0.087077543 0.77600002 -0.0204088 1.2995168e-38 384 255
0.088438138 0.77600002 -0.0204088 1.3917126e-38 385 255
0.089798726 0.77600002 -0.0204088 1.4652526e-38 386 255
0.091394253 0.778 -0.020461399 1.4928753e-38 387 255
0.092758343 0.778 -0.020461399 1.4561397e-38 388 255
0.094122432 0.778 -0.020461399 1.428517e-38 389 255
0.095486529 0.778 -0.020461399 1.3916027e-38 390 255
0.097099595 0.77999997 -0.020513998 1.3547604e-38 391 255
0.098467186 0.77999997 -0.020513998 1.3178109e-38 392 255
0.099962793 0.78100002 -0.020540299 1.2901882e-38 393 255
0.10133215 0.78100002 -0.020540299 1.2533474e-38 394 255
0.066486403 0.79000002 -0.022162134 1.2170138e-38 368 256
0.067613788 0.787 -0.022077972 1.2631117e-38 369 256
0.068643004 0.78299999 -0.021965759 1.3643081e-38 370 256
0.070015855 0.78299999 -0.021965759 1.4011505e-38 371 256
0.071388714 0.78299999 -0.021965759 1.4563943e-38 372 256
0.072575726 0.78100002 -0.021909652 1.4656139e-38 373 256
0.073945075 0.78100002 -0.021909652 1.5300779e-38 374 256
0.075217992 0.77999997 -0.021881599 1.5485171e-38 375 256
0.076389223 0.778 -0.021825492 1.5577719e-38 376 256
0.07775332 0.778 -0.021825492 1.5854306e-38 377 256
0.07911741 0.778 -0.021825492 1.6221291e-38 378 256
0.080481507 0.778 -0.021825492 1.5207498e-38 379 256
0.081635199 0.77600002 -0.021769386 1.4284832e-38 380 256
0.082995787 0.77600002 -0.021769386 1.244092e-38 381 256
0.084138952 0.77399999 -0.021713279 1.3263863e-38 382 256
0.085496038 0.77399999 -0.021713279 1.2987275e-38 383 256
0.086853117 0.77399999 -0.021713279 1.2900473e-38 384 256
0.088210195 0.77399999 -0.021713279 1.4006819e-38 385 256
0.089798726 0.77600002 -0.021769386 1.4102236e-38 386 256
0.091159306 0.77600002 -0.021769386 1.4102236e-38 387 256
0.092519894 0.77600002 -0.021769386 1.4285536e-38 388 256
0.093880482 0.77600002 -0.021769386 1.3917112e-38 389 256
0.095486529 0.778 -0.021825492 1.3915664e-38 390 256
0.096850619 0.778 -0.021825492 1.3638717e-38 391 256
0.098467186 0.77999997 -0.021881599 1.3178109e-38 392 256
0.099834792 0.77999997 -0.021881599 1.2809685e-38 393 256
0.10120239 0.77999997 -0.021881599 1.2165778e-38 394 256
0.10256999 0.77999997 -0.021881599 1.1612604e-38 395 256
0.066402234 0.78899997 -0.023517458 1.2906624e-38 368 257
0.067613788 0.787 -0.023457846 1.299882e-38 369 257
0.068643004 0.78299999 -0.02333862 1.4011141e-38 370 257
0.070015855 0.78299999 -0.02333862 1.4103338e-38 371 257
0.071206369 0.78100002 -0.023279008 1.4563943e-38 372 257
0.072575726 0.78100002 -0.023279008 1.484017e-38 373 257
0.073850393 0.77999997 -0.023249198 1.5300782e-38 374 257
0.075217992 0.77999997 -0.023249198 1.5485173e-38 375 257
0.076389223 0.778 -0.023189586 1.5577369e-38 376 257
0.07775332 0.778 -0.023189586 1.5946152e-38 377 257
0.078914031 0.77600002 -0.023129974 1.6037628e-38 378 257
0.080274612 0.77600002 -0.023129974 1.4285551e-38 379 257
0.081635199 0.77600002 -0.023129974 1.3177409e-38 380 257
0.082995787 0.77600002 -0.023129974 1.188667e-38 381 257
0.084138952 0.77399999 -0.02307036 1.2711414e-38 382 257
0.085496038 0.77399999 -0.02307036 1.2895806e-38 383 257
0.086853117 0.77399999 -0.02307036 1.3176708e-38 384 257
0.088210195 0.77399999 -0.02307036 1.4006469e-38 385 257
0.089567274 0.77399999 -0.02307036 1.4010043e-38 386 257
0.091159306 0.77600002 -0.023129974 1.4010043e-38 387 257
0.092519894 0.77600002 -0.023129974 1.419334e-38 388 257
0.093880482 0.77600002 -0.023129974 1.3824558e-38 389 257
0.095486529 0.778 -0.023189586 1.382311e-38 390 257
0.096850619 0.778 -0.023189586 1.3454686e-38 391 257
0.098214716 0.778 -0.023189586 1.2994078e-38 392 257
0.099578805 0.778 -0.023189586 1.2809685e-38 393 257
0.10068341 0.77600002 -0.023129974 1.2072863e-38 394 257
0.102044 0.77600002 -0.023129974 1.1427494e-38 395 257
0.066402234 0.78899997 -0.024900839 1.364239e-38 368 258
0.067613788 0.787 -0.024837719 1.364239e-38 369 258
0.068643004 0.78299999 -0.024711479 1.4103335e-38 370 258
0.070015855 0.78299999 -0.024711479 1.419553e-38 371 258
0.071206369 0.78100002 -0.024648361 1.4564296e-38 372 258
0.072482795 0.77999997 -0.024616797 1.493272e-38 373 258
0.073661037 0.778 -0.024553679 1.5300416e-38 374 258
0.074832268 0.77600002 -0.024490559 1.5484808e-38 375 258
0.076192856 0.77600002 -0.024490559 1.5668842e-38 376 258
0.077553444 0.77600002 -0.024490559 1.594543e-38 377 258
0.078914031 0.77600002 -0.024490559 1.5945077e-38 378 258
0.080274612 0.77600002 -0.024490559 1.3456153e-38 379 258
0.081635199 0.77600002 -0.024490559 1.2254376e-38 380 258
0.082995787 0.77600002 -0.024490559 1.1055834e-38 381 258
0.084356368 0.77600002 -0.024490559 1.2525932e-38 382 258
0.085496038 0.77399999 -0.02442744 1.2802159e-38 383 258
0.086853117 0.77399999 -0.02442744 1.3636957e-38 384 258
0.088210195 0.77399999 -0.02442744 1.4559274e-38 385 258
0.089567274 0.77399999 -0.02442744 1.3917845e-38 386 258
0.091159306 0.77600002 -0.024490559 1.3917845e-38 387 258
0.092519894 0.77600002 -0.024490559 1.382563e-38 388 258
0.093880482 0.77600002 -0.024490559 1.3641238e-38 389 258
0.095241062 0.77600002 -0.024490559 1.3547601e-38 390 258
0.09660165 0.77600002 -0.024490559 1.3271014e-38 391 258
0.097962238 0.77600002 -0.024490559 1.2901882e-38 392 258
0.099322826 0.77600002 -0.024490559 1.271749e-38 393 258
0.10042392 0.77399999 -0.02442744 1.1981021e-38 394 258
0.101781 0.77399999 -0.02442744 1.1427847e-38 395 258
0.067785613 0.78899997 -0.026284218 1.3551628e-38 369 259
0.068643004 0.78299999 -0.026084339 1.4471391e-38 370 259
0.070015855 0.78299999 -0.026084339 1.4471391e-38 371 259
0.071206369 0.78100002 -0.026017714 1.4656489e-38 372 259
0.072482795 0.77999997 -0.025984399 1.484052e-38 373 259
0.073661037 0.778 -0.025917772 1.5301135e-38 374 259
0.074832268 0.77600002 -0.025851147 1.5393331e-38 375 259
0.076192856 0.77600002 -0.025851147 1.5485173e-38 376 259
0.077553444 0.77600002 -0.025851147 1.5577369e-38 377 259
0.078914031 0.77600002 -0.025851147 1.5484107e-38 378 259
0.080274612 0.77600002 -0.025851147 1.2441291e-38 379 259
0.081635199 0.77600002 -0.025851147 1.1329572e-38 380 259
0.082995787 0.77600002 -0.025851147 1.114518e-38 381 259
0.084356368 0.77600002 -0.025851147 1.1790199e-38 382 259
0.085716955 0.77600002 -0.025851147 1.2619961e-38 383 259
0.086853117 0.77399999 -0.025784519 1.3638762e-38 384 259
0.088210195 0.77399999 -0.025784519 1.4744751e-38 385 259
0.089567274 0.77399999 -0.025784519 1.4285539e-38 386 259
0.091159306 0.77600002 -0.025851147 1.4285539e-38 387 259
0.092519894 0.77600002 -0.025851147 1.4008576e-38 388 259
0.093880482 0.77600002 -0.025851147 1.3824185e-38 389 259
0.095241062 0.77600002 -0.025851147 1.3639073e-38 390 259
0.09660165 0.77600002 -0.025851147 1.3270292e-38 391 259
0.097962238 0.77600002 -0.025851147 1.3085551e-38 392 259
0.099322826 0.77600002 -0.025851147 1.2624573e-38 393 259
0.10042392 0.77399999 -0.025784519 1.1979944e-38 394 259
0.101781 0.77399999 -0.025784519 1.1242379e-38 395 259
0.069837019 0.78100002 -0.027387068 1.4472116e-38 371 260
0.071115196 0.77999997 -0.027351998 1.4932353e-38 372 260
0.072296947 0.778 -0.027281865 1.5208581e-38 373 260
0.073471673 0.77600002 -0.027211733 1.5208934e-38 374 260
0.074832268 0.77600002 -0.027211733 1.5393325e-38 375 260
0.076192856 0.77600002 -0.027211733 1.5760684e-38 376 260
0.077553444 0.77600002 -0.027211733 1.5299707e-38 377 260
0.078710638 0.77399999 -0.027141599 1.4469239e-38 378 260
0.080067717 0.77399999 -0.027141599 1.087397e-38 379 260
0.081424795 0.77399999 -0.027141599 1.0406524e-38 380 260
0.082781881 0.77399999 -0.027141599 1.0959698e-38 381 260
0.084138952 0.77399999 -0.027141599 1.1423175e-38 382 260
0.085496038 0.77399999 -0.027141599 1.3082695e-38 383 260
0.086853117 0.77399999 -0.027141599 1.4557809e-38 384 260
0.088210195 0.77399999 -0.027141599 1.5664157e-38 385 260
0.089567274 0.77399999 -0.027141599 1.4195141e-38 386 260
0.091159306 0.77600002 -0.027211733 1.3918195e-38 387 260
0.092519894 0.77600002 -0.027211733 1.3917825e-38 388 260
0.093880482 0.77600002 -0.027211733 1.3457207e-38 389 260
0.095241062 0.77600002 -0.027211733 1.3271737e-38 390 260
0.09660165 0.77600002 -0.027211733 1.299515e-38 391 260
0.097962238 0.77600002 -0.027211733 1.2533822e-38 392 260
0.099066831 0.77399999 -0.027141599 1.2441626e-38 393 260
0.10029417 0.773 -0.027106533 1.1978865e-38 394 260
0.10164949 0.773 -0.027106533 1.1333496e-38 395 260
0.068467662 0.78100002 -0.028756421 1.4564665e-38 370 261
0.069837019 0.78100002 -0.028756421 1.4564665e-38 371 261
0.07093285 0.778 -0.028645959 1.4932e-38 372 261
0.072296947 0.778 -0.028645959 1.5208587e-38 373 261
0.073471673 0.77600002 -0.028572321 1.5300779e-38 374 261
0.074832268 0.77600002 -0.028572321 1.5485171e-38 375 261
0.075996473 0.77399999 -0.028498679 1.5669572e-38 376 261
0.077353559 0.77399999 -0.028498679 1.465506e-38 377 261
0.078710638 0.77399999 -0.028498679 1.345545e-38 378 261
0.080067717 0.77399999 -0.028498679 1.0136407e-38 379 261
0.081424795 0.77399999 -0.028498679 9.946268e-39 380 261
0.082781881 0.77399999 -0.028498679 1.0591637e-38 381 261
0.084138952 0.77399999 -0.028498679 1.1881988e-38 382 261
0.085496038 0.77399999 -0.028498679 1.3910292e-38 383 261
0.086853117 0.77399999 -0.028498679 1.4468485e-38 384 261
0.088210195 0.77399999 -0.028498679 1.5298246e-38 385 261
0.089567274 0.77399999 -0.028498679 1.446993e-38 386 261
0.090924352 0.77399999 -0.028498679 1.4193343e-38 387 261
0.092281438 0.77399999 -0.028498679 1.3732712e-38 388 261
0.093638517 0.77399999 -0.028498679 1.3548321e-38 389 261
0.094995596 0.77399999 -0.028498679 1.3455405e-38 390 261
0.09660165 0.77600002 -0.028572321 1.2994428e-38 391 261
0.097962238 0.77600002 -0.028572321 1.2717134e-38 392 261
0.099066831 0.77399999 -0.028498679 1.2256516e-38 393 261
0.10029417 0.773 -0.028461859 1.1610105e-38 394 261
0.10164949 0.773 -0.028461859 1.087254e-38 395 261
0.068467662 0.78100002 -0.030125774 1.4563593e-38 370 262
0.069389917 0.77600002 -0.029932907 1.4839819e-38 371 262
0.070750505 0.77600002 -0.029932907 1.5115317e-38 372 262
0.072111093 0.77600002 -0.029932907 1.529971e-38 373 262
0.073282316 0.77399999 -0.029855758 1.5300063e-38 374 262
0.074639395 0.77399999 -0.029855758 1.5668486e-38 375 262
0.075996473 0.77399999 -0.029855758 1.5669569e-38 376 262
0.077353559 0.77399999 -0.029855758 1.4194437e-38 377 262
0.078710638 0.77399999 -0.029855758 1.2717882e-38 378 262
0.080067717 0.77399999 -0.029855758 9.4910351e-39 379 262
0.081424795 0.77399999 -0.029855758 1.0222849e-38 380 262
0.082781881 0.77399999 -0.029855758 1.059199e-38 381 262
0.084138952 0.77399999 -0.029855758 1.206818e-38 382 262
0.085496038 0.77399999 -0.029855758 1.4464908e-38 383 262
0.086853117 0.77399999 -0.029855758 1.4653245e-38 384 262
0.088210195 0.77399999 -0.029855758 1.4837638e-38 385 262
0.089567274 0.77399999 -0.029855758 1.4378453e-38 386 262
0.090924352 0.77399999 -0.029855758 1.4009672e-38 387 262
0.092281438 0.77399999 -0.029855758 1.3640882e-38 388 262
0.093638517 0.77399999 -0.029855758 1.3364656e-38 389 262
0.094995596 0.77399999 -0.029855758 1.3179541e-38 390 262
0.096352674 0.77399999 -0.029855758 1.2902954e-38 391 262
0.09770976 0.77399999 -0.029855758 1.2441629e-38 392 262
0.099066831 0.77399999 -0.029855758 1.2164683e-38 393 262
0.10042392 0.77399999 -0.029855758 1.1149849e-38 394 262
0.101781 0.77399999 -0.029855758 1.0873622e-38 395 262
0.069389917 0.77600002 -0.031293493 1.4656507e-38 371 263
0.070750505 0.77600002 -0.031293493 1.5207159e-38 372 263
0.072111093 0.77600002 -0.031293493 1.5299713e-38 373 263
0.073282316 0.77399999 -0.031212838 1.5392262e-38 374 263
0.074639395 0.77399999 -0.031212838 1.5484457e-38 375 263
0.075898297 0.773 -0.03117251 1.5577369e-38 376 263
0.077253617 0.773 -0.03117251 1.3733458e-38 377 263
0.078710638 0.77399999 -0.031212838 1.1886673e-38 378 263
0.080067717 0.77399999 -0.031212838 9.5817832e-39 379 263
0.081424795 0.77399999 -0.031212838 1.0315754e-38 380 263
0.082781881 0.77399999 -0.031212838 1.1606493e-38 381 263
0.084138952 0.77399999 -0.031212838 1.298978e-38 382 263
0.085496038 0.77399999 -0.031212838 1.511028e-38 383 263
0.086853117 0.77399999 -0.031212838 1.4561772e-38 384 263
0.088210195 0.77399999 -0.031212838 1.4561772e-38 385 263
0.089567274 0.77399999 -0.031212838 1.4469927e-38 386 263
0.090924352 0.77399999 -0.031212838 1.3917112e-38 387 263
0.092281438 0.77399999 -0.031212838 1.3640522e-38 388 263
0.093638517 0.77399999 -0.031212838 1.3455771e-38 389 263
0.094995596 0.77399999 -0.031212838 1.3270661e-38 390 263
0.096352674 0.77399999 -0.031212838 1.290188e-38 391 263
0.09770976 0.77399999 -0.031212838 1.234908e-38 392 263
0.099066831 0.77399999 -0.031212838 1.1888102e-38 393 263
0.10042392 0.77399999 -0.031212838 1.0873637e-38 394 263
0.101781 0.77399999 -0.031212838 1.0688887e-38 395 263
0.068029337 0.77600002 -0.032654081 1.4196249e-38 370 264
0.069389917 0.77600002 -0.032654081 1.4380999e-38 371 264
0.070750505 0.77600002 -0.032654081 1.5023846e-38 372 264
0.072111093 0.77600002 -0.032654081 1.5023846e-38 373 264
0.073282316 0.77399999 -0.032569919 1.5208231e-38 374 264
0.074639395 0.77399999 -0.032569919 1.5300426e-38 375 264
0.075898297 0.773 -0.032527838 1.530006e-38 376 264
0.077253617 0.773 -0.032527838 1.3363952e-38 377 264
0.078608945 0.773 -0.032527838 1.1147287e-38 378 264
0.079964265 0.773 -0.032527838 9.8565484e-39 379 264
0.0813196 0.773 -0.032527838 1.0407934e-38 380 264
0.082674921 0.773 -0.032527838 1.280466e-38 381 264
0.084030248 0.773 -0.032527838 1.3819904e-38 382 264
0.085385576 0.773 -0.032527838 1.538759e-38 383 264
0.086740904 0.773 -0.032527838 1.4654691e-38 384 264
0.088096231 0.773 -0.032527838 1.4470298e-38 385 264
0.089451559 0.773 -0.032527838 1.4285533e-38 386 264
0.090924352 0.77399999 -0.032569919 1.3824914e-38 387 264
0.092281438 0.77399999 -0.032569919 1.3547968e-38 388 264
0.093638517 0.77399999 -0.032569919 1.3179544e-38 389 264
0.094995596 0.77399999 -0.032569919 1.2902601e-38 390 264
0.096352674 0.77399999 -0.032569919 1.2533819e-38 391 264
0.09770976 0.77399999 -0.032569919 1.2164333e-38 392 264
0.099066831 0.77399999 -0.032569919 1.1057985e-38 393 264
0.10042392 0.77399999 -0.032569919 9.310269e-39 394 264
0.101781 0.77399999 -0.032569919 1.0047834e-38 395 264
0.068029337 0.77600002 -0.034014668 1.4196249e-38 370 265
0.069389917 0.77600002 -0.034014668 1.4473195e-38 371 265
0.070750505 0.77600002 -0.034014668 1.4931649e-38 372 265
0.071925238 0.77399999 -0.033927001 1.5023846e-38 373 265
0.073282316 0.77399999 -0.033927001 1.5207512e-38 374 265
0.074542962 0.773 -0.033883166 1.5207512e-38 375 265
0.075701922 0.77100003 -0.033795502 1.5300411e-38 376 265
0.077053741 0.77100003 -0.033795502 1.3364303e-38 377 265
0.078405559 0.77100003 -0.033795502 1.1697925e-38 378 265
0.079757385 0.77100003 -0.033795502 1.0499381e-38 379 265
0.081109203 0.77100003 -0.033795502 1.096253e-38 380 265
0.082461022 0.77100003 -0.033795502 1.3728399e-38 381 265
0.084030248 0.773 -0.033883166 1.4465629e-38 382 265
0.085164659 0.77100003 -0.033795502 1.5572337e-38 383 265
0.086516477 0.77100003 -0.033795502 1.4563214e-38 384 265
0.088096231 0.773 -0.033883166 1.4194432e-38 385 265
0.089451559 0.773 -0.033883166 1.4286255e-38 386 265
0.090806887 0.773 -0.033883166 1.3640885e-38 387 265
0.092162207 0.773 -0.033883166 1.3364658e-38 388 265
0.093517542 0.773 -0.033883166 1.3087711e-38 389 265
0.094872862 0.773 -0.033883166 1.2627093e-38 390 265
0.09622819 0.773 -0.033883166 1.2350146e-38 391 265
0.09770976 0.77399999 -0.033927001 1.1797352e-38 392 265
0.099066831 0.77399999 -0.033927001 9.9530797e-39 393 265
0.10068341 0.77600002 -0.034014668 1.0042446e-38 394 265
0.102044 0.77600002 -0.034014668 1.1425739e-38 395 265
0.066840574 0.778 -0.035466425 1.2725832e-38 369 266
0.068029337 0.77600002 -0.035375252 1.4196252e-38 370 266
0.069389917 0.77600002 -0.035375252 1.4380643e-38 371 266
0.070568159 0.77399999 -0.03528408 1.465651e-38 372 266
0.071925238 0.77399999 -0.03528408 1.465651e-38 373 266
0.073282316 0.77399999 -0.03528408 1.5024921e-38 374 266
0.074542962 0.773 -0.035238493 1.4932367e-38 375 266
0.075701922 0.77100003 -0.03514732 1.5300767e-38 376 266
0.077053741 0.77100003 -0.03514732 1.3917831e-38 377 266
0.078405559 0.77100003 -0.03514732 1.2345815e-38 378 266
0.079757385 0.77100003 -0.03514732 1.1608249e-38 379 266
0.081109203 0.77100003 -0.03514732 1.142495e-38 380 266
0.082461022 0.77100003 -0.03514732 1.3822395e-38 381 266
0.08381284 0.77100003 -0.03514732 1.4192634e-38 382 266
0.085164659 0.77100003 -0.03514732 1.4745808e-38 383 266
0.086516477 0.77100003 -0.03514732 1.4562495e-38 384 266
0.088096231 0.773 -0.035238493 1.4285907e-38 385 266
0.089451559 0.773 -0.035238493 1.3917831e-38 386 266
0.090806887 0.773 -0.035238493 1.3456854e-38 387 266
0.092162207 0.773 -0.035238493 1.3271737e-38 388 266
0.093517542 0.773 -0.035238493 1.299515e-38 389 266
0.094872862 0.773 -0.035238493 1.2809685e-38 390 266
0.09622819 0.773 -0.035238493 1.2164316e-38 391 266
0.09758351 0.773 -0.035238493 1.188525e-38 392 266
0.099066831 0.77399999 -0.03528408 1.0502316e-38 393 266
0.10042392 0.77399999 -0.03528408 9.4014109e-39 394 266
0.066840574 0.778 -0.036830518 1.3001338e-38 369 267
0.068029337 0.77600002 -0.036735836 1.4471394e-38 370 267
0.069211073 0.77399999 -0.036641158 1.456359e-38 371 267
0.070568159 0.77399999 -0.036641158 1.4747258e-38 372 267
0.071832314 0.773 -0.036593821 1.4931649e-38 373 267
0.073187642 0.773 -0.036593821 1.5207515e-38 374 267
0.074350104 0.77100003 -0.036499143 1.5207515e-38 375 267
0.075701922 0.77100003 -0.036499143 1.5024904e-38 376 267
0.077053741 0.77100003 -0.036499143 1.4379536e-38 377 267
0.078202173 0.76899999 -0.036404461 1.4286257e-38 378 267
0.079550482 0.76899999 -0.036404461 1.4009672e-38 379 267
0.081109203 0.77100003 -0.036499143 1.4102236e-38 380 267
0.082461022 0.77100003 -0.036499143 1.4194432e-38 381 267
0.08381284 0.77100003 -0.036499143 1.4194432e-38 382 267
0.084943734 0.76899999 -0.036404461 1.4379183e-38 383 267
0.086292051 0.76899999 -0.036404461 1.4469933e-38 384 267
0.087868303 0.77100003 -0.036499143 1.4192987e-38 385 267
0.089220122 0.77100003 -0.036499143 1.3824558e-38 386 267
0.09057194 0.77100003 -0.036499143 1.3547971e-38 387 267
0.091923758 0.77100003 -0.036499143 1.3179188e-38 388 267
0.093275577 0.77100003 -0.036499143 1.2810406e-38 389 267
0.094627403 0.77100003 -0.036499143 1.2257235e-38 390 267
0.095979221 0.77100003 -0.036499143 1.1796257e-38 391 267
0.09758351 0.773 -0.036593821 1.096472e-38 392 267
0.099066831 0.77399999 -0.036641158 9.7661773e-39 393 267
0.10042392 0.77399999 -0.036641158 8.3886883e-39 394 267
0.066668749 0.77600002 -0.038096428 1.3276486e-38 369 268
0.067854002 0.77399999 -0.037998237 1.4195886e-38 370 268
0.069211073 0.77399999 -0.037998237 1.4379917e-38 371 268
0.070476986 0.773 -0.037949149 1.4654706e-38 372 268
0.071646459 0.77100003 -0.037850961 1.4839456e-38 373 268
0.072998285 0.77100003 -0.037850961 1.5023846e-38 374 268
0.074350104 0.77100003 -0.037850961 1.5023846e-38 375 268
0.07550554 0.76899999 -0.03775277 1.5115668e-38 376 268
0.076853856 0.76899999 -0.03775277 1.4839082e-38 377 268
0.078202173 0.76899999 -0.03775277 1.4564646e-38 378 268
0.079550482 0.76899999 -0.03775277 1.4472451e-38 379 268
0.080898799 0.76899999 -0.03775277 1.4838712e-38 380 268
0.082247108 0.76899999 -0.03775277 1.4562125e-38 381 268
0.083595425 0.76899999 -0.03775277 1.4286983e-38 382 268
0.084943734 0.76899999 -0.03775277 1.4194788e-38 383 268
0.086292051 0.76899999 -0.03775277 1.3824576e-38 384 268
0.087640367 0.76899999 -0.03775277 1.3640185e-38 385 268
0.088988677 0.76899999 -0.03775277 1.354762e-38 386 268
0.090336986 0.76899999 -0.03775277 1.3271034e-38 387 268
0.091685303 0.76899999 -0.03775277 1.2902604e-38 388 268
0.093275577 0.77100003 -0.037850961 1.2533822e-38 389 268
0.094381928 0.76899999 -0.03775277 1.1796622e-38 390 268
0.095730245 0.76899999 -0.03775277 1.0690276e-38 391 268
0.09733104 0.77100003 -0.037850961 9.5857517e-39 392 268
0.099066831 0.77399999 -0.037998237 8.5712396e-39 393 268
0.10068341 0.77600002 -0.038096428 8.6652808e-39 394 268
0.063370727 0.76899999 -0.039101087 1.5765456e-38 367 269
0.066496916 0.77399999 -0.039355319 1.3368682e-38 369 269
0.067854002 0.77399999 -0.039355319 1.4195884e-38 370 269
0.069121659 0.773 -0.039304473 1.4195884e-38 371 269
0.070294641 0.77100003 -0.03920278 1.4562511e-38 372 269
0.071646459 0.77100003 -0.03920278 1.4746902e-38 373 269
0.072998285 0.77100003 -0.03920278 1.4931652e-38 374 269
0.074157231 0.76899999 -0.039101087 1.5023849e-38 375 269
0.07550554 0.76899999 -0.039101087 1.5024202e-38 376 269
0.076853856 0.76899999 -0.039101087 1.5024202e-38 377 269
0.078202173 0.76899999 -0.039101087 1.43817e-38 378 269
0.079550482 0.76899999 -0.039101087 1.4104754e-38 379 269
0.080898799 0.76899999 -0.039101087 1.4286983e-38 380 269
0.082247108 0.76899999 -0.039101087 1.4194788e-38 381 269
0.083595425 0.76899999 -0.039101087 1.4102592e-38 382 269
0.084943734 0.76899999 -0.039101087 1.3641614e-38 383 269
0.086292051 0.76899999 -0.039101087 1.327211e-38 384 269
0.087640367 0.76899999 -0.039101087 1.327211e-38 385 269
0.088988677 0.76899999 -0.039101087 1.3271389e-38 386 269
0.090336986 0.76899999 -0.039101087 1.3086998e-38 387 269
0.091685303 0.76899999 -0.039101087 1.2441992e-38 388 269
0.093275577 0.77100003 -0.03920278 1.1981015e-38 389 269
0.094381928 0.76899999 -0.039101087 1.1060503e-38 390 269
0.095730245 0.76899999 -0.039101087 9.6775676e-39 391 269
0.097078554 0.76899999 -0.039101087 9.0311486e-39 392 269
0.099066831 0.77399999 -0.039355319 8.6623661e-39 393 269
0.10042392 0.77399999 -0.039355319 8.9411558e-39 394 269
0.062022414 0.76899999 -0.0404494 1.6596655e-38 366 270
0.063370727 0.76899999 -0.0404494 1.5305916e-38 367 270
0.064887367 0.77100003 -0.040554602 1.4475028e-38 368 270
0.066239186 0.77100003 -0.040554602 1.3276486e-38 369 270
0.067766331 0.773 -0.0406598 1.4287e-38 370 270
0.068942823 0.77100003 -0.040554602 1.4194803e-38 371 270
0.070112288 0.76899999 -0.0404494 1.437848e-38 372 270
0.071460605 0.76899999 -0.0404494 1.4654706e-38 373 270
0.072808921 0.76899999 -0.0404494 1.4746902e-38 374 270
0.074157231 0.76899999 -0.0404494 1.4839456e-38 375 270
0.07550554 0.76899999 -0.0404494 1.4839451e-38 376 270
0.07665398 0.76700002 -0.040344197 1.4747255e-38 377 270
0.077998787 0.76700002 -0.040344197 1.4379902e-38 378 270
0.079550482 0.76899999 -0.0404494 1.401112e-38 379 270
0.080898799 0.76899999 -0.0404494 1.3918195e-38 380 270
0.082247108 0.76899999 -0.0404494 1.3457576e-38 381 270
0.083595425 0.76899999 -0.0404494 1.382456e-38 382 270
0.084943734 0.76899999 -0.0404494 1.3547974e-38 383 270
0.086067624 0.76700002 -0.040344197 1.3271389e-38 384 270
0.087412432 0.76700002 -0.040344197 1.3179194e-38 385 270
0.088757239 0.76700002 -0.040344197 1.3086998e-38 386 270
0.090336986 0.76899999 -0.0404494 1.262602e-38 387 270
0.091685303 0.76899999 -0.0404494 1.1705509e-38 388 270
0.093033619 0.76899999 -0.0404494 1.1060139e-38 389 270
0.094381928 0.76899999 -0.0404494 1.0229669e-38 390 270
0.095730245 0.76899999 -0.0404494 9.0311262e-39 391 270
0.097078554 0.76899999 -0.0404494 8.4783406e-39 392 270
0.099066831 0.77399999 -0.040712398 8.5705362e-39 393 270
0.062022414 0.76899999 -0.041797712 1.6688851e-38 366 271
0.063370727 0.76899999 -0.041797712 1.5029688e-38 367 271
0.064887367 0.77100003 -0.04190642 1.4290634e-38 368 271
0.066239186 0.77100003 -0.04190642 1.3184286e-38 369 271
0.067415662 0.76899999 -0.041797712 1.4194803e-38 370 271
0.068763971 0.76899999 -0.041797712 1.4010772e-38 371 271
0.070112288 0.76899999 -0.041797712 1.4010422e-38 372 271
0.071460605 0.76899999 -0.041797712 1.428665e-38 373 271
0.072808921 0.76899999 -0.041797712 1.4103338e-38 374 271
0.074157231 0.76899999 -0.041797712 1.4379564e-38 375 271
0.07550554 0.76899999 -0.041797712 1.4471394e-38 376 271
0.07665398 0.76700002 -0.041689005 1.4379199e-38 377 271
0.077998787 0.76700002 -0.041689005 1.4195153e-38 378 271
0.079550482 0.76899999 -0.041797712 1.3734177e-38 379 271
0.080898799 0.76899999 -0.041797712 1.3640532e-38 380 271
0.082247108 0.76899999 -0.041797712 1.327211e-38 381 271
0.083595425 0.76899999 -0.041797712 1.327211e-38 382 271
0.084943734 0.76899999 -0.041797712 1.3179913e-38 383 271
0.086067624 0.76700002 -0.041689005 1.3087358e-38 384 271
0.087412432 0.76700002 -0.041689005 1.2811132e-38 385 271
0.088757239 0.76700002 -0.041689005 1.2626017e-38 386 271
0.090336986 0.76899999 -0.041797712 1.2257235e-38 387 271
0.091685303 0.76899999 -0.041797712 1.1152333e-38 388 271
0.093033619 0.76899999 -0.041797712 1.0414767e-38 389 271
0.094136469 0.76700002 -0.041689005 9.3080858e-39 390 271
0.095481269 0.76700002 -0.041689005 8.5705208e-39 391 271
0.096826084 0.76700002 -0.041689005 8.5698327e-39 392 271
0.099066831 0.77399999 -0.042069476 8.5698327e-39 393 271
0.062183715 0.77100003 -0.043258239 1.7056194e-38 366 272
0.063535534 0.77100003 -0.043258239 1.4935336e-38 367 272
0.064719036 0.76899999 -0.043146025 1.4014404e-38 368 272
0.066067353 0.76899999 -0.043146025 1.3092088e-38 369 272
0.067415662 0.76899999 -0.043146025 1.4102239e-38 370 272
0.068763971 0.76899999 -0.043146025 1.4010043e-38 371 272
0.070112288 0.76899999 -0.043146025 1.3917492e-38 372 272
0.071460605 0.76899999 -0.043146025 1.4102242e-38 373 272
0.072808921 0.76899999 -0.043146025 1.4194437e-38 374 272
0.073964365 0.76700002 -0.043033812 1.4286633e-38 375 272
0.075309172 0.76700002 -0.043033812 1.4286986e-38 376 272
0.076853856 0.76899999 -0.043146025 1.4194432e-38 377 272
0.078202173 0.76899999 -0.043146025 1.3918198e-38 378 272
0.079550482 0.76899999 -0.043146025 1.3549415e-38 379 272
0.080898799 0.76899999 -0.043146025 1.3364658e-38 380 272
0.08203321 0.76700002 -0.043033812 1.3364658e-38 381 272
0.083378009 0.76700002 -0.043033812 1.2996595e-38 382 272
0.084722824 0.76700002 -0.043033812 1.2812204e-38 383 272
0.086067624 0.76700002 -0.043033812 1.2811485e-38 384 272
0.087412432 0.76700002 -0.043033812 1.2442342e-38 385 272
0.088757239 0.76700002 -0.043033812 1.1522186e-38 386 272
0.090336986 0.76899999 -0.043146025 1.0876817e-38 387 272
0.091685303 0.76899999 -0.043146025 1.0045628e-38 388 272
0.093033619 0.76899999 -0.043146025 9.5846503e-39 389 272
0.094136469 0.76700002 -0.043033812 8.8460315e-39 390 272
0.095481269 0.76700002 -0.043033812 8.6616402e-39 391 272
0.096826084 0.76700002 -0.043033812 8.5691139e-39 392 272
0.062022414 0.76899999 -0.044494338 1.6780681e-38 366 273
0.063370727 0.76899999 -0.044494338 1.4383234e-38 367 273
0.064719036 0.76899999 -0.044494338 1.3921839e-38 368 273
0.066067353 0.76899999 -0.044494338 1.3091719e-38 369 273
0.067415662 0.76899999 -0.044494338 1.3734533e-38 370 273
0.068763971 0.76899999 -0.044494338 1.3734533e-38 371 273
0.070112288 0.76899999 -0.044494338 1.3366121e-38 372 273
0.071460605 0.76899999 -0.044494338 1.3550514e-38 373 273
0.072619557 0.76700002 -0.04437862 1.3457965e-38 374 273
0.073964365 0.76700002 -0.04437862 1.3550161e-38 375 273
0.075309172 0.76700002 -0.04437862 1.3458681e-38 376 273
0.07665398 0.76700002 -0.04437862 1.3182453e-38 377 273
0.077998787 0.76700002 -0.04437862 1.3274276e-38 378 273
0.079343595 0.76700002 -0.04437862 1.3089526e-38 379 273
0.080688395 0.76700002 -0.04437862 1.3088797e-38 380 273
0.08203321 0.76700002 -0.04437862 1.2904046e-38 381 273
0.083378009 0.76700002 -0.04437862 1.2628538e-38 382 273
0.084722824 0.76700002 -0.04437862 1.2444147e-38 383 273
0.086067624 0.76700002 -0.04437862 1.1983535e-38 384 273
0.087412432 0.76700002 -0.04437862 1.1615112e-38 385 273
0.088757239 0.76700002 -0.04437862 1.0875392e-38 386 273
0.090336986 0.76899999 -0.044494338 1.0414414e-38 387 273
0.091685303 0.76899999 -0.044494338 9.0336499e-39 388 273
0.093033619 0.76899999 -0.044494338 8.4804761e-39 389 273
0.094136469 0.76700002 -0.04437862 8.2939591e-39 390 273
0.095356777 0.76599997 -0.044320758 8.2017635e-39 391 273
0.062022414 0.76899999 -0.045842651 1.6413691e-38 366 274
0.063370727 0.76899999 -0.045842651 1.364782e-38 367 274
0.064719036 0.76899999 -0.045842651 1.3552695e-38 368 274
0.066067353 0.76899999 -0.045842651 1.2999879e-38 369 274
0.067415662 0.76899999 -0.045842651 1.3641614e-38 370 274
0.068763971 0.76899999 -0.045842651 1.3549418e-38 371 274
0.070112288 0.76899999 -0.045842651 1.3182078e-38 372 274
0.071460605 0.76899999 -0.045842651 1.3182078e-38 373 274
0.072619557 0.76700002 -0.045723427 1.3456867e-38 374 274
0.073964365 0.76700002 -0.045723427 1.3456867e-38 375 274
0.075309172 0.76700002 -0.045723427 1.3273557e-38 376 274
0.07665398 0.76700002 -0.045723427 1.3181362e-38 377 274
0.077998787 0.76700002 -0.045723427 1.308881e-38 378 274
0.079343595 0.76700002 -0.045723427 1.2996614e-38 379 274
0.080688395 0.76700002 -0.045723427 1.2811497e-38 380 274
0.08203321 0.76700002 -0.045723427 1.2627106e-38 381 274
0.083378009 0.76700002 -0.045723427 1.2074639e-38 382 274
0.084722824 0.76700002 -0.045723427 1.1798053e-38 383 274
0.086067624 0.76700002 -0.045723427 1.161366e-38 384 274
0.087412432 0.76700002 -0.045723427 1.07839e-38 385 274
0.088757239 0.76700002 -0.045723427 9.2169468e-39 386 274
0.090102047 0.76700002 -0.045723427 9.1247511e-39 387 274
0.091685303 0.76899999 -0.045842651 8.2035361e-39 388 274
0.093033619 0.76899999 -0.045842651 8.1109818e-39 389 274
0.094136469 0.76700002 -0.045723427 7.8336998e-39 390 274
0.095356777 0.76599997 -0.045663811 7.8336998e-39 391 274
0.061861109 0.76700002 -0.047068235 1.5218372e-38 366 275
0.063205913 0.76700002 -0.047068235 1.2452501e-38 367 275
0.06455072 0.76700002 -0.047068235 1.3550883e-38 368 275
0.065895528 0.76700002 -0.047068235 1.3089905e-38 369 275
0.067415662 0.76899999 -0.047190964 1.3089882e-38 370 275
0.068763971 0.76899999 -0.047190964 1.2905851e-38 371 275
0.070112288 0.76899999 -0.047190964 1.2263368e-38 372 275
0.071460605 0.76899999 -0.047190964 1.2263368e-38 373 275
0.072619557 0.76700002 -0.047068235 1.2538157e-38 374 275
0.073964365 0.76700002 -0.047068235 1.2630353e-38 375 275
0.075309172 0.76700002 -0.047068235 1.2354845e-38 376 275
0.07665398 0.76700002 -0.047068235 1.2262648e-38 377 275
0.077998787 0.76700002 -0.047068235 1.2261566e-38 378 275
0.079343595 0.76700002 -0.047068235 1.1892785e-38 379 275
0.080688395 0.76700002 -0.047068235 1.2166847e-38 380 275
0.08203321 0.76700002 -0.047068235 1.1798424e-38 381 275
0.083378009 0.76700002 -0.047068235 1.1520749e-38 382 275
0.084722824 0.76700002 -0.047068235 1.1151606e-38 383 275
0.086067624 0.76700002 -0.047068235 9.955581e-39 384 275
0.087412432 0.76700002 -0.047068235 9.4024072e-39 385 275
0.088757239 0.76700002 -0.047068235 8.3882777e-39 386 275
0.090102047 0.76700002 -0.047068235 8.2038864e-39 387 275
0.091446854 0.76700002 -0.047068235 7.7429265e-39 388 275
0.093033619 0.76899999 -0.047190964 7.5588954e-39 389 275
0.094136469 0.76700002 -0.047068235 7.2826967e-39 390 275
0.061861109 0.76700002 -0.048413042 1.4661584e-38 366 276
0.063205913 0.76700002 -0.048413042 1.2264858e-38 367 276
0.06455072 0.76700002 -0.048413042 1.3366475e-38 368 276
0.065895528 0.76700002 -0.048413042 1.3089529e-38 369 276
0.067415662 0.76899999 -0.048539277 1.281365e-38 370 276
0.068763971 0.76899999 -0.048539277 1.2629257e-38 371 276
0.070112288 0.76899999 -0.048539277 1.2078248e-38 372 276
0.07127475 0.76700002 -0.048413042 1.2170803e-38 373 276
0.072619557 0.76700002 -0.048413042 1.2353759e-38 374 276
0.073964365 0.76700002 -0.048413042 1.2261563e-38 375 276
0.075309172 0.76700002 -0.048413042 1.1985334e-38 376 276
0.07665398 0.76700002 -0.048413042 1.1893138e-38 377 276
0.077998787 0.76700002 -0.048413042 1.170838e-38 378 276
0.079343595 0.76700002 -0.048413042 1.1339237e-38 379 276
0.080688395 0.76700002 -0.048413042 1.1245954e-38 380 276
0.08203321 0.76700002 -0.048413042 1.0876811e-38 381 276
0.083378009 0.76700002 -0.048413042 9.9552153e-39 382 276
0.084722824 0.76700002 -0.048413042 9.5860726e-39 383 276
0.086067624 0.76700002 -0.048413042 8.4815481e-39 384 276
0.087412432 0.76700002 -0.048413042 8.0205714e-39 385 276
0.088757239 0.76700002 -0.048413042 7.466341e-39 386 276
0.090102047 0.76700002 -0.048413042 7.5588954e-39 387 276
0.091446854 0.76700002 -0.048413042 7.649303e-39 388 276
0.092791654 0.76700002 -0.048413042 7.5571073e-39 389 276
0.063205913 0.76700002 -0.049757849 1.2538551e-38 367 277
0.06455072 0.76700002 -0.049757849 1.299841e-38 368 277
0.065895528 0.76700002 -0.049757849 1.2814018e-38 369 277
0.067415662 0.76899999 -0.04988759 1.2354112e-38 370 277
0.068585135 0.76700002 -0.049757849 1.2261916e-38 371 277
0.06992995 0.76700002 -0.049757849 1.1710542e-38 372 277
0.07127475 0.76700002 -0.049757849 1.1710542e-38 373 277
0.072619557 0.76700002 -0.049757849 1.1893857e-38 374 277
0.073964365 0.76700002 -0.049757849 1.1617629e-38 375 277
0.075309172 0.76700002 -0.049757849 1.134032e-38 376 277
0.07665398 0.76700002 -0.049757849 1.0694951e-38 377 277
0.077998787 0.76700002 -0.049757849 1.0142127e-38 378 277
0.079343595 0.76700002 -0.049757849 9.6807892e-39 379 277
0.080688395 0.76700002 -0.049757849 9.9552125e-39 380 277
0.08203321 0.76700002 -0.049757849 9.1254518e-39 381 277
0.083378009 0.76700002 -0.049757849 8.1134733e-39 382 277
0.084722824 0.76700002 -0.049757849 7.8365262e-39 383 277
0.086067624 0.76700002 -0.049757849 7.9276723e-39 384 277
0.087412432 0.76700002 -0.049757849 7.7432796e-39 385 277
0.088757239 0.76700002 -0.049757849 7.6493058e-39 386 277
0.090102047 0.76700002 -0.049757849 7.5571101e-39 387 277
0.091446854 0.76700002 -0.049757849 7.0982998e-39 388 277
0.061861109 0.76700002 -0.051102653 1.309026e-38 366 278
0.063205913 0.76700002 -0.051102653 1.3182456e-38 367 278
0.06455072 0.76700002 -0.051102653 1.3182075e-38 368 278
0.065895528 0.76700002 -0.051102653 1.2813653e-38 369 278
0.067240335 0.76700002 -0.051102653 1.2262267e-38 370 278
0.068585135 0.76700002 -0.051102653 1.198604e-38 371 278
0.06992995 0.76700002 -0.051102653 1.1709823e-38 372 278
0.07127475 0.76700002 -0.051102653 1.1617626e-38 373 278
0.072619557 0.76700002 -0.051102653 1.1615825e-38 374 278
0.073964365 0.76700002 -0.051102653 1.1155206e-38 375 278
0.075309172 0.76700002 -0.051102653 1.106156e-38 376 278
0.07665398 0.76700002 -0.051102653 1.0231798e-38 377 278
0.077998787 0.76700002 -0.051102653 9.1261959e-39 378 278
0.079343595 0.76700002 -0.051102653 8.5730221e-39 379 278
0.080688395 0.76700002 -0.051102653 8.2968248e-39 380 278
0.082247108 0.76899999 -0.051235907 7.5592583e-39 381 278
0.083595425 0.76899999 -0.051235907 7.1912017e-39 382 278
0.084943734 0.76899999 -0.051235907 7.0068104e-39 383 278
0.086292051 0.76899999 -0.051235907 7.3748699e-39 384 278
0.087640367 0.76899999 -0.051235907 7.2823155e-39 385 278
0.088988677 0.76899999 -0.051235907 7.4645586e-39 386 278
0.090336986 0.76899999 -0.051235907 7.5571129e-39 387 278
0.060516298 0.76700002 -0.052447457 1.2906975e-38 365 279
0.061861109 0.76700002 -0.052447457 1.3549787e-38 366 279
0.063205913 0.76700002 -0.052447457 1.3365756e-38 367 279
0.06455072 0.76700002 -0.052447457 1.2631059e-38 368 279
0.065895528 0.76700002 -0.052447457 1.2446308e-38 369 279
0.067240335 0.76700002 -0.052447457 1.2353746e-38 370 279
0.068585135 0.76700002 -0.052447457 1.2261551e-38 371 279
0.06992995 0.76700002 -0.052447457 1.1892418e-38 372 279
0.07127475 0.76700002 -0.052447457 1.0693515e-38 373 279
0.072619557 0.76700002 -0.052447457 9.6789983e-39 374 279
0.073964365 0.76700002 -0.052447457 8.9414333e-39 375 279
0.075309172 0.76700002 -0.052447457 8.6633974e-39 376 279
0.07665398 0.76700002 -0.052447457 8.018028e-39 377 279
0.077998787 0.76700002 -0.052447457 7.8340277e-39 378 279
0.079343595 0.76700002 -0.052447457 7.9262234e-39 379 279
0.080688395 0.76700002 -0.052447457 7.4659963e-39 380 279
0.082247108 0.76899999 -0.052584216 7.3734419e-39 381 279
0.083595425 0.76899999 -0.052584216 7.0064545e-39 382 279
0.084943734 0.76899999 -0.052584216 7.0064545e-39 383 279
0.086292051 0.76899999 -0.052584216 7.0064545e-39 384 279
0.087640367 0.76899999 -0.052584216 7.0064545e-39 385 279
0.088988677 0.76899999 -0.052584216 7.280896e-39 386 279
0.054561976 0.759 -0.053231198 1.5953087e-38 361 280
0.055892758 0.759 -0.053231198 1.5489197e-38 362 280
0.059094343 0.76599997 -0.053722132 1.2997359e-38 364 280
0.060437392 0.76599997 -0.053722132 1.3181751e-38 365 280
0.061780453 0.76599997 -0.053722132 1.3366119e-38 366 280
0.063205913 0.76700002 -0.053792264 1.3089532e-38 367 280
0.06455072 0.76700002 -0.053792264 1.2721453e-38 368 280
0.065895528 0.76700002 -0.053792264 1.2444866e-38 369 280
0.067240335 0.76700002 -0.053792264 1.2259383e-38 370 280
0.068585135 0.76700002 -0.053792264 1.1798406e-38 371 280
0.06992995 0.76700002 -0.053792264 1.0600234e-38 372 280
0.07127475 0.76700002 -0.053792264 9.7704737e-39 373 280
0.072619557 0.76700002 -0.053792264 8.3879274e-39 374 280
0.073964365 0.76700002 -0.053792264 7.742558e-39 375 280
0.075309172 0.76700002 -0.053792264 7.3734447e-39 376 280
0.07665398 0.76700002 -0.053792264 7.1890535e-39 377 280
0.077998787 0.76700002 -0.053792264 7.0053853e-39 378 280
0.079343595 0.76700002 -0.053792264 7.0053853e-39 379 280
0.080688395 0.76700002 -0.053792264 7.0979313e-39 380 280
0.082247108 0.76899999 -0.053932533 7.0979313e-39 381 280
0.083595425 0.76899999 -0.053932533 7.0979313e-39 382 280
0.084943734 0.76899999 -0.053932533 7.0979313e-39 383 280
0.086292051 0.76899999 -0.053932533 7.0061014e-39 384 280
0.087640367 0.76899999 -0.053932533 7.0061014e-39 385 280
0.053090934 0.75700003 -0.054418206 1.585872e-38 360 281
0.054418206 0.75700003 -0.054418206 1.4475786e-38 361 281
0.055892758 0.759 -0.054561976 1.2814429e-38 362 281
0.057449725 0.76200002 -0.054777641 1.2353451e-38 363 281
0.058940053 0.764 -0.054921411 1.3272501e-38 364 281
0.0602796 0.764 -0.054921411 1.3272501e-38 365 281
0.061780453 0.76599997 -0.055065181 1.3089532e-38 366 281
0.063123502 0.76599997 -0.055065181 1.2905142e-38 367 281
0.064466551 0.76599997 -0.055065181 1.207573e-38 368 281
0.065809615 0.76599997 -0.055065181 1.1245969e-38 369 281
0.067152664 0.76599997 -0.055065181 1.0782475e-38 370 281
0.068495713 0.76599997 -0.055065181 9.5839314e-39 371 281
0.06992995 0.76700002 -0.055137072 7.9237024e-39 372 281
0.07127475 0.76700002 -0.055137072 7.37053e-39 373 281
0.072619557 0.76700002 -0.055137072 6.6355112e-39 374 281
0.073964365 0.76700002 -0.055137072 7.0964879e-39 375 281
0.075309172 0.76700002 -0.055137072 7.4631222e-39 376 281
0.07665398 0.76700002 -0.055137072 7.6471548e-39 377 281
0.077998787 0.76700002 -0.055137072 7.0979313e-39 378 281
0.079343595 0.76700002 -0.055137072 7.0979313e-39 379 281
0.080688395 0.76700002 -0.055137072 7.0986501e-39 380 281
0.082247108 0.76899999 -0.055280842 7.0986501e-39 381 281
0.053090934 0.75700003 -0.055745479 1.43825e-38 360 282
0.054418206 0.75700003 -0.055745479 1.3091761e-38 361 282
0.056040037 0.76099998 -0.056040037 1.2443481e-38 362 282
0.057449725 0.76200002 -0.056113683 1.2535678e-38 363 282
0.058785759 0.76200002 -0.056113683 1.3087754e-38 364 282
0.060121801 0.76200002 -0.056113683 1.2995558e-38 365 282
0.061619148 0.764 -0.056260962 1.2903699e-38 366 282
0.062958695 0.764 -0.056260962 1.2166134e-38 367 282
0.064298242 0.764 -0.056260962 1.1244897e-38 368 282
0.06563779 0.764 -0.056260962 1.0046354e-38 369 282
0.067152664 0.76599997 -0.056408234 9.3070068e-39 370 282
0.068495713 0.76599997 -0.056408234 8.3854092e-39 371 282
0.06992995 0.76700002 -0.056481879 8.1978132e-39 372 282
0.07127475 0.76700002 -0.056481879 8.1978132e-39 373 282
0.072619557 0.76700002 -0.056481879 7.0979495e-39 374 282
0.073964365 0.76700002 -0.056481879 7.2823407e-39 375 282
0.075309172 0.76700002 -0.056481879 7.3752398e-39 376 282
0.07665398 0.76700002 -0.056481879 7.5596311e-39 377 282
0.077998787 0.76700002 -0.056481879 7.8344173e-39 378 282
0.051763661 0.75700003 -0.057072755 1.5118636e-38 359 283
0.053090934 0.75700003 -0.057072755 1.2352732e-38 360 283
0.054561976 0.759 -0.05722354 1.1983948e-38 361 283
0.056040037 0.76099998 -0.057374325 1.2719344e-38 362 283
0.057449725 0.76200002 -0.057449725 1.2719344e-38 363 283
0.058785759 0.76200002 -0.057449725 1.2627134e-38 364 283
0.060121801 0.76200002 -0.057449725 1.253458e-38 365 283
0.061457843 0.76200002 -0.057449725 1.2348005e-38 366 283
0.062958695 0.764 -0.057600506 1.1333852e-38 367 283
0.064298242 0.764 -0.057600506 9.9527293e-39 368 283
0.06563779 0.764 -0.057600506 8.7541862e-39 369 283
0.06697733 0.764 -0.057600506 8.0148457e-39 370 283
0.068495713 0.76599997 -0.057751291 8.0148457e-39 371 283
0.069838762 0.76599997 -0.057751291 8.0159457e-39 372 283
0.071460605 0.76899999 -0.057977475 8.5691195e-39 373 283
0.072808921 0.76899999 -0.057977475 7.6543701e-39 374 283
0.051763661 0.75700003 -0.058400027 1.3451186e-38 359 284
0.053090934 0.75700003 -0.058400027 1.1889584e-38 360 284
0.054561976 0.759 -0.058554318 1.2258368e-38 361 284
0.056040037 0.76099998 -0.058708608 1.2717898e-38 362 284
0.057449725 0.76200002 -0.058785759 1.2349116e-38 363 284
0.058785759 0.76200002 -0.058785759 1.2073232e-38 364 284
0.060121801 0.76200002 -0.058785759 1.1059081e-38 365 284
0.061457843 0.76200002 -0.058785759 1.0779603e-38 366 284
0.062958695 0.764 -0.058940053 9.4888645e-39 367 284
0.064298242 0.764 -0.058940053 9.1197569e-39 368 284
0.06563779 0.764 -0.058940053 8.8428113e-39 369 284
0.06697733 0.764 -0.058940053 8.4787329e-39 370 284
0.068495713 0.76599997 -0.059094343 9.0319053e-39 371 284
0.069838762 0.76599997 -0.059094343 8.8500392e-39 372 284
0.049109112 0.75700003 -0.059727304 1.3549515e-38 357 285
0.050436385 0.75700003 -0.059727304 1.2071109e-38 358 285
0.051900417 0.759 -0.059885096 1.0872565e-38 359 285
0.053231198 0.759 -0.059885096 1.1521522e-38 360 285
0.05470575 0.76099998 -0.060042895 1.1705913e-38 361 285
0.056040037 0.76099998 -0.060042895 1.2348392e-38 362 285
0.057449725 0.76200002 -0.060121801 1.2071807e-38 363 285
0.058785759 0.76200002 -0.060121801 1.1517907e-38 364 285
0.060121801 0.76200002 -0.060121801 1.0411918e-38 365 285
0.061457843 0.76200002 -0.060121801 8.7542114e-39 366 285
0.062958695 0.764 -0.0602796 8.3854289e-39 367 285
0.064298242 0.764 -0.0602796 7.190501e-39 368 285
0.06563779 0.764 -0.0602796 8.2964899e-39 369 285
0.06697733 0.764 -0.0602796 9.1273547e-39 370 285
0.068585135 0.76700002 -0.060516298 9.7727242e-39 371 285
0.04778184 0.75700003 -0.061054576 1.3268592e-38 356 286
0.049109112 0.75700003 -0.061054576 1.2070049e-38 357 286
0.050436385 0.75700003 -0.061054576 1.0506297e-38 358 286
0.051900417 0.759 -0.061215881 1.069069e-38 359 286
0.053371463 0.76099998 -0.061377186 1.1885263e-38 360 286
0.05470575 0.76099998 -0.061377186 1.1609036e-38 361 286
0.056040037 0.76099998 -0.061377186 1.0964367e-38 362 286
0.057449725 0.76200002 -0.061457843 1.0226802e-38 363 286
0.058785759 0.76200002 -0.061457843 9.1208261e-39 364 286
0.060121801 0.76200002 -0.061457843 8.5676523e-39 365 286
0.061457843 0.76200002 -0.061457843 7.4674579e-39 366 286
0.062958695 0.764 -0.061619148 9.9567399e-39 367 286
0.064298242 0.764 -0.061619148 9.8678009e-39 368 286
0.06563779 0.764 -0.061619148 1.051317e-38 369 286
0.06697733 0.764 -0.061619148 1.0052551e-38 370 286
0.046577301 0.759 -0.062546656 1.1888905e-38 355 287
0.04778184 0.75700003 -0.062381849 1.2253702e-38 356 287
0.049109112 0.75700003 -0.062381849 1.1976755e-38 357 287
0.050436385 0.75700003 -0.062381849 1.0781439e-38 358 287
0.051900417 0.759 -0.062546656 1.0504854e-38 359 287
0.053371463 0.76099998 -0.06271147 1.0046036e-38 360 287
0.05470575 0.76099998 -0.06271147 9.7698081e-39 361 287
