# .PCD v.7 - Point Cloud Data file format
FIELDS x y z rgb imX imY
SIZE 4 4 4 4 4 4
TYPE F F F F F F
COUNT 1 1 1 1 1 1
WIDTH 841
HEIGHT 1
VIEWPOINT 0 0 0 1 0 0 0
POINTS 841
DATA ascii
0.046708796 0.66600001 -0.088746719 1.8431796e-38 360 316
0.047876518 0.66600001 -0.088746719 1.852435e-38 361 316
0.04904424 0.66600001 -0.088746719 1.8707306e-38 362 316
0.050287351 0.667 -0.088879973 1.8707306e-38 363 316
0.051456824 0.667 -0.088879973 1.8616193e-38 364 316
0.052626297 0.667 -0.088879973 1.8523997e-38 365 316
0.05379577 0.667 -0.088879973 1.8523994e-38 366 316
0.054965243 0.667 -0.088879973 1.8523994e-38 367 316
0.056218877 0.66799998 -0.089013219 1.8523278e-38 368 316
0.057390101 0.66799998 -0.089013219 1.8523278e-38 369 316
0.058561329 0.66799998 -0.089013219 1.8339247e-38 370 316
0.05973256 0.66799998 -0.089013219 1.8339247e-38 371 316
0.060903784 0.66799998 -0.089013219 1.8337815e-38 372 316
0.062075011 0.66799998 -0.089013219 1.8337815e-38 373 316
0.063246235 0.66799998 -0.089013219 1.8152713e-38 374 316
0.064610332 0.67000002 -0.089279734 1.8060518e-38 375 316
0.065785065 0.67000002 -0.089279734 1.7784654e-38 376 316
0.066959806 0.67000002 -0.089279734 1.7508067e-38 377 316
0.068134531 0.67000002 -0.089279734 1.7232189e-38 378 316
0.069309272 0.67000002 -0.089279734 1.6955243e-38 379 316
0.070483997 0.67000002 -0.089279734 1.6770848e-38 380 316
0.071658738 0.67000002 -0.089279734 1.6494621e-38 381 316
0.072942175 0.671 -0.089412987 1.631023e-38 382 316
0.074118659 0.671 -0.089412987 1.6125479e-38 383 316
0.075295143 0.671 -0.089412987 1.5757772e-38 384 316
0.076585598 0.67199999 -0.089546233 1.5481545e-38 385 316
0.077763841 0.67199999 -0.089546233 1.52968e-38 386 316
0.078942075 0.67199999 -0.089546233 1.5204604e-38 387 316
0.080120318 0.67199999 -0.089546233 1.483547e-38 388 316
0.081540518 0.67400002 -0.089812748 1.4651077e-38 389 316
0.082844995 0.67500001 -0.089945994 1.4283015e-38 390 316
0.084028497 0.67500001 -0.089945994 1.4190819e-38 391 316
0.085338242 0.676 -0.090079248 1.4006428e-38 392 316
0.086523488 0.676 -0.090079248 1.37302e-38 393 316
0.08796823 0.67799997 -0.090345755 1.3453251e-38 394 316
0.089156993 0.67799997 -0.090345755 1.3177023e-38 395 316
0.090612262 0.68000001 -0.090612262 1.253239e-38 396 316
0.091804534 0.68000001 -0.090612262 1.207177e-38 397 316
0.093270317 0.68199998 -0.090878762 1.151826e-38 398 316
0.094189063 0.68000001 -0.090612262 1.151826e-38 399 316
0.095381334 0.68000001 -0.090612262 1.1517188e-38 400 316
0.096289553 0.67799997 -0.090345755 1.1517188e-38 401 316
0.097478308 0.67799997 -0.090345755 1.1150929e-38 402 316
0.098230496 0.67500001 -0.089945994 1.133496e-38 403 316
0.099266715 0.67400002 -0.089812748 1.0966197e-38 404 316
-0.061997864 0.68000001 -0.091804534 1.401477e-38 268 317
-0.0608056 0.68000001 -0.091804534 1.4752335e-38 269 317
-0.059788663 0.68199998 -0.092074543 1.5857553e-38 270 317
-0.058592889 0.68199998 -0.092074543 1.6041944e-38 271 317
-0.057228796 0.68000001 -0.091804534 1.6594022e-38 272 317
-0.055954125 0.67900002 -0.091669522 1.6594022e-38 273 317
-0.054763615 0.67900002 -0.091669522 1.705141e-38 274 317
-0.053494196 0.67799997 -0.09153451 1.7327637e-38 275 317
-0.052305438 0.67799997 -0.09153451 1.7420916e-38 276 317
-0.051116679 0.67799997 -0.09153451 1.7420916e-38 277 317
-0.049927916 0.67799997 -0.09153451 1.658935e-38 278 317
-0.048595384 0.676 -0.091264501 1.5483362e-38 279 317
-0.047410134 0.676 -0.091264501 1.1609692e-38 280 317
-0.0461565 0.67500001 -0.091129504 1.0964323e-38 281 317
-0.044972997 0.67500001 -0.091129504 1.2339719e-38 282 317
-0.043789499 0.67500001 -0.091129504 1.2892893e-38 283 317
-0.042606 0.67500001 -0.091129504 1.3083788e-38 284 317
-0.041361131 0.67400002 -0.090994492 1.4927699e-38 285 317
-0.040000543 0.671 -0.090589471 1.5852543e-38 286 317
-0.038824059 0.671 -0.090589471 1.6867054e-38 287 317
-0.037591465 0.67000002 -0.090454467 1.7510976e-38 288 317
-0.036416732 0.67000002 -0.090454467 1.7603172e-38 289 317
-0.035241999 0.67000002 -0.090454467 1.7511332e-38 290 317
-0.033914726 0.667 -0.090049446 1.7603527e-38 291 317
-0.032745253 0.667 -0.090049446 1.7603917e-38 292 317
-0.03157578 0.667 -0.090049446 1.7880503e-38 293 317
0.0349264 0.66399997 -0.089644417 1.815525e-38 350 317
0.036036257 0.66299999 -0.089509413 1.815525e-38 351 317
0.037198719 0.66299999 -0.089509413 1.8155237e-38 352 317
0.038419038 0.66399997 -0.089644417 1.8155237e-38 353 317
0.039583251 0.66399997 -0.089644417 1.8431098e-38 354 317
0.040747464 0.66399997 -0.089644417 1.8523294e-38 355 317
0.042037919 0.66600001 -0.089914441 1.8340332e-38 356 317
0.043205637 0.66600001 -0.089914441 1.8340332e-38 357 317
0.04437336 0.66600001 -0.089914441 1.8340682e-38 358 317
0.045541082 0.66600001 -0.089914441 1.8432878e-38 359 317
0.046708796 0.66600001 -0.089914441 1.8340682e-38 360 317
0.047876518 0.66600001 -0.089914441 1.8432878e-38 361 317
0.04904424 0.66600001 -0.089914441 1.8799505e-38 362 317
0.050211959 0.66600001 -0.089914441 1.8799505e-38 363 317
0.051379681 0.66600001 -0.089914441 1.8523997e-38 364 317
0.052547399 0.66600001 -0.089914441 1.8523997e-38 365 317
0.053715117 0.66600001 -0.089914441 1.8523641e-38 366 317
0.054965243 0.667 -0.090049446 1.8431445e-38 367 317
0.056134716 0.667 -0.090049446 1.8430727e-38 368 317
0.057304189 0.667 -0.090049446 1.8338531e-38 369 317
0.058473662 0.667 -0.090049446 1.8063023e-38 370 317
0.059643134 0.667 -0.090049446 1.7970826e-38 371 317
0.060903784 0.66799998 -0.090184443 1.8153066e-38 372 317
0.062075011 0.66799998 -0.090184443 1.8060871e-38 373 317
0.063246235 0.66799998 -0.090184443 1.7876126e-38 374 317
0.064417459 0.66799998 -0.090184443 1.7692095e-38 375 317
0.065588683 0.66799998 -0.090184443 1.7231836e-38 376 317
0.066759922 0.66799998 -0.090184443 1.6862695e-38 377 317
0.067931145 0.66799998 -0.090184443 1.6587536e-38 378 317
0.068998925 0.667 -0.090049446 1.6219113e-38 379 317
0.070168398 0.667 -0.090049446 1.6310227e-38 380 317
0.071444817 0.66799998 -0.090184443 1.6218031e-38 381 317
0.072833464 0.67000002 -0.090454467 1.5849605e-38 382 317
0.074008204 0.67000002 -0.090454467 1.5664855e-38 383 317
0.075295143 0.671 -0.090589471 1.5389347e-38 384 317
0.076471634 0.671 -0.090589471 1.5204954e-38 385 317
0.077648118 0.671 -0.090589471 1.492874e-38 386 317
0.078824602 0.671 -0.090589471 1.474399e-38 387 317
0.080120318 0.67199999 -0.090724476 1.4467409e-38 388 317
0.08129856 0.67199999 -0.090724476 1.4375213e-38 389 317
0.082476802 0.67199999 -0.090724476 1.409827e-38 390 317
0.084028497 0.67500001 -0.091129504 1.4006075e-38 391 317
0.085338242 0.676 -0.091264501 1.3362138e-38 392 317
0.086523488 0.676 -0.091264501 1.2992995e-38 393 317
0.08796823 0.67799997 -0.09153451 1.2899715e-38 394 317
0.089156993 0.67799997 -0.09153451 1.2254345e-38 395 317
0.090612262 0.68000001 -0.091804534 1.1793032e-38 396 317
0.091804534 0.68000001 -0.091804534 1.1608641e-38 397 317
0.093270317 0.68199998 -0.092074543 1.1515392e-38 398 317
0.09446609 0.68199998 -0.092074543 1.1607587e-38 399 317
0.095381334 0.68000001 -0.091804534 1.1149127e-38 400 317
0.096289553 0.67799997 -0.09153451 1.1425714e-38 401 317
0.097478308 0.67799997 -0.09153451 1.1150576e-38 402 317
-0.061997864 0.68000001 -0.092996798 1.4290981e-38 268 318
-0.0608056 0.68000001 -0.092996798 1.5028546e-38 269 318
-0.059525665 0.67900002 -0.092860043 1.6133414e-38 270 318
-0.058335152 0.67900002 -0.092860043 1.6410001e-38 271 318
-0.057144642 0.67900002 -0.092860043 1.6868811e-38 272 318
-0.055871718 0.67799997 -0.092723273 1.6868811e-38 273 318
-0.054521654 0.676 -0.092449754 1.7234723e-38 274 318
-0.053257499 0.67500001 -0.092312999 1.7419114e-38 275 318
-0.052074 0.67500001 -0.092312999 1.7420184e-38 276 318
-0.050890498 0.67500001 -0.092312999 1.7327987e-38 277 318
-0.049706999 0.67500001 -0.092312999 1.6865196e-38 278 318
-0.048523501 0.67500001 -0.092312999 1.5482261e-38 279 318
-0.047339998 0.67500001 -0.092312999 1.2990083e-38 280 318
-0.046088122 0.67400002 -0.092176244 1.1515313e-38 281 318
-0.044906374 0.67400002 -0.092176244 1.1692902e-38 282 318
-0.043724626 0.67400002 -0.092176244 1.1324479e-38 283 318
-0.042606 0.67500001 -0.092312999 1.0407243e-38 284 318
-0.041238401 0.67199999 -0.091902718 1.1790178e-38 285 318
-0.040000543 0.671 -0.091765963 1.2993408e-38 286 318
-0.038824059 0.671 -0.091765963 1.52983e-38 287 318
-0.037591465 0.67000002 -0.0916292 1.64972e-38 288 318
-0.036416732 0.67000002 -0.0916292 1.7234765e-38 289 318
-0.035241999 0.67000002 -0.0916292 1.7786837e-38 290 318
-0.033914726 0.667 -0.091218919 1.7879033e-38 291 318
-0.032745253 0.667 -0.091218919 1.7603878e-38 292 318
-0.03157578 0.667 -0.091218919 1.7326932e-38 293 318
-0.030543067 0.67000002 -0.0916292 1.7049998e-38 294 318
0.031339079 0.662 -0.090535119 1.7970487e-38 347 318
0.032548878 0.66299999 -0.090671875 1.7970472e-38 348 318
0.033711337 0.66299999 -0.090671875 1.7878274e-38 349 318
0.034873798 0.66299999 -0.090671875 1.8063392e-38 350 318
0.035981905 0.662 -0.090535119 1.8247783e-38 351 318
0.037142612 0.662 -0.090535119 1.8247427e-38 352 318
0.038361177 0.66299999 -0.090671875 1.8247427e-38 353 318
0.039523639 0.66299999 -0.090671875 1.8431448e-38 354 318
0.040686097 0.66299999 -0.090671875 1.8523644e-38 355 318
0.041848559 0.66299999 -0.090671875 1.8340329e-38 356 318
0.043011017 0.66299999 -0.090671875 1.8340329e-38 357 318
0.044173479 0.66299999 -0.090671875 1.8616193e-38 358 318
0.045404319 0.66399997 -0.090808637 1.8616193e-38 359 318
0.046568532 0.66399997 -0.090808637 1.8432524e-38 360 318
0.047660857 0.66299999 -0.090671875 1.8432524e-38 361 318
0.048823316 0.66299999 -0.090671875 1.8523641e-38 362 318
0.05006117 0.66399997 -0.090808637 1.8523641e-38 363 318
0.051225383 0.66399997 -0.090808637 1.8707312e-38 364 318
0.052389596 0.66399997 -0.090808637 1.8522922e-38 365 318
0.053553808 0.66399997 -0.090808637 1.8339253e-38 366 318
0.054718021 0.66399997 -0.090808637 1.8339253e-38 367 318
0.055882234 0.66399997 -0.090808637 1.8062667e-38 368 318
0.057218276 0.66600001 -0.091082163 1.7970472e-38 369 318
0.058385998 0.66600001 -0.091082163 1.7694962e-38 370 318
0.059553716 0.66600001 -0.091082163 1.7602767e-38 371 318
0.060721438 0.66600001 -0.091082163 1.769353e-38 372 318
0.061889157 0.66600001 -0.091082163 1.7417303e-38 373 318
0.063151561 0.667 -0.091218919 1.7232555e-38 374 318
0.064321034 0.667 -0.091218919 1.7048163e-38 375 318
0.065490507 0.667 -0.091218919 1.6862695e-38 376 318
0.06665998 0.667 -0.091218919 1.6494271e-38 377 318
0.067829452 0.667 -0.091218919 1.621876e-38 378 318
0.068998925 0.667 -0.091218919 1.5941813e-38 379 318
0.070168398 0.667 -0.091218919 1.5849615e-38 380 318
0.071337871 0.667 -0.091218919 1.5573388e-38 381 318
0.072616048 0.66799998 -0.091355674 1.5388994e-38 382 318
0.073787279 0.66799998 -0.091355674 1.5296797e-38 383 318
0.07518293 0.67000002 -0.0916292 1.5020933e-38 384 318
0.076471634 0.671 -0.091765963 1.4836542e-38 385 318
0.077648118 0.671 -0.091765963 1.4468482e-38 386 318
0.078824602 0.671 -0.091765963 1.4376285e-38 387 318
0.080120318 0.67199999 -0.091902718 1.4099705e-38 388 318
0.08129856 0.67199999 -0.091902718 1.400751e-38 389 318
0.082476802 0.67199999 -0.091902718 1.3638014e-38 390 318
0.083904013 0.67400002 -0.092176244 1.3361787e-38 391 318
0.085338242 0.676 -0.092449754 1.290188e-38 392 318
0.086523488 0.676 -0.092449754 1.2072118e-38 393 318
0.08796823 0.67799997 -0.092723273 1.2252913e-38 394 318
0.089288503 0.67900002 -0.092860043 1.1331316e-38 395 318
0.090612262 0.68000001 -0.092996798 1.0594506e-38 396 318
0.091804534 0.68000001 -0.092996798 1.0963287e-38 397 318
0.093270317 0.68199998 -0.093270317 1.0872187e-38 398 318
0.09446609 0.68199998 -0.093270317 1.0964383e-38 399 318
0.095661856 0.68199998 -0.093270317 1.1149846e-38 400 318
0.09685763 0.68199998 -0.093270317 1.1149846e-38 401 318
-0.063097201 0.67900002 -0.094050556 1.4015162e-38 267 319
-0.061906695 0.67900002 -0.094050556 1.4382814e-38 268 319
-0.060716182 0.67900002 -0.094050556 1.5120379e-38 269 319
-0.059437994 0.67799997 -0.093912028 1.6409278e-38 270 319
-0.058249239 0.67799997 -0.093912028 1.6593669e-38 271 319
-0.056892153 0.676 -0.093635008 1.7144678e-38 272 319
-0.055706903 0.676 -0.093635008 1.7052124e-38 273 319
-0.054441001 0.67500001 -0.093496501 1.7417666e-38 274 319
-0.053178601 0.67400002 -0.093357988 1.7602058e-38 275 319
-0.051996857 0.67400002 -0.093357988 1.797084e-38 276 319
-0.050815105 0.67400002 -0.093357988 1.8063036e-38 277 319
-0.049633358 0.67400002 -0.093357988 1.8245629e-38 278 319
-0.048451614 0.67400002 -0.093357988 1.760026e-38 279 319
-0.047269866 0.67400002 -0.093357988 1.7043476e-38 280 319
-0.045951359 0.67199999 -0.093080953 1.5568345e-38 281 319
-0.044773117 0.67199999 -0.093080953 1.3999588e-38 282 319
-0.043594878 0.67199999 -0.093080953 1.224823e-38 283 319
-0.042542879 0.67400002 -0.093357988 1.1234461e-38 284 319
-0.041177034 0.671 -0.092942439 1.1050429e-38 285 319
-0.039940935 0.67000002 -0.092803933 1.0870372e-38 286 319
-0.038766202 0.67000002 -0.092803933 1.179233e-38 287 319
-0.037591465 0.67000002 -0.092803933 1.3271775e-38 288 319
-0.036416732 0.67000002 -0.092803933 1.4654709e-38 289 319
-0.035241999 0.67000002 -0.092803933 1.6129471e-38 290 319
-0.033914726 0.667 -0.092388391 1.7143623e-38 291 319
-0.032696161 0.66600001 -0.092249878 1.8155247e-38 292 319
-0.031528439 0.66600001 -0.092249878 1.787902e-38 293 319
-0.030406304 0.667 -0.092388391 1.7787177e-38 294 319
-0.029192999 0.66600001 -0.092249878 1.7879373e-38 295 319
-0.028025279 0.66600001 -0.092249878 1.7787919e-38 296 319
0.030178372 0.662 -0.091695823 1.833925e-38 346 319
0.031339079 0.662 -0.091695823 1.8155219e-38 347 319
0.032499783 0.662 -0.091695823 1.806302e-38 348 319
0.033660494 0.662 -0.091695823 1.8155216e-38 349 319
0.034821201 0.662 -0.091695823 1.8155582e-38 350 319
0.035981905 0.662 -0.091695823 1.8155582e-38 351 319
0.037142612 0.662 -0.091695823 1.8340332e-38 352 319
0.038303319 0.662 -0.091695823 1.8340332e-38 353 319
0.039464023 0.662 -0.091695823 1.8523641e-38 354 319
0.04062473 0.662 -0.091695823 1.8523641e-38 355 319
0.041785441 0.662 -0.091695823 1.8616195e-38 356 319
0.042946145 0.662 -0.091695823 1.8616195e-38 357 319
0.044106852 0.662 -0.091695823 1.8523641e-38 358 319
0.04526756 0.662 -0.091695823 1.8616195e-38 359 319
0.046428263 0.662 -0.091695823 1.8616193e-38 360 319
0.047588971 0.662 -0.091695823 1.8523997e-38 361 319
0.048749682 0.662 -0.091695823 1.8616193e-38 362 319
0.049910385 0.662 -0.091695823 1.8523997e-38 363 319
0.051071092 0.662 -0.091695823 1.8522925e-38 364 319
0.0522318 0.662 -0.091695823 1.8430729e-38 365 319
0.053392503 0.662 -0.091695823 1.8246338e-38 366 319
0.054635618 0.66299999 -0.091834337 1.8246338e-38 367 319
0.055798076 0.66299999 -0.091834337 1.7878272e-38 368 319
0.056960538 0.66299999 -0.091834337 1.769388e-38 369 319
0.058122993 0.66299999 -0.091834337 1.7785357e-38 370 319
0.059285458 0.66299999 -0.091834337 1.7600966e-38 371 319
0.060447913 0.66299999 -0.091834337 1.7600243e-38 372 319
0.061703302 0.66399997 -0.091972843 1.723146e-38 373 319
0.062867515 0.66399997 -0.091972843 1.6955227e-38 374 319
0.064031735 0.66399997 -0.091972843 1.6770835e-38 375 319
0.06519594 0.66399997 -0.091972843 1.6310224e-38 376 319
0.066560037 0.66600001 -0.092249878 1.6218029e-38 377 319
0.067727759 0.66600001 -0.092249878 1.6216958e-38 378 319
0.068998925 0.667 -0.092388391 1.6032567e-38 379 319
0.070168398 0.667 -0.092388391 1.566486e-38 380 319
0.071337871 0.667 -0.092388391 1.5480109e-38 381 319
0.072507344 0.667 -0.092388391 1.5479746e-38 382 319
0.073787279 0.66799998 -0.092526905 1.5294996e-38 383 319
0.07518293 0.67000002 -0.092803933 1.483582e-38 384 319
0.076357663 0.67000002 -0.092803933 1.4651427e-38 385 319
0.077648118 0.671 -0.092942439 1.437592e-38 386 319
0.078824602 0.671 -0.092942439 1.419117e-38 387 319
0.080001086 0.671 -0.092942439 1.4006425e-38 388 319
0.08129856 0.67199999 -0.093080953 1.3822393e-38 389 319
0.082476802 0.67199999 -0.093080953 1.345398e-38 390 319
0.083904013 0.67400002 -0.093357988 1.3177393e-38 391 319
0.085212 0.67500001 -0.093496501 1.2349428e-38 392 319
0.086523488 0.676 -0.093635008 1.0228928e-38 393 319
0.087708741 0.676 -0.093635008 9.5824881e-39 394 319
0.089288503 0.67900002 -0.094050556 9.6746851e-39 395 319
0.090612262 0.68000001 -0.094189063 1.0501597e-38 396 319
0.091804534 0.68000001 -0.094189063 1.0962215e-38 397 319
0.093270317 0.68199998 -0.09446609 1.050556e-38 398 319
0.09446609 0.68199998 -0.09446609 1.0873982e-38 399 319
0.095661856 0.68199998 -0.09446609 1.1149493e-38 400 319
0.09685763 0.68199998 -0.09446609 1.1149493e-38 401 319
-0.063004278 0.67799997 -0.09510079 1.3740373e-38 267 320
-0.061815511 0.67799997 -0.09510079 1.4107669e-38 268 320
-0.060626756 0.67799997 -0.09510079 1.4845234e-38 269 320
-0.059262663 0.676 -0.094820268 1.6408922e-38 270 320
-0.058077414 0.676 -0.094820268 1.6593672e-38 271 320
-0.056808002 0.67500001 -0.094679996 1.7143953e-38 272 320
-0.0556245 0.67500001 -0.094679996 1.7143953e-38 273 320
-0.054360349 0.67400002 -0.094539732 1.7692814e-38 274 320
-0.053020798 0.67199999 -0.094259195 1.8061236e-38 275 320
-0.051842555 0.67199999 -0.094259195 1.7787177e-38 276 320
-0.050664317 0.67199999 -0.094259195 1.81556e-38 277 320
-0.049486078 0.67199999 -0.094259195 1.8615506e-38 278 320
-0.04830784 0.67199999 -0.094259195 1.8431475e-38 279 320
-0.047129598 0.67199999 -0.094259195 1.8612622e-38 280 320
-0.045882981 0.671 -0.09411893 1.759811e-38 281 320
-0.044706494 0.671 -0.09411893 1.64903e-38 282 320
-0.043530006 0.671 -0.09411893 1.4922972e-38 283 320
-0.042353518 0.671 -0.09411893 1.3355657e-38 284 320
-0.041177034 0.671 -0.09411893 1.2710287e-38 285 320
-0.039940935 0.67000002 -0.093978666 1.2156777e-38 286 320
-0.038650475 0.66799998 -0.093698129 1.2341168e-38 287 320
-0.037479252 0.66799998 -0.093698129 1.2437676e-38 288 320
-0.036308024 0.66799998 -0.093698129 1.3912806e-38 289 320
-0.035136797 0.66799998 -0.093698129 1.4469948e-38 290 320
-0.03386388 0.66600001 -0.093417592 1.5852884e-38 291 320
-0.032696161 0.66600001 -0.093417592 1.7050351e-38 292 320
-0.031528439 0.66600001 -0.093417592 1.7972307e-38 293 320
-0.030360719 0.66600001 -0.093417592 1.7696427e-38 294 320
-0.029192999 0.66600001 -0.093417592 1.7696427e-38 295 320
-0.028025279 0.66600001 -0.093417592 1.8155953e-38 296 320
-0.026857559 0.66600001 -0.093417592 1.7971922e-38 297 320
-0.025728412 0.667 -0.093557864 1.8155219e-38 298 320
-0.024558939 0.667 -0.093557864 1.7970826e-38 299 320
-0.023424532 0.66799998 -0.093698129 1.7694606e-38 300 320
-0.022253305 0.66799998 -0.093698129 1.7418019e-38 301 320
-0.021050518 0.667 -0.093557864 1.751563e-38 302 320
-0.019881045 0.667 -0.093557864 1.9820519e-38 303 320
-0.018627413 0.66399997 -0.093137063 2.0734233e-38 304 320
-0.017410601 0.662 -0.092856526 2.0457646e-38 305 320
-0.016176252 0.65899998 -0.092435725 2.0831483e-38 306 320
-0.015020805 0.65899998 -0.092435725 2.0555255e-38 307 320
-0.013865359 0.65899998 -0.092435725 1.9262731e-38 308 320
0.030178372 0.662 -0.092856526 1.8155216e-38 346 320
0.031339079 0.662 -0.092856526 1.8155216e-38 347 320
0.032450691 0.66100001 -0.092716269 1.8338881e-38 348 320
0.033609647 0.66100001 -0.092716269 1.8431077e-38 349 320
0.034821201 0.662 -0.092856526 1.8431799e-38 350 320
0.035981905 0.662 -0.092856526 1.8523994e-38 351 320
0.037142612 0.662 -0.092856526 1.8523997e-38 352 320
0.038303319 0.662 -0.092856526 1.8523997e-38 353 320
0.039464023 0.662 -0.092856526 1.8523997e-38 354 320
0.04062473 0.662 -0.092856526 1.8523997e-38 355 320
0.041785441 0.662 -0.092856526 1.8340332e-38 356 320
0.042946145 0.662 -0.092856526 1.8340332e-38 357 320
0.044106852 0.662 -0.092856526 1.8523291e-38 358 320
0.04526756 0.662 -0.092856526 1.8523291e-38 359 320
0.046428263 0.662 -0.092856526 1.8339976e-38 360 320
0.047517084 0.66100001 -0.092716269 1.8339976e-38 361 320
0.04867604 0.66100001 -0.092716269 1.8339976e-38 362 320
0.049834993 0.66100001 -0.092716269 1.824778e-38 363 320
0.050993945 0.66100001 -0.092716269 1.8338181e-38 364 320
0.052152898 0.66100001 -0.092716269 1.8153789e-38 365 320
0.053311851 0.66100001 -0.092716269 1.8153433e-38 366 320
0.054470807 0.66100001 -0.092716269 1.7877205e-38 367 320
0.05562976 0.66100001 -0.092716269 1.7417666e-38 368 320
0.056874625 0.662 -0.092856526 1.7325471e-38 369 320
0.058035329 0.662 -0.092856526 1.7049963e-38 370 320
0.05919604 0.662 -0.092856526 1.6957407e-38 371 320
0.060356744 0.662 -0.092856526 1.6864483e-38 372 320
0.061610378 0.66299999 -0.092996798 1.6587536e-38 373 320
0.062772833 0.66299999 -0.092996798 1.6495337e-38 374 320
0.063935295 0.66299999 -0.092996798 1.621911e-38 375 320
0.065097757 0.66299999 -0.092996798 1.6034366e-38 376 320
0.066360161 0.66399997 -0.093137063 1.5757419e-38 377 320
0.067727759 0.66600001 -0.093417592 1.5574107e-38 378 320
0.068895474 0.66600001 -0.093417592 1.529752e-38 379 320
0.070063196 0.66600001 -0.093417592 1.52968e-38 380 320
0.071337871 0.667 -0.093557864 1.4928019e-38 381 320
0.072507344 0.667 -0.093557864 1.4743993e-38 382 320
0.073676817 0.667 -0.093557864 1.4651797e-38 383 320
0.074958503 0.66799998 -0.093698129 1.4283734e-38 384 320
0.076129727 0.66799998 -0.093698129 1.4099703e-38 385 320
0.077532403 0.67000002 -0.093978666 1.3823835e-38 386 320
0.078824602 0.671 -0.09411893 1.3639803e-38 387 320
0.080001086 0.671 -0.09411893 1.3455055e-38 388 320
0.081177577 0.671 -0.09411893 1.3178109e-38 389 320
0.082354069 0.671 -0.09411893 1.3269236e-38 390 320
0.083655037 0.67199999 -0.094259195 1.2623866e-38 391 320
0.085212 0.67500001 -0.094679996 1.1704076e-38 392 320
0.086523488 0.676 -0.094820268 9.4917414e-39 393 320
0.087708741 0.676 -0.094820268 9.1190226e-39 394 320
0.089288503 0.67900002 -0.095241062 1.0041338e-38 395 320
0.090612262 0.68000001 -0.095381334 1.0135704e-38 396 320
0.091804534 0.68000001 -0.095381334 1.0504126e-38 397 320
0.093270317 0.68199998 -0.095661856 1.0782142e-38 398 320
0.09446609 0.68199998 -0.095661856 1.0966534e-38 399 320
0.095661856 0.68199998 -0.095661856 1.0874351e-38 400 320
-0.06419304 0.67799997 -0.096289553 1.5031109e-38 266 321
-0.063004278 0.67799997 -0.096289553 1.3832566e-38 267 321
-0.061633173 0.676 -0.096005514 1.3922905e-38 268 321
-0.06044792 0.676 -0.096005514 1.4753026e-38 269 321
-0.059262663 0.676 -0.096005514 1.6409278e-38 270 321
-0.057991501 0.67500001 -0.095863499 1.6685865e-38 271 321
-0.056723841 0.67400002 -0.095721483 1.7512383e-38 272 321
-0.055377278 0.67199999 -0.095437437 1.7420187e-38 273 321
-0.054118387 0.671 -0.095295422 1.7786809e-38 274 321
-0.052941896 0.671 -0.095295422 1.797084e-38 275 321
-0.051765412 0.671 -0.095295422 1.7971922e-38 276 321
-0.050513536 0.67000002 -0.095153399 1.8155953e-38 277 321
-0.04919152 0.66799998 -0.094869353 1.7972641e-38 278 321
-0.048020288 0.66799998 -0.094869353 1.7972641e-38 279 321
-0.046989333 0.67000002 -0.095153399 1.8707336e-38 280 321
-0.0458146 0.67000002 -0.095153399 1.8522943e-38 281 321
-0.044506609 0.66799998 -0.094869353 1.8428225e-38 282 321
-0.04327051 0.667 -0.094727337 1.7598463e-38 283 321
-0.042101037 0.667 -0.094727337 1.6675782e-38 284 321
-0.040931564 0.667 -0.094727337 1.5569794e-38 285 321
-0.039762091 0.667 -0.094727337 1.4738957e-38 286 321
-0.038592618 0.667 -0.094727337 1.3909196e-38 287 321
-0.037423145 0.667 -0.094727337 1.3725531e-38 288 321
-0.036253672 0.667 -0.094727337 1.3725531e-38 289 321
-0.035084199 0.667 -0.094727337 1.3177393e-38 290 321
-0.03386388 0.66600001 -0.094585314 1.4283739e-38 291 321
-0.032696161 0.66600001 -0.094585314 1.575994e-38 292 321
-0.031528439 0.66600001 -0.094585314 1.6774451e-38 293 321
-0.030269546 0.66399997 -0.094301268 1.7970837e-38 294 321
-0.02910533 0.66399997 -0.094301268 1.8155587e-38 295 321
-0.027941117 0.66399997 -0.094301268 1.8247783e-38 296 321
-0.026776904 0.66399997 -0.094301268 1.8339979e-38 297 321
-0.025612691 0.66399997 -0.094301268 1.8340332e-38 298 321
-0.024448479 0.66399997 -0.094301268 1.8340332e-38 299 321
-0.023284266 0.66399997 -0.094301268 1.8523644e-38 300 321
-0.022219993 0.667 -0.094727337 1.8523644e-38 301 321
-0.021050518 0.667 -0.094727337 1.8155231e-38 302 321
-0.019851239 0.66600001 -0.094585314 1.8063036e-38 303 321
-0.018599359 0.66299999 -0.094159253 1.7693177e-38 304 321
-0.017331699 0.65899998 -0.093591176 1.7877568e-38 305 321
-0.016176252 0.65899998 -0.093591176 1.7971934e-38 306 321
-0.015020805 0.65899998 -0.093591176 1.7603512e-38 307 321
-0.013865359 0.65899998 -0.093591176 1.7601727e-38 308 321
-0.012709912 0.65899998 -0.093591176 1.7693922e-38 309 321
-0.011554466 0.65899998 -0.093591176 1.7511332e-38 310 321
0.0057596997 0.65700001 -0.093307137 1.7880131e-38 325 321
0.0069116396 0.65700001 -0.093307137 1.8247472e-38 326 321
0.0080635799 0.65700001 -0.093307137 1.8247472e-38 327 321
0.0092435731 0.65899998 -0.093591176 1.7971604e-38 328 321
0.01038324 0.65799999 -0.09344916 1.7787212e-38 329 321
0.011536933 0.65799999 -0.09344916 1.7879038e-38 330 321
0.012690626 0.65799999 -0.09344916 1.7879038e-38 331 321
0.01384432 0.65799999 -0.09344916 1.8061979e-38 332 321
0.015020805 0.65899998 -0.093591176 1.8246729e-38 333 321
0.016176252 0.65899998 -0.093591176 1.7880092e-38 334 321
0.0172791 0.65700001 -0.093307137 1.7972288e-38 335 321
0.018374931 0.65499997 -0.093023092 1.8248151e-38 336 321
0.019523365 0.65499997 -0.093023092 1.8340348e-38 337 321
0.020608678 0.653 -0.092739061 1.8522938e-38 338 321
0.021753605 0.653 -0.092739061 1.8522938e-38 339 321
0.022968665 0.65499997 -0.093023092 1.8523647e-38 340 321
0.024117097 0.65499997 -0.093023092 1.8431092e-38 341 321
0.025226958 0.65399998 -0.092881076 1.8431445e-38 342 321
0.02637364 0.65399998 -0.092881076 1.8431445e-38 343 321
0.027520318 0.65399998 -0.092881076 1.8248484e-38 344 321
0.028973831 0.66100001 -0.093875214 1.8248484e-38 345 321
0.030132787 0.66100001 -0.093875214 1.8248834e-38 346 321
0.031291738 0.66100001 -0.093875214 1.8156638e-38 347 321
0.032352503 0.65899998 -0.093591176 1.8339953e-38 348 321
0.033507951 0.65899998 -0.093591176 1.8432149e-38 349 321
0.0347686 0.66100001 -0.093875214 1.8523994e-38 350 321
0.035927553 0.66100001 -0.093875214 1.8523994e-38 351 321
0.037086505 0.66100001 -0.093875214 1.8432524e-38 352 321
0.038245458 0.66100001 -0.093875214 1.8432524e-38 353 321
0.039404415 0.66100001 -0.093875214 1.8523641e-38 354 321
0.040563367 0.66100001 -0.093875214 1.8523641e-38 355 321
0.04172232 0.66100001 -0.093875214 1.8523644e-38 356 321
0.042881273 0.66100001 -0.093875214 1.8431448e-38 357 321
0.044106852 0.662 -0.094017237 1.8522572e-38 358 321
0.045199182 0.66100001 -0.093875214 1.8430376e-38 359 321
0.046358135 0.66100001 -0.093875214 1.8338178e-38 360 321
0.047517084 0.66100001 -0.093875214 1.8338178e-38 361 321
0.04867604 0.66100001 -0.093875214 1.8245982e-38 362 321
0.049834993 0.66100001 -0.093875214 1.8245982e-38 363 321
0.050993945 0.66100001 -0.093875214 1.8153066e-38 364 321
0.051995095 0.65899998 -0.093591176 1.8060871e-38 365 321
0.053150542 0.65899998 -0.093591176 1.7875758e-38 366 321
0.054470807 0.66100001 -0.093875214 1.7783562e-38 367 321
0.05562976 0.66100001 -0.093875214 1.7415852e-38 368 321
0.056788713 0.66100001 -0.093875214 1.7323656e-38 369 321
0.058035329 0.662 -0.094017237 1.6772637e-38 370 321
0.05919604 0.662 -0.094017237 1.6680082e-38 371 321
0.060356744 0.662 -0.094017237 1.6219108e-38 372 321
0.061517447 0.662 -0.094017237 1.6126912e-38 373 321
0.062772833 0.66299999 -0.094159253 1.6217664e-38 374 321
0.063935295 0.66299999 -0.094159253 1.6032914e-38 375 321
0.065097757 0.66299999 -0.094159253 1.5664855e-38 376 321
0.066360161 0.66399997 -0.094301268 1.5664855e-38 377 321
0.067524366 0.66399997 -0.094301268 1.5480465e-38 378 321
0.068895474 0.66600001 -0.094585314 1.520388e-38 379 321
0.070063196 0.66600001 -0.094585314 1.4836539e-38 380 321
0.071230918 0.66600001 -0.094585314 1.4652148e-38 381 321
0.072507344 0.667 -0.094727337 1.4559235e-38 382 321
0.073676817 0.667 -0.094727337 1.446668e-38 383 321
0.07484629 0.667 -0.094727337 1.4098977e-38 384 321
0.076129727 0.66799998 -0.094869353 1.3822749e-38 385 321
0.077532403 0.67000002 -0.095153399 1.3730194e-38 386 321
0.078707129 0.67000002 -0.095153399 1.3453607e-38 387 321
0.079881869 0.67000002 -0.095153399 1.3361056e-38 388 321
0.081056595 0.67000002 -0.095153399 1.2715686e-38 389 321
0.082354069 0.671 -0.095295422 1.2252563e-38 390 321
0.083655037 0.67199999 -0.095437437 1.1146215e-38 391 321
0.085212 0.67500001 -0.095863499 1.0133158e-38 392 321
0.086395502 0.67500001 -0.095863499 1.0040962e-38 393 321
0.087708741 0.676 -0.096005514 1.0133886e-38 394 321
0.089288503 0.67900002 -0.096431576 1.050231e-38 395 321
0.090612262 0.68000001 -0.096573599 1.0412634e-38 396 321
0.092074543 0.68199998 -0.09685763 1.0781777e-38 397 321
0.093270317 0.68199998 -0.09685763 1.0875054e-38 398 321
0.094604604 0.68300003 -0.09699966 1.0875054e-38 399 321
-0.065188929 0.676 -0.097190768 1.733387e-38 265 322
-0.064003684 0.676 -0.097190768 1.5306973e-38 266 322
-0.062818423 0.676 -0.097190768 1.4016234e-38 267 322
-0.061542001 0.67500001 -0.097047001 1.3830344e-38 268 322
-0.060358498 0.67500001 -0.097047001 1.475194e-38 269 322
-0.059175 0.67500001 -0.097047001 1.6132692e-38 270 322
-0.057733759 0.67199999 -0.09661568 1.6685865e-38 271 322
-0.056471359 0.671 -0.096471906 1.7604578e-38 272 322
-0.055294871 0.671 -0.096471906 1.7512383e-38 273 322
-0.054037735 0.67000002 -0.096328132 1.7604934e-38 274 322
-0.052863002 0.67000002 -0.096328132 1.769713e-38 275 322
-0.051688269 0.67000002 -0.096328132 1.7788973e-38 276 322
-0.050513536 0.67000002 -0.096328132 1.7973004e-38 277 322
-0.049117878 0.667 -0.09589681 1.8155597e-38 278 322
-0.047948405 0.667 -0.09589681 1.7971566e-38 279 322
-0.046849065 0.66799998 -0.096040577 1.81556e-38 280 322
-0.045677837 0.66799998 -0.096040577 1.8339993e-38 281 322
-0.044439986 0.667 -0.09589681 1.8247433e-38 282 322
-0.043205637 0.66600001 -0.095753036 1.7970487e-38 283 322
-0.042037919 0.66600001 -0.095753036 1.7876121e-38 284 322
-0.040870197 0.66600001 -0.095753036 1.6954525e-38 285 322
-0.039702479 0.66600001 -0.095753036 1.6491024e-38 286 322
-0.03853476 0.66600001 -0.095753036 1.5476874e-38 287 322
-0.037367038 0.66600001 -0.095753036 1.4741122e-38 288 322
-0.036090612 0.66399997 -0.095465489 1.455673e-38 289 322
-0.0349264 0.66399997 -0.095465489 1.4098626e-38 290 322
-0.03386388 0.66600001 -0.095753036 1.4375213e-38 291 322
-0.03259797 0.66399997 -0.095465489 1.5849955e-38 292 322
-0.031433757 0.66399997 -0.095465489 1.658752e-38 293 322
-0.030269546 0.66399997 -0.095465489 1.797082e-38 294 322
-0.02910533 0.66399997 -0.095465489 1.8155572e-38 295 322
-0.027899038 0.66299999 -0.095321715 1.8431448e-38 296 322
-0.026736578 0.66299999 -0.095321715 1.861584e-38 297 322
-0.025574118 0.66299999 -0.095321715 1.8616193e-38 298 322
-0.024374841 0.662 -0.095177941 1.8616193e-38 299 322
-0.023214132 0.662 -0.095177941 1.8616193e-38 300 322
-0.022120051 0.66399997 -0.095465489 1.8616193e-38 301 322
-0.020955838 0.66399997 -0.095465489 1.852435e-38 302 322
-0.019761819 0.66299999 -0.095321715 1.8155569e-38 303 322
-0.018571306 0.662 -0.095177941 1.8155919e-38 304 322
-0.017331699 0.65899998 -0.094746619 1.8155919e-38 305 322
-0.016176252 0.65899998 -0.094746619 1.7971529e-38 306 322
-0.015020805 0.65899998 -0.094746619 1.7971529e-38 307 322
-0.013865359 0.65899998 -0.094746619 1.7787861e-38 308 322
-0.012709912 0.65899998 -0.094746619 1.7787861e-38 309 322
-0.011554466 0.65899998 -0.094746619 1.7787508e-38 310 322
-0.010399019 0.65899998 -0.094746619 1.7787508e-38 311 322
0.0046217865 0.65899998 -0.094746619 1.7787878e-38 324 322
0.0057596997 0.65700001 -0.094459079 1.7695682e-38 325 322
0.0069116396 0.65700001 -0.094459079 1.7971546e-38 326 322
0.0080635799 0.65700001 -0.094459079 1.8155938e-38 327 322
0.0092435731 0.65899998 -0.094746619 1.8063742e-38 328 322
0.01038324 0.65799999 -0.094602853 1.7971546e-38 329 322
0.011536933 0.65799999 -0.094602853 1.8155216e-38 330 322
0.012690626 0.65799999 -0.094602853 1.8155216e-38 331 322
0.01384432 0.65799999 -0.094602853 1.8155935e-38 332 322
0.014998012 0.65799999 -0.094602853 1.8155935e-38 333 322
0.016176252 0.65899998 -0.094746619 1.7972623e-38 334 322
0.0172791 0.65700001 -0.094459079 1.8156654e-38 335 322
0.018374931 0.65499997 -0.094171531 1.8340685e-38 336 322
0.019523365 0.65499997 -0.094171531 1.843288e-38 337 322
0.020608678 0.653 -0.093883984 1.8616193e-38 338 322
0.021753605 0.653 -0.093883984 1.8523997e-38 339 322
0.022933599 0.65399998 -0.094027758 1.8707309e-38 340 322
0.024117097 0.65499997 -0.094171531 1.8707309e-38 341 322
0.025226958 0.65399998 -0.094027758 1.8707309e-38 342 322
0.02637364 0.65399998 -0.094027758 1.8707309e-38 343 322
0.027520318 0.65399998 -0.094027758 1.8433231e-38 344 322
0.028710833 0.65499997 -0.094171531 1.8341035e-38 345 322
0.02995044 0.65700001 -0.094459079 1.8525054e-38 346 322
0.031197058 0.65899998 -0.094746619 1.8525054e-38 347 322
0.032303412 0.65799999 -0.094602853 1.85247e-38 348 322
0.033457108 0.65799999 -0.094602853 1.85247e-38 349 322
0.034610797 0.65799999 -0.094602853 1.861619e-38 350 322
0.035818845 0.65899998 -0.094746619 1.861619e-38 351 322
0.036974292 0.65899998 -0.094746619 1.861584e-38 352 322
0.038245458 0.66100001 -0.095034167 1.8523644e-38 353 322
0.039404415 0.66100001 -0.095034167 1.8523644e-38 354 322
0.040563367 0.66100001 -0.095034167 1.8431448e-38 355 322
0.04172232 0.66100001 -0.095034167 1.8338897e-38 356 322
0.042881273 0.66100001 -0.095034167 1.8338897e-38 357 322
0.044040225 0.66100001 -0.095034167 1.8154515e-38 358 322
0.045199182 0.66100001 -0.095034167 1.806232e-38 359 322
0.046358135 0.66100001 -0.095034167 1.7970121e-38 360 322
0.04737331 0.65899998 -0.094746619 1.7970121e-38 361 322
0.048528757 0.65899998 -0.094746619 1.7877921e-38 362 322
0.049684204 0.65899998 -0.094746619 1.7785726e-38 363 322
0.050839648 0.65899998 -0.094746619 1.7785004e-38 364 322
0.051916201 0.65799999 -0.094602853 1.7508417e-38 365 322
0.05306989 0.65799999 -0.094602853 1.7415498e-38 366 322
0.054223582 0.65799999 -0.094602853 1.7323303e-38 367 322
0.055461437 0.65899998 -0.094746619 1.6772635e-38 368 322
0.056788713 0.66100001 -0.095034167 1.6588242e-38 369 322
0.057947662 0.66100001 -0.095034167 1.622018e-38 370 322
0.05919604 0.662 -0.095177941 1.6127984e-38 371 322
0.060356744 0.662 -0.095177941 1.5942166e-38 372 322
0.061517447 0.662 -0.095177941 1.5849971e-38 373 322
0.062678158 0.662 -0.095177941 1.5573744e-38 374 322
0.063838862 0.662 -0.095177941 1.5388994e-38 375 322
0.065097757 0.66299999 -0.095321715 1.52968e-38 376 322
0.066360161 0.66399997 -0.095465489 1.5204604e-38 377 322
0.067524366 0.66399997 -0.095465489 1.4928019e-38 378 322
0.068688579 0.66399997 -0.095465489 1.4835823e-38 379 322
0.069852799 0.66399997 -0.095465489 1.446848e-38 380 322
0.071230918 0.66600001 -0.095753036 1.4100056e-38 381 322
0.07239864 0.66600001 -0.095753036 1.4191175e-38 382 322
0.073676817 0.667 -0.09589681 1.4006425e-38 383 322
0.07484629 0.667 -0.09589681 1.3730197e-38 384 322
0.076015763 0.667 -0.09589681 1.3545806e-38 385 322
0.077300951 0.66799998 -0.096040577 1.3177746e-38 386 322
0.078707129 0.67000002 -0.096328132 1.2900799e-38 387 322
0.079881869 0.67000002 -0.096328132 1.2255077e-38 388 322
0.081056595 0.67000002 -0.096328132 1.1425676e-38 389 322
0.082354069 0.671 -0.096471906 1.1145149e-38 390 322
0.083655037 0.67199999 -0.09661568 1.0499779e-38 391 322
0.085085757 0.67400002 -0.096903227 1.0132089e-38 392 322
0.086395502 0.67500001 -0.097047001 1.0685262e-38 393 322
0.087708741 0.676 -0.097190768 1.0228597e-38 394 322
0.089288503 0.67900002 -0.097622089 1.0505183e-38 395 322
0.090612262 0.68000001 -0.09776587 1.069065e-38 396 322
0.092074543 0.68199998 -0.098053411 1.0967237e-38 397 322
0.093270317 0.68199998 -0.098053411 1.0875057e-38 398 322
-0.065188929 0.676 -0.098376028 1.7242756e-38 265 323
-0.064003684 0.676 -0.098376028 1.5306251e-38 266 323
-0.062725499 0.67500001 -0.098230496 1.3923316e-38 267 323
-0.061542001 0.67500001 -0.098230496 1.3460838e-38 268 323
-0.060358498 0.67500001 -0.098230496 1.42906e-38 269 323
-0.059087332 0.67400002 -0.098084971 1.5672792e-38 270 323
-0.057647847 0.671 -0.09764839 1.6318161e-38 271 323
-0.056387197 0.67000002 -0.097502865 1.7236522e-38 272 323
-0.055212468 0.67000002 -0.097502865 1.7420913e-38 273 323
-0.053876422 0.66799998 -0.097211808 1.7421632e-38 274 323
-0.052705199 0.66799998 -0.097211808 1.7513828e-38 275 323
-0.051456824 0.667 -0.097066283 1.7789341e-38 276 323
-0.050287351 0.667 -0.097066283 1.7697145e-38 277 323
-0.04904424 0.66600001 -0.096920758 1.8155247e-38 278 323
-0.047876518 0.66600001 -0.096920758 1.8155247e-38 279 323
-0.046708796 0.66600001 -0.096920758 1.7879736e-38 280 323
-0.045541082 0.66600001 -0.096920758 1.7879736e-38 281 323
-0.04437336 0.66600001 -0.096920758 1.7604934e-38 282 323
-0.043075889 0.66399997 -0.096629702 1.7604934e-38 283 323
-0.041911677 0.66399997 -0.096629702 1.8063742e-38 284 323
-0.040747464 0.66399997 -0.096629702 1.7694959e-38 285 323
-0.039523639 0.66299999 -0.096484177 1.769209e-38 286 323
-0.038361177 0.66299999 -0.096484177 1.723111e-38 287 323
-0.037198719 0.66299999 -0.096484177 1.6862344e-38 288 323
-0.036036257 0.66299999 -0.096484177 1.6586116e-38 289 323
-0.034873798 0.66299999 -0.096484177 1.6310974e-38 290 323
-0.033762183 0.66399997 -0.096629702 1.6403171e-38 291 323
-0.032548878 0.66299999 -0.096484177 1.6679385e-38 292 323
-0.031386416 0.66299999 -0.096484177 1.7232199e-38 293 323
-0.030223956 0.66299999 -0.096484177 1.7970472e-38 294 323
-0.029061496 0.66299999 -0.096484177 1.8154863e-38 295 323
-0.027899038 0.66299999 -0.096484177 1.8523644e-38 296 323
-0.026696252 0.662 -0.096338652 1.8708037e-38 297 323
-0.025496973 0.66100001 -0.096193127 1.861656e-38 298 323
-0.02433802 0.66100001 -0.096193127 1.861656e-38 299 323
-0.023179067 0.66100001 -0.096193127 1.8616916e-38 300 323
-0.022020113 0.66100001 -0.096193127 1.8616916e-38 301 323
-0.02086116 0.66100001 -0.096193127 1.8708387e-38 302 323
-0.019642593 0.65899998 -0.09590207 1.861619e-38 303 323
-0.018487146 0.65899998 -0.09590207 1.8433231e-38 304 323
-0.017331699 0.65899998 -0.09590207 1.8433231e-38 305 323
-0.016176252 0.65899998 -0.09590207 1.8341751e-38 306 323
-0.015020805 0.65899998 -0.09590207 1.815736e-38 307 323
-0.013865359 0.65899998 -0.09590207 1.8248837e-38 308 323
-0.012709912 0.65899998 -0.09590207 1.8248837e-38 309 323
-0.011536933 0.65799999 -0.095756538 1.8156288e-38 310 323
-0.01038324 0.65799999 -0.095756538 1.8156288e-38 311 323
-0.0092295464 0.65799999 -0.095756538 1.824813e-38 312 323
-0.0080881258 0.65899998 -0.09590207 1.824813e-38 313 323
-0.0069326796 0.65899998 -0.09590207 1.8156301e-38 314 323
-0.0057772328 0.65899998 -0.09590207 1.8156301e-38 315 323
0.0034663398 0.65899998 -0.09590207 1.8248136e-38 323 323
0.0046147732 0.65799999 -0.095756538 1.8248133e-38 324 323
0.0057596997 0.65700001 -0.095611021 1.8248133e-38 325 323
0.0069116396 0.65700001 -0.095611021 1.8340685e-38 326 323
0.0080635799 0.65700001 -0.095611021 1.8340685e-38 327 323
0.0092295464 0.65799999 -0.095756538 1.8340682e-38 328 323
0.01038324 0.65799999 -0.095756538 1.8340682e-38 329 323
0.011536933 0.65799999 -0.095756538 1.8523994e-38 330 323
0.012690626 0.65799999 -0.095756538 1.8523994e-38 331 323
0.01384432 0.65799999 -0.095756538 1.8340685e-38 332 323
0.014998012 0.65799999 -0.095756538 1.8340685e-38 333 323
0.016176252 0.65899998 -0.09590207 1.8249205e-38 334 323
0.0172791 0.65700001 -0.095611021 1.8341401e-38 335 323
0.01843104 0.65700001 -0.095611021 1.8433231e-38 336 323
0.019523365 0.65499997 -0.095319957 1.8433231e-38 337 323
0.020671798 0.65499997 -0.095319957 1.8799858e-38 338 323
0.021786919 0.65399998 -0.095174432 1.8799858e-38 339 323
0.022933599 0.65399998 -0.095174432 1.8616195e-38 340 323
0.024117097 0.65499997 -0.095319957 1.8616195e-38 341 323
0.025265532 0.65499997 -0.095319957 1.8616195e-38 342 323
0.026413966 0.65499997 -0.095319957 1.8708392e-38 343 323
0.027520318 0.65399998 -0.095174432 1.8617266e-38 344 323
0.028666999 0.65399998 -0.095174432 1.8433234e-38 345 323
0.029859263 0.65499997 -0.095319957 1.8433228e-38 346 323
0.031149717 0.65799999 -0.095756538 1.8433228e-38 347 323
0.032303412 0.65799999 -0.095756538 1.861619e-38 348 323
0.033457108 0.65799999 -0.095756538 1.861619e-38 349 323
0.034610797 0.65799999 -0.095756538 1.8432531e-38 350 323
0.035764489 0.65799999 -0.095756538 1.8432531e-38 351 323
0.036918186 0.65799999 -0.095756538 1.8339976e-38 352 323
0.038129739 0.65899998 -0.09590207 1.824778e-38 353 323
0.039225571 0.65799999 -0.095756538 1.8339253e-38 354 323
0.040379263 0.65799999 -0.095756538 1.8154863e-38 355 323
0.04153296 0.65799999 -0.095756538 1.806267e-38 356 323
0.042751525 0.65899998 -0.09590207 1.7970474e-38 357 323
0.043906972 0.65899998 -0.09590207 1.7970121e-38 358 323
0.045062415 0.65899998 -0.09590207 1.7785729e-38 359 323
0.046217863 0.65899998 -0.09590207 1.769353e-38 360 323
0.04737331 0.65899998 -0.09590207 1.769353e-38 361 323
0.048528757 0.65899998 -0.09590207 1.7600616e-38 362 323
0.049684204 0.65899998 -0.09590207 1.7600616e-38 363 323
0.050839648 0.65899998 -0.09590207 1.750842e-38 364 323
0.051916201 0.65799999 -0.095756538 1.7231833e-38 365 323
0.05306989 0.65799999 -0.095756538 1.6864127e-38 366 323
0.054223582 0.65799999 -0.095756538 1.6679735e-38 367 323
0.055461437 0.65899998 -0.09590207 1.6220182e-38 368 323
0.056616884 0.65899998 -0.09590207 1.6127987e-38 369 323
0.057772331 0.65899998 -0.09590207 1.5943589e-38 370 323
0.059106622 0.66100001 -0.096193127 1.5667362e-38 371 323
0.060265575 0.66100001 -0.096193127 1.5390063e-38 372 323
0.061517447 0.662 -0.096338652 1.5297867e-38 373 323
0.062678158 0.662 -0.096338652 1.5296075e-38 374 323
0.063838862 0.662 -0.096338652 1.520388e-38 375 323
0.065097757 0.66299999 -0.096484177 1.4928019e-38 376 323
0.066260219 0.66299999 -0.096484177 1.4835823e-38 377 323
0.067422673 0.66299999 -0.096484177 1.4651795e-38 378 323
0.068688579 0.66399997 -0.096629702 1.4467762e-38 379 323
0.069852799 0.66399997 -0.096629702 1.4100056e-38 380 323
0.071017005 0.66399997 -0.096629702 1.3915664e-38 381 323
0.07239864 0.66600001 -0.096920758 1.4006781e-38 382 323
0.073566355 0.66600001 -0.096920758 1.3730194e-38 383 323
0.07484629 0.667 -0.097066283 1.3453607e-38 384 323
0.076015763 0.667 -0.097066283 1.3177379e-38 385 323
0.077300951 0.66799998 -0.097211808 1.271749e-38 386 323
0.078707129 0.67000002 -0.097502865 1.207212e-38 387 323
0.079881869 0.67000002 -0.097502865 1.1148739e-38 388 323
0.081056595 0.67000002 -0.097502865 1.0134587e-38 389 323
0.082354069 0.671 -0.09764839 1.0405797e-38 390 323
0.083655037 0.67199999 -0.097793922 1.0682385e-38 391 323
0.085085757 0.67400002 -0.098084971 1.0410117e-38 392 323
0.086395502 0.67500001 -0.098230496 1.07789e-38 393 323
0.087708741 0.676 -0.098376028 1.041514e-38 394 323
0.089156993 0.67799997 -0.09866707 1.0599531e-38 395 323
0.090612262 0.68000001 -0.098958135 1.096724e-38 396 323
0.092074543 0.68199998 -0.099249184 1.1059437e-38 397 323
0.093270317 0.68199998 -0.099249184 1.0598843e-38 398 323
-0.064003684 0.676 -0.099561274 1.5122942e-38 266 324
-0.062725499 0.67500001 -0.099413998 1.3739647e-38 267 324
-0.061450824 0.67400002 -0.099266715 1.3458687e-38 268 324
-0.060090236 0.67199999 -0.098972157 1.4472839e-38 269 324
-0.058824331 0.671 -0.098824874 1.5395849e-38 270 324
-0.057561934 0.67000002 -0.098677598 1.6041218e-38 271 324
-0.056387197 0.67000002 -0.098677598 1.6868464e-38 272 324
-0.05504765 0.66799998 -0.098383039 1.7236888e-38 273 324
-0.053876422 0.66799998 -0.098383039 1.7420916e-38 274 324
-0.052626297 0.667 -0.098235756 1.7604947e-38 275 324
-0.051379681 0.66600001 -0.098088481 1.7788619e-38 276 324
-0.050211959 0.66600001 -0.098088481 1.7788619e-38 277 324
-0.04904424 0.66600001 -0.098088481 1.8155603e-38 278 324
-0.047732744 0.66399997 -0.097793914 1.8155603e-38 279 324
-0.046568532 0.66399997 -0.097793914 1.769678e-38 280 324
-0.045404319 0.66399997 -0.097793914 1.7604225e-38 281 324
-0.044173479 0.66299999 -0.097646631 1.7604578e-38 282 324
-0.043011017 0.66299999 -0.097646631 1.7604578e-38 283 324
-0.041785441 0.662 -0.097499363 1.7512733e-38 284 324
-0.04062473 0.662 -0.097499363 1.7420538e-38 285 324
-0.039464023 0.662 -0.097499363 1.7419467e-38 286 324
-0.038361177 0.66299999 -0.097646631 1.7511664e-38 287 324
-0.037198719 0.66299999 -0.097646631 1.787902e-38 288 324
-0.036036257 0.66299999 -0.097646631 1.7786824e-38 289 324
-0.034873798 0.66299999 -0.097646631 1.7878667e-38 290 324
-0.033711337 0.66299999 -0.097646631 1.7878667e-38 291 324
-0.032548878 0.66299999 -0.097646631 1.8154884e-38 292 324
-0.031386416 0.66299999 -0.097646631 1.8247079e-38 293 324
-0.030178372 0.662 -0.097499363 1.8339979e-38 294 324
-0.029017664 0.662 -0.097499363 1.8339979e-38 295 324
-0.027856959 0.662 -0.097499363 1.861656e-38 296 324
-0.026696252 0.662 -0.097499363 1.8708755e-38 297 324
-0.025419824 0.65899998 -0.097057514 1.8800954e-38 298 324
-0.024264378 0.65899998 -0.097057514 1.8800954e-38 299 324
-0.023108931 0.65899998 -0.097057514 1.8801307e-38 300 324
-0.021953486 0.65899998 -0.097057514 1.8801307e-38 301 324
-0.020798039 0.65899998 -0.097057514 1.8800941e-38 302 324
-0.019612785 0.65799999 -0.096910238 1.8800941e-38 303 324
-0.018459093 0.65799999 -0.096910238 1.8709462e-38 304 324
-0.017305398 0.65799999 -0.096910238 1.8617266e-38 305 324
-0.016151706 0.65799999 -0.096910238 1.8433954e-38 306 324
-0.014998012 0.65799999 -0.096910238 1.8341398e-38 307 324
-0.01384432 0.65799999 -0.096910238 1.8341398e-38 308 324
-0.012690626 0.65799999 -0.096910238 1.8341398e-38 309 324
-0.011536933 0.65799999 -0.096910238 1.8340679e-38 310 324
-0.01038324 0.65799999 -0.096910238 1.8340679e-38 311 324
-0.0092295464 0.65799999 -0.096910238 1.8249205e-38 312 324
-0.0080758529 0.65799999 -0.096910238 1.8249205e-38 313 324
-0.0069221598 0.65799999 -0.096910238 1.8341048e-38 314 324
-0.0057684663 0.65799999 -0.096910238 1.8248852e-38 315 324
-0.0046147732 0.65799999 -0.096910238 1.8156656e-38 316 324
-0.0034610799 0.65799999 -0.096910238 1.8341048e-38 317 324
-0.0023073866 0.65799999 -0.096910238 1.8248852e-38 318 324
-0.0011536933 0.65799999 -0.096910238 1.8341048e-38 319 324
0 0.65799999 -0.096910238 1.8341048e-38 320 324
0.0011536933 0.65799999 -0.096910238 1.8341048e-38 321 324
0.0023038799 0.65700001 -0.096762955 1.8341404e-38 322 324
0.0034558198 0.65700001 -0.096762955 1.8341404e-38 323 324
0.0046077599 0.65700001 -0.096762955 1.8432878e-38 324 324
0.0057596997 0.65700001 -0.096762955 1.8432878e-38 325 324
0.0069116396 0.65700001 -0.096762955 1.8616546e-38 326 324
0.0080635799 0.65700001 -0.096762955 1.8708743e-38 327 324
0.0092295464 0.65799999 -0.096910238 1.8708743e-38 328 324
0.01036746 0.65700001 -0.096762955 1.8708743e-38 329 324
0.011519399 0.65700001 -0.096762955 1.8708387e-38 330 324
0.012690626 0.65799999 -0.096910238 1.8708387e-38 331 324
0.01384432 0.65799999 -0.096910238 1.8708387e-38 332 324
0.014998012 0.65799999 -0.096910238 1.8708387e-38 333 324
0.016176252 0.65899998 -0.097057514 1.861691e-38 334 324
0.017305398 0.65799999 -0.096910238 1.861691e-38 335 324
0.01843104 0.65700001 -0.096762955 1.8708743e-38 336 324
0.019523365 0.65499997 -0.096468389 1.8800938e-38 337 324
0.020671798 0.65499997 -0.096468389 1.8983535e-38 338 324
0.021820232 0.65499997 -0.096468389 1.9167566e-38 339 324
0.022968665 0.65499997 -0.096468389 1.8891705e-38 340 324
0.024117097 0.65499997 -0.096468389 1.89839e-38 341 324
0.025265532 0.65499997 -0.096468389 1.8800588e-38 342 324
0.02637364 0.65399998 -0.096321113 1.8800588e-38 343 324
0.027520318 0.65399998 -0.096321113 1.8891702e-38 344 324
0.028666999 0.65399998 -0.096321113 1.8891702e-38 345 324
0.029859263 0.65499997 -0.096468389 1.8799861e-38 346 324
0.03110238 0.65700001 -0.096762955 1.8892058e-38 347 324
0.03225432 0.65700001 -0.096762955 1.8799508e-38 348 324
