# .PCD v.7 - Point Cloud Data file format
FIELDS x y z rgb imX imY
SIZE 4 4 4 4 4 4
TYPE F F F F F F
COUNT 1 1 1 1 1 1
WIDTH 841
HEIGHT 1
VIEWPOINT 0 0 0 1 0 0 0
POINTS 841
DATA ascii
0.048812799 0.69599998 -0.029287677 1.8154836e-38 360 264
0.049889345 0.69400001 -0.029203519 1.8154836e-38 361 264
0.051032521 0.69300002 -0.029161438 1.8154842e-38 362 264
0.052096792 0.69099998 -0.029077278 1.8247039e-38 363 264
0.053308345 0.69099998 -0.029077278 1.8155566e-38 364 264
0.054440998 0.69 -0.029035198 1.8155566e-38 365 264
0.055650797 0.69 -0.029035198 1.83396e-38 366 264
0.056695789 0.68800002 -0.028951041 1.8155569e-38 367 264
0.057817914 0.68699998 -0.028908957 1.8431433e-38 368 264
0.059022456 0.68699998 -0.028908957 1.8339237e-38 369 264
0.060226995 0.68699998 -0.028908957 1.8246683e-38 370 264
0.061431535 0.68699998 -0.028908957 1.8246683e-38 371 264
0.06272725 0.68800002 -0.028951041 1.7971529e-38 372 264
0.064119399 0.69 -0.029035198 1.7786779e-38 373 264
0.065329194 0.69 -0.029035198 1.7510906e-38 374 264
0.066538997 0.69 -0.029035198 1.7141763e-38 375 264
0.067846984 0.69099998 -0.029077278 1.7048493e-38 376 264
0.069058537 0.69099998 -0.029077278 1.68641e-38 377 264
0.070270091 0.69099998 -0.029077278 1.622198e-38 378 264
0.071481638 0.69099998 -0.029077278 1.5484415e-38 379 264
0.072693199 0.69099998 -0.029077278 1.5026381e-38 380 264
0.073904753 0.69099998 -0.029077278 1.6962489e-38 381 264
0.026694499 0.72500002 -0.031779166 1.308666e-38 341 265
0.027772799 0.72000003 -0.03156 1.3271403e-38 342 265
0.029035201 0.72000003 -0.03156 1.3640185e-38 343 265
0.0302976 0.72000003 -0.03156 1.4100085e-38 344 265
0.031516165 0.71899998 -0.031516165 1.4838009e-38 345 265
0.032776814 0.71899998 -0.031516165 1.539118e-38 346 265
0.033942781 0.71700001 -0.031428497 1.5483376e-38 347 265
0.035150826 0.71600002 -0.031384666 1.6034028e-38 348 265
0.036304519 0.71399999 -0.031296998 1.621842e-38 349 265
0.037398599 0.71100003 -0.031165501 1.6128378e-38 350 265
0.038590867 0.70999998 -0.031121666 1.6220575e-38 351 265
0.039723519 0.708 -0.031034 1.6313124e-38 352 265
0.040849157 0.70599997 -0.030946331 1.6313124e-38 353 265
0.041967787 0.704 -0.030858666 1.6313121e-38 354 265
0.043140765 0.70300001 -0.030814834 1.6313121e-38 355 265
0.044247117 0.70099998 -0.030727165 1.6588985e-38 356 265
0.04541133 0.69999999 -0.030683333 1.6588985e-38 357 265
0.046505414 0.69800001 -0.030595668 1.6866994e-38 358 265
0.047660861 0.69700003 -0.030551834 1.7235776e-38 359 265
0.048672531 0.69400001 -0.030420333 1.7878612e-38 360 265
0.049817458 0.69300002 -0.0303765 1.8062643e-38 361 265
0.050885238 0.69099998 -0.030288832 1.815412e-38 362 265
0.052096792 0.69099998 -0.030288832 1.8246316e-38 363 265
0.053231198 0.69 -0.030244999 1.8063727e-38 364 265
0.054204296 0.68699998 -0.030113498 1.8063727e-38 365 265
0.055408835 0.68699998 -0.030113498 1.8339234e-38 366 265
0.056530971 0.68599999 -0.030069664 1.8247039e-38 367 265
0.057733759 0.68599999 -0.030069664 1.8338881e-38 368 265
0.058764715 0.68400002 -0.029982001 1.8338881e-38 369 265
0.059964001 0.68400002 -0.029982001 1.8246686e-38 370 265
0.061163284 0.68400002 -0.029982001 1.8154489e-38 371 265
0.062544905 0.68599999 -0.030069664 1.7971174e-38 372 265
0.06384062 0.68699998 -0.030113498 1.7694587e-38 373 265
0.065139838 0.68800002 -0.030157333 1.7418357e-38 374 265
0.066346131 0.68800002 -0.030157333 1.7233606e-38 375 265
0.067552425 0.68800002 -0.030157333 1.714141e-38 376 265
0.068958595 0.69 -0.030244999 1.6772988e-38 377 265
0.070168398 0.69 -0.030244999 1.6313094e-38 378 265
0.071378194 0.69 -0.030244999 1.6036867e-38 379 265
0.072693199 0.69099998 -0.030288832 1.5392981e-38 380 265
0.073904753 0.69099998 -0.030288832 1.5577372e-38 381 265
0.027772799 0.72000003 -0.0328224 1.2904067e-38 342 266
0.029035201 0.72000003 -0.0328224 1.3272851e-38 343 266
0.030255521 0.71899998 -0.032776814 1.3549081e-38 344 266
0.031516165 0.71899998 -0.032776814 1.3826028e-38 345 266
0.032776814 0.71899998 -0.032776814 1.4654341e-38 346 266
0.03389544 0.71600002 -0.032640055 1.4838732e-38 347 266
0.035052639 0.71399999 -0.032548878 1.5483376e-38 348 266
0.036151983 0.71100003 -0.032412119 1.5667767e-38 349 266
0.037345998 0.70999998 -0.032366529 1.5760684e-38 350 266
0.038482159 0.708 -0.03227536 1.5852881e-38 351 266
0.039723519 0.708 -0.03227536 1.594543e-38 352 266
0.040849157 0.70599997 -0.032184184 1.6037626e-38 353 266
0.041967787 0.704 -0.032093015 1.6221647e-38 354 266
0.043140765 0.70300001 -0.032047424 1.6221647e-38 355 266
0.044183996 0.69999999 -0.031910665 1.6313121e-38 356 266
0.045281585 0.69800001 -0.031819493 1.6128728e-38 357 266
0.046438783 0.69700003 -0.03177391 1.6865567e-38 358 266
0.047592476 0.69599998 -0.031728316 1.7234351e-38 359 266
0.048602402 0.69300002 -0.031591557 1.7787511e-38 360 266
0.049673684 0.69099998 -0.031500384 1.7787511e-38 361 266
0.050811596 0.69 -0.031454802 1.8062646e-38 362 266
0.051870614 0.68800002 -0.031363625 1.8154842e-38 363 266
0.052999757 0.68699998 -0.031318039 1.8063727e-38 364 266
0.054125395 0.68599999 -0.031272452 1.8063727e-38 365 266
0.055328183 0.68599999 -0.031272452 1.8063373e-38 366 266
0.056366164 0.68400002 -0.03118128 1.8063373e-38 367 266
0.057565439 0.68400002 -0.03118128 1.8155569e-38 368 266
0.05867881 0.68300003 -0.031135695 1.8063373e-38 369 266
0.059876334 0.68300003 -0.031135695 1.8247039e-38 370 266
0.061073858 0.68300003 -0.031135695 1.8154842e-38 371 266
0.06227139 0.68300003 -0.031135695 1.8062641e-38 372 266
0.063747689 0.68599999 -0.031272452 1.7878609e-38 373 266
0.064950474 0.68599999 -0.031272452 1.7602017e-38 374 266
0.066153266 0.68599999 -0.031272452 1.7417624e-38 375 266
0.067454241 0.68699998 -0.031318039 1.7324713e-38 376 266
0.068658777 0.68699998 -0.031318039 1.7048127e-38 377 266
0.069863312 0.68699998 -0.031318039 1.6588239e-38 378 266
0.071067855 0.68699998 -0.031318039 1.6403848e-38 379 266
0.072167195 0.68599999 -0.031272452 1.5760643e-38 380 266
0.073369987 0.68599999 -0.031272452 1.474685e-38 381 266
0.074572764 0.68599999 -0.031272452 1.5215461e-38 382 266
0.027772799 0.72000003 -0.034084801 1.152367e-38 342 267
0.029035201 0.72000003 -0.034084801 1.216904e-38 343 267
0.030255521 0.71899998 -0.03403746 1.2904441e-38 344 267
0.031516165 0.71899998 -0.03403746 1.3365419e-38 345 267
0.032685637 0.71700001 -0.033942781 1.4010419e-38 346 267
0.033800758 0.71399999 -0.033800758 1.4378843e-38 347 267
0.035052639 0.71399999 -0.033800758 1.5023119e-38 348 267
0.036101133 0.70999998 -0.033611398 1.5207512e-38 349 267
0.037345998 0.70999998 -0.033611398 1.5851079e-38 350 267
0.038482159 0.708 -0.033516716 1.5943633e-38 351 267
0.039667413 0.70700002 -0.033469379 1.6036549e-38 352 267
0.040849157 0.70599997 -0.033422034 1.6128745e-38 353 267
0.041967787 0.704 -0.03332736 1.6313489e-38 354 267
0.043140765 0.70300001 -0.033280019 1.6221294e-38 355 267
0.044183996 0.69999999 -0.033137999 1.6403884e-38 356 267
0.045281585 0.69800001 -0.033043321 1.6496439e-38 357 267
0.046438783 0.69700003 -0.03299598 1.6588987e-38 358 267
0.047455717 0.69400001 -0.032853961 1.6865214e-38 359 267
0.048602402 0.69300002 -0.03280662 1.7510931e-38 360 267
0.049673684 0.69099998 -0.032711938 1.7787878e-38 361 267
0.050664321 0.68800002 -0.032569919 1.8153767e-38 362 267
0.051719822 0.68599999 -0.032475237 1.8245963e-38 363 267
0.05292261 0.68599999 -0.032475237 1.8154836e-38 364 267
0.053888701 0.68300003 -0.032333218 1.8247392e-38 365 267
0.055086225 0.68300003 -0.032333218 1.8154842e-38 366 267
0.056201346 0.68199998 -0.032285877 1.8154842e-38 367 267
0.05739712 0.68199998 -0.032285877 1.8063371e-38 368 267
0.058592889 0.68199998 -0.032285877 1.8063371e-38 369 267
0.059788663 0.68199998 -0.032285877 1.8247036e-38 370 267
0.0608056 0.68000001 -0.032191198 1.8154839e-38 371 267
0.061997864 0.68000001 -0.032191198 1.7788214e-38 372 267
0.063375987 0.68199998 -0.032285877 1.7603464e-38 373 267
0.064666435 0.68300003 -0.032333218 1.7327603e-38 374 267
0.0659604 0.68400002 -0.032380559 1.7143212e-38 375 267
0.067159683 0.68400002 -0.032380559 1.6957745e-38 376 267
0.068558842 0.68599999 -0.032475237 1.6773353e-38 377 267
0.06955824 0.68400002 -0.032380559 1.6405293e-38 378 267
0.070757523 0.68400002 -0.032380559 1.6220901e-38 379 267
0.072167195 0.68599999 -0.032475237 1.5759937e-38 380 267
0.073369987 0.68599999 -0.032475237 1.5207122e-38 381 267
0.074572764 0.68599999 -0.032475237 1.4384629e-38 382 267
0.075775556 0.68599999 -0.032475237 1.6412932e-38 383 267
0.029035201 0.72000003 -0.035347197 1.0877602e-38 343 268
0.030255521 0.71899998 -0.035298105 1.1616589e-38 344 268
0.031516165 0.71899998 -0.035298105 1.2261959e-38 345 268
0.032685637 0.71700001 -0.035199918 1.3365419e-38 346 268
0.033800758 0.71399999 -0.035052639 1.3826037e-38 347 268
0.035003547 0.713 -0.035003547 1.4562514e-38 348 268
0.036101133 0.70999998 -0.034856264 1.4746905e-38 349 268
0.0372408 0.708 -0.034758076 1.539083e-38 350 268
0.038427804 0.70700002 -0.034708988 1.5667416e-38 351 268
0.039667413 0.70700002 -0.034708988 1.5577372e-38 352 268
0.040733438 0.704 -0.034561705 1.58536e-38 353 268
0.041908171 0.70300001 -0.034512613 1.6128742e-38 354 268
0.043018032 0.70099998 -0.034414422 1.6220938e-38 355 268
0.044183996 0.69999999 -0.034365334 1.6129098e-38 356 268
0.045281585 0.69800001 -0.034267146 1.6221294e-38 357 268
0.046372157 0.69599998 -0.034168959 1.6220928e-38 358 268
0.047387339 0.69300002 -0.034021679 1.6313124e-38 359 268
0.048391998 0.69 -0.0338744 1.714323e-38 360 268
0.049314249 0.68599999 -0.033678025 1.7512014e-38 361 268
0.050517038 0.68599999 -0.033678025 1.806194e-38 362 268
0.051569041 0.68400002 -0.033579841 1.8154135e-38 363 268
0.052691177 0.68300003 -0.033530746 1.8154842e-38 364 268
0.053809796 0.68199998 -0.03348165 1.8154842e-38 365 268
0.055005573 0.68199998 -0.03348165 1.8246316e-38 366 268
0.056036532 0.68000001 -0.033383466 1.8246316e-38 367 268
0.057144642 0.67900002 -0.033334374 1.8063724e-38 368 268
0.058335152 0.67900002 -0.033334374 1.8063724e-38 369 268
0.059525665 0.67900002 -0.033334374 1.8247392e-38 370 268
0.060626756 0.67799997 -0.033285279 1.8247392e-38 371 268
0.061815511 0.67799997 -0.033285279 1.8246672e-38 372 268
0.063004278 0.67799997 -0.033285279 1.8154476e-38 373 268
0.064287722 0.67900002 -0.033334374 1.7787135e-38 374 268
0.065381795 0.67799997 -0.033285279 1.7418354e-38 375 268
0.066570558 0.67799997 -0.033285279 1.7050647e-38 376 268
0.068159081 0.68199998 -0.03348165 1.6866255e-38 377 268
0.069151461 0.68000001 -0.033383466 1.6772635e-38 378 268
0.070343733 0.68000001 -0.033383466 1.6495688e-38 379 268
0.071535997 0.68000001 -0.033383466 1.5393681e-38 380 268
0.073049128 0.68300003 -0.033530746 1.4656116e-38 381 268
0.074246652 0.68300003 -0.033530746 1.392113e-38 382 268
0.075886011 0.68699998 -0.033727121 1.5580651e-38 383 268
0.076978341 0.68599999 -0.033678025 1.7333148e-38 384 268
0.033611398 0.70999998 -0.036101133 1.2997721e-38 347 269
0.034856264 0.70999998 -0.036101133 1.3826037e-38 348 269
0.03599944 0.708 -0.03599944 1.4102984e-38 349 269
0.037188202 0.70700002 -0.035948593 1.4839101e-38 350 269
0.038427804 0.70700002 -0.035948593 1.5207883e-38 351 269
0.039611302 0.70599997 -0.035897743 1.5667414e-38 352 269
0.040733438 0.704 -0.035796054 1.5852164e-38 353 269
0.041908171 0.70300001 -0.035745207 1.5852881e-38 354 269
0.042956665 0.69999999 -0.035592664 1.5945077e-38 355 269
0.04405776 0.69800001 -0.035490975 1.6128742e-38 356 269
0.045216713 0.69700003 -0.035440128 1.6128742e-38 357 269
0.046238903 0.69400001 -0.035287585 1.6128375e-38 358 269
0.047250576 0.69099998 -0.035135046 1.6312768e-38 359 269
0.048391998 0.69 -0.035084199 1.6682621e-38 360 269
0.049314249 0.68599999 -0.034880809 1.6959209e-38 361 269
0.050517038 0.68599999 -0.034880809 1.7877909e-38 362 269
0.051569041 0.68400002 -0.03477912 1.806194e-38 363 269
0.052614026 0.68199998 -0.034677424 1.8153767e-38 364 269
0.053809796 0.68199998 -0.034677424 1.8153767e-38 365 269
0.054844268 0.68000001 -0.034575731 1.8154123e-38 366 269
0.055954125 0.67900002 -0.034524884 1.8154123e-38 367 269
0.057144642 0.67900002 -0.034524884 1.7971527e-38 368 269
0.058335152 0.67900002 -0.034524884 1.7971527e-38 369 269
0.059437994 0.67799997 -0.034474038 1.8247036e-38 370 269
0.06044792 0.676 -0.034372345 1.8247036e-38 371 269
0.061633173 0.676 -0.034372345 1.8247039e-38 372 269
0.062818423 0.676 -0.034372345 1.8154842e-38 373 269
0.064003684 0.676 -0.034372345 1.7695663e-38 374 269
0.065188929 0.676 -0.034372345 1.7511272e-38 375 269
0.066374183 0.676 -0.034372345 1.7143562e-38 376 269
0.067559443 0.676 -0.034372345 1.695917e-38 377 269
0.068948075 0.67799997 -0.034474038 1.6865549e-38 378 269
0.069929942 0.676 -0.034372345 1.6404571e-38 379 269
0.071115203 0.676 -0.034372345 1.5393325e-38 380 269
0.072300449 0.676 -0.034372345 1.4747956e-38 381 269
0.074246652 0.68300003 -0.034728274 1.3735647e-38 382 269
0.075886011 0.68699998 -0.034931656 1.4381016e-38 383 269
0.076978341 0.68599999 -0.034880809 1.6688482e-38 384 269
0.034856264 0.70999998 -0.037345998 1.2721498e-38 348 270
0.035948593 0.70700002 -0.037188202 1.3366867e-38 349 270
0.037188202 0.70700002 -0.037188202 1.4378492e-38 350 270
0.038373452 0.70599997 -0.037135597 1.4655438e-38 351 270
0.039499093 0.704 -0.037030395 1.529936e-38 352 270
0.040733438 0.704 -0.037030395 1.5483751e-38 353 270
0.041788943 0.70099998 -0.036872596 1.5668135e-38 354 270
0.042833932 0.69800001 -0.0367148 1.5852528e-38 355 270
0.043994639 0.69700003 -0.036662199 1.6128026e-38 356 270
0.045216713 0.69700003 -0.036662199 1.6220222e-38 357 270
0.04617228 0.69300002 -0.036451802 1.640389e-38 358 270
0.047182199 0.69 -0.036293998 1.6496086e-38 359 270
0.048181597 0.68699998 -0.036136195 1.6496436e-38 360 270
0.049314249 0.68599999 -0.036083598 1.704961e-38 361 270
0.050222475 0.68199998 -0.035873197 1.7787155e-38 362 270
0.051267464 0.68000001 -0.035767999 1.7694959e-38 363 270
0.052459732 0.68000001 -0.035767999 1.8062293e-38 364 270
0.053494196 0.67799997 -0.0356628 1.8062293e-38 365 270
0.054682959 0.67799997 -0.0356628 1.806229e-38 366 270
0.055871718 0.67799997 -0.0356628 1.806229e-38 367 270
0.056892153 0.676 -0.035557602 1.7971529e-38 368 270
0.058077414 0.676 -0.035557602 1.7971529e-38 369 270
0.059262663 0.676 -0.035557602 1.8154486e-38 370 270
0.060358498 0.67500001 -0.035505001 1.8246683e-38 371 270
0.061542001 0.67500001 -0.035505001 1.8245963e-38 372 270
0.062632568 0.67400002 -0.035452399 1.8245963e-38 373 270
0.06381432 0.67400002 -0.035452399 1.7696019e-38 374 270
0.064996064 0.67400002 -0.035452399 1.7511269e-38 375 270
0.066177815 0.67400002 -0.035452399 1.7326875e-38 376 270
0.067459501 0.67500001 -0.035505001 1.7050647e-38 377 270
0.068643004 0.67500001 -0.035505001 1.6865546e-38 378 270
0.069826499 0.67500001 -0.035505001 1.6404927e-38 379 270
0.071010001 0.67500001 -0.035505001 1.5668826e-38 380 270
0.072193496 0.67500001 -0.035505001 1.5023457e-38 381 270
0.073376998 0.67500001 -0.035505001 1.3826025e-38 382 270
0.035948593 0.70700002 -0.038427804 1.2354157e-38 349 271
0.037188202 0.70700002 -0.038427804 1.3733845e-38 350 271
0.038373452 0.70599997 -0.038373452 1.4010433e-38 351 271
0.039499093 0.704 -0.038264744 1.4746189e-38 352 271
0.040675577 0.70300001 -0.038210396 1.5206808e-38 353 271
0.041788943 0.70099998 -0.038101684 1.5759981e-38 354 271
0.042833932 0.69800001 -0.037938625 1.5667785e-38 355 271
0.043994639 0.69700003 -0.037884273 1.5852164e-38 356 271
0.045216713 0.69700003 -0.037884273 1.5852164e-38 357 271
0.045772515 0.68699998 -0.037340738 1.6311338e-38 358 271
0.046977058 0.68699998 -0.037340738 1.6311338e-38 359 271
0.048111461 0.68599999 -0.037286382 1.6496439e-38 360 271
0.049314249 0.68599999 -0.037286382 1.6588634e-38 361 271
0.050075196 0.68000001 -0.036960267 1.73269e-38 362 271
0.051192071 0.67900002 -0.036905911 1.7603485e-38 363 271
0.052382588 0.67900002 -0.036905911 1.7510565e-38 364 271
0.053336397 0.676 -0.036742851 1.7510565e-38 365 271
0.054521654 0.676 -0.036742851 1.7786429e-38 366 271
0.055706903 0.676 -0.036742851 1.7786429e-38 367 271
0.056808002 0.67500001 -0.036688499 1.769531e-38 368 271
0.057991501 0.67500001 -0.036688499 1.7787864e-38 369 271
0.059175 0.67500001 -0.036688499 1.8154491e-38 370 271
0.06026908 0.67400002 -0.036634147 1.8154491e-38 371 271
0.061450824 0.67400002 -0.036634147 1.8246688e-38 372 271
0.062446721 0.67199999 -0.036525436 1.8154491e-38 373 271
0.063624956 0.67199999 -0.036525436 1.7878975e-38 374 271
0.064803198 0.67199999 -0.036525436 1.7694584e-38 375 271
0.06598144 0.67199999 -0.036525436 1.7418707e-38 376 271
0.067159683 0.67199999 -0.036525436 1.7234315e-38 377 271
0.068541311 0.67400002 -0.036634147 1.7141044e-38 378 271
0.069516152 0.67199999 -0.036525436 1.6771902e-38 379 271
0.070694394 0.67199999 -0.036525436 1.6127278e-38 380 271
0.07208655 0.67400002 -0.036634147 1.5481908e-38 381 271
0.073376998 0.67500001 -0.036688499 1.4008969e-38 382 271
0.038373452 0.70599997 -0.039611302 1.2998807e-38 351 272
0.039499093 0.704 -0.039499093 1.4193381e-38 352 272
0.040559858 0.70099998 -0.039330769 1.4654359e-38 353 272
0.041729331 0.69999999 -0.039274666 1.5207164e-38 354 272
0.042772565 0.69700003 -0.039106347 1.5391555e-38 355 272
0.043994639 0.69700003 -0.039106347 1.5851085e-38 356 272
0.044957221 0.69300002 -0.03888192 1.594328e-38 357 272
0.045772515 0.68699998 -0.038545277 1.6219138e-38 358 272
0.046977058 0.68699998 -0.038545277 1.6219138e-38 359 272
0.047830928 0.68199998 -0.038264744 1.6403523e-38 360 272
0.049026705 0.68199998 -0.038264744 1.6587555e-38 361 272
0.050001562 0.67900002 -0.038096428 1.6313477e-38 362 272
0.051116679 0.67799997 -0.038040318 1.6866292e-38 363 272
0.052305438 0.67799997 -0.038040318 1.741837e-38 364 272
0.053336397 0.676 -0.037928104 1.7326174e-38 365 272
0.054441001 0.67500001 -0.037871998 1.7693865e-38 366 272
0.0556245 0.67500001 -0.037871998 1.7693865e-38 367 272
0.056808002 0.67500001 -0.037871998 1.7786063e-38 368 272
0.057733759 0.67199999 -0.037703678 1.7878259e-38 369 272
0.058911994 0.67199999 -0.037703678 1.815377e-38 370 272
0.06026908 0.67400002 -0.037815895 1.815377e-38 371 272
0.061450824 0.67400002 -0.037815895 1.8153767e-38 372 272
0.062446721 0.67199999 -0.037703678 1.8245963e-38 373 272
0.063624956 0.67199999 -0.037703678 1.806229e-38 374 272
0.064803198 0.67199999 -0.037703678 1.7878259e-38 375 272
0.06598144 0.67199999 -0.037703678 1.7511272e-38 376 272
0.067159683 0.67199999 -0.037703678 1.7234325e-38 377 272
0.068337917 0.67199999 -0.037703678 1.7141057e-38 378 272
0.069516152 0.67199999 -0.037703678 1.6772635e-38 379 272
0.0705892 0.671 -0.037647571 1.5761375e-38 380 272
0.071765684 0.671 -0.037647571 1.5023451e-38 381 272
0.073050871 0.67199999 -0.037703678 1.4285907e-38 382 272
0.074229114 0.67199999 -0.037703678 1.3732733e-38 383 272
0.039330769 0.70099998 -0.040559858 1.3548732e-38 352 273
0.040559858 0.70099998 -0.040559858 1.3825319e-38 353 273
0.041610107 0.69800001 -0.040386278 1.4562861e-38 354 273
0.042772565 0.69700003 -0.040328421 1.4839807e-38 355 273
0.043931518 0.69599998 -0.040270556 1.5667416e-38 356 273
0.044957221 0.69300002 -0.04009698 1.5759612e-38 357 273
0.045772515 0.68699998 -0.039749816 1.5851808e-38 358 273
0.046908677 0.68599999 -0.039691959 1.5851808e-38 359 273
0.047830928 0.68199998 -0.039460517 1.6035829e-38 360 273
0.048882935 0.68000001 -0.039344799 1.6128026e-38 361 273
0.049927916 0.67799997 -0.039229076 1.6128731e-38 362 273
0.050965894 0.676 -0.039113361 1.6220928e-38 363 273
0.052151144 0.676 -0.039113361 1.704959e-38 364 273
0.053257499 0.67500001 -0.039055496 1.7326177e-38 365 273
0.054441001 0.67500001 -0.039055496 1.7326527e-38 366 273
0.055542093 0.67400002 -0.038997639 1.7418723e-38 367 273
0.056555521 0.67199999 -0.03888192 1.7510916e-38 368 273
0.057647847 0.671 -0.038824059 1.7695666e-38 369 273
0.058824331 0.671 -0.038824059 1.7878981e-38 370 273
0.060000818 0.671 -0.038824059 1.7878981e-38 371 273
0.061177302 0.671 -0.038824059 1.7878625e-38 372 273
0.06235379 0.671 -0.038824059 1.7878625e-38 373 273
0.063530281 0.671 -0.038824059 1.7786426e-38 374 273
0.064610332 0.67000002 -0.038766202 1.7786426e-38 375 273
0.065785065 0.67000002 -0.038766202 1.7877533e-38 376 273
0.066959806 0.67000002 -0.038766202 1.7600946e-38 377 273
0.068236224 0.671 -0.038824059 1.7416555e-38 378 273
0.069412716 0.671 -0.038824059 1.7047774e-38 379 273
0.0705892 0.671 -0.038824059 1.6494971e-38 380 273
0.071765684 0.671 -0.038824059 1.5757406e-38 381 273
0.072942175 0.671 -0.038824059 1.446993e-38 382 273
0.074560501 0.67500001 -0.039055496 1.3732365e-38 383 273
0.039162453 0.69800001 -0.041610107 1.2258719e-38 352 274
0.040386278 0.69800001 -0.041610107 1.2811892e-38 353 274
0.041610107 0.69800001 -0.041610107 1.3182107e-38 354 274
0.042711195 0.69599998 -0.041490879 1.3734921e-38 355 274
0.043805279 0.69400001 -0.041371655 1.5206808e-38 356 274
0.044827472 0.69099998 -0.041192811 1.5483754e-38 357 274
0.045705888 0.68599999 -0.040894743 1.5850729e-38 358 274
0.046908677 0.68599999 -0.040894743 1.5942924e-38 359 274
0.047690667 0.68000001 -0.040537067 1.6035107e-38 360 274
0.048811045 0.67900002 -0.040477451 1.6035107e-38 361 274
0.049927916 0.67799997 -0.040417835 1.6218407e-38 362 274
0.050965894 0.676 -0.040298611 1.6218407e-38 363 274
0.052074 0.67500001 -0.040238999 1.6311672e-38 364 274
0.053257499 0.67500001 -0.040238999 1.6864846e-38 365 274
0.054360349 0.67400002 -0.040179387 1.7325807e-38 366 274
0.055377278 0.67199999 -0.040060159 1.7325807e-38 367 274
0.056471359 0.671 -0.040000543 1.7693496e-38 368 274
0.057561934 0.67000002 -0.039940935 1.7877528e-38 369 274
0.058736663 0.67000002 -0.039940935 1.8061203e-38 370 274
0.060000818 0.671 -0.040000543 1.8245593e-38 371 274
0.061177302 0.671 -0.040000543 1.7878259e-38 372 274
0.06226087 0.67000002 -0.039940935 1.7878259e-38 373 274
0.063435599 0.67000002 -0.039940935 1.7878256e-38 374 274
0.064417459 0.66799998 -0.039821707 1.7786061e-38 375 274
0.065588683 0.66799998 -0.039821707 1.7693865e-38 376 274
0.066759922 0.66799998 -0.039821707 1.7509472e-38 377 274
0.067931145 0.66799998 -0.039821707 1.7141057e-38 378 274
0.069309272 0.67000002 -0.039940935 1.7048861e-38 379 274
0.070483997 0.67000002 -0.039940935 1.6037236e-38 380 274
0.071658738 0.67000002 -0.039940935 1.5299671e-38 381 274
0.072833464 0.67000002 -0.039940935 1.4745438e-38 382 274
0.074450038 0.67400002 -0.040179387 1.4192624e-38 383 274
0.07563179 0.67400002 -0.040179387 1.3274318e-38 384 274
0.040386278 0.69800001 -0.042833932 1.1616236e-38 353 275
0.041610107 0.69800001 -0.042833932 1.2351283e-38 354 275
0.042711195 0.69599998 -0.042711195 1.3088848e-38 355 275
0.043805279 0.69400001 -0.042588469 1.42863e-38 356 275
0.044632856 0.68800002 -0.042220265 1.4839473e-38 357 275
0.045705888 0.68599999 -0.042097531 1.5299726e-38 358 275
0.046908677 0.68599999 -0.042097531 1.520753e-38 359 275
0.047690667 0.68000001 -0.041729335 1.5574502e-38 360 275
0.048739154 0.67799997 -0.041606598 1.5574502e-38 361 275
0.049780637 0.676 -0.041483864 1.5390444e-38 362 275
0.050890498 0.67500001 -0.041422497 1.5021302e-38 363 275
0.051996857 0.67400002 -0.041361131 1.5114558e-38 364 275
0.053178601 0.67400002 -0.041361131 1.6405297e-38 365 275
0.054199036 0.67199999 -0.041238401 1.7509116e-38 366 275
0.055294871 0.671 -0.041177034 1.723289e-38 367 275
0.056387197 0.67000002 -0.041115668 1.7326157e-38 368 275
0.057561934 0.67000002 -0.041115668 1.7418354e-38 369 275
0.058736663 0.67000002 -0.041115668 1.7693868e-38 370 275
0.0599114 0.67000002 -0.041115668 1.7786063e-38 371 275
0.060903784 0.66799998 -0.040992931 1.7785708e-38 372 275
0.062075011 0.66799998 -0.040992931 1.7785708e-38 373 275
0.063246235 0.66799998 -0.040992931 1.7786061e-38 374 275
0.064321034 0.667 -0.040931564 1.7693865e-38 375 275
0.065490507 0.667 -0.040931564 1.7601667e-38 376 275
0.06665998 0.667 -0.040931564 1.7417274e-38 377 275
0.067931145 0.66799998 -0.040992931 1.7232887e-38 378 275
0.069309272 0.67000002 -0.041115668 1.69563e-38 379 275
0.070483997 0.67000002 -0.041115668 1.6130498e-38 380 275
0.071658738 0.67000002 -0.041115668 1.5392933e-38 381 275
0.072833464 0.67000002 -0.041115668 1.5113852e-38 382 275
0.074450038 0.67400002 -0.041361131 1.4376285e-38 383 275
0.07563179 0.67400002 -0.041361131 1.2811892e-38 384 275
0.076813534 0.67400002 -0.041361131 1.4010436e-38 385 275
0.040894743 0.68599999 -0.043300316 1.1890312e-38 354 276
0.042097531 0.68599999 -0.043300316 1.2166538e-38 355 276
0.043426562 0.68800002 -0.043426562 1.3272519e-38 356 276
0.044632856 0.68800002 -0.043426562 1.4102281e-38 357 276
0.045705888 0.68599999 -0.043300316 1.4930946e-38 358 276
0.046908677 0.68599999 -0.043300316 1.5023143e-38 359 276
0.047620531 0.67900002 -0.042858478 1.5389388e-38 360 276
0.048739154 0.67799997 -0.042795356 1.5389388e-38 361 276
0.049780637 0.676 -0.042669121 1.4929103e-38 362 276
0.050890498 0.67500001 -0.042606 1.4099703e-38 363 276
0.051996857 0.67400002 -0.042542879 1.4283718e-38 364 276
0.053020798 0.67199999 -0.042416636 1.6127631e-38 365 276
0.054118387 0.671 -0.042353518 1.714106e-38 366 276
0.055212468 0.67000002 -0.042290401 1.7048864e-38 367 276
0.056387197 0.67000002 -0.042290401 1.7417277e-38 368 276
0.057390101 0.66799998 -0.042164158 1.7417277e-38 369 276
0.058561329 0.66799998 -0.042164158 1.7601669e-38 370 276
0.05973256 0.66799998 -0.042164158 1.7693865e-38 371 276
0.060812607 0.667 -0.042101037 1.7693868e-38 372 276
0.06198208 0.667 -0.042101037 1.7786063e-38 373 276
0.063151561 0.667 -0.042101037 1.7786061e-38 374 276
0.064321034 0.667 -0.042101037 1.7693865e-38 375 276
0.065490507 0.667 -0.042101037 1.7417277e-38 376 276
0.06665998 0.667 -0.042101037 1.7232887e-38 377 276
0.067829452 0.667 -0.042101037 1.7140694e-38 378 276
0.068895474 0.66600001 -0.042037919 1.6956303e-38 379 276
0.070063196 0.66600001 -0.042037919 1.6313097e-38 380 276
0.071337871 0.667 -0.042101037 1.5759925e-38 381 276
0.072507344 0.667 -0.042101037 1.4840142e-38 382 276
0.073676817 0.667 -0.042101037 1.4010381e-38 383 276
0.07484629 0.667 -0.042101037 1.2718248e-38 384 276
0.075673863 0.66399997 -0.041911677 1.3271422e-38 385 276
0.076838076 0.66399997 -0.041911677 1.6043466e-38 386 276
0.040894743 0.68599999 -0.044503104 1.1981075e-38 354 277
0.042097531 0.68599999 -0.044503104 1.1796683e-38 355 277
0.043300316 0.68599999 -0.044503104 1.2071459e-38 356 277
0.044503104 0.68599999 -0.044503104 1.2993055e-38 357 277
0.045705888 0.68599999 -0.044503104 1.3733845e-38 358 277
0.04670354 0.68300003 -0.044308487 1.4195183e-38 359 277
0.047620531 0.67900002 -0.044048995 1.4929854e-38 360 277
0.048739154 0.67799997 -0.043984115 1.4561072e-38 361 277
0.049780637 0.676 -0.043854371 1.3916756e-38 362 277
0.050890498 0.67500001 -0.043789499 1.382456e-38 363 277
0.051996857 0.67400002 -0.043724626 1.5019491e-38 364 277
0.053020798 0.67199999 -0.043594878 1.631023e-38 365 277
0.054118387 0.671 -0.043530006 1.6680082e-38 366 277
0.055212468 0.67000002 -0.043465134 1.6864833e-38 367 277
0.056218877 0.66799998 -0.043335386 1.723289e-38 368 277
0.057304189 0.667 -0.04327051 1.723289e-38 369 277
0.058473662 0.667 -0.04327051 1.7509116e-38 370 277
0.059643134 0.667 -0.04327051 1.7509116e-38 371 277
0.060721438 0.66600001 -0.043205637 1.7509116e-38 372 277
0.061889157 0.66600001 -0.043205637 1.7601313e-38 373 277
0.062867515 0.66399997 -0.043075889 1.7693146e-38 374 277
0.064031735 0.66399997 -0.043075889 1.7600949e-38 375 277
0.06519594 0.66399997 -0.043075889 1.7416202e-38 376 277
0.066360161 0.66399997 -0.043075889 1.7324006e-38 377 277
0.067524366 0.66399997 -0.043075889 1.686483e-38 378 277
0.068688579 0.66399997 -0.043075889 1.6772635e-38 379 277
0.069852799 0.66399997 -0.043075889 1.6312022e-38 380 277
0.071230918 0.66600001 -0.043205637 1.6035435e-38 381 277
0.07239864 0.66600001 -0.043205637 1.5024173e-38 382 277
0.073566355 0.66600001 -0.043205637 1.4286608e-38 383 277
0.07450965 0.66399997 -0.043075889 1.308666e-38 384 277
0.075673863 0.66399997 -0.043075889 1.2994465e-38 385 277
0.076838076 0.66399997 -0.043075889 1.5581043e-38 386 277
0.078002289 0.66399997 -0.043075889 1.7240563e-38 387 277
0.041974798 0.68400002 -0.045572639 1.1521169e-38 355 278
0.043174081 0.68400002 -0.045572639 1.1425361e-38 356 278
0.04437336 0.68400002 -0.045572639 1.0964383e-38 357 278
0.045572639 0.68400002 -0.045572639 1.1614787e-38 358 278
0.04670354 0.68300003 -0.045506012 1.2721495e-38 359 278
0.047550395 0.67799997 -0.045172878 1.4008987e-38 360 278
0.048595384 0.676 -0.045039624 1.3916791e-38 361 278
0.049706999 0.67500001 -0.044972997 1.3639097e-38 362 278
0.050664317 0.67199999 -0.044773117 1.4192271e-38 363 278
0.051842555 0.67199999 -0.044773117 1.5481558e-38 364 278
0.052941896 0.671 -0.044706494 1.6219123e-38 365 278
0.054037735 0.67000002 -0.044639867 1.6312025e-38 366 278
0.05504765 0.66799998 -0.044506609 1.6680807e-38 367 278
0.056134716 0.667 -0.044439986 1.6865552e-38 368 278
0.057218276 0.66600001 -0.04437336 1.6957748e-38 369 278
0.058385998 0.66600001 -0.04437336 1.7232892e-38 370 278
0.059553716 0.66600001 -0.04437336 1.7416924e-38 371 278
0.060721438 0.66600001 -0.04437336 1.7233255e-38 372 278
0.061703302 0.66399997 -0.044240102 1.7325451e-38 373 278
0.062867515 0.66399997 -0.044240102 1.7233611e-38 374 278
0.064031735 0.66399997 -0.044240102 1.7233611e-38 375 278
0.06519594 0.66399997 -0.044240102 1.7140341e-38 376 278
0.066360161 0.66399997 -0.044240102 1.7048145e-38 377 278
0.067524366 0.66399997 -0.044240102 1.6772284e-38 378 278
0.068688579 0.66399997 -0.044240102 1.6680089e-38 379 278
0.069852799 0.66399997 -0.044240102 1.6312028e-38 380 278
0.071017005 0.66399997 -0.044240102 1.6127278e-38 381 278
0.072181225 0.66399997 -0.044240102 1.5391513e-38 382 278
0.07334543 0.66399997 -0.044240102 1.4746144e-38 383 278
0.07450965 0.66399997 -0.044240102 1.3454001e-38 384 278
0.075673863 0.66399997 -0.044240102 1.2900829e-38 385 278
0.076838076 0.66399997 -0.044240102 1.4935674e-38 386 278
0.078002289 0.66399997 -0.044240102 1.6779585e-38 387 278
0.079404958 0.66600001 -0.04437336 1.6872179e-38 388 278
0.040715907 0.68300003 -0.04670354 1.2626094e-38 354 279
0.041913435 0.68300003 -0.04670354 1.2072921e-38 355 279
0.043110959 0.68300003 -0.04670354 1.1334244e-38 356 279
0.044308487 0.68300003 -0.04670354 9.4903317e-39 357 279
0.045506012 0.68300003 -0.04670354 7.8376403e-39 358 279
0.046498399 0.68000001 -0.046498399 9.4975217e-39 359 279
0.047550395 0.67799997 -0.046361636 1.2444185e-38 360 279
0.048595384 0.676 -0.046224877 1.2997359e-38 361 279
0.049633358 0.67400002 -0.046088122 1.4280514e-38 362 279
0.050588924 0.671 -0.045882981 1.5110633e-38 363 279
0.051765412 0.671 -0.045882981 1.5667027e-38 364 279
0.052863002 0.67000002 -0.0458146 1.6219842e-38 365 279
0.053876422 0.66799998 -0.045677837 1.6312028e-38 366 279
0.05504765 0.66799998 -0.045677837 1.6404223e-38 367 279
0.056050558 0.66600001 -0.045541082 1.6772988e-38 368 279
0.057218276 0.66600001 -0.045541082 1.6865183e-38 369 279
0.05821066 0.66399997 -0.045404319 1.7141044e-38 370 279
0.059374876 0.66399997 -0.045404319 1.7048849e-38 371 279
0.060539093 0.66399997 -0.045404319 1.7048493e-38 372 279
0.061703302 0.66399997 -0.045404319 1.7233243e-38 373 279
0.062772833 0.66299999 -0.045335937 1.7140691e-38 374 279
0.063935295 0.66299999 -0.045335937 1.7140691e-38 375 279
0.065097757 0.66299999 -0.045335937 1.7048498e-38 376 279
0.066260219 0.66299999 -0.045335937 1.6956303e-38 377 279
0.067422673 0.66299999 -0.045335937 1.6680089e-38 378 279
0.068585135 0.66299999 -0.045335937 1.6587533e-38 379 279
0.069747597 0.66299999 -0.045335937 1.6219479e-38 380 279
0.070910059 0.66299999 -0.045335937 1.6219479e-38 381 279
0.072072513 0.66299999 -0.045335937 1.5575556e-38 382 279
0.07334543 0.66399997 -0.045404319 1.5114217e-38 383 279
0.074397437 0.66299999 -0.045335937 1.3454719e-38 384 279
0.075559892 0.66299999 -0.045335937 1.2440925e-38 385 279
0.076722354 0.66299999 -0.045335937 1.4381773e-38 386 279
0.078002289 0.66399997 -0.045404319 1.6502274e-38 387 279
0.079404958 0.66600001 -0.045541082 1.6688503e-38 388 279
0.040715907 0.68300003 -0.047901068 1.29034e-38 354 280
0.041852064 0.68199998 -0.047830928 1.2534978e-38 355 280
0.043047838 0.68199998 -0.047830928 1.2257292e-38 356 280
0.044243611 0.68199998 -0.047830928 9.9524014e-39 357 280
0.045506012 0.68300003 -0.047901068 7.740393e-39 358 280
0.046430022 0.67900002 -0.047620531 7.1872206e-39 359 280
0.047410134 0.676 -0.047410134 1.1061954e-38 360 280
0.048451614 0.67400002 -0.047269866 1.2721116e-38 361 280
0.049486078 0.67199999 -0.047129598 1.4467794e-38 362 280
0.050513536 0.67000002 -0.046989333 1.5113164e-38 363 280
0.051688269 0.67000002 -0.046989333 1.5759234e-38 364 280
0.052705199 0.66799998 -0.046849065 1.5851788e-38 365 280
0.05379577 0.667 -0.046778932 1.5761372e-38 366 280
0.054882839 0.66600001 -0.046708796 1.5853568e-38 367 280
0.056050558 0.66600001 -0.046708796 1.6588955e-38 368 280
0.057046451 0.66399997 -0.046568532 1.6681511e-38 369 280
0.058122993 0.66299999 -0.046498399 1.6772988e-38 370 280
0.05919604 0.662 -0.046428263 1.6865183e-38 371 280
0.060356744 0.662 -0.046428263 1.686483e-38 372 280
0.061517447 0.662 -0.046428263 1.686483e-38 373 280
0.062678158 0.662 -0.046428263 1.6773003e-38 374 280
0.063838862 0.662 -0.046428263 1.6773003e-38 375 280
0.064999565 0.662 -0.046428263 1.6680805e-38 376 280
0.066160277 0.662 -0.046428263 1.6588609e-38 377 280
0.067320988 0.662 -0.046428263 1.6587536e-38 378 280
0.068481691 0.662 -0.046428263 1.649534e-38 379 280
0.069642402 0.662 -0.046428263 1.6219479e-38 380 280
0.070803106 0.662 -0.046428263 1.6127283e-38 381 280
0.072072513 0.66299999 -0.046498399 1.5575924e-38 382 280
0.073234983 0.66299999 -0.046498399 1.5022751e-38 383 280
0.074397437 0.66299999 -0.046498399 1.3364324e-38 384 280
0.075559892 0.66299999 -0.046498399 1.216578e-38 385 280
0.076722354 0.66299999 -0.046498399 1.4105894e-38 386 280
0.077884816 0.66299999 -0.046498399 1.5949806e-38 387 280
0.079166502 0.66399997 -0.046568532 1.705656e-38 388 280
0.041852064 0.68199998 -0.049026705 1.2812656e-38 355 281
0.043047838 0.68199998 -0.049026705 1.290339e-38 356 281
0.044243611 0.68199998 -0.049026705 1.1612651e-38 357 281
0.045439381 0.68199998 -0.049026705 9.2105022e-39 358 281
0.046430022 0.67900002 -0.048811045 8.1037945e-39 359 281
0.047410134 0.676 -0.048595384 9.2184111e-39 360 281
0.04830784 0.67199999 -0.04830784 1.1799889e-38 361 281
0.049412437 0.671 -0.048235953 1.5022413e-38 362 281
0.050362743 0.66799998 -0.048020288 1.529936e-38 363 281
0.051456824 0.667 -0.047948405 1.5392256e-38 364 281
0.052547399 0.66600001 -0.047876518 1.5392256e-38 365 281
0.053715117 0.66600001 -0.047876518 1.5852138e-38 366 281
0.054882839 0.66600001 -0.047876518 1.5944334e-38 367 281
0.055882234 0.66399997 -0.047732744 1.6404571e-38 368 281
0.056960538 0.66299999 -0.047660857 1.6588961e-38 369 281
0.058035329 0.662 -0.047588971 1.6956653e-38 370 281
0.059106622 0.66100001 -0.047517084 1.6864456e-38 371 281
0.060265575 0.66100001 -0.047517084 1.6863384e-38 372 281
0.061424527 0.66100001 -0.047517084 1.695558e-38 373 281
0.062583476 0.66100001 -0.047517084 1.6863753e-38 374 281
0.063742429 0.66100001 -0.047517084 1.6863753e-38 375 281
0.064901382 0.66100001 -0.047517084 1.6863753e-38 376 281
0.066060342 0.66100001 -0.047517084 1.6587167e-38 377 281
0.067219295 0.66100001 -0.047517084 1.6403495e-38 378 281
0.068378247 0.66100001 -0.047517084 1.6403495e-38 379 281
0.0695372 0.66100001 -0.047517084 1.6035438e-38 380 281
0.070696153 0.66100001 -0.047517084 1.5942884e-38 381 281
0.071963809 0.662 -0.047588971 1.5115299e-38 382 281
0.07312452 0.662 -0.047588971 1.4930908e-38 383 281
0.074285224 0.662 -0.047588971 1.3180655e-38 384 281
0.075445928 0.662 -0.047588971 1.2350895e-38 385 281
0.076722354 0.66299999 -0.047660857 1.3828951e-38 386 281
0.077884816 0.66299999 -0.047660857 1.5488831e-38 387 281
0.079166502 0.66399997 -0.047732744 1.7056557e-38 388 281
0.043047838 0.68199998 -0.050222475 1.3181419e-38 356 282
0.044243611 0.68199998 -0.050222475 1.2443854e-38 357 282
0.045439381 0.68199998 -0.050222475 1.0226821e-38 358 282
0.045882981 0.671 -0.049412437 7.8297341e-39 359 282
0.047059465 0.671 -0.049412437 7.5599646e-39 360 282
0.048235953 0.671 -0.049412437 1.0418031e-38 361 282
0.049338799 0.67000002 -0.049338799 1.4746902e-38 362 282
0.050362743 0.66799998 -0.04919152 1.5023849e-38 363 282
0.051456824 0.667 -0.049117878 1.5024199e-38 364 282
0.052547399 0.66600001 -0.04904424 1.5208231e-38 365 282
0.053715117 0.66600001 -0.04904424 1.5575921e-38 366 282
0.054718021 0.66399997 -0.048896957 1.5668117e-38 367 282
0.055882234 0.66399997 -0.048896957 1.6220548e-38 368 282
0.056960538 0.66299999 -0.048823316 1.6312744e-38 369 282
0.058035329 0.662 -0.048749682 1.6771907e-38 370 282
0.059106622 0.66100001 -0.04867604 1.6771907e-38 371 282
0.060265575 0.66100001 -0.04867604 1.6771554e-38 372 282
0.061424527 0.66100001 -0.04867604 1.6587523e-38 373 282
0.062583476 0.66100001 -0.04867604 1.6495337e-38 374 282
0.063549563 0.65899998 -0.048528757 1.6495337e-38 375 282
0.064705007 0.65899998 -0.048528757 1.6403142e-38 376 282
0.066060342 0.66100001 -0.04867604 1.6403142e-38 377 282
0.067219295 0.66100001 -0.04867604 1.6219108e-38 378 282
0.068378247 0.66100001 -0.04867604 1.6126912e-38 379 282
0.0695372 0.66100001 -0.04867604 1.5759927e-38 380 282
0.070696153 0.66100001 -0.04867604 1.5759927e-38 381 282
0.071855105 0.66100001 -0.04867604 1.5206769e-38 382 282
0.073014058 0.66100001 -0.04867604 1.4837987e-38 383 282
0.074285224 0.662 -0.048749682 1.3089179e-38 384 282
0.075445928 0.662 -0.048749682 1.2167582e-38 385 282
0.076722354 0.66299999 -0.048823316 1.3643839e-38 386 282
0.046989333 0.67000002 -0.050513536 6.820952e-39 360 283
0.048164066 0.67000002 -0.050513536 9.6790165e-39 361 283
0.04919152 0.66799998 -0.050362743 1.4194437e-38 362 283
0.050287351 0.667 -0.050287351 1.4932002e-38 363 283
0.051379681 0.66600001 -0.050211959 1.5390824e-38 364 283
0.052547399 0.66600001 -0.050211959 1.5390824e-38 365 283
0.053553808 0.66399997 -0.05006117 1.5575559e-38 366 283
0.054718021 0.66399997 -0.05006117 1.5575559e-38 367 283
0.055798076 0.66299999 -0.049985778 1.6036514e-38 368 283
0.056874625 0.662 -0.049910385 1.6220545e-38 369 283
0.057947662 0.66100001 -0.049834993 1.6587873e-38 370 283
0.058927774 0.65899998 -0.049684204 1.6587873e-38 371 283
0.060083222 0.65899998 -0.049684204 1.6495322e-38 372 283
0.061238669 0.65899998 -0.049684204 1.6495322e-38 373 283
0.062394116 0.65899998 -0.049684204 1.6219464e-38 374 283
0.063549563 0.65899998 -0.049684204 1.6219464e-38 375 283
0.064705007 0.65899998 -0.049684204 1.6126912e-38 376 283
0.065860458 0.65899998 -0.049684204 1.6126912e-38 377 283
0.067015901 0.65899998 -0.049684204 1.6035435e-38 378 283
0.068171352 0.65899998 -0.049684204 1.594324e-38 379 283
0.069326796 0.65899998 -0.049684204 1.5484412e-38 380 283
0.070482239 0.65899998 -0.049684204 1.5392217e-38 381 283
0.071855105 0.66100001 -0.049834993 1.4930887e-38 382 283
0.073014058 0.66100001 -0.049834993 1.4469907e-38 383 283
0.074173011 0.66100001 -0.049834993 1.2996612e-38 384 283
0.075331964 0.66100001 -0.049834993 1.2351242e-38 385 283
0.076722354 0.66299999 -0.049985778 1.3275414e-38 386 283
0.046849065 0.66799998 -0.051533967 7.3690867e-39 360 284
0.048020288 0.66799998 -0.051533967 9.1211638e-39 361 284
0.049117878 0.667 -0.051456824 1.3549065e-38 362 284
0.050287351 0.667 -0.051456824 1.4839804e-38 363 284
0.051379681 0.66600001 -0.051379681 1.5758886e-38 364 284
0.052389596 0.66399997 -0.051225383 1.5482659e-38 365 284
0.053553808 0.66399997 -0.051225383 1.5391526e-38 366 284
0.054635618 0.66299999 -0.051148236 1.5391526e-38 367 284
0.055798076 0.66299999 -0.051148236 1.5944321e-38 368 284
0.056788713 0.66100001 -0.050993945 1.6036517e-38 369 284
0.057772331 0.65899998 -0.050839648 1.6496041e-38 370 284
0.058838356 0.65799999 -0.050762504 1.6403845e-38 371 284
0.059992049 0.65799999 -0.050762504 1.6220886e-38 372 284
0.061145745 0.65799999 -0.050762504 1.6128332e-38 373 284
0.062299434 0.65799999 -0.050762504 1.6036142e-38 374 284
0.06345313 0.65799999 -0.050762504 1.6036142e-38 375 284
0.064606823 0.65799999 -0.050762504 1.5943591e-38 376 284
0.065760516 0.65799999 -0.050762504 1.5759202e-38 377 284
0.066914216 0.65799999 -0.050762504 1.5759925e-38 378 284
0.068067901 0.65799999 -0.050762504 1.5667728e-38 379 284
0.069326796 0.65899998 -0.050839648 1.5208905e-38 380 284
0.070482239 0.65899998 -0.050839648 1.5208905e-38 381 284
0.07163769 0.65899998 -0.050839648 1.5207472e-38 382 284
0.072793134 0.65899998 -0.050839648 1.4469907e-38 383 284
0.074173011 0.66100001 -0.050993945 1.2905495e-38 384 284
0.075331964 0.66100001 -0.050993945 1.216793e-38 385 284
0.046849065 0.66799998 -0.052705199 9.0293311e-39 360 285
0.048020288 0.66799998 -0.052705199 8.568353e-39 361 285
0.049117878 0.667 -0.052626297 1.3088442e-38 362 285
0.050211959 0.66600001 -0.052547399 1.4563211e-38 363 285
0.051379681 0.66600001 -0.052547399 1.5759237e-38 364 285
0.052389596 0.66399997 -0.052389596 1.5575205e-38 365 285
0.053473156 0.66299999 -0.052310698 1.5483362e-38 366 285
0.054635618 0.66299999 -0.052310698 1.5483362e-38 367 285
0.055713918 0.662 -0.0522318 1.5484076e-38 368 285
0.056788713 0.66100001 -0.052152898 1.5576272e-38 369 285
0.057772331 0.65899998 -0.051995095 1.5945035e-38 370 285
0.058838356 0.65799999 -0.051916201 1.5945035e-38 371 285
0.059992049 0.65799999 -0.051916201 1.6036136e-38 372 285
0.061145745 0.65799999 -0.051916201 1.5943939e-38 373 285
0.062299434 0.65799999 -0.051916201 1.5668078e-38 374 285
0.06345313 0.65799999 -0.051916201 1.5668078e-38 375 285
0.064606823 0.65799999 -0.051916201 1.5391861e-38 376 285
0.065660581 0.65700001 -0.051837299 1.5484415e-38 377 285
0.066812515 0.65700001 -0.051837299 1.5208549e-38 378 285
0.068067901 0.65799999 -0.051916201 1.5208549e-38 379 285
0.069116399 0.65700001 -0.051837299 1.5117422e-38 380 285
0.07026834 0.65700001 -0.051837299 1.4841195e-38 381 285
0.071420282 0.65700001 -0.051837299 1.493089e-38 382 285
0.072682679 0.65799999 -0.051916201 1.4469552e-38 383 285
0.073836371 0.65799999 -0.051916201 1.2813668e-38 384 285
0.074990064 0.65799999 -0.051916201 1.189207e-38 385 285
0.076259479 0.65899998 -0.051995095 1.2723681e-38 386 285
0.046778932 0.667 -0.05379577 1.1429324e-38 360 286
0.047948405 0.667 -0.05379577 1.087615e-38 361 286
0.049117878 0.667 -0.05379577 1.2627482e-38 362 286
0.050211959 0.66600001 -0.053715117 1.4194806e-38 363 286
0.051379681 0.66600001 -0.053715117 1.5668123e-38 364 286
0.052389596 0.66399997 -0.053553808 1.5391177e-38 365 286
0.053473156 0.66299999 -0.053473156 1.539116e-38 366 286
0.054635618 0.66299999 -0.053473156 1.5483356e-38 367 286
0.055713918 0.662 -0.053392503 1.5390795e-38 368 286
0.056788713 0.66100001 -0.053311851 1.5667021e-38 369 286
0.057684667 0.65799999 -0.05306989 1.6035432e-38 370 286
0.058748938 0.65700001 -0.052989237 1.6127987e-38 371 286
0.05990088 0.65700001 -0.052989237 1.6036492e-38 372 286
0.061052818 0.65700001 -0.052989237 1.5667709e-38 373 286
0.06220476 0.65700001 -0.052989237 1.5667709e-38 374 286
0.063356705 0.65700001 -0.052989237 1.5483318e-38 375 286
0.064508639 0.65700001 -0.052989237 1.5482612e-38 376 286
0.065460697 0.65499997 -0.052827932 1.5482612e-38 377 286
0.066609129 0.65499997 -0.052827932 1.5300021e-38 378 286
0.067964457 0.65700001 -0.052989237 1.5300021e-38 379 286
0.068905994 0.65499997 -0.052827932 1.5117425e-38 380 286
0.070054427 0.65499997 -0.052827932 1.5209621e-38 381 286
0.071202859 0.65499997 -0.052827932 1.4197288e-38 382 286
0.072351299 0.65499997 -0.052827932 1.3367526e-38 383 286
0.073499724 0.65499997 -0.052827932 1.1894233e-38 384 286
0.074648157 0.65499997 -0.052827932 1.1248863e-38 385 286
0.076259479 0.65899998 -0.053150542 1.2447095e-38 386 286
0.077414922 0.65899998 -0.053150542 1.5028573e-38 387 286
0.047948405 0.667 -0.054965243 1.2075772e-38 361 287
0.04904424 0.66600001 -0.054882839 1.2810428e-38 362 287
0.050211959 0.66600001 -0.054882839 1.3916776e-38 363 287
0.051225383 0.66399997 -0.054718021 1.5115668e-38 364 287
0.052389596 0.66399997 -0.054718021 1.5207865e-38 365 287
0.053473156 0.66299999 -0.054635618 1.5207848e-38 366 287
0.054553211 0.662 -0.054553211 1.5207848e-38 367 287
0.05562976 0.66100001 -0.054470807 1.5207851e-38 368 287
0.056616884 0.65899998 -0.054305989 1.5207851e-38 369 287
0.057684667 0.65799999 -0.054223582 1.5208564e-38 370 287
0.058570094 0.65499997 -0.053976361 1.5393315e-38 371 287
0.059718527 0.65499997 -0.053976361 1.5575529e-38 372 287
0.060866963 0.65499997 -0.053976361 1.5391498e-38 373 287
0.062015396 0.65499997 -0.053976361 1.4841198e-38 374 287
0.063163824 0.65499997 -0.053976361 1.4748644e-38 375 287
0.064214081 0.65399998 -0.053893957 1.465682e-38 376 287
0.065360755 0.65399998 -0.053893957 1.465682e-38 377 287
0.066609129 0.65499997 -0.053976361 1.45657e-38 378 287
0.067654118 0.65399998 -0.053893957 1.45657e-38 379 287
0.068800792 0.65399998 -0.053893957 1.4473852e-38 380 287
0.069947474 0.65399998 -0.053893957 1.4381655e-38 381 287
0.071094155 0.65399998 -0.053893957 1.3737387e-38 382 287
0.072240837 0.65399998 -0.053893957 1.2907268e-38 383 287
0.073387519 0.65399998 -0.053893957 1.1984986e-38 384 287
0.074534193 0.65399998 -0.053893957 1.1615844e-38 385 287
0.075680874 0.65399998 -0.053893957 1.2630766e-38 386 287
0.047948405 0.667 -0.056134716 1.2353453e-38 361 288
0.04904424 0.66600001 -0.056050558 1.308704e-38 362 288
0.05006117 0.66399997 -0.055882234 1.3639855e-38 363 288
0.051148236 0.66299999 -0.055798076 1.4654341e-38 364 288
0.052310698 0.66299999 -0.055798076 1.4838732e-38 365 288
0.053392503 0.662 -0.055713918 1.5116018e-38 366 288
0.054470807 0.66100001 -0.05562976 1.5116018e-38 367 288
0.055461437 0.65899998 -0.055461437 1.5207122e-38 368 288
0.056530971 0.65799999 -0.055377278 1.5299318e-38 369 288
0.057333998 0.65399998 -0.055040635 1.5299665e-38 370 288
0.05848068 0.65399998 -0.055040635 1.5299665e-38 371 288
0.059627358 0.65399998 -0.055040635 1.4840468e-38 372 288
0.060774036 0.65399998 -0.055040635 1.4747914e-38 373 288
0.061826039 0.653 -0.054956477 1.4563883e-38 374 288
0.062970966 0.653 -0.054956477 1.4471687e-38 375 288
0.064214081 0.65399998 -0.055040635 1.4288387e-38 376 288
0.065360755 0.65399998 -0.055040635 1.4288387e-38 377 288
0.066507436 0.65399998 -0.055040635 1.4472058e-38 378 288
0.067654118 0.65399998 -0.055040635 1.4564254e-38 379 288
0.068800792 0.65399998 -0.055040635 1.4288387e-38 380 288
0.069947474 0.65399998 -0.055040635 1.3735572e-38 381 288
0.071094155 0.65399998 -0.055040635 1.2723602e-38 382 288
0.072240837 0.65399998 -0.055040635 1.2354818e-38 383 288
0.073387519 0.65399998 -0.055040635 1.2075747e-38 384 288
0.074534193 0.65399998 -0.055040635 1.1615128e-38 385 288
0.075680874 0.65399998 -0.055040635 1.2815158e-38 386 288
0.04904424 0.66600001 -0.057218276 1.2996652e-38 362 289
0.05006117 0.66399997 -0.057046451 1.3181404e-38 363 289
0.051071092 0.662 -0.056874625 1.4194087e-38 364 289
0.0522318 0.662 -0.056874625 1.4746902e-38 365 289
0.053311851 0.66100001 -0.056788713 1.4932706e-38 366 289
0.054305989 0.65899998 -0.056616884 1.484051e-38 367 289
0.055377278 0.65799999 -0.056530971 1.5298962e-38 368 289
0.056445058 0.65700001 -0.056445058 1.5206766e-38 369 289
0.057246335 0.653 -0.056101404 1.4931611e-38 370 289
0.058391262 0.653 -0.056101404 1.4839057e-38 371 289
0.059445009 0.65200001 -0.056015491 1.4288743e-38 372 289
0.060588185 0.65200001 -0.056015491 1.4011798e-38 373 289
0.061731357 0.65200001 -0.056015491 1.3737006e-38 374 289
0.062874533 0.65200001 -0.056015491 1.3552973e-38 375 289
0.064017706 0.65200001 -0.056015491 1.3001614e-38 376 289
0.06526082 0.653 -0.056101404 1.3186006e-38 377 289
0.066405743 0.653 -0.056101404 1.3460797e-38 378 289
0.067550674 0.653 -0.056101404 1.3645189e-38 379 289
0.068695597 0.653 -0.056101404 1.3827782e-38 380 289
