# .PCD v.7 - Point Cloud Data file format
FIELDS x y z rgb imX imY
SIZE 4 4 4 4 4 4
TYPE F F F F F F
COUNT 1 1 1 1 1 1
WIDTH 856
HEIGHT 1
VIEWPOINT 0 0 0 1 0 0 0
POINTS 856
DATA ascii
0.086311333 0.80699998 0.029713741 1.4929423e-38 381 219
0.08772628 0.80699998 0.029713741 1.4376989e-38 382 219
0.088920295 0.80500001 0.029640101 1.3639424e-38 383 219
0.090331733 0.80500001 0.029640101 1.3002044e-38 384 219
0.091743164 0.80500001 0.029640101 1.4477175e-38 385 219
0.093154602 0.80500001 0.029640101 1.5124049e-38 386 219
0.034884319 0.829 0.029070266 7.743672e-39 344 220
0.036250167 0.82700002 0.029000133 8.481237e-39 345 220
0.037608996 0.82499999 0.028929999 9.585414e-39 346 220
0.038960818 0.82300001 0.028859867 1.0415175e-38 347 220
0.040305622 0.82099998 0.028789733 1.1520058e-38 348 220
0.041745111 0.82099998 0.028789733 1.1704451e-38 349 220
0.043184597 0.82099998 0.028789733 1.216433e-38 350 220
0.044515379 0.81900001 0.0287196 1.234908e-38 351 220
0.045951359 0.81900001 0.0287196 1.2441992e-38 352 220
0.047387339 0.81900001 0.0287196 1.2441992e-38 353 220
0.048823319 0.81900001 0.0287196 1.2534187e-38 354 220
0.0502593 0.81900001 0.0287196 1.2626384e-38 355 220
0.051569037 0.81699997 0.028649466 1.2902251e-38 356 220
0.052871767 0.815 0.028579332 1.3271034e-38 357 220
0.054300729 0.815 0.028579332 1.3181356e-38 358 220
0.055592939 0.81300002 0.0285092 1.3642334e-38 359 220
0.057018399 0.81300002 0.0285092 1.4196937e-38 360 220
0.058443859 0.81300002 0.0285092 1.4380968e-38 361 220
0.05972204 0.81099999 0.028439065 1.5299668e-38 362 220
0.061143994 0.81099999 0.028439065 1.5484059e-38 363 220
0.062411651 0.80900002 0.028368933 1.585212e-38 364 220
0.063830093 0.80900002 0.028368933 1.603687e-38 365 220
0.065087236 0.80699998 0.028298797 1.6129076e-38 366 220
0.066502176 0.80699998 0.028298797 1.6313827e-38 367 220
0.067917116 0.80699998 0.028298797 1.6497861e-38 368 220
0.06916023 0.80500001 0.028228667 1.6682252e-38 369 220
0.070571661 0.80500001 0.028228667 1.6958116e-38 370 220
0.071983099 0.80500001 0.028228667 1.6958116e-38 371 220
0.07339453 0.80500001 0.028228667 1.6683324e-38 372 220
0.074805968 0.80500001 0.028228667 1.6498934e-38 373 220
0.076217398 0.80500001 0.028228667 1.613195e-38 374 220
0.077628836 0.80500001 0.028228667 1.6039754e-38 375 220
0.079040267 0.80500001 0.028228667 1.5946833e-38 376 220
0.080451705 0.80500001 0.028228667 1.5762441e-38 377 220
0.081863128 0.80500001 0.028228667 1.585318e-38 378 220
0.083274566 0.80500001 0.028228667 1.5576233e-38 379 220
0.084685996 0.80500001 0.028228667 1.539075e-38 380 220
0.086097427 0.80500001 0.028228667 1.5298554e-38 381 220
0.087508865 0.80500001 0.028228667 1.4561732e-38 382 220
0.088920295 0.80500001 0.028228667 1.4285143e-38 383 220
0.090331733 0.80500001 0.028228667 1.2904794e-38 384 220
0.091743164 0.80500001 0.028228667 1.3734195e-38 385 220
0.092923149 0.80299997 0.028158531 1.4293917e-38 386 220
0.094331078 0.80299997 0.028158531 1.5308067e-38 387 220
0.037700173 0.82700002 0.027550125 8.109956e-39 346 221
0.039055496 0.82499999 0.027483499 8.7553254e-39 347 221
0.040403813 0.82300001 0.027416872 1.004567e-38 348 221
0.041745111 0.82099998 0.027350245 1.0875431e-38 349 221
0.043184597 0.82099998 0.027350245 1.1888122e-38 350 221
0.044515379 0.81900001 0.027283618 1.2072513e-38 351 221
0.045951359 0.81900001 0.027283618 1.2166131e-38 352 221
0.047387339 0.81900001 0.027283618 1.2258326e-38 353 221
0.048823319 0.81900001 0.027283618 1.2533834e-38 354 221
0.0502593 0.81900001 0.027283618 1.262639e-38 355 221
0.051569037 0.81699997 0.027216991 1.2626753e-38 356 221
0.052871767 0.815 0.027150365 1.2811503e-38 357 221
0.054300729 0.815 0.027150365 1.2995894e-38 358 221
0.055592939 0.81300002 0.02708374 1.3272122e-38 359 221
0.057018399 0.81300002 0.02708374 1.3367189e-38 360 221
0.058300085 0.81099999 0.027017111 1.4012559e-38 361 221
0.05972204 0.81099999 0.027017111 1.4748312e-38 362 221
0.061143994 0.81099999 0.027017111 1.4932703e-38 363 221
0.062411651 0.80900002 0.026950486 1.5300761e-38 364 221
0.063830093 0.80900002 0.026950486 1.5485511e-38 365 221
0.065087236 0.80699998 0.026883857 1.5578426e-38 366 221
0.066502176 0.80699998 0.026883857 1.5670621e-38 367 221
0.067917116 0.80699998 0.026883857 1.6038329e-38 368 221
0.06916023 0.80500001 0.026817232 1.6314914e-38 369 221
0.070571661 0.80500001 0.026817232 1.6498584e-38 370 221
0.071983099 0.80500001 0.026817232 1.6682615e-38 371 221
0.07339453 0.80500001 0.026817232 1.6683324e-38 372 221
0.074805968 0.80500001 0.026817232 1.6498934e-38 373 221
0.076217398 0.80500001 0.026817232 1.6499643e-38 374 221
0.077628836 0.80500001 0.026817232 1.6499643e-38 375 221
0.079040267 0.80500001 0.026817232 1.6498912e-38 376 221
0.08025182 0.80299997 0.026750606 1.6130488e-38 377 221
0.081659742 0.80299997 0.026750606 1.6220871e-38 378 221
0.083274566 0.80500001 0.026817232 1.6036119e-38 379 221
0.084685996 0.80500001 0.026817232 1.5942479e-38 380 221
0.086097427 0.80500001 0.026817232 1.5665892e-38 381 221
0.087508865 0.80500001 0.026817232 1.5205289e-38 382 221
0.088920295 0.80500001 0.026817232 1.4928342e-38 383 221
0.090107299 0.80299997 0.026750606 1.3822763e-38 384 221
0.091515228 0.80299997 0.026750606 1.3822763e-38 385 221
0.092923149 0.80299997 0.026750606 1.3186831e-38 386 221
0.094213605 0.80199999 0.026717292 1.4845992e-38 387 221
0.095619783 0.80199999 0.026717292 1.5399932e-38 388 221
0.039244857 0.829 0.026163239 7.6475303e-39 347 222
0.040502001 0.82499999 0.026036998 8.2957738e-39 348 222
0.041846808 0.82300001 0.025973879 9.4021199e-39 349 222
0.043184597 0.82099998 0.025910759 1.0783236e-38 350 222
0.044624086 0.82099998 0.025910759 1.1336408e-38 351 222
0.045951359 0.81900001 0.02584764 1.2348377e-38 352 222
0.047387339 0.81900001 0.02584764 1.2532768e-38 353 222
0.048823319 0.81900001 0.02584764 1.2350878e-38 354 222
0.0502593 0.81900001 0.02584764 1.2443075e-38 355 222
0.051569037 0.81699997 0.025784519 1.2718583e-38 356 222
0.052871767 0.815 0.025721399 1.2810778e-38 357 222
0.054300729 0.815 0.025721399 1.3086289e-38 358 222
0.055592939 0.81300002 0.02565828 1.3271039e-38 359 222
0.057018399 0.81300002 0.02565828 1.3089163e-38 360 222
0.058300085 0.81099999 0.025595158 1.336575e-38 361 222
0.05972204 0.81099999 0.025595158 1.4288055e-38 362 222
0.061143994 0.81099999 0.025595158 1.4564644e-38 363 222
0.062411651 0.80900002 0.025532039 1.539116e-38 364 222
0.063672297 0.80699998 0.025468919 1.5759943e-38 365 222
0.065087236 0.80699998 0.025468919 1.5669542e-38 366 222
0.066337362 0.80500001 0.025405798 1.5761738e-38 367 222
0.0677488 0.80500001 0.025405798 1.6129802e-38 368 222
0.06916023 0.80500001 0.025405798 1.6314193e-38 369 222
0.070571661 0.80500001 0.025405798 1.6406391e-38 370 222
0.071983099 0.80500001 0.025405798 1.6498587e-38 371 222
0.07339453 0.80500001 0.025405798 1.6774818e-38 372 222
0.074620105 0.80299997 0.025342679 1.6774818e-38 373 222
0.076028034 0.80299997 0.025342679 1.6591503e-38 374 222
0.077435955 0.80299997 0.025342679 1.6591503e-38 375 222
0.078843892 0.80299997 0.025342679 1.6683321e-38 376 222
0.08025182 0.80299997 0.025342679 1.6222345e-38 377 222
0.081659742 0.80299997 0.025342679 1.6313447e-38 378 222
0.08306767 0.80299997 0.025342679 1.6037221e-38 379 222
0.084475599 0.80299997 0.025342679 1.594322e-38 380 222
0.085883521 0.80299997 0.025342679 1.5758829e-38 381 222
0.087508865 0.80500001 0.025405798 1.5481516e-38 382 222
0.088920295 0.80500001 0.025405798 1.5113094e-38 383 222
0.090107299 0.80299997 0.025342679 1.4468468e-38 384 222
0.091515228 0.80299997 0.025342679 1.4099327e-38 385 222
0.092923149 0.80299997 0.025342679 1.2537119e-38 386 222
0.094213605 0.80199999 0.02531112 1.4104445e-38 387 222
0.095619783 0.80199999 0.02531112 1.4940026e-38 388 222
0.097025953 0.80199999 0.02531112 1.5216615e-38 389 222
0.041948497 0.82499999 0.024590498 8.6609648e-39 349 223
0.043184597 0.82099998 0.024471272 8.6663514e-39 350 223
0.044624086 0.82099998 0.024471272 9.8648932e-39 351 223
0.046063572 0.82099998 0.024471272 1.1796296e-38 352 223
0.047387339 0.81900001 0.02441166 1.2165077e-38 353 223
0.048823319 0.81900001 0.02441166 1.2350522e-38 354 223
0.0502593 0.81900001 0.02441166 1.2442719e-38 355 223
0.051569037 0.81699997 0.024352046 1.2718583e-38 356 223
0.052871767 0.815 0.024292432 1.2810778e-38 357 223
0.054300729 0.815 0.024292432 1.2994096e-38 358 223
0.055592939 0.81300002 0.02423282 1.3178488e-38 359 223
0.057018399 0.81300002 0.02423282 1.3362156e-38 360 223
0.058300085 0.81099999 0.024173206 1.3546548e-38 361 223
0.05972204 0.81099999 0.024173206 1.3917845e-38 362 223
0.060993209 0.80900002 0.024113594 1.4379183e-38 363 223
0.062411651 0.80900002 0.024113594 1.4839082e-38 364 223
0.063672297 0.80699998 0.02405398 1.5207865e-38 365 223
0.064925931 0.80500001 0.023994366 1.5485158e-38 366 223
0.066337362 0.80500001 0.023994366 1.5669189e-38 367 223
0.0677488 0.80500001 0.023994366 1.6129446e-38 368 223
0.06916023 0.80500001 0.023994366 1.6221641e-38 369 223
0.070571661 0.80500001 0.023994366 1.6406391e-38 370 223
0.071804255 0.80299997 0.023934752 1.6498587e-38 371 223
0.073212177 0.80299997 0.023934752 1.6682621e-38 372 223
0.074620105 0.80299997 0.023934752 1.6774818e-38 373 223
0.076028034 0.80299997 0.023934752 1.65915e-38 374 223
0.077435955 0.80299997 0.023934752 1.65915e-38 375 223
0.078843892 0.80299997 0.023934752 1.6775165e-38 376 223
0.08025182 0.80299997 0.023934752 1.6498937e-38 377 223
0.081659742 0.80299997 0.023934752 1.6498208e-38 378 223
0.08306767 0.80299997 0.023934752 1.6129785e-38 379 223
0.084475599 0.80299997 0.023934752 1.6127971e-38 380 223
0.085883521 0.80299997 0.023934752 1.594322e-38 381 223
0.087291449 0.80299997 0.023934752 1.5666265e-38 382 223
0.088920295 0.80500001 0.023994366 1.5481872e-38 383 223
0.090107299 0.80299997 0.023934752 1.4927992e-38 384 223
0.091515228 0.80299997 0.023934752 1.4467374e-38 385 223
0.092923149 0.80299997 0.023934752 1.2810799e-38 386 223
0.094331078 0.80299997 0.023934752 1.3732757e-38 387 223
0.095619783 0.80199999 0.023904946 1.383366e-38 388 223
0.097025953 0.80199999 0.023904946 1.4940008e-38 389 223
0.043394998 0.82499999 0.023143999 7.5585717e-39 350 224
0.044732794 0.82300001 0.023087893 8.665278e-39 351 224
0.046063572 0.82099998 0.023031786 1.0140388e-38 352 224
0.047503054 0.82099998 0.023031786 1.1062346e-38 353 224
0.048942544 0.82099998 0.023031786 1.2350544e-38 354 224
0.0502593 0.81900001 0.022975679 1.225799e-38 355 224
0.051569037 0.81699997 0.022919571 1.2351248e-38 356 224
0.052871767 0.815 0.022863466 1.2443443e-38 357 224
0.054300729 0.815 0.022863466 1.299374e-38 358 224
0.055592939 0.81300002 0.02280736 1.299374e-38 359 224
0.057018399 0.81300002 0.02280736 1.3178488e-38 360 224
0.058300085 0.81099999 0.022751253 1.3454716e-38 361 224
0.05972204 0.81099999 0.022751253 1.3456867e-38 362 224
0.060993209 0.80900002 0.022695147 1.3917845e-38 363 224
0.062411651 0.80900002 0.022695147 1.4379536e-38 364 224
0.063672297 0.80699998 0.022639038 1.4840154e-38 365 224
0.064925931 0.80500001 0.022582933 1.5300411e-38 366 224
0.066337362 0.80500001 0.022582933 1.5485161e-38 367 224
0.0677488 0.80500001 0.022582933 1.5761385e-38 368 224
0.06916023 0.80500001 0.022582933 1.5946136e-38 369 224
0.070571661 0.80500001 0.022582933 1.6130527e-38 370 224
0.071804255 0.80299997 0.022526825 1.6314559e-38 371 224
0.073212177 0.80299997 0.022526825 1.6682621e-38 372 224
0.074620105 0.80299997 0.022526825 1.6682621e-38 373 224
0.076028034 0.80299997 0.022526825 1.6500026e-38 374 224
0.077435955 0.80299997 0.022526825 1.6500026e-38 375 224
0.078843892 0.80299997 0.022526825 1.6592209e-38 376 224
0.08025182 0.80299997 0.022526825 1.6499653e-38 377 224
0.081659742 0.80299997 0.022526825 1.6681881e-38 378 224
0.08306767 0.80299997 0.022526825 1.649749e-38 379 224
0.084475599 0.80299997 0.022526825 1.6403845e-38 380 224
0.085883521 0.80299997 0.022526825 1.6127618e-38 381 224
0.087291449 0.80299997 0.022526825 1.566806e-38 382 224
0.088699371 0.80299997 0.022526825 1.5299276e-38 383 224
0.090107299 0.80299997 0.022526825 1.5113807e-38 384 224
0.091515228 0.80299997 0.022526825 1.4745383e-38 385 224
0.092923149 0.80299997 0.022526825 1.3732712e-38 386 224
0.094331078 0.80299997 0.022526825 1.3548321e-38 387 224
0.095619783 0.80199999 0.022498772 1.2817678e-38 388 224
0.097025953 0.80199999 0.022498772 1.4569035e-38 389 224
0.098432131 0.80199999 0.022498772 1.5399564e-38 390 224
0.044950206 0.82700002 0.0217501 8.5698327e-39 351 225
0.046175785 0.82300001 0.0216449 7.5628723e-39 352 225
0.04761878 0.82300001 0.0216449 8.8536111e-39 353 225
0.048942544 0.82099998 0.021592299 1.115346e-38 354 225
0.050382029 0.82099998 0.021592299 1.1891384e-38 355 225
0.05169528 0.81900001 0.021539699 1.2442018e-38 356 225
0.053001508 0.81699997 0.021487098 1.2442018e-38 357 225
0.054300729 0.815 0.021434501 1.3177409e-38 358 225
0.055592939 0.81300002 0.0213819 1.3269604e-38 359 225
0.057018399 0.81300002 0.0213819 1.2995168e-38 360 225
0.058300085 0.81099999 0.021329299 1.317956e-38 361 225
0.05972204 0.81099999 0.021329299 1.3547618e-38 362 225
0.061143994 0.81099999 0.021329299 1.3732009e-38 363 225
0.062565938 0.81099999 0.021329299 1.373453e-38 364 225
0.063672297 0.80699998 0.021224098 1.4564649e-38 365 225
0.064925931 0.80500001 0.021171499 1.4933069e-38 366 225
0.066337362 0.80500001 0.021171499 1.5025625e-38 367 225
0.0677488 0.80500001 0.021171499 1.5761022e-38 368 225
0.06916023 0.80500001 0.021171499 1.5853217e-38 369 225
0.070571661 0.80500001 0.021171499 1.6220925e-38 370 225
0.071804255 0.80299997 0.0211189 1.6313121e-38 371 225
0.073212177 0.80299997 0.0211189 1.6589706e-38 372 225
0.074620105 0.80299997 0.0211189 1.6774098e-38 373 225
0.076028034 0.80299997 0.0211189 1.6499306e-38 374 225
0.077435955 0.80299997 0.0211189 1.6591503e-38 375 225
0.0787457 0.80199999 0.021092599 1.65915e-38 376 225
0.080151878 0.80199999 0.021092599 1.6684054e-38 377 225
0.081558049 0.80199999 0.021092599 1.6774445e-38 378 225
0.082964227 0.80199999 0.021092599 1.6497858e-38 379 225
0.084370397 0.80199999 0.021092599 1.6404574e-38 380 225
0.085776575 0.80199999 0.021092599 1.6220182e-38 381 225
0.087182745 0.80199999 0.021092599 1.5576958e-38 382 225
0.088588916 0.80199999 0.021092599 1.5208176e-38 383 225
0.089995086 0.80199999 0.021092599 1.4839749e-38 384 225
0.091401257 0.80199999 0.021092599 1.4470608e-38 385 225
0.092923149 0.80299997 0.0211189 1.3918534e-38 386 225
0.094331078 0.80299997 0.0211189 1.3641589e-38 387 225
0.095619783 0.80199999 0.021092599 1.2904457e-38 388 225
0.096783996 0.80000001 0.02104 1.4472143e-38 389 225
0.09794119 0.79799998 0.020987399 1.4754548e-38 390 225
0.099340349 0.79799998 0.020987399 1.5399916e-38 391 225
0.049061771 0.82300001 0.020201907 9.2188175e-39 354 226
0.050382029 0.82099998 0.020152811 1.0693949e-38 355 226
0.05169528 0.81900001 0.020103719 1.2167242e-38 356 226
0.053001508 0.81699997 0.020054625 1.2167242e-38 357 226
0.054300729 0.815 0.020005532 1.2718951e-38 358 226
0.055592939 0.81300002 0.01995644 1.2718951e-38 359 226
0.057018399 0.81300002 0.01995644 1.2811503e-38 360 226
0.058300085 0.81099999 0.019907346 1.2903699e-38 361 226
0.05972204 0.81099999 0.019907346 1.2995894e-38 362 226
0.061143994 0.81099999 0.019907346 1.3272122e-38 363 226
0.062411651 0.80900002 0.019858252 1.2908017e-38 364 226
0.063672297 0.80699998 0.019809159 1.3460832e-38 365 226
0.065087236 0.80699998 0.019809159 1.4472098e-38 366 226
0.066337362 0.80500001 0.019760067 1.4933076e-38 367 226
0.0677488 0.80500001 0.019760067 1.5118539e-38 368 226
0.06916023 0.80500001 0.019760067 1.5210735e-38 369 226
0.070396326 0.80299997 0.019710973 1.5669922e-38 370 226
0.071804255 0.80299997 0.019710973 1.5946149e-38 371 226
0.073212177 0.80299997 0.019710973 1.6314211e-38 372 226
0.074620105 0.80299997 0.019710973 1.6314211e-38 373 226
0.075933352 0.80199999 0.019686425 1.6223089e-38 374 226
0.07733953 0.80199999 0.019686425 1.6315643e-38 375 226
0.0787457 0.80199999 0.019686425 1.6500026e-38 376 226
0.080151878 0.80199999 0.019686425 1.6500026e-38 377 226
0.081558049 0.80199999 0.019686425 1.6774798e-38 378 226
0.082964227 0.80199999 0.019686425 1.6590407e-38 379 226
0.084370397 0.80199999 0.019686425 1.68641e-38 380 226
0.085776575 0.80199999 0.019686425 1.6587873e-38 381 226
0.087182745 0.80199999 0.019686425 1.6219431e-38 382 226
0.088588916 0.80199999 0.019686425 1.5943205e-38 383 226
0.089995086 0.80199999 0.019686425 1.5391106e-38 384 226
0.091401257 0.80199999 0.019686425 1.511416e-38 385 226
0.092807434 0.80199999 0.019686425 1.4377339e-38 386 226
0.094331078 0.80299997 0.019710973 1.4285143e-38 387 226
0.095619783 0.80199999 0.019686425 1.2718245e-38 388 226
0.096783996 0.80000001 0.019637333 1.3732757e-38 389 226
0.09794119 0.79799998 0.019588239 1.3924058e-38 390 226
0.099340349 0.79799998 0.019588239 1.5122601e-38 391 226
0.050504766 0.82300001 0.018758914 9.1215716e-39 355 227
0.05169528 0.81900001 0.018667741 9.7741283e-39 356 227
0.053001508 0.81699997 0.018622151 1.1157063e-38 357 227
0.054300729 0.815 0.018576566 1.2625687e-38 358 227
0.055592939 0.81300002 0.01853098 1.2810078e-38 359 227
0.057018399 0.81300002 0.01853098 1.2810784e-38 360 227
0.058300085 0.81099999 0.018485393 1.2994815e-38 361 227
0.05972204 0.81099999 0.018485393 1.2994812e-38 362 227
0.061143994 0.81099999 0.018485393 1.3179204e-38 363 227
0.062411651 0.80900002 0.018439807 1.2996612e-38 364 227
0.063672297 0.80699998 0.018394221 1.3549784e-38 365 227
0.065087236 0.80699998 0.018394221 1.4377747e-38 366 227
0.066337362 0.80500001 0.018348632 1.4746889e-38 367 227
0.0677488 0.80500001 0.018348632 1.5024904e-38 368 227
0.06916023 0.80500001 0.018348632 1.5208937e-38 369 227
0.070396326 0.80299997 0.018303044 1.5944337e-38 370 227
0.071804255 0.80299997 0.018303044 1.6036532e-38 371 227
0.073212177 0.80299997 0.018303044 1.6220925e-38 372 227
0.074527182 0.80199999 0.018280253 1.6589706e-38 373 227
0.075933352 0.80199999 0.018280253 1.6314561e-38 374 227
0.07733953 0.80199999 0.018280253 1.6498953e-38 375 227
0.0787457 0.80199999 0.018280253 1.659115e-38 376 227
0.079952002 0.80000001 0.018234666 1.6683345e-38 377 227
0.08135467 0.80000001 0.018234666 1.6774818e-38 378 227
0.082757331 0.80000001 0.018234666 1.6682621e-38 379 227
0.08416 0.80000001 0.018234666 1.6589701e-38 380 227
0.085562661 0.80000001 0.018234666 1.6313474e-38 381 227
0.086965337 0.80000001 0.018234666 1.5853921e-38 382 227
0.088367999 0.80000001 0.018234666 1.548478e-38 383 227
0.089770667 0.80000001 0.018234666 1.5207826e-38 384 227
0.091173328 0.80000001 0.018234666 1.4654652e-38 385 227
0.092575997 0.80000001 0.018234666 1.4378785e-38 386 227
0.094213605 0.80199999 0.018280253 1.3918166e-38 387 227
0.095619783 0.80199999 0.018280253 1.3639816e-38 388 227
0.096783996 0.80000001 0.018234666 1.354762e-38 389 227
0.098186664 0.80000001 0.018234666 1.2541459e-38 390 227
0.099589325 0.80000001 0.018234666 1.4477567e-38 391 227
0.053261004 0.82099998 0.017273838 9.956014e-39 357 228
0.054433983 0.81699997 0.01718968 1.1246365e-38 358 228
0.055592939 0.81300002 0.01710552 1.1891734e-38 359 228
0.057018399 0.81300002 0.01710552 1.2626405e-38 360 228
0.058300085 0.81099999 0.017063441 1.2718601e-38 361 228
0.05972204 0.81099999 0.017063441 1.2718954e-38 362 228
0.061143994 0.81099999 0.017063441 1.281115e-38 363 228
0.062411651 0.80900002 0.01702136 1.2811147e-38 364 228
0.063830093 0.80900002 0.01702136 1.3272125e-38 365 228
0.065087236 0.80699998 0.016979279 1.3641617e-38 366 228
0.066337362 0.80500001 0.0169372 1.4102236e-38 367 228
0.0677488 0.80500001 0.0169372 1.4563211e-38 368 228
0.06916023 0.80500001 0.0169372 1.4932353e-38 369 228
0.070396326 0.80299997 0.016895119 1.5208581e-38 370 228
0.071804255 0.80299997 0.016895119 1.5393331e-38 371 228
0.073212177 0.80299997 0.016895119 1.5853586e-38 372 228
0.074527182 0.80199999 0.016874079 1.6037979e-38 373 228
0.075933352 0.80199999 0.016874079 1.640676e-38 374 228
0.07733953 0.80199999 0.016874079 1.640676e-38 375 228
0.078549333 0.80000001 0.016832 1.631564e-38 376 228
0.079952002 0.80000001 0.016832 1.6591868e-38 377 228
0.08135467 0.80000001 0.016832 1.6591503e-38 378 228
0.082757331 0.80000001 0.016832 1.6591503e-38 379 228
0.08416 0.80000001 0.016832 1.6774801e-38 380 228
0.085562661 0.80000001 0.016832 1.659041e-38 381 228
0.086965337 0.80000001 0.016832 1.640528e-38 382 228
0.088147074 0.79799998 0.016789921 1.6036139e-38 383 228
0.089546233 0.79799998 0.016789921 1.5758463e-38 384 228
0.090945393 0.79799998 0.016789921 1.5481516e-38 385 228
0.092344552 0.79799998 0.016789921 1.4654636e-38 386 228
0.093978666 0.80000001 0.016832 1.4285494e-38 387 228
0.095381334 0.80000001 0.016832 1.4008932e-38 388 228
0.096542038 0.79799998 0.016789921 1.3455758e-38 389 228
0.09794119 0.79799998 0.016789921 1.2904459e-38 390 228
0.099340349 0.79799998 0.016789921 1.4840568e-38 391 228
0.054833744 0.82300001 0.015872927 9.7730479e-39 358 229
0.055866458 0.81699997 0.015757205 1.0787201e-38 359 229
0.057158664 0.815 0.015718633 1.2532782e-38 360 229
0.058443859 0.81300002 0.01568006 1.2717532e-38 361 229
0.05972204 0.81099999 0.015641484 1.26264e-38 362 229
0.061143994 0.81099999 0.015641484 1.2718954e-38 363 229
0.062565938 0.81099999 0.015641484 1.2811503e-38 364 229
0.063830093 0.80900002 0.015602913 1.2995894e-38 365 229
0.065087236 0.80699998 0.015564339 1.345687e-38 366 229
0.066337362 0.80500001 0.015525767 1.3733458e-38 367 229
0.0677488 0.80500001 0.015525767 1.4194785e-38 368 229
0.068988405 0.80299997 0.015487193 1.4655763e-38 369 229
0.070396326 0.80299997 0.015487193 1.5116015e-38 370 229
0.071804255 0.80299997 0.015487193 1.5300767e-38 371 229
0.073121011 0.80199999 0.015467905 1.5944337e-38 372 229
0.074527182 0.80199999 0.015467905 1.6220925e-38 373 229
0.075933352 0.80199999 0.015467905 1.631384e-38 374 229
0.077146664 0.80000001 0.015429333 1.649859e-38 375 229
0.078549333 0.80000001 0.015429333 1.6499306e-38 376 229
0.079952002 0.80000001 0.015429333 1.6683698e-38 377 229
0.081151277 0.79799998 0.015390759 1.6592224e-38 378 229
0.082550429 0.79799998 0.015390759 1.6592224e-38 379 229
0.083949596 0.79799998 0.015390759 1.6591506e-38 380 229
0.085348755 0.79799998 0.015390759 1.6406754e-38 381 229
0.086747915 0.79799998 0.015390759 1.6497139e-38 382 229
0.088147074 0.79799998 0.015390759 1.6220192e-38 383 229
0.089546233 0.79799998 0.015390759 1.5850318e-38 384 229
0.090945393 0.79799998 0.015390759 1.5297503e-38 385 229
0.092344552 0.79799998 0.015390759 1.4930866e-38 386 229
0.093743719 0.79799998 0.015390759 1.4377692e-38 387 229
0.095142879 0.79799998 0.015390759 1.4285143e-38 388 229
0.096542038 0.79799998 0.015390759 1.3824167e-38 389 229
0.09794119 0.79799998 0.015390759 1.3087754e-38 390 229
0.099340349 0.79799998 0.015390759 1.4378492e-38 391 229
0.10073951 0.79799998 0.015390759 1.4199572e-38 392 229
0.057158664 0.815 0.014289666 1.124673e-38 360 230
0.058443859 0.81300002 0.0142546 1.1523676e-38 361 230
0.059869319 0.81300002 0.0142546 1.234982e-38 362 230
0.061143994 0.81099999 0.014219533 1.2626405e-38 363 230
0.062565938 0.81099999 0.014219533 1.2535636e-38 364 230
0.063830093 0.80900002 0.014184467 1.2627832e-38 365 230
0.065087236 0.80699998 0.014149399 1.2996965e-38 366 230
0.066337362 0.80500001 0.014114333 1.3181356e-38 367 230
0.0677488 0.80500001 0.014114333 1.355049e-38 368 230
0.068988405 0.80299997 0.014079265 1.3827079e-38 369 230
0.070396326 0.80299997 0.014079265 1.4380971e-38 370 230
0.071804255 0.80299997 0.014079265 1.4750112e-38 371 230
0.073121011 0.80199999 0.014061732 1.5759234e-38 372 230
0.074341334 0.80000001 0.014026666 1.6036179e-38 373 230
0.075743996 0.80000001 0.014026666 1.6221644e-38 374 230
0.077146664 0.80000001 0.014026666 1.631384e-38 375 230
0.078352958 0.79799998 0.013991599 1.6406388e-38 376 230
0.079752117 0.79799998 0.013991599 1.6775171e-38 377 230
0.081151277 0.79799998 0.013991599 1.6774815e-38 378 230
0.082550429 0.79799998 0.013991599 1.6867011e-38 379 230
0.083949596 0.79799998 0.013991599 1.6683701e-38 380 230
0.085348755 0.79799998 0.013991599 1.6499309e-38 381 230
0.086747915 0.79799998 0.013991599 1.6589701e-38 382 230
0.088147074 0.79799998 0.013991599 1.6221278e-38 383 230
0.089546233 0.79799998 0.013991599 1.6035435e-38 384 230
0.090945393 0.79799998 0.013991599 1.5482261e-38 385 230
0.092344552 0.79799998 0.013991599 1.4839396e-38 386 230
0.093743719 0.79799998 0.013991599 1.4470255e-38 387 230
0.095142879 0.79799998 0.013991599 1.4377339e-38 388 230
0.096542038 0.79799998 0.013991599 1.3916362e-38 389 230
0.09794119 0.79799998 0.013991599 1.3088094e-38 390 230
0.099340349 0.79799998 0.013991599 1.3548712e-38 391 230
0.10073951 0.79799998 0.013991599 1.3002451e-38 392 230
0.058443859 0.81300002 0.01282914 1.0970148e-38 361 231
0.059869319 0.81300002 0.01282914 1.2258343e-38 362 231
0.061143994 0.81099999 0.012797579 1.2535289e-38 363 231
0.062565938 0.81099999 0.012797579 1.244416e-38 364 231
0.063830093 0.80900002 0.012766019 1.2536355e-38 365 231
0.065087236 0.80699998 0.01273446 1.2996245e-38 366 231
0.066337362 0.80500001 0.012702899 1.3088442e-38 367 231
0.0677488 0.80500001 0.012702899 1.3272473e-38 368 231
0.068988405 0.80299997 0.012671339 1.3549418e-38 369 231
0.070396326 0.80299997 0.012671339 1.3919999e-38 370 231
0.071714841 0.80199999 0.01265556 1.4657564e-38 371 231
0.073121011 0.80199999 0.01265556 1.5483729e-38 372 231
0.074341334 0.80000001 0.012624 1.5760316e-38 373 231
0.075743996 0.80000001 0.012624 1.585323e-38 374 231
0.077146664 0.80000001 0.012624 1.6037981e-38 375 231
0.078352958 0.79799998 0.012592439 1.6406035e-38 376 231
0.079752117 0.79799998 0.012592439 1.6682621e-38 377 231
0.081151277 0.79799998 0.012592439 1.6591506e-38 378 231
0.082550429 0.79799998 0.012592439 1.6683701e-38 379 231
0.083949596 0.79799998 0.012592439 1.6774462e-38 380 231
0.085348755 0.79799998 0.012592439 1.6682265e-38 381 231
0.086747915 0.79799998 0.012592439 1.6589703e-38 382 231
0.088147074 0.79799998 0.012592439 1.6220922e-38 383 231
0.089546233 0.79799998 0.012592439 1.6127987e-38 384 231
0.090945393 0.79799998 0.012592439 1.5667009e-38 385 231
0.092344552 0.79799998 0.012592439 1.5114552e-38 386 231
0.093743719 0.79799998 0.012592439 1.4746129e-38 387 231
0.095142879 0.79799998 0.012592439 1.4468463e-38 388 231
0.096542038 0.79799998 0.012592439 1.4191876e-38 389 231
0.09794119 0.79799998 0.012592439 1.3455402e-38 390 231
0.099340349 0.79799998 0.012592439 1.2994784e-38 391 231
0.10073951 0.79799998 0.012592439 1.2355969e-38 392 231
0.059869319 0.81300002 0.01140368 1.1431475e-38 362 232
0.061294779 0.81300002 0.01140368 1.1708422e-38 363 232
0.062565938 0.81099999 0.011375627 1.2626756e-38 364 232
0.063830093 0.80900002 0.011347573 1.2811147e-38 365 232
0.065087236 0.80699998 0.011319519 1.3087361e-38 366 232
0.066337362 0.80500001 0.011291467 1.3179557e-38 367 232
0.0677488 0.80500001 0.011291467 1.3364303e-38 368 232
0.068988405 0.80299997 0.011263412 1.3733084e-38 369 232
0.070396326 0.80299997 0.011263412 1.4102586e-38 370 232
0.071714841 0.80199999 0.011249386 1.465576e-38 371 232
0.073121011 0.80199999 0.011249386 1.539081e-38 372 232
0.074341334 0.80000001 0.011221333 1.5759234e-38 373 232
0.075743996 0.80000001 0.011221333 1.5853217e-38 374 232
0.076953799 0.79799998 0.011193279 1.6129446e-38 375 232
0.078156583 0.796 0.011165227 1.6313474e-38 376 232
0.079552241 0.796 0.011165227 1.6589701e-38 377 232
0.080947891 0.796 0.011165227 1.6498587e-38 378 232
0.082343549 0.796 0.011165227 1.6682618e-38 379 232
0.083739199 0.796 0.011165227 1.6774462e-38 380 232
0.085134849 0.796 0.011165227 1.6682265e-38 381 232
0.086530507 0.796 0.011165227 1.6406038e-38 382 232
0.087926157 0.796 0.011165227 1.6221647e-38 383 232
0.089321814 0.796 0.011165227 1.6036886e-38 384 232
0.090717465 0.796 0.011165227 1.5575909e-38 385 232
0.092344552 0.79799998 0.011193279 1.5024523e-38 386 232
0.093743719 0.79799998 0.011193279 1.4563904e-38 387 232
0.095142879 0.79799998 0.011193279 1.4378791e-38 388 232
0.096542038 0.79799998 0.011193279 1.3917813e-38 389 232
0.09794119 0.79799998 0.011193279 1.3548671e-38 390 232
0.099340349 0.79799998 0.011193279 1.3088052e-38 391 232
0.10073951 0.79799998 0.011193279 1.2630015e-38 392 232
0.060163878 0.81699997 0.010027313 1.0509891e-38 362 233
0.061294779 0.81300002 0.0099782199 1.1155261e-38 363 233
0.062565938 0.81099999 0.009953673 1.1525097e-38 364 233
0.063830093 0.80900002 0.0099291261 1.1801684e-38 365 233
0.065087236 0.80699998 0.0099045793 1.2628188e-38 366 233
0.066337362 0.80500001 0.0098800333 1.2904415e-38 367 233
0.0677488 0.80500001 0.0098800333 1.3088807e-38 368 233
0.068988405 0.80299997 0.0098554865 1.3273557e-38 369 233
0.070396326 0.80299997 0.0098554865 1.3366836e-38 370 233
0.071714841 0.80199999 0.0098432126 1.3828173e-38 371 233
0.073121011 0.80199999 0.0098432126 1.4747959e-38 372 233
0.074341334 0.80000001 0.0098186666 1.493235e-38 373 233
0.075743996 0.80000001 0.0098186666 1.5393325e-38 374 233
0.076760925 0.796 0.0097695729 1.5670271e-38 375 233
0.078156583 0.796 0.0097695729 1.585395e-38 376 233
0.079552241 0.796 0.0097695729 1.60387e-38 377 233
0.080947891 0.796 0.0097695729 1.6406404e-38 378 233
0.082343549 0.796 0.0097695729 1.6498599e-38 379 233
0.083528802 0.79400003 0.0097450269 1.6591152e-38 380 233
0.08492095 0.79400003 0.0097450269 1.640676e-38 381 233
0.086530507 0.796 0.0097695729 1.6497158e-38 382 233
0.087926157 0.796 0.0097695729 1.6128375e-38 383 233
0.089321814 0.796 0.0097695729 1.5944331e-38 384 233
0.090717465 0.796 0.0097695729 1.5575909e-38 385 233
0.092113115 0.796 0.0097695729 1.5300374e-38 386 233
0.093508773 0.796 0.0097695729 1.4931592e-38 387 233
0.094904423 0.796 0.0097695729 1.4654636e-38 388 233
0.096300073 0.796 0.0097695729 1.4377689e-38 389 233
0.097695731 0.796 0.0097695729 1.4008917e-38 390 233
0.099091381 0.796 0.0097695729 1.3639774e-38 391 233
0.10048704 0.796 0.0097695729 1.2810078e-38 392 233
0.06144556 0.815 0.0085737994 1.0785405e-38 363 234
0.062565938 0.81099999 0.0085317204 1.161514e-38 364 234
0.063830093 0.80900002 0.0085106799 1.1892087e-38 365 234
0.065087236 0.80699998 0.0084896395 1.28115e-38 366 234
0.066337362 0.80500001 0.0084686 1.2903696e-38 367 234
0.0677488 0.80500001 0.0084686 1.3088442e-38 368 234
0.068988405 0.80299997 0.0084475596 1.3272473e-38 369 234
0.070396326 0.80299997 0.0084475596 1.3640538e-38 370 234
0.071714841 0.80199999 0.0084370393 1.3917126e-38 371 234
0.073121011 0.80199999 0.0084370393 1.4380252e-38 372 234
0.074341334 0.80000001 0.0084159998 1.4656839e-38 373 234
0.075554639 0.79799998 0.0083949603 1.5484076e-38 374 234
0.076760925 0.796 0.0083739199 1.5761022e-38 375 234
0.078156583 0.796 0.0083739199 1.6036895e-38 376 234
0.079352364 0.79400003 0.0083528794 1.6221647e-38 377 234
0.080744505 0.79400003 0.0083528794 1.6497155e-38 378 234
0.082136653 0.79400003 0.0083528794 1.658935e-38 379 234
0.083528802 0.79400003 0.0083528794 1.6498234e-38 380 234
0.08492095 0.79400003 0.0083528794 1.6313842e-38 381 234
0.086313091 0.79400003 0.0083528794 1.6310971e-38 382 234
0.08770524 0.79400003 0.0083528794 1.6218776e-38 383 234
0.089097388 0.79400003 0.0083528794 1.5851069e-38 384 234
0.090489529 0.79400003 0.0083528794 1.5758515e-38 385 234
0.092113115 0.796 0.0083739199 1.5208564e-38 386 234
0.093508773 0.796 0.0083739199 1.4747946e-38 387 234
0.094904423 0.796 0.0083739199 1.4746141e-38 388 234
0.096300073 0.796 0.0083739199 1.4469554e-38 389 234
0.097695731 0.796 0.0083739199 1.3917106e-38 390 234
0.099091381 0.796 0.0083739199 1.364052e-38 391 234
0.10048704 0.796 0.0083739199 1.3453998e-38 392 234
0.062720239 0.81300002 0.0071272999 1.0970148e-38 364 235
0.063987896 0.81099999 0.0071097664 1.1431124e-38 365 235
0.064925931 0.80500001 0.0070571667 1.1800238e-38 366 235
0.066337362 0.80500001 0.0070571667 1.2261216e-38 367 235
0.067580476 0.80299997 0.0070396326 1.2721102e-38 368 235
0.068988405 0.80299997 0.0070396326 1.2813299e-38 369 235
0.070396326 0.80299997 0.0070396326 1.3271769e-38 370 235
0.071714841 0.80199999 0.0070308661 1.3548715e-38 371 235
0.073121011 0.80199999 0.0070308661 1.428663e-38 372 235
0.074341334 0.80000001 0.007013333 1.4655413e-38 373 235
0.075554639 0.79799998 0.0069957995 1.5208214e-38 374 235
0.076760925 0.796 0.0069782664 1.5485161e-38 375 235
0.078156583 0.796 0.0069782664 1.5761034e-38 376 235
0.079352364 0.79400003 0.0069607338 1.6037981e-38 377 235
0.080541119 0.792 0.0069431998 1.6314561e-38 378 235
0.081929758 0.792 0.0069431998 1.6314561e-38 379 235
0.083318397 0.792 0.0069431998 1.6406038e-38 380 235
0.084707037 0.792 0.0069431998 1.6036895e-38 381 235
0.086095676 0.792 0.0069431998 1.5757802e-38 382 235
0.087484315 0.792 0.0069431998 1.5296463e-38 383 235
0.088872954 0.792 0.0069431998 1.4839088e-38 384 235
0.090489529 0.79400003 0.0069607338 1.5207512e-38 385 235
0.091881685 0.79400003 0.0069607338 1.5297893e-38 386 235
0.093508773 0.796 0.0069782664 1.5205697e-38 387 235
0.094904423 0.796 0.0069782664 1.4929807e-38 388 235
0.096300073 0.796 0.0069782664 1.465358e-38 389 235
0.097695731 0.796 0.0069782664 1.4284443e-38 390 235
0.099091381 0.796 0.0069782664 1.4007857e-38 391 235
0.10023456 0.79400003 0.0069607338 1.3454333e-38 392 235
0.10162671 0.79400003 0.0069607338 1.3177746e-38 393 235
0.064925931 0.80500001 0.0056457333 1.1339983e-38 366 236
0.066337362 0.80500001 0.0056457333 1.1985352e-38 367 236
0.067580476 0.80299997 0.0056317062 1.2904412e-38 368 236
0.068988405 0.80299997 0.0056317062 1.2996968e-38 369 236
0.070308663 0.80199999 0.0056246929 1.3363952e-38 370 236
0.071714841 0.80199999 0.0056246929 1.3640538e-38 371 236
0.072938666 0.80000001 0.0056106667 1.4102236e-38 372 236
0.074155472 0.79799998 0.0055966396 1.465541e-38 373 236
0.075365283 0.796 0.0055826134 1.5207142e-38 374 236
0.076760925 0.796 0.0055826134 1.566812e-38 375 236
0.078156583 0.796 0.0055826134 1.5761388e-38 376 236
0.079352364 0.79400003 0.0055685868 1.594578e-38 377 236
0.080541119 0.792 0.0055545596 1.6130525e-38 378 236
0.081929758 0.792 0.0055545596 1.6130525e-38 379 236
0.083318397 0.792 0.0055545596 1.6496436e-38 380 236
0.084707037 0.792 0.0055545596 1.5943262e-38 381 236
0.086095676 0.792 0.0055545596 1.4744369e-38 382 236
0.087484315 0.792 0.0055545596 1.3914608e-38 383 236
0.088872954 0.792 0.0055545596 1.4009687e-38 384 236
0.090261593 0.792 0.0055545596 1.437883e-38 385 236
0.091650233 0.792 0.0055545596 1.5205344e-38 386 236
0.093273826 0.79400003 0.0055685868 1.5205344e-38 387 236
0.094665974 0.79400003 0.0055685868 1.4838342e-38 388 236
0.096058123 0.79400003 0.0055685868 1.4561397e-38 389 236
0.097695731 0.796 0.0055826134 1.4192973e-38 390 236
0.099091381 0.796 0.0055826134 1.3916027e-38 391 236
0.10023456 0.79400003 0.0055685868 1.3639798e-38 392 236
0.10162671 0.79400003 0.0055685868 1.2994428e-38 393 236
0.066337362 0.80500001 0.0042343 1.1983927e-38 367 237
0.0677488 0.80500001 0.0042343 1.2628907e-38 368 237
0.068902493 0.80199999 0.0042185197 1.2813299e-38 369 237
0.070308663 0.80199999 0.0042185197 1.3364674e-38 370 237
0.071535997 0.80000001 0.0042079999 1.345687e-38 371 237
0.072938666 0.80000001 0.0042079999 1.4100438e-38 372 237
0.074155472 0.79799998 0.0041974802 1.4745808e-38 373 237
0.075365283 0.796 0.0041869599 1.493235e-38 374 237
0.076568067 0.79400003 0.0041764397 1.5208937e-38 375 237
0.077960216 0.79400003 0.0041764397 1.576139e-38 376 237
0.07915248 0.792 0.00416592 1.5945783e-38 377 237
0.080541119 0.792 0.00416592 1.6038332e-38 378 237
0.081722863 0.79000002 0.0041554002 1.6038332e-38 379 237
0.083108 0.79000002 0.0041554002 1.6588278e-38 380 237
0.084493138 0.79000002 0.0041554002 1.5574125e-38 381 237
0.08587826 0.79000002 0.0041554002 1.437523e-38 382 237
0.087263398 0.79000002 0.0041554002 1.3176687e-38 383 237
0.088648535 0.79000002 0.0041554002 1.3178844e-38 384 237
0.090033665 0.79000002 0.0041554002 1.3823854e-38 385 237
0.091418803 0.79000002 0.0041554002 1.4470298e-38 386 237
0.093038872 0.792 0.00416592 1.4654691e-38 387 237
0.094427519 0.792 0.00416592 1.4653595e-38 388 237
0.095816158 0.792 0.00416592 1.45614e-38 389 237
0.097450264 0.79400003 0.0041764397 1.419297e-38 390 237
0.098842412 0.79400003 0.0041764397 1.3916383e-38 391 237
0.10023456 0.79400003 0.0041764397 1.3639801e-38 392 237
0.10162671 0.79400003 0.0041764397 1.2994431e-38 393 237
0.10301885 0.79400003 0.0041764397 1.2812264e-38 394 237
0.066337362 0.80500001 0.0028228667 1.1340375e-38 367 238
0.0677488 0.80500001 0.0028228667 1.2077548e-38 368 238
0.068902493 0.80199999 0.0028123464 1.2354495e-38 369 238
0.070308663 0.80199999 0.0028123464 1.3181006e-38 370 238
0.071535997 0.80000001 0.0028053334 1.3273201e-38 371 238
0.072756313 0.79799998 0.0027983198 1.3916773e-38 372 238
0.073969625 0.796 0.0027913067 1.437775e-38 373 238
0.075365283 0.796 0.0027913067 1.4839807e-38 374 238
0.076568067 0.79400003 0.0027842934 1.5024199e-38 375 238
0.077763841 0.792 0.0027772798 1.5668486e-38 376 238
0.078952603 0.79000002 0.0027702667 1.5853237e-38 377 238
0.080337733 0.79000002 0.0027702667 1.594578e-38 378 238
0.081722863 0.79000002 0.0027702667 1.594578e-38 379 238
0.083108 0.79000002 0.0027702667 1.640352e-38 380 238
0.084493138 0.79000002 0.0027702667 1.5296814e-38 381 238
0.08587826 0.79000002 0.0027702667 1.3914608e-38 382 238
0.087263398 0.79000002 0.0027702667 1.2531673e-38 383 238
0.088648535 0.79000002 0.0027702667 1.2716065e-38 384 238
0.090033665 0.79000002 0.0027702667 1.2992291e-38 385 238
0.091418803 0.79000002 0.0027702667 1.4100438e-38 386 238
0.092803933 0.79000002 0.0027702667 1.4561775e-38 387 238
0.094427519 0.792 0.0027772798 1.4377734e-38 388 238
0.095816158 0.792 0.0027772798 1.4285539e-38 389 238
0.097450264 0.79400003 0.0027842934 1.4100777e-38 390 238
0.098842412 0.79400003 0.0027842934 1.3916027e-38 391 238
0.10023456 0.79400003 0.0027842934 1.3730913e-38 392 238
0.10162671 0.79400003 0.0027842934 1.3178099e-38 393 238
0.10301885 0.79400003 0.0027842934 1.2902656e-38 394 238
0.068988405 0.80299997 0.0014079266 1.2444891e-38 369 239
0.070308663 0.80199999 0.0014061732 1.3272478e-38 370 239
0.071535997 0.80000001 0.0014026667 1.3549065e-38 371 239
0.072573967 0.796 0.0013956534 1.3916759e-38 372 239
0.073969625 0.796 0.0013956534 1.4562128e-38 373 239
0.075175926 0.79400003 0.0013921467 1.4838712e-38 374 239
0.076375201 0.792 0.0013886399 1.5391526e-38 375 239
0.077763841 0.792 0.0013886399 1.5668473e-38 376 239
0.078952603 0.79000002 0.0013851334 1.5852864e-38 377 239
0.080337733 0.79000002 0.0013851334 1.6128375e-38 378 239
0.081722863 0.79000002 0.0013851334 1.6220572e-38 379 239
0.083108 0.79000002 0.0013851334 1.5852511e-38 380 239
0.084493138 0.79000002 0.0013851334 1.4377381e-38 381 239
0.085769556 0.78899997 0.0013833799 1.3544752e-38 382 239
0.087152928 0.78899997 0.0013833799 1.2254013e-38 383 239
0.088536315 0.78899997 0.0013833799 1.3355319e-38 384 239
0.090033665 0.79000002 0.0013851334 1.3447516e-38 385 239
0.091418803 0.79000002 0.0013851334 1.3456857e-38 386 239
0.092803933 0.79000002 0.0013851334 1.4102226e-38 387 239
0.094189063 0.79000002 0.0013851334 1.4468132e-38 388 239
0.0955742 0.79000002 0.0013851334 1.4560328e-38 389 239
0.097204797 0.792 0.0013886399 1.4100421e-38 390 239
0.098842412 0.79400003 0.0013921467 1.4008226e-38 391 239
0.10023456 0.79400003 0.0013921467 1.3639448e-38 392 239
0.10162671 0.79400003 0.0013921467 1.3270305e-38 393 239
0.10327834 0.796 0.0013956534 1.2902292e-38 394 239
0.104674 0.796 0.0013956534 1.4100835e-38 395 239
0.068730667 0.80000001 -0 1.2720047e-38 369 240
0.070133328 0.80000001 -0 1.3088807e-38 370 240
0.071357153 0.79799998 -0 1.3273557e-38 371 240
0.072573967 0.796 -0 1.3641631e-38 372 240
0.073969625 0.796 -0 1.3918576e-38 373 240
0.075175926 0.79400003 -0 1.4471747e-38 374 240
0.076375201 0.792 -0 1.484017e-38 375 240
0.077763841 0.792 -0 1.5300782e-38 376 240
0.078952603 0.79000002 -0 1.5485173e-38 377 240
0.080337733 0.79000002 -0 1.5670274e-38 378 240
0.081722863 0.79000002 -0 1.5577719e-38 379 240
0.083108 0.79000002 -0 1.603546e-38 380 240
0.084493138 0.79000002 -0 1.4283383e-38 381 240
0.085769556 0.78899997 -0 1.2991222e-38 382 240
0.087152928 0.78899997 -0 1.2069266e-38 383 240
0.088536315 0.78899997 -0 1.2253657e-38 384 240
0.089919694 0.78899997 -0 1.2345853e-38 385 240
0.091303073 0.78899997 -0 1.3915677e-38 386 240
0.092686452 0.78899997 -0 1.4100068e-38 387 240
0.094189063 0.79000002 -0 1.4285889e-38 388 240
0.0955742 0.79000002 -0 1.4193693e-38 389 240
0.096959338 0.79000002 -0 1.428409e-38 390 240
0.098593436 0.792 -0 1.4007504e-38 391 240
0.099982075 0.792 -0 1.4005722e-38 392 240
0.10137071 0.792 -0 1.3729494e-38 393 240
0.10327834 0.796 -0 1.2809021e-38 394 240
0.104674 0.796 -0 1.3269999e-38 395 240
0.070133328 0.80000001 -0.0014026667 1.2812949e-38 370 241
0.071357153 0.79799998 -0.0013991599 1.3181371e-38 371 241
0.072573967 0.796 -0.0013956534 1.3733108e-38 372 241
0.073969625 0.796 -0.0013956534 1.4194084e-38 373 241
0.075175926 0.79400003 -0.0013921467 1.4746889e-38 374 241
0.076375201 0.792 -0.0013886399 1.5023116e-38 375 241
0.077763841 0.792 -0.0013886399 1.5483726e-38 376 241
0.078952603 0.79000002 -0.0013851334 1.5668117e-38 377 241
0.080337733 0.79000002 -0.0013851334 1.5668839e-38 378 241
0.081722863 0.79000002 -0.0013851334 1.5945786e-38 379 241
0.083108 0.79000002 -0.0013851334 1.6035826e-38 380 241
0.08438617 0.78899997 -0.0013833799 1.3823131e-38 381 241
0.085769556 0.78899997 -0.0013833799 1.2438051e-38 382 241
0.087152928 0.78899997 -0.0013833799 1.1423541e-38 383 241
0.088536315 0.78899997 -0.0013833799 1.2343702e-38 384 241
0.089919694 0.78899997 -0.0013833799 1.2712845e-38 385 241
0.091303073 0.78899997 -0.0013833799 1.4375583e-38 386 241
0.092686452 0.78899997 -0.0013833799 1.465217e-38 387 241
0.094189063 0.79000002 -0.0013851334 1.4285889e-38 388 241
0.0955742 0.79000002 -0.0013851334 1.4285889e-38 389 241
0.096959338 0.79000002 -0.0013851334 1.4101493e-38 390 241
0.09834446 0.79000002 -0.0013851334 1.3825267e-38 391 241
0.099982075 0.792 -0.0013886399 1.3639803e-38 392 241
0.10137071 0.792 -0.0013886399 1.3455052e-38 393 241
0.10301885 0.79400003 -0.0013921467 1.299339e-38 394 241
0.104674 0.796 -0.0013956534 1.2532771e-38 395 241
0.070133328 0.80000001 -0.0028053334 1.2444902e-38 370 242
0.071357153 0.79799998 -0.0027983198 1.2905879e-38 371 242
0.072573967 0.796 -0.0027913067 1.3457965e-38 372 242
0.073969625 0.796 -0.0027913067 1.3826746e-38 373 242
0.075175926 0.79400003 -0.0027842934 1.4562508e-38 374 242
0.076375201 0.792 -0.0027772798 1.4747258e-38 375 242
0.077567466 0.79000002 -0.0027702667 1.5024199e-38 376 242
0.078952603 0.79000002 -0.0027702667 1.5392981e-38 377 242
0.080337733 0.79000002 -0.0027702667 1.5668486e-38 378 242
0.081619412 0.78899997 -0.0027667598 1.5853237e-38 379 242
0.083002798 0.78899997 -0.0027667598 1.5759962e-38 380 242
0.08438617 0.78899997 -0.0027667598 1.3271039e-38 381 242
0.085769556 0.78899997 -0.0027667598 1.1792686e-38 382 242
0.087152928 0.78899997 -0.0027667598 1.040975e-38 383 242
0.088536315 0.78899997 -0.0027667598 1.1055487e-38 384 242
0.089919694 0.78899997 -0.0027667598 1.2254029e-38 385 242
0.091303073 0.78899997 -0.0027667598 1.4191921e-38 386 242
0.092686452 0.78899997 -0.0027667598 1.4744734e-38 387 242
0.094069831 0.78899997 -0.0027667598 1.4561044e-38 388 242
0.09545321 0.78899997 -0.0027667598 1.4468848e-38 389 242
0.096836597 0.78899997 -0.0027667598 1.4376638e-38 390 242
0.09834446 0.79000002 -0.0027702667 1.4100053e-38 391 242
0.099729598 0.79000002 -0.0027702667 1.382311e-38 392 242
0.10111474 0.79000002 -0.0027702667 1.3454686e-38 393 242
0.10275935 0.792 -0.0027772798 1.2994094e-38 394 242
0.104148 0.792 -0.0027772798 1.2256528e-38 395 242
0.070308663 0.80199999 -0.0042185197 1.226124e-38 370 243
0.071178317 0.796 -0.0041869599 1.2814412e-38 371 243
0.072573967 0.796 -0.0041869599 1.3457968e-38 372 243
0.07378377 0.79400003 -0.0041764397 1.3826391e-38 373 243
0.074986562 0.792 -0.00416592 1.4287e-38 374 243
0.076375201 0.792 -0.00416592 1.4471391e-38 375 243
0.077567466 0.79000002 -0.0041554002 1.5115315e-38 376 243
0.078852654 0.78899997 -0.0041501396 1.5392262e-38 377 243
0.080236033 0.78899997 -0.0041501396 1.5484808e-38 378 243
0.081619412 0.78899997 -0.0041501396 1.5668839e-38 379 243
0.083002798 0.78899997 -0.0041501396 1.5761034e-38 380 243
0.08438617 0.78899997 -0.0041501396 1.2995166e-38 381 243
0.085769556 0.78899997 -0.0041501396 1.1423543e-38 382 243
0.087152928 0.78899997 -0.0041501396 9.4874352e-39 383 243
0.088536315 0.78899997 -0.0041501396 1.0685262e-38 384 243
0.089919694 0.78899997 -0.0041501396 1.1976001e-38 385 243
0.091303073 0.78899997 -0.0041501396 1.4374877e-38 386 243
0.092686452 0.78899997 -0.0041501396 1.5112801e-38 387 243
0.094069831 0.78899997 -0.0041501396 1.4469577e-38 388 243
0.09545321 0.78899997 -0.0041501396 1.4377381e-38 389 243
0.096836597 0.78899997 -0.0041501396 1.4376282e-38 390 243
0.09834446 0.79000002 -0.0041554002 1.4100056e-38 391 243
0.099729598 0.79000002 -0.0041554002 1.3823466e-38 392 243
0.10111474 0.79000002 -0.0041554002 1.3454684e-38 393 243
0.10275935 0.792 -0.00416592 1.2901532e-38 394 243
0.104148 0.792 -0.00416592 1.1979216e-38 395 243
0.070308663 0.80199999 -0.0056246929 1.2444555e-38 370 244
0.071178317 0.796 -0.0055826134 1.2905531e-38 371 244
0.072391629 0.79400003 -0.0055685868 1.3457612e-38 372 244
0.07378377 0.79400003 -0.0055685868 1.3826393e-38 373 244
0.074986562 0.792 -0.0055545596 1.4286283e-38 374 244
0.076182336 0.79000002 -0.0055405335 1.4654706e-38 375 244
0.077567466 0.79000002 -0.0055405335 1.5023119e-38 376 244
0.078852654 0.78899997 -0.0055335197 1.5207512e-38 377 244
0.080236033 0.78899997 -0.0055335197 1.530006e-38 378 244
0.081619412 0.78899997 -0.0055335197 1.5668842e-38 379 244
0.083002798 0.78899997 -0.0055335197 1.5393331e-38 380 244
0.08438617 0.78899997 -0.0055335197 1.2443072e-38 381 244
0.085769556 0.78899997 -0.0055335197 1.1422825e-38 382 244
0.086932018 0.787 -0.005519493 9.578912e-39 383 244
0.088311888 0.787 -0.005519493 1.0500148e-38 384 244
0.089919694 0.78899997 -0.0055335197 1.1790887e-38 385 244
0.091071643 0.787 -0.005519493 1.4284116e-38 386 244
0.092451513 0.787 -0.005519493 1.5113517e-38 387 244
0.094069831 0.78899997 -0.0055335197 1.4469577e-38 388 244
0.09545321 0.78899997 -0.0055335197 1.4377381e-38 389 244
0.096836597 0.78899997 -0.0055335197 1.428517e-38 390 244
0.098219968 0.78899997 -0.0055335197 1.4008223e-38 391 244
0.099729598 0.79000002 -0.0055405335 1.364052e-38 392 244
0.10111474 0.79000002 -0.0055405335 1.3271737e-38 393 244
0.10275935 0.792 -0.0055545596 1.262567e-38 394 244
0.104148 0.792 -0.0055545596 1.179555e-38 395 244
0.10553664 0.792 -0.0055545596 1.2260908e-38 396 244
0.069782659 0.796 -0.0069782664 1.2261959e-38 370 245
0.071178317 0.796 -0.0069782664 1.2538904e-38 371 245
0.072391629 0.79400003 -0.0069607338 1.3457965e-38 372 245
0.073597915 0.792 -0.0069431998 1.3734192e-38 373 245
0.074986562 0.792 -0.0069431998 1.4287003e-38 374 245
0.076182336 0.79000002 -0.0069256667 1.4471394e-38 375 245
0.077567466 0.79000002 -0.0069256667 1.5022763e-38 376 245
0.078852654 0.78899997 -0.0069168997 1.5207515e-38 377 245
0.080236033 0.78899997 -0.0069168997 1.5300432e-38 378 245
0.081619412 0.78899997 -0.0069168997 1.5577019e-38 379 245
0.083002798 0.78899997 -0.0069168997 1.5483378e-38 380 245
0.08438617 0.78899997 -0.0069168997 1.2809346e-38 381 245
0.085552141 0.787 -0.0068993662 1.1789086e-38 382 245
0.086932018 0.787 -0.0068993662 1.0222119e-38 383 245
0.088311888 0.787 -0.0068993662 1.0684539e-38 384 245
0.089691758 0.787 -0.0068993662 1.1883082e-38 385 245
0.091071643 0.787 -0.0068993662 1.4559624e-38 386 245
0.092451513 0.787 -0.0068993662 1.5297189e-38 387 245
0.093831383 0.787 -0.0068993662 1.4562128e-38 388 245
0.09521126 0.787 -0.0068993662 1.4377378e-38 389 245
0.09659113 0.787 -0.0068993662 1.4285167e-38 390 245
0.098219968 0.78899997 -0.0069168997 1.4008579e-38 391 245
