# .PCD v.7 - Point Cloud Data file format
FIELDS x y z rgb imX imY
SIZE 4 4 4 4 4 4
TYPE F F F F F F
COUNT 1 1 1 1 1 1
WIDTH 841
HEIGHT 1
VIEWPOINT 0 0 0 1 0 0 0
POINTS 841
DATA ascii
0.055892758 0.69300002 -0.02673132 1.6775502e-38 366 262
0.057190225 0.69400001 -0.026769891 1.6683306e-38 367 262
0.058407038 0.69400001 -0.026769891 1.6039388e-38 368 262
0.059967503 0.69800001 -0.026924185 1.5946833e-38 369 262
0.061191335 0.69800001 -0.026924185 1.4934523e-38 370 262
0.017845426 0.727 -0.029317487 1.2261956e-38 334 263
0.019120099 0.727 -0.029317487 1.2631097e-38 335 263
0.020394772 0.727 -0.029317487 1.3550883e-38 336 263
0.021520413 0.722 -0.029115854 1.4288448e-38 337 263
0.022786319 0.722 -0.029115854 1.5392256e-38 338 263
0.0239856 0.72000003 -0.029035201 1.5668842e-38 339 263
0.025212931 0.71899998 -0.028994869 1.6129802e-38 340 263
0.026363119 0.71600002 -0.028873893 1.6221997e-38 341 263
0.027387066 0.70999998 -0.028631933 1.631419e-38 342 263
0.028510952 0.70700002 -0.028510952 1.649894e-38 343 263
0.029708479 0.70599997 -0.028470624 1.6682968e-38 344 263
0.030858666 0.704 -0.028389972 1.6682968e-38 345 263
0.032093015 0.704 -0.028389972 1.695955e-38 346 263
0.03318534 0.70099998 -0.028268991 1.7512363e-38 347 263
0.034414422 0.70099998 -0.028268991 1.8156285e-38 348 263
0.035490975 0.69800001 -0.028148014 1.8156285e-38 349 263
0.036662199 0.69700003 -0.028107686 1.833995e-38 350 263
0.037721213 0.69400001 -0.027986705 1.833995e-38 351 263
0.03888192 0.69300002 -0.027946379 1.8431786e-38 352 263
0.039981257 0.69099998 -0.027865725 1.8708013e-38 353 263
0.041192811 0.69099998 -0.027865725 1.8617616e-38 354 263
0.042220265 0.68800002 -0.027744746 1.8709812e-38 355 263
0.043363437 0.68699998 -0.027704418 1.8801289e-38 356 263
0.044567976 0.68699998 -0.027704418 1.8709093e-38 357 263
0.045972396 0.69 -0.027825398 1.8709446e-38 358 263
0.047182199 0.69 -0.027825398 1.8525054e-38 359 263
0.048391998 0.69 -0.027825398 1.8525051e-38 360 263
0.049601797 0.69 -0.027825398 1.834066e-38 361 263
0.050811596 0.69 -0.027825398 1.8156272e-38 362 263
0.052021399 0.69 -0.027825398 1.797188e-38 363 263
0.053231198 0.69 -0.027825398 1.760382e-38 364 263
0.054519895 0.69099998 -0.027865725 1.7511625e-38 365 263
0.055731449 0.69099998 -0.027865725 1.7051012e-38 366 263
0.056942999 0.69099998 -0.027865725 1.6866621e-38 367 263
0.058154557 0.69099998 -0.027865725 1.6314896e-38 368 263
0.059366114 0.69099998 -0.027865725 1.6222701e-38 369 263
0.060577665 0.69099998 -0.027865725 1.5208584e-38 370 263
0.06152096 0.68800002 -0.027744746 1.5392975e-38 371 263
0.019120099 0.727 -0.030592158 1.1801349e-38 335 264
0.020394772 0.727 -0.030592158 1.2537466e-38 336 264
0.021520413 0.722 -0.030381758 1.3367586e-38 337 264
0.022723202 0.72000003 -0.0302976 1.493237e-38 338 264
0.023952285 0.71899998 -0.030255521 1.5116761e-38 339 264
0.025107734 0.71600002 -0.03012928 1.585322e-38 340 264
0.026252659 0.713 -0.030003037 1.6221644e-38 341 264
0.027387066 0.70999998 -0.029876797 1.6314193e-38 342 264
0.028470624 0.70599997 -0.029708479 1.6498584e-38 343 264
0.029708479 0.70599997 -0.029708479 1.6682971e-38 344 264
0.030858666 0.704 -0.029624319 1.6682971e-38 345 264
0.032047424 0.70300001 -0.029582238 1.686772e-38 346 264
0.03318534 0.70099998 -0.029498078 1.7328338e-38 347 264
0.034365334 0.69999999 -0.029455997 1.7880424e-38 348 264
0.035440128 0.69700003 -0.02932976 1.7880424e-38 349 264
0.036504399 0.69400001 -0.029203519 1.8339953e-38 350 264
0.037666857 0.69300002 -0.029161438 1.8339953e-38 351 264
0.03888192 0.69300002 -0.029161438 1.8432505e-38 352 264
0.039981257 0.69099998 -0.029077278 1.85247e-38 353 264
0.041013971 0.68800002 -0.028951041 1.8433948e-38 354 264
0.042097531 0.68599999 -0.02886688 1.8526144e-38 355 264
0.043300316 0.68599999 -0.02886688 1.8709809e-38 356 264
0.044503104 0.68599999 -0.02886688 1.8617614e-38 357 264
0.045705888 0.68599999 -0.02886688 1.8800559e-38 358 264
0.047045439 0.68800002 -0.028951041 1.8708363e-38 359 264
0.048181597 0.68699998 -0.028908957 1.8432855e-38 360 264
0.049386136 0.68699998 -0.028908957 1.834066e-38 361 264
0.050590675 0.68699998 -0.028908957 1.8064077e-38 362 264
0.051795214 0.68699998 -0.028908957 1.797188e-38 363 264
0.052999757 0.68699998 -0.028908957 1.7787135e-38 364 264
0.054283202 0.68800002 -0.028951041 1.7694581e-38 365 264
0.055489492 0.68800002 -0.028951041 1.7050659e-38 366 264
0.056695789 0.68800002 -0.028951041 1.6866268e-38 367 264
0.057902083 0.68800002 -0.028951041 1.6314899e-38 368 264
0.059108373 0.68800002 -0.028951041 1.6222345e-38 369 264
0.060314666 0.68800002 -0.028951041 1.5208584e-38 370 264
0.06152096 0.68800002 -0.028951041 1.4932356e-38 371 264
0.021520413 0.722 -0.031647664 1.2078646e-38 337 265
0.022723202 0.72000003 -0.03156 1.3185343e-38 338 265
0.023952285 0.71899998 -0.031516165 1.3922908e-38 339 265
0.025107734 0.71600002 -0.031384666 1.5760684e-38 340 265
0.026068559 0.708 -0.031034 1.6037631e-38 341 265
0.027232772 0.70599997 -0.030946331 1.6313477e-38 342 265
0.028389972 0.704 -0.030858666 1.6589703e-38 343 265
0.029624319 0.704 -0.030858666 1.6682249e-38 344 265
0.030814834 0.70300001 -0.030814834 1.6867001e-38 345 265
0.032047424 0.70300001 -0.030814834 1.695955e-38 346 265
0.033043321 0.69800001 -0.030595668 1.7327972e-38 347 265
0.034267146 0.69800001 -0.030595668 1.7695663e-38 348 265
0.035440128 0.69700003 -0.030551834 1.7971891e-38 349 265
0.036451802 0.69300002 -0.0303765 1.8339588e-38 350 265
0.037503798 0.69 -0.030244999 1.8431783e-38 351 265
0.038601387 0.68800002 -0.030157333 1.8432502e-38 352 265
0.039691959 0.68599999 -0.030069664 1.8432502e-38 353 265
0.040894743 0.68599999 -0.030069664 1.8433581e-38 354 265
0.041974798 0.68400002 -0.029982001 1.8433581e-38 355 265
0.043110959 0.68300003 -0.029938167 1.8709443e-38 356 265
0.044308487 0.68300003 -0.029938167 1.8617246e-38 357 265
0.045506012 0.68300003 -0.029938167 1.8617246e-38 358 265
0.046908677 0.68599999 -0.030069664 1.8525051e-38 359 265
0.0479712 0.68400002 -0.029982001 1.8249187e-38 360 265
0.049170479 0.68400002 -0.029982001 1.8064796e-38 361 265
0.050517038 0.68599999 -0.030069664 1.7971524e-38 362 265
0.051719822 0.68599999 -0.030069664 1.7879328e-38 363 265
0.05292261 0.68599999 -0.030069664 1.751199e-38 364 265
0.054204296 0.68699998 -0.030113498 1.7327959e-38 365 265
0.055408835 0.68699998 -0.030113498 1.686735e-38 366 265
0.056613375 0.68699998 -0.030113498 1.6775154e-38 367 265
0.057817914 0.68699998 -0.030113498 1.6131228e-38 368 265
0.058936544 0.68599999 -0.030069664 1.585464e-38 369 265
0.060139328 0.68599999 -0.030069664 1.5208937e-38 370 265
0.061342116 0.68599999 -0.030069664 1.4840154e-38 371 265
0.062544905 0.68599999 -0.030069664 1.5399153e-38 372 265
0.023585839 0.708 -0.03227536 1.2634337e-38 339 266
0.024827199 0.708 -0.03227536 1.4841256e-38 340 266
0.026068559 0.708 -0.03227536 1.5486625e-38 341 266
0.027232772 0.70599997 -0.032184184 1.631384e-38 342 266
0.028389972 0.704 -0.032093015 1.6406035e-38 343 266
0.029624319 0.704 -0.032093015 1.6682255e-38 344 266
0.030727165 0.70099998 -0.031956252 1.6866648e-38 345 266
0.031910665 0.69999999 -0.031910665 1.7142874e-38 346 266
0.03299598 0.69700003 -0.03177391 1.723507e-38 347 266
0.034218054 0.69700003 -0.03177391 1.7696034e-38 348 266
0.035440128 0.69700003 -0.03177391 1.7788231e-38 349 266
0.036451802 0.69300002 -0.031591557 1.8155566e-38 350 266
0.037503798 0.69 -0.031454802 1.8339956e-38 351 266
0.038545277 0.68699998 -0.031318039 1.8432149e-38 352 266
0.03957624 0.68400002 -0.03118128 1.8524345e-38 353 266
0.040715907 0.68300003 -0.031135695 1.8433584e-38 354 266
0.041852064 0.68199998 -0.031090107 1.8433584e-38 355 266
0.043047838 0.68199998 -0.031090107 1.8709446e-38 356 266
0.044243611 0.68199998 -0.031090107 1.8617249e-38 357 266
0.045439381 0.68199998 -0.031090107 1.8708363e-38 358 266
0.046635158 0.68199998 -0.031090107 1.8524332e-38 359 266
0.047830928 0.68199998 -0.031090107 1.8340304e-38 360 266
0.049098592 0.68300003 -0.031135695 1.8156272e-38 361 266
0.05029612 0.68300003 -0.031135695 1.8155189e-38 362 266
0.051569041 0.68400002 -0.03118128 1.8062994e-38 363 266
0.05276832 0.68400002 -0.03118128 1.7511625e-38 364 266
0.053967599 0.68400002 -0.03118128 1.7326875e-38 365 266
0.055328183 0.68599999 -0.031272452 1.7051012e-38 366 266
0.056366164 0.68400002 -0.03118128 1.668259e-38 367 266
0.057565439 0.68400002 -0.03118128 1.6314175e-38 368 266
0.058936544 0.68599999 -0.031272452 1.6037586e-38 369 266
0.059964001 0.68400002 -0.03118128 1.5116371e-38 370 266
0.061163284 0.68400002 -0.03118128 1.474759e-38 371 266
0.062362559 0.68400002 -0.03118128 1.4937802e-38 372 266
0.02592128 0.704 -0.03332736 1.4843419e-38 341 267
0.027155625 0.704 -0.03332736 1.6497883e-38 342 267
0.028389972 0.704 -0.03332736 1.6774112e-38 343 267
0.029582238 0.70300001 -0.033280019 1.6774095e-38 344 267
0.030727165 0.70099998 -0.03318534 1.6866292e-38 345 267
0.031819493 0.69800001 -0.033043321 1.7234707e-38 346 267
0.032948639 0.69599998 -0.032948639 1.7510934e-38 347 267
0.034168959 0.69599998 -0.032948639 1.7787508e-38 348 267
0.035389278 0.69599998 -0.032948639 1.7971541e-38 349 267
0.035978399 0.68400002 -0.032380559 1.8155922e-38 350 267
0.037177678 0.68400002 -0.032380559 1.8155922e-38 351 267
0.038376961 0.68400002 -0.032380559 1.8432505e-38 352 267
0.039518382 0.68300003 -0.032333218 1.8432505e-38 353 267
0.040537067 0.68000001 -0.032191198 1.8616893e-38 354 267
0.041729335 0.68000001 -0.032191198 1.8616893e-38 355 267
0.042858478 0.67900002 -0.032143861 1.8800561e-38 356 267
0.044048995 0.67900002 -0.032143861 1.8800561e-38 357 267
0.045306131 0.68000001 -0.032191198 1.8616893e-38 358 267
0.046498399 0.68000001 -0.032191198 1.8432502e-38 359 267
0.047690667 0.68000001 -0.032191198 1.8248834e-38 360 267
0.049026705 0.68199998 -0.032285877 1.7972247e-38 361 267
0.050222475 0.68199998 -0.032285877 1.7788212e-38 362 267
0.051418249 0.68199998 -0.032285877 1.760382e-38 363 267
0.052614026 0.68199998 -0.032285877 1.7235758e-38 364 267
0.053809796 0.68199998 -0.032285877 1.7143562e-38 365 267
0.055086225 0.68300003 -0.032333218 1.6866268e-38 366 267
0.056283753 0.68300003 -0.032333218 1.6682237e-38 367 267
0.057481278 0.68300003 -0.032333218 1.6130504e-38 368 267
0.058764715 0.68400002 -0.032380559 1.5761722e-38 369 267
0.059876334 0.68300003 -0.032333218 1.4840505e-38 370 267
0.061073858 0.68300003 -0.032333218 1.4656113e-38 371 267
0.06227139 0.68300003 -0.032333218 1.438391e-38 372 267
0.027117053 0.70300001 -0.034512613 1.6313136e-38 342 268
0.028349647 0.70300001 -0.034512613 1.6774114e-38 343 268
0.029498078 0.70099998 -0.034414422 1.6774815e-38 344 268
0.030595668 0.69800001 -0.034267146 1.6867011e-38 345 268
0.03177391 0.69700003 -0.034218054 1.723506e-38 346 268
0.032948639 0.69599998 -0.034168959 1.7327256e-38 347 268
0.034168959 0.69599998 -0.034168959 1.7696029e-38 348 268
0.035389278 0.69599998 -0.034168959 1.7788584e-38 349 268
0.035978399 0.68400002 -0.033579841 1.8064089e-38 350 268
0.037177678 0.68400002 -0.033579841 1.8156285e-38 351 268
0.038320854 0.68300003 -0.033530746 1.8248837e-38 352 268
0.039344799 0.68000001 -0.033383466 1.8341032e-38 353 268
0.040417835 0.67799997 -0.033285279 1.85247e-38 354 268
0.041606598 0.67799997 -0.033285279 1.8616896e-38 355 268
0.042795356 0.67799997 -0.033285279 1.8617249e-38 356 268
0.043984115 0.67799997 -0.033285279 1.8617249e-38 357 268
0.045039624 0.676 -0.033187091 1.8524698e-38 358 268
0.046224877 0.676 -0.033187091 1.8432502e-38 359 268
0.047550395 0.67799997 -0.033285279 1.8156994e-38 360 268
0.048739154 0.67799997 -0.033285279 1.7972244e-38 361 268
0.049927916 0.67799997 -0.033285279 1.7879328e-38 362 268
0.051192071 0.67900002 -0.033334374 1.7694937e-38 363 268
0.052382588 0.67900002 -0.033334374 1.7418354e-38 364 268
0.053573098 0.67900002 -0.033334374 1.7326157e-38 365 268
0.054844268 0.68000001 -0.033383466 1.7141413e-38 366 268
0.056036532 0.68000001 -0.033383466 1.6864827e-38 367 268
0.057228796 0.68000001 -0.033383466 1.6405646e-38 368 268
0.058592889 0.68199998 -0.03348165 1.6036865e-38 369 268
0.059876334 0.68300003 -0.033530746 1.5116368e-38 370 268
0.061073858 0.68300003 -0.033530746 1.4747946e-38 371 268
0.06227139 0.68300003 -0.033530746 1.447358e-38 372 268
0.063468911 0.68300003 -0.033530746 1.6040906e-38 373 268
0.027117053 0.70300001 -0.035745207 1.5945796e-38 342 269
0.028349647 0.70300001 -0.035745207 1.6498969e-38 343 269
0.029455997 0.69999999 -0.035592664 1.6774462e-38 344 269
0.030595668 0.69800001 -0.035490975 1.6774462e-38 345 269
0.03177391 0.69700003 -0.035440128 1.7326177e-38 346 269
0.032948639 0.69599998 -0.035389278 1.7602764e-38 347 269
0.034168959 0.69599998 -0.035389278 1.7971891e-38 348 269
0.035389278 0.69599998 -0.035389278 1.7971891e-38 349 269
0.035452399 0.67400002 -0.034270655 1.8064443e-38 350 269
0.036634147 0.67400002 -0.034270655 1.8064443e-38 351 269
0.037815895 0.67400002 -0.034270655 1.8340306e-38 352 269
0.038997639 0.67400002 -0.034270655 1.8340306e-38 353 269
0.040238999 0.67500001 -0.034321502 1.8524698e-38 354 269
0.041422497 0.67500001 -0.034321502 1.8524698e-38 355 269
0.042669121 0.676 -0.034372345 1.8525051e-38 356 269
0.043789499 0.67500001 -0.034321502 1.8432855e-38 357 269
0.044972997 0.67500001 -0.034321502 1.8432499e-38 358 269
0.0461565 0.67500001 -0.034321502 1.8340304e-38 359 269
0.047339998 0.67500001 -0.034321502 1.806444e-38 360 269
0.048523501 0.67500001 -0.034321502 1.7696016e-38 361 269
0.049780637 0.676 -0.034372345 1.7603818e-38 362 269
0.050965894 0.676 -0.034372345 1.7419426e-38 363 269
0.052151144 0.676 -0.034372345 1.7326157e-38 364 269
0.053494196 0.67799997 -0.034474038 1.7233962e-38 365 269
0.054763615 0.67900002 -0.034524884 1.6865546e-38 366 269
0.056036532 0.68000001 -0.034575731 1.6773351e-38 367 269
0.057228796 0.68000001 -0.034575731 1.6222331e-38 368 269
0.058592889 0.68199998 -0.034677424 1.6037939e-38 369 269
0.059876334 0.68300003 -0.034728274 1.5392232e-38 370 269
0.060984433 0.68199998 -0.034677424 1.5023451e-38 371 269
0.062180214 0.68199998 -0.034677424 1.438066e-38 372 269
0.063375987 0.68199998 -0.034677424 1.5948345e-38 373 269
0.064571753 0.68199998 -0.034677424 1.7333852e-38 374 269
0.028228667 0.69999999 -0.036819998 1.631566e-38 343 270
0.029371841 0.69800001 -0.0367148 1.6866297e-38 344 270
0.030595668 0.69800001 -0.0367148 1.6866297e-38 345 270
0.03177391 0.69700003 -0.036662199 1.7418373e-38 346 270
0.032948639 0.69599998 -0.036609598 1.7602764e-38 347 270
0.034168959 0.69599998 -0.036609598 1.7696019e-38 348 270
0.034118112 0.671 -0.0352946 1.7788214e-38 349 270
0.0352946 0.671 -0.0352946 1.7972244e-38 350 270
0.036634147 0.67400002 -0.035452399 1.806444e-38 351 270
0.037703678 0.67199999 -0.035347197 1.8156994e-38 352 270
0.03888192 0.67199999 -0.035347197 1.824919e-38 353 270
0.040060159 0.67199999 -0.035347197 1.8525054e-38 354 270
0.041238401 0.67199999 -0.035347197 1.8525054e-38 355 270
0.042542879 0.67400002 -0.035452399 1.8525051e-38 356 270
0.043594878 0.67199999 -0.035347197 1.8432855e-38 357 270
0.044773117 0.67199999 -0.035347197 1.8340304e-38 358 270
0.045951359 0.67199999 -0.035347197 1.8064077e-38 359 270
0.047129598 0.67199999 -0.035347197 1.7971524e-38 360 270
0.04830784 0.67199999 -0.035347197 1.7694937e-38 361 270
0.049633358 0.67400002 -0.035452399 1.7419424e-38 362 270
0.050664317 0.67199999 -0.035347197 1.7235031e-38 363 270
0.051842555 0.67199999 -0.035347197 1.695917e-38 364 270
0.053178601 0.67400002 -0.035452399 1.6866974e-38 365 270
0.054521654 0.676 -0.035557602 1.668259e-38 366 270
0.055871718 0.67799997 -0.0356628 1.649784e-38 367 270
0.057228796 0.68000001 -0.035767999 1.6222331e-38 368 270
0.058421064 0.68000001 -0.035767999 1.5945385e-38 369 270
0.059788663 0.68199998 -0.035873197 1.5392232e-38 370 270
0.060984433 0.68199998 -0.035873197 1.5116006e-38 371 270
0.062180214 0.68199998 -0.035873197 1.3920041e-38 372 270
0.063375987 0.68199998 -0.035873197 1.5671399e-38 373 270
0.064571753 0.68199998 -0.035873197 1.7701911e-38 374 270
0.028228667 0.69999999 -0.038047329 1.6498972e-38 343 271
0.029371841 0.69800001 -0.037938625 1.6866297e-38 344 271
0.030595668 0.69800001 -0.037938625 1.6866297e-38 345 271
0.03177391 0.69700003 -0.037884273 1.741837e-38 346 271
0.031765141 0.671 -0.036471087 1.7787511e-38 347 271
0.032941625 0.671 -0.036471087 1.7879328e-38 348 271
0.034118112 0.671 -0.036471087 1.7971524e-38 349 271
0.0352946 0.671 -0.036471087 1.7972244e-38 350 271
0.036471087 0.671 -0.036471087 1.806444e-38 351 271
0.037647571 0.671 -0.036471087 1.806444e-38 352 271
0.038824059 0.671 -0.036471087 1.824919e-38 353 271
0.040000543 0.671 -0.036471087 1.8432499e-38 354 271
0.041177034 0.671 -0.036471087 1.8432499e-38 355 271
0.042416636 0.67199999 -0.036525436 1.8524332e-38 356 271
0.043530006 0.671 -0.036471087 1.8432136e-38 357 271
0.044706494 0.671 -0.036471087 1.8247386e-38 358 271
0.045882981 0.671 -0.036471087 1.7878963e-38 359 271
0.047059465 0.671 -0.036471087 1.778713e-38 360 271
0.048235953 0.671 -0.036471087 1.7418707e-38 361 271
0.049486078 0.67199999 -0.036525436 1.7234678e-38 362 271
0.050664317 0.67199999 -0.036525436 1.7050647e-38 363 271
0.051842555 0.67199999 -0.036525436 1.6866618e-38 364 271
0.053020798 0.67199999 -0.036525436 1.6682587e-38 365 271
0.054441001 0.67500001 -0.036688499 1.6590036e-38 366 271
0.055706903 0.676 -0.036742851 1.649784e-38 367 271
0.057060476 0.67799997 -0.036851559 1.6130135e-38 368 271
0.058421064 0.68000001 -0.036960267 1.5945385e-38 369 271
0.059613332 0.68000001 -0.036960267 1.5392229e-38 370 271
0.0608056 0.68000001 -0.036960267 1.5116003e-38 371 271
0.061997864 0.68000001 -0.036960267 1.3459779e-38 372 271
0.063190132 0.68000001 -0.036960267 1.5488082e-38 373 271
0.064571753 0.68199998 -0.037068974 1.770263e-38 374 271
0.0317178 0.67000002 -0.037591465 1.7971897e-38 347 272
0.032892533 0.67000002 -0.037591465 1.7879331e-38 348 272
0.034067266 0.67000002 -0.037591465 1.7971527e-38 349 272
0.0352946 0.671 -0.037647571 1.8063721e-38 350 272
0.036416732 0.67000002 -0.037591465 1.8063721e-38 351 272
0.037591465 0.67000002 -0.037591465 1.8156994e-38 352 272
0.038766202 0.67000002 -0.037591465 1.8156994e-38 353 272
0.039940935 0.67000002 -0.037591465 1.8432499e-38 354 272
0.041115668 0.67000002 -0.037591465 1.8432499e-38 355 272
0.042290401 0.67000002 -0.037591465 1.8432136e-38 356 272
0.043465134 0.67000002 -0.037591465 1.8247386e-38 357 272
0.044639867 0.67000002 -0.037591465 1.7509807e-38 358 272
0.0458146 0.67000002 -0.037591465 1.7048829e-38 359 272
0.046989333 0.67000002 -0.037591465 1.7602725e-38 360 272
0.048164066 0.67000002 -0.037591465 1.751017e-38 361 272
0.049338799 0.67000002 -0.037591465 1.7234315e-38 362 272
0.050513536 0.67000002 -0.037591465 1.714176e-38 363 272
0.051688269 0.67000002 -0.037591465 1.6682584e-38 364 272
0.052941896 0.671 -0.037647571 1.6590389e-38 365 272
0.054360349 0.67400002 -0.037815895 1.6314528e-38 366 272
0.055542093 0.67400002 -0.037815895 1.6314528e-38 367 272
0.056808002 0.67500001 -0.037871998 1.6038305e-38 368 272
0.058077414 0.676 -0.037928104 1.5854274e-38 369 272
0.059525665 0.67900002 -0.038096428 1.5300764e-38 370 272
0.060716182 0.67900002 -0.038096428 1.4839786e-38 371 272
0.061906695 0.67900002 -0.038096428 1.3276469e-38 372 272
0.063190132 0.68000001 -0.038152531 1.5212577e-38 373 272
0.064382397 0.68000001 -0.038152531 1.7426403e-38 374 272
0.0317178 0.67000002 -0.038766202 1.7787511e-38 347 273
0.032892533 0.67000002 -0.038766202 1.7971524e-38 348 273
0.034067266 0.67000002 -0.038766202 1.7971524e-38 349 273
0.035241999 0.67000002 -0.038766202 1.7972247e-38 350 273
0.036308024 0.66799998 -0.038650475 1.8064443e-38 351 273
0.037479252 0.66799998 -0.038650475 1.8064443e-38 352 273
0.038650475 0.66799998 -0.038650475 1.8156638e-38 353 273
0.039762091 0.667 -0.038592618 1.8340304e-38 354 273
0.040931564 0.667 -0.038592618 1.8340304e-38 355 273
0.042101037 0.667 -0.038592618 1.8156979e-38 356 273
0.043335386 0.66799998 -0.038650475 1.7972227e-38 357 273
0.044439986 0.667 -0.038592618 1.7602719e-38 358 273
0.045609459 0.667 -0.038592618 1.7049905e-38 359 273
0.046778932 0.667 -0.038592618 1.705135e-38 360 273
0.047948405 0.667 -0.038592618 1.705135e-38 361 273
0.049117878 0.667 -0.038592618 1.6866253e-38 362 273
0.050287351 0.667 -0.038592618 1.6866253e-38 363 273
0.051533967 0.66799998 -0.038650475 1.6498915e-38 364 273
0.052863002 0.67000002 -0.038766202 1.6314884e-38 365 273
0.054118387 0.671 -0.038824059 1.6222333e-38 366 273
0.055377278 0.67199999 -0.03888192 1.6222333e-38 367 273
0.056555521 0.67199999 -0.03888192 1.5854268e-38 368 273
0.057991501 0.67500001 -0.039055496 1.5762073e-38 369 273
0.059262663 0.676 -0.039113361 1.5208567e-38 370 273
0.060626756 0.67799997 -0.039229076 1.4563197e-38 371 273
0.061815511 0.67799997 -0.039229076 1.3184636e-38 372 273
0.063097201 0.67900002 -0.039286941 1.4936353e-38 373 273
0.064382397 0.68000001 -0.039344799 1.7242012e-38 374 273
0.0317178 0.67000002 -0.039940935 1.7971174e-38 347 274
0.032794341 0.66799998 -0.039821707 1.7971524e-38 348 274
0.033965573 0.66799998 -0.039821707 1.7971524e-38 349 274
0.035084199 0.667 -0.039762091 1.7972244e-38 350 274
0.03619932 0.66600001 -0.039702479 1.806444e-38 351 274
0.037367038 0.66600001 -0.039702479 1.8340304e-38 352 274
0.03853476 0.66600001 -0.039702479 1.8156272e-38 353 274
0.039702479 0.66600001 -0.039702479 1.8340304e-38 354 274
0.040870197 0.66600001 -0.039702479 1.8340304e-38 355 274
0.042037919 0.66600001 -0.039702479 1.815627e-38 356 274
0.043205637 0.66600001 -0.039702479 1.7971877e-38 357 274
0.04437336 0.66600001 -0.039702479 1.7696366e-38 358 274
0.045541082 0.66600001 -0.039702479 1.7419779e-38 359 274
0.046708796 0.66600001 -0.039702479 1.6960601e-38 360 274
0.047876518 0.66600001 -0.039702479 1.6684012e-38 361 274
0.04904424 0.66600001 -0.039702479 1.6682937e-38 362 274
0.050211959 0.66600001 -0.039702479 1.6590742e-38 363 274
0.051379681 0.66600001 -0.039702479 1.6405999e-38 364 274
0.052547399 0.66600001 -0.039702479 1.6405999e-38 365 274
0.054037735 0.67000002 -0.039940935 1.6129779e-38 366 274
0.05504765 0.66799998 -0.039821707 1.6129779e-38 367 274
0.056218877 0.66799998 -0.039821707 1.5762078e-38 368 274
0.057561934 0.67000002 -0.039940935 1.5577328e-38 369 274
0.059175 0.67500001 -0.040238999 1.4564997e-38 370 274
0.06044792 0.676 -0.040298611 1.4011823e-38 371 274
0.061815511 0.67799997 -0.040417835 1.3276469e-38 372 274
0.063004278 0.67799997 -0.040417835 1.5120023e-38 373 274
0.06419304 0.67799997 -0.040417835 1.7334208e-38 374 274
0.031623118 0.66799998 -0.040992931 1.7695663e-38 347 275
0.032794341 0.66799998 -0.040992931 1.7788214e-38 348 275
0.033914726 0.667 -0.040931564 1.7788214e-38 349 275
0.035031598 0.66600001 -0.040870197 1.7972247e-38 350 275
0.03619932 0.66600001 -0.040870197 1.8064443e-38 351 275
0.037254825 0.66399997 -0.040747464 1.8156638e-38 352 275
0.038361177 0.66299999 -0.040686097 1.8156638e-38 353 275
0.039523639 0.66299999 -0.040686097 1.8156638e-38 354 275
0.040686097 0.66299999 -0.040686097 1.8156638e-38 355 275
0.041848559 0.66299999 -0.040686097 1.8064077e-38 356 275
0.043011017 0.66299999 -0.040686097 1.7879684e-38 357 275
0.044173479 0.66299999 -0.040686097 1.778713e-38 358 275
0.045335937 0.66299999 -0.040686097 1.7510903e-38 359 275
0.046498399 0.66299999 -0.040686097 1.695917e-38 360 275
0.047660857 0.66299999 -0.040686097 1.6682584e-38 361 275
0.04904424 0.66600001 -0.040870197 1.6498193e-38 362 275
0.050211959 0.66600001 -0.040870197 1.6405996e-38 363 275
0.051379681 0.66600001 -0.040870197 1.6220896e-38 364 275
0.052547399 0.66600001 -0.040870197 1.6220896e-38 365 275
0.053715117 0.66600001 -0.040870197 1.5762078e-38 366 275
0.05504765 0.66799998 -0.040992931 1.5762078e-38 367 275
0.056218877 0.66799998 -0.040992931 1.5393663e-38 368 275
0.057561934 0.67000002 -0.041115668 1.5117075e-38 369 275
0.058911994 0.67199999 -0.041238401 1.4104743e-38 370 275
0.06044792 0.676 -0.041483864 1.3551571e-38 371 275
0.061633173 0.676 -0.041483864 1.3092438e-38 372 275
0.063004278 0.67799997 -0.041606598 1.5028546e-38 373 275
0.06419304 0.67799997 -0.041606598 1.7518599e-38 374 275
0.031623118 0.66799998 -0.042164158 1.7696016e-38 347 276
0.032745253 0.667 -0.042101037 1.7879331e-38 348 276
0.033914726 0.667 -0.042101037 1.7971527e-38 349 276
0.035031598 0.66600001 -0.042037919 1.7972247e-38 350 276
0.035981905 0.662 -0.041785441 1.8064443e-38 351 276
0.036974292 0.65899998 -0.041596077 1.8155919e-38 352 276
0.038129739 0.65899998 -0.041596077 1.833995e-38 353 276
0.039285187 0.65899998 -0.041596077 1.8156638e-38 354 276
0.04044063 0.65899998 -0.041596077 1.8064443e-38 355 276
0.041596077 0.65899998 -0.041596077 1.7971527e-38 356 276
0.042751525 0.65899998 -0.041596077 1.7879331e-38 357 276
0.044040225 0.66100001 -0.04172232 1.7511269e-38 358 276
0.045199182 0.66100001 -0.04172232 1.7326878e-38 359 276
0.046428263 0.662 -0.041785441 1.6682584e-38 360 276
0.047660857 0.66299999 -0.041848559 1.6405996e-38 361 276
0.048896957 0.66399997 -0.041911677 1.6313444e-38 362 276
0.05006117 0.66399997 -0.041911677 1.6313444e-38 363 276
0.051225383 0.66399997 -0.041911677 1.6036865e-38 364 276
0.052389596 0.66399997 -0.041911677 1.6036865e-38 365 276
0.053715117 0.66600001 -0.042037919 1.5853195e-38 366 276
0.054965243 0.667 -0.042101037 1.5853195e-38 367 276
0.056134716 0.667 -0.042101037 1.5301467e-38 368 276
0.057561934 0.67000002 -0.042290401 1.5024879e-38 369 276
0.058824331 0.671 -0.042353518 1.401147e-38 370 276
0.060090236 0.67199999 -0.042416636 1.355049e-38 371 276
0.061633173 0.676 -0.042669121 1.3093521e-38 372 276
0.063004278 0.67799997 -0.042795356 1.5029629e-38 373 276
0.06419304 0.67799997 -0.042795356 1.7334205e-38 374 276
0.030360719 0.66600001 -0.043205637 1.7879328e-38 346 277
0.031528439 0.66600001 -0.043205637 1.7879328e-38 347 277
0.032745253 0.667 -0.04327051 1.7879331e-38 348 277
0.03386388 0.66600001 -0.043205637 1.7971527e-38 349 277
0.035031598 0.66600001 -0.043205637 1.8063724e-38 350 277
0.035710141 0.65700001 -0.04262178 1.8155919e-38 351 277
0.036862079 0.65700001 -0.04262178 1.8064445e-38 352 277
0.038014017 0.65700001 -0.04262178 1.8064445e-38 353 277
0.039165959 0.65700001 -0.04262178 1.7971891e-38 354 277
0.040195163 0.65499997 -0.042492028 1.7787858e-38 355 277
0.041343596 0.65499997 -0.042492028 1.7787135e-38 356 277
0.04262178 0.65700001 -0.04262178 1.751055e-38 357 277
0.043906972 0.65899998 -0.042751525 1.7416908e-38 358 277
0.045062415 0.65899998 -0.042751525 1.7324713e-38 359 277
0.046217863 0.65899998 -0.042751525 1.6773335e-38 360 277
0.047588971 0.662 -0.042946145 1.6496747e-38 361 277
0.048896957 0.66399997 -0.043075889 1.6221249e-38 362 277
0.05006117 0.66399997 -0.043075889 1.6037218e-38 363 277
0.051225383 0.66399997 -0.043075889 1.5853195e-38 364 277
0.052389596 0.66399997 -0.043075889 1.5760641e-38 365 277
0.053553808 0.66399997 -0.043075889 1.5577331e-38 366 277
0.054882839 0.66600001 -0.043205637 1.5577331e-38 367 277
0.056050558 0.66600001 -0.043205637 1.5209273e-38 368 277
0.057390101 0.66799998 -0.043335386 1.4748296e-38 369 277
0.058736663 0.67000002 -0.043465134 1.4285902e-38 370 277
0.060000818 0.671 -0.043530006 1.3640532e-38 371 277
0.061542001 0.67500001 -0.043789499 1.3369029e-38 372 277
0.062725499 0.67500001 -0.043789499 1.5305137e-38 373 277
0.063909002 0.67500001 -0.043789499 1.7426401e-38 374 277
0.030269546 0.66399997 -0.044240102 1.8062646e-38 346 278
0.031433757 0.66399997 -0.044240102 1.8062646e-38 347 278
0.032745253 0.667 -0.044439986 1.7971527e-38 348 278
0.03386388 0.66600001 -0.04437336 1.7971527e-38 349 278
0.035031598 0.66600001 -0.04437336 1.8063721e-38 350 278
0.03560143 0.65499997 -0.043640465 1.7971524e-38 351 278
0.036749862 0.65499997 -0.043640465 1.8063724e-38 352 278
0.037898298 0.65499997 -0.043640465 1.7971527e-38 353 278
0.038987119 0.65399998 -0.043573838 1.7696019e-38 354 278
0.040133797 0.65399998 -0.043573838 1.7511269e-38 355 278
0.041280478 0.65399998 -0.043573838 1.751055e-38 356 278
0.042492028 0.65499997 -0.043640465 1.7326157e-38 357 278
0.043640465 0.65499997 -0.043640465 1.704813e-38 358 278
0.044788897 0.65499997 -0.043640465 1.6955933e-38 359 278
0.046077598 0.65700001 -0.043773718 1.6405274e-38 360 278
0.04737331 0.65899998 -0.043906972 1.6313079e-38 361 278
0.04867604 0.66100001 -0.044040225 1.5945025e-38 362 278
0.049985778 0.66299999 -0.044173479 1.5945025e-38 363 278
0.051148236 0.66299999 -0.044173479 1.5853195e-38 364 278
0.052310698 0.66299999 -0.044173479 1.5760641e-38 365 278
0.053553808 0.66399997 -0.044240102 1.5485136e-38 366 278
0.054882839 0.66600001 -0.04437336 1.539258e-38 367 278
0.056050558 0.66600001 -0.04437336 1.5116003e-38 368 278
0.057304189 0.667 -0.044439986 1.4562829e-38 369 278
0.058561329 0.66799998 -0.044506609 1.3734164e-38 370 278
0.0599114 0.67000002 -0.044639867 1.3365021e-38 371 278
0.061450824 0.67400002 -0.044906374 1.3644893e-38 372 278
0.062725499 0.67500001 -0.044972997 1.5581001e-38 373 278
0.030041611 0.65899998 -0.045062415 1.8062996e-38 346 279
0.031197058 0.65899998 -0.045062415 1.8062996e-38 347 279
0.032745253 0.667 -0.045609459 1.7879681e-38 348 279
0.033914726 0.667 -0.045609459 1.7971877e-38 349 279
0.034400396 0.65399998 -0.044720516 1.8063721e-38 350 279
0.035547078 0.65399998 -0.044720516 1.8063721e-38 351 279
0.036693759 0.65399998 -0.044720516 1.7972247e-38 352 279
0.037840437 0.65399998 -0.044720516 1.7972247e-38 353 279
0.038927507 0.653 -0.044652138 1.7603464e-38 354 279
0.04007243 0.653 -0.044652138 1.7419073e-38 355 279
0.041217357 0.653 -0.044652138 1.7417274e-38 356 279
0.04242716 0.65399998 -0.044720516 1.7141047e-38 357 279
0.043573838 0.65399998 -0.044720516 1.6681141e-38 358 279
0.044720516 0.65399998 -0.044720516 1.6496391e-38 359 279
0.04593733 0.65499997 -0.044788897 1.6313079e-38 360 279
0.047085766 0.65499997 -0.044788897 1.6128687e-38 361 279
0.048381478 0.65700001 -0.04492566 1.5853545e-38 362 279
0.049834993 0.66100001 -0.045199182 1.5853545e-38 363 279
0.051071092 0.662 -0.04526756 1.5485482e-38 364 279
0.0522318 0.662 -0.04526756 1.5485482e-38 365 279
0.053553808 0.66399997 -0.045404319 1.5208905e-38 366 279
0.054718021 0.66399997 -0.045404319 1.5024155e-38 367 279
0.056050558 0.66600001 -0.045541082 1.4562476e-38 368 279
0.057218276 0.66600001 -0.045541082 1.4101496e-38 369 279
0.058473662 0.667 -0.045609459 1.3733814e-38 370 279
0.0599114 0.67000002 -0.0458146 1.3549421e-38 371 279
0.061268479 0.67199999 -0.045951359 1.3829653e-38 372 279
0.026413966 0.65499997 -0.04593733 1.7510586e-38 343 280
0.027520318 0.65399998 -0.045867197 1.7603833e-38 344 280
0.028666999 0.65399998 -0.045867197 1.7603833e-38 345 280
0.029859263 0.65499997 -0.04593733 1.7879684e-38 346 280
0.031007698 0.65499997 -0.04593733 1.7879684e-38 347 280
0.032156132 0.65499997 -0.04593733 1.7971874e-38 348 280
0.033152029 0.65200001 -0.045726933 1.7971874e-38 349 280
0.034295198 0.65200001 -0.045726933 1.8064077e-38 350 280
0.035438374 0.65200001 -0.045726933 1.8064077e-38 351 280
0.036637653 0.653 -0.045797065 1.8154836e-38 352 280
0.037724718 0.65200001 -0.045726933 1.8062641e-38 353 280
0.038867895 0.65200001 -0.045726933 1.7786417e-38 354 280
0.040011063 0.65200001 -0.045726933 1.7601667e-38 355 280
0.041154239 0.65200001 -0.045726933 1.7417274e-38 356 280
0.042297412 0.65200001 -0.045726933 1.7048493e-38 357 280
0.043507211 0.653 -0.045797065 1.6589308e-38 358 280
0.044652138 0.653 -0.045797065 1.6313082e-38 359 280
0.045797065 0.653 -0.045797065 1.5853545e-38 360 280
0.046941992 0.653 -0.045797065 1.5853545e-38 361 280
0.048381478 0.65700001 -0.046077598 1.5485131e-38 362 280
0.049533416 0.65700001 -0.046077598 1.5485131e-38 363 280
0.050993945 0.66100001 -0.046358135 1.5301465e-38 364 280
0.0522318 0.662 -0.046428263 1.5209268e-38 365 280
0.053553808 0.66399997 -0.046568532 1.5116356e-38 366 280
0.054718021 0.66399997 -0.046568532 1.4747213e-38 367 280
0.055882234 0.66399997 -0.046568532 1.4195138e-38 368 280
0.057218276 0.66600001 -0.046708796 1.3918551e-38 369 280
0.058385998 0.66600001 -0.046708796 1.3550517e-38 370 280
0.0599114 0.67000002 -0.046989333 1.3734548e-38 371 280
0.022863466 0.65200001 -0.046870105 1.7512073e-38 340 281
0.026292987 0.65200001 -0.046870105 1.7510934e-38 343 281
0.02743616 0.65200001 -0.046870105 1.7787135e-38 344 281
0.028623167 0.653 -0.046941992 1.7879331e-38 345 281
0.029768093 0.653 -0.046941992 1.8062994e-38 346 281
0.030770998 0.64999998 -0.046726331 1.8062994e-38 347 281
0.031910665 0.64999998 -0.046726331 1.8155545e-38 348 281
0.033050328 0.64999998 -0.046726331 1.8247742e-38 349 281
0.034189999 0.64999998 -0.046726331 1.7972597e-38 350 281
0.035329666 0.64999998 -0.046726331 1.7972597e-38 351 281
0.036469329 0.64999998 -0.046726331 1.8062643e-38 352 281
0.037608996 0.64999998 -0.046726331 1.8062643e-38 353 281
0.038748663 0.64999998 -0.046726331 1.7694584e-38 354 281
0.039888334 0.64999998 -0.046726331 1.732616e-38 355 281
0.041027997 0.64999998 -0.046726331 1.714141e-38 356 281
0.042167664 0.64999998 -0.046726331 1.6772988e-38 357 281
0.04330733 0.64999998 -0.046726331 1.6404927e-38 358 281
0.044583756 0.65200001 -0.046870105 1.6127981e-38 359 281
0.045726933 0.65200001 -0.046870105 1.5760641e-38 360 281
0.046870105 0.65200001 -0.046870105 1.5484412e-38 361 281
0.048160557 0.65399998 -0.047013879 1.5392583e-38 362 281
0.049533416 0.65700001 -0.04722954 1.5392583e-38 363 281
0.050685361 0.65700001 -0.04722954 1.5117075e-38 364 281
0.051995095 0.65899998 -0.04737331 1.4840489e-38 365 281
0.053392503 0.662 -0.047588971 1.4746863e-38 366 281
0.054635618 0.66299999 -0.047660857 1.4101493e-38 367 281
0.055882234 0.66399997 -0.047732744 1.3916406e-38 368 281
0.057046451 0.66399997 -0.047732744 1.3916406e-38 369 281
0.058385998 0.66600001 -0.047876518 1.3366135e-38 370 281
0.021720294 0.65200001 -0.048013281 1.8159652e-38 339 282
0.022863466 0.65200001 -0.048013281 1.7514226e-38 340 282
0.023932999 0.64999998 -0.047865998 1.6407518e-38 341 282
0.025072664 0.64999998 -0.047865998 1.7510565e-38 342 282
0.026212333 0.64999998 -0.047865998 1.7510565e-38 343 282
0.027351998 0.64999998 -0.047865998 1.7603467e-38 344 282
0.028491667 0.64999998 -0.047865998 1.7603467e-38 345 282
0.029631332 0.64999998 -0.047865998 1.7879328e-38 346 282
0.030770998 0.64999998 -0.047865998 1.7879328e-38 347 282
0.03186157 0.64899999 -0.047792356 1.8155189e-38 348 282
0.032999486 0.64899999 -0.047792356 1.8247386e-38 349 282
0.034137398 0.64899999 -0.047792356 1.8064074e-38 350 282
0.03527531 0.64899999 -0.047792356 1.7971877e-38 351 282
0.036413226 0.64899999 -0.047792356 1.8062641e-38 352 282
0.037551139 0.64899999 -0.047792356 1.7878609e-38 353 282
0.038689051 0.64899999 -0.047792356 1.7601667e-38 354 282
0.039826967 0.64899999 -0.047792356 1.7417274e-38 355 282
0.040964879 0.64899999 -0.047792356 1.6865183e-38 356 282
0.042102791 0.64899999 -0.047792356 1.6588236e-38 357 282
0.04330733 0.64999998 -0.047865998 1.5944672e-38 358 282
0.044446997 0.64999998 -0.047865998 1.575992e-38 359 282
0.045586664 0.64999998 -0.047865998 1.520927e-38 360 282
0.046870105 0.65200001 -0.048013281 1.5117075e-38 361 282
0.048013281 0.65200001 -0.048013281 1.502417e-38 362 282
0.049307238 0.65399998 -0.048160557 1.4840139e-38 363 282
0.050685361 0.65700001 -0.048381478 1.4656467e-38 364 282
0.051837299 0.65700001 -0.048381478 1.4287684e-38 365 282
0.053150542 0.65899998 -0.048528757 1.4195135e-38 366 282
0.054553211 0.662 -0.048749682 1.3549766e-38 367 282
0.055798076 0.66299999 -0.048823316 1.3273201e-38 368 282
0.057046451 0.66399997 -0.048896957 1.3549787e-38 369 282
0.021653665 0.64999998 -0.049005665 1.7699749e-38 339 283
0.022793332 0.64999998 -0.049005665 1.7512777e-38 340 283
0.023932999 0.64999998 -0.049005665 1.6498266e-38 341 283
0.025072664 0.64999998 -0.049005665 1.7419076e-38 342 283
0.026212333 0.64999998 -0.049005665 1.7419076e-38 343 283
0.027309919 0.64899999 -0.048930272 1.7694937e-38 344 283
0.028447833 0.64899999 -0.048930272 1.7787133e-38 345 283
0.029585747 0.64899999 -0.048930272 1.7878965e-38 346 283
0.030628979 0.64700001 -0.048779488 1.8155192e-38 347 283
0.031714294 0.64600003 -0.048704095 1.8155545e-38 348 283
0.032846946 0.64600003 -0.048704095 1.8155545e-38 349 283
0.033979602 0.64600003 -0.048704095 1.8062991e-38 350 283
0.035112254 0.64600003 -0.048704095 1.787896e-38 351 283
0.036244906 0.64600003 -0.048704095 1.7878609e-38 352 283
0.037493281 0.648 -0.04885488 1.7694218e-38 353 283
0.038629439 0.648 -0.04885488 1.7233962e-38 354 283
0.0397656 0.648 -0.04885488 1.6865181e-38 355 283
0.040964879 0.64899999 -0.048930272 1.6404924e-38 356 283
0.042102791 0.64899999 -0.048930272 1.6220533e-38 357 283
0.043240704 0.64899999 -0.048930272 1.5392936e-38 358 283
0.044446997 0.64999998 -0.049005665 1.5208905e-38 359 283
0.045586664 0.64999998 -0.049005665 1.5024879e-38 360 283
0.046726331 0.64999998 -0.049005665 1.4748294e-38 361 283
0.047865998 0.64999998 -0.049005665 1.4655395e-38 362 283
0.049156453 0.65200001 -0.049156453 1.4655395e-38 363 283
0.050453916 0.65399998 -0.049307238 1.4286981e-38 364 283
0.051679496 0.65499997 -0.049382631 1.4194785e-38 365 283
0.052827932 0.65499997 -0.049382631 1.3733811e-38 366 283
0.054470807 0.66100001 -0.049834993 1.3549418e-38 367 283
0.055713918 0.662 -0.049910385 1.33654e-38 368 283
0.056960538 0.66299999 -0.049985778 1.3549431e-38 369 283
0.021620352 0.64899999 -0.050068185 1.7054374e-38 339 284
0.022758266 0.64899999 -0.050068185 1.6960308e-38 340 284
0.023896178 0.64899999 -0.050068185 1.6591165e-38 341 284
0.025034092 0.64899999 -0.050068185 1.7419426e-38 342 284
0.026172007 0.64899999 -0.050068185 1.7511622e-38 343 284
0.02726784 0.648 -0.049991041 1.7786767e-38 344 284
0.028404001 0.648 -0.049991041 1.7878963e-38 345 284
0.029448988 0.64600003 -0.049836747 1.8062631e-38 346 284
0.030581642 0.64600003 -0.049836747 1.8247022e-38 347 284
0.031616107 0.64399999 -0.049682453 1.8155545e-38 348 284
0.032745253 0.64399999 -0.049682453 1.8155545e-38 349 284
0.0338744 0.64399999 -0.049682453 1.7879681e-38 350 284
0.035003547 0.64399999 -0.049682453 1.7787486e-38 351 284
0.036244906 0.64600003 -0.049836747 1.7694937e-38 352 284
0.037377559 0.64600003 -0.049836747 1.7418352e-38 353 284
0.038510215 0.64600003 -0.049836747 1.6865899e-38 354 284
0.039642867 0.64600003 -0.049836747 1.6312726e-38 355 284
0.040775519 0.64600003 -0.049836747 1.5853545e-38 356 284
0.041973047 0.64700001 -0.049913891 1.5484763e-38 357 284
0.043174081 0.648 -0.049991041 1.5116709e-38 358 284
0.044378616 0.64899999 -0.050068185 1.4931959e-38 359 284
0.045516532 0.64899999 -0.050068185 1.4655745e-38 360 284
0.046654444 0.64899999 -0.050068185 1.4471352e-38 361 284
0.047865998 0.64999998 -0.050145328 1.437845e-38 362 284
0.049005665 0.64999998 -0.050145328 1.437845e-38 363 284
0.050299626 0.65200001 -0.050299626 1.4010396e-38 364 284
0.051600594 0.65399998 -0.050453916 1.3641614e-38 365 284
0.052827932 0.65499997 -0.050531063 1.3549068e-38 366 284
0.054223582 0.65799999 -0.050762504 1.3456872e-38 367 284
0.05562976 0.66100001 -0.050993945 1.3181374e-38 368 284
0.056960538 0.66299999 -0.051148236 1.327357e-38 369 284
0.058122993 0.66299999 -0.051148236 1.3090272e-38 370 284
0.021620352 0.64899999 -0.051206097 1.6408632e-38 339 285
0.022758266 0.64899999 -0.051206097 1.6865944e-38 340 285
0.023896178 0.64899999 -0.051206097 1.7234367e-38 341 285
0.024995521 0.648 -0.051127199 1.741907e-38 342 285
0.02613168 0.648 -0.051127199 1.7511625e-38 343 285
0.027225759 0.64700001 -0.051048297 1.778712e-38 344 285
0.028316336 0.64600003 -0.0509694 1.7879316e-38 345 285
0.029448988 0.64600003 -0.0509694 1.7880032e-38 346 285
0.03048696 0.64399999 -0.050811596 1.7972227e-38 347 285
0.031567011 0.64300001 -0.050732698 1.7879679e-38 348 285
0.03264356 0.64200002 -0.0506538 1.7879679e-38 349 285
0.033769198 0.64200002 -0.0506538 1.7787486e-38 350 285
0.034949195 0.64300001 -0.050732698 1.769529e-38 351 285
0.036076587 0.64300001 -0.050732698 1.7418352e-38 352 285
0.037261836 0.64399999 -0.050811596 1.7049568e-38 353 285
0.038390987 0.64399999 -0.050811596 1.6498196e-38 354 285
0.03952013 0.64399999 -0.050811596 1.5852826e-38 355 285
0.04064928 0.64399999 -0.050811596 1.5209255e-38 356 285
0.041908171 0.64600003 -0.0509694 1.4932309e-38 357 285
0.043107454 0.64700001 -0.051048297 1.4656098e-38 358 285
0.044310238 0.648 -0.051127199 1.4563901e-38 359 285
0.045516532 0.64899999 -0.051206097 1.4011823e-38 360 285
0.046654444 0.64899999 -0.051206097 1.3919627e-38 361 285
0.047792356 0.64899999 -0.051206097 1.4102224e-38 362 285
0.049005665 0.64999998 -0.051284995 1.3917831e-38 363 285
0.050299626 0.65200001 -0.051442798 1.3641611e-38 364 285
0.051442798 0.65200001 -0.051442798 1.345722e-38 365 285
0.052827932 0.65499997 -0.051679496 1.3182081e-38 366 285
0.053976361 0.65499997 -0.051679496 1.3089526e-38 367 285
0.055461437 0.65899998 -0.051995095 1.2998059e-38 368 285
0.056874625 0.662 -0.0522318 1.3090255e-38 369 285
0.058122993 0.66299999 -0.052310698 1.2814409e-38 370 285
0.020450879 0.648 -0.05226336 1.7884463e-38 338 286
0.02158704 0.648 -0.05226336 1.5948354e-38 339 286
0.0227232 0.648 -0.05226336 1.7509143e-38 340 286
0.023859359 0.648 -0.05226336 1.7693533e-38 341 286
0.024956945 0.64700001 -0.052182708 1.751055e-38 342 286
0.026091354 0.64700001 -0.052182708 1.7694581e-38 343 286
0.02718368 0.64600003 -0.052102055 1.7879316e-38 344 286
0.028316336 0.64600003 -0.052102055 1.8063347e-38 345 286
0.029357811 0.64399999 -0.051940747 1.7880035e-38 346 286
0.030439619 0.64300001 -0.051860094 1.7880035e-38 347 286
0.031567011 0.64300001 -0.051860094 1.7879679e-38 348 286
0.03264356 0.64200002 -0.051779442 1.7787483e-38 349 286
0.033769198 0.64200002 -0.051779442 1.7695287e-38 350 286
0.034894839 0.64200002 -0.051779442 1.7419061e-38 351 286
0.03602048 0.64200002 -0.051779442 1.7050644e-38 352 286
0.037203979 0.64300001 -0.051860094 1.6405274e-38 353 286
0.038331371 0.64300001 -0.051860094 1.5853189e-38 354 286
0.039458767 0.64300001 -0.051860094 1.5300374e-38 355 286
0.040586159 0.64300001 -0.051860094 1.4748647e-38 356 286
0.041778423 0.64399999 -0.051940747 1.4472058e-38 357 286
0.043040827 0.64600003 -0.052102055 1.4012173e-38 358 286
0.044241857 0.64700001 -0.052182708 1.3827782e-38 359 286
0.0454464 0.648 -0.05226336 1.4102577e-38 360 286
0.046582561 0.648 -0.05226336 1.382563e-38 361 286
0.047792356 0.64899999 -0.052344013 1.3274258e-38 362 286
0.048930272 0.64899999 -0.052344013 1.3182062e-38 363 286
0.050145328 0.64999998 -0.052424666 1.2906198e-38 364 286
0.051442798 0.65200001 -0.052585974 1.2906198e-38 365 286
0.052747279 0.65399998 -0.052747279 1.2906567e-38 366 286
0.053976361 0.65499997 -0.052827932 1.2906567e-38 367 286
0.055461437 0.65899998 -0.053150542 1.2999131e-38 368 286
0.056874625 0.662 -0.053392503 1.2999131e-38 369 286
0.058035329 0.662 -0.053392503 1.2814765e-38 370 286
0.019255107 0.64600003 -0.053234708 1.779159e-38 337 287
0.020387759 0.64600003 -0.053234708 1.7515298e-38 338 287
0.021520413 0.64600003 -0.053234708 1.6039809e-38 339 287
0.022688134 0.64700001 -0.053317111 1.7510916e-38 340 287
0.023822539 0.64700001 -0.053317111 1.741872e-38 341 287
0.024918374 0.64600003 -0.053234708 1.7510903e-38 342 287
0.026051028 0.64600003 -0.053234708 1.778713e-38 343 287
0.027099518 0.64399999 -0.05306989 1.7878963e-38 344 287
0.028184833 0.64300001 -0.052987486 1.8062994e-38 345 287
0.029312227 0.64300001 -0.052987486 1.7879684e-38 346 287
0.030392278 0.64200002 -0.052905083 1.7879684e-38 347 287
0.031517919 0.64200002 -0.052905083 1.7696016e-38 348 287
0.03264356 0.64200002 -0.052905083 1.7511625e-38 349 287
0.033769198 0.64200002 -0.052905083 1.7602017e-38 350 287
0.034894839 0.64200002 -0.052905083 1.7233593e-38 351 287
0.03602048 0.64200002 -0.052905083 1.6774054e-38 352 287
0.037146121 0.64200002 -0.052905083 1.6036489e-38 353 287
0.038271759 0.64200002 -0.052905083 1.5576608e-38 354 287
0.039458767 0.64300001 -0.052987486 1.493124e-38 355 287
0.040586159 0.64300001 -0.052987486 1.4379882e-38 356 287
0.041713554 0.64300001 -0.052987486 1.4195491e-38 357 287
0.042907573 0.64399999 -0.05306989 1.3735602e-38 358 287
0.044173479 0.64600003 -0.053234708 1.3459375e-38 359 287
0.045376267 0.64700001 -0.053317111 1.3274629e-38 360 287
0.046510674 0.64700001 -0.053317111 1.3274629e-38 361 287
0.047718719 0.648 -0.053399518 1.2905495e-38 362 287
0.048930272 0.64899999 -0.053481925 1.2813299e-38 363 287
0.050145328 0.64999998 -0.053564329 1.272182e-38 364 287
0.051284995 0.64999998 -0.053564329 1.290657e-38 365 287
0.052747279 0.65399998 -0.053893957 1.2631422e-38 366 287
0.053893957 0.65399998 -0.053893957 1.2723618e-38 367 287
0.055461437 0.65899998 -0.054305989 1.2906582e-38 368 287
0.056788713 0.66100001 -0.054470807 1.2906582e-38 369 287
0.057947662 0.66100001 -0.054470807 1.2261605e-38 370 287
0.018122453 0.64600003 -0.05436736 1.8346188e-38 336 288
0.019165685 0.64300001 -0.054114878 1.7055449e-38 337 288
0.020293079 0.64300001 -0.054114878 1.6958877e-38 338 288
0.021420473 0.64300001 -0.054114878 1.6682291e-38 339 288
0.022582933 0.64399999 -0.054199036 1.7418357e-38 340 288
0.02371208 0.64399999 -0.054199036 1.7510553e-38 341 288
0.024841227 0.64399999 -0.054199036 1.7694934e-38 342 288
0.025970373 0.64399999 -0.054199036 1.778713e-38 343 288
0.027057439 0.64300001 -0.054114878 1.7878609e-38 344 288
0.028184833 0.64300001 -0.054114878 1.7878609e-38 345 288
0.029266641 0.64200002 -0.05403072 1.7879328e-38 346 288
0.030392278 0.64200002 -0.05403072 1.7787133e-38 347 288
0.031468827 0.64099997 -0.053946555 1.7694581e-38 348 288
0.03259271 0.64099997 -0.053946555 1.7418354e-38 349 288
0.033716597 0.64099997 -0.053946555 1.7326154e-38 350 288
0.034840483 0.64099997 -0.053946555 1.6865536e-38 351 288
0.03596437 0.64099997 -0.053946555 1.6221249e-38 352 288
0.03708826 0.64099997 -0.053946555 1.5575879e-38 353 288
0.038212143 0.64099997 -0.053946555 1.5115277e-38 354 288
0.0393974 0.64200002 -0.05403072 1.4746494e-38 355 288
0.040523041 0.64200002 -0.05403072 1.4377731e-38 356 288
0.041648682 0.64200002 -0.05403072 1.419334e-38 357 288
0.042840946 0.64300001 -0.054114878 1.3642687e-38 358 288
0.044036716 0.64399999 -0.054199036 1.3273905e-38 359 288
0.045306131 0.64600003 -0.05436736 1.3181712e-38 360 288
0.046510674 0.64700001 -0.054451518 1.2996962e-38 361 288
0.047718719 0.648 -0.05453568 1.2904052e-38 362 288
0.048930272 0.64899999 -0.054619838 1.2904052e-38 363 288
0.050145328 0.64999998 -0.054703996 1.2538143e-38 364 288
0.051284995 0.64999998 -0.054703996 1.2722176e-38 365 288
0.052747279 0.65399998 -0.055040635 1.2814015e-38 366 288
0.054305989 0.65899998 -0.055461437 1.290657e-38 367 288
0.055461437 0.65899998 -0.055461437 1.2630003e-38 368 288
0.056788713 0.66100001 -0.05562976 1.2537807e-38 369 288
0.057947662 0.66100001 -0.05562976 1.1891749e-38 370 288
0.018066347 0.64399999 -0.055328183 1.8070311e-38 336 289
0.019135879 0.64200002 -0.055156358 1.641043e-38 337 289
0.020261521 0.64200002 -0.055156358 1.7048909e-38 338 289
0.02138716 0.64200002 -0.055156358 1.72333e-38 339 289
0.022512799 0.64200002 -0.055156358 1.75102e-38 340 289
0.02363844 0.64200002 -0.055156358 1.75102e-38 341 289
0.02476408 0.64200002 -0.055156358 1.7510903e-38 342 289
0.025849391 0.64099997 -0.055070441 1.7694934e-38 343 289
0.026973277 0.64099997 -0.055070441 1.7878609e-38 344 289
0.028053332 0.63999999 -0.054984529 1.7786414e-38 345 289
0.029175464 0.63999999 -0.054984529 1.7694937e-38 346 289
0.030297596 0.63999999 -0.054984529 1.7510906e-38 347 289
0.031468827 0.64099997 -0.055070441 1.732616e-38 348 289
0.032541864 0.63999999 -0.054984529 1.7233606e-38 349 289
0.033663996 0.63999999 -0.054984529 1.6865902e-38 350 289
0.034786131 0.63999999 -0.054984529 1.6404924e-38 351 289
0.035908263 0.63999999 -0.054984529 1.5853192e-38 352 289
0.037030395 0.63999999 -0.054984529 1.5207823e-38 353 289
0.038152531 0.63999999 -0.054984529 1.4747216e-38 354 289
0.039336029 0.64099997 -0.055070441 1.4378435e-38 355 289
