# .PCD v.7 - Point Cloud Data file format
FIELDS x y z rgb imX imY
SIZE 4 4 4 4 4 4
TYPE F F F F F F
COUNT 1 1 1 1 1 1
WIDTH 847
HEIGHT 1
VIEWPOINT 0 0 0 1 0 0 0
POINTS 847
DATA ascii
0.0092540924 0.75400001 -0.022474226 1.2535992e-38 327 257
0.010576107 0.75400001 -0.022474226 1.2811853e-38 328 257
0.011866559 0.75199997 -0.022414612 1.2904049e-38 329 257
0.013185065 0.75199997 -0.022414612 1.2904765e-38 330 257
0.014503572 0.75199997 -0.022414612 1.2812569e-38 331 257
0.015822079 0.75199997 -0.022414612 1.2904046e-38 332 257
0.017140586 0.75199997 -0.022414612 1.3088797e-38 333 257
0.018459093 0.75199997 -0.022414612 1.3271757e-38 334 257
0.0197776 0.75199997 -0.022414612 1.3271757e-38 335 257
0.02104 0.75 -0.022355 1.3272475e-38 336 257
0.022325192 0.74900001 -0.022325192 1.3456867e-38 337 257
0.023575317 0.74699998 -0.022265578 1.3456148e-38 338 257
0.024885058 0.74699998 -0.022265578 1.3640538e-38 339 257
0.026264934 0.74900001 -0.022325192 1.3640535e-38 340 257
0.027504537 0.74699998 -0.022265578 1.3640535e-38 341 257
0.028814279 0.74699998 -0.022265578 1.3456867e-38 342 257
0.030124018 0.74699998 -0.022265578 1.3272475e-38 343 257
0.031391677 0.74599999 -0.022235774 1.3456148e-38 344 257
0.032699663 0.74599999 -0.022235774 1.3456148e-38 345 257
0.034007654 0.74599999 -0.022235774 1.3822775e-38 346 257
0.03531564 0.74599999 -0.022235774 1.391533e-38 347 257
0.036525439 0.74400002 -0.022176161 1.3638744e-38 348 257
0.037829921 0.74400002 -0.022176161 1.3638744e-38 349 257
0.0390292 0.74199998 -0.022116546 1.36391e-38 350 257
0.04027582 0.741 -0.02208674 1.3546546e-38 351 257
0.041575037 0.741 -0.02208674 1.3455422e-38 352 257
0.042874258 0.741 -0.02208674 1.3455422e-38 353 257
0.044054255 0.73900002 -0.022027127 1.3455425e-38 354 257
0.045349967 0.73900002 -0.022027127 1.3271034e-38 355 257
0.046645679 0.73900002 -0.022027127 1.3272122e-38 356 257
0.047876518 0.73799998 -0.021997318 1.3549068e-38 357 257
0.049170475 0.73799998 -0.021997318 1.373238e-38 358 257
0.050327681 0.736 -0.021937706 1.3640185e-38 359 257
0.051477864 0.73400003 -0.021878093 1.3640538e-38 360 257
0.052764814 0.73400003 -0.021878093 1.3732733e-38 361 257
0.054051761 0.73400003 -0.021878093 1.3549421e-38 362 257
0.055338707 0.73400003 -0.021878093 1.3549421e-38 363 257
0.056625653 0.73400003 -0.021878093 1.3640538e-38 364 257
0.057833698 0.73299998 -0.021848286 1.3456148e-38 365 257
0.059118889 0.73299998 -0.021848286 1.317991e-38 366 257
0.060404085 0.73299998 -0.021848286 1.317991e-38 367 257
0.061689276 0.73299998 -0.021848286 1.3271387e-38 368 257
0.062802643 0.73100001 -0.021788673 1.3271387e-38 369 257
0.063821331 0.72799999 -0.021699252 1.2810406e-38 370 257
0.065097757 0.72799999 -0.021699252 1.2165036e-38 371 257
0.066374183 0.72799999 -0.021699252 1.262492e-38 372 257
0.067650609 0.72799999 -0.021699252 1.2901506e-38 373 257
0.068927035 0.72799999 -0.021699252 1.3641238e-38 374 257
0.070107035 0.727 -0.021669446 1.3917825e-38 375 257
0.071381703 0.727 -0.021669446 1.373453e-38 376 257
0.072656378 0.727 -0.021669446 1.3826725e-38 377 257
0.073727667 0.72500002 -0.021609833 1.4195141e-38 378 257
0.074998833 0.72500002 -0.021609833 1.4102586e-38 379 257
0.076269999 0.72500002 -0.021609833 1.4195854e-38 380 257
0.077327259 0.72299999 -0.021550218 1.4472801e-38 381 257
0.078594916 0.72299999 -0.021550218 1.5116719e-38 382 257
0.07986258 0.72299999 -0.021550218 1.530147e-38 383 257
0.081018023 0.722 -0.021520413 1.5760641e-38 384 257
0.082283929 0.722 -0.021520413 1.5945391e-38 385 257
0.083549835 0.722 -0.021520413 1.6127987e-38 386 257
0.084815748 0.722 -0.021520413 1.6220182e-38 387 257
0.086200871 0.72299999 -0.021550218 1.6036867e-38 388 257
0.087468542 0.72299999 -0.021550218 1.6036867e-38 389 257
0.088736199 0.72299999 -0.021550218 1.6037221e-38 390 257
0.090003856 0.72299999 -0.021550218 1.5945025e-38 391 257
0.09127152 0.72299999 -0.021550218 1.5669893e-38 392 257
0.09305115 0.727 -0.021669446 1.5485861e-38 393 257
0.094066329 0.72500002 -0.021609833 1.5118559e-38 394 257
0.095074497 0.72299999 -0.021550218 1.5579537e-38 395 257
0.096342154 0.72299999 -0.021550218 1.5953066e-38 396 257
0.097609811 0.72299999 -0.021550218 1.752039e-38 397 257
0.098877482 0.72299999 -0.021550218 1.8438776e-38 398 257
-0.0777428 0.73900002 -0.023322839 1.6865944e-38 260 258
-0.076447085 0.73900002 -0.023322839 1.695814e-38 261 258
-0.075049676 0.73799998 -0.023291279 1.695849e-38 262 258
-0.073755711 0.73799998 -0.023291279 1.6866295e-38 263 258
-0.072461754 0.73799998 -0.023291279 1.6773744e-38 264 258
-0.070974931 0.736 -0.023228159 1.6681549e-38 265 258
-0.069684476 0.736 -0.023228159 1.6681552e-38 266 258
-0.06839402 0.736 -0.023228159 1.6220575e-38 267 258
-0.067103572 0.736 -0.023228159 1.5760318e-38 268 258
-0.065813117 0.736 -0.023228159 1.6036547e-38 269 258
-0.064522661 0.736 -0.023228159 1.5760318e-38 270 258
-0.063232213 0.736 -0.023228159 1.5668123e-38 271 258
-0.061941758 0.736 -0.023228159 1.530006e-38 272 258
-0.060651302 0.736 -0.023228159 1.4839082e-38 273 258
-0.059522156 0.73799998 -0.023291279 1.4655047e-38 274 258
-0.058228195 0.73799998 -0.023291279 1.43781e-38 275 258
-0.056934237 0.73799998 -0.023291279 1.401112e-38 276 258
-0.055640277 0.73799998 -0.023291279 1.3826728e-38 277 258
-0.054346316 0.73799998 -0.023291279 1.3734548e-38 278 258
-0.053052358 0.73799998 -0.023291279 1.3734548e-38 279 258
-0.051828533 0.73900002 -0.023322839 1.3550164e-38 280 258
-0.050532822 0.73900002 -0.023322839 1.3734195e-38 281 258
-0.049370356 0.741 -0.023385961 1.3734198e-38 282 258
-0.048136011 0.74199998 -0.023417519 1.3734198e-38 283 258
-0.046835039 0.74199998 -0.023417519 1.3733476e-38 284 258
-0.045534063 0.74199998 -0.023417519 1.364128e-38 285 258
-0.044352323 0.74400002 -0.023480639 1.3273201e-38 286 258
-0.04316356 0.74599999 -0.023543758 1.2259048e-38 287 258
-0.04185557 0.74599999 -0.023543758 1.179914e-38 288 258
-0.040547583 0.74599999 -0.023543758 1.179914e-38 289 258
-0.039292198 0.74699998 -0.023575317 1.1891339e-38 290 258
-0.03798246 0.74699998 -0.023575317 1.1891339e-38 291 258
-0.036672719 0.74699998 -0.023575317 1.1798059e-38 292 258
-0.03545766 0.74900001 -0.02363844 1.1613307e-38 293 258
-0.034144413 0.74900001 -0.02363844 1.1706223e-38 294 258
-0.032831166 0.74900001 -0.02363844 1.1798778e-38 295 258
-0.03156 0.75 -0.023669999 1.1891339e-38 296 258
-0.030244999 0.75 -0.023669999 1.2167927e-38 297 258
-0.028929999 0.75 -0.023669999 1.2168652e-38 298 258
-0.027762281 0.75400001 -0.02379624 1.2353043e-38 299 258
-0.02637013 0.75199997 -0.023733119 1.2353046e-38 300 258
-0.025051624 0.75199997 -0.023733119 1.2353046e-38 301 258
-0.02379624 0.75400001 -0.02379624 1.2444162e-38 302 258
-0.022474226 0.75400001 -0.02379624 1.2444162e-38 303 258
-0.021180267 0.755 -0.023827799 1.2443443e-38 304 258
-0.0198565 0.755 -0.023827799 1.2443443e-38 305 258
-0.018508185 0.75400001 -0.02379624 1.2443088e-38 306 258
-0.017186172 0.75400001 -0.02379624 1.2443088e-38 307 258
-0.01586416 0.75400001 -0.02379624 1.2718954e-38 308 258
-0.014561433 0.755 -0.023827799 1.26264e-38 309 258
-0.013220133 0.75400001 -0.02379624 1.2351248e-38 310 258
-0.01189812 0.75400001 -0.02379624 1.2443443e-38 311 258
-0.010590133 0.755 -0.023827799 1.2443441e-38 312 258
-0.0092663663 0.755 -0.023827799 1.2443441e-38 313 258
-0.0079425992 0.755 -0.023827799 1.2351245e-38 314 258
-0.0066188332 0.755 -0.023827799 1.2351245e-38 315 258
-0.0053090933 0.75700003 -0.02389092 1.2351248e-38 316 258
-0.0039818203 0.75700003 -0.02389092 1.2351248e-38 317 258
-0.0013237667 0.755 -0.023827799 1.2258692e-38 319 258
0 0.75400001 -0.02379624 1.2625317e-38 320 258
0.0013220133 0.75400001 -0.02379624 1.2809349e-38 321 258
0.0026440267 0.75400001 -0.02379624 1.2350525e-38 322 258
0.0039712996 0.755 -0.023827799 1.2442722e-38 323 258
0.0052950666 0.755 -0.023827799 1.2442719e-38 324 258
0.0066100666 0.75400001 -0.02379624 1.2442719e-38 325 258
0.00793208 0.75400001 -0.02379624 1.2351595e-38 326 258
0.0092540924 0.75400001 -0.02379624 1.2443791e-38 327 258
0.010576107 0.75400001 -0.02379624 1.2718939e-38 328 258
0.01189812 0.75400001 -0.02379624 1.2718939e-38 329 258
0.013220133 0.75400001 -0.02379624 1.2719302e-38 330 258
0.014542146 0.75400001 -0.02379624 1.2719302e-38 331 258
0.015822079 0.75199997 -0.023733119 1.2995168e-38 332 258
0.017140586 0.75199997 -0.023733119 1.2995168e-38 333 258
0.018459093 0.75199997 -0.023733119 1.3178838e-38 334 258
0.0197776 0.75199997 -0.023733119 1.3178838e-38 335 258
0.02104 0.75 -0.023669999 1.3179557e-38 336 258
0.022355 0.75 -0.023669999 1.3179557e-38 337 258
0.02363844 0.74900001 -0.02363844 1.3271754e-38 338 258
0.024951685 0.74900001 -0.02363844 1.3271754e-38 339 258
0.026264934 0.74900001 -0.02363844 1.3272473e-38 340 258
0.027578179 0.74900001 -0.02363844 1.3088442e-38 341 258
0.028814279 0.74699998 -0.023575317 1.3088442e-38 342 258
0.030124018 0.74699998 -0.023575317 1.3088442e-38 343 258
0.031433757 0.74699998 -0.023575317 1.3271754e-38 344 258
0.032743499 0.74699998 -0.023575317 1.3364308e-38 345 258
0.034007654 0.74599999 -0.023543758 1.3455422e-38 346 258
0.03531564 0.74599999 -0.023543758 1.3455422e-38 347 258
0.036623627 0.74599999 -0.023543758 1.3271389e-38 348 258
0.037829921 0.74400002 -0.023480639 1.3271389e-38 349 258
0.0390292 0.74199998 -0.023417519 1.3270308e-38 350 258
0.04027582 0.741 -0.023385961 1.2348712e-38 351 258
0.041575037 0.741 -0.023385961 1.2255061e-38 352 258
0.042874258 0.741 -0.023385961 1.2162866e-38 353 258
0.044173479 0.741 -0.023385961 1.1979919e-38 354 258
0.045349967 0.73900002 -0.023322839 1.2164669e-38 355 258
0.046645679 0.73900002 -0.023322839 1.2258329e-38 356 258
0.047876518 0.73799998 -0.023291279 1.2442722e-38 357 258
0.049170475 0.73799998 -0.023291279 1.2809349e-38 358 258
0.050327681 0.736 -0.023228159 1.2809349e-38 359 258
0.051477864 0.73400003 -0.023165042 1.2442725e-38 360 258
0.052764814 0.73400003 -0.023165042 1.2811147e-38 361 258
0.054051761 0.73400003 -0.023165042 1.2995541e-38 362 258
0.055338707 0.73400003 -0.023165042 1.2903345e-38 363 258
0.056625653 0.73400003 -0.023165042 1.2994094e-38 364 258
0.057833698 0.73299998 -0.023133477 1.2533474e-38 365 258
0.059118889 0.73299998 -0.023133477 1.2441273e-38 366 258
0.060404085 0.73299998 -0.023133477 1.2441273e-38 367 258
0.061689276 0.73299998 -0.023133477 1.2167933e-38 368 258
0.062802643 0.73100001 -0.02307036 1.244416e-38 369 258
0.063821331 0.72799999 -0.022975679 1.271643e-38 370 258
0.065097757 0.72799999 -0.022975679 1.2532039e-38 371 258
0.066374183 0.72799999 -0.022975679 1.2716418e-38 372 258
0.067557678 0.727 -0.022944121 1.3177396e-38 373 258
0.06883236 0.727 -0.022944121 1.3640532e-38 374 258
0.070107035 0.727 -0.022944121 1.3732728e-38 375 258
0.071381703 0.727 -0.022944121 1.3641614e-38 376 258
0.072656378 0.727 -0.022944121 1.3917842e-38 377 258
0.073727667 0.72500002 -0.022880999 1.4009675e-38 378 258
0.074998833 0.72500002 -0.022880999 1.4009675e-38 379 258
0.076269999 0.72500002 -0.022880999 1.4285533e-38 380 258
0.077327259 0.72299999 -0.02281788 1.4193337e-38 381 258
0.078594916 0.72299999 -0.02281788 1.4653946e-38 382 258
0.079752117 0.722 -0.022786319 1.4838696e-38 383 258
0.081018023 0.722 -0.022786319 1.4749012e-38 384 258
0.082283929 0.722 -0.022786319 1.5025958e-38 385 258
0.083549835 0.722 -0.022786319 1.6127265e-38 386 258
0.084815748 0.722 -0.022786319 1.6219461e-38 387 258
0.086081654 0.722 -0.022786319 1.6037218e-38 388 258
0.08734756 0.722 -0.022786319 1.5945022e-38 389 258
0.088613465 0.722 -0.022786319 1.585318e-38 390 258
0.089630403 0.72000003 -0.022723202 1.585318e-38 391 258
0.090892807 0.72000003 -0.022723202 1.5392933e-38 392 258
0.092411183 0.722 -0.022786319 1.5392933e-38 393 258
0.093677096 0.722 -0.022786319 1.4841224e-38 394 258
0.094943002 0.722 -0.022786319 1.4933778e-38 395 258
0.096208908 0.722 -0.022786319 1.4294594e-38 396 258
0.097474813 0.722 -0.022786319 1.5585333e-38 397 258
0.098740719 0.722 -0.022786319 1.687541e-38 398 258
0.10000663 0.722 -0.022786319 1.7613334e-38 399 258
0.10127253 0.722 -0.022786319 1.8621722e-38 400 258
-0.080334224 0.73900002 -0.024618553 1.5760687e-38 258 259
-0.079038516 0.73900002 -0.024618553 1.6406056e-38 259 259
-0.077637598 0.73799998 -0.024585238 1.6590799e-38 260 259
-0.076136746 0.736 -0.024518613 1.6498602e-38 261 259
-0.07484629 0.736 -0.024518613 1.6497533e-38 262 259
-0.073555835 0.736 -0.024518613 1.6405337e-38 263 259
-0.072265387 0.736 -0.024518613 1.6313139e-38 264 259
-0.070974931 0.736 -0.024518613 1.6220943e-38 265 259
-0.069495119 0.73400003 -0.024451986 1.5670288e-38 266 259
-0.068208173 0.73400003 -0.024451986 1.5485895e-38 267 259
-0.066921227 0.73400003 -0.024451986 1.5392627e-38 268 259
-0.06563428 0.73400003 -0.024451986 1.5392627e-38 269 259
-0.064347334 0.73400003 -0.024451986 1.5300429e-38 270 259
-0.063232213 0.736 -0.024518613 1.5024202e-38 271 259
-0.061941758 0.736 -0.024518613 1.4656495e-38 272 259
-0.060651302 0.736 -0.024518613 1.4287353e-38 273 259
-0.059360851 0.736 -0.024518613 1.4011488e-38 274 259
-0.058070395 0.736 -0.024518613 1.3827097e-38 275 259
-0.056779943 0.736 -0.024518613 1.3826744e-38 276 259
-0.055640277 0.73799998 -0.024585238 1.3734548e-38 277 259
-0.054346316 0.73799998 -0.024585238 1.3458687e-38 278 259
-0.053052358 0.73799998 -0.024585238 1.3458687e-38 279 259
-0.051758397 0.73799998 -0.024585238 1.336722e-38 280 259
-0.050532822 0.73900002 -0.024618553 1.3274666e-38 281 259
-0.049370356 0.741 -0.024685178 1.3458337e-38 282 259
-0.048136011 0.74199998 -0.024718491 1.3458337e-38 283 259
-0.046835039 0.74199998 -0.024718491 1.3365771e-38 284 259
-0.045534063 0.74199998 -0.024718491 1.3181021e-38 285 259
-0.044352323 0.74400002 -0.02478512 1.3271406e-38 286 259
-0.04316356 0.74599999 -0.024851745 1.2072863e-38 287 259
-0.04185557 0.74599999 -0.024851745 1.0693892e-38 288 259
-0.040601939 0.74699998 -0.024885058 1.1339261e-38 289 259
-0.039292198 0.74699998 -0.024885058 1.1982115e-38 290 259
-0.03798246 0.74699998 -0.024885058 1.2166146e-38 291 259
-0.036770906 0.74900001 -0.024951685 1.2168633e-38 292 259
-0.03545766 0.74900001 -0.024951685 1.2168633e-38 293 259
-0.034144413 0.74900001 -0.024951685 1.2169335e-38 294 259
-0.032874998 0.75 -0.024984999 1.207714e-38 295 259
-0.03156 0.75 -0.024984999 1.1893844e-38 296 259
-0.030244999 0.75 -0.024984999 1.1893844e-38 297 259
-0.028929999 0.75 -0.024984999 1.1893507e-38 298 259
-0.027762281 0.75400001 -0.025118252 1.1709476e-38 299 259
-0.02637013 0.75199997 -0.025051624 1.1709125e-38 300 259
-0.025051624 0.75199997 -0.025051624 1.1616571e-38 301 259
-0.02379624 0.75400001 -0.025118252 1.1799886e-38 302 259
-0.022474226 0.75400001 -0.025118252 1.1707689e-38 303 259
-0.021180267 0.755 -0.025151566 1.1707336e-38 304 259
-0.018532733 0.755 -0.025151566 1.1524026e-38 306 259
-0.017208965 0.755 -0.025151566 1.1524026e-38 307 259
-0.015885198 0.755 -0.025151566 1.1707339e-38 308 259
0.021096105 0.75199997 -0.025051624 1.2443428e-38 336 259
0.022414612 0.75199997 -0.025051624 1.2627459e-38 337 259
0.023669999 0.75 -0.024984999 1.2536358e-38 338 259
0.024984999 0.75 -0.024984999 1.2536358e-38 339 259
0.0263 0.75 -0.024984999 1.2536005e-38 340 259
0.027615 0.75 -0.024984999 1.2536005e-38 341 259
0.028891427 0.74900001 -0.024951685 1.2628556e-38 342 259
0.030204674 0.74900001 -0.024951685 1.2628556e-38 343 259
0.031433757 0.74699998 -0.024885058 1.2812222e-38 344 259
0.032743499 0.74699998 -0.024885058 1.2904417e-38 345 259
0.034053236 0.74699998 -0.024885058 1.2996247e-38 346 259
0.035362978 0.74699998 -0.024885058 1.2904052e-38 347 259
0.036623627 0.74599999 -0.024851745 1.2904052e-38 348 259
0.03793161 0.74599999 -0.024851745 1.2811497e-38 349 259
0.039134398 0.74400002 -0.02478512 1.2993725e-38 350 259
0.040330172 0.74199998 -0.024718491 1.2717137e-38 351 259
0.041631144 0.74199998 -0.024718491 1.2439828e-38 352 259
0.042874258 0.741 -0.024685178 1.1794459e-38 353 259
0.044173479 0.741 -0.024685178 1.20689e-38 354 259
0.045349967 0.73900002 -0.024618553 1.20689e-38 355 259
0.046645679 0.73900002 -0.024618553 1.1977812e-38 356 259
0.047876518 0.73799998 -0.024585238 1.2070007e-38 357 259
0.049170475 0.73799998 -0.024585238 1.1609752e-38 358 259
0.050327681 0.736 -0.024518613 1.1609752e-38 359 259
0.051618133 0.736 -0.024518613 1.1703373e-38 360 259
0.052764814 0.73400003 -0.024451986 1.1795569e-38 361 259
0.054051761 0.73400003 -0.024451986 1.2163632e-38 362 259
0.055338707 0.73400003 -0.024451986 1.2163632e-38 363 259
0.056625653 0.73400003 -0.024451986 1.1979947e-38 364 259
0.057833698 0.73299998 -0.024418673 1.151861e-38 365 259
0.059118889 0.73299998 -0.024418673 1.0782846e-38 366 259
0.060404085 0.73299998 -0.024418673 1.0875042e-38 367 259
0.061689276 0.73299998 -0.024418673 1.0508794e-38 368 259
0.062802643 0.73100001 -0.024352046 1.1246718e-38 369 259
0.063821331 0.72799999 -0.024252106 1.2072879e-38 370 259
0.065097757 0.72799999 -0.024252106 1.1980683e-38 371 259
0.06628301 0.727 -0.024218792 1.2532771e-38 372 259
0.067557678 0.727 -0.024218792 1.3546564e-38 373 259
0.06883236 0.727 -0.024218792 1.3273207e-38 374 259
0.070107035 0.727 -0.024218792 1.3365403e-38 375 259
0.071381703 0.727 -0.024218792 1.3366472e-38 376 259
0.072456501 0.72500002 -0.024152167 1.3366472e-38 377 259
0.073727667 0.72500002 -0.024152167 1.3824929e-38 378 259
0.074791931 0.72299999 -0.024085538 1.3824929e-38 379 259
0.076059602 0.72299999 -0.024085538 1.3733811e-38 380 259
0.077327259 0.72299999 -0.024085538 1.3733811e-38 381 259
0.078594916 0.72299999 -0.024085538 1.3918198e-38 382 259
0.079752117 0.722 -0.024052227 1.3918198e-38 383 259
0.081018023 0.722 -0.024052227 1.437845e-38 384 259
0.082283929 0.722 -0.024052227 1.4655397e-38 385 259
0.083549835 0.722 -0.024052227 1.5299315e-38 386 259
0.084815748 0.722 -0.024052227 1.5483706e-38 387 259
0.086081654 0.722 -0.024052227 1.5760641e-38 388 259
0.08734756 0.722 -0.024052227 1.5760641e-38 389 259
0.088367999 0.72000003 -0.0239856 1.5484763e-38 390 259
0.089630403 0.72000003 -0.0239856 1.5392567e-38 391 259
0.090892807 0.72000003 -0.0239856 1.5117428e-38 392 259
0.092155196 0.72000003 -0.0239856 1.4840842e-38 393 259
0.0934176 0.72000003 -0.0239856 1.4383107e-38 394 259
0.094680004 0.72000003 -0.0239856 1.4106161e-38 395 259
0.0959424 0.72000003 -0.0239856 1.3187845e-38 396 259
0.097204804 0.72000003 -0.0239856 1.3741019e-38 397 259
0.098740719 0.722 -0.024052227 1.5034359e-38 398 259
0.10000663 0.722 -0.024052227 1.6970467e-38 399 259
0.10127253 0.722 -0.024052227 1.797817e-38 400 259
0.10253844 0.722 -0.024052227 1.8162562e-38 401 259
-0.080225512 0.73799998 -0.025879199 1.6588647e-38 258 260
-0.078931555 0.73799998 -0.025879199 1.6680843e-38 259 260
-0.077637598 0.73799998 -0.025879199 1.6498237e-38 260 260
-0.076136746 0.736 -0.025809066 1.6406041e-38 261 260
-0.07484629 0.736 -0.025809066 1.631242e-38 262 260
-0.073555835 0.736 -0.025809066 1.6220225e-38 263 260
-0.072265387 0.736 -0.025809066 1.5668133e-38 264 260
-0.070974931 0.736 -0.025809066 1.5484101e-38 265 260
-0.069495119 0.73400003 -0.025738932 1.5851082e-38 266 260
-0.068208173 0.73400003 -0.025738932 1.5574855e-38 267 260
-0.066921227 0.73400003 -0.025738932 1.5483376e-38 268 260
-0.06563428 0.73400003 -0.025738932 1.5483376e-38 269 260
-0.064347334 0.73400003 -0.025738932 1.5024553e-38 270 260
-0.063060381 0.73400003 -0.025738932 1.4747606e-38 271 260
-0.061773442 0.73400003 -0.025738932 1.3828173e-38 272 260
-0.060651302 0.736 -0.025809066 1.3551586e-38 273 260
-0.059360851 0.736 -0.025809066 1.391822e-38 274 260
-0.058070395 0.736 -0.025809066 1.391822e-38 275 260
-0.056779943 0.736 -0.025809066 1.3734192e-38 276 260
-0.055640277 0.73799998 -0.025879199 1.3550161e-38 277 260
-0.054346316 0.73799998 -0.025879199 1.3458684e-38 278 260
-0.053052358 0.73799998 -0.025879199 1.3366489e-38 279 260
-0.051758397 0.73799998 -0.025879199 1.3457968e-38 280 260
-0.050532822 0.73900002 -0.025914267 1.3457968e-38 281 260
-0.049370356 0.741 -0.025984399 1.3457968e-38 282 260
-0.048136011 0.74199998 -0.026019465 1.3365771e-38 283 260
-0.046835039 0.74199998 -0.026019465 1.3456169e-38 284 260
-0.045534063 0.74199998 -0.026019465 1.3271419e-38 285 260
-0.044352323 0.74400002 -0.026089599 1.2903348e-38 286 260
-0.04316356 0.74599999 -0.026159734 1.2718598e-38 287 260
-0.04185557 0.74599999 -0.026159734 1.207538e-38 288 260
-0.040601939 0.74699998 -0.026194798 1.207538e-38 289 260
-0.039292198 0.74699998 -0.026194798 1.20761e-38 290 260
-0.038084153 0.74900001 -0.026264934 1.2168296e-38 291 260
-0.036770906 0.74900001 -0.026264934 1.2260844e-38 292 260
-0.035505001 0.75 -0.0263 1.2168649e-38 293 260
-0.034189999 0.75 -0.0263 1.2168649e-38 294 260
-0.032874998 0.75 -0.0263 1.2076453e-38 295 260
-0.031644158 0.75199997 -0.02637013 1.207645e-38 296 260
-0.030325651 0.75199997 -0.02637013 1.1892418e-38 297 260
-0.029007144 0.75199997 -0.02637013 1.1800222e-38 298 260
0.035362978 0.74699998 -0.026194798 1.3177406e-38 347 260
0.036672719 0.74699998 -0.026194798 1.3177759e-38 348 260
0.03793161 0.74599999 -0.026159734 1.3177759e-38 349 260
0.039239597 0.74599999 -0.026159734 1.2994444e-38 350 260
0.040438879 0.74400002 -0.026089599 1.2994444e-38 351 260
0.04174336 0.74400002 -0.026089599 1.281005e-38 352 260
0.042932119 0.74199998 -0.026019465 1.2626017e-38 353 260
0.044233091 0.74199998 -0.026019465 1.2349793e-38 354 260
0.045472696 0.741 -0.025984399 1.2165762e-38 355 260
0.046645679 0.73900002 -0.025914267 1.1979947e-38 356 260
0.047941394 0.73900002 -0.025914267 1.1610806e-38 357 260
0.049170475 0.73799998 -0.025879199 1.1607587e-38 358 260
0.050327681 0.736 -0.025809066 1.0501241e-38 359 260
0.051618133 0.736 -0.025809066 9.3883998e-39 360 260
0.052764814 0.73400003 -0.025738932 9.1121731e-39 361 260
0.054051761 0.73400003 -0.025738932 8.56366e-39 362 260
0.055338707 0.73400003 -0.025738932 8.2874361e-39 363 260
0.056625653 0.73400003 -0.025738932 7.1825403e-39 364 260
0.057833698 0.73299998 -0.025703866 6.0765682e-39 365 260
0.059118889 0.73299998 -0.025703866 5.1571371e-39 366 260
0.060404085 0.73299998 -0.025703866 5.8946951e-39 367 260
0.061689276 0.73299998 -0.025703866 5.995548e-39 368 260
0.062802643 0.73100001 -0.025633732 7.6550707e-39 369 260
0.063821331 0.72799999 -0.025528532 9.5846979e-39 370 260
0.065097757 0.72799999 -0.025528532 1.0322263e-38 371 260
0.06628301 0.727 -0.025493465 1.1613705e-38 372 260
0.067557678 0.727 -0.025493465 1.2443106e-38 373 260
0.06883236 0.727 -0.025493465 1.3089179e-38 374 260
0.070107035 0.727 -0.025493465 1.3365766e-38 375 260
0.071381703 0.727 -0.025493465 1.3732733e-38 376 260
0.072456501 0.72500002 -0.025423333 1.3732733e-38 377 260
0.073727667 0.72500002 -0.025423333 1.3824563e-38 378 260
0.074791931 0.72299999 -0.025353199 1.3824563e-38 379 260
0.076059602 0.72299999 -0.025353199 1.3733081e-38 380 260
0.077327259 0.72299999 -0.025353199 1.3733081e-38 381 260
0.078594916 0.72299999 -0.025353199 1.3917112e-38 382 260
0.079752117 0.722 -0.025318133 1.3824558e-38 383 260
0.081018023 0.722 -0.025318133 1.364052e-38 384 260
0.082283929 0.722 -0.025318133 1.3732715e-38 385 260
0.083549835 0.722 -0.025318133 1.3642671e-38 386 260
0.084580801 0.72000003 -0.025248 1.428804e-38 387 260
0.085843205 0.72000003 -0.025248 1.502416e-38 388 260
0.087105595 0.72000003 -0.025248 1.5208551e-38 389 260
0.088367999 0.72000003 -0.025248 1.5577314e-38 390 260
0.089630403 0.72000003 -0.025248 1.5392564e-38 391 260
0.090892807 0.72000003 -0.025248 1.4749347e-38 392 260
0.092155196 0.72000003 -0.025248 1.4564955e-38 393 260
0.0934176 0.72000003 -0.025248 1.3829555e-38 394 260
0.094680004 0.72000003 -0.025248 1.3553327e-38 395 260
0.0959424 0.72000003 -0.025248 1.2817238e-38 396 260
0.097204804 0.72000003 -0.025248 1.3001631e-38 397 260
0.098740719 0.722 -0.025318133 1.2637247e-38 398 260
0.099729598 0.72000003 -0.025248 1.4481158e-38 399 260
0.100992 0.72000003 -0.025248 1.7335671e-38 400 260
0.10253844 0.722 -0.025318133 1.7427868e-38 401 260
-0.081629939 0.73900002 -0.027209979 1.5672499e-38 257 261
-0.080334224 0.73900002 -0.027209979 1.6681568e-38 258 261
-0.078931555 0.73799998 -0.027173158 1.6497177e-38 259 261
-0.077637598 0.73799998 -0.027173158 1.6405685e-38 260 261
-0.076343641 0.73799998 -0.027173158 1.6036901e-38 261 261
-0.07484629 0.736 -0.02709952 1.5668133e-38 262 261
-0.073355958 0.73400003 -0.02702588 1.5484101e-38 263 261
-0.072069012 0.73400003 -0.02702588 1.5391909e-38 264 261
-0.070782073 0.73400003 -0.02702588 1.5207159e-38 265 261
-0.069400437 0.73299998 -0.026989058 1.4932002e-38 266 261
-0.068115242 0.73299998 -0.026989058 1.4932002e-38 267 261
-0.066830046 0.73299998 -0.026989058 1.4932367e-38 268 261
-0.065544859 0.73299998 -0.026989058 1.484017e-38 269 261
-0.064347334 0.73400003 -0.02702588 1.4656492e-38 270 261
-0.063060381 0.73400003 -0.02702588 1.428735e-38 271 261
-0.061773442 0.73400003 -0.02702588 1.3643429e-38 272 261
-0.060651302 0.736 -0.02709952 1.3643429e-38 273 261
-0.059360851 0.736 -0.02709952 1.336757e-38 274 261
-0.058070395 0.736 -0.02709952 1.3275375e-38 275 261
-0.056779943 0.736 -0.02709952 1.3275372e-38 276 261
-0.055640277 0.73799998 -0.027173158 1.3183176e-38 277 261
-0.054346316 0.73799998 -0.027173158 1.3366489e-38 278 261
-0.053052358 0.73799998 -0.027173158 1.3366489e-38 279 261
-0.051828533 0.73900002 -0.027209979 1.3366491e-38 280 261
-0.050532822 0.73900002 -0.027209979 1.3366491e-38 281 261
-0.049370356 0.741 -0.027283618 1.3273217e-38 282 261
-0.048136011 0.74199998 -0.027320439 1.3181021e-38 283 261
-0.046835039 0.74199998 -0.027320439 1.3271419e-38 284 261
-0.0456568 0.74400002 -0.027394081 1.2995192e-38 285 261
-0.044471547 0.74599999 -0.027467718 1.2536005e-38 286 261
-0.04316356 0.74599999 -0.027467718 1.2443809e-38 287 261
-0.041911677 0.74699998 -0.027504537 1.2168652e-38 288 261
-0.040710647 0.74900001 -0.027578179 1.2076456e-38 289 261
-0.0393974 0.74900001 -0.027578179 1.20761e-38 290 261
-0.038084153 0.74900001 -0.027578179 1.20761e-38 291 261
-0.036819998 0.75 -0.027615 1.2076103e-38 292 261
-0.035505001 0.75 -0.027615 1.189207e-38 293 261
0.04174336 0.74400002 -0.027394081 1.2718933e-38 352 261
0.043047838 0.74400002 -0.027394081 1.2995519e-38 353 261
0.044352323 0.74400002 -0.027394081 1.2719289e-38 354 261
0.045534063 0.74199998 -0.027320439 1.2534538e-38 355 261
0.046771921 0.741 -0.027283618 1.2441629e-38 356 261
0.048071139 0.741 -0.027283618 1.2256879e-38 357 261
0.049237106 0.73900002 -0.027209979 1.19803e-38 358 261
0.050464436 0.73799998 -0.027173158 1.1518963e-38 359 261
0.051758397 0.73799998 -0.027173158 1.0779956e-38 360 261
0.052764814 0.73400003 -0.02702588 9.7658031e-39 361 261
0.054051761 0.73400003 -0.02702588 9.7611186e-39 362 261
0.055338707 0.73400003 -0.02702588 8.8388078e-39 363 261
0.056548502 0.73299998 -0.026989058 6.7204929e-39 364 261
0.057833698 0.73299998 -0.026989058 5.4297737e-39 365 261
0.059118889 0.73299998 -0.026989058 3.6827469e-39 366 261
0.060404085 0.73299998 -0.026989058 4.4203077e-39 367 261
0.061689276 0.73299998 -0.026989058 3.5041402e-39 368 261
0.062802643 0.73100001 -0.026915418 4.9789101e-39 369 261
0.063821331 0.72799999 -0.026804959 6.4533017e-39 370 261
0.065097757 0.72799999 -0.026804959 7.8362362e-39 371 261
0.06628301 0.727 -0.026768139 9.679762e-39 372 261
0.067557678 0.727 -0.026768139 1.0786108e-38 373 261
0.06883236 0.727 -0.026768139 1.1982484e-38 374 261
0.070107035 0.727 -0.026768139 1.2904441e-38 375 261
0.071381703 0.727 -0.026768139 1.327357e-38 376 261
0.072456501 0.72500002 -0.026694499 1.327357e-38 377 261
0.073727667 0.72500002 -0.026694499 1.327391e-38 378 261
0.074998833 0.72500002 -0.026694499 1.3366106e-38 379 261
0.076269999 0.72500002 -0.026694499 1.3549771e-38 380 261
0.077327259 0.72299999 -0.026620859 1.3549771e-38 381 261
0.078594916 0.72299999 -0.026620859 1.3549771e-38 382 261
0.079752117 0.722 -0.026584039 1.3641967e-38 383 261
0.081018023 0.722 -0.026584039 1.382456e-38 384 261
0.082283929 0.722 -0.026584039 1.382456e-38 385 261
0.083318397 0.72000003 -0.026510401 1.3825632e-38 386 261
0.084580801 0.72000003 -0.026510401 1.3733437e-38 387 261
0.085843205 0.72000003 -0.026510401 1.4194041e-38 388 261
0.087105595 0.72000003 -0.026510401 1.4470986e-38 389 261
0.088367999 0.72000003 -0.026510401 1.4932665e-38 390 261
0.089630403 0.72000003 -0.026510401 1.4747914e-38 391 261
0.090766557 0.71899998 -0.02647358 1.41047e-38 392 261
0.092027202 0.71899998 -0.02647358 1.3920307e-38 393 261
0.093287848 0.71899998 -0.02647358 1.3368216e-38 394 261
0.094680004 0.72000003 -0.026510401 1.3183466e-38 395 261
0.0959424 0.72000003 -0.026510401 1.2723578e-38 396 261
0.097204804 0.72000003 -0.026510401 1.2447352e-38 397 261
0.098467201 0.72000003 -0.026510401 1.0976255e-38 398 261
0.098898515 0.71399999 -0.026289478 1.2359189e-38 399 261
0.10015039 0.71399999 -0.026289478 1.6414788e-38 400 261
0.10253844 0.722 -0.026584039 1.742894e-38 401 261
-0.082813434 0.73799998 -0.028467119 1.6410064e-38 256 262
-0.081519477 0.73799998 -0.028467119 1.5487749e-38 257 262
-0.080225512 0.73799998 -0.028467119 1.6404984e-38 258 262
-0.078931555 0.73799998 -0.028467119 1.6312789e-38 259 262
-0.077427194 0.736 -0.028389972 1.6220225e-38 260 262
-0.076136746 0.736 -0.028389972 1.5758886e-38 261 262
-0.074642912 0.73400003 -0.028312827 1.5483025e-38 262 262
-0.073256016 0.73299998 -0.028274251 1.5206438e-38 263 262
-0.071970828 0.73299998 -0.028274251 1.4838735e-38 264 262
-0.070685625 0.73299998 -0.028274251 1.4838735e-38 265 262
-0.069400437 0.73299998 -0.028274251 1.4838732e-38 266 262
-0.068115242 0.73299998 -0.028274251 1.4838732e-38 267 262
-0.066830046 0.73299998 -0.028274251 1.4747611e-38 268 262
-0.065544859 0.73299998 -0.028274251 1.4655057e-38 269 262
-0.064347334 0.73400003 -0.028312827 1.391929e-38 270 262
-0.063060381 0.73400003 -0.028312827 1.3550867e-38 271 262
-0.061773442 0.73400003 -0.028312827 1.3458681e-38 272 262
-0.060651302 0.736 -0.028389972 1.3458681e-38 273 262
-0.059360851 0.736 -0.028389972 1.3275372e-38 274 262
-0.058070395 0.736 -0.028389972 1.3275372e-38 275 262
-0.056779943 0.736 -0.028389972 1.3366842e-38 276 262
-0.055489492 0.736 -0.028389972 1.3366842e-38 277 262
-0.054346316 0.73799998 -0.028467119 1.3458318e-38 278 262
-0.053052358 0.73799998 -0.028467119 1.3458318e-38 279 262
-0.051828533 0.73900002 -0.028505694 1.3182809e-38 280 262
-0.050532822 0.73900002 -0.028505694 1.3182809e-38 281 262
-0.049370356 0.741 -0.028582839 1.2998062e-38 282 262
-0.048136011 0.74199998 -0.028621411 1.2905866e-38 283 262
-0.046835039 0.74199998 -0.028621411 1.2720399e-38 284 262
-0.0456568 0.74400002 -0.02869856 1.2536008e-38 285 262
-0.044471547 0.74599999 -0.028775707 1.2260141e-38 286 262
-0.043221418 0.74699998 -0.028814279 1.207575e-38 287 262
-0.042023893 0.74900001 -0.028891427 1.1800242e-38 288 262
0.048136011 0.74199998 -0.028621411 1.2351598e-38 357 262
0.049370356 0.741 -0.028582839 1.2810781e-38 358 262
0.050532822 0.73900002 -0.028505694 1.3087008e-38 359 262
0.051828533 0.73900002 -0.028505694 1.317849e-38 360 262
0.052908584 0.736 -0.028389972 1.2533121e-38 361 262
0.054051761 0.73400003 -0.028312827 1.2161093e-38 362 262
0.055338707 0.73400003 -0.028312827 1.0870354e-38 363 262
0.056548502 0.73299998 -0.028274251 9.0271661e-39 364 262
0.057833698 0.73299998 -0.028274251 6.8141221e-39 365 262
0.059118889 0.73299998 -0.028274251 5.1553434e-39 366 262
0.060404085 0.73299998 -0.028274251 4.6940135e-39 367 262
0.061689276 0.73299998 -0.028274251 2.9452001e-39 368 262
0.062802643 0.73100001 -0.028197108 3.1299501e-39 369 262
0.063996665 0.73000002 -0.028158534 2.8598274e-39 370 262
0.065097757 0.72799999 -0.028081384 4.51899e-39 371 262
0.06628301 0.727 -0.028042812 7.099006e-39 372 262
0.067557678 0.727 -0.028042812 8.4819405e-39 373 262
0.06883236 0.727 -0.028042812 1.0230781e-38 374 262
0.070107035 0.727 -0.028042812 1.1521519e-38 375 262
0.071381703 0.727 -0.028042812 1.2535655e-38 376 262
0.072456501 0.72500002 -0.027965667 1.2720047e-38 377 262
0.073727667 0.72500002 -0.027965667 1.3364674e-38 378 262
0.074998833 0.72500002 -0.027965667 1.3549065e-38 379 262
0.076269999 0.72500002 -0.027965667 1.3550134e-38 380 262
0.077327259 0.72299999 -0.02788852 1.3550134e-38 381 262
0.078486212 0.722 -0.027849946 1.3825277e-38 382 262
0.079752117 0.722 -0.027849946 1.3733081e-38 383 262
0.081018023 0.722 -0.027849946 1.3824558e-38 384 262
0.082283929 0.722 -0.027849946 1.3732362e-38 385 262
0.083318397 0.72000003 -0.027772799 1.4008229e-38 386 262
0.084580801 0.72000003 -0.027772799 1.3915674e-38 387 262
0.085843205 0.72000003 -0.027772799 1.364052e-38 388 262
0.087105595 0.72000003 -0.027772799 1.3732715e-38 389 262
0.088245258 0.71899998 -0.027734226 1.3641586e-38 390 262
0.089505911 0.71899998 -0.027734226 1.3641586e-38 391 262
0.090766557 0.71899998 -0.027734226 1.3366784e-38 392 262
0.092027202 0.71899998 -0.027734226 1.3366784e-38 393 262
0.093287848 0.71899998 -0.027734226 1.3090918e-38 394 262
0.094548494 0.71899998 -0.027734226 1.2906525e-38 395 262
0.095809139 0.71899998 -0.027734226 1.2629589e-38 396 262
0.097204804 0.72000003 -0.027772799 1.216861e-38 397 262
0.098467201 0.72000003 -0.027772799 9.131979e-39 398 262
0.098898515 0.71399999 -0.02754136 9.5004028e-39 399 262
0.10015039 0.71399999 -0.02754136 1.4573393e-38 400 262
-0.082589008 0.736 -0.029680425 1.6133472e-38 256 263
-0.08129856 0.736 -0.029680425 1.5211874e-38 257 263
-0.080008104 0.736 -0.029680425 1.6312423e-38 258 263
-0.078717649 0.736 -0.029680425 1.6035476e-38 259 263
-0.077427194 0.736 -0.029680425 1.5943277e-38 260 263
-0.076136746 0.736 -0.029680425 1.5390104e-38 261 263
-0.074642912 0.73400003 -0.029599773 1.4747258e-38 262 263
-0.073256016 0.73299998 -0.029559445 1.4655062e-38 263 263
-0.071970828 0.73299998 -0.029559445 1.4837653e-38 264 263
-0.070492767 0.73100001 -0.029478792 1.4837653e-38 265 263
-0.069211073 0.73100001 -0.029478792 1.4746892e-38 266 263
-0.067929395 0.73100001 -0.029478792 1.4746892e-38 267 263
-0.066830046 0.73299998 -0.029559445 1.4379552e-38 268 263
-0.065544859 0.73299998 -0.029559445 1.4010769e-38 269 263
-0.064259663 0.73299998 -0.029559445 1.3550517e-38 270 263
-0.062974468 0.73299998 -0.029559445 1.3458321e-38 271 263
-0.061773442 0.73400003 -0.029599773 1.3183176e-38 272 263
-0.060486492 0.73400003 -0.029599773 1.3183176e-38 273 263
-0.059360851 0.736 -0.029680425 1.2999861e-38 274 263
-0.058070395 0.736 -0.029680425 1.2999861e-38 275 263
-0.056779943 0.736 -0.029680425 1.3182453e-38 276 263
-0.055489492 0.736 -0.029680425 1.3182453e-38 277 263
-0.054346316 0.73799998 -0.029761078 1.3365766e-38 278 263
-0.053052358 0.73799998 -0.029761078 1.3365766e-38 279 263
-0.051828533 0.73900002 -0.029801406 1.327357e-38 280 263
-0.050669577 0.741 -0.029882059 1.3181374e-38 281 263
-0.049370356 0.741 -0.029882059 1.2813315e-38 282 263
-0.048136011 0.74199998 -0.029922385 1.2721119e-38 283 263
-0.046835039 0.74199998 -0.029922385 1.2352339e-38 284 263
-0.0456568 0.74400002 -0.030003037 1.2260144e-38 285 263
0.051828533 0.73900002 -0.029801406 1.2994449e-38 360 263
0.053052358 0.73799998 -0.029761078 1.2994449e-38 361 263
0.054346316 0.73799998 -0.029761078 1.2901901e-38 362 263
0.055338707 0.73400003 -0.029599773 1.2533118e-38 363 263
0.056625653 0.73400003 -0.029599773 1.1887398e-38 364 263
0.057912603 0.73400003 -0.029599773 1.1149833e-38 365 263
0.059118889 0.73299998 -0.029559445 9.9491392e-39 366 263
0.060404085 0.73299998 -0.029559445 8.1052266e-39 367 263
0.061689276 0.73299998 -0.029559445 7.089651e-39 368 263
0.062802643 0.73100001 -0.029478792 6.3520859e-39 369 263
0.063996665 0.73000002 -0.029438468 5.1564294e-39 370 263
0.065097757 0.72799999 -0.029357811 5.3408221e-39 371 263
0.066374183 0.72799999 -0.029357811 5.1607482e-39 372 263
0.067557678 0.727 -0.029317487 6.6358797e-39 373 263
0.06883236 0.727 -0.029317487 7.744744e-39 374 263
0.070107035 0.727 -0.029317487 9.4964624e-39 375 263
0.071381703 0.727 -0.029317487 1.1337834e-38 376 263
0.072456501 0.72500002 -0.029236834 1.1891368e-38 377 263
0.073727667 0.72500002 -0.029236834 1.2903343e-38 378 263
0.074998833 0.72500002 -0.029236834 1.3272125e-38 379 263
0.076269999 0.72500002 -0.029236834 1.3365027e-38 380 263
0.077327259 0.72299999 -0.029156178 1.3549418e-38 381 263
0.078486212 0.722 -0.029115854 1.3733081e-38 382 263
0.079752117 0.722 -0.029115854 1.3733081e-38 383 263
0.081018023 0.722 -0.029115854 1.3824914e-38 384 263
0.082283929 0.722 -0.029115854 1.3824914e-38 385 263
0.083318397 0.72000003 -0.029035201 1.3732718e-38 386 263
0.084580801 0.72000003 -0.029035201 1.3732718e-38 387 263
0.085843205 0.72000003 -0.029035201 1.3640166e-38 388 263
0.086984619 0.71899998 -0.028994869 1.3640166e-38 389 263
0.088245258 0.71899998 -0.028994869 1.3365012e-38 390 263
0.089505911 0.71899998 -0.028994869 1.3088065e-38 391 263
0.090766557 0.71899998 -0.028994869 1.2537747e-38 392 263
0.092027202 0.71899998 -0.028994869 1.2445551e-38 393 263
0.093287848 0.71899998 -0.028994869 1.2629945e-38 394 263
0.094548494 0.71899998 -0.028994869 1.2445554e-38 395 263
0.095809139 0.71899998 -0.028994869 1.1615086e-38 396 263
0.097069785 0.71899998 -0.028994869 1.0324347e-38 397 263
0.098467201 0.72000003 -0.029035201 7.9251696e-39 398 263
0.098898515 0.71399999 -0.028793238 7.4641928e-39 399 263
0.10015039 0.71399999 -0.028793238 1.116684e-38 400 263
-0.082589008 0.736 -0.030970879 1.6225667e-38 256 264
-0.08129856 0.736 -0.030970879 1.4934928e-38 257 264
-0.080008104 0.736 -0.030970879 1.5852164e-38 258 264
-0.078717649 0.736 -0.030970879 1.5575218e-38 259 264
-0.077427194 0.736 -0.030970879 1.5482659e-38 260 264
-0.07592985 0.73400003 -0.030886721 1.5113517e-38 261 264
-0.074642912 0.73400003 -0.030886721 1.4654344e-38 262 264
-0.073056139 0.73100001 -0.03076048 1.4469592e-38 263 264
-0.071774453 0.73100001 -0.03076048 1.4561425e-38 264 264
-0.070492767 0.73100001 -0.03076048 1.4561425e-38 265 264
-0.069211073 0.73100001 -0.03076048 1.4378833e-38 266 264
-0.067929395 0.73100001 -0.03076048 1.4378833e-38 267 264
-0.066647708 0.73100001 -0.03076048 1.3919295e-38 268 264
-0.065366022 0.73100001 -0.03076048 1.3458318e-38 269 264
-0.064259663 0.73299998 -0.030844638 1.3182456e-38 270 264
-0.062974468 0.73299998 -0.030844638 1.309026e-38 271 264
-0.061689276 0.73299998 -0.030844638 1.2815113e-38 272 264
-0.060486492 0.73400003 -0.030886721 1.2907308e-38 273 264
-0.059199546 0.73400003 -0.030886721 1.2907664e-38 274 264
-0.058070395 0.736 -0.030970879 1.2815469e-38 275 264
-0.056779943 0.736 -0.030970879 1.2998425e-38 276 264
-0.055489492 0.736 -0.030970879 1.2906229e-38 277 264
-0.054346316 0.73799998 -0.031055039 1.2997709e-38 278 264
-0.053124249 0.73900002 -0.03109712 1.2997709e-38 279 264
-0.051968798 0.741 -0.03118128 1.3088826e-38 280 264
-0.050669577 0.741 -0.03118128 1.2812599e-38 281 264
-0.049370356 0.741 -0.03118128 1.2169746e-38 282 264
-0.048136011 0.74199998 -0.031223357 1.207755e-38 283 264
-0.046835039 0.74199998 -0.031223357 1.207575e-38 284 264
0.058070395 0.736 -0.030970879 1.308666e-38 365 264
0.059199546 0.73400003 -0.030886721 1.2993027e-38 366 264
0.060486492 0.73400003 -0.030886721 1.1978515e-38 367 264
0.061689276 0.73299998 -0.030844638 1.1055467e-38 368 264
0.062802643 0.73100001 -0.03076048 9.4881415e-39 369 264
0.063996665 0.73000002 -0.030718399 8.1981439e-39 370 264
0.065097757 0.72799999 -0.030634239 7.921557e-39 371 264
0.066374183 0.72799999 -0.030634239 6.5408128e-39 372 264
0.067557678 0.727 -0.030592158 6.4486172e-39 373 264
0.06883236 0.727 -0.030592158 7.1894038e-39 374 264
0.070107035 0.727 -0.030592158 8.7567295e-39 375 264
0.071381703 0.727 -0.030592158 1.0782846e-38 376 264
0.072656378 0.727 -0.030592158 1.1520411e-38 377 264
0.073727667 0.72500002 -0.030508002 1.2349443e-38 378 264
0.074998833 0.72500002 -0.030508002 1.2718586e-38 379 264
0.076269999 0.72500002 -0.030508002 1.281185e-38 380 264
0.077327259 0.72299999 -0.030423839 1.3088797e-38 381 264
0.078594916 0.72299999 -0.030423839 1.3456857e-38 382 264
0.079752117 0.722 -0.030381758 1.3640888e-38 383 264
0.081018023 0.722 -0.030381758 1.3457576e-38 384 264
0.082283929 0.722 -0.030381758 1.3457576e-38 385 264
0.083318397 0.72000003 -0.0302976 1.3732715e-38 386 264
0.084580801 0.72000003 -0.0302976 1.364052e-38 387 264
0.085843205 0.72000003 -0.0302976 1.3640154e-38 388 264
0.086984619 0.71899998 -0.030255521 1.3547957e-38 389 264
0.088245258 0.71899998 -0.030255521 1.327209e-38 390 264
0.089505911 0.71899998 -0.030255521 1.2903308e-38 391 264
0.090766557 0.71899998 -0.030255521 1.2444125e-38 392 264
0.091771215 0.71700001 -0.030171359 1.1983146e-38 393 264
0.093028352 0.71700001 -0.030171359 1.18002e-38 394 264
0.094154 0.71600002 -0.03012928 1.115483e-38 395 264
0.095409386 0.71600002 -0.03012928 9.9548775e-39 396 264
0.096664771 0.71600002 -0.03012928 8.0187693e-39 397 264
0.098330431 0.71899998 -0.030255521 5.1593371e-39 398 264
0.098760001 0.713 -0.030003037 3.5923701e-39 399 264
0.10001013 0.713 -0.030003037 6.0100052e-39 400 264
-0.082589008 0.736 -0.032261331 1.7053633e-38 256 265
-0.08129856 0.736 -0.032261331 1.5117525e-38 257 265
-0.080008104 0.736 -0.032261331 1.5207159e-38 258 265
-0.07850375 0.73400003 -0.032173667 1.4746539e-38 259 265
-0.077216797 0.73400003 -0.032173667 1.4929486e-38 260 265
-0.075619511 0.73100001 -0.032042164 1.4744734e-38 261 265
-0.074236132 0.73000002 -0.031998333 1.455999e-38 262 265
-0.072956197 0.73000002 -0.031998333 1.4652186e-38 263 265
-0.071676269 0.73000002 -0.031998333 1.4469229e-38 264 265
-0.070396334 0.73000002 -0.031998333 1.4469229e-38 265 265
-0.069116399 0.73000002 -0.031998333 1.4286277e-38 266 265
-0.067836471 0.73000002 -0.031998333 1.3917495e-38 267 265
-0.066647708 0.73100001 -0.032042164 1.3456516e-38 268 265
-0.065366022 0.73100001 -0.032042164 1.3456516e-38 269 265
-0.064259663 0.73299998 -0.032129832 1.2998059e-38 270 265
-0.062974468 0.73299998 -0.032129832 1.2998059e-38 271 265
-0.061689276 0.73299998 -0.032129832 1.2998059e-38 272 265
-0.060486492 0.73400003 -0.032173667 1.3090255e-38 273 265
-0.059199546 0.73400003 -0.032173667 1.2999134e-38 274 265
-0.058070395 0.736 -0.032261331 1.290658e-38 275 265
-0.056779943 0.736 -0.032261331 1.2905864e-38 276 265
-0.055489492 0.736 -0.032261331 1.2813668e-38 277 265
-0.054419957 0.73900002 -0.032392833 1.2996264e-38 278 265
-0.053124249 0.73900002 -0.032392833 1.2996264e-38 279 265
-0.051968798 0.741 -0.032480497 1.2444888e-38 280 265
-0.050669577 0.741 -0.032480497 1.2444888e-38 281 265
-0.049370356 0.741 -0.032480497 1.1984633e-38 282 265
0.062974468 0.73299998 -0.032129832 1.2258329e-38 369 265
0.063996665 0.73000002 -0.031998333 1.1980683e-38 370 265
0.0652766 0.73000002 -0.031998333 1.1704456e-38 371 265
0.066374183 0.72799999 -0.031910665 1.1059099e-38 372 265
0.067650609 0.72799999 -0.031910665 1.0045306e-38 373 265
0.068927035 0.72799999 -0.031910665 1.0228603e-38 374 265
0.070203468 0.72799999 -0.031910665 1.0689222e-38 375 265
0.071381703 0.727 -0.03186683 1.1242382e-38 376 265
0.072656378 0.727 -0.03186683 1.1703002e-38 377 265
0.073727667 0.72500002 -0.031779166 1.216361e-38 378 265
0.074998833 0.72500002 -0.031779166 1.2255807e-38 379 265
0.076269999 0.72500002 -0.031779166 1.2624938e-38 380 265
0.077327259 0.72299999 -0.031691495 1.2901885e-38 381 265
0.078594916 0.72299999 -0.031691495 1.3270308e-38 382 265
0.079752117 0.722 -0.031647664 1.3362503e-38 383 265
0.081018023 0.722 -0.031647664 1.3547255e-38 384 265
0.082283929 0.722 -0.031647664 1.363945e-38 385 265
0.083318397 0.72000003 -0.03156 1.3639803e-38 386 265
0.084580801 0.72000003 -0.03156 1.391603e-38 387 265
0.085843205 0.72000003 -0.03156 1.3640873e-38 388 265
0.087105595 0.72000003 -0.03156 1.3548677e-38 389 265
0.088367999 0.72000003 -0.03156 1.2997654e-38 390 265
0.089505911 0.71899998 -0.031516165 1.2812904e-38 391 265
0.090766557 0.71899998 -0.031516165 1.225973e-38 392 265
0.091771215 0.71700001 -0.031428497 1.2075339e-38 393 265
0.093028352 0.71700001 -0.031428497 1.0143568e-38 394 265
0.094154 0.71600002 -0.031384666 7.2855049e-39 395 265
0.095409386 0.71600002 -0.031384666 6.7287788e-39 396 265
0.096664771 0.71600002 -0.031384666 6.0834094e-39 397 265
0.098330431 0.71899998 -0.031516165 3.7796495e-39 398 265
0.098760001 0.713 -0.031253166 1.2907262e-39 399 265
0.10001013 0.713 -0.031253166 2.9243137e-40 400 265
-0.08129856 0.736 -0.033551786 1.5024973e-38 257 266
-0.079790697 0.73400003 -0.033460613 1.428593e-38 258 266
-0.07839679 0.73299998 -0.033415023 1.4654353e-38 259 266
-0.076796003 0.73000002 -0.033278264 1.4837653e-38 260 266
-0.07551606 0.73000002 -0.033278264 1.4561425e-38 261 266
-0.074236132 0.73000002 -0.033278264 1.4653245e-38 262 266
-0.072756313 0.72799999 -0.033187091 1.4745441e-38 263 266
-0.071479887 0.72799999 -0.033187091 1.4744719e-38 264 266
-0.070396334 0.73000002 -0.033278264 1.4929109e-38 265 266
-0.069116399 0.73000002 -0.033278264 1.4010043e-38 266 266
-0.067836471 0.73000002 -0.033278264 1.3733458e-38 267 266
-0.066556528 0.73000002 -0.033278264 1.3273207e-38 268 266
-0.0652766 0.73000002 -0.033278264 1.3273207e-38 269 266
-0.064084329 0.73100001 -0.033323854 1.3181727e-38 270 266
-0.062974468 0.73299998 -0.033415023 1.3181727e-38 271 266
-0.061689276 0.73299998 -0.033415023 1.2906582e-38 272 266
-0.060486492 0.73400003 -0.033460613 1.2906582e-38 273 266
-0.059199546 0.73400003 -0.033460613 1.272327e-38 274 266
-0.058070395 0.736 -0.033551786 1.2631075e-38 275 266
-0.056779943 0.736 -0.033551786 1.2630003e-38 276 266
-0.055489492 0.736 -0.033551786 1.2537807e-38 277 266
-0.054419957 0.73900002 -0.033688545 1.2169393e-38 278 266
0.066556528 0.73000002 -0.033278264 1.2533837e-38 372 266
0.067836471 0.73000002 -0.033278264 1.2349446e-38 373 266
0.069116399 0.73000002 -0.033278264 1.179661e-38 374 266
0.070203468 0.72799999 -0.033187091 1.1704414e-38 375 266
0.071479887 0.72799999 -0.033187091 1.1980998e-38 376 266
0.072656378 0.727 -0.033141505 1.2165389e-38 377 266
0.073931053 0.727 -0.033141505 1.253239e-38 378 266
0.075205728 0.727 -0.033141505 1.253239e-38 379 266
0.076480396 0.727 -0.033141505 1.2625664e-38 380 266
0.077327259 0.72299999 -0.032959159 1.2625664e-38 381 266
0.078594916 0.72299999 -0.032959159 1.2809346e-38 382 266
0.079752117 0.722 -0.032913569 1.2901901e-38 383 266
0.081018023 0.722 -0.032913569 1.3085939e-38 384 266
0.082283929 0.722 -0.032913569 1.327033e-38 385 266
0.083549835 0.722 -0.032913569 1.3271759e-38 386 266
0.084580801 0.72000003 -0.0328224 1.3363955e-38 387 266
0.085843205 0.72000003 -0.0328224 1.3273179e-38 388 266
0.087105595 0.72000003 -0.0328224 1.3089146e-38 389 266
0.088367999 0.72000003 -0.0328224 1.3180245e-38 390 266
0.089505911 0.71899998 -0.032776814 1.2811461e-38 391 266
0.090766557 0.71899998 -0.032776814 1.2626345e-38 392 266
0.091771215 0.71700001 -0.032685637 1.188878e-38 393 266
0.093028352 0.71700001 -0.032685637 9.4971448e-39 394 266
0.094154 0.71600002 -0.032640055 5.809321e-39 395 266
0.095409386 0.71600002 -0.032640055 4.9778227e-39 396 266
0.096799776 0.71700001 -0.032685637 5.3466052e-39 397 266
0.098330431 0.71899998 -0.032776814 3.6878084e-39 398 266
0.099314056 0.71700001 -0.032685637 3.6841818e-40 399 266
0.1005712 0.71700001 -0.032685637 1.302598e-39 400 266
-0.08129856 0.736 -0.034842238 1.4749834e-38 257 267
-0.07913845 0.72799999 -0.034463517 1.364093e-38 258 267
-0.077862024 0.72799999 -0.034463517 1.4378495e-38 259 267
-0.076585598 0.72799999 -0.034463517 1.4655062e-38 260 267
-0.075309172 0.72799999 -0.034463517 1.4562508e-38 261 267
-0.074032739 0.72799999 -0.034463517 1.4747596e-38 262 267
-0.072756313 0.72799999 -0.034463517 1.5023823e-38 263 267
-0.071479887 0.72799999 -0.034463517 1.4932356e-38 264 267
-0.070203468 0.72799999 -0.034463517 1.4747606e-38 265 267
-0.068927035 0.72799999 -0.034463517 1.3733829e-38 266 267
-0.067836471 0.73000002 -0.034558199 1.3272851e-38 267 267
-0.066556528 0.73000002 -0.034558199 1.3273204e-38 268 267
-0.0652766 0.73000002 -0.034558199 1.3181009e-38 269 267
