# .PCD v.7 - Point Cloud Data file format
FIELDS x y z rgb imX imY
SIZE 4 4 4 4 4 4
TYPE F F F F F F
COUNT 1 1 1 1 1 1
WIDTH 845
HEIGHT 1
VIEWPOINT 0 0 0 1 0 0 0
POINTS 845
DATA ascii
-0.091173328 0.80000001 0.0056106667 1.4930887e-38 255 236
-0.089995086 0.80199999 0.0056246929 1.45614e-38 256 236
-0.088588916 0.80199999 0.0056246929 1.3823835e-38 257 236
-0.087291449 0.80299997 0.0056317062 1.2993375e-38 258 236
-0.085883521 0.80299997 0.0056317062 1.2716786e-38 259 236
-0.084685996 0.80500001 0.0056457333 1.2072525e-38 260 236
-0.083481453 0.80699998 0.0056597595 1.198033e-38 261 236
-0.11922666 0.80000001 0.0042079999 1.4940005e-38 235 237
-0.11752943 0.79799998 0.0041974802 1.4753392e-38 236 237
-0.11613028 0.79799998 0.0041974802 1.4568642e-38 237 237
-0.11473111 0.79799998 0.0041974802 1.613053e-38 238 237
-0.11304791 0.796 0.0041869599 1.6498953e-38 239 237
-0.11165226 0.796 0.0041869599 1.6866295e-38 240 237
-0.1102566 0.796 0.0041869599 1.7235076e-38 241 237
-0.10886096 0.796 0.0041869599 1.723507e-38 242 237
-0.1074653 0.796 0.0041869599 1.7327266e-38 243 237
-0.10606965 0.796 0.0041869599 1.73269e-38 244 237
-0.104411 0.79400003 0.0041764397 1.7050313e-38 245 237
-0.10301885 0.79400003 0.0041764397 1.686448e-38 246 237
-0.1018827 0.796 0.0041869599 1.6587533e-38 247 237
-0.10048704 0.796 0.0041869599 1.6312741e-38 248 237
-0.099091381 0.796 0.0041869599 1.6405297e-38 249 237
-0.097695731 0.796 0.0041869599 1.631453e-38 250 237
-0.096300073 0.796 0.0041869599 1.6222333e-38 251 237
-0.095142879 0.79799998 0.0041974802 1.6130135e-38 252 237
-0.093978666 0.80000001 0.0042079999 1.5760994e-38 253 237
-0.092575997 0.80000001 0.0042079999 1.5391861e-38 254 237
-0.091173328 0.80000001 0.0042079999 1.4931243e-38 255 237
-0.089995086 0.80199999 0.0042185197 1.4561397e-38 256 237
-0.088588916 0.80199999 0.0042185197 1.3639801e-38 257 237
-0.087291449 0.80299997 0.0042237798 1.2993731e-38 258 237
-0.085883521 0.80299997 0.0042237798 1.2716784e-38 259 237
-0.084685996 0.80500001 0.0042343 1.1889566e-38 260 237
-0.083274566 0.80500001 0.0042343 1.1889566e-38 261 237
-0.11922666 0.80000001 0.0028053334 1.4387909e-38 235 238
-0.117824 0.80000001 0.0028053334 1.4567202e-38 236 238
-0.11613028 0.79799998 0.0027983198 1.4751592e-38 237 238
-0.11473111 0.79799998 0.0027983198 1.6037976e-38 238 238
-0.11304791 0.796 0.0027913067 1.6406757e-38 239 238
-0.11165226 0.796 0.0027913067 1.6866297e-38 240 238
-0.10997958 0.79400003 0.0027842934 1.723472e-38 241 238
-0.10858744 0.79400003 0.0027842934 1.7143956e-38 242 238
-0.10719529 0.79400003 0.0027842934 1.7143956e-38 243 238
-0.10580315 0.79400003 0.0027842934 1.723506e-38 244 238
-0.104411 0.79400003 0.0027842934 1.7142506e-38 245 238
-0.10301885 0.79400003 0.0027842934 1.7050665e-38 246 238
-0.10162671 0.79400003 0.0027842934 1.695811e-38 247 238
-0.10023456 0.79400003 0.0027842934 1.6865546e-38 248 238
-0.099091381 0.796 0.0027913067 1.6865546e-38 249 238
-0.097695731 0.796 0.0027913067 1.6590389e-38 250 238
-0.096300073 0.796 0.0027913067 1.6405996e-38 251 238
-0.094904423 0.796 0.0027913067 1.6312726e-38 252 238
-0.093743719 0.79799998 0.0027983198 1.6036139e-38 253 238
-0.092344552 0.79799998 0.0027983198 1.5575163e-38 254 238
-0.091173328 0.80000001 0.0028053334 1.5114185e-38 255 238
-0.089770667 0.80000001 0.0028053334 1.456175e-38 256 238
-0.088367999 0.80000001 0.0028053334 1.3640154e-38 257 238
-0.087182745 0.80199999 0.0028123464 1.2809702e-38 258 238
-0.085883521 0.80299997 0.0028158531 1.244092e-38 259 238
-0.084685996 0.80500001 0.0028228667 1.1981759e-38 260 238
-0.083274566 0.80500001 0.0028228667 1.1705172e-38 261 238
-0.1189286 0.79799998 0.0013991599 1.4202074e-38 235 239
-0.11752943 0.79799998 0.0013991599 1.4933814e-38 236 239
-0.11613028 0.79799998 0.0013991599 1.5118564e-38 237 239
-0.11444358 0.796 0.0013956534 1.6404588e-38 238 239
-0.11304791 0.796 0.0013956534 1.6681533e-38 239 239
-0.11137174 0.79400003 0.0013921467 1.6957397e-38 240 239
-0.10997958 0.79400003 0.0013921467 1.7418017e-38 241 239
-0.10858744 0.79400003 0.0013921467 1.7235426e-38 242 239
-0.10719529 0.79400003 0.0013921467 1.7327622e-38 243 239
-0.10580315 0.79400003 0.0013921467 1.7327622e-38 244 239
-0.104148 0.792 0.0013886399 1.7235426e-38 245 239
-0.10275935 0.792 0.0013886399 1.7235426e-38 246 239
-0.10162671 0.79400003 0.0013921467 1.7235426e-38 247 239
-0.10023456 0.79400003 0.0013921467 1.6959194e-38 248 239
-0.098842412 0.79400003 0.0013921467 1.6866998e-38 249 239
-0.097450264 0.79400003 0.0013921467 1.66826e-38 250 239
-0.096058123 0.79400003 0.0013921467 1.622198e-38 251 239
-0.094665974 0.79400003 0.0013921467 1.622018e-38 252 239
-0.093508773 0.796 0.0013956534 1.5759202e-38 253 239
-0.092113115 0.796 0.0013956534 1.5391145e-38 254 239
-0.090945393 0.79799998 0.0013991599 1.5022002e-38 255 239
-0.089770667 0.80000001 0.0014026667 1.4470283e-38 256 239
-0.088367999 0.80000001 0.0014026667 1.3455771e-38 257 239
-0.087182745 0.80199999 0.0014061732 1.2441641e-38 258 239
-0.085776575 0.80199999 0.0014061732 1.2533837e-38 259 239
-0.084685996 0.80500001 0.0014114333 1.1890285e-38 260 239
-0.083274566 0.80500001 0.0014114333 1.1614058e-38 261 239
-0.1209309 0.80199999 -0 1.6781381e-38 234 240
-0.11922666 0.80000001 -0 1.4107708e-38 235 240
-0.11752943 0.79799998 -0 1.4749423e-38 236 240
-0.11613028 0.79799998 -0 1.5118564e-38 237 240
-0.11444358 0.796 -0 1.6036898e-38 238 240
-0.11304791 0.796 -0 1.6313487e-38 239 240
-0.11137174 0.79400003 -0 1.67741e-38 240 240
-0.10997958 0.79400003 -0 1.6958493e-38 241 240
-0.10831392 0.792 -0 1.7051405e-38 242 240
-0.10692528 0.792 -0 1.7143959e-38 243 240
-0.10553664 0.792 -0 1.7327266e-38 244 240
-0.10388499 0.79000002 -0 1.7327266e-38 245 240
-0.10249986 0.79000002 -0 1.7327256e-38 246 240
-0.10137071 0.792 -0 1.7327256e-38 247 240
-0.099982075 0.792 -0 1.7418723e-38 248 240
-0.098593436 0.792 -0 1.723433e-38 249 240
-0.097204797 0.792 -0 1.7049212e-38 250 240
-0.095816158 0.792 -0 1.6772985e-38 251 240
-0.094665974 0.79400003 -0 1.6404551e-38 252 240
-0.093273826 0.79400003 -0 1.6035769e-38 253 240
-0.091881685 0.79400003 -0 1.5575161e-38 254 240
-0.090717465 0.796 -0 1.5298572e-38 255 240
-0.089321814 0.796 -0 1.4745428e-38 256 240
-0.087926157 0.796 -0 1.3915309e-38 257 240
-0.086965337 0.80000001 -0 1.253384e-38 258 240
-0.085776575 0.80199999 -0 1.2441644e-38 259 240
-0.084475599 0.80299997 -0 1.216509e-38 260 240
-0.083274566 0.80500001 -0 1.1888863e-38 261 240
-0.1209309 0.80199999 -0.0014061732 1.6781381e-38 234 241
-0.11863054 0.796 -0.0013956534 1.3923316e-38 235 241
-0.11723487 0.796 -0.0013956534 1.4750858e-38 236 241
-0.11613028 0.79799998 -0.0013991599 1.5027085e-38 237 241
-0.11444358 0.796 -0.0013956534 1.603653e-38 238 241
-0.11304791 0.796 -0.0013956534 1.6313477e-38 239 241
-0.11137174 0.79400003 -0.0013921467 1.6864848e-38 240 241
-0.10997958 0.79400003 -0.0013921467 1.7325468e-38 241 241
-0.10831392 0.792 -0.0013886399 1.7234354e-38 242 241
-0.10692528 0.792 -0.0013886399 1.732655e-38 243 241
-0.10527013 0.79000002 -0.0013851334 1.7143953e-38 244 241
-0.10388499 0.79000002 -0.0013851334 1.7143953e-38 245 241
-0.10249986 0.79000002 -0.0013851334 1.7419817e-38 246 241
-0.10111474 0.79000002 -0.0013851334 1.7327622e-38 247 241
-0.099729598 0.79000002 -0.0013851334 1.7327622e-38 248 241
-0.09834446 0.79000002 -0.0013851334 1.714323e-38 249 241
-0.097204797 0.792 -0.0013886399 1.6775154e-38 250 241
-0.095816158 0.792 -0.0013886399 1.6498208e-38 251 241
-0.094427519 0.792 -0.0013886399 1.6130132e-38 252 241
-0.093273826 0.79400003 -0.0013921467 1.5576958e-38 253 241
-0.091881685 0.79400003 -0.0013921467 1.5758478e-38 254 241
-0.090489529 0.79400003 -0.0013921467 1.5481893e-38 255 241
-0.089321814 0.796 -0.0013956534 1.474686e-38 256 241
-0.087926157 0.796 -0.0013956534 1.3825264e-38 257 241
-0.086965337 0.80000001 -0.0014026667 1.2809699e-38 258 241
-0.085562661 0.80000001 -0.0014026667 1.2625667e-38 259 241
-0.084370397 0.80199999 -0.0014061732 1.1982128e-38 260 241
-0.11863054 0.796 -0.0027913067 1.3555612e-38 235 242
-0.11723487 0.796 -0.0027913067 1.5024931e-38 236 242
-0.11583922 0.796 -0.0027913067 1.5209681e-38 237 242
-0.11444358 0.796 -0.0027913067 1.6036179e-38 238 242
-0.11276388 0.79400003 -0.0027842934 1.6312768e-38 239 242
-0.11137174 0.79400003 -0.0027842934 1.6956338e-38 240 242
-0.10970256 0.792 -0.0027772798 1.7232925e-38 241 242
-0.1080404 0.79000002 -0.0027702667 1.7234001e-38 242 242
-0.10665527 0.79000002 -0.0027702667 1.7326197e-38 243 242
-0.10527013 0.79000002 -0.0027702667 1.7143953e-38 244 242
-0.10375349 0.78899997 -0.0027667598 1.7327985e-38 245 242
-0.10237011 0.78899997 -0.0027667598 1.7327622e-38 246 242
-0.10098673 0.78899997 -0.0027667598 1.7419817e-38 247 242
-0.099603355 0.78899997 -0.0027667598 1.7510568e-38 248 242
-0.098219968 0.78899997 -0.0027667598 1.7418373e-38 249 242
-0.097204797 0.792 -0.0027772798 1.7050293e-38 250 242
-0.095816158 0.792 -0.0027772798 1.6773707e-38 251 242
-0.094427519 0.792 -0.0027772798 1.6589661e-38 252 242
-0.093038872 0.792 -0.0027772798 1.6036489e-38 253 242
-0.091650233 0.792 -0.0027772798 1.5759905e-38 254 242
-0.090489529 0.79400003 -0.0027842934 1.5391122e-38 255 242
-0.089097388 0.79400003 -0.0027842934 1.4747213e-38 256 242
-0.08770524 0.79400003 -0.0027842934 1.3733421e-38 257 242
-0.086530507 0.796 -0.0027913067 1.2901176e-38 258 242
-0.085348755 0.79799998 -0.0027983198 1.2901176e-38 259 242
-0.083949596 0.79799998 -0.0027983198 1.2256919e-38 260 242
-0.11972462 0.79400003 -0.0041764397 1.6320399e-38 234 243
-0.11833248 0.79400003 -0.0041764397 1.3370499e-38 235 243
-0.11694031 0.79400003 -0.0041764397 1.4932372e-38 236 243
-0.11554817 0.79400003 -0.0041764397 1.5301155e-38 237 243
-0.11444358 0.796 -0.0041869599 1.6128378e-38 238 243
-0.11276388 0.79400003 -0.0041764397 1.631277e-38 239 243
-0.1110912 0.792 -0.00416592 1.6956338e-38 240 243
-0.10942553 0.79000002 -0.0041554002 1.7232925e-38 241 243
-0.1080404 0.79000002 -0.0041554002 1.7325118e-38 242 243
-0.10652025 0.78899997 -0.0041501396 1.7417313e-38 243 243
-0.10513687 0.78899997 -0.0041501396 1.7327269e-38 244 243
-0.10375349 0.78899997 -0.0041501396 1.7419464e-38 245 243
-0.10237011 0.78899997 -0.0041501396 1.7419817e-38 246 243
-0.10098673 0.78899997 -0.0041501396 1.7327622e-38 247 243
-0.099603355 0.78899997 -0.0041501396 1.7602767e-38 248 243
-0.098219968 0.78899997 -0.0041501396 1.7418017e-38 249 243
-0.096959338 0.79000002 -0.0041554002 1.723433e-38 250 243
-0.0955742 0.79000002 -0.0041554002 1.6865549e-38 251 243
-0.094189063 0.79000002 -0.0041554002 1.6498193e-38 252 243
-0.092803933 0.79000002 -0.0041554002 1.6037215e-38 253 243
-0.091650233 0.792 -0.00416592 1.5760624e-38 254 243
-0.090261593 0.792 -0.00416592 1.5300006e-38 255 243
-0.089097388 0.79400003 -0.0041764397 1.4839766e-38 256 243
-0.08770524 0.79400003 -0.0041764397 1.391781e-38 257 243
-0.086530507 0.796 -0.0041869599 1.3913162e-38 258 243
-0.085134849 0.796 -0.0041869599 1.3544381e-38 259 243
-0.083949596 0.79799998 -0.0041974802 1.2625333e-38 260 243
-0.11972462 0.79400003 -0.0055685868 1.6044888e-38 234 244
-0.11803439 0.792 -0.0055545596 1.2910237e-38 235 244
-0.11664575 0.792 -0.0055545596 1.4931649e-38 236 244
-0.11554817 0.79400003 -0.0055685868 1.5392627e-38 237 244
-0.11415602 0.79400003 -0.0055685868 1.6036179e-38 238 244
-0.11247984 0.792 -0.0055545596 1.6220572e-38 239 244
-0.11081067 0.79000002 -0.0055405335 1.6864142e-38 240 244
-0.10942553 0.79000002 -0.0055405335 1.7048533e-38 241 244
-0.10790364 0.78899997 -0.0055335197 1.7232919e-38 242 244
-0.10652025 0.78899997 -0.0055335197 1.7417669e-38 243 244
-0.10487037 0.787 -0.005519493 1.7235426e-38 244 244
-0.1034905 0.787 -0.005519493 1.7327622e-38 245 244
-0.10211062 0.787 -0.005519493 1.7419817e-38 246 244
-0.10073075 0.787 -0.005519493 1.7327622e-38 247 244
-0.099350877 0.787 -0.005519493 1.7510568e-38 248 244
-0.097971 0.787 -0.005519493 1.7418373e-38 249 244
-0.096959338 0.79000002 -0.0055405335 1.7051012e-38 250 244
-0.09545321 0.78899997 -0.0055335197 1.6866621e-38 251 244
-0.094069831 0.78899997 -0.0055335197 1.6590745e-38 252 244
-0.092803933 0.79000002 -0.0055405335 1.5945375e-38 253 244
-0.091418803 0.79000002 -0.0055405335 1.5577312e-38 254 244
-0.090033665 0.79000002 -0.0055405335 1.5208529e-38 255 244
-0.088872954 0.792 -0.0055545596 1.4747564e-38 256 244
-0.087484315 0.792 -0.0055545596 1.4194391e-38 257 244
-0.086095676 0.792 -0.0055545596 1.3915311e-38 258 244
-0.085134849 0.796 -0.0055826134 1.3454333e-38 259 244
-0.083949596 0.79799998 -0.0055966396 1.2810078e-38 260 244
-0.082757331 0.80000001 -0.0056106667 1.2533491e-38 261 244
-0.11803439 0.792 -0.0069431998 1.2634726e-38 235 245
-0.11664575 0.792 -0.0069431998 1.4656139e-38 236 245
-0.11525711 0.792 -0.0069431998 1.5117117e-38 237 245
-0.11386847 0.792 -0.0069431998 1.5760318e-38 238 245
-0.1121958 0.79000002 -0.0069256667 1.6128742e-38 239 245
-0.11081067 0.79000002 -0.0069256667 1.6589e-38 240 245
-0.10928701 0.78899997 -0.0069168997 1.6681196e-38 241 245
-0.10790364 0.78899997 -0.0069168997 1.6866295e-38 242 245
-0.10625024 0.787 -0.0068993662 1.7142521e-38 243 245
-0.10487037 0.787 -0.0068993662 1.7052833e-38 244 245
-0.1034905 0.787 -0.0068993662 1.7052833e-38 245 245
-0.10211062 0.787 -0.0068993662 1.7603485e-38 246 245
-0.10073075 0.787 -0.0068993662 1.7510931e-38 247 245
-0.099350877 0.787 -0.0068993662 1.7327606e-38 248 245
-0.097971 0.787 -0.0068993662 1.7235411e-38 249 245
-0.096836597 0.78899997 -0.0069168997 1.7051365e-38 250 245
-0.09545321 0.78899997 -0.0069168997 1.6866974e-38 251 245
-0.094069831 0.78899997 -0.0069168997 1.6498543e-38 252 245
-0.092686452 0.78899997 -0.0069168997 1.6037924e-38 253 245
-0.091418803 0.79000002 -0.0069256667 1.5669132e-38 254 245
-0.090033665 0.79000002 -0.0069256667 1.5300709e-38 255 245
-0.088648535 0.79000002 -0.0069256667 1.5022693e-38 256 245
-0.087484315 0.792 -0.0069431998 1.465355e-38 257 245
-0.086095676 0.792 -0.0069431998 1.3916381e-38 258 245
-0.084707037 0.792 -0.0069431998 1.3455402e-38 259 245
-0.083739199 0.796 -0.0069782664 1.3453648e-38 260 245
-0.082343549 0.796 -0.0069782664 1.3176702e-38 261 245
-0.11803439 0.792 -0.0083318399 1.2726928e-38 235 246
-0.11664575 0.792 -0.0083318399 1.4656504e-38 236 246
-0.11525711 0.792 -0.0083318399 1.5025287e-38 237 246
-0.11386847 0.792 -0.0083318399 1.5759587e-38 238 246
-0.1121958 0.79000002 -0.0083108004 1.6036532e-38 239 246
-0.1106704 0.78899997 -0.0083002793 1.6497139e-38 240 246
-0.10928701 0.78899997 -0.0083002793 1.6958116e-38 241 246
-0.10763012 0.787 -0.0082792398 1.6867001e-38 242 246
-0.10625024 0.787 -0.0082792398 1.7143228e-38 243 246
-0.10487037 0.787 -0.0082792398 1.7052111e-38 244 246
-0.1034905 0.787 -0.0082792398 1.7144307e-38 245 246
-0.10211062 0.787 -0.0082792398 1.7327619e-38 246 246
-0.10073075 0.787 -0.0082792398 1.7327619e-38 247 246
-0.099350877 0.787 -0.0082792398 1.7235779e-38 248 246
-0.097971 0.787 -0.0082792398 1.7143225e-38 249 246
-0.096836597 0.78899997 -0.0083002793 1.6684758e-38 250 246
-0.09545321 0.78899997 -0.0083002793 1.6407811e-38 251 246
-0.094069831 0.78899997 -0.0083002793 1.6407445e-38 252 246
-0.092686452 0.78899997 -0.0083002793 1.5854271e-38 253 246
-0.091303073 0.78899997 -0.0083002793 1.5670233e-38 254 246
-0.089919694 0.78899997 -0.0083002793 1.5209255e-38 255 246
-0.088648535 0.79000002 -0.0083108004 1.4932315e-38 256 246
-0.087263398 0.79000002 -0.0083108004 1.4471337e-38 257 246
-0.08587826 0.79000002 -0.0083108004 1.382563e-38 258 246
-0.084493138 0.79000002 -0.0083108004 1.318026e-38 259 246
-0.083318397 0.792 -0.0083318399 1.3178853e-38 260 246
-0.082136653 0.79400003 -0.0083528794 1.2994462e-38 261 246
-0.11694031 0.79400003 -0.0097450269 1.428845e-38 236 247
-0.11525711 0.792 -0.0097204801 1.474907e-38 237 247
-0.11358093 0.79000002 -0.0096959332 1.5301135e-38 238 247
-0.11205377 0.78899997 -0.0096836593 1.5577722e-38 239 247
-0.1106704 0.78899997 -0.0096836593 1.6221647e-38 240 247
-0.10928701 0.78899997 -0.0096836593 1.6498234e-38 241 247
-0.10763012 0.787 -0.0096591124 1.6774815e-38 242 247
-0.10625024 0.787 -0.0096591124 1.6959565e-38 243 247
-0.10487037 0.787 -0.0096591124 1.7052114e-38 244 247
-0.1034905 0.787 -0.0096591124 1.7144309e-38 245 247
-0.10211062 0.787 -0.0096591124 1.7510934e-38 246 247
-0.10073075 0.787 -0.0096591124 1.7510934e-38 247 247
-0.099350877 0.787 -0.0096591124 1.7327253e-38 248 247
-0.097971 0.787 -0.0096591124 1.7235057e-38 249 247
-0.09659113 0.787 -0.0096591124 1.7143215e-38 250 247
-0.09521126 0.787 -0.0096591124 1.6958464e-38 251 247
-0.093831383 0.787 -0.0096591124 1.6590389e-38 252 247
-0.092451513 0.787 -0.0096591124 1.6221605e-38 253 247
-0.091303073 0.78899997 -0.0096836593 1.6036842e-38 254 247
-0.089919694 0.78899997 -0.0096836593 1.566806e-38 255 247
-0.088536315 0.78899997 -0.0096836593 1.5575145e-38 256 247
-0.087152928 0.78899997 -0.0096836593 1.5298557e-38 257 247
-0.08587826 0.79000002 -0.0096959332 1.465358e-38 258 247
-0.084493138 0.79000002 -0.0096959332 1.4284437e-38 259 247
-0.083108 0.79000002 -0.0096959332 1.3822056e-38 260 247
-0.081722863 0.79000002 -0.0096959332 1.3269241e-38 261 247
-0.11664575 0.792 -0.011109119 1.4103332e-38 236 248
-0.11525711 0.792 -0.011109119 1.4564309e-38 237 248
-0.11343715 0.78899997 -0.011067039 1.5392229e-38 238 248
-0.11205377 0.78899997 -0.011067039 1.5669176e-38 239 248
-0.1106704 0.78899997 -0.011067039 1.6312025e-38 240 248
-0.10928701 0.78899997 -0.011067039 1.6773003e-38 241 248
-0.10763012 0.787 -0.011038986 1.6865918e-38 242 248
-0.10625024 0.787 -0.011038986 1.7142506e-38 243 248
-0.10487037 0.787 -0.011038986 1.7143578e-38 244 248
-0.1034905 0.787 -0.011038986 1.7235774e-38 245 248
-0.10211062 0.787 -0.011038986 1.732725e-38 246 248
-0.10073075 0.787 -0.011038986 1.732725e-38 247 248
-0.099350877 0.787 -0.011038986 1.7511284e-38 248 248
-0.097971 0.787 -0.011038986 1.7327253e-38 249 248
-0.09659113 0.787 -0.011038986 1.6867714e-38 250 248
-0.09521126 0.787 -0.011038986 1.6683321e-38 251 248
-0.093831383 0.787 -0.011038986 1.6407448e-38 252 248
-0.092451513 0.787 -0.011038986 1.6130501e-38 253 248
-0.091071643 0.787 -0.011038986 1.6037937e-38 254 248
-0.089691758 0.787 -0.011038986 1.576135e-38 255 248
-0.088536315 0.78899997 -0.011067039 1.5484766e-38 256 248
-0.087152928 0.78899997 -0.011067039 1.520782e-38 257 248
-0.085769556 0.78899997 -0.011067039 1.483834e-38 258 248
-0.08438617 0.78899997 -0.011067039 1.4561753e-38 259 248
-0.083002798 0.78899997 -0.011067039 1.3731664e-38 260 248
-0.081619412 0.78899997 -0.011067039 1.3086295e-38 261 248
-0.11773633 0.79000002 -0.0124662 1.2819136e-38 235 249
-0.11620392 0.78899997 -0.012450419 1.4011138e-38 236 249
-0.11482053 0.78899997 -0.012450419 1.4472116e-38 237 249
-0.11343715 0.78899997 -0.012450419 1.5207845e-38 238 249
-0.11205377 0.78899997 -0.012450419 1.5576628e-38 239 249
-0.1106704 0.78899997 -0.012450419 1.5944331e-38 240 249
-0.10928701 0.78899997 -0.012450419 1.6313474e-38 241 249
-0.10763012 0.787 -0.01241886 1.6590054e-38 242 249
-0.10625024 0.787 -0.01241886 1.6774445e-38 243 249
-0.10487037 0.787 -0.01241886 1.7143578e-38 244 249
-0.1034905 0.787 -0.01241886 1.7143578e-38 245 249
-0.10211062 0.787 -0.01241886 1.732725e-38 246 249
-0.10073075 0.787 -0.01241886 1.732725e-38 247 249
-0.099350877 0.787 -0.01241886 1.7235776e-38 248 249
-0.097722031 0.78500003 -0.0123873 1.7235776e-38 249 249
-0.096345663 0.78500003 -0.0123873 1.6959547e-38 250 249
-0.094969295 0.78500003 -0.0123873 1.686735e-38 251 249
-0.093831383 0.787 -0.01241886 1.6590757e-38 252 249
-0.092451513 0.787 -0.01241886 1.631453e-38 253 249
-0.091071643 0.787 -0.01241886 1.6130488e-38 254 249
-0.089691758 0.787 -0.01241886 1.5945738e-38 255 249
-0.088311888 0.787 -0.01241886 1.5852824e-38 256 249
-0.086932018 0.787 -0.01241886 1.5576235e-38 257 249
-0.085769556 0.78899997 -0.012450419 1.5298946e-38 258 249
-0.08438617 0.78899997 -0.012450419 1.4930163e-38 259 249
-0.083002798 0.78899997 -0.012450419 1.4100438e-38 260 249
-0.081412524 0.787 -0.01241886 1.3086645e-38 261 249
-0.080032654 0.787 -0.01241886 1.3088865e-38 262 249
-0.11773633 0.79000002 -0.013851333 1.3095004e-38 235 250
-0.11620392 0.78899997 -0.013833799 1.382747e-38 236 250
-0.11482053 0.78899997 -0.013833799 1.4196252e-38 237 250
-0.11343715 0.78899997 -0.013833799 1.5024173e-38 238 250
-0.11176974 0.787 -0.013798732 1.5300761e-38 239 250
-0.11038986 0.787 -0.013798732 1.5852136e-38 240 250
-0.10900999 0.787 -0.013798732 1.6221278e-38 241 250
-0.10763012 0.787 -0.013798732 1.6497861e-38 242 250
-0.10598023 0.78500003 -0.013763667 1.6774448e-38 243 250
-0.10460387 0.78500003 -0.013763667 1.7142862e-38 244 250
-0.1034905 0.787 -0.013798732 1.7235057e-38 245 250
-0.10185113 0.78500003 -0.013763667 1.7235057e-38 246 250
-0.10047477 0.78500003 -0.013763667 1.7327253e-38 247 250
-0.099098399 0.78500003 -0.013763667 1.7235779e-38 248 250
-0.097722031 0.78500003 -0.013763667 1.7143225e-38 249 250
-0.096345663 0.78500003 -0.013763667 1.6959194e-38 250 250
-0.094969295 0.78500003 -0.013763667 1.6866998e-38 251 250
-0.093592934 0.78500003 -0.013763667 1.6682956e-38 252 250
-0.092216566 0.78500003 -0.013763667 1.6498564e-38 253 250
-0.090840198 0.78500003 -0.013763667 1.6223051e-38 254 250
-0.08946383 0.78500003 -0.013763667 1.5854268e-38 255 250
-0.088087469 0.78500003 -0.013763667 1.5945388e-38 256 250
-0.086932018 0.787 -0.013798732 1.5760997e-38 257 250
-0.085552141 0.787 -0.013798732 1.5391495e-38 258 250
-0.084172271 0.787 -0.013798732 1.5114907e-38 259 250
-0.082792401 0.787 -0.013798732 1.4561044e-38 260 250
-0.081412524 0.787 -0.013798732 1.3547252e-38 261 250
-0.080032654 0.787 -0.013798732 1.2904825e-38 262 250
-0.11635119 0.79000002 -0.015236467 1.3918586e-38 236 251
-0.11482053 0.78899997 -0.015217179 1.4103338e-38 237 251
-0.11343715 0.78899997 -0.015217179 1.511565e-38 238 251
-0.11176974 0.787 -0.015178605 1.5392235e-38 239 251
-0.11038986 0.787 -0.015178605 1.5851417e-38 240 251
-0.10900999 0.787 -0.015178605 1.6220198e-38 241 251
-0.1073566 0.78500003 -0.015140033 1.6497142e-38 242 251
-0.10598023 0.78500003 -0.015140033 1.6865564e-38 243 251
-0.10460387 0.78500003 -0.015140033 1.7050665e-38 244 251
-0.10296449 0.78299999 -0.01510146 1.7142862e-38 245 251
-0.10159164 0.78299999 -0.01510146 1.7142859e-38 246 251
-0.10021878 0.78299999 -0.01510146 1.7235055e-38 247 251
-0.098845914 0.78299999 -0.01510146 1.723506e-38 248 251
-0.097473055 0.78299999 -0.01510146 1.7142506e-38 249 251
-0.096100196 0.78299999 -0.01510146 1.7050313e-38 250 251
-0.094727337 0.78299999 -0.01510146 1.6958116e-38 251 251
-0.093354478 0.78299999 -0.01510146 1.6683319e-38 252 251
-0.091981612 0.78299999 -0.01510146 1.6407092e-38 253 251
-0.090840198 0.78500003 -0.015140033 1.6315249e-38 254 251
-0.08946383 0.78500003 -0.015140033 1.6038302e-38 255 251
-0.088087469 0.78500003 -0.015140033 1.6037586e-38 256 251
-0.086711101 0.78500003 -0.015140033 1.5853195e-38 257 251
-0.085334733 0.78500003 -0.015140033 1.5667725e-38 258 251
-0.084172271 0.787 -0.015178605 1.5299302e-38 259 251
-0.082792401 0.787 -0.015178605 1.5021657e-38 260 251
-0.081205636 0.78500003 -0.015140033 1.4376288e-38 261 251
-0.079829268 0.78500003 -0.015140033 1.2997727e-38 262 251
-0.0784529 0.78500003 -0.015140033 1.3827489e-38 263 251
-0.11635119 0.79000002 -0.016621601 1.3826391e-38 236 252
-0.11482053 0.78899997 -0.016600559 1.4011141e-38 237 252
-0.11343715 0.78899997 -0.016600559 1.4747593e-38 238 252
-0.11176974 0.787 -0.01655848 1.5116015e-38 239 252
-0.11038986 0.787 -0.01655848 1.5575921e-38 240 252
-0.10900999 0.787 -0.01655848 1.5760671e-38 241 252
-0.10708307 0.78299999 -0.01647432 1.6129092e-38 242 252
-0.10571022 0.78299999 -0.01647432 1.6406038e-38 243 252
-0.10433736 0.78299999 -0.01647432 1.6682971e-38 244 252
-0.10296449 0.78299999 -0.01647432 1.6867364e-38 245 252
-0.10159164 0.78299999 -0.01647432 1.7050665e-38 246 252
-0.10021878 0.78299999 -0.01647432 1.7142862e-38 247 252
-0.098845914 0.78299999 -0.01647432 1.6959196e-38 248 252
-0.097224087 0.78100002 -0.016432239 1.6867001e-38 249 252
-0.095854737 0.78100002 -0.016432239 1.6867001e-38 250 252
-0.09448538 0.78100002 -0.016432239 1.6774445e-38 251 252
-0.09311603 0.78100002 -0.016432239 1.6866268e-38 252 252
-0.091746673 0.78100002 -0.016432239 1.6866268e-38 253 252
-0.090608761 0.78299999 -0.01647432 1.6590392e-38 254 252
-0.089235894 0.78299999 -0.01647432 1.6405999e-38 255 252
-0.087863036 0.78299999 -0.01647432 1.6312726e-38 256 252
-0.086490177 0.78299999 -0.01647432 1.6128334e-38 257 252
-0.08511731 0.78299999 -0.01647432 1.5943942e-38 258 252
-0.083958365 0.78500003 -0.016516401 1.5575161e-38 259 252
-0.082582004 0.78500003 -0.016516401 1.5206754e-38 260 252
-0.081205636 0.78500003 -0.016516401 1.465358e-38 261 252
-0.079829268 0.78500003 -0.016516401 1.3365047e-38 262 252
-0.0784529 0.78500003 -0.016516401 1.3733829e-38 263 252
-0.077076539 0.78500003 -0.016516401 1.4935674e-38 264 252
-0.11635119 0.79000002 -0.018006733 1.3458687e-38 236 253
-0.11482053 0.78899997 -0.017983939 1.3550883e-38 237 253
-0.11343715 0.78899997 -0.017983939 1.493089e-38 238 253
-0.11176974 0.787 -0.017938353 1.5299671e-38 239 253
-0.11038986 0.787 -0.017938353 1.5574826e-38 240 253
-0.10845593 0.78299999 -0.017847179 1.5851773e-38 241 253
-0.10708307 0.78299999 -0.017847179 1.6312028e-38 242 253
-0.10571022 0.78299999 -0.017847179 1.6680452e-38 243 253
-0.10433736 0.78299999 -0.017847179 1.6773356e-38 244 253
-0.1027015 0.78100002 -0.017801592 1.6865552e-38 245 253
-0.10133215 0.78100002 -0.017801592 1.7050296e-38 246 253
-0.099962793 0.78100002 -0.017801592 1.7050296e-38 247 253
-0.098593444 0.78100002 -0.017801592 1.6958466e-38 248 253
-0.097224087 0.78100002 -0.017801592 1.6958466e-38 249 253
-0.095731996 0.77999997 -0.017778799 1.7050665e-38 250 253
-0.094364397 0.77999997 -0.017778799 1.695811e-38 251 253
-0.092996791 0.77999997 -0.017778799 1.6958819e-38 252 253
-0.091629192 0.77999997 -0.017778799 1.6866265e-38 253 253
-0.090377316 0.78100002 -0.017801592 1.659111e-38 254 253
-0.089007966 0.78100002 -0.017801592 1.6314884e-38 255 253
-0.087638609 0.78100002 -0.017801592 1.6313447e-38 256 253
-0.086490177 0.78299999 -0.017847179 1.6037221e-38 257 253
-0.08511731 0.78299999 -0.017847179 1.5852476e-38 258 253
-0.083744459 0.78299999 -0.017847179 1.5667725e-38 259 253
-0.082582004 0.78500003 -0.017892767 1.5298949e-38 260 253
-0.081205636 0.78500003 -0.017892767 1.4929807e-38 261 253
-0.079829268 0.78500003 -0.017892767 1.4009324e-38 262 253
-0.0784529 0.78500003 -0.017892767 1.3917129e-38 263 253
-0.077076539 0.78500003 -0.017892767 1.4474323e-38 264 253
-0.11620392 0.78899997 -0.019367319 1.3643081e-38 236 254
-0.11482053 0.78899997 -0.019367319 1.3550527e-38 237 254
-0.11286207 0.78500003 -0.019269135 1.465575e-38 238 254
-0.11120166 0.78299999 -0.019220039 1.4840142e-38 239 254
-0.10982879 0.78299999 -0.019220039 1.5391163e-38 240 254
-0.10845593 0.78299999 -0.019220039 1.5759587e-38 241 254
-0.10680956 0.78100002 -0.019170946 1.5761741e-38 242 254
-0.10544021 0.78100002 -0.019170946 1.5946133e-38 243 254
-0.10407086 0.78100002 -0.019170946 1.6314543e-38 244 254
-0.1027015 0.78100002 -0.019170946 1.6498934e-38 245 254
-0.10133215 0.78100002 -0.019170946 1.6683675e-38 246 254
-0.099962793 0.78100002 -0.019170946 1.6683675e-38 247 254
-0.098593444 0.78100002 -0.019170946 1.695811e-38 248 254
-0.097099595 0.77999997 -0.0191464 1.695811e-38 249 254
-0.095731996 0.77999997 -0.0191464 1.704959e-38 250 254
-0.094364397 0.77999997 -0.0191464 1.704959e-38 251 254
-0.092996791 0.77999997 -0.0191464 1.7050293e-38 252 254
-0.091629192 0.77999997 -0.0191464 1.6958098e-38 253 254
-0.090261593 0.77999997 -0.0191464 1.7142114e-38 254 254
-0.089007966 0.78100002 -0.019170946 1.6773691e-38 255 254
-0.087638609 0.78100002 -0.019170946 1.6588943e-38 256 254
-0.086269259 0.78100002 -0.019170946 1.6220161e-38 257 254
-0.084899902 0.78100002 -0.019170946 1.6127615e-38 258 254
-0.083530553 0.78100002 -0.019170946 1.5851027e-38 259 254
-0.0823716 0.78299999 -0.019220039 1.5941072e-38 260 254
-0.080998734 0.78299999 -0.019220039 1.5848876e-38 261 254
-0.079625882 0.78299999 -0.019220039 1.492839e-38 262 254
-0.078253016 0.78299999 -0.019220039 1.4467413e-38 263 254
-0.076880157 0.78299999 -0.019220039 1.3644911e-38 264 254
-0.11620392 0.78899997 -0.0207507 1.3551248e-38 236 255
-0.11482053 0.78899997 -0.0207507 1.3090272e-38 237 255
-0.11257452 0.78299999 -0.0205929 1.4746494e-38 238 255
-0.11120166 0.78299999 -0.0205929 1.4930887e-38 239 255
-0.10982879 0.78299999 -0.0205929 1.5207107e-38 240 255
-0.10845593 0.78299999 -0.0205929 1.5667725e-38 241 255
-0.10680956 0.78100002 -0.020540299 1.5852842e-38 242 255
-0.10544021 0.78100002 -0.020540299 1.6129429e-38 243 255
-0.10407086 0.78100002 -0.020540299 1.6314899e-38 244 255
-0.10256999 0.77999997 -0.020513998 1.6407095e-38 245 255
-0.10120239 0.77999997 -0.020513998 1.6775517e-38 246 255
-0.099834792 0.77999997 -0.020513998 1.6775517e-38 247 255
-0.098467186 0.77999997 -0.020513998 1.705031e-38 248 255
-0.097099595 0.77999997 -0.020513998 1.6958113e-38 249 255
-0.095486529 0.778 -0.020461399 1.6958466e-38 250 255
-0.094122432 0.778 -0.020461399 1.7050662e-38 251 255
-0.092758343 0.778 -0.020461399 1.7050293e-38 252 255
-0.091394253 0.778 -0.020461399 1.7050293e-38 253 255
-0.090261593 0.77999997 -0.020513998 1.695917e-38 254 255
-0.088893995 0.77999997 -0.020513998 1.6682584e-38 255 255
-0.087526396 0.77999997 -0.020513998 1.6498193e-38 256 255
-0.086158797 0.77999997 -0.020513998 1.6221605e-38 257 255
-0.084791191 0.77999997 -0.020513998 1.6036142e-38 258 255
-0.083530553 0.78100002 -0.020540299 1.5759555e-38 259 255
-0.082161196 0.78100002 -0.020540299 1.5758123e-38 260 255
-0.080791846 0.78100002 -0.020540299 1.5574091e-38 261 255
-0.079422489 0.78100002 -0.020540299 1.5296447e-38 262 255
-0.078053139 0.78100002 -0.020540299 1.4927665e-38 263 255
-0.076683782 0.78100002 -0.020540299 1.3274318e-38 264 255
-0.11394738 0.78299999 -0.021965759 1.2261956e-38 237 256
-0.11257452 0.78299999 -0.021965759 1.4010731e-38 238 256
-0.11091762 0.78100002 -0.021909652 1.4471349e-38 239 256
-0.10954827 0.78100002 -0.021909652 1.5206751e-38 240 256
-0.10817891 0.78100002 -0.021909652 1.5575532e-38 241 256
-0.10680956 0.78100002 -0.021909652 1.5484427e-38 242 256
-0.10530519 0.77999997 -0.021881599 1.5761372e-38 243 256
-0.1039376 0.77999997 -0.021881599 1.5946486e-38 244 256
-0.10256999 0.77999997 -0.021881599 1.6407463e-38 245 256
-0.1009429 0.778 -0.021825492 1.6682615e-38 246 256
-0.099578805 0.778 -0.021825492 1.6775171e-38 247 256
-0.098467186 0.77999997 -0.021881599 1.7050313e-38 248 256
-0.096850619 0.778 -0.021825492 1.7050313e-38 249 256
-0.095241062 0.77600002 -0.021769386 1.7051015e-38 250 256
-0.093880482 0.77600002 -0.021769386 1.7051015e-38 251 256
-0.092519894 0.77600002 -0.021769386 1.7326878e-38 252 256
-0.091159306 0.77600002 -0.021769386 1.7234681e-38 253 256
-0.090030156 0.778 -0.021825492 1.7051365e-38 254 256
-0.088666067 0.778 -0.021825492 1.6866974e-38 255 256
-0.08730197 0.778 -0.021825492 1.6773704e-38 256 256
-0.08593788 0.778 -0.021825492 1.640528e-38 257 256
-0.084791191 0.77999997 -0.021881599 1.6403845e-38 258 256
-0.083423592 0.77999997 -0.021881599 1.6127618e-38 259 256
-0.082055993 0.77999997 -0.021881599 1.5850671e-38 260 256
-0.080791846 0.78100002 -0.021909652 1.5758476e-38 261 256
-0.079422489 0.78100002 -0.021909652 1.5482264e-38 262 256
-0.078053139 0.78100002 -0.021909652 1.5113482e-38 263 256
-0.076683782 0.78100002 -0.021909652 1.3733476e-38 264 256
-0.075314432 0.78100002 -0.021909652 1.4194453e-38 265 256
-0.11365632 0.78100002 -0.023279008 1.1525485e-38 237 257
-0.11228697 0.78100002 -0.023279008 1.3459019e-38 238 257
-0.11091762 0.78100002 -0.023279008 1.3919996e-38 239 257
-0.10954827 0.78100002 -0.023279008 1.4837987e-38 240 257
-0.10817891 0.78100002 -0.023279008 1.5206769e-38 241 257
-0.10667279 0.77999997 -0.023249198 1.5392232e-38 242 257
-0.10530519 0.77999997 -0.023249198 1.5668821e-38 243 257
-0.1039376 0.77999997 -0.023249198 1.5853217e-38 244 257
-0.10230699 0.778 -0.023189586 1.6406391e-38 245 257
-0.1009429 0.778 -0.023189586 1.6774095e-38 246 257
-0.099578805 0.778 -0.023189586 1.6866292e-38 247 257
-0.098214716 0.778 -0.023189586 1.6866998e-38 248 257
-0.096850619 0.778 -0.023189586 1.6959194e-38 249 257
-0.095241062 0.77600002 -0.023129974 1.7143934e-38 250 257
-0.093880482 0.77600002 -0.023129974 1.7143934e-38 251 257
-0.092519894 0.77600002 -0.023129974 1.7235405e-38 252 257
-0.091159306 0.77600002 -0.023129974 1.7235405e-38 253 257
-0.090030156 0.778 -0.023189586 1.7143565e-38 254 257
-0.088438138 0.77600002 -0.023129974 1.7051368e-38 255 257
-0.087077543 0.77600002 -0.023129974 1.6865899e-38 256 257
-0.08593788 0.778 -0.023189586 1.6589311e-38 257 257
-0.084573783 0.778 -0.023189586 1.6496394e-38 258 257
-0.083423592 0.77999997 -0.023249198 1.6220167e-38 259 257
-0.082055993 0.77999997 -0.023249198 1.6035416e-38 260 257
-0.080688395 0.77999997 -0.023249198 1.594322e-38 261 257
-0.079320796 0.77999997 -0.023249198 1.5574807e-38 262 257
-0.077953197 0.77999997 -0.023249198 1.5482612e-38 263 257
-0.076585598 0.77999997 -0.023249198 1.4562495e-38 264 257
-0.075217992 0.77999997 -0.023249198 1.4101517e-38 265 257
-0.073850393 0.77999997 -0.023249198 1.438177e-38 266 257
-0.11365632 0.78100002 -0.024648361 1.1432936e-38 237 258
-0.11228697 0.78100002 -0.024648361 1.336575e-38 238 258
-0.11091762 0.78100002 -0.024648361 1.3918924e-38 239 258
-0.10954827 0.78100002 -0.024648361 1.4745422e-38 240 258
-0.10817891 0.78100002 -0.024648361 1.52064e-38 241 258
-0.10667279 0.77999997 -0.024616797 1.5299668e-38 242 258
-0.10530519 0.77999997 -0.024616797 1.5576256e-38 243 258
-0.1039376 0.77999997 -0.024616797 1.5944684e-38 244 258
-0.10230699 0.778 -0.024553679 1.6313827e-38 245 258
-0.10068341 0.77600002 -0.024490559 1.6590057e-38 246 258
-0.099322826 0.77600002 -0.024490559 1.6774448e-38 247 258
-0.097962238 0.77600002 -0.024490559 1.7050665e-38 248 258
-0.09660165 0.77600002 -0.024490559 1.7050665e-38 249 258
-0.095241062 0.77600002 -0.024490559 1.7142859e-38 250 258
-0.093880482 0.77600002 -0.024490559 1.7235055e-38 251 258
-0.092519894 0.77600002 -0.024490559 1.7235774e-38 252 258
-0.091159306 0.77600002 -0.024490559 1.7235774e-38 253 258
-0.089798726 0.77600002 -0.024490559 1.7235411e-38 254 258
-0.088438138 0.77600002 -0.024490559 1.7143215e-38 255 258
-0.087077543 0.77600002 -0.024490559 1.6866621e-38 256 258
-0.085716955 0.77600002 -0.024490559 1.6590036e-38 257 258
-0.084356368 0.77600002 -0.024490559 1.6589308e-38 258 258
-0.082995787 0.77600002 -0.024490559 1.6313082e-38 259 258
-0.081845596 0.778 -0.024553679 1.6127615e-38 260 258
-0.080481507 0.778 -0.024553679 1.6035418e-38 261 258
-0.07911741 0.778 -0.024553679 1.5575529e-38 262 258
-0.07775332 0.778 -0.024553679 1.5391498e-38 263 258
-0.076389223 0.778 -0.024553679 1.4839435e-38 264 258
-0.075025134 0.778 -0.024553679 1.4470652e-38 265 258
-0.073471673 0.77600002 -0.024490559 1.3550922e-38 266 258
-0.11228697 0.78100002 -0.026017714 1.2998062e-38 238 259
-0.11091762 0.78100002 -0.026017714 1.3458681e-38 239 259
-0.10954827 0.78100002 -0.026017714 1.446993e-38 240 259
-0.10817891 0.78100002 -0.026017714 1.4746157e-38 241 259
-0.10667279 0.77999997 -0.025984399 1.5023451e-38 242 259
-0.10530519 0.77999997 -0.025984399 1.5208201e-38 243 259
-0.10367109 0.778 -0.025917772 1.5576272e-38 244 259
-0.10230699 0.778 -0.025917772 1.5853217e-38 245 259
-0.10068341 0.77600002 -0.025851147 1.6039404e-38 246 259
-0.099322826 0.77600002 -0.025851147 1.6223795e-38 247 259
-0.097962238 0.77600002 -0.025851147 1.6682968e-38 248 259
-0.09660165 0.77600002 -0.025851147 1.6775165e-38 249 259
-0.095241062 0.77600002 -0.025851147 1.6867364e-38 250 259
-0.093638517 0.77399999 -0.025784519 1.6959559e-38 251 259
-0.092281438 0.77399999 -0.025784519 1.7052111e-38 252 259
-0.090924352 0.77399999 -0.025784519 1.7052111e-38 253 259
-0.089567274 0.77399999 -0.025784519 1.7510918e-38 254 259
-0.088210195 0.77399999 -0.025784519 1.7326527e-38 255 259
-0.086853117 0.77399999 -0.025784519 1.7326505e-38 256 259
-0.085496038 0.77399999 -0.025784519 1.7049918e-38 257 259
-0.084138952 0.77399999 -0.025784519 1.695735e-38 258 259
-0.082995787 0.77600002 -0.025851147 1.6772958e-38 259 259
-0.081635199 0.77600002 -0.025851147 1.6496378e-38 260 259
-0.080274612 0.77600002 -0.025851147 1.6404183e-38 261 259
-0.078914031 0.77600002 -0.025851147 1.6035416e-38 262 259
-0.077553444 0.77600002 -0.025851147 1.594322e-38 263 259
-0.076192856 0.77600002 -0.025851147 1.5299318e-38 264 259
-0.074832268 0.77600002 -0.025851147 1.5299318e-38 265 259
-0.073471673 0.77600002 -0.025851147 1.3825334e-38 266 259
-0.11228697 0.78100002 -0.027387068 1.2813668e-38 238 260
-0.11091762 0.78100002 -0.027387068 1.3182809e-38 239 260
-0.10954827 0.78100002 -0.027387068 1.4285518e-38 240 260
-0.10817891 0.78100002 -0.027387068 1.4746494e-38 241 260
-0.10667279 0.77999997 -0.027351998 1.5114541e-38 242 260
-0.10530519 0.77999997 -0.027351998 1.5482965e-38 243 260
-0.10367109 0.778 -0.027281865 1.5668431e-38 244 260
-0.10230699 0.778 -0.027281865 1.5852824e-38 245 260
-0.10068341 0.77600002 -0.027211733 1.6222328e-38 246 260
-0.099322826 0.77600002 -0.027211733 1.6314884e-38 247 260
-0.097962238 0.77600002 -0.027211733 1.6866265e-38 248 260
-0.096352674 0.77399999 -0.027141599 1.6866265e-38 249 260
-0.094995596 0.77399999 -0.027141599 1.7050662e-38 250 260
-0.093638517 0.77399999 -0.027141599 1.7142859e-38 251 260
-0.092281438 0.77399999 -0.027141599 1.7235057e-38 252 260
-0.090924352 0.77399999 -0.027141599 1.7327253e-38 253 260
-0.089567274 0.77399999 -0.027141599 1.7327253e-38 254 260
-0.088210195 0.77399999 -0.027141599 1.7327253e-38 255 260
-0.086853117 0.77399999 -0.027141599 1.7143931e-38 256 260
-0.085496038 0.77399999 -0.027141599 1.6867703e-38 257 260
-0.084138952 0.77399999 -0.027141599 1.6866974e-38 258 260
-0.082995787 0.77600002 -0.027211733 1.6866974e-38 259 260
-0.081635199 0.77600002 -0.027211733 1.6405643e-38 260 260
-0.080067717 0.77399999 -0.027141599 1.6313447e-38 261 260
-0.078710638 0.77399999 -0.027141599 1.5761722e-38 262 260
-0.077553444 0.77600002 -0.027211733 1.5577331e-38 263 260
-0.075996473 0.77399999 -0.027141599 1.5208554e-38 264 260
-0.074639395 0.77399999 -0.027141599 1.5116e-38 265 260
-0.073471673 0.77600002 -0.027211733 1.4471747e-38 266 260
-0.072111093 0.77600002 -0.027211733 1.4379552e-38 267 260
-0.11228697 0.78100002 -0.028756421 1.2536738e-38 238 261
-0.11091762 0.78100002 -0.028756421 1.2997356e-38 239 261
-0.10954827 0.78100002 -0.028756421 1.3735236e-38 240 261
-0.10817891 0.78100002 -0.028756421 1.4011823e-38 241 261
-0.10667279 0.77999997 -0.028719598 1.4563904e-38 242 261
-0.10530519 0.77999997 -0.028719598 1.4748296e-38 243 261
-0.10367109 0.778 -0.028645959 1.5208554e-38 244 261
-0.102044 0.77600002 -0.028572321 1.5576978e-38 245 261
-0.10068341 0.77600002 -0.028572321 1.5487299e-38 246 261
-0.099322826 0.77600002 -0.028572321 1.5763887e-38 247 261
-0.097962238 0.77600002 -0.028572321 1.6314899e-38 248 261
-0.096352674 0.77399999 -0.028498679 1.649929e-38 249 261
-0.094995596 0.77399999 -0.028498679 1.6774445e-38 250 261
-0.093638517 0.77399999 -0.028498679 1.6867001e-38 251 261
-0.092281438 0.77399999 -0.028498679 1.6958841e-38 252 261
-0.090924352 0.77399999 -0.028498679 1.714323e-38 253 261
-0.089567274 0.77399999 -0.028498679 1.7327256e-38 254 261
-0.088210195 0.77399999 -0.028498679 1.7327256e-38 255 261
-0.086853117 0.77399999 -0.028498679 1.7419076e-38 256 261
-0.085496038 0.77399999 -0.028498679 1.7234325e-38 257 261
-0.084138952 0.77399999 -0.028498679 1.7233959e-38 258 261
-0.082781881 0.77399999 -0.028498679 1.7141763e-38 259 261
-0.081424795 0.77399999 -0.028498679 1.7048142e-38 260 261
-0.080067717 0.77399999 -0.028498679 1.7048142e-38 261 261
-0.078710638 0.77399999 -0.028498679 1.631345e-38 262 261
-0.077353559 0.77399999 -0.028498679 1.5944669e-38 263 261
-0.075996473 0.77399999 -0.028498679 1.5852824e-38 264 261
-0.074639395 0.77399999 -0.028498679 1.5760627e-38 265 261
-0.073187642 0.773 -0.028461859 1.5392229e-38 266 261
-0.071832314 0.773 -0.028461859 1.4839057e-38 267 261
-0.070476986 0.773 -0.028461859 1.4287744e-38 268 261
-0.11228697 0.78100002 -0.030125774 1.2352355e-38 238 262
-0.11077559 0.77999997 -0.030087199 1.2721498e-38 239 262
-0.10940799 0.77999997 -0.030087199 1.3824558e-38 240 262
-0.10804039 0.77999997 -0.030087199 1.4285536e-38 241 262
-0.10667279 0.77999997 -0.030087199 1.4470984e-38 242 262
-0.10503518 0.778 -0.03001005 1.474721e-38 243 262
-0.10367109 0.778 -0.03001005 1.5207117e-38 244 262
-0.102044 0.77600002 -0.029932907 1.5576259e-38 245 262
-0.10068341 0.77600002 -0.029932907 1.5485508e-38 246 262
-0.099322826 0.77600002 -0.029932907 1.5854289e-38 247 262
-0.09770976 0.77399999 -0.029855758 1.6313824e-38 248 262
-0.096352674 0.77399999 -0.029855758 1.6497855e-38 249 262
-0.094995596 0.77399999 -0.029855758 1.6865918e-38 250 262
-0.093638517 0.77399999 -0.029855758 1.6958113e-38 251 262
-0.092162207 0.773 -0.029817186 1.705031e-38 252 262
-0.090806887 0.773 -0.029817186 1.7142506e-38 253 262
-0.089451559 0.773 -0.029817186 1.7418373e-38 254 262
-0.088096231 0.773 -0.029817186 1.7510568e-38 255 262
-0.086740904 0.773 -0.029817186 1.7510565e-38 256 262
-0.085385576 0.773 -0.029817186 1.741837e-38 257 262
-0.084138952 0.77399999 -0.029855758 1.7142862e-38 258 262
-0.082781881 0.77399999 -0.029855758 1.7050665e-38 259 262
-0.081424795 0.77399999 -0.029855758 1.714106e-38 260 262
-0.079964265 0.773 -0.029817186 1.6864833e-38 261 262
-0.078608945 0.773 -0.029817186 1.6588955e-38 262 262
-0.077253617 0.773 -0.029817186 1.6312728e-38 263 262
-0.075898297 0.773 -0.029817186 1.5945019e-38 264 262
-0.074542962 0.773 -0.029817186 1.5852824e-38 265 262
-0.073187642 0.773 -0.029817186 1.5485136e-38 266 262
-0.071832314 0.773 -0.029817186 1.539258e-38 267 262
-0.070476986 0.773 -0.029817186 1.4839101e-38 268 262
-0.069121659 0.773 -0.029817186 1.5300079e-38 269 262
-0.11077559 0.77999997 -0.031454798 1.2260889e-38 239 263
-0.10940799 0.77999997 -0.031454798 1.3272475e-38 240 263
-0.10804039 0.77999997 -0.031454798 1.3733814e-38 241 263
-0.10667279 0.77999997 -0.031454798 1.4103293e-38 242 263
-0.10503518 0.778 -0.031374145 1.4287684e-38 243 263
-0.10367109 0.778 -0.031374145 1.4930893e-38 244 263
-0.102044 0.77600002 -0.031293493 1.5299315e-38 245 263
-0.10068341 0.77600002 -0.031293493 1.5576628e-38 246 263
-0.099066831 0.77399999 -0.031212838 1.5761019e-38 247 263
-0.09770976 0.77399999 -0.031212838 1.6128725e-38 248 263
-0.09622819 0.773 -0.03117251 1.6313477e-38 249 263
-0.094872862 0.773 -0.03117251 1.6681533e-38 250 263
-0.093517542 0.773 -0.03117251 1.6865564e-38 251 263
-0.092162207 0.773 -0.03117251 1.695776e-38 252 263
-0.090806887 0.773 -0.03117251 1.7049957e-38 253 263
-0.089451559 0.773 -0.03117251 1.7233625e-38 254 263
-0.088096231 0.773 -0.03117251 1.7325821e-38 255 263
-0.086740904 0.773 -0.03117251 1.741837e-38 256 263
-0.085385576 0.773 -0.03117251 1.741837e-38 257 263
-0.084030248 0.773 -0.03117251 1.7418367e-38 258 263
-0.082674921 0.773 -0.03117251 1.7326171e-38 259 263
-0.0813196 0.773 -0.03117251 1.7416568e-38 260 263
-0.079964265 0.773 -0.03117251 1.7232537e-38 261 263
-0.078608945 0.773 -0.03117251 1.7048493e-38 262 263
-0.077253617 0.773 -0.03117251 1.68641e-38 263 263
-0.075898297 0.773 -0.03117251 1.6313079e-38 264 263
-0.074350104 0.77100003 -0.031091858 1.6220883e-38 265 263
-0.072998285 0.77100003 -0.031091858 1.5944672e-38 266 263
-0.071460605 0.76899999 -0.031011207 1.5852476e-38 267 263
-0.070112288 0.76899999 -0.031011207 1.5391533e-38 268 263
-0.068763971 0.76899999 -0.031011207 1.5207142e-38 269 263
-0.11077559 0.77999997 -0.032822397 1.1524772e-38 239 264
-0.10940799 0.77999997 -0.032822397 1.2627484e-38 240 264
-0.10804039 0.77999997 -0.032822397 1.3088104e-38 241 264
-0.10667279 0.77999997 -0.032822397 1.3641611e-38 242 264
-0.10476518 0.77600002 -0.032654081 1.4010394e-38 243 264
-0.10340459 0.77600002 -0.032654081 1.4470999e-38 244 264
-0.102044 0.77600002 -0.032654081 1.4747946e-38 245 264
-0.10042392 0.77399999 -0.032569919 1.5116015e-38 246 264
-0.099066831 0.77399999 -0.032569919 1.5392962e-38 247 264
-0.09770976 0.77399999 -0.032569919 1.5944337e-38 248 264
-0.09622819 0.773 -0.032527838 1.6128728e-38 249 264
-0.094872862 0.773 -0.032527838 1.6313477e-38 250 264
-0.093517542 0.773 -0.032527838 1.6497508e-38 251 264
-0.092162207 0.773 -0.032527838 1.6681536e-38 252 264
-0.090806887 0.773 -0.032527838 1.6865567e-38 253 264
-0.089451559 0.773 -0.032527838 1.7049237e-38 254 264
-0.087868303 0.77100003 -0.032443684 1.7325824e-38 255 264
-0.086516477 0.77100003 -0.032443684 1.7234704e-38 256 264
-0.085164659 0.77100003 -0.032443684 1.73269e-38 257 264
-0.084030248 0.773 -0.032527838 1.741837e-38 258 264
-0.082461022 0.77100003 -0.032443684 1.741837e-38 259 264
-0.081109203 0.77100003 -0.032443684 1.7418004e-38 260 264
-0.079757385 0.77100003 -0.032443684 1.7233611e-38 261 264
-0.078405559 0.77100003 -0.032443684 1.7049568e-38 262 264
-0.077053741 0.77100003 -0.032443684 1.6865536e-38 263 264
-0.075701922 0.77100003 -0.032443684 1.6681141e-38 264 264
-0.074350104 0.77100003 -0.032443684 1.6496391e-38 265 264
-0.072808921 0.76899999 -0.032359518 1.6037221e-38 266 264
-0.071460605 0.76899999 -0.032359518 1.5945025e-38 267 264
-0.070112288 0.76899999 -0.032359518 1.5851773e-38 268 264
-0.068763971 0.76899999 -0.032359518 1.5759218e-38 269 264
-0.067415662 0.76899999 -0.032359518 1.483875e-38 270 264
-0.10940799 0.77999997 -0.034189999 1.2258346e-38 240 265
-0.10776336 0.778 -0.034102332 1.2350542e-38 241 265
-0.10639928 0.778 -0.034102332 1.2536343e-38 242 265
-0.10476518 0.77600002 -0.034014668 1.3550134e-38 243 265
-0.10340459 0.77600002 -0.034014668 1.4286961e-38 244 265
-0.102044 0.77600002 -0.034014668 1.4471352e-38 245 265
-0.10042392 0.77399999 -0.033927001 1.5114924e-38 246 265
-0.099066831 0.77399999 -0.033927001 1.5391511e-38 247 265
-0.09770976 0.77399999 -0.033927001 1.5759937e-38 248 265
-0.09622819 0.773 -0.033883166 1.5944687e-38 249 265
-0.094872862 0.773 -0.033883166 1.6312741e-38 250 265
-0.093517542 0.773 -0.033883166 1.6405297e-38 251 265
-0.092162207 0.773 -0.033883166 1.6773e-38 252 265
-0.090806887 0.773 -0.033883166 1.6865196e-38 253 265
-0.089220122 0.77100003 -0.033795502 1.7141063e-38 254 265
-0.087640367 0.76899999 -0.033707831 1.7325454e-38 255 265
-0.086292051 0.76899999 -0.033707831 1.7326174e-38 256 265
-0.085164659 0.77100003 -0.033795502 1.741837e-38 257 265
-0.08381284 0.77100003 -0.033795502 1.7418367e-38 258 265
-0.082247108 0.76899999 -0.033707831 1.7418367e-38 259 265
-0.080898799 0.76899999 -0.033707831 1.7143215e-38 260 265
-0.079550482 0.76899999 -0.033707831 1.7050659e-38 261 265
-0.078202173 0.76899999 -0.033707831 1.6958095e-38 262 265
-0.076853856 0.76899999 -0.033707831 1.6865899e-38 263 265
-0.07550554 0.76899999 -0.033707831 1.6681505e-38 264 265
-0.074157231 0.76899999 -0.033707831 1.6405277e-38 265 265
-0.072808921 0.76899999 -0.033707831 1.6037939e-38 266 265
-0.071460605 0.76899999 -0.033707831 1.5945385e-38 267 265
-0.070112288 0.76899999 -0.033707831 1.5944321e-38 268 265
-0.068763971 0.76899999 -0.033707831 1.5851767e-38 269 265
-0.067415662 0.76899999 -0.033707831 1.5483373e-38 270 265
-0.066067353 0.76899999 -0.033707831 1.5483373e-38 271 265
-0.10720932 0.77399999 -0.03528408 1.225764e-38 241 266
-0.10585223 0.77399999 -0.03528408 1.2350875e-38 242 266
-0.10449515 0.77399999 -0.03528408 1.3088442e-38 243 266
-0.10340459 0.77600002 -0.035375252 1.4285886e-38 244 266
-0.102044 0.77600002 -0.035375252 1.4470636e-38 245 266
-0.10042392 0.77399999 -0.03528408 1.4288408e-38 246 266
-0.099066831 0.77399999 -0.03528408 1.4564997e-38 247 266
-0.09758351 0.773 -0.035238493 1.520857e-38 248 266
-0.09622819 0.773 -0.035238493 1.5392962e-38 249 266
