# .PCD v.7 - Point Cloud Data file format
FIELDS x y z rgb imX imY
SIZE 4 4 4 4 4 4
TYPE F F F F F F
COUNT 1 1 1 1 1 1
WIDTH 854
HEIGHT 1
VIEWPOINT 0 0 0 1 0 0 0
POINTS 854
DATA ascii
0.08025182 0.80299997 0.025342679 1.6591503e-38 377 222
0.081659742 0.80299997 0.025342679 1.6774095e-38 378 222
0.08306767 0.80299997 0.025342679 1.6589703e-38 379 222
0.084685996 0.80500001 0.025405798 1.6494971e-38 380 222
0.086097427 0.80500001 0.025405798 1.6125829e-38 381 222
0.087508865 0.80500001 0.025405798 1.5758473e-38 382 222
0.088920295 0.80500001 0.025405798 1.5390049e-38 383 222
0.090107299 0.80299997 0.025342679 1.4929797e-38 384 222
0.091515228 0.80299997 0.025342679 1.4745047e-38 385 222
0.092923149 0.80299997 0.025342679 1.3916759e-38 386 222
0.094213605 0.80199999 0.02531112 1.3639813e-38 387 222
0.095381334 0.80000001 0.025248 1.2817325e-38 388 222
0.096783996 0.80000001 0.025248 1.4568682e-38 389 222
0.04505891 0.829 0.024709726 8.4769337e-39 351 223
0.046400212 0.82700002 0.024650112 8.8518118e-39 352 223
0.04761878 0.82300001 0.024530886 1.0050355e-38 353 223
0.049061771 0.82300001 0.024530886 1.1797371e-38 354 223
0.050382029 0.82099998 0.024471272 1.2165793e-38 355 223
0.051821519 0.82099998 0.024471272 1.2257973e-38 356 223
0.053131256 0.81900001 0.02441166 1.2350528e-38 357 223
0.054567236 0.81900001 0.02441166 1.2625667e-38 358 223
0.055866458 0.81699997 0.024352046 1.2625667e-38 359 223
0.057158664 0.815 0.024292432 1.2626037e-38 360 223
0.058587633 0.815 0.024292432 1.2810428e-38 361 223
0.059869319 0.81300002 0.02423282 1.3087014e-38 362 223
0.061294779 0.81300002 0.02423282 1.3363602e-38 363 223
0.062565938 0.81099999 0.024173206 1.3641617e-38 364 223
0.063987896 0.81099999 0.024173206 1.4286986e-38 365 223
0.065248549 0.80900002 0.024113594 1.4930555e-38 366 223
0.066666998 0.80900002 0.024113594 1.5391533e-38 367 223
0.067917116 0.80699998 0.02405398 1.5300414e-38 368 223
0.069332056 0.80699998 0.02405398 1.5668836e-38 369 223
0.070746996 0.80699998 0.02405398 1.5853586e-38 370 223
0.071983099 0.80500001 0.023994366 1.6037979e-38 371 223
0.07339453 0.80500001 0.023994366 1.6405685e-38 372 223
0.074805968 0.80500001 0.023994366 1.668227e-38 373 223
0.076028034 0.80299997 0.023934752 1.6591152e-38 374 223
0.077435955 0.80299997 0.023934752 1.6683348e-38 375 223
0.078843892 0.80299997 0.023934752 1.6683701e-38 376 223
0.08025182 0.80299997 0.023934752 1.6683701e-38 377 223
0.081659742 0.80299997 0.023934752 1.6866295e-38 378 223
0.08306767 0.80299997 0.023934752 1.6681902e-38 379 223
0.084475599 0.80299997 0.023934752 1.6954878e-38 380 223
0.085883521 0.80299997 0.023934752 1.6677931e-38 381 223
0.087291449 0.80299997 0.023934752 1.5943223e-38 382 223
0.088920295 0.80500001 0.023994366 1.5482246e-38 383 223
0.090107299 0.80299997 0.023934752 1.5205658e-38 384 223
0.091515228 0.80299997 0.023934752 1.4836877e-38 385 223
0.092923149 0.80299997 0.023934752 1.4193323e-38 386 223
0.094213605 0.80199999 0.023904946 1.3640151e-38 387 223
0.095381334 0.80000001 0.023845334 1.2721866e-38 388 223
0.096542038 0.79799998 0.02378572 1.4289193e-38 389 223
0.09794119 0.79799998 0.02378572 1.4937504e-38 390 223
0.047850218 0.82700002 0.023200106 8.4823329e-39 353 224
0.049180996 0.82499999 0.023143999 1.041518e-38 354 224
0.050504766 0.82300001 0.023087893 1.1336778e-38 355 224
0.051821519 0.82099998 0.023031786 1.1889563e-38 356 224
0.053261004 0.82099998 0.023031786 1.1981759e-38 357 224
0.054567236 0.81900001 0.022975679 1.2441644e-38 358 224
0.055866458 0.81699997 0.022919571 1.2441644e-38 359 224
0.057298932 0.81699997 0.022919571 1.2350528e-38 360 224
0.058587633 0.815 0.022863466 1.2350528e-38 361 224
0.059869319 0.81300002 0.02280736 1.2718235e-38 362 224
0.061294779 0.81300002 0.02280736 1.3086658e-38 363 224
0.062565938 0.81099999 0.022751253 1.3088091e-38 364 224
0.063987896 0.81099999 0.022751253 1.3641264e-38 365 224
0.065248549 0.80900002 0.022695147 1.4102586e-38 366 224
0.066666998 0.80900002 0.022695147 1.4563565e-38 367 224
0.067917116 0.80699998 0.022639038 1.4840154e-38 368 224
0.069332056 0.80699998 0.022639038 1.5208937e-38 369 224
0.070571661 0.80500001 0.022582933 1.5301858e-38 370 224
0.071983099 0.80500001 0.022582933 1.5578445e-38 371 224
0.07339453 0.80500001 0.022582933 1.6037628e-38 372 224
0.074805968 0.80500001 0.022582933 1.6313855e-38 373 224
0.076028034 0.80299997 0.022526825 1.6498599e-38 374 224
0.077435955 0.80299997 0.022526825 1.6591155e-38 375 224
0.078843892 0.80299997 0.022526825 1.6591868e-38 376 224
0.08025182 0.80299997 0.022526825 1.6591868e-38 377 224
0.081659742 0.80299997 0.022526825 1.686666e-38 378 224
0.08306767 0.80299997 0.022526825 1.6498237e-38 379 224
0.084475599 0.80299997 0.022526825 1.677265e-38 380 224
0.085883521 0.80299997 0.022526825 1.6403867e-38 381 224
0.087291449 0.80299997 0.022526825 1.6036136e-38 382 224
0.088699371 0.80299997 0.022526825 1.5482962e-38 383 224
0.090107299 0.80299997 0.022526825 1.5298201e-38 384 224
0.091515228 0.80299997 0.022526825 1.4929779e-38 385 224
0.092923149 0.80299997 0.022526825 1.4377342e-38 386 224
0.094213605 0.80199999 0.022498772 1.4284787e-38 387 224
0.095381334 0.80000001 0.022442667 1.3088107e-38 388 224
0.096542038 0.79799998 0.022386558 1.3825672e-38 389 224
0.097695731 0.796 0.022330454 1.38315e-38 390 224
0.099091381 0.796 0.022330454 1.5398465e-38 391 224
0.051947758 0.82300001 0.0216449 1.0233655e-38 356 225
0.053261004 0.82099998 0.021592299 1.1063415e-38 357 225
0.054567236 0.81900001 0.021539699 1.2348023e-38 358 225
0.055866458 0.81699997 0.021487098 1.2440219e-38 359 225
0.057298932 0.81699997 0.021487098 1.234909e-38 360 225
0.058587633 0.815 0.021434501 1.253384e-38 361 225
0.060016599 0.815 0.021434501 1.2350522e-38 362 225
0.061294779 0.81300002 0.0213819 1.2627109e-38 363 225
0.062565938 0.81099999 0.021329299 1.2994812e-38 364 225
0.063987896 0.81099999 0.021329299 1.3363955e-38 365 225
0.065409854 0.81099999 0.021329299 1.3824926e-38 366 225
0.066666998 0.80900002 0.021276699 1.4009678e-38 367 225
0.067917116 0.80699998 0.021224098 1.4379899e-38 368 225
0.069332056 0.80699998 0.021224098 1.4933073e-38 369 225
0.070571661 0.80500001 0.021171499 1.5117467e-38 370 225
0.071983099 0.80500001 0.021171499 1.5301858e-38 371 225
0.073212177 0.80299997 0.0211189 1.6128375e-38 372 225
0.074620105 0.80299997 0.0211189 1.6497158e-38 373 225
0.076028034 0.80299997 0.0211189 1.6406038e-38 374 225
0.077435955 0.80299997 0.0211189 1.6682265e-38 375 225
0.078843892 0.80299997 0.0211189 1.6591152e-38 376 225
0.08025182 0.80299997 0.0211189 1.6683348e-38 377 225
0.081558049 0.80199999 0.021092599 1.6866663e-38 378 225
0.082964227 0.80199999 0.021092599 1.6774467e-38 379 225
0.084370397 0.80199999 0.021092599 1.658935e-38 380 225
0.085776575 0.80199999 0.021092599 1.6313124e-38 381 225
0.087182745 0.80199999 0.021092599 1.594504e-38 382 225
0.088699371 0.80299997 0.0211189 1.5484062e-38 383 225
0.089995086 0.80199999 0.021092599 1.5115624e-38 384 225
0.091401257 0.80199999 0.021092599 1.4655005e-38 385 225
0.092923149 0.80299997 0.0211189 1.428659e-38 386 225
0.094331078 0.80299997 0.0211189 1.4102197e-38 387 225
0.095619783 0.80199999 0.021092599 1.345687e-38 388 225
0.096542038 0.79799998 0.020987399 1.345687e-38 389 225
0.097695731 0.796 0.0209348 1.2541459e-38 390 225
0.099091381 0.796 0.0209348 1.4754152e-38 391 225
0.053390753 0.82300001 0.020201907 9.6812278e-39 357 226
0.054567236 0.81900001 0.020103719 1.10609e-38 358 226
0.055866458 0.81699997 0.020054625 1.1614074e-38 359 226
0.057298932 0.81699997 0.020054625 1.1982115e-38 360 226
0.058587633 0.815 0.020005532 1.2166146e-38 361 226
0.060016599 0.815 0.020005532 1.2258692e-38 362 226
0.061294779 0.81300002 0.01995644 1.2443443e-38 363 226
0.062720239 0.81300002 0.01995644 1.2535639e-38 364 226
0.063987896 0.81099999 0.019907346 1.2904061e-38 365 226
0.065409854 0.81099999 0.019907346 1.2904792e-38 366 226
0.066666998 0.80900002 0.019858252 1.3365768e-38 367 226
0.067917116 0.80699998 0.019809159 1.4010769e-38 368 226
0.069332056 0.80699998 0.019809159 1.4656139e-38 369 226
0.070571661 0.80500001 0.019760067 1.5208587e-38 370 226
0.071983099 0.80500001 0.019760067 1.5392978e-38 371 226
0.073212177 0.80299997 0.019710973 1.5577372e-38 372 226
0.074620105 0.80299997 0.019710973 1.5945796e-38 373 226
0.076028034 0.80299997 0.019710973 1.6037991e-38 374 226
0.077435955 0.80299997 0.019710973 1.6130546e-38 375 226
0.078843892 0.80299997 0.019710973 1.6222741e-38 376 226
0.080151878 0.80199999 0.019686425 1.6498969e-38 377 226
0.081558049 0.80199999 0.019686425 1.6774112e-38 378 226
0.082964227 0.80199999 0.019686425 1.6681915e-38 379 226
0.084370397 0.80199999 0.019686425 1.6864498e-38 380 226
0.085776575 0.80199999 0.019686425 1.6587552e-38 381 226
0.087182745 0.80199999 0.019686425 1.622018e-38 382 226
0.088588916 0.80199999 0.019686425 1.5943591e-38 383 226
0.089995086 0.80199999 0.019686425 1.5575145e-38 384 226
0.091401257 0.80199999 0.019686425 1.5390753e-38 385 226
0.092807434 0.80199999 0.019686425 1.4654987e-38 386 226
0.094331078 0.80299997 0.019710973 1.4562791e-38 387 226
0.095619783 0.80199999 0.019686425 1.4008929e-38 388 226
0.096542038 0.79799998 0.019588239 1.3547951e-38 389 226
0.09794119 0.79799998 0.019588239 1.235452e-38 390 226
0.099340349 0.79799998 0.019588239 1.4106597e-38 391 226
0.054833744 0.82300001 0.018758914 9.1294777e-39 358 227
0.055866458 0.81699997 0.018622151 1.0420217e-38 359 227
0.057298932 0.81699997 0.018622151 1.2255828e-38 360 227
0.058587633 0.815 0.018576566 1.2532415e-38 361 227
0.060016599 0.815 0.018576566 1.2259048e-38 362 227
0.061294779 0.81300002 0.01853098 1.2351245e-38 363 227
0.062720239 0.81300002 0.01853098 1.2627109e-38 364 227
0.063987896 0.81099999 0.018485393 1.28115e-38 365 227
0.065409854 0.81099999 0.018485393 1.3179557e-38 366 227
0.066666998 0.80900002 0.018439807 1.3271754e-38 367 227
0.067917116 0.80699998 0.018394221 1.3366822e-38 368 227
0.069332056 0.80699998 0.018394221 1.4104389e-38 369 227
0.070571661 0.80500001 0.018348632 1.5114217e-38 370 227
0.071983099 0.80500001 0.018348632 1.5391163e-38 371 227
0.073212177 0.80299997 0.018303044 1.5851417e-38 372 227
0.074620105 0.80299997 0.018303044 1.6220198e-38 373 227
0.076028034 0.80299997 0.018303044 1.6128375e-38 374 227
0.07733953 0.80199999 0.018280253 1.6220572e-38 375 227
0.0787457 0.80199999 0.018280253 1.6496802e-38 376 227
0.080151878 0.80199999 0.018280253 1.6681552e-38 377 227
0.081558049 0.80199999 0.018280253 1.6773744e-38 378 227
0.082964227 0.80199999 0.018280253 1.6681549e-38 379 227
0.08416 0.80000001 0.018234666 1.6588634e-38 380 227
0.085562661 0.80000001 0.018234666 1.603546e-38 381 227
0.086965337 0.80000001 0.018234666 1.6035458e-38 382 227
0.088367999 0.80000001 0.018234666 1.5851066e-38 383 227
0.089770667 0.80000001 0.018234666 1.5208201e-38 384 227
0.091173328 0.80000001 0.018234666 1.5023451e-38 385 227
0.092807434 0.80199999 0.018280253 1.4564265e-38 386 227
0.094213605 0.80199999 0.018280253 1.4103646e-38 387 227
0.095619783 0.80199999 0.018280253 1.4193693e-38 388 227
0.096783996 0.80000001 0.018234666 1.3732715e-38 389 227
0.09794119 0.79799998 0.018189078 1.3180668e-38 390 227
0.099340349 0.79799998 0.018189078 1.4010789e-38 391 227
0.10073951 0.79799998 0.018189078 1.3556352e-38 392 227
0.05613998 0.82099998 0.017273838 9.954935e-39 359 228
0.057298932 0.81699997 0.01718968 1.0969423e-38 360 228
0.058587633 0.815 0.017147599 1.1614793e-38 361 228
0.060016599 0.815 0.017147599 1.1982478e-38 362 228
0.061294779 0.81300002 0.01710552 1.2167229e-38 363 228
0.062565938 0.81099999 0.017063441 1.2443443e-38 364 228
0.063987896 0.81099999 0.017063441 1.2535639e-38 365 228
0.065248549 0.80900002 0.01702136 1.2628554e-38 366 228
0.066666998 0.80900002 0.01702136 1.2628554e-38 367 228
0.067917116 0.80699998 0.016979279 1.3179204e-38 368 228
0.06916023 0.80500001 0.0169372 1.3824573e-38 369 228
0.070571661 0.80500001 0.0169372 1.4470646e-38 370 228
0.071804255 0.80299997 0.016895119 1.502382e-38 371 228
0.073212177 0.80299997 0.016895119 1.5391526e-38 372 228
0.074620105 0.80299997 0.016895119 1.5760669e-38 373 228
0.075933352 0.80199999 0.016874079 1.5760681e-38 374 228
0.07733953 0.80199999 0.016874079 1.5945433e-38 375 228
0.0787457 0.80199999 0.016874079 1.6130177e-38 376 228
0.080151878 0.80199999 0.016874079 1.6314208e-38 377 228
0.08135467 0.80000001 0.016832 1.6681549e-38 378 228
0.082757331 0.80000001 0.016832 1.6312768e-38 379 228
0.08416 0.80000001 0.016832 1.6036182e-38 380 228
0.085562661 0.80000001 0.016832 1.5298258e-38 381 228
0.086965337 0.80000001 0.016832 1.5023116e-38 382 228
0.088367999 0.80000001 0.016832 1.5023116e-38 383 228
0.089770667 0.80000001 0.016832 1.5298967e-38 384 228
0.091173328 0.80000001 0.016832 1.5114217e-38 385 228
0.092575997 0.80000001 0.016832 1.4839046e-38 386 228
0.093978666 0.80000001 0.016832 1.4654296e-38 387 228
0.095381334 0.80000001 0.016832 1.4561028e-38 388 228
0.096542038 0.79799998 0.016789921 1.428444e-38 389 228
0.09794119 0.79799998 0.016789921 1.3456153e-38 390 228
0.099340349 0.79799998 0.016789921 1.3640185e-38 391 228
0.10073951 0.79799998 0.016789921 1.2909524e-38 392 228
0.060016599 0.815 0.015718633 1.198068e-38 362 229
0.061143994 0.81099999 0.015641484 1.2349823e-38 363 229
0.062565938 0.81099999 0.015641484 1.207538e-38 364 229
0.063830093 0.80900002 0.015602913 1.2259772e-38 365 229
0.065248549 0.80900002 0.015602913 1.244416e-38 366 229
0.066502176 0.80699998 0.015564339 1.2536355e-38 367 229
0.0677488 0.80500001 0.015525767 1.3179206e-38 368 229
0.06916023 0.80500001 0.015525767 1.3271403e-38 369 229
0.070571661 0.80500001 0.015525767 1.3917845e-38 370 229
0.071804255 0.80299997 0.015487193 1.465541e-38 371 229
0.073212177 0.80299997 0.015487193 1.5207142e-38 372 229
0.074527182 0.80199999 0.015467905 1.5575924e-38 373 229
0.075933352 0.80199999 0.015467905 1.5760671e-38 374 229
0.07733953 0.80199999 0.015467905 1.6036898e-38 375 229
0.0787457 0.80199999 0.015467905 1.6038332e-38 376 229
0.080151878 0.80199999 0.015467905 1.6314559e-38 377 229
0.08135467 0.80000001 0.015429333 1.6497508e-38 378 229
0.082757331 0.80000001 0.015429333 1.6128725e-38 379 229
0.08416 0.80000001 0.015429333 1.548301e-38 380 229
0.085348755 0.79799998 0.015390759 1.4192271e-38 381 229
0.086747915 0.79799998 0.015390759 1.3917492e-38 382 229
0.088367999 0.80000001 0.015429333 1.4286633e-38 383 229
0.089546233 0.79799998 0.015390759 1.4929833e-38 384 229
0.090945393 0.79799998 0.015390759 1.5113864e-38 385 229
0.092575997 0.80000001 0.015429333 1.4839063e-38 386 229
0.093978666 0.80000001 0.015429333 1.4562476e-38 387 229
0.095381334 0.80000001 0.015429333 1.4469552e-38 388 229
0.096542038 0.79799998 0.015390759 1.4101128e-38 389 229
0.09794119 0.79799998 0.015390759 1.4008223e-38 390 229
0.099340349 0.79799998 0.015390759 1.3455408e-38 391 229
0.10073951 0.79799998 0.015390759 1.2446721e-38 392 229
0.061143994 0.81099999 0.014219533 1.1063052e-38 363 230
0.062565938 0.81099999 0.014219533 1.1707323e-38 364 230
0.063830093 0.80900002 0.014184467 1.2075747e-38 365 230
0.065248549 0.80900002 0.014184467 1.2444162e-38 366 230
0.066502176 0.80699998 0.014149399 1.2444162e-38 367 230
0.0677488 0.80500001 0.014114333 1.2995897e-38 368 230
0.06916023 0.80500001 0.014114333 1.2995897e-38 369 230
0.070571661 0.80500001 0.014114333 1.3549068e-38 370 230
0.071804255 0.80299997 0.014079265 1.4286633e-38 371 230
0.073212177 0.80299997 0.014079265 1.5115312e-38 372 230
0.074527182 0.80199999 0.014061732 1.5300063e-38 373 230
0.075933352 0.80199999 0.014061732 1.5668123e-38 374 230
0.07733953 0.80199999 0.014061732 1.6036547e-38 375 230
0.0787457 0.80199999 0.014061732 1.6037976e-38 376 230
0.079952002 0.80000001 0.014026666 1.613053e-38 377 230
0.08135467 0.80000001 0.014026666 1.6313121e-38 378 230
0.082757331 0.80000001 0.014026666 1.6036532e-38 379 230
0.083949596 0.79799998 0.013991599 1.5480857e-38 380 230
0.085348755 0.79799998 0.013991599 1.4005727e-38 381 230
0.086747915 0.79799998 0.013991599 1.3270686e-38 382 230
0.088147074 0.79799998 0.013991599 1.3731664e-38 383 230
0.089546233 0.79799998 0.013991599 1.4102236e-38 384 230
0.090945393 0.79799998 0.013991599 1.4563214e-38 385 230
0.092344552 0.79799998 0.013991599 1.4745791e-38 386 230
0.093978666 0.80000001 0.014026666 1.4745791e-38 387 230
0.095381334 0.80000001 0.014026666 1.4561384e-38 388 230
0.096783996 0.80000001 0.014026666 1.4376633e-38 389 230
0.09794119 0.79799998 0.013991599 1.400786e-38 390 230
0.099091381 0.796 0.013956533 1.3454686e-38 391 230
0.10048704 0.796 0.013956533 1.2444199e-38 392 230
0.062565938 0.81099999 0.012797579 1.1246718e-38 364 231
0.063830093 0.80900002 0.012766019 1.1707336e-38 365 231
0.065248549 0.80900002 0.012766019 1.1709476e-38 366 231
0.066502176 0.80699998 0.01273446 1.2077898e-38 367 231
0.0677488 0.80500001 0.012702899 1.2903343e-38 368 231
0.06916023 0.80500001 0.012702899 1.3088094e-38 369 231
0.070571661 0.80500001 0.012702899 1.3273204e-38 370 231
0.071804255 0.80299997 0.012671339 1.3734182e-38 371 231
0.073212177 0.80299997 0.012671339 1.4839085e-38 372 231
0.074527182 0.80199999 0.01265556 1.5115312e-38 373 231
0.075933352 0.80199999 0.01265556 1.5392259e-38 374 231
0.07733953 0.80199999 0.01265556 1.5760681e-38 375 231
0.078549333 0.80000001 0.012624 1.5945783e-38 376 231
0.079952002 0.80000001 0.012624 1.6037979e-38 377 231
0.081151277 0.79799998 0.012592439 1.6220575e-38 378 231
0.082550429 0.79799998 0.012592439 1.6036182e-38 379 231
0.083949596 0.79799998 0.012592439 1.5296463e-38 380 231
0.085348755 0.79799998 0.012592439 1.3176324e-38 381 231
0.086747915 0.79799998 0.012592439 1.2899027e-38 382 231
0.088147074 0.79799998 0.012592439 1.2991222e-38 383 231
0.089546233 0.79799998 0.012592439 1.3363968e-38 384 231
0.090945393 0.79799998 0.012592439 1.4286283e-38 385 231
0.092344552 0.79799998 0.012592439 1.43781e-38 386 231
0.093743719 0.79799998 0.012592439 1.43781e-38 387 231
0.095142879 0.79799998 0.012592439 1.4469198e-38 388 231
0.096542038 0.79799998 0.012592439 1.419297e-38 389 231
0.097695731 0.796 0.01256088 1.400786e-38 390 231
0.099091381 0.796 0.01256088 1.3730913e-38 391 231
0.10048704 0.796 0.01256088 1.2719697e-38 392 231
0.062565938 0.81099999 0.011375627 1.0600645e-38 364 232
0.063830093 0.80900002 0.011347573 1.115346e-38 365 232
0.065248549 0.80900002 0.011347573 1.1892435e-38 366 232
0.066502176 0.80699998 0.011319519 1.198463e-38 367 232
0.067917116 0.80699998 0.011319519 1.2903699e-38 368 232
0.06916023 0.80500001 0.011291467 1.2995894e-38 369 232
0.070571661 0.80500001 0.011291467 1.3364671e-38 370 232
0.071804255 0.80299997 0.011263412 1.3549421e-38 371 232
0.073212177 0.80299997 0.011263412 1.4655044e-38 372 232
0.074620105 0.80299997 0.011263412 1.5023467e-38 373 232
0.075933352 0.80199999 0.011249386 1.5483729e-38 374 232
0.07733953 0.80199999 0.011249386 1.5760316e-38 375 232
0.078549333 0.80000001 0.011221333 1.6036898e-38 376 232
0.079752117 0.79799998 0.011193279 1.6129095e-38 377 232
0.081151277 0.79799998 0.011193279 1.631277e-38 378 232
0.082343549 0.796 0.011165227 1.5851432e-38 379 232
0.083739199 0.796 0.011165227 1.4928049e-38 380 232
0.085134849 0.796 0.011165227 1.2715714e-38 381 232
0.086530507 0.796 0.011165227 1.289616e-38 382 232
0.087926157 0.796 0.011165227 1.2988355e-38 383 232
0.089546233 0.79799998 0.011193279 1.3177058e-38 384 232
0.090945393 0.79799998 0.011193279 1.4099015e-38 385 232
0.092344552 0.79799998 0.011193279 1.43781e-38 386 232
0.093743719 0.79799998 0.011193279 1.4285904e-38 387 232
0.095142879 0.79799998 0.011193279 1.4286255e-38 388 232
0.096542038 0.79799998 0.011193279 1.3917831e-38 389 232
0.097695731 0.796 0.011165227 1.3824558e-38 390 232
0.099091381 0.796 0.011165227 1.3640166e-38 391 232
0.10023456 0.79400003 0.011137174 1.2904797e-38 392 232
0.10162671 0.79400003 0.011137174 1.3365417e-38 393 232
0.062565938 0.81099999 0.009953673 9.2198741e-39 364 233
0.063830093 0.80900002 0.0099291261 1.0510613e-38 365 233
0.065248549 0.80900002 0.0099291261 1.2442734e-38 366 233
0.066502176 0.80699998 0.0099045793 1.2535289e-38 367 233
0.067917116 0.80699998 0.0099045793 1.2445241e-38 368 233
0.06916023 0.80500001 0.0098800333 1.2537437e-38 369 233
0.070396326 0.80299997 0.0098554865 1.3088823e-38 370 233
0.071804255 0.80299997 0.0098554865 1.3365768e-38 371 233
0.073212177 0.80299997 0.0098554865 1.4286277e-38 372 233
0.074620105 0.80299997 0.0098554865 1.465506e-38 373 233
0.075933352 0.80199999 0.0098432126 1.5024197e-38 374 233
0.077146664 0.80000001 0.0098186666 1.5392978e-38 375 233
0.078549333 0.80000001 0.0098186666 1.5485171e-38 376 233
0.079752117 0.79799998 0.0097941197 1.5577725e-38 377 233
0.080947891 0.796 0.0097695729 1.6128375e-38 378 233
0.082343549 0.796 0.0097695729 1.5483006e-38 379 233
0.083739199 0.796 0.0097695729 1.4744021e-38 380 233
0.085134849 0.796 0.0097695729 1.2530967e-38 381 233
0.086530507 0.796 0.0097695729 1.2435565e-38 382 233
0.087926157 0.796 0.0097695729 1.2527761e-38 383 233
0.089321814 0.796 0.0097695729 1.2625336e-38 384 233
0.090717465 0.796 0.0097695729 1.3362901e-38 385 233
0.092344552 0.79799998 0.0097941197 1.4378103e-38 386 233
0.093743719 0.79799998 0.0097941197 1.4285907e-38 387 233
0.094904423 0.796 0.0097695729 1.4102226e-38 388 233
0.096300073 0.796 0.0097695729 1.4009672e-38 389 233
0.097695731 0.796 0.0097695729 1.3917112e-38 390 233
0.099091381 0.796 0.0097695729 1.3732362e-38 391 233
0.10023456 0.79400003 0.0097450269 1.3271769e-38 392 233
0.10162671 0.79400003 0.0097450269 1.2903345e-38 393 233
0.063830093 0.80900002 0.0085106799 1.0142556e-38 365 234
0.064764626 0.80299997 0.0084475596 1.1431106e-38 366 234
0.066172548 0.80299997 0.0084475596 1.1892084e-38 367 234
0.067580476 0.80299997 0.0084475596 1.2353046e-38 368 234
0.068988405 0.80299997 0.0084475596 1.2445241e-38 369 234
0.070396326 0.80299997 0.0084475596 1.3088813e-38 370 234
0.071804255 0.80299997 0.0084475596 1.33654e-38 371 234
0.073212177 0.80299997 0.0084475596 1.4102242e-38 372 234
0.074620105 0.80299997 0.0084475596 1.4562861e-38 373 234
0.075933352 0.80199999 0.0084370393 1.520571e-38 374 234
0.077146664 0.80000001 0.0084159998 1.5574852e-38 375 234
0.078352958 0.79799998 0.0083949603 1.5484452e-38 376 234
0.079552241 0.796 0.0083739199 1.5853234e-38 377 234
0.080947891 0.796 0.0083739199 1.594578e-38 378 234
0.082343549 0.796 0.0083739199 1.5023823e-38 379 234
0.083739199 0.796 0.0083739199 1.4468145e-38 380 234
0.085134849 0.796 0.0083739199 1.161044e-38 381 234
0.086530507 0.796 0.0083739199 1.1975281e-38 382 234
0.087926157 0.796 0.0083739199 1.2251509e-38 383 234
0.089321814 0.796 0.0083739199 1.2623519e-38 384 234
0.090717465 0.796 0.0083739199 1.3822062e-38 385 234
0.092113115 0.796 0.0083739199 1.4746161e-38 386 234
0.093508773 0.796 0.0083739199 1.4562128e-38 387 234
0.094904423 0.796 0.0083739199 1.4010747e-38 388 234
0.096300073 0.796 0.0083739199 1.3918551e-38 389 234
0.097695731 0.796 0.0083739199 1.3825632e-38 390 234
0.099091381 0.796 0.0083739199 1.3640882e-38 391 234
0.10023456 0.79400003 0.0083528794 1.3547971e-38 392 234
0.10162671 0.79400003 0.0083528794 1.2626373e-38 393 234
0.062962197 0.79799998 0.0069957995 1.0049652e-38 365 235
0.064361356 0.79799998 0.0069957995 1.0603162e-38 366 235
0.066172548 0.80299997 0.0070396326 1.1156335e-38 367 235
0.067580476 0.80299997 0.0070396326 1.1893156e-38 368 235
0.068988405 0.80299997 0.0070396326 1.2169743e-38 369 235
0.070396326 0.80299997 0.0070396326 1.2813312e-38 370 235
0.071804255 0.80299997 0.0070396326 1.2998062e-38 371 235
0.073212177 0.80299997 0.0070396326 1.3733829e-38 372 235
0.074620105 0.80299997 0.0070396326 1.4194806e-38 373 235
0.075933352 0.80199999 0.0070308661 1.4747258e-38 374 235
0.077146664 0.80000001 0.007013333 1.4931649e-38 375 235
0.078352958 0.79799998 0.0069957995 1.5300779e-38 376 235
0.079552241 0.796 0.0069782664 1.5485171e-38 377 235
0.080947891 0.796 0.0069782664 1.6036532e-38 378 235
0.082136653 0.79400003 0.0069607338 1.5575556e-38 379 235
0.083528802 0.79400003 0.0069607338 1.456033e-38 380 235
0.08492095 0.79400003 0.0069607338 1.1333483e-38 381 235
0.086313091 0.79400003 0.0069607338 1.1238076e-38 382 235
0.08770524 0.79400003 0.0069607338 1.1422827e-38 383 235
0.089321814 0.796 0.0069782664 1.2071067e-38 384 235
0.090717465 0.796 0.0069782664 1.3361805e-38 385 235
0.092113115 0.796 0.0069782664 1.4561772e-38 386 235
0.093508773 0.796 0.0069782664 1.4469577e-38 387 235
0.094904423 0.796 0.0069782664 1.4102224e-38 388 235
0.096300073 0.796 0.0069782664 1.4010028e-38 389 235
0.097695731 0.796 0.0069782664 1.3825267e-38 390 235
0.099091381 0.796 0.0069782664 1.3640517e-38 391 235
0.10023456 0.79400003 0.0069607338 1.3547968e-38 392 235
0.10162671 0.79400003 0.0069607338 1.2534175e-38 393 235
0.062962197 0.79799998 0.0055966396 1.0416629e-38 365 236
0.064361356 0.79799998 0.0055966396 1.0784683e-38 366 236
0.065760516 0.79799998 0.0055966396 1.1337857e-38 367 236
0.067580476 0.80299997 0.0056317062 1.1892084e-38 368 236
0.068988405 0.80299997 0.0056317062 1.2076476e-38 369 236
0.070396326 0.80299997 0.0056317062 1.2812946e-38 370 236
0.071804255 0.80299997 0.0056317062 1.3181727e-38 371 236
0.073212177 0.80299997 0.0056317062 1.3733463e-38 372 236
0.074620105 0.80299997 0.0056317062 1.4194081e-38 373 236
0.075933352 0.80199999 0.0056246929 1.4930202e-38 374 236
0.077146664 0.80000001 0.0056106667 1.5114593e-38 375 236
0.078352958 0.79799998 0.0055966396 1.5300416e-38 376 236
0.079552241 0.796 0.0055826134 1.5484808e-38 377 236
0.080947891 0.796 0.0055826134 1.6036179e-38 378 236
0.082136653 0.79400003 0.0055685868 1.5851788e-38 379 236
0.083528802 0.79400003 0.0055685868 1.4744371e-38 380 236
0.08492095 0.79400003 0.0055685868 1.1148383e-38 381 236
0.086313091 0.79400003 0.0055685868 1.1051169e-38 382 236
0.08770524 0.79400003 0.0055685868 1.1051169e-38 383 236
0.089097388 0.79400003 0.0055685868 1.1517894e-38 384 236
0.090489529 0.79400003 0.0055685868 1.2993024e-38 385 236
0.092113115 0.796 0.0055826134 1.446993e-38 386 236
0.093508773 0.796 0.0055826134 1.4746157e-38 387 236
0.094904423 0.796 0.0055826134 1.4286608e-38 388 236
0.096300073 0.796 0.0055826134 1.4102577e-38 389 236
0.097695731 0.796 0.0055826134 1.3825632e-38 390 236
0.099091381 0.796 0.0055826134 1.3640882e-38 391 236
0.10023456 0.79400003 0.0055685868 1.3547974e-38 392 236
0.10162671 0.79400003 0.0055685868 1.2902604e-38 393 236
0.064361356 0.79799998 0.0041974802 1.0600658e-38 366 237
0.065760516 0.79799998 0.0041974802 1.0877605e-38 367 237
0.067580476 0.80299997 0.0042237798 1.1524026e-38 368 237
0.068988405 0.80299997 0.0042237798 1.2169396e-38 369 237
0.070396326 0.80299997 0.0042237798 1.2812946e-38 370 237
0.071804255 0.80299997 0.0042237798 1.3089532e-38 371 237
0.073212177 0.80299997 0.0042237798 1.3548712e-38 372 237
0.074527182 0.80199999 0.0042185197 1.4101886e-38 373 237
0.075743996 0.80000001 0.0042079999 1.4563214e-38 374 237
0.076953799 0.79799998 0.0041974802 1.4839801e-38 375 237
0.078156583 0.796 0.0041869599 1.5208214e-38 376 237
0.079352364 0.79400003 0.0041764397 1.5300411e-38 377 237
0.080744505 0.79400003 0.0041764397 1.5575921e-38 378 237
0.082136653 0.79400003 0.0041764397 1.5760671e-38 379 237
0.083528802 0.79400003 0.0041764397 1.5019879e-38 380 237
0.08492095 0.79400003 0.0041764397 1.1516445e-38 381 237
0.086313091 0.79400003 0.0041764397 1.086678e-38 382 237
0.08770524 0.79400003 0.0041764397 1.0682388e-38 383 237
0.089097388 0.79400003 0.0041764397 1.1240228e-38 384 237
0.090489529 0.79400003 0.0041764397 1.2991944e-38 385 237
0.091881685 0.79400003 0.0041764397 1.4746161e-38 386 237
0.093273826 0.79400003 0.0041764397 1.4930552e-38 387 237
0.094665974 0.79400003 0.0041764397 1.437845e-38 388 237
0.096058123 0.79400003 0.0041764397 1.4102224e-38 389 237
0.097695731 0.796 0.0041869599 1.4101143e-38 390 237
0.098842412 0.79400003 0.0041764397 1.3824558e-38 391 237
0.10023456 0.79400003 0.0041764397 1.3547974e-38 392 237
0.10162671 0.79400003 0.0041764397 1.3086995e-38 393 237
0.10301885 0.79400003 0.0041764397 1.2351286e-38 394 237
0.066337362 0.80500001 0.0028228667 1.1242437e-38 367 238
0.0677488 0.80500001 0.0028228667 1.1064134e-38 368 238
0.068988405 0.80299997 0.0028158531 1.1894254e-38 369 238
0.070396326 0.80299997 0.0028158531 1.2905142e-38 370 238
0.071804255 0.80299997 0.0028158531 1.3089532e-38 371 238
0.073212177 0.80299997 0.0028158531 1.33654e-38 372 238
0.074527182 0.80199999 0.0028123464 1.3734182e-38 373 238
0.075743996 0.80000001 0.0028053334 1.428735e-38 374 238
0.076760925 0.796 0.0027913067 1.44721e-38 375 238
0.077960216 0.79400003 0.0027842934 1.5023472e-38 376 238
0.079352364 0.79400003 0.0027842934 1.5207865e-38 377 238
0.080744505 0.79400003 0.0027842934 1.5483729e-38 378 238
0.081929758 0.792 0.0027772798 1.566812e-38 379 238
0.083318397 0.792 0.0027772798 1.5203547e-38 380 238
0.084707037 0.792 0.0027772798 1.1884505e-38 381 238
0.086095676 0.792 0.0027772798 1.123341e-38 382 238
0.087484315 0.792 0.0027772798 1.123341e-38 383 238
0.088872954 0.792 0.0027772798 1.1332076e-38 384 238
0.090261593 0.792 0.0027772798 1.2899042e-38 385 238
0.091650233 0.792 0.0027772798 1.4838003e-38 386 238
0.093038872 0.792 0.0027772798 1.5022753e-38 387 238
0.094665974 0.79400003 0.0027842934 1.4653245e-38 388 238
0.096058123 0.79400003 0.0027842934 1.4468854e-38 389 238
0.097450264 0.79400003 0.0027842934 1.4100421e-38 390 238
0.098842412 0.79400003 0.0027842934 1.391603e-38 391 238
0.10023456 0.79400003 0.0027842934 1.3547255e-38 392 238
0.10162671 0.79400003 0.0027842934 1.3270308e-38 393 238
0.10301885 0.79400003 0.0027842934 1.2442402e-38 394 238
0.104411 0.79400003 0.0027842934 1.3272163e-38 395 238
0.0677488 0.80500001 0.0014114333 1.1521169e-38 368 239
0.068988405 0.80299997 0.0014079266 1.2258734e-38 369 239
0.070396326 0.80299997 0.0014079266 1.2720396e-38 370 239
0.071804255 0.80299997 0.0014079266 1.3089179e-38 371 239
0.073121011 0.80199999 0.0014061732 1.3365756e-38 372 239
0.074527182 0.80199999 0.0014061732 1.3826375e-38 373 239
0.075554639 0.79799998 0.0013991599 1.43781e-38 374 239
0.076760925 0.796 0.0013956534 1.4655047e-38 375 239
0.077960216 0.79400003 0.0013921467 1.5022748e-38 376 239
0.079352364 0.79400003 0.0013921467 1.5207498e-38 377 239
0.080541119 0.792 0.0013886399 1.5207868e-38 378 239
0.081929758 0.792 0.0013886399 1.5668486e-38 379 239
0.083318397 0.792 0.0013886399 1.5388662e-38 380 239
0.084493138 0.79000002 0.0013851334 1.2069619e-38 381 239
0.08587826 0.79000002 0.0013851334 1.0958249e-38 382 239
0.087263398 0.79000002 0.0013851334 1.0405076e-38 383 239
0.088648535 0.79000002 0.0013851334 1.1422827e-38 384 239
0.090033665 0.79000002 0.0013851334 1.3081989e-38 385 239
0.091418803 0.79000002 0.0013851334 1.4838009e-38 386 239
0.093038872 0.792 0.0013886399 1.50224e-38 387 239
0.094427519 0.792 0.0013886399 1.4561778e-38 388 239
0.095816158 0.792 0.0013886399 1.4377028e-38 389 239
0.097450264 0.79400003 0.0013921467 1.4100791e-38 390 239
0.098842412 0.79400003 0.0013921467 1.3824563e-38 391 239
0.10023456 0.79400003 0.0013921467 1.3455425e-38 392 239
0.10162671 0.79400003 0.0013921467 1.3178838e-38 393 239
0.10327834 0.796 0.0013956534 1.2166894e-38 394 239
0.068988405 0.80299997 -0 1.1614816e-38 369 240
0.070396326 0.80299997 -0 1.2076847e-38 370 240
0.071804255 0.80299997 -0 1.2537466e-38 371 240
0.073121011 0.80199999 -0 1.2906232e-38 372 240
0.074341334 0.80000001 -0 1.318282e-38 373 240
0.075365283 0.796 -0 1.4011135e-38 374 240
0.076760925 0.796 -0 1.4195886e-38 375 240
0.077960216 0.79400003 -0 1.4747255e-38 376 240
0.07915248 0.792 -0 1.4931646e-38 377 240
0.080541119 0.792 -0 1.5024199e-38 378 240
0.081929758 0.792 -0 1.5392981e-38 379 240
0.083318397 0.792 -0 1.5666322e-38 380 240
0.084493138 0.79000002 -0 1.2716421e-38 381 240
0.08587826 0.79000002 -0 1.1694367e-38 382 240
0.087263398 0.79000002 -0 1.0588378e-38 383 240
0.088648535 0.79000002 -0 1.1422827e-38 384 240
0.090033665 0.79000002 -0 1.3174184e-38 385 240
0.091418803 0.79000002 -0 1.4561425e-38 386 240
0.092803933 0.79000002 -0 1.5114599e-38 387 240
0.094427519 0.792 -0 1.4745443e-38 388 240
0.095816158 0.792 -0 1.4560693e-38 389 240
0.097204797 0.792 -0 1.4376285e-38 390 240
0.098593436 0.792 -0 1.4007504e-38 391 240
0.10023456 0.79400003 -0 1.3730217e-38 392 240
0.10162671 0.79400003 -0 1.345363e-38 393 240
0.10327834 0.796 -0 1.2073624e-38 394 240
0.070746996 0.80699998 -0.0014149399 1.2534948e-38 370 241
0.071983099 0.80500001 -0.0014114333 1.2811895e-38 371 241
0.073121011 0.80199999 -0.0014061732 1.3181377e-38 372 241
0.074155472 0.79799998 -0.0013991599 1.3550161e-38 373 241
0.075365283 0.796 -0.0013956534 1.4285198e-38 374 241
0.076760925 0.796 -0.0013956534 1.4562145e-38 375 241
0.077960216 0.79400003 -0.0013921467 1.4930202e-38 376 241
0.07915248 0.792 -0.0013886399 1.5207147e-38 377 241
0.080541119 0.792 -0.0013886399 1.5207512e-38 378 241
0.081929758 0.792 -0.0013886399 1.5299707e-38 379 241
0.083108 0.79000002 -0.0013851334 1.5667027e-38 380 241
0.084493138 0.79000002 -0.0013851334 1.3269942e-38 381 241
0.08587826 0.79000002 -0.0013851334 1.2064183e-38 382 241
0.087263398 0.79000002 -0.0013851334 1.0128092e-38 383 241
0.088648535 0.79000002 -0.0013851334 1.1514625e-38 384 241
0.090033665 0.79000002 -0.0013851334 1.3450733e-38 385 241
0.091418803 0.79000002 -0.0013851334 1.4284113e-38 386 241
0.092803933 0.79000002 -0.0013851334 1.4929483e-38 387 241
0.094189063 0.79000002 -0.0013851334 1.4561778e-38 388 241
0.0955742 0.79000002 -0.0013851334 1.4469224e-38 389 241
0.096959338 0.79000002 -0.0013851334 1.4100791e-38 390 241
0.098593436 0.792 -0.0013886399 1.3732009e-38 391 241
0.10023456 0.79400003 -0.0013921467 1.3271389e-38 392 241
0.10162671 0.79400003 -0.0013921467 1.2994444e-38 393 241
0.10327834 0.796 -0.0013956534 1.2255828e-38 394 241
0.072573967 0.796 -0.0027913067 1.3181024e-38 372 242
0.073969625 0.796 -0.0027913067 1.3365417e-38 373 242
0.075365283 0.796 -0.0027913067 1.3826028e-38 374 242
0.076568067 0.79400003 -0.0027842934 1.419445e-38 375 242
0.077960216 0.79400003 -0.0027842934 1.4654344e-38 376 242
0.07915248 0.792 -0.0027772798 1.4838735e-38 377 242
0.080541119 0.792 -0.0027772798 1.4932e-38 378 242
0.081722863 0.79000002 -0.0027702667 1.4932e-38 379 242
0.083108 0.79000002 -0.0027702667 1.5391511e-38 380 242
0.084493138 0.79000002 -0.0027702667 1.4193326e-38 381 242
0.08587826 0.79000002 -0.0027702667 1.3173764e-38 382 242
0.087263398 0.79000002 -0.0027702667 1.1606079e-38 383 242
0.088648535 0.79000002 -0.0027702667 1.280572e-38 384 242
0.089919694 0.78899997 -0.0027667598 1.4096459e-38 385 242
0.091303073 0.78899997 -0.0027667598 1.446958e-38 386 242
0.092686452 0.78899997 -0.0027667598 1.4561775e-38 387 242
0.094189063 0.79000002 -0.0027702667 1.4378103e-38 388 242
0.0955742 0.79000002 -0.0027702667 1.4009322e-38 389 242
0.096959338 0.79000002 -0.0027702667 1.3824558e-38 390 242
0.098593436 0.792 -0.0027772798 1.3640166e-38 391 242
0.099982075 0.792 -0.0027772798 1.3271387e-38 392 242
0.10137071 0.792 -0.0027772798 1.2533822e-38 393 242
0.10327834 0.796 -0.0027913067 1.115272e-38 394 242
0.072573967 0.796 -0.0041869599 1.3088472e-38 372 243
0.07378377 0.79400003 -0.0041764397 1.3273222e-38 373 243
0.075175926 0.79400003 -0.0041764397 1.3733473e-38 374 243
0.076568067 0.79400003 -0.0041764397 1.4010419e-38 375 243
0.077763841 0.792 -0.00416592 1.437848e-38 376 243
0.07915248 0.792 -0.00416592 1.4746902e-38 377 243
0.080541119 0.792 -0.00416592 1.4839454e-38 378 243
0.081722863 0.79000002 -0.0041554002 1.5023846e-38 379 243
0.083108 0.79000002 -0.0041554002 1.5115299e-38 380 243
0.084493138 0.79000002 -0.0041554002 1.4930908e-38 381 243
0.08587826 0.79000002 -0.0041554002 1.4651427e-38 382 243
0.087263398 0.79000002 -0.0041554002 1.3821667e-38 383 243
0.088648535 0.79000002 -0.0041554002 1.3365027e-38 384 243
0.089919694 0.78899997 -0.0041501396 1.4010396e-38 385 243
0.091303073 0.78899997 -0.0041501396 1.4654338e-38 386 243
0.092686452 0.78899997 -0.0041501396 1.4469945e-38 387 243
0.094189063 0.79000002 -0.0041554002 1.4101873e-38 388 243
0.0955742 0.79000002 -0.0041554002 1.3640535e-38 389 243
0.096959338 0.79000002 -0.0041554002 1.3640522e-38 390 243
0.09834446 0.79000002 -0.0041554002 1.3455771e-38 391 243
0.099982075 0.792 -0.00416592 1.3086995e-38 392 243
0.10137071 0.792 -0.00416592 1.2257235e-38 393 243
0.10327834 0.796 -0.0041869599 1.0785014e-38 394 243
0.07378377 0.79400003 -0.0055685868 1.3179952e-38 373 244
0.075175926 0.79400003 -0.0055685868 1.3458321e-38 374 244
0.076375201 0.792 -0.0055545596 1.3826744e-38 375 244
0.077763841 0.792 -0.0055545596 1.41948e-38 376 244
0.078952603 0.79000002 -0.0055405335 1.4379552e-38 377 244
0.080337733 0.79000002 -0.0055405335 1.4471747e-38 378 244
0.081722863 0.79000002 -0.0055405335 1.4656139e-38 379 244
0.083108 0.79000002 -0.0055405335 1.5023472e-38 380 244
0.084493138 0.79000002 -0.0055405335 1.4839082e-38 381 244
0.085769556 0.78899997 -0.0055335197 1.4747243e-38 382 244
0.087152928 0.78899997 -0.0055335197 1.4562493e-38 383 244
0.088536315 0.78899997 -0.0055335197 1.4562498e-38 384 244
0.089919694 0.78899997 -0.0055335197 1.4562498e-38 385 244
0.091303073 0.78899997 -0.0055335197 1.4195507e-38 386 244
0.092686452 0.78899997 -0.0055335197 1.391928e-38 387 244
0.094069831 0.78899997 -0.0055335197 1.3916756e-38 388 244
0.0955742 0.79000002 -0.0055405335 1.3640169e-38 389 244
0.096959338 0.79000002 -0.0055405335 1.3364656e-38 390 244
0.09834446 0.79000002 -0.0055405335 1.3180263e-38 391 244
0.099982075 0.792 -0.0055545596 1.2811132e-38 392 244
0.10137071 0.792 -0.0055545596 1.1889174e-38 393 244
0.10327834 0.796 -0.0055826134 1.1150199e-38 394 244
0.1052 0.80000001 -0.0056106667 1.1150199e-38 395 244
0.07378377 0.79400003 -0.0069607338 1.2628946e-38 373 245
0.075175926 0.79400003 -0.0069607338 1.309026e-38 374 245
0.076375201 0.792 -0.0069431998 1.3458684e-38 375 245
0.077763841 0.792 -0.0069431998 1.3826746e-38 376 245
0.078952603 0.79000002 -0.0069256667 1.4011138e-38 377 245
0.080337733 0.79000002 -0.0069256667 1.419553e-38 378 245
0.081722863 0.79000002 -0.0069256667 1.4379562e-38 379 245
0.083108 0.79000002 -0.0069256667 1.4656495e-38 380 245
0.084493138 0.79000002 -0.0069256667 1.4656495e-38 381 245
0.085769556 0.78899997 -0.0069168997 1.4747956e-38 382 245
0.087152928 0.78899997 -0.0069168997 1.484051e-38 383 245
0.088536315 0.78899997 -0.0069168997 1.4656111e-38 384 245
0.089919694 0.78899997 -0.0069168997 1.4379882e-38 385 245
0.091303073 0.78899997 -0.0069168997 1.391963e-38 386 245
0.092686452 0.78899997 -0.0069168997 1.3642683e-38 387 245
0.094069831 0.78899997 -0.0069168997 1.3640888e-38 388 245
0.0955742 0.79000002 -0.0069256667 1.3364303e-38 389 245
0.096959338 0.79000002 -0.0069256667 1.3271737e-38 390 245
0.09834446 0.79000002 -0.0069256667 1.3087346e-38 391 245
0.099729598 0.79000002 -0.0069256667 1.2810053e-38 392 245
0.10111474 0.79000002 -0.0069256667 1.1427117e-38 393 245
0.10379733 0.80000001 -0.007013333 9.3127704e-39 394 245
0.1052 0.80000001 -0.007013333 1.0050696e-38 395 245
0.075175926 0.79400003 -0.0083528794 1.3180658e-38 374 246
0.076568067 0.79400003 -0.0083528794 1.3549081e-38 375 246
0.077763841 0.792 -0.0083318399 1.3917495e-38 376 246
0.07915248 0.792 -0.0083318399 1.4101886e-38 377 246
0.080337733 0.79000002 -0.0083108004 1.437775e-38 378 246
0.081722863 0.79000002 -0.0083108004 1.4562142e-38 379 246
0.083002798 0.78899997 -0.0083002793 1.4655057e-38 380 246
0.08438617 0.78899997 -0.0083002793 1.4747611e-38 381 246
0.085769556 0.78899997 -0.0083002793 1.4564296e-38 382 246
0.087152928 0.78899997 -0.0083002793 1.44721e-38 383 246
0.088536315 0.78899997 -0.0083002793 1.4379536e-38 384 246
0.089919694 0.78899997 -0.0083002793 1.4194785e-38 385 246
0.091303073 0.78899997 -0.0083002793 1.4010747e-38 386 246
0.092686452 0.78899997 -0.0083002793 1.3457573e-38 387 246
0.094069831 0.78899997 -0.0083002793 1.3456854e-38 388 246
0.09545321 0.78899997 -0.0083002793 1.3179907e-38 389 246
0.096836597 0.78899997 -0.0083002793 1.3087349e-38 390 246
0.09834446 0.79000002 -0.0083108004 1.2995153e-38 391 246
0.099729598 0.79000002 -0.0083108004 1.1891339e-38 392 246
0.10111474 0.79000002 -0.0083108004 9.6790039e-39 393 246
0.10353784 0.79799998 -0.0083949603 7.7501376e-39 394 246
0.10493699 0.79799998 -0.0083949603 9.5940488e-39 395 246
0.075365283 0.796 -0.0097695729 1.2812261e-38 374 247
0.076568067 0.79400003 -0.0097450269 1.3088848e-38 375 247
0.077960216 0.79400003 -0.0097450269 1.3366135e-38 376 247
0.078952603 0.79000002 -0.0096959332 1.3550527e-38 377 247
0.080337733 0.79000002 -0.0096959332 1.3918223e-38 378 247
0.081722863 0.79000002 -0.0096959332 1.419445e-38 379 247
0.083002798 0.78899997 -0.0096836593 1.4103332e-38 380 247
0.08438617 0.78899997 -0.0096836593 1.4195886e-38 381 247
0.085769556 0.78899997 -0.0096836593 1.4195881e-38 382 247
0.087152928 0.78899997 -0.0096836593 1.4103685e-38 383 247
0.088536315 0.78899997 -0.0096836593 1.3919999e-38 384 247
0.089919694 0.78899997 -0.0096836593 1.3735249e-38 385 247
0.091303073 0.78899997 -0.0096836593 1.3367175e-38 386 247
0.092686452 0.78899997 -0.0096836593 1.327498e-38 387 247
0.094069831 0.78899997 -0.0096836593 1.3273176e-38 388 247
0.09545321 0.78899997 -0.0096836593 1.2996948e-38 389 247
0.096836597 0.78899997 -0.0096836593 1.2811838e-38 390 247
0.098219968 0.78899997 -0.0096836593 1.2166468e-38 391 247
0.099729598 0.79000002 -0.0096959332 1.1155219e-38 392 247
0.10111474 0.79000002 -0.0096959332 8.7584924e-39 393 247
0.10353784 0.79799998 -0.0097941197 7.8401836e-39 394 247
0.10493699 0.79799998 -0.0097941197 1.0513857e-38 395 247
0.075365283 0.796 -0.011165227 1.2903009e-38 374 248
0.076568067 0.79400003 -0.011137174 1.327215e-38 375 248
0.077763841 0.792 -0.011109119 1.3549431e-38 376 248
0.078952603 0.79000002 -0.011081067 1.3641628e-38 377 248
0.080337733 0.79000002 -0.011081067 1.4009322e-38 378 248
0.081619412 0.78899997 -0.011067039 1.4101517e-38 379 248
0.083002798 0.78899997 -0.011067039 1.4102239e-38 380 248
0.08438617 0.78899997 -0.011067039 1.4102239e-38 381 248
0.085769556 0.78899997 -0.011067039 1.4011122e-38 382 248
0.087152928 0.78899997 -0.011067039 1.3918927e-38 383 248
0.088311888 0.787 -0.011038986 1.3827081e-38 384 248
0.089691758 0.787 -0.011038986 1.3550134e-38 385 248
0.091303073 0.78899997 -0.011067039 1.3274261e-38 386 248
0.092686452 0.78899997 -0.011067039 1.3089511e-38 387 248
0.094069831 0.78899997 -0.011067039 1.2997667e-38 388 248
0.09545321 0.78899997 -0.011067039 1.253669e-38 389 248
0.096836597 0.78899997 -0.011067039 1.2259027e-38 390 248
0.098219968 0.78899997 -0.011067039 1.1429266e-38 391 248
0.099729598 0.79000002 -0.011081067 9.7740834e-39 392 248
0.10111474 0.79000002 -0.011081067 7.5613869e-39 393 248
0.10353784 0.79799998 -0.011193279 8.2060949e-39 394 248
0.10493699 0.79799998 -0.011193279 1.1525138e-38 395 248
0.076568067 0.79400003 -0.01252932 1.2629665e-38 375 249
0.077763841 0.792 -0.012497759 1.3181727e-38 376 249
0.078952603 0.79000002 -0.0124662 1.3273923e-38 377 249
0.080236033 0.78899997 -0.012450419 1.3641264e-38 378 249
0.081619412 0.78899997 -0.012450419 1.3733461e-38 379 249
0.083002798 0.78899997 -0.012450419 1.3641628e-38 380 249
0.08438617 0.78899997 -0.012450419 1.3734182e-38 381 249
0.085769556 0.78899997 -0.012450419 1.3826378e-38 382 249
0.086932018 0.787 -0.01241886 1.3641628e-38 383 249
0.088311888 0.787 -0.01241886 1.3549784e-38 384 249
0.089691758 0.787 -0.01241886 1.3273557e-38 385 249
0.091071643 0.787 -0.01241886 1.3089516e-38 386 249
0.092451513 0.787 -0.01241886 1.2904765e-38 387 249
0.093831383 0.787 -0.01241886 1.2444863e-38 388 249
0.09545321 0.78899997 -0.012450419 1.207608e-38 389 249
0.096836597 0.78899997 -0.012450419 1.1431437e-38 390 249
0.09834446 0.79000002 -0.0124662 1.0140698e-38 391 249
0.099729598 0.79000002 -0.0124662 9.4942693e-39 392 249
0.10111474 0.79000002 -0.0124662 8.1113349e-39 393 249
0.10353784 0.79799998 -0.012592439 8.848593e-39 394 249
0.076568067 0.79400003 -0.013921468 1.2169407e-38 375 250
0.077763841 0.792 -0.0138864 1.3089179e-38 376 250
0.078952603 0.79000002 -0.013851333 1.3181374e-38 377 250
0.080236033 0.78899997 -0.013833799 1.3549065e-38 378 250
0.081619412 0.78899997 -0.013833799 1.345687e-38 379 250
0.083002798 0.78899997 -0.013833799 1.3365756e-38 380 250
0.08438617 0.78899997 -0.013833799 1.3365756e-38 381 250
0.085552141 0.787 -0.013798732 1.33654e-38 382 250
0.086932018 0.787 -0.013798732 1.3273204e-38 383 250
0.088311888 0.787 -0.013798732 1.308881e-38 384 250
0.089691758 0.787 -0.013798732 1.2996614e-38 385 250
0.091071643 0.787 -0.013798732 1.2812572e-38 386 250
0.092451513 0.787 -0.013798732 1.2535987e-38 387 250
0.093831383 0.787 -0.013798732 1.1800222e-38 388 250
0.09521126 0.787 -0.013798732 1.1431081e-38 389 250
0.096836597 0.78899997 -0.013833799 1.0234341e-38 390 250
0.098219968 0.78899997 -0.013833799 8.8514068e-39 391 250
0.099729598 0.79000002 -0.013851333 8.4804887e-39 392 250
0.10111474 0.79000002 -0.013851333 8.0198707e-39 393 250
0.076760925 0.796 -0.015352187 1.2443481e-38 375 251
0.077763841 0.792 -0.01527504 1.2812952e-38 376 251
0.078952603 0.79000002 -0.015236467 1.3089179e-38 377 251
0.080236033 0.78899997 -0.015217179 1.3364671e-38 378 251
0.081412524 0.787 -0.015178605 1.3364671e-38 379 251
0.082792401 0.787 -0.015178605 1.3181362e-38 380 251
0.084172271 0.787 -0.015178605 1.3181362e-38 381 251
0.085334733 0.78500003 -0.015140033 1.2905495e-38 382 251
0.086711101 0.78500003 -0.015140033 1.2813299e-38 383 251
0.088087469 0.78500003 -0.015140033 1.27211e-38 384 251
0.08946383 0.78500003 -0.015140033 1.2536708e-38 385 251
0.090840198 0.78500003 -0.015140033 1.2260479e-38 386 251
0.092216566 0.78500003 -0.015140033 1.179914e-38 387 251
0.093831383 0.787 -0.015178605 1.1338884e-38 388 251
0.09521126 0.787 -0.015178605 1.0048145e-38 389 251
0.096836597 0.78899997 -0.015217179 9.1265616e-39 390 251
0.098219968 0.78899997 -0.015217179 8.3889966e-39 391 251
0.099729598 0.79000002 -0.015236467 7.929117e-39 392 251
0.076760925 0.796 -0.01674784 1.1984651e-38 375 252
0.077763841 0.792 -0.01666368 1.2354845e-38 376 252
0.078852654 0.78899997 -0.016600559 1.2538876e-38 377 252
0.080032654 0.787 -0.01655848 1.3456151e-38 378 252
0.081412524 0.787 -0.01655848 1.3271759e-38 379 252
0.082582004 0.78500003 -0.016516401 1.2996614e-38 380 252
0.083958365 0.78500003 -0.016516401 1.2904417e-38 381 252
0.085334733 0.78500003 -0.016516401 1.217045e-38 382 252
0.086711101 0.78500003 -0.016516401 1.2078254e-38 383 252
0.088087469 0.78500003 -0.016516401 1.1985337e-38 384 252
0.08946383 0.78500003 -0.016516401 1.1893141e-38 385 252
0.090840198 0.78500003 -0.016516401 1.1615828e-38 386 252
0.092216566 0.78500003 -0.016516401 1.1062654e-38 387 252
0.093831383 0.787 -0.01655848 9.8655504e-39 388 252
0.09521126 0.787 -0.01655848 8.9439528e-39 389 252
0.09659113 0.787 -0.01655848 7.5624799e-39 390 252
0.098219968 0.78899997 -0.016600559 7.3780886e-39 391 252
0.099729598 0.79000002 -0.016621601 7.5610786e-39 392 252
0.077469274 0.78899997 -0.017983939 1.2906217e-38 376 253
0.078652777 0.787 -0.017938353 1.2906217e-38 377 253
0.079829268 0.78500003 -0.017892767 1.3272473e-38 378 253
0.081205636 0.78500003 -0.017892767 1.3088442e-38 379 253
0.082582004 0.78500003 -0.017892767 1.2628185e-38 380 253
0.083958365 0.78500003 -0.017892767 1.2628185e-38 381 253
0.08511731 0.78299999 -0.017847179 1.2077532e-38 382 253
0.086490177 0.78299999 -0.017847179 1.1985337e-38 383 253
0.087863036 0.78299999 -0.017847179 1.1800941e-38 384 253
0.089235894 0.78299999 -0.017847179 1.1339964e-38 385 253
0.090840198 0.78500003 -0.017892767 1.0326534e-38 386 253
0.092216566 0.78500003 -0.017892767 9.4967735e-39 387 253
0.093831383 0.787 -0.017938353 7.4699157e-39 388 253
0.09521126 0.787 -0.017938353 7.1011318e-39 389 253
0.09659113 0.787 -0.017938353 7.1922709e-39 390 253
0.098219968 0.78899997 -0.017983939 7.2844665e-39 391 253
