# .PCD v.7 - Point Cloud Data file format
FIELDS x y z rgb imX imY
SIZE 4 4 4 4 4 4
TYPE F F F F F F
COUNT 1 1 1 1 1 1
WIDTH 843
HEIGHT 1
VIEWPOINT 0 0 0 1 0 0 0
POINTS 843
DATA ascii
0.058249239 0.67799997 -0.083213195 1.8338944e-38 369 310
0.059437994 0.67799997 -0.083213195 1.8430742e-38 370 310
0.06044792 0.676 -0.082967728 1.8154515e-38 371 310
0.061542001 0.67500001 -0.082844995 1.8338884e-38 372 310
0.062725499 0.67500001 -0.082844995 1.843108e-38 373 310
0.064003684 0.676 -0.082967728 1.8614745e-38 374 310
0.065188929 0.676 -0.082967728 1.8522549e-38 375 310
0.066374183 0.676 -0.082967728 1.8245963e-38 376 310
0.06775932 0.67799997 -0.083213195 1.8061571e-38 377 310
0.068948075 0.67799997 -0.083213195 1.80587e-38 378 310
0.070136838 0.67799997 -0.083213195 1.7228939e-38 379 310
0.0713256 0.67799997 -0.083213195 1.6399902e-38 380 310
0.072514355 0.67799997 -0.083213195 1.6031119e-38 381 310
0.073703118 0.67799997 -0.083213195 1.520605e-38 382 310
0.074891873 0.67799997 -0.083213195 1.5667027e-38 383 310
0.076080635 0.67799997 -0.083213195 1.6217701e-38 384 310
0.077269398 0.67799997 -0.083213195 1.6586483e-38 385 310
0.078573883 0.67900002 -0.083335936 1.7415148e-38 386 310
0.079764389 0.67900002 -0.083335936 1.7415148e-38 387 310
0.080954902 0.67900002 -0.083335936 1.7139991e-38 388 310
0.082145423 0.67900002 -0.083335936 1.7047795e-38 389 310
0.083335936 0.67900002 -0.083335936 1.7138542e-38 390 310
0.084650926 0.68000001 -0.083458669 1.6769761e-38 391 310
0.086095676 0.68199998 -0.083704129 1.640206e-38 392 310
0.087291449 0.68199998 -0.083704129 1.6586091e-38 393 310
0.088487223 0.68199998 -0.083704129 1.6126565e-38 394 310
0.089814499 0.68300003 -0.08382687 1.5941813e-38 395 310
0.091012023 0.68300003 -0.08382687 1.5849617e-38 396 310
0.092344552 0.68400002 -0.083949596 1.5757422e-38 397 310
0.093543842 0.68400002 -0.083949596 1.5481192e-38 398 310
0.094743125 0.68400002 -0.083949596 1.5388997e-38 399 310
0.0959424 0.68400002 -0.083949596 1.5113131e-38 400 310
0.097141676 0.68400002 -0.083949596 1.4836545e-38 401 310
0.098772272 0.68699998 -0.084317796 1.4560325e-38 402 310
0.10012234 0.68800002 -0.084440529 1.4283737e-38 403 310
0.10132864 0.68800002 -0.084440529 1.4005722e-38 404 310
0.10298203 0.69099998 -0.08480873 1.3452907e-38 405 310
0.10449516 0.69300002 -0.085054204 1.234982e-38 406 310
0.10571022 0.69300002 -0.085054204 1.3548362e-38 407 310
0.10692528 0.69300002 -0.085054204 1.5394487e-38 408 310
-0.071067855 0.68699998 -0.085522331 1.484418e-38 261 311
-0.069761619 0.68599999 -0.085397847 1.6225247e-38 262 311
-0.068558842 0.68599999 -0.085397847 1.6778062e-38 263 311
-0.06735605 0.68599999 -0.085397847 1.7327987e-38 264 311
-0.066153266 0.68599999 -0.085397847 1.7051761e-38 265 311
-0.064950474 0.68599999 -0.085397847 1.7326918e-38 266 311
-0.063747689 0.68599999 -0.085397847 1.7511311e-38 267 311
-0.062362559 0.68400002 -0.085148886 1.8063038e-38 268 311
-0.061163284 0.68400002 -0.085148886 1.7417669e-38 269 311
-0.060139328 0.68599999 -0.085397847 1.7137444e-38 270 311
-0.058936544 0.68599999 -0.085397847 1.4095347e-38 271 311
-0.057733759 0.68599999 -0.085397847 1.2064171e-38 272 311
-0.056530971 0.68599999 -0.085397847 1.1142229e-38 273 311
-0.055328183 0.68599999 -0.085397847 9.9480406e-39 274 311
-0.053967599 0.68400002 -0.085148886 1.1607922e-38 275 311
-0.05276832 0.68400002 -0.085148886 1.3270718e-38 276 311
-0.051569041 0.68400002 -0.085148886 1.5668165e-38 277 311
-0.050222475 0.68199998 -0.084899902 1.7417358e-38 278 311
-0.049026705 0.68199998 -0.084899902 1.8062727e-38 279 311
-0.0479712 0.68400002 -0.085148886 1.7326935e-38 280 311
0.050965894 0.676 -0.084152982 1.8343315e-38 363 311
0.052151144 0.676 -0.084152982 1.8525872e-38 364 311
0.053257499 0.67500001 -0.084028497 1.7972698e-38 365 311
0.054441001 0.67500001 -0.084028497 1.8155252e-38 366 311
0.0556245 0.67500001 -0.084028497 1.7970862e-38 367 311
0.056892153 0.676 -0.084152982 1.8430745e-38 368 311
0.058077414 0.676 -0.084152982 1.852294e-38 369 311
0.059262663 0.676 -0.084152982 1.8522572e-38 370 311
0.06044792 0.676 -0.084152982 1.8430376e-38 371 311
0.061450824 0.67400002 -0.083904013 1.843108e-38 372 311
0.062632568 0.67400002 -0.083904013 1.843108e-38 373 311
0.063909002 0.67500001 -0.084028497 1.8522549e-38 374 311
0.065092497 0.67500001 -0.084028497 1.8338518e-38 375 311
0.066275999 0.67500001 -0.084028497 1.8337438e-38 376 311
0.067559443 0.676 -0.084152982 1.8060852e-38 377 311
0.068744689 0.676 -0.084152982 1.8242365e-38 378 311
0.069929942 0.676 -0.084152982 1.7596996e-38 379 311
0.071115203 0.676 -0.084152982 1.6953076e-38 380 311
0.072300449 0.676 -0.084152982 1.6953076e-38 381 311
0.073485702 0.676 -0.084152982 1.640352e-38 382 311
0.074670963 0.676 -0.084152982 1.6771944e-38 383 311
0.075743996 0.67500001 -0.084028497 1.713964e-38 384 311
0.076927498 0.67500001 -0.084028497 1.7047445e-38 385 311
0.078226723 0.676 -0.084152982 1.7232183e-38 386 311
0.079646915 0.67799997 -0.08440195 1.6955597e-38 387 311
0.08083567 0.67799997 -0.08440195 1.6955597e-38 388 311
0.082024433 0.67799997 -0.08440195 1.6863401e-38 389 311
0.083213195 0.67799997 -0.08440195 1.6770482e-38 390 311
0.084526442 0.67900002 -0.084526442 1.640206e-38 391 311
0.085843198 0.68000001 -0.084650926 1.6309508e-38 392 311
0.087291449 0.68199998 -0.084899902 1.6217311e-38 393 311
0.088487223 0.68199998 -0.084899902 1.5849617e-38 394 311
0.089682996 0.68199998 -0.084899902 1.5573391e-38 395 311
0.091012023 0.68300003 -0.085024394 1.5481195e-38 396 311
0.092209555 0.68300003 -0.085024394 1.5481195e-38 397 311
0.09340708 0.68300003 -0.085024394 1.5021655e-38 398 311
0.094604604 0.68300003 -0.085024394 1.4745428e-38 399 311
0.0959424 0.68400002 -0.085148886 1.4652876e-38 400 311
0.097141676 0.68400002 -0.085148886 1.4468485e-38 401 311
0.098340958 0.68400002 -0.085148886 1.4100068e-38 402 311
0.099976815 0.68699998 -0.085522331 1.3823481e-38 403 311
0.10132864 0.68800002 -0.08564683 1.3454349e-38 404 311
0.10298203 0.69099998 -0.086020276 1.2808979e-38 405 311
0.10449516 0.69300002 -0.086269259 1.1798465e-38 406 311
0.10571022 0.69300002 -0.086269259 1.4656171e-38 407 311
0.10692528 0.69300002 -0.086269259 1.6223557e-38 408 311
-0.07227239 0.68699998 -0.086726874 1.6686642e-38 260 312
-0.070964411 0.68599999 -0.086600631 1.5395904e-38 261 312
-0.069761619 0.68599999 -0.086600631 1.6959931e-38 262 312
-0.068358958 0.68400002 -0.086348161 1.7236519e-38 263 312
-0.067159683 0.68400002 -0.086348161 1.7144322e-38 264 312
-0.0659604 0.68400002 -0.086348161 1.6959931e-38 265 312
-0.064761117 0.68400002 -0.086348161 1.7419114e-38 266 312
-0.063561834 0.68400002 -0.086348161 1.7787896e-38 267 312
-0.06227139 0.68300003 -0.086221918 1.8338549e-38 268 312
-0.061073858 0.68300003 -0.086221918 1.8154518e-38 269 312
-0.059964001 0.68400002 -0.086348161 1.8701909e-38 270 312
-0.058764715 0.68400002 -0.086348161 1.6857996e-38 271 312
-0.057481278 0.68300003 -0.086221918 1.5106257e-38 272 312
-0.056283753 0.68300003 -0.086221918 1.2524783e-38 273 312
-0.055086225 0.68300003 -0.086221918 1.1235873e-38 274 312
-0.053888701 0.68300003 -0.086221918 1.1881243e-38 275 312
-0.052691177 0.68300003 -0.086221918 1.1146966e-38 276 312
-0.051418249 0.68199998 -0.086095676 1.2898323e-38 277 312
-0.050075196 0.68000001 -0.085843198 1.4746201e-38 278 312
-0.048882935 0.68000001 -0.085843198 1.668231e-38 279 312
-0.047830928 0.68199998 -0.086095676 1.8246023e-38 280 312
-0.046635158 0.68199998 -0.086095676 1.8061632e-38 281 312
0.050965894 0.676 -0.085338242 1.8339683e-38 363 312
0.052074 0.67500001 -0.085212 1.8432209e-38 364 312
0.053178601 0.67400002 -0.085085757 1.8155982e-38 365 312
0.054360349 0.67400002 -0.085085757 1.8430742e-38 366 312
0.055542093 0.67400002 -0.085085757 1.8430742e-38 367 312
0.056808002 0.67500001 -0.085212 1.8522925e-38 368 312
0.057991501 0.67500001 -0.085212 1.8706956e-38 369 312
0.059175 0.67500001 -0.085212 1.8522922e-38 370 312
0.06026908 0.67400002 -0.085085757 1.8430727e-38 371 312
0.061450824 0.67400002 -0.085085757 1.8614748e-38 372 312
0.062632568 0.67400002 -0.085085757 1.8522194e-38 373 312
0.06381432 0.67400002 -0.085085757 1.8522194e-38 374 312
0.065092497 0.67500001 -0.085212 1.8338162e-38 375 312
0.066275999 0.67500001 -0.085212 1.8153417e-38 376 312
0.067459501 0.67500001 -0.085212 1.7969025e-38 377 312
0.068643004 0.67500001 -0.085212 1.8059423e-38 378 312
0.069826499 0.67500001 -0.085212 1.7783195e-38 379 312
0.071010001 0.67500001 -0.085212 1.7415501e-38 380 312
0.072300449 0.676 -0.085338242 1.7599894e-38 381 312
0.073376998 0.67500001 -0.085212 1.7047445e-38 382 312
0.074560501 0.67500001 -0.085212 1.695489e-38 383 312
0.075743996 0.67500001 -0.085212 1.695488e-38 384 312
0.076927498 0.67500001 -0.085212 1.695488e-38 385 312
0.078226723 0.676 -0.085338242 1.7138546e-38 386 312
0.079411969 0.676 -0.085338242 1.704599e-38 387 312
0.08083567 0.67799997 -0.085590713 1.6770479e-38 388 312
0.081782483 0.676 -0.085338242 1.6678284e-38 389 312
0.082967728 0.676 -0.085338242 1.6586091e-38 390 312
0.08440195 0.67799997 -0.085590713 1.6309505e-38 391 312
0.085716955 0.67900002 -0.085716955 1.612476e-38 392 312
0.086907476 0.67900002 -0.085716955 1.6032564e-38 393 312
0.088227727 0.68000001 -0.085843198 1.566486e-38 394 312
0.089419998 0.68000001 -0.085843198 1.5480109e-38 395 312
0.090878762 0.68199998 -0.086095676 1.5204601e-38 396 312
0.092074543 0.68199998 -0.086095676 1.5112406e-38 397 312
0.09340708 0.68300003 -0.086221918 1.4836542e-38 398 312
0.094604604 0.68300003 -0.086221918 1.4744346e-38 399 312
0.095802136 0.68300003 -0.086221918 1.4652151e-38 400 312
0.09699966 0.68300003 -0.086221918 1.4375564e-38 401 312
0.098197185 0.68300003 -0.086221918 1.3914955e-38 402 312
0.099540241 0.68400002 -0.086348161 1.3638367e-38 403 312
0.10118135 0.68699998 -0.086726874 1.3086289e-38 404 312
0.10253493 0.68800002 -0.086853124 1.2533474e-38 405 312
0.10419358 0.69099998 -0.087231837 1.1707368e-38 406 312
0.10571022 0.69300002 -0.087484315 1.5210442e-38 407 312
0.10692528 0.69300002 -0.087484315 1.6407602e-38 408 312
-0.07227239 0.68699998 -0.087931409 1.5214745e-38 260 313
-0.070964411 0.68599999 -0.087803423 1.49378e-38 261 313
-0.069761619 0.68599999 -0.087803423 1.6594022e-38 262 313
-0.068358958 0.68400002 -0.087547436 1.6778415e-38 263 313
-0.067159683 0.68400002 -0.087547436 1.7695332e-38 264 313
-0.0659604 0.68400002 -0.087547436 1.7602776e-38 265 313
-0.064666435 0.68300003 -0.087419443 1.7970843e-38 266 313
-0.063468911 0.68300003 -0.087419443 1.8063038e-38 267 313
-0.062180214 0.68199998 -0.087291449 1.8431828e-38 268 313
-0.060984433 0.68199998 -0.087291449 1.8708055e-38 269 313
-0.059788663 0.68199998 -0.087291449 1.907323e-38 270 313
-0.058592889 0.68199998 -0.087291449 1.8150915e-38 271 313
-0.057228796 0.68000001 -0.087035462 1.7227125e-38 272 313
-0.056036532 0.68000001 -0.087035462 1.483004e-38 273 313
-0.054844268 0.68000001 -0.087035462 1.3168e-38 274 313
-0.053652 0.68000001 -0.087035462 1.2522631e-38 275 313
-0.052459732 0.68000001 -0.087035462 1.1602507e-38 276 313
-0.051267464 0.68000001 -0.087035462 1.2155681e-38 277 313
-0.049927916 0.67799997 -0.086779475 1.2993027e-38 278 313
-0.048739154 0.67799997 -0.086779475 1.5297558e-38 279 313
-0.047550395 0.67799997 -0.086779475 1.6957455e-38 280 313
-0.046361636 0.67799997 -0.086779475 1.769502e-38 281 313
-0.045039624 0.676 -0.086523488 1.7420212e-38 282 313
-0.043854371 0.676 -0.086523488 1.7420212e-38 283 313
-0.042669121 0.676 -0.086523488 1.8061966e-38 284 313
0.044706494 0.671 -0.085883528 1.8802829e-38 358 313
0.045882981 0.671 -0.085883528 1.8341851e-38 359 313
0.047059465 0.671 -0.085883528 1.8523686e-38 360 313
0.048235953 0.671 -0.085883528 1.8247099e-38 361 313
0.049412437 0.671 -0.085883528 1.8430376e-38 362 313
0.050664317 0.67199999 -0.086011514 1.8338181e-38 363 313
0.052074 0.67500001 -0.086395502 1.8339253e-38 364 313
0.053178601 0.67400002 -0.086267509 1.8523644e-38 365 313
0.054360349 0.67400002 -0.086267509 1.8523644e-38 366 313
0.055542093 0.67400002 -0.086267509 1.8523644e-38 367 313
0.056723841 0.67400002 -0.086267509 1.8523997e-38 368 313
0.057905588 0.67400002 -0.086267509 1.8431801e-38 369 313
0.058911994 0.67199999 -0.086011514 1.870659e-38 370 313
0.060090236 0.67199999 -0.086011514 1.870659e-38 371 313
0.061268479 0.67199999 -0.086011514 1.8614748e-38 372 313
0.062446721 0.67199999 -0.086011514 1.8522194e-38 373 313
0.063624956 0.67199999 -0.086011514 1.8521477e-38 374 313
0.064996064 0.67400002 -0.086267509 1.842928e-38 375 313
0.066177815 0.67400002 -0.086267509 1.8153773e-38 376 313
0.067359567 0.67400002 -0.086267509 1.7969023e-38 377 313
0.068541311 0.67400002 -0.086267509 1.7692793e-38 378 313
0.069723055 0.67400002 -0.086267509 1.7600596e-38 379 313
0.070904799 0.67400002 -0.086267509 1.7783192e-38 380 313
0.07208655 0.67400002 -0.086267509 1.7690997e-38 381 313
0.073376998 0.67500001 -0.086395502 1.7322584e-38 382 313
0.074560501 0.67500001 -0.086395502 1.7230388e-38 383 313
0.075743996 0.67500001 -0.086395502 1.6861974e-38 384 313
0.076927498 0.67500001 -0.086395502 1.6861974e-38 385 313
0.078226723 0.676 -0.086523488 1.6586466e-38 386 313
0.079411969 0.676 -0.086523488 1.6586466e-38 387 313
0.080597222 0.676 -0.086523488 1.621876e-38 388 313
0.081782483 0.676 -0.086523488 1.6126565e-38 389 313
0.082967728 0.676 -0.086523488 1.5941816e-38 390 313
0.084152982 0.676 -0.086523488 1.5757425e-38 391 313
0.085590713 0.67799997 -0.086779475 1.5756703e-38 392 313
0.086779475 0.67799997 -0.086779475 1.5572312e-38 393 313
0.08796823 0.67799997 -0.086779475 1.5020936e-38 394 313
0.089156993 0.67799997 -0.086779475 1.4836545e-38 395 313
0.090612262 0.68000001 -0.087035462 1.4652523e-38 396 313
0.092074543 0.68199998 -0.087291449 1.4468132e-38 397 313
0.093270317 0.68199998 -0.087291449 1.4192271e-38 398 313
0.09446609 0.68199998 -0.087291449 1.4100074e-38 399 313
0.095802136 0.68300003 -0.087419443 1.3732012e-38 400 313
0.09699966 0.68300003 -0.087419443 1.354762e-38 401 313
0.098197185 0.68300003 -0.087419443 1.3271039e-38 402 313
0.099540241 0.68400002 -0.087547436 1.3086289e-38 403 313
0.10103408 0.68599999 -0.087803423 1.2626052e-38 404 313
0.10223686 0.68599999 -0.087803423 1.225727e-38 405 313
0.10419358 0.69099998 -0.088443391 1.1892142e-38 406 313
0.10571022 0.69300002 -0.088699378 1.4565815e-38 407 313
-0.073476933 0.68699998 -0.089135952 1.5490313e-38 259 314
-0.07227239 0.68699998 -0.089135952 1.4202748e-38 260 314
-0.070964411 0.68599999 -0.089006208 1.4571891e-38 261 314
-0.06955824 0.68400002 -0.088746719 1.6776981e-38 262 314
-0.068358958 0.68400002 -0.088746719 1.7053928e-38 263 314
-0.067159683 0.68400002 -0.088746719 1.760386e-38 264 314
-0.0659604 0.68400002 -0.088746719 1.7787891e-38 265 314
-0.064571753 0.68199998 -0.088487223 1.7789328e-38 266 314
-0.063375987 0.68199998 -0.088487223 1.797336e-38 267 314
-0.062180214 0.68199998 -0.088487223 1.8247795e-38 268 314
-0.060984433 0.68199998 -0.088487223 1.8247795e-38 269 314
-0.059788663 0.68199998 -0.088487223 1.8707339e-38 270 314
-0.058421064 0.68000001 -0.088227727 1.8614784e-38 271 314
-0.057144642 0.67900002 -0.08809799 1.8611526e-38 272 314
-0.055954125 0.67900002 -0.08809799 1.6952006e-38 273 314
-0.054682959 0.67799997 -0.08796823 1.5935667e-38 274 314
-0.053494196 0.67799997 -0.08796823 1.4183591e-38 275 314
-0.052305438 0.67799997 -0.08796823 1.3537168e-38 276 314
-0.051116679 0.67799997 -0.08796823 1.3629364e-38 277 314
-0.049780637 0.676 -0.087708741 1.3079824e-38 278 314
-0.048595384 0.676 -0.087708741 1.4186531e-38 279 314
-0.047410134 0.676 -0.087708741 1.4746539e-38 280 314
-0.046224877 0.676 -0.087708741 1.6313505e-38 281 314
-0.045039624 0.676 -0.087708741 1.7971218e-38 282 314
-0.043789499 0.67500001 -0.087578997 1.7971218e-38 283 314
-0.042542879 0.67400002 -0.087449253 1.8063038e-38 284 314
-0.041361131 0.67400002 -0.087449253 1.8063038e-38 285 314
-0.040179387 0.67400002 -0.087449253 1.8155587e-38 286 314
0.038824059 0.671 -0.087060012 1.8160006e-38 353 314
0.040000543 0.671 -0.087060012 1.8341498e-38 354 314
0.041177034 0.671 -0.087060012 1.7880878e-38 355 314
0.042290401 0.67000002 -0.086930268 1.8430787e-38 356 314
0.043465134 0.67000002 -0.086930268 1.8338591e-38 357 314
0.044639867 0.67000002 -0.086930268 1.8338573e-38 358 314
0.0458146 0.67000002 -0.086930268 1.8338573e-38 359 314
0.046989333 0.67000002 -0.086930268 1.8429676e-38 360 314
0.048164066 0.67000002 -0.086930268 1.8705902e-38 361 314
0.049338799 0.67000002 -0.086930268 1.8706603e-38 362 314
0.050588924 0.671 -0.087060012 1.8522572e-38 363 314
0.051996857 0.67400002 -0.087449253 1.8523641e-38 364 314
0.053020798 0.67199999 -0.087189756 1.8431445e-38 365 314
0.054199036 0.67199999 -0.087189756 1.8523641e-38 366 314
0.055377278 0.67199999 -0.087189756 1.8523641e-38 367 314
0.056555521 0.67199999 -0.087189756 1.8523278e-38 368 314
0.057647847 0.671 -0.087060012 1.8523278e-38 369 314
0.058824331 0.671 -0.087060012 1.8523278e-38 370 314
0.060000818 0.671 -0.087060012 1.8431083e-38 371 314
0.061177302 0.671 -0.087060012 1.8523275e-38 372 314
0.06235379 0.671 -0.087060012 1.8338884e-38 373 314
0.063530281 0.671 -0.087060012 1.8338884e-38 374 314
0.064803198 0.67199999 -0.087189756 1.8154491e-38 375 314
0.06598144 0.67199999 -0.087189756 1.806194e-38 376 314
0.067159683 0.67199999 -0.087189756 1.7785713e-38 377 314
0.068337917 0.67199999 -0.087189756 1.7692443e-38 378 314
0.069516152 0.67199999 -0.087189756 1.750805e-38 379 314
0.070694394 0.67199999 -0.087189756 1.7322934e-38 380 314
0.07208655 0.67400002 -0.087449253 1.7138542e-38 381 314
0.073268294 0.67400002 -0.087449253 1.7321854e-38 382 314
0.074450038 0.67400002 -0.087449253 1.7045627e-38 383 314
0.07563179 0.67400002 -0.087449253 1.676941e-38 384 314
0.076813534 0.67400002 -0.087449253 1.6677215e-38 385 314
0.077995278 0.67400002 -0.087449253 1.6585019e-38 386 314
0.079294503 0.67500001 -0.087578997 1.6492823e-38 387 314
0.080597222 0.676 -0.087708741 1.6216958e-38 388 314
0.081782483 0.676 -0.087708741 1.6124762e-38 389 314
0.082967728 0.676 -0.087708741 1.5756706e-38 390 314
0.084152982 0.676 -0.087708741 1.5664151e-38 391 314
0.085590713 0.67799997 -0.08796823 1.5479406e-38 392 314
0.086779475 0.67799997 -0.08796823 1.5295375e-38 393 314
0.08796823 0.67799997 -0.08796823 1.4835117e-38 394 314
0.089156993 0.67799997 -0.08796823 1.4742921e-38 395 314
0.090612262 0.68000001 -0.088227727 1.4467409e-38 396 314
0.091804534 0.68000001 -0.088227727 1.4283018e-38 397 314
0.093270317 0.68199998 -0.088487223 1.3914958e-38 398 314
0.09446609 0.68199998 -0.088487223 1.3822763e-38 399 314
0.095661856 0.68199998 -0.088487223 1.3638014e-38 400 314
0.09699966 0.68300003 -0.088616975 1.3361787e-38 401 314
0.098197185 0.68300003 -0.088616975 1.2993375e-38 402 314
0.099540241 0.68400002 -0.088746719 1.2808982e-38 403 314
0.10073952 0.68400002 -0.088746719 1.2442021e-38 404 314
0.10223686 0.68599999 -0.089006208 1.2349826e-38 405 314
0.10343964 0.68599999 -0.089006208 1.1891419e-38 406 314
-0.073049128 0.68300003 -0.089814499 1.4476513e-38 259 315
-0.071851604 0.68300003 -0.089814499 1.3740328e-38 260 315
-0.070654072 0.68300003 -0.089814499 1.5123263e-38 261 315
-0.069456547 0.68300003 -0.089814499 1.696138e-38 262 315
-0.068159081 0.68199998 -0.089682996 1.7145771e-38 263 315
-0.0669633 0.68199998 -0.089682996 1.7604578e-38 264 315
-0.065767527 0.68199998 -0.089682996 1.7789328e-38 265 315
-0.064571753 0.68199998 -0.089682996 1.8157031e-38 266 315
-0.063190132 0.68000001 -0.089419998 1.8064834e-38 267 315
-0.061997864 0.68000001 -0.089419998 1.8247795e-38 268 315
-0.0608056 0.68000001 -0.089419998 1.81556e-38 269 315
-0.059613332 0.68000001 -0.089419998 1.8247798e-38 270 315
-0.058335152 0.67900002 -0.089288503 1.8247798e-38 271 315
-0.057060476 0.67799997 -0.089156993 1.8798085e-38 272 315
-0.055871718 0.67799997 -0.089156993 1.8152716e-38 273 315
-0.054521654 0.676 -0.088893995 1.759628e-38 274 315
-0.053336397 0.676 -0.088893995 1.612115e-38 275 315
-0.052151144 0.676 -0.088893995 1.5105566e-38 276 315
-0.050965894 0.676 -0.088893995 1.4460196e-38 277 315
-0.049780637 0.676 -0.088893995 1.354186e-38 278 315
-0.048523501 0.67500001 -0.088762499 1.354186e-38 279 315
-0.047339998 0.67500001 -0.088762499 1.4099349e-38 280 315
-0.0461565 0.67500001 -0.088762499 1.5390088e-38 281 315
-0.044972997 0.67500001 -0.088762499 1.7234001e-38 282 315
-0.043789499 0.67500001 -0.088762499 1.787937e-38 283 315
-0.042416636 0.67199999 -0.088367991 1.7972275e-38 284 315
-0.041238401 0.67199999 -0.088367991 1.8156306e-38 285 315
-0.040000543 0.671 -0.088236496 1.8431801e-38 286 315
-0.038824059 0.671 -0.088236496 1.8155216e-38 287 315
-0.037647571 0.671 -0.088236496 1.7787162e-38 288 315
-0.036471087 0.671 -0.088236496 1.7694606e-38 289 315
-0.035241999 0.67000002 -0.088105001 1.7420212e-38 290 315
-0.034067266 0.67000002 -0.088105001 1.7973386e-38 291 315
-0.032941625 0.671 -0.088236496 1.8065264e-38 292 315
0.037647571 0.671 -0.088236496 1.8525519e-38 352 315
0.038824059 0.671 -0.088236496 1.8248933e-38 353 315
0.039940935 0.67000002 -0.088105001 1.8432209e-38 354 315
0.041115668 0.67000002 -0.088105001 1.7879035e-38 355 315
0.042164158 0.66799998 -0.087841995 1.8154868e-38 356 315
0.043335386 0.66799998 -0.087841995 1.8154868e-38 357 315
0.044506609 0.66799998 -0.087841995 1.8338534e-38 358 315
0.045677837 0.66799998 -0.087841995 1.8430729e-38 359 315
0.046849065 0.66799998 -0.087841995 1.8706603e-38 360 315
0.047948405 0.667 -0.0877105 1.8706603e-38 361 315
0.049117878 0.667 -0.0877105 1.8522925e-38 362 315
0.050287351 0.667 -0.0877105 1.8522925e-38 363 315
0.051765412 0.671 -0.088236496 1.8798786e-38 364 315
0.052941896 0.671 -0.088236496 1.870659e-38 365 315
0.054118387 0.671 -0.088236496 1.8707309e-38 366 315
0.055294871 0.671 -0.088236496 1.8707309e-38 367 315
0.056471359 0.671 -0.088236496 1.8523275e-38 368 315
0.057647847 0.671 -0.088236496 1.843108e-38 369 315
0.058736663 0.67000002 -0.088105001 1.8523278e-38 370 315
0.0599114 0.67000002 -0.088105001 1.8523278e-38 371 315
0.061086133 0.67000002 -0.088105001 1.8431083e-38 372 315
0.06235379 0.671 -0.088236496 1.8338528e-38 373 315
0.063530281 0.671 -0.088236496 1.8337809e-38 374 315
0.064706765 0.671 -0.088236496 1.8153417e-38 375 315
0.065883249 0.671 -0.088236496 1.7785357e-38 376 315
0.06705974 0.671 -0.088236496 1.750877e-38 377 315
0.068337917 0.67199999 -0.088367991 1.769029e-38 378 315
0.069412716 0.671 -0.088236496 1.7413703e-38 379 315
0.0705892 0.671 -0.088236496 1.6863034e-38 380 315
0.071872637 0.67199999 -0.088367991 1.6402057e-38 381 315
0.073050871 0.67199999 -0.088367991 1.6677565e-38 382 315
0.074229114 0.67199999 -0.088367991 1.6493174e-38 383 315
0.075407356 0.67199999 -0.088367991 1.6216961e-38 384 315
0.076585598 0.67199999 -0.088367991 1.6216961e-38 385 315
0.077763841 0.67199999 -0.088367991 1.59411e-38 386 315
0.079177029 0.67400002 -0.088631004 1.5848546e-38 387 315
0.080477998 0.67500001 -0.088762499 1.575635e-38 388 315
0.0816615 0.67500001 -0.088762499 1.5664154e-38 389 315
0.082844995 0.67500001 -0.088762499 1.538829e-38 390 315
0.084028497 0.67500001 -0.088762499 1.5203898e-38 391 315
0.085338242 0.676 -0.088893995 1.4928034e-38 392 315
0.086523488 0.676 -0.088893995 1.4743643e-38 393 315
0.08796823 0.67799997 -0.089156993 1.437558e-38 394 315
0.089156993 0.67799997 -0.089156993 1.4099352e-38 395 315
0.090479009 0.67900002 -0.089288503 1.391568e-38 396 315
0.091804534 0.68000001 -0.089419998 1.3639094e-38 397 315
0.092996798 0.68000001 -0.089419998 1.3271034e-38 398 315
0.09446609 0.68199998 -0.089682996 1.3086642e-38 399 315
0.095661856 0.68199998 -0.089682996 1.2994096e-38 400 315
0.09685763 0.68199998 -0.089682996 1.2809346e-38 401 315
0.098197185 0.68300003 -0.089814499 1.2440938e-38 402 315
0.099394716 0.68300003 -0.089814499 1.2348742e-38 403 315
0.10059224 0.68300003 -0.089814499 1.1798112e-38 404 315
0.10223686 0.68599999 -0.090209 1.1890309e-38 405 315
-0.073049128 0.68300003 -0.091012023 1.364782e-38 259 316
-0.071851604 0.68300003 -0.091012023 1.3463372e-38 260 316
-0.070654072 0.68300003 -0.091012023 1.5030699e-38 261 316
-0.069354847 0.68199998 -0.090878762 1.6868464e-38 262 316
-0.068159081 0.68199998 -0.090878762 1.7421279e-38 263 316
-0.0669633 0.68199998 -0.090878762 1.7788975e-38 264 316
-0.065767527 0.68199998 -0.090878762 1.7973006e-38 265 316
-0.064382397 0.68000001 -0.090612262 1.8064483e-38 266 316
-0.063190132 0.68000001 -0.090612262 1.8064483e-38 267 316
-0.061997864 0.68000001 -0.090612262 1.8247079e-38 268 316
-0.060716182 0.67900002 -0.090479009 1.8247079e-38 269 316
-0.059525665 0.67900002 -0.090479009 1.7972288e-38 270 316
-0.058249239 0.67799997 -0.090345755 1.7972288e-38 271 316
-0.056892153 0.676 -0.090079248 1.8339979e-38 272 316
-0.0556245 0.67500001 -0.089945994 1.8155587e-38 273 316
-0.054441001 0.67500001 -0.089945994 1.8520408e-38 274 316
-0.053257499 0.67500001 -0.089945994 1.7598092e-38 275 316
-0.052074 0.67500001 -0.089945994 1.667505e-38 276 316
-0.050890498 0.67500001 -0.089945994 1.5660539e-38 277 316
-0.049706999 0.67500001 -0.089945994 1.4832226e-38 278 316
-0.048451614 0.67400002 -0.089812748 1.4555639e-38 279 316
-0.047269866 0.67400002 -0.089812748 1.4281217e-38 280 316
-0.046088122 0.67400002 -0.089812748 1.5295728e-38 281 316
-0.044906374 0.67400002 -0.089812748 1.6587533e-38 282 316
-0.043724626 0.67400002 -0.089812748 1.769388e-38 283 316
-0.042416636 0.67199999 -0.089546233 1.8248136e-38 284 316
-0.041238401 0.67199999 -0.089546233 1.8248136e-38 285 316
-0.040000543 0.671 -0.089412987 1.8523997e-38 286 316
-0.038824059 0.671 -0.089412987 1.8431801e-38 287 316
-0.037647571 0.671 -0.089412987 1.8248133e-38 288 316
-0.036471087 0.671 -0.089412987 1.8248133e-38 289 316
-0.035241999 0.67000002 -0.089279734 1.8155953e-38 290 316
-0.034067266 0.67000002 -0.089279734 1.7971922e-38 291 316
-0.032892533 0.67000002 -0.089279734 1.7786468e-38 292 316
-0.0317178 0.67000002 -0.089279734 1.7786468e-38 293 316
-0.030588651 0.671 -0.089412987 1.7603543e-38 294 316
-0.029412165 0.671 -0.089412987 1.7695739e-38 295 316
0.037591465 0.67000002 -0.089279734 1.8246726e-38 352 316
0.038766202 0.67000002 -0.089279734 1.8246726e-38 353 316
0.039940935 0.67000002 -0.089279734 1.8430389e-38 354 316
0.040931564 0.667 -0.088879973 1.8430389e-38 355 316
0.042101037 0.667 -0.088879973 1.8431095e-38 356 316
0.04327051 0.667 -0.088879973 1.8431095e-38 357 316
0.044506609 0.66799998 -0.089013219 1.8522925e-38 358 316
0.045609459 0.667 -0.088879973 1.8522925e-38 359 316
0.046778932 0.667 -0.088879973 1.8522922e-38 360 316
0.047948405 0.667 -0.088879973 1.8707312e-38 361 316
0.049117878 0.667 -0.088879973 1.8798789e-38 362 316
0.050287351 0.667 -0.088879973 1.8798789e-38 363 316
0.051456824 0.667 -0.088879973 1.8707309e-38 364 316
0.052626297 0.667 -0.088879973 1.8707309e-38 365 316
0.05379577 0.667 -0.088879973 1.8707306e-38 366 316
0.054965243 0.667 -0.088879973 1.8523275e-38 367 316
0.056134716 0.667 -0.088879973 1.843108e-38 368 316
0.057390101 0.66799998 -0.089013219 1.843108e-38 369 316
0.058561329 0.66799998 -0.089013219 1.8430727e-38 370 316
0.05973256 0.66799998 -0.089013219 1.8430727e-38 371 316
0.061086133 0.67000002 -0.089279734 1.852149e-38 372 316
0.06226087 0.67000002 -0.089279734 1.8337459e-38 373 316
0.063435599 0.67000002 -0.089279734 1.8153066e-38 374 316
0.064610332 0.67000002 -0.089279734 1.7876121e-38 375 316
0.065785065 0.67000002 -0.089279734 1.7599894e-38 376 316
0.066959806 0.67000002 -0.089279734 1.723111e-38 377 316
0.068134531 0.67000002 -0.089279734 1.7137119e-38 378 316
0.069309272 0.67000002 -0.089279734 1.7044924e-38 379 316
0.070483997 0.67000002 -0.089279734 1.6585738e-38 380 316
0.071658738 0.67000002 -0.089279734 1.612476e-38 381 316
0.072942175 0.671 -0.089412987 1.6308072e-38 382 316
0.074118659 0.671 -0.089412987 1.6031845e-38 383 316
0.075295143 0.671 -0.089412987 1.5663433e-38 384 316
0.076585598 0.67199999 -0.089546233 1.5847822e-38 385 316
0.077763841 0.67199999 -0.089546233 1.5571959e-38 386 316
0.078942075 0.67199999 -0.089546233 1.5571959e-38 387 316
0.080358773 0.67400002 -0.089812748 1.5479037e-38 388 316
0.081540518 0.67400002 -0.089812748 1.5386841e-38 389 316
0.082722262 0.67400002 -0.089812748 1.4836545e-38 390 316
0.084028497 0.67500001 -0.089945994 1.474399e-38 391 316
0.085338242 0.676 -0.090079248 1.4651441e-38 392 316
0.086523488 0.676 -0.090079248 1.4467409e-38 393 316
0.08796823 0.67799997 -0.090345755 1.4007873e-38 394 316
0.089156993 0.67799997 -0.090345755 1.3823481e-38 395 316
0.090345755 0.67799997 -0.090345755 1.3547618e-38 396 316
0.091669522 0.67900002 -0.090479009 1.3179194e-38 397 316
0.092996798 0.68000001 -0.090612262 1.2993728e-38 398 316
0.09446609 0.68199998 -0.090878762 1.2716781e-38 399 316
0.095661856 0.68199998 -0.090878762 1.271643e-38 400 316
0.09685763 0.68199998 -0.090878762 1.2532039e-38 401 316
0.098197185 0.68300003 -0.091012023 1.2164355e-38 402 316
0.099394716 0.68300003 -0.091012023 1.2164355e-38 403 316
0.10059224 0.68300003 -0.091012023 1.1613365e-38 404 316
-0.074355356 0.68400002 -0.092344552 1.752147e-38 258 317
-0.073049128 0.68300003 -0.092209555 1.2911689e-38 259 317
-0.071851604 0.68300003 -0.092209555 1.3369733e-38 260 317
-0.070654072 0.68300003 -0.092209555 1.4937057e-38 261 317
-0.069354847 0.68199998 -0.092074543 1.6408206e-38 262 317
-0.068159081 0.68199998 -0.092074543 1.7053575e-38 263 317
-0.0669633 0.68199998 -0.092074543 1.7604228e-38 264 317
-0.065574668 0.68000001 -0.091804534 1.7788619e-38 265 317
-0.064382397 0.68000001 -0.091804534 1.8247798e-38 266 317
-0.063097201 0.67900002 -0.091669522 1.8247798e-38 267 317
-0.061906695 0.67900002 -0.091669522 1.8247795e-38 268 317
-0.060716182 0.67900002 -0.091669522 1.8247795e-38 269 317
-0.059437994 0.67799997 -0.09153451 1.7972641e-38 270 317
-0.058077414 0.676 -0.091264501 1.7972641e-38 271 317
-0.056808002 0.67500001 -0.091129504 1.7972275e-38 272 317
-0.0556245 0.67500001 -0.091129504 1.7879721e-38 273 317
-0.054360349 0.67400002 -0.090994492 1.8154868e-38 274 317
-0.053178601 0.67400002 -0.090994492 1.7970118e-38 275 317
-0.051996857 0.67400002 -0.090994492 1.7599897e-38 276 317
-0.050815105 0.67400002 -0.090994492 1.6954527e-38 277 317
-0.049486078 0.67199999 -0.090724476 1.6769426e-38 278 317
-0.04830784 0.67199999 -0.090724476 1.6401003e-38 279 317
-0.047129598 0.67199999 -0.090724476 1.6401366e-38 280 317
-0.045951359 0.67199999 -0.090724476 1.6586116e-38 281 317
-0.044773117 0.67199999 -0.090724476 1.7139991e-38 282 317
-0.043594878 0.67199999 -0.090724476 1.7877556e-38 283 317
-0.042353518 0.671 -0.090589471 1.8523641e-38 284 317
-0.041177034 0.671 -0.090589471 1.8616195e-38 285 317
-0.039940935 0.67000002 -0.090454467 1.8799505e-38 286 317
-0.038766202 0.67000002 -0.090454467 1.8799505e-38 287 317
-0.037591465 0.67000002 -0.090454467 1.8616193e-38 288 317
-0.036416732 0.67000002 -0.090454467 1.8616193e-38 289 317
-0.035136797 0.66799998 -0.090184443 1.8341404e-38 290 317
-0.033914726 0.667 -0.090049446 1.8156654e-38 291 317
-0.032745253 0.667 -0.090049446 1.7972625e-38 292 317
-0.03157578 0.667 -0.090049446 1.788043e-38 293 317
-0.030451892 0.66799998 -0.090184443 1.787937e-38 294 317
-0.029236831 0.667 -0.090049446 1.787937e-38 295 317
-0.028067358 0.667 -0.090049446 1.6868153e-38 296 317
0.0349264 0.66399997 -0.089644417 1.8154868e-38 350 317
0.036090612 0.66399997 -0.089644417 1.83389e-38 351 317
0.037254825 0.66399997 -0.089644417 1.8430373e-38 352 317
0.038592618 0.667 -0.090049446 1.8430373e-38 353 317
0.039762091 0.667 -0.090049446 1.8431092e-38 354 317
0.040931564 0.667 -0.090049446 1.8523647e-38 355 317
0.042101037 0.667 -0.090049446 1.8340332e-38 356 317
0.04327051 0.667 -0.090049446 1.8248136e-38 357 317
0.044439986 0.667 -0.090049446 1.8522925e-38 358 317
0.045609459 0.667 -0.090049446 1.8706956e-38 359 317
0.046708796 0.66600001 -0.089914441 1.8707312e-38 360 317
0.047876518 0.66600001 -0.089914441 1.8707312e-38 361 317
0.04904424 0.66600001 -0.089914441 1.8798786e-38 362 317
0.050211959 0.66600001 -0.089914441 1.8798786e-38 363 317
0.051379681 0.66600001 -0.089914441 1.8707306e-38 364 317
0.052547399 0.66600001 -0.089914441 1.8523275e-38 365 317
0.053715117 0.66600001 -0.089914441 1.843108e-38 366 317
0.054882839 0.66600001 -0.089914441 1.843108e-38 367 317
0.056134716 0.667 -0.090049446 1.8338884e-38 368 317
0.057304189 0.667 -0.090049446 1.8338884e-38 369 317
0.058473662 0.667 -0.090049446 1.8338531e-38 370 317
0.059643134 0.667 -0.090049446 1.8154138e-38 371 317
0.060903784 0.66799998 -0.090184443 1.7968675e-38 372 317
0.062075011 0.66799998 -0.090184443 1.7968675e-38 373 317
0.063151561 0.667 -0.090049446 1.7783562e-38 374 317
0.064321034 0.667 -0.090049446 1.7322584e-38 375 317
0.065490507 0.667 -0.090049446 1.695488e-38 376 317
0.06665998 0.667 -0.090049446 1.6770129e-38 377 317
0.067829452 0.667 -0.090049446 1.6584666e-38 378 317
0.068998925 0.667 -0.090049446 1.6584666e-38 379 317
0.070168398 0.667 -0.090049446 1.640027e-38 380 317
0.071444817 0.66799998 -0.090184443 1.6031848e-38 381 317
0.072616048 0.66799998 -0.090184443 1.584782e-38 382 317
0.074008204 0.67000002 -0.090454467 1.5479037e-38 383 317
0.075295143 0.671 -0.090589471 1.5018788e-38 384 317
0.076471634 0.671 -0.090589471 1.5110983e-38 385 317
0.077648118 0.671 -0.090589471 1.5294296e-38 386 317
0.078824602 0.671 -0.090589471 1.5294296e-38 387 317
0.080120318 0.67199999 -0.090724476 1.4743271e-38 388 317
0.08129856 0.67199999 -0.090724476 1.4743271e-38 389 317
0.082722262 0.67400002 -0.090994492 1.4468118e-38 390 317
0.084028497 0.67500001 -0.091129504 1.4375564e-38 391 317
0.085338242 0.676 -0.091264501 1.4283015e-38 392 317
0.086523488 0.676 -0.091264501 1.4098624e-38 393 317
0.08796823 0.67799997 -0.09153451 1.382276e-38 394 317
0.089156993 0.67799997 -0.09153451 1.3638367e-38 395 317
0.090345755 0.67799997 -0.09153451 1.2993725e-38 396 317
0.091669522 0.67900002 -0.091669522 1.2717137e-38 397 317
0.092996798 0.68000001 -0.091804534 1.2439478e-38 398 317
0.09446609 0.68199998 -0.092074543 1.2439478e-38 399 317
0.095661856 0.68199998 -0.092074543 1.2163262e-38 400 317
0.09685763 0.68199998 -0.092074543 1.2255459e-38 401 317
0.098197185 0.68300003 -0.092209555 1.1796296e-38 402 317
0.099394716 0.68300003 -0.092209555 1.1796296e-38 403 317
-0.074355356 0.68400002 -0.093543842 1.7611864e-38 258 318
-0.072942168 0.68199998 -0.093270317 1.2909887e-38 259 318
-0.071746394 0.68199998 -0.093270317 1.3277167e-38 260 318
-0.070550621 0.68199998 -0.093270317 1.4567906e-38 261 318
-0.069151461 0.68000001 -0.092996798 1.6131615e-38 262 318
-0.067959204 0.68000001 -0.092996798 1.686918e-38 263 318
-0.066766933 0.68000001 -0.092996798 1.7326932e-38 264 318
-0.065574668 0.68000001 -0.092996798 1.7603878e-38 265 318
-0.064287722 0.67900002 -0.092860043 1.7879742e-38 266 318
-0.063097201 0.67900002 -0.092860043 1.7971937e-38 267 318
-0.061906695 0.67900002 -0.092860043 1.8155597e-38 268 318
-0.060626756 0.67799997 -0.092723273 1.8155597e-38 269 318
-0.059262663 0.676 -0.092449754 1.8155953e-38 270 318
-0.057991501 0.67500001 -0.092312999 1.7971922e-38 271 318
-0.056723841 0.67400002 -0.092176244 1.8063038e-38 272 318
-0.055542093 0.67400002 -0.092176244 1.8063038e-38 273 318
-0.054199036 0.67199999 -0.091902718 1.8154868e-38 274 318
-0.053020798 0.67199999 -0.091902718 1.83389e-38 275 318
-0.051765412 0.671 -0.091765963 1.83389e-38 276 318
-0.050588924 0.671 -0.091765963 1.8154868e-38 277 318
-0.049412437 0.671 -0.091765963 1.8061964e-38 278 318
-0.048235953 0.671 -0.091765963 1.7877571e-38 279 318
-0.047059465 0.671 -0.091765963 1.7969771e-38 280 318
-0.045882981 0.671 -0.091765963 1.7969771e-38 281 318
-0.044706494 0.671 -0.091765963 1.7970124e-38 282 318
-0.043530006 0.671 -0.091765963 1.8338546e-38 283 318
-0.042353518 0.671 -0.091765963 1.8615844e-38 284 318
-0.041177034 0.671 -0.091765963 1.8708039e-38 285 318
-0.039821707 0.66799998 -0.091355674 1.89839e-38 286 318
-0.038650475 0.66799998 -0.091355674 1.89839e-38 287 318
-0.037479252 0.66799998 -0.091355674 1.8800941e-38 288 318
-0.036416732 0.67000002 -0.0916292 1.8708387e-38 289 318
-0.035136797 0.66799998 -0.091355674 1.870874e-38 290 318
-0.033914726 0.667 -0.091218919 1.8616543e-38 291 318
-0.032745253 0.667 -0.091218919 1.8524345e-38 292 318
-0.03157578 0.667 -0.091218919 1.8524345e-38 293 318
-0.030406304 0.667 -0.091218919 1.8248486e-38 294 318
-0.029192999 0.66600001 -0.091082163 1.8248486e-38 295 318
-0.028025279 0.66600001 -0.091082163 1.7695327e-38 296 318
-0.026857559 0.66600001 -0.091082163 1.7234707e-38 297 318
-0.02568984 0.66600001 -0.091082163 1.6958814e-38 298 318
-0.019910853 0.66799998 -0.091355674 1.9346294e-38 303 318
-0.018739626 0.66799998 -0.091355674 1.8250005e-38 304 318
-0.017620999 0.67000002 -0.0916292 1.8803179e-38 305 318
0.033711337 0.66299999 -0.090671875 1.8522575e-38 349 318
0.034873798 0.66299999 -0.090671875 1.8522928e-38 350 318
0.036036257 0.66299999 -0.090671875 1.8522928e-38 351 318
0.037198719 0.66299999 -0.090671875 1.8522922e-38 352 318
0.03853476 0.66600001 -0.091082163 1.8522922e-38 353 318
0.039702479 0.66600001 -0.091082163 1.8523997e-38 354 318
0.040870197 0.66600001 -0.091082163 1.8431801e-38 355 318
0.042037919 0.66600001 -0.091082163 1.8431801e-38 356 318
0.043205637 0.66600001 -0.091082163 1.8431801e-38 357 318
0.044439986 0.667 -0.091218919 1.8523641e-38 358 318
0.045541082 0.66600001 -0.091082163 1.8523641e-38 359 318
0.046708796 0.66600001 -0.091082163 1.8523641e-38 360 318
0.047876518 0.66600001 -0.091082163 1.8523641e-38 361 318
0.04904424 0.66600001 -0.091082163 1.8431801e-38 362 318
0.05006117 0.66399997 -0.090808637 1.8431801e-38 363 318
0.051225383 0.66399997 -0.090808637 1.8523278e-38 364 318
0.052389596 0.66399997 -0.090808637 1.8431083e-38 365 318
0.053553808 0.66399997 -0.090808637 1.8339247e-38 366 318
0.054718021 0.66399997 -0.090808637 1.8155216e-38 367 318
0.056050558 0.66600001 -0.091082163 1.8063023e-38 368 318
0.057218276 0.66600001 -0.091082163 1.7970826e-38 369 318
0.058385998 0.66600001 -0.091082163 1.8061943e-38 370 318
0.059553716 0.66600001 -0.091082163 1.7785357e-38 371 318
0.060812607 0.667 -0.091218919 1.7600613e-38 372 318
0.06198208 0.667 -0.091218919 1.7508417e-38 373 318
0.063151561 0.667 -0.091218919 1.7139635e-38 374 318
0.064321034 0.667 -0.091218919 1.6770851e-38 375 318
0.065490507 0.667 -0.091218919 1.6586814e-38 376 318
0.06665998 0.667 -0.091218919 1.6310227e-38 377 318
0.067829452 0.667 -0.091218919 1.6125125e-38 378 318
0.068998925 0.667 -0.091218919 1.5848899e-38 379 318
0.070168398 0.667 -0.091218919 1.5940015e-38 380 318
0.071337871 0.667 -0.091218919 1.5663789e-38 381 318
0.072507344 0.667 -0.091218919 1.5296081e-38 382 318
0.073787279 0.66799998 -0.091355674 1.5111331e-38 383 318
0.07518293 0.67000002 -0.0916292 1.4834389e-38 384 318
0.076357663 0.67000002 -0.0916292 1.4834389e-38 385 318
0.077648118 0.671 -0.091765963 1.483404e-38 386 318
0.078824602 0.671 -0.091765963 1.483404e-38 387 318
0.080120318 0.67199999 -0.091902718 1.4283739e-38 388 318
0.08129856 0.67199999 -0.091902718 1.4099349e-38 389 318
0.082476802 0.67199999 -0.091902718 1.4190822e-38 390 318
0.083904013 0.67400002 -0.092176244 1.4098626e-38 391 318
0.085338242 0.676 -0.092449754 1.382276e-38 392 318
0.086523488 0.676 -0.092449754 1.3638367e-38 393 318
0.08796823 0.67799997 -0.092723273 1.3454686e-38 394 318
0.089156993 0.67799997 -0.092723273 1.2993348e-38 395 318
0.090479009 0.67900002 -0.092860043 1.2624941e-38 396 318
0.091669522 0.67900002 -0.092860043 1.225616e-38 397 318
0.092996798 0.68000001 -0.092996798 1.1794847e-38 398 318
0.09446609 0.68199998 -0.093270317 1.1794847e-38 399 318
0.095661856 0.68199998 -0.093270317 1.179485e-38 400 318
0.09685763 0.68199998 -0.093270317 1.179485e-38 401 318
0.098340958 0.68400002 -0.093543842 1.1520073e-38 402 318
-0.072942168 0.68199998 -0.09446609 1.2908442e-38 259 319
-0.071746394 0.68199998 -0.09446609 1.3001652e-38 260 319
-0.070343733 0.68000001 -0.094189063 1.4015805e-38 261 319
-0.069151461 0.68000001 -0.094189063 1.5488047e-38 262 319
-0.067859262 0.67900002 -0.094050556 1.6317808e-38 263 319
-0.066668749 0.67900002 -0.094050556 1.7325846e-38 264 319
-0.065478235 0.67900002 -0.094050556 1.7694629e-38 265 319
-0.06419304 0.67799997 -0.093912028 1.797049e-38 266 319
-0.062818423 0.676 -0.093635008 1.8154881e-38 267 319
-0.061633173 0.676 -0.093635008 1.8155234e-38 268 319
-0.06044792 0.676 -0.093635008 1.8155234e-38 269 319
-0.059175 0.67500001 -0.093496501 1.8155953e-38 270 319
-0.057991501 0.67500001 -0.093496501 1.8155953e-38 271 319
-0.056723841 0.67400002 -0.093357988 1.8155953e-38 272 319
-0.055377278 0.67199999 -0.093080953 1.8155953e-38 273 319
-0.054118387 0.671 -0.092942439 1.8156306e-38 274 319
-0.052941896 0.671 -0.092942439 1.8248502e-38 275 319
-0.051765412 0.671 -0.092942439 1.8157384e-38 276 319
-0.050588924 0.671 -0.092942439 1.8157384e-38 277 319
-0.049338799 0.67000002 -0.092803933 1.8431822e-38 278 319
-0.048164066 0.67000002 -0.092803933 1.8800604e-38 279 319
-0.046989333 0.67000002 -0.092803933 1.9075761e-38 280 319
-0.0458146 0.67000002 -0.092803933 1.8983565e-38 281 319
-0.044639867 0.67000002 -0.092803933 1.9167238e-38 282 319
-0.043465134 0.67000002 -0.092803933 1.8982847e-38 283 319
-0.042290401 0.67000002 -0.092803933 1.9075748e-38 284 319
-0.041115668 0.67000002 -0.092803933 1.9075748e-38 285 319
-0.039762091 0.667 -0.092388391 1.9075743e-38 286 319
-0.038592618 0.667 -0.092388391 1.9075743e-38 287 319
-0.037423145 0.667 -0.092388391 1.8801307e-38 288 319
-0.036253672 0.667 -0.092388391 1.8801307e-38 289 319
-0.035084199 0.667 -0.092388391 1.8709106e-38 290 319
-0.03386388 0.66600001 -0.092249878 1.861691e-38 291 319
-0.032696161 0.66600001 -0.092249878 1.8617263e-38 292 319
-0.031528439 0.66600001 -0.092249878 1.8433231e-38 293 319
-0.030360719 0.66600001 -0.092249878 1.8341398e-38 294 319
-0.02910533 0.66399997 -0.091972843 1.8157007e-38 295 319
-0.027941117 0.66399997 -0.091972843 1.7881143e-38 296 319
-0.026776904 0.66399997 -0.091972843 1.7788947e-38 297 319
-0.025574118 0.66299999 -0.091834337 1.7604913e-38 298 319
-0.024411658 0.66299999 -0.091834337 1.7512716e-38 299 319
-0.023214132 0.662 -0.091695823 1.7879373e-38 300 319
-0.022053426 0.662 -0.091695823 1.7971569e-38 301 319
-0.02101896 0.66600001 -0.092249878 1.8061629e-38 302 319
-0.019881045 0.667 -0.092388391 1.8246379e-38 303 319
-0.018683519 0.66600001 -0.092249878 1.815598e-38 304 319
-0.017515799 0.66600001 -0.092249878 1.8248175e-38 305 319
-0.016348081 0.66600001 -0.092249878 1.8063443e-38 306 319
0.018571306 0.662 -0.091695823 1.8246379e-38 336 319
0.019732011 0.662 -0.091695823 1.8246379e-38 337 319
0.020924279 0.66299999 -0.091834337 1.815525e-38 338 319
0.02208674 0.66299999 -0.091834337 1.8247445e-38 339 319
0.0232492 0.66299999 -0.091834337 1.8156306e-38 340 319
0.024411658 0.66299999 -0.091834337 1.7972275e-38 341 319
0.030132787 0.66100001 -0.091557316 1.8431448e-38 346 319
0.031339079 0.662 -0.091695823 1.8431448e-38 347 319
0.032499783 0.662 -0.091695823 1.8523278e-38 348 319
0.033660494 0.662 -0.091695823 1.8523278e-38 349 319
0.034821201 0.662 -0.091695823 1.8523275e-38 350 319
0.035981905 0.662 -0.091695823 1.8523275e-38 351 319
0.037142612 0.662 -0.091695823 1.8523631e-38 352 319
0.038361177 0.66299999 -0.091834337 1.8707662e-38 353 319
0.039523639 0.66299999 -0.091834337 1.8431796e-38 354 319
0.040686097 0.66299999 -0.091834337 1.8431796e-38 355 319
0.041911677 0.66399997 -0.091972843 1.8523631e-38 356 319
0.043075889 0.66399997 -0.091972843 1.8523631e-38 357 319
0.044240102 0.66399997 -0.091972843 1.8523278e-38 358 319
0.045404319 0.66399997 -0.091972843 1.8523278e-38 359 319
0.046568532 0.66399997 -0.091972843 1.8522922e-38 360 319
0.047660857 0.66299999 -0.091834337 1.8430727e-38 361 319
0.048823316 0.66299999 -0.091834337 1.843108e-38 362 319
0.049985778 0.66299999 -0.091834337 1.843108e-38 363 319
0.051148236 0.66299999 -0.091834337 1.8522199e-38 364 319
0.052310698 0.66299999 -0.091834337 1.8522199e-38 365 319
0.053473156 0.66299999 -0.091834337 1.8245612e-38 366 319
0.054635618 0.66299999 -0.091834337 1.8245612e-38 367 319
0.055798076 0.66299999 -0.091834337 1.8061218e-38 368 319
0.056960538 0.66299999 -0.091834337 1.7969023e-38 369 319
0.05821066 0.66399997 -0.091972843 1.7691713e-38 370 319
0.059374876 0.66399997 -0.091972843 1.7599517e-38 371 319
0.060539093 0.66399997 -0.091972843 1.759952e-38 372 319
0.061703302 0.66399997 -0.091972843 1.7230739e-38 373 319
0.062867515 0.66399997 -0.091972843 1.7137826e-38 374 319
0.064224601 0.66600001 -0.092249878 1.6953076e-38 375 319
0.065392323 0.66600001 -0.092249878 1.6677568e-38 376 319
0.066560037 0.66600001 -0.092249878 1.6400621e-38 377 319
0.067727759 0.66600001 -0.092249878 1.6124394e-38 378 319
0.068895474 0.66600001 -0.092249878 1.5940003e-38 379 319
0.070063196 0.66600001 -0.092249878 1.5663058e-38 380 319
0.071337871 0.667 -0.092388391 1.5479027e-38 381 319
0.072507344 0.667 -0.092388391 1.5019488e-38 382 319
0.073787279 0.66799998 -0.092526905 1.4835096e-38 383 319
0.07518293 0.67000002 -0.092803933 1.437592e-38 384 319
0.076357663 0.67000002 -0.092803933 1.419117e-38 385 319
0.077648118 0.671 -0.092942439 1.4465964e-38 386 319
0.078824602 0.671 -0.092942439 1.4465964e-38 387 319
0.080001086 0.671 -0.092942439 1.4190819e-38 388 319
0.08129856 0.67199999 -0.093080953 1.4006428e-38 389 319
0.082476802 0.67199999 -0.093080953 1.4005708e-38 390 319
0.083904013 0.67400002 -0.093357988 1.3913512e-38 391 319
0.085212 0.67500001 -0.093496501 1.3638001e-38 392 319
0.086395502 0.67500001 -0.093496501 1.3453251e-38 393 319
0.087708741 0.676 -0.093635008 1.2900434e-38 394 319
0.089156993 0.67799997 -0.093912028 1.234726e-38 395 319
0.090479009 0.67900002 -0.094050556 1.2162165e-38 396 319
0.091669522 0.67900002 -0.094050556 1.1885938e-38 397 319
0.092996798 0.68000001 -0.094189063 1.1793405e-38 398 319
0.09446609 0.68199998 -0.09446609 1.1885601e-38 399 319
0.095661856 0.68199998 -0.09446609 1.1701935e-38 400 319
0.09685763 0.68199998 -0.09446609 1.1701935e-38 401 319
-0.074355356 0.68400002 -0.0959424 1.8346185e-38 258 320
-0.073049128 0.68300003 -0.095802136 1.3183231e-38 259 320
-0.071746394 0.68199998 -0.095661856 1.2722567e-38 260 320
-0.070343733 0.68000001 -0.095381334 1.4013306e-38 261 320
-0.069049768 0.67900002 -0.095241062 1.4658306e-38 262 320
-0.067859262 0.67900002 -0.095241062 1.5764654e-38 263 320
-0.066668749 0.67900002 -0.095241062 1.6500051e-38 264 320
-0.065381795 0.67799997 -0.09510079 1.6776278e-38 265 320
-0.064003684 0.676 -0.094820268 1.7511329e-38 266 320
-0.062818423 0.676 -0.094820268 1.7511329e-38 267 320
-0.061633173 0.676 -0.094820268 1.7787187e-38 268 320
-0.060358498 0.67500001 -0.094679996 1.7879742e-38 269 320
-0.059087332 0.67400002 -0.094539732 1.769678e-38 270 320
-0.057905588 0.67400002 -0.094539732 1.7788975e-38 271 320
-0.056555521 0.67199999 -0.094259195 1.7789326e-38 272 320
-0.055294871 0.671 -0.09411893 1.7789326e-38 273 320
-0.054118387 0.671 -0.09411893 1.8065189e-38 274 320
-0.052941896 0.671 -0.09411893 1.8065189e-38 275 320
-0.051688269 0.67000002 -0.093978666 1.834105e-38 276 320
-0.050513536 0.67000002 -0.093978666 1.834105e-38 277 320
-0.04919152 0.66799998 -0.093698129 1.861691e-38 278 320
-0.048020288 0.66799998 -0.093698129 1.8432878e-38 279 320
-0.046849065 0.66799998 -0.093698129 1.8708758e-38 280 320
-0.045677837 0.66799998 -0.093698129 1.8893149e-38 281 320
-0.044506609 0.66799998 -0.093698129 1.8983916e-38 282 320
-0.04327051 0.667 -0.093557864 1.9076111e-38 283 320
-0.042101037 0.667 -0.093557864 1.8984269e-38 284 320
-0.040870197 0.66600001 -0.093417592 1.9076465e-38 285 320
-0.039702479 0.66600001 -0.093417592 1.9076818e-38 286 320
-0.03853476 0.66600001 -0.093417592 1.9076818e-38 287 320
-0.037254825 0.66399997 -0.093137063 1.9077171e-38 288 320
-0.036090612 0.66399997 -0.093137063 1.9077171e-38 289 320
-0.0349264 0.66399997 -0.093137063 1.8985325e-38 290 320
