# .PCD v.7 - Point Cloud Data file format
FIELDS x y z rgb imX imY
SIZE 4 4 4 4 4 4
TYPE F F F F F F
COUNT 1 1 1 1 1 1
WIDTH 840
HEIGHT 1
VIEWPOINT 0 0 0 1 0 0 0
POINTS 840
DATA ascii
0.035135046 0.69099998 -0.026654173 1.8709109e-38 349 262
0.036346599 0.69099998 -0.026654173 1.880166e-38 350 262
0.03755815 0.69099998 -0.026654173 1.880166e-38 351 262
0.038713597 0.69 -0.026615599 1.8801304e-38 352 262
0.039807681 0.68800002 -0.026538454 1.8801304e-38 353 262
0.041013971 0.68800002 -0.026538454 1.8525446e-38 354 262
0.042342998 0.69 -0.026615599 1.8525446e-38 355 262
0.043426562 0.68800002 -0.026538454 1.8249579e-38 356 262
0.044632856 0.68800002 -0.026538454 1.8065187e-38 357 262
0.046039023 0.69099998 -0.026654173 1.7972991e-38 358 262
0.047592476 0.69599998 -0.026847038 1.760421e-38 359 262
0.048812799 0.69599998 -0.026847038 1.7420538e-38 360 262
0.050105009 0.69700003 -0.026885614 1.7328341e-38 361 262
0.051327083 0.69700003 -0.026885614 1.6776613e-38 362 262
0.052624546 0.69800001 -0.026924185 1.6684417e-38 363 262
0.054002665 0.69999999 -0.027001332 1.6408553e-38 364 262
0.055308893 0.70099998 -0.027039904 1.6316358e-38 365 262
0.056537982 0.70099998 -0.027039904 1.6315643e-38 366 262
0.058014292 0.704 -0.027155625 1.5670274e-38 367 262
0.059501119 0.70700002 -0.027271347 1.4752322e-38 368 262
0.060740728 0.70700002 -0.027271347 1.6319288e-38 369 262
0.02308614 0.69300002 -0.027946379 1.5484455e-38 339 263
0.024301201 0.69300002 -0.027946379 1.7325451e-38 340 263
0.025442619 0.69099998 -0.027865725 1.797082e-38 341 263
0.026654173 0.69099998 -0.027865725 1.8247036e-38 342 263
0.027865725 0.69099998 -0.027865725 1.8431786e-38 343 263
0.029077278 0.69099998 -0.027865725 1.8523626e-38 344 263
0.030288832 0.69099998 -0.027865725 1.8708016e-38 345 263
0.031500384 0.69099998 -0.027865725 1.8616543e-38 346 263
0.032711938 0.69099998 -0.027865725 1.8616543e-38 347 263
0.0338744 0.69 -0.027825398 1.8617266e-38 348 263
0.035084199 0.69 -0.027825398 1.8709462e-38 349 263
0.036293998 0.69 -0.027825398 1.8709106e-38 350 263
0.037503798 0.69 -0.027825398 1.8709106e-38 351 263
0.038713597 0.69 -0.027825398 1.8709111e-38 352 263
0.039807681 0.68800002 -0.027744746 1.8616916e-38 353 263
0.041013971 0.68800002 -0.027744746 1.843325e-38 354 263
0.042220265 0.68800002 -0.027744746 1.8340696e-38 355 263
0.043363437 0.68699998 -0.027704418 1.8248499e-38 356 263
0.044567976 0.68699998 -0.027704418 1.7972272e-38 357 263
0.045839146 0.68800002 -0.027744746 1.7880074e-38 358 263
0.047250576 0.69099998 -0.027865725 1.7695682e-38 359 263
0.048672531 0.69400001 -0.027986705 1.7051758e-38 360 263
0.050033119 0.69599998 -0.028067358 1.7143953e-38 361 263
0.051253434 0.69599998 -0.028067358 1.6684417e-38 362 263
0.052549154 0.69700003 -0.028107686 1.6592222e-38 363 263
0.053848371 0.69800001 -0.028148014 1.6500026e-38 364 263
0.055308893 0.70099998 -0.028268991 1.6315993e-38 365 263
0.056537982 0.70099998 -0.028268991 1.6315643e-38 366 263
0.057767071 0.70099998 -0.028268991 1.5854306e-38 367 263
0.058996156 0.70099998 -0.028268991 1.4659771e-38 368 263
0.059967503 0.69800001 -0.028148014 1.5766117e-38 369 263
0.023019511 0.69099998 -0.029077278 1.5945801e-38 339 264
0.024231065 0.69099998 -0.029077278 1.7787155e-38 340 264
0.025442619 0.69099998 -0.029077278 1.8063742e-38 341 264
0.026615599 0.69 -0.029035198 1.8431433e-38 342 264
0.027825398 0.69 -0.029035198 1.8523628e-38 343 264
0.029035198 0.69 -0.029035198 1.8708016e-38 344 264
0.030157333 0.68800002 -0.028951041 1.8800211e-38 345 264
0.031318039 0.68699998 -0.028908957 1.861654e-38 346 264
0.032522578 0.68699998 -0.028908957 1.8709096e-38 347 264
0.033727121 0.68699998 -0.028908957 1.8800938e-38 348 264
0.034931656 0.68699998 -0.028908957 1.8800938e-38 349 264
0.036136195 0.68699998 -0.028908957 1.8709111e-38 350 264
0.037340738 0.68699998 -0.028908957 1.8616916e-38 351 264
0.03848917 0.68599999 -0.02886688 1.8433248e-38 352 264
0.039691959 0.68599999 -0.02886688 1.834105e-38 353 264
0.040954359 0.68699998 -0.028908957 1.8340696e-38 354 264
0.042158898 0.68699998 -0.028908957 1.8156303e-38 355 264
0.043363437 0.68699998 -0.028908957 1.7880439e-38 356 264
0.044567976 0.68699998 -0.028908957 1.7788244e-38 357 264
0.045772515 0.68699998 -0.028908957 1.7512017e-38 358 264
0.047045439 0.68800002 -0.028951041 1.7327266e-38 359 264
0.04846213 0.69099998 -0.029077278 1.6960281e-38 360 264
0.049817458 0.69300002 -0.029161438 1.6960281e-38 361 264
0.051032521 0.69300002 -0.029161438 1.6408553e-38 362 264
0.052322973 0.69400001 -0.029203519 1.6408553e-38 363 264
0.053694077 0.69599998 -0.029287677 1.6316714e-38 364 264
0.054993302 0.69700003 -0.02932976 1.6131962e-38 365 264
0.056215372 0.69700003 -0.02932976 1.6315287e-38 366 264
0.05743745 0.69700003 -0.02932976 1.585395e-38 367 264
0.058743682 0.69800001 -0.029371841 1.4567938e-38 368 264
0.059967503 0.69800001 -0.029371841 1.5582449e-38 369 264
0.061191335 0.69800001 -0.029371841 1.6689207e-38 370 264
0.021271439 0.67400002 -0.029543666 1.4562511e-38 338 265
0.022453187 0.67400002 -0.029543666 1.6959957e-38 339 265
0.024055731 0.68599999 -0.030069664 1.8248136e-38 340 265
0.025258519 0.68599999 -0.030069664 1.8155582e-38 341 265
0.02638416 0.68400002 -0.029982001 1.8156288e-38 342 265
0.027583439 0.68400002 -0.029982001 1.8248484e-38 343 265
0.02886688 0.68599999 -0.030069664 1.8616543e-38 344 265
0.030069664 0.68599999 -0.030069664 1.870874e-38 345 265
0.031272452 0.68599999 -0.030069664 1.8617263e-38 346 265
0.032475237 0.68599999 -0.030069664 1.8617263e-38 347 265
0.033678025 0.68599999 -0.030069664 1.8892055e-38 348 265
0.03477912 0.68400002 -0.029982001 1.8892055e-38 349 265
0.035978399 0.68400002 -0.029982001 1.8616193e-38 350 265
0.037123326 0.68300003 -0.029938167 1.8523997e-38 351 265
0.038320854 0.68300003 -0.029938167 1.8248852e-38 352 265
0.039518382 0.68300003 -0.029938167 1.8156656e-38 353 265
0.040775519 0.68400002 -0.029982001 1.7973344e-38 354 265
0.042097531 0.68599999 -0.030069664 1.788079e-38 355 265
0.043300316 0.68599999 -0.030069664 1.7787881e-38 356 265
0.044503104 0.68599999 -0.030069664 1.760313e-38 357 265
0.045772515 0.68699998 -0.030113498 1.7143953e-38 358 265
0.046977058 0.68699998 -0.030113498 1.7051758e-38 359 265
0.048251733 0.68800002 -0.030157333 1.6960281e-38 360 265
0.049601797 0.69 -0.030244999 1.677625e-38 361 265
0.050885238 0.69099998 -0.030288832 1.649967e-38 362 265
0.05224758 0.69300002 -0.0303765 1.649967e-38 363 265
0.053539783 0.69400001 -0.030420333 1.631564e-38 364 265
0.054756597 0.69400001 -0.030420333 1.6223445e-38 365 265
0.055973411 0.69400001 -0.030420333 1.5947228e-38 366 265
0.057355035 0.69599998 -0.030507999 1.5025271e-38 367 265
0.05865952 0.69700003 -0.030551834 1.429171e-38 368 265
0.05988159 0.69700003 -0.030551834 1.5582449e-38 369 265
0.020089693 0.67400002 -0.030725412 1.4288097e-38 337 266
0.021271439 0.67400002 -0.030725412 1.6220943e-38 338 266
0.022453187 0.67400002 -0.030725412 1.7603878e-38 339 266
0.024055731 0.68599999 -0.031272452 1.8340329e-38 340 266
0.025258519 0.68599999 -0.031272452 1.8155938e-38 341 266
0.02638416 0.68400002 -0.03118128 1.8248839e-38 342 266
0.027543113 0.68300003 -0.031135695 1.8433231e-38 343 266
0.02869856 0.68199998 -0.031090107 1.870874e-38 344 266
0.029894331 0.68199998 -0.031090107 1.870874e-38 345 266
0.031135695 0.68300003 -0.031135695 1.8800938e-38 346 266
0.032285877 0.68199998 -0.031090107 1.8708743e-38 347 266
0.03348165 0.68199998 -0.031090107 1.861691e-38 348 266
0.034677424 0.68199998 -0.031090107 1.861691e-38 349 266
0.035873197 0.68199998 -0.031090107 1.8340329e-38 350 266
0.037068974 0.68199998 -0.031090107 1.8248133e-38 351 266
0.038264744 0.68199998 -0.031090107 1.8156301e-38 352 266
0.039518382 0.68300003 -0.031135695 1.7972269e-38 353 266
0.040715907 0.68300003 -0.031135695 1.7972269e-38 354 266
0.041913435 0.68300003 -0.031135695 1.7787878e-38 355 266
0.043174081 0.68400002 -0.03118128 1.7512017e-38 356 266
0.044503104 0.68599999 -0.031272452 1.7327266e-38 357 266
0.045705888 0.68599999 -0.031272452 1.6959928e-38 358 266
0.046977058 0.68699998 -0.031318039 1.6775897e-38 359 266
0.048251733 0.68800002 -0.031363625 1.6225244e-38 360 266
0.049458027 0.68800002 -0.031363625 1.6133048e-38 361 266
0.050664321 0.68800002 -0.031363625 1.6223808e-38 362 266
0.052021399 0.69 -0.031454802 1.6223808e-38 363 266
0.053308345 0.69099998 -0.031500384 1.6223089e-38 364 266
0.054677699 0.69300002 -0.031591557 1.6038697e-38 365 266
0.055892758 0.69300002 -0.031591557 1.5762836e-38 366 266
0.057107817 0.69300002 -0.031591557 1.4564293e-38 367 266
0.058407038 0.69400001 -0.031637147 1.4107316e-38 368 266
0.059623852 0.69400001 -0.031637147 1.5675002e-38 369 266
0.018935999 0.67500001 -0.031954501 1.5945448e-38 336 267
0.020089693 0.67400002 -0.03190716 1.6959601e-38 337 267
0.021208318 0.67199999 -0.031812478 1.8248151e-38 338 267
0.022386558 0.67199999 -0.031812478 1.8340348e-38 339 267
0.023564799 0.67199999 -0.031812478 1.797262e-38 340 267
0.024816679 0.67400002 -0.03190716 1.797262e-38 341 267
0.025998428 0.67400002 -0.03190716 1.8341032e-38 342 267
0.027260827 0.676 -0.032001842 1.8433228e-38 343 267
0.028446076 0.676 -0.032001842 1.8617263e-38 344 267
0.029631332 0.676 -0.032001842 1.8709459e-38 345 267
0.030998932 0.68000001 -0.032191198 1.8800938e-38 346 267
0.032191198 0.68000001 -0.032191198 1.8616546e-38 347 267
0.033383466 0.68000001 -0.032191198 1.870839e-38 348 267
0.034575731 0.68000001 -0.032191198 1.8616193e-38 349 267
0.035767999 0.68000001 -0.032191198 1.8248133e-38 350 267
0.036960267 0.68000001 -0.032191198 1.8155938e-38 351 267
0.038152531 0.68000001 -0.032191198 1.8155219e-38 352 267
0.039344799 0.68000001 -0.032191198 1.8063023e-38 353 267
0.040656291 0.68199998 -0.032285877 1.7695682e-38 354 267
0.041852064 0.68199998 -0.032285877 1.7603485e-38 355 267
0.043110959 0.68300003 -0.032333218 1.723507e-38 356 267
0.044308487 0.68300003 -0.032333218 1.7142874e-38 357 267
0.045572639 0.68400002 -0.032380559 1.6867367e-38 358 267
0.046908677 0.68599999 -0.032475237 1.6775171e-38 359 267
0.048181597 0.68699998 -0.032522578 1.6315638e-38 360 267
0.049386136 0.68699998 -0.032522578 1.6223442e-38 361 267
0.050664321 0.68800002 -0.032569919 1.6223089e-38 362 267
0.051870614 0.68800002 -0.032569919 1.6130893e-38 363 267
0.053231198 0.69 -0.032664597 1.5855029e-38 364 267
0.054519895 0.69099998 -0.032711938 1.5670638e-38 365 267
0.055731449 0.69099998 -0.032711938 1.511747e-38 366 267
0.056942999 0.69099998 -0.032711938 1.428735e-38 367 267
0.058322877 0.69300002 -0.03280662 1.4290265e-38 368 267
0.05953794 0.69300002 -0.03280662 1.6134178e-38 369 267
0.016593546 0.676 -0.033187091 1.834257e-38 334 268
0.0177525 0.67500001 -0.033137999 1.7328778e-38 335 268
0.018935999 0.67500001 -0.033137999 1.7419114e-38 336 268
0.020089693 0.67400002 -0.033088908 1.7511311e-38 337 268
0.021208318 0.67199999 -0.03299072 1.8339956e-38 338 268
0.022386558 0.67199999 -0.03299072 1.8339956e-38 339 268
0.023564799 0.67199999 -0.03299072 1.8248834e-38 340 268
0.024743039 0.67199999 -0.03299072 1.8341388e-38 341 268
0.025921278 0.67199999 -0.03299072 1.8433231e-38 342 268
0.027099518 0.67199999 -0.03299072 1.8617263e-38 343 268
0.02836192 0.67400002 -0.033088908 1.861691e-38 344 268
0.029543666 0.67400002 -0.033088908 1.861691e-38 345 268
0.030816587 0.676 -0.033187091 1.861619e-38 346 268
0.032001842 0.676 -0.033187091 1.8339603e-38 347 268
0.033285279 0.67799997 -0.033285279 1.8155935e-38 348 268
0.034474038 0.67799997 -0.033285279 1.824813e-38 349 268
0.035715401 0.67900002 -0.033334374 1.7972269e-38 350 268
0.036905911 0.67900002 -0.033334374 1.7880074e-38 351 268
0.038096428 0.67900002 -0.033334374 1.7512014e-38 352 268
0.039286941 0.67900002 -0.033334374 1.7419817e-38 353 268
0.040537067 0.68000001 -0.033383466 1.7510937e-38 354 268
0.041852064 0.68199998 -0.03348165 1.7510937e-38 355 268
0.043047838 0.68199998 -0.03348165 1.677625e-38 356 268
0.044308487 0.68300003 -0.033530746 1.6684054e-38 357 268
0.045572639 0.68400002 -0.033579841 1.6500023e-38 358 268
0.046908677 0.68599999 -0.033678025 1.6223795e-38 359 268
0.048181597 0.68699998 -0.033727121 1.6131968e-38 360 268
0.049386136 0.68699998 -0.033727121 1.5947578e-38 361 268
0.050590675 0.68699998 -0.033727121 1.5855032e-38 362 268
0.051870614 0.68800002 -0.033776212 1.5762836e-38 363 268
0.053076908 0.68800002 -0.033776212 1.5670285e-38 364 268
0.054440998 0.69 -0.0338744 1.5209666e-38 365 268
0.055650797 0.69 -0.0338744 1.474941e-38 366 268
0.056942999 0.69099998 -0.033923492 1.391929e-38 367 268
0.058154557 0.69099998 -0.033923492 1.4290262e-38 368 268
0.059366114 0.69099998 -0.033923492 1.6226371e-38 369 268
0.015408293 0.676 -0.034372345 1.797633e-38 333 269
0.016593546 0.676 -0.034372345 1.7973402e-38 334 269
0.0177525 0.67500001 -0.034321502 1.7512423e-38 335 269
0.018935999 0.67500001 -0.034321502 1.7972272e-38 336 269
0.020030079 0.67199999 -0.034168959 1.8156303e-38 337 269
0.021208318 0.67199999 -0.034168959 1.8248839e-38 338 269
0.022353247 0.671 -0.034118112 1.8248839e-38 339 269
0.023529733 0.671 -0.034118112 1.8341032e-38 340 269
0.024743039 0.67199999 -0.034168959 1.8433228e-38 341 269
0.025921278 0.67199999 -0.034168959 1.8432878e-38 342 269
0.027099518 0.67199999 -0.034168959 1.861691e-38 343 269
0.02827776 0.67199999 -0.034168959 1.8616916e-38 344 269
0.029455997 0.67199999 -0.034168959 1.8340329e-38 345 269
0.030725412 0.67400002 -0.034270655 1.7878262e-38 346 269
0.031954501 0.67500001 -0.034321502 1.7601316e-38 347 269
0.033137999 0.67500001 -0.034321502 1.7327253e-38 348 269
0.034321502 0.67500001 -0.034321502 1.7696034e-38 349 269
0.0356628 0.67799997 -0.034474038 1.760421e-38 350 269
0.036851559 0.67799997 -0.034474038 1.7512014e-38 351 269
0.038040318 0.67799997 -0.034474038 1.7602764e-38 352 269
0.039229076 0.67799997 -0.034474038 1.7510568e-38 353 269
0.040477451 0.67900002 -0.034524884 1.7143228e-38 354 269
0.041667968 0.67900002 -0.034524884 1.7143228e-38 355 269
0.042921599 0.68000001 -0.034575731 1.6867367e-38 356 269
0.044243611 0.68199998 -0.034677424 1.6775171e-38 357 269
0.045506012 0.68300003 -0.034728274 1.6315993e-38 358 269
0.046771921 0.68400002 -0.03477912 1.6131243e-38 359 269
0.048111461 0.68599999 -0.034880809 1.6038695e-38 360 269
0.049314249 0.68599999 -0.034880809 1.5946499e-38 361 269
0.050590675 0.68699998 -0.034931656 1.5670641e-38 362 269
0.051795214 0.68699998 -0.034931656 1.5578445e-38 363 269
0.052999757 0.68699998 -0.034931656 1.5301505e-38 364 269
0.054204296 0.68699998 -0.034931656 1.4932723e-38 365 269
0.055489492 0.68800002 -0.03498251 1.465686e-38 366 269
0.0568606 0.69 -0.035084199 1.4103688e-38 367 269
0.058154557 0.69099998 -0.035135046 1.4382827e-38 368 269
0.059366114 0.69099998 -0.035135046 1.6134904e-38 369 269
0.014223038 0.676 -0.035557602 1.815926e-38 332 270
0.015408293 0.676 -0.035557602 1.7698283e-38 333 270
0.016593546 0.676 -0.035557602 1.7971581e-38 334 270
0.017673599 0.67199999 -0.035347197 1.7879386e-38 335 270
0.018851839 0.67199999 -0.035347197 1.8156654e-38 336 270
0.020000271 0.671 -0.0352946 1.8156654e-38 337 270
0.021176759 0.671 -0.0352946 1.8341035e-38 338 270
0.022353247 0.671 -0.0352946 1.8433231e-38 339 270
0.023529733 0.671 -0.0352946 1.8433234e-38 340 270
0.024706218 0.671 -0.0352946 1.8617266e-38 341 270
0.025882706 0.671 -0.0352946 1.843288e-38 342 270
0.027059194 0.671 -0.0352946 1.8616913e-38 343 270
0.028235679 0.671 -0.0352946 1.8248849e-38 344 270
0.029412165 0.671 -0.0352946 1.7972623e-38 345 270
0.030634239 0.67199999 -0.035347197 1.7325807e-38 346 270
0.031812478 0.67199999 -0.035347197 1.7325807e-38 347 270
0.033088908 0.67400002 -0.035452399 1.7511287e-38 348 270
0.034270655 0.67400002 -0.035452399 1.7603483e-38 349 270
0.035505001 0.67500001 -0.035505001 1.7327622e-38 350 270
0.036742851 0.676 -0.035557602 1.7327622e-38 351 270
0.037928104 0.676 -0.035557602 1.7235057e-38 352 270
0.039113361 0.676 -0.035557602 1.7142862e-38 353 270
0.040298611 0.676 -0.035557602 1.6866998e-38 354 270
0.041483864 0.676 -0.035557602 1.6866998e-38 355 270
0.042858478 0.67900002 -0.035715401 1.6682615e-38 356 270
0.044048995 0.67900002 -0.035715401 1.6498584e-38 357 270
0.045306131 0.68000001 -0.035767999 1.6223442e-38 358 270
0.04670354 0.68300003 -0.035925802 1.6039051e-38 359 270
0.0479712 0.68400002 -0.035978399 1.5946502e-38 360 270
0.049170479 0.68400002 -0.035978399 1.5670274e-38 361 270
0.050517038 0.68599999 -0.036083598 1.5302214e-38 362 270
0.051719822 0.68599999 -0.036083598 1.5025269e-38 363 270
0.05292261 0.68599999 -0.036083598 1.484017e-38 364 270
0.054204296 0.68699998 -0.036136195 1.4656139e-38 365 270
0.055408835 0.68699998 -0.036136195 1.4288445e-38 366 270
0.056613375 0.68699998 -0.036136195 1.4011858e-38 367 270
0.058154557 0.69099998 -0.036346599 1.4382829e-38 368 270
0.01284492 0.66600001 -0.03619932 1.7607182e-38 331 271
0.014012639 0.66600001 -0.03619932 1.7787922e-38 332 271
0.01518036 0.66600001 -0.03619932 1.7695367e-38 333 271
0.016446266 0.67000002 -0.036416732 1.8155584e-38 334 271
0.017620999 0.67000002 -0.036416732 1.824778e-38 335 271
0.018795732 0.67000002 -0.036416732 1.8248486e-38 336 271
0.019970467 0.67000002 -0.036416732 1.8340682e-38 337 271
0.0211452 0.67000002 -0.036416732 1.8433234e-38 338 271
0.022319933 0.67000002 -0.036416732 1.8617266e-38 339 271
0.023494666 0.67000002 -0.036416732 1.8708387e-38 340 271
0.024669399 0.67000002 -0.036416732 1.8708387e-38 341 271
0.025844134 0.67000002 -0.036416732 1.843288e-38 342 271
0.027018867 0.67000002 -0.036416732 1.843288e-38 343 271
0.028193599 0.67000002 -0.036416732 1.8156654e-38 344 271
0.029368332 0.67000002 -0.036416732 1.7788231e-38 345 271
0.030543067 0.67000002 -0.036416732 1.7694587e-38 346 271
0.031765141 0.671 -0.036471087 1.7694587e-38 347 271
0.032941625 0.671 -0.036471087 1.7327253e-38 348 271
0.034118112 0.671 -0.036471087 1.7511284e-38 349 271
0.035347197 0.67199999 -0.036525436 1.7143228e-38 350 271
0.036634147 0.67400002 -0.036634147 1.7143228e-38 351 271
0.037871998 0.67500001 -0.036688499 1.6866998e-38 352 271
0.039113361 0.676 -0.036742851 1.6774801e-38 353 271
0.040298611 0.676 -0.036742851 1.6499656e-38 354 271
0.041483864 0.676 -0.036742851 1.640746e-38 355 271
0.042795356 0.67799997 -0.036851559 1.6131246e-38 356 271
0.043984115 0.67799997 -0.036851559 1.6039051e-38 357 271
0.045172878 0.67799997 -0.036851559 1.6130177e-38 358 271
0.046635158 0.68199998 -0.037068974 1.5945786e-38 359 271
0.047901068 0.68300003 -0.037123326 1.5670641e-38 360 271
0.049098592 0.68300003 -0.037123326 1.5301858e-38 361 271
0.050369758 0.68400002 -0.037177678 1.4749761e-38 362 271
0.051569041 0.68400002 -0.037177678 1.4380618e-38 363 271
0.05276832 0.68400002 -0.037177678 1.3644501e-38 364 271
0.054125395 0.68599999 -0.037286382 1.3736696e-38 365 271
0.055408835 0.68699998 -0.037340738 1.3920385e-38 366 271
0.056613375 0.68699998 -0.037340738 1.401294e-38 367 271
0.011642133 0.66399997 -0.037254825 1.7973048e-38 330 272
0.01284492 0.66600001 -0.037367038 1.7604267e-38 331 272
0.014012639 0.66600001 -0.037367038 1.7970843e-38 332 272
0.01518036 0.66600001 -0.037367038 1.8155234e-38 333 272
0.016348081 0.66600001 -0.037367038 1.8248484e-38 334 272
0.017515799 0.66600001 -0.037367038 1.8340679e-38 335 272
0.018711573 0.667 -0.037423145 1.8341754e-38 336 272
0.019910853 0.66799998 -0.037479252 1.8433951e-38 337 272
0.021082079 0.66799998 -0.037479252 1.8709462e-38 338 272
0.022253305 0.66799998 -0.037479252 1.8709462e-38 339 272
0.023424532 0.66799998 -0.037479252 1.861691e-38 340 272
0.02459576 0.66799998 -0.037479252 1.861691e-38 341 272
0.025766984 0.66799998 -0.037479252 1.8249205e-38 342 272
0.027018867 0.67000002 -0.037591465 1.8249205e-38 343 272
0.028109439 0.66799998 -0.037479252 1.8156288e-38 344 272
0.029280664 0.66799998 -0.037479252 1.7971897e-38 345 272
0.030543067 0.67000002 -0.037591465 1.7696029e-38 346 272
0.031623118 0.66799998 -0.037479252 1.7511637e-38 347 272
0.032794341 0.66799998 -0.037479252 1.7327969e-38 348 272
0.034067266 0.67000002 -0.037591465 1.7235774e-38 349 272
0.035241999 0.67000002 -0.037591465 1.7050665e-38 350 272
0.036471087 0.671 -0.037647571 1.7050665e-38 351 272
0.037815895 0.67400002 -0.037815895 1.66826e-38 352 272
0.039055496 0.67500001 -0.037871998 1.6590404e-38 353 272
0.040298611 0.676 -0.037928104 1.6406739e-38 354 272
0.041606598 0.67799997 -0.038040318 1.6314543e-38 355 272
0.042795356 0.67799997 -0.038040318 1.6038685e-38 356 272
0.043984115 0.67799997 -0.038040318 1.5946131e-38 357 272
0.045172878 0.67799997 -0.038040318 1.6037251e-38 358 272
0.046498399 0.68000001 -0.038152531 1.585322e-38 359 272
0.047830928 0.68199998 -0.038264744 1.5578441e-38 360 272
0.049026705 0.68199998 -0.038264744 1.5117464e-38 361 272
0.05029612 0.68300003 -0.038320854 1.4014362e-38 362 272
0.051493648 0.68300003 -0.038320854 1.3184243e-38 363 272
0.052691177 0.68300003 -0.038320854 1.1987867e-38 364 272
0.053967599 0.68400002 -0.038376961 1.2725791e-38 365 272
0.055408835 0.68699998 -0.038545277 1.4011861e-38 366 272
0.056613375 0.68699998 -0.038545277 1.4196252e-38 367 272
0.0092996797 0.66299999 -0.038361177 1.8342554e-38 328 273
0.01043058 0.66100001 -0.038245458 1.7512793e-38 329 273
0.011642133 0.66399997 -0.038419038 1.7695329e-38 330 273
0.012806346 0.66399997 -0.038419038 1.7695329e-38 331 273
0.013970559 0.66399997 -0.038419038 1.8339234e-38 332 273
0.015134773 0.66399997 -0.038419038 1.843143e-38 333 273
0.016298985 0.66399997 -0.038419038 1.8523982e-38 334 273
0.017515799 0.66600001 -0.03853476 1.8708013e-38 335 273
0.018683519 0.66600001 -0.03853476 1.8433228e-38 336 273
0.019851239 0.66600001 -0.03853476 1.861726e-38 337 273
0.02101896 0.66600001 -0.03853476 1.8433598e-38 338 273
0.02218668 0.66600001 -0.03853476 1.8433598e-38 339 273
0.023354398 0.66600001 -0.03853476 1.8433598e-38 340 273
0.024558939 0.667 -0.038592618 1.8341401e-38 341 273
0.025728412 0.667 -0.038592618 1.8248839e-38 342 273
0.026938211 0.66799998 -0.038650475 1.8064089e-38 343 273
0.028109439 0.66799998 -0.038650475 1.7788582e-38 344 273
0.029280664 0.66799998 -0.038650475 1.7788582e-38 345 273
0.030451892 0.66799998 -0.038650475 1.7603833e-38 346 273
0.031623118 0.66799998 -0.038650475 1.7511637e-38 347 273
0.032794341 0.66799998 -0.038650475 1.7143934e-38 348 273
0.033965573 0.66799998 -0.038650475 1.6959544e-38 349 273
0.035136797 0.66799998 -0.038650475 1.6407458e-38 350 273
0.036308024 0.66799998 -0.038650475 1.6315262e-38 351 273
0.037591465 0.67000002 -0.038766202 1.6315265e-38 352 273
0.03888192 0.67199999 -0.03888192 1.6038679e-38 353 273
0.040179387 0.67400002 -0.038997639 1.6038685e-38 354 273
0.041422497 0.67500001 -0.039055496 1.5946131e-38 355 273
0.042669121 0.676 -0.039113361 1.5854659e-38 356 273
0.043854371 0.676 -0.039113361 1.5670268e-38 357 273
0.045039624 0.676 -0.039113361 1.5486243e-38 358 273
0.046498399 0.68000001 -0.039344799 1.5486243e-38 359 273
0.047690667 0.68000001 -0.039344799 1.5025269e-38 360 273
0.048882935 0.68000001 -0.039344799 1.4840876e-38 361 273
0.050222475 0.68199998 -0.039460517 1.3828543e-38 362 273
0.051493648 0.68300003 -0.039518382 1.3275369e-38 363 273
0.052691177 0.68300003 -0.039518382 1.2721851e-38 364 273
0.053967599 0.68400002 -0.03957624 1.3274666e-38 365 273
0.055328183 0.68599999 -0.039691959 1.3735644e-38 366 273
0.056530971 0.68599999 -0.039691959 1.4288816e-38 367 273
0.00695372 0.66100001 -0.039404415 1.8250005e-38 326 274
0.0081372196 0.66299999 -0.039523639 1.7144017e-38 327 274
0.0092996797 0.66299999 -0.039523639 1.7787543e-38 328 274
0.01043058 0.66100001 -0.039404415 1.7787543e-38 329 274
0.011589534 0.66100001 -0.039404415 1.824778e-38 330 274
0.012748486 0.66100001 -0.039404415 1.824778e-38 331 274
0.013949519 0.66299999 -0.039523639 1.8339956e-38 332 274
0.015111978 0.66299999 -0.039523639 1.8524347e-38 333 274
0.016298985 0.66399997 -0.039583251 1.85247e-38 334 274
0.0174632 0.66399997 -0.039583251 1.8616896e-38 335 274
0.018627413 0.66399997 -0.039583251 1.8617263e-38 336 274
0.019791625 0.66399997 -0.039583251 1.8617263e-38 337 274
0.020955838 0.66399997 -0.039583251 1.8617266e-38 338 274
0.022120051 0.66399997 -0.039583251 1.8617266e-38 339 274
0.023284266 0.66399997 -0.039583251 1.8433234e-38 340 274
0.02452212 0.66600001 -0.039702479 1.8340679e-38 341 274
0.02568984 0.66600001 -0.039702479 1.8155566e-38 342 274
0.026897885 0.667 -0.039762091 1.7971174e-38 343 274
0.028067358 0.667 -0.039762091 1.7787858e-38 344 274
0.029236831 0.667 -0.039762091 1.7603467e-38 345 274
0.030451892 0.66799998 -0.039821707 1.7510916e-38 346 274
0.031623118 0.66799998 -0.039821707 1.7326524e-38 347 274
0.032745253 0.667 -0.039762091 1.7050665e-38 348 274
0.033914726 0.667 -0.039762091 1.6865915e-38 349 274
0.035084199 0.667 -0.039762091 1.6314546e-38 350 274
0.036308024 0.66799998 -0.039821707 1.6314546e-38 351 274
0.037591465 0.67000002 -0.039940935 1.6038682e-38 352 274
0.038824059 0.671 -0.040000543 1.5946486e-38 353 274
0.040060159 0.67199999 -0.040060159 1.5854289e-38 354 274
0.041238401 0.67199999 -0.040060159 1.5762094e-38 355 274
0.042606 0.67500001 -0.040238999 1.548623e-38 356 274
0.043789499 0.67500001 -0.040238999 1.5394034e-38 357 274
0.045039624 0.676 -0.040298611 1.5210366e-38 358 274
0.046361636 0.67799997 -0.040417835 1.5025975e-38 359 274
0.047690667 0.68000001 -0.040537067 1.4473167e-38 360 274
0.048882935 0.68000001 -0.040537067 1.419694e-38 361 274
0.050222475 0.68199998 -0.040656291 1.3552305e-38 362 274
0.051418249 0.68199998 -0.040656291 1.3275719e-38 363 274
0.052691177 0.68300003 -0.040715907 1.3088828e-38 364 274
0.053888701 0.68300003 -0.040715907 1.3365417e-38 365 274
0.055328183 0.68599999 -0.040894743 1.3460502e-38 366 274
0.056530971 0.68599999 -0.040894743 1.4105871e-38 367 274
0.0057947668 0.66100001 -0.040563367 1.7882317e-38 325 275
0.00695372 0.66100001 -0.040563367 1.8249595e-38 326 275
0.0081126727 0.66100001 -0.040563367 1.7143606e-38 327 275
0.0092716264 0.66100001 -0.040563367 1.7971176e-38 328 275
0.010399019 0.65899998 -0.04044063 1.83396e-38 329 275
0.011554466 0.65899998 -0.04044063 1.8431801e-38 330 275
0.012709912 0.65899998 -0.04044063 1.8523997e-38 331 275
0.01392848 0.662 -0.04062473 1.8708013e-38 332 275
0.015089186 0.662 -0.04062473 1.8708013e-38 333 275
0.016298985 0.66399997 -0.040747464 1.8616896e-38 334 275
0.0174632 0.66399997 -0.040747464 1.8616896e-38 335 275
0.018599359 0.66299999 -0.040686097 1.8617266e-38 336 275
0.019761819 0.66299999 -0.040686097 1.8433234e-38 337 275
0.020924279 0.66299999 -0.040686097 1.8249205e-38 338 275
0.02208674 0.66299999 -0.040686097 1.8249205e-38 339 275
0.0232492 0.66299999 -0.040686097 1.8248486e-38 340 275
0.024448479 0.66399997 -0.040747464 1.8063736e-38 341 275
0.025612691 0.66399997 -0.040747464 1.7788228e-38 342 275
0.026776904 0.66399997 -0.040747464 1.7603836e-38 343 275
0.028025279 0.66600001 -0.040870197 1.732725e-38 344 275
0.029192999 0.66600001 -0.040870197 1.732725e-38 345 275
0.030360719 0.66600001 -0.040870197 1.7050662e-38 346 275
0.031528439 0.66600001 -0.040870197 1.6866271e-38 347 275
0.032696161 0.66600001 -0.040870197 1.6406742e-38 348 275
0.03386388 0.66600001 -0.040870197 1.6314546e-38 349 275
0.035031598 0.66600001 -0.040870197 1.6038685e-38 350 275
0.036253672 0.667 -0.040931564 1.5946131e-38 351 275
0.037423145 0.667 -0.040931564 1.5670624e-38 352 275
0.038766202 0.67000002 -0.041115668 1.5578428e-38 353 275
0.039940935 0.67000002 -0.041115668 1.5485874e-38 354 275
0.041177034 0.671 -0.041177034 1.5393678e-38 355 275
0.042416636 0.67199999 -0.041238401 1.5301486e-38 356 275
0.043724626 0.67400002 -0.041361131 1.520929e-38 357 275
0.044972997 0.67500001 -0.041422497 1.4749757e-38 358 275
0.046224877 0.676 -0.041483864 1.4565365e-38 359 275
0.047550395 0.67799997 -0.041606598 1.4104038e-38 360 275
0.048882935 0.68000001 -0.041729335 1.3919646e-38 361 275
0.050222475 0.68199998 -0.041852064 1.3551233e-38 362 275
0.051418249 0.68199998 -0.041852064 1.3182809e-38 363 275
0.052614026 0.68199998 -0.041852064 1.2721848e-38 364 275
0.053888701 0.68300003 -0.041913435 1.3182826e-38 365 275
0.055328183 0.68599999 -0.042097531 1.3001324e-38 366 275
0.056530971 0.68599999 -0.042097531 1.3462302e-38 367 275
0.0057772328 0.65899998 -0.041596077 1.7511332e-38 325 276
0.0069326796 0.65899998 -0.041596077 1.797119e-38 326 276
0.0080881258 0.65899998 -0.041596077 1.8155582e-38 327 276
0.0092435731 0.65899998 -0.041596077 1.8156285e-38 328 276
0.010399019 0.65899998 -0.041596077 1.8248839e-38 329 276
0.011536933 0.65799999 -0.04153296 1.852435e-38 330 276
0.012690626 0.65799999 -0.04153296 1.8616546e-38 331 276
0.013865359 0.65899998 -0.041596077 1.8616543e-38 332 276
0.015020805 0.65899998 -0.041596077 1.8616543e-38 333 276
0.016225345 0.66100001 -0.04172232 1.8616543e-38 334 276
0.0173843 0.66100001 -0.04172232 1.8524347e-38 335 276
0.018543253 0.66100001 -0.04172232 1.8340682e-38 336 276
0.019732011 0.662 -0.041785441 1.8248486e-38 337 276
0.020892721 0.662 -0.041785441 1.8248486e-38 338 276
0.022020113 0.66100001 -0.04172232 1.8156291e-38 339 276
0.023179067 0.66100001 -0.04172232 1.7880777e-38 340 276
0.024374841 0.662 -0.041785441 1.7604189e-38 341 276
0.025535546 0.662 -0.041785441 1.7511637e-38 342 276
0.026736578 0.66299999 -0.041848559 1.7327606e-38 343 276
0.027899038 0.66299999 -0.041848559 1.7050659e-38 344 276
0.02910533 0.66399997 -0.041911677 1.6866268e-38 345 276
0.030269546 0.66399997 -0.041911677 1.6407092e-38 346 276
0.031528439 0.66600001 -0.042037919 1.6314896e-38 347 276
0.032696161 0.66600001 -0.042037919 1.5946131e-38 348 276
0.03386388 0.66600001 -0.042037919 1.5946131e-38 349 276
0.035031598 0.66600001 -0.042037919 1.5853933e-38 350 276
0.03619932 0.66600001 -0.042037919 1.5761738e-38 351 276
0.037367038 0.66600001 -0.042037919 1.5578426e-38 352 276
0.038592618 0.667 -0.042101037 1.548623e-38 353 276
0.039821707 0.66799998 -0.042164158 1.5210366e-38 354 276
0.041115668 0.67000002 -0.042290401 1.5118171e-38 355 276
0.042353518 0.671 -0.042353518 1.4933778e-38 356 276
0.043724626 0.67400002 -0.042542879 1.4564997e-38 357 276
0.044972997 0.67500001 -0.042606 1.447317e-38 358 276
0.046224877 0.676 -0.042669121 1.4104389e-38 359 276
0.047410134 0.676 -0.042669121 1.3643785e-38 360 276
0.048882935 0.68000001 -0.042921599 1.3643785e-38 361 276
0.050222475 0.68199998 -0.043047838 1.3458684e-38 362 276
0.051418249 0.68199998 -0.043047838 1.3182456e-38 363 276
0.052614026 0.68199998 -0.043047838 1.3089907e-38 364 276
0.053888701 0.68300003 -0.043110959 1.3366135e-38 365 276
0.055328183 0.68599999 -0.043300316 1.3277189e-38 366 276
0.056530971 0.68599999 -0.043300316 1.3369385e-38 367 276
0.0034400397 0.65399998 -0.04242716 1.7420581e-38 323 277
0.0045867199 0.65399998 -0.04242716 1.8062673e-38 324 277
0.0057772328 0.65899998 -0.042751525 1.8062673e-38 325 277
0.0069326796 0.65899998 -0.042751525 1.8155569e-38 326 277
0.0080635799 0.65700001 -0.04262178 1.8431796e-38 327 277
0.0092155198 0.65700001 -0.04262178 1.8341032e-38 328 277
0.01038324 0.65799999 -0.042686652 1.8433228e-38 329 277
0.011519399 0.65700001 -0.04262178 1.8617266e-38 330 277
0.01267134 0.65700001 -0.04262178 1.8433234e-38 331 277
0.01384432 0.65799999 -0.042686652 1.8616546e-38 332 277
0.014998012 0.65799999 -0.042686652 1.852435e-38 333 277
0.016176252 0.65899998 -0.042751525 1.852435e-38 334 277
0.017331699 0.65899998 -0.042751525 1.852435e-38 335 277
0.018487146 0.65899998 -0.042751525 1.8431796e-38 336 277
0.019642593 0.65899998 -0.042751525 1.83396e-38 337 277
0.02086116 0.66100001 -0.042881273 1.8155569e-38 338 277
0.021953486 0.65899998 -0.042751525 1.7971176e-38 339 277
0.023108931 0.65899998 -0.042751525 1.751199e-38 340 277
0.024264378 0.65899998 -0.042751525 1.7051012e-38 341 277
0.025419824 0.65899998 -0.042751525 1.7143215e-38 342 277
0.026655925 0.66100001 -0.042881273 1.6958464e-38 343 277
0.027856959 0.662 -0.042946145 1.6589685e-38 344 277
0.029017664 0.662 -0.042946145 1.6405293e-38 345 277
0.030223956 0.66299999 -0.043011017 1.622198e-38 346 277
0.031433757 0.66399997 -0.043075889 1.622198e-38 347 277
0.03259797 0.66399997 -0.043075889 1.6037602e-38 348 277
0.033762183 0.66399997 -0.043075889 1.5853571e-38 349 277
0.035031598 0.66600001 -0.043205637 1.5669539e-38 350 277
0.03619932 0.66600001 -0.043205637 1.5485508e-38 351 277
0.037367038 0.66600001 -0.043205637 1.5210719e-38 352 277
0.038592618 0.667 -0.04327051 1.5118524e-38 353 277
0.039762091 0.667 -0.04327051 1.4933775e-38 354 277
0.040992931 0.66799998 -0.043335386 1.4841579e-38 355 277
0.042290401 0.67000002 -0.043465134 1.4563918e-38 356 277
0.043594878 0.67199999 -0.043594878 1.428769e-38 357 277
0.044906374 0.67400002 -0.043724626 1.4011838e-38 358 277
0.0461565 0.67500001 -0.043789499 1.3827447e-38 359 277
0.047410134 0.676 -0.043854371 1.3551236e-38 360 277
0.048739154 0.67799997 -0.043984115 1.3458681e-38 361 277
0.050075196 0.68000001 -0.044113863 1.3366489e-38 362 277
0.051418249 0.68199998 -0.044243611 1.3366489e-38 363 277
0.052691177 0.68300003 -0.044308487 1.3183539e-38 364 277
0.053888701 0.68300003 -0.044308487 1.3368289e-38 365 277
0.055086225 0.68300003 -0.044308487 1.3276836e-38 366 277
0.0011326533 0.64600003 -0.043040827 1.714362e-38 321 278
0.0034347798 0.653 -0.043507211 1.797119e-38 323 278
0.0045867199 0.65399998 -0.043573838 1.8248486e-38 324 278
0.0057333997 0.65399998 -0.043573838 1.8248486e-38 325 278
0.0068800794 0.65399998 -0.043573838 1.8523626e-38 326 278
0.0080267601 0.65399998 -0.043573838 1.8708016e-38 327 278
0.0091734398 0.65399998 -0.043573838 1.8433228e-38 328 278
0.010335899 0.65499997 -0.043640465 1.861726e-38 329 278
0.011484332 0.65499997 -0.043640465 1.861619e-38 330 278
0.012632766 0.65499997 -0.043640465 1.8523994e-38 331 278
0.013781199 0.65499997 -0.043640465 1.8340685e-38 332 278
0.014929632 0.65499997 -0.043640465 1.824813e-38 333 278
0.01612716 0.65700001 -0.043773718 1.8339247e-38 334 278
0.0172791 0.65700001 -0.043773718 1.8339247e-38 335 278
0.018459093 0.65799999 -0.043840345 1.8064092e-38 336 278
0.019612785 0.65799999 -0.043840345 1.7787864e-38 337 278
0.02076648 0.65799999 -0.043840345 1.7603464e-38 338 278
0.021886859 0.65700001 -0.043773718 1.7511269e-38 339 278
0.023038799 0.65700001 -0.043773718 1.7143565e-38 340 278
0.024190739 0.65700001 -0.043773718 1.6866618e-38 341 278
0.025342681 0.65700001 -0.043773718 1.6865915e-38 342 278
0.026534945 0.65799999 -0.043840345 1.6589688e-38 343 278
0.027688639 0.65799999 -0.043840345 1.6221275e-38 344 278
0.028886165 0.65899998 -0.043906972 1.6036883e-38 345 278
0.030132787 0.66100001 -0.044040225 1.603688e-38 346 278
0.031339079 0.662 -0.044106852 1.603688e-38 347 278
0.032548878 0.66299999 -0.044173479 1.5669895e-38 348 278
0.033762183 0.66399997 -0.044240102 1.5485864e-38 349 278
0.0349264 0.66399997 -0.044240102 1.5301833e-38 350 278
0.036090612 0.66399997 -0.044240102 1.5209637e-38 351 278
0.037367038 0.66600001 -0.04437336 1.4842663e-38 352 278
0.03853476 0.66600001 -0.04437336 1.4750107e-38 353 278
0.039762091 0.667 -0.044439986 1.4565716e-38 354 278
0.040931564 0.667 -0.044439986 1.4197293e-38 355 278
0.042101037 0.667 -0.044439986 1.3919993e-38 356 278
0.043465134 0.67000002 -0.044639867 1.3827797e-38 357 278
0.044706494 0.671 -0.044706494 1.355123e-38 358 278
0.045951359 0.67199999 -0.044773117 1.3459035e-38 359 278
0.047339998 0.67500001 -0.044972997 1.3183174e-38 360 278
0.048595384 0.676 -0.045039624 1.3183174e-38 361 278
0.049927916 0.67799997 -0.045172878 1.3183174e-38 362 278
0.051418249 0.68199998 -0.045439381 1.3275369e-38 363 278
0.052691177 0.68300003 -0.045506012 1.3184621e-38 364 278
0.053888701 0.68300003 -0.045506012 1.3184621e-38 365 278
-0.0022653067 0.64600003 -0.044173479 1.7787919e-38 318 279
-0.0011326533 0.64600003 -0.044173479 1.7603527e-38 319 279
0 0.64600003 -0.044173479 1.7970837e-38 320 279
0.0011326533 0.64600003 -0.044173479 1.8063392e-38 321 279
0.0022793331 0.64999998 -0.044446997 1.8064092e-38 322 279
0.0034347798 0.653 -0.044652138 1.8248484e-38 323 279
0.0045797066 0.653 -0.044652138 1.8432149e-38 324 279
0.0057158666 0.65200001 -0.044583756 1.8432149e-38 325 279
0.0068590399 0.65200001 -0.044583756 1.8708013e-38 326 279
0.0080144862 0.653 -0.044652138 1.8708013e-38 327 279
0.0091594132 0.653 -0.044652138 1.8616543e-38 328 279
0.010304339 0.653 -0.044652138 1.8616543e-38 329 279
0.011431733 0.65200001 -0.044583756 1.852435e-38 330 279
0.012574906 0.65200001 -0.044583756 1.8431796e-38 331 279
0.013739119 0.653 -0.044652138 1.8339953e-38 332 279
0.014884046 0.653 -0.044652138 1.8155922e-38 333 279
0.01605352 0.65399998 -0.044720516 1.8154842e-38 334 279
0.017200198 0.65399998 -0.044720516 1.8062646e-38 335 279
0.018374931 0.65499997 -0.044788897 1.7878612e-38 336 279
0.019523365 0.65499997 -0.044788897 1.7693862e-38 337 279
0.020734919 0.65700001 -0.04492566 1.7051365e-38 338 279
0.021820232 0.65499997 -0.044788897 1.695917e-38 339 279
0.022968665 0.65499997 -0.044788897 1.6958101e-38 340 279
0.024117097 0.65499997 -0.044788897 1.6681155e-38 341 279
0.025265532 0.65499997 -0.044788897 1.6497492e-38 342 279
0.026494619 0.65700001 -0.04492566 1.6312741e-38 343 279
0.027646558 0.65700001 -0.04492566 1.6036514e-38 344 279
0.028798498 0.65700001 -0.04492566 1.5852123e-38 345 279
0.029996024 0.65799999 -0.044994038 1.5853195e-38 346 279
0.031197058 0.65899998 -0.045062415 1.5760641e-38 347 279
0.032450691 0.66100001 -0.045199182 1.5485131e-38 348 279
0.033711337 0.66299999 -0.045335937 1.5485131e-38 349 279
0.034873798 0.66299999 -0.045335937 1.5117075e-38 350 279
0.036090612 0.66399997 -0.045404319 1.5117075e-38 351 279
0.037254825 0.66399997 -0.045404319 1.4748662e-38 352 279
0.03853476 0.66600001 -0.045541082 1.4656467e-38 353 279
0.039702479 0.66600001 -0.045541082 1.4196207e-38 354 279
0.040931564 0.667 -0.045609459 1.3827785e-38 355 279
0.042101037 0.667 -0.045609459 1.3918548e-38 356 279
0.043465134 0.67000002 -0.0458146 1.3918548e-38 357 279
0.044706494 0.671 -0.045882981 1.3183157e-38 358 279
0.045882981 0.671 -0.045882981 1.3183157e-38 359 279
0.047339998 0.67500001 -0.0461565 1.3182804e-38 360 279
0.048595384 0.676 -0.046224877 1.3366836e-38 361 279
0.049780637 0.676 -0.046224877 1.3183529e-38 362 279
0.051116679 0.67799997 -0.046361636 1.3367921e-38 363 279
0.052305438 0.67799997 -0.046361636 1.3093144e-38 364 279
-0.0045306133 0.64600003 -0.045306131 1.7602776e-38 316 280
-0.00339796 0.64600003 -0.045306131 1.7510581e-38 317 280
-0.0022653067 0.64600003 -0.045306131 1.7787858e-38 318 280
-0.0011326533 0.64600003 -0.045306131 1.7787858e-38 319 280
0 0.64600003 -0.045306131 1.8156641e-38 320 280
0.0011326533 0.64600003 -0.045306131 1.8156641e-38 321 280
0.0022793331 0.64999998 -0.045586664 1.8432152e-38 322 280
0.0034189997 0.64999998 -0.045586664 1.8432152e-38 323 280
0.0045586661 0.64999998 -0.045586664 1.8432152e-38 324 280
0.005698333 0.64999998 -0.045586664 1.8432152e-38 325 280
0.0068379994 0.64999998 -0.045586664 1.8248484e-38 326 280
0.0080022132 0.65200001 -0.045726933 1.8340679e-38 327 280
0.0091173323 0.64999998 -0.045586664 1.8340685e-38 328 280
0.010256999 0.64999998 -0.045586664 1.8340685e-38 329 280
0.011396666 0.64999998 -0.045586664 1.8156288e-38 330 280
0.012536332 0.64999998 -0.045586664 1.8156288e-38 331 280
0.01371808 0.65200001 -0.045726933 1.7880774e-38 332 280
0.014861252 0.65200001 -0.045726933 1.7604186e-38 333 280
0.016028972 0.653 -0.045797065 1.751055e-38 334 280
0.017200198 0.65399998 -0.045867197 1.751055e-38 335 280
0.01834688 0.65399998 -0.045867197 1.7235758e-38 336 280
0.019493559 0.65399998 -0.045867197 1.695917e-38 337 280
0.020640239 0.65399998 -0.045867197 1.659076e-38 338 280
0.021820232 0.65499997 -0.04593733 1.659076e-38 339 280
0.022968665 0.65499997 -0.04593733 1.6498211e-38 340 280
0.024117097 0.65499997 -0.04593733 1.6129429e-38 341 280
0.025265532 0.65499997 -0.04593733 1.603688e-38 342 280
0.026413966 0.65499997 -0.04593733 1.5944684e-38 343 280
0.027562398 0.65499997 -0.04593733 1.5301836e-38 344 280
0.028710833 0.65499997 -0.04593733 1.5301836e-38 345 280
0.02995044 0.65700001 -0.046077598 1.530147e-38 346 280
0.031149717 0.65799999 -0.04614773 1.5209273e-38 347 280
0.032352503 0.65899998 -0.046217863 1.4841933e-38 348 280
0.033609647 0.66100001 -0.046358135 1.4657543e-38 349 280
0.034873798 0.66299999 -0.046498399 1.4656464e-38 350 280
0.036036257 0.66299999 -0.046498399 1.4564268e-38 351 280
0.037254825 0.66399997 -0.046568532 1.4012542e-38 352 280
0.03853476 0.66600001 -0.046708796 1.3920346e-38 353 280
0.039702479 0.66600001 -0.046708796 1.3644838e-38 354 280
0.040870197 0.66600001 -0.046708796 1.3367891e-38 355 280
0.042101037 0.667 -0.046778932 1.3183863e-38 356 280
0.04327051 0.667 -0.046778932 1.3183863e-38 357 280
0.044706494 0.671 -0.047059465 1.2999128e-38 358 280
0.045882981 0.671 -0.047059465 1.3091683e-38 359 280
0.047269866 0.67400002 -0.047269866 1.2908017e-38 360 280
0.048595384 0.676 -0.047410134 1.2908017e-38 361 280
0.049780637 0.676 -0.047410134 1.3275369e-38 362 280
0.051116679 0.67799997 -0.047550395 1.3367565e-38 363 280
0.052459732 0.68000001 -0.047690667 1.3367586e-38 364 280
0.053652 0.68000001 -0.047690667 1.2814412e-38 365 280
-0.0067748795 0.64399999 -0.04629501 1.7970487e-38 314 281
-0.0056457333 0.64399999 -0.04629501 1.8062683e-38 315 281
-0.0045306133 0.64600003 -0.046438787 1.8155938e-38 316 281
-0.00339796 0.64600003 -0.046438787 1.8063742e-38 317 281
-0.0022653067 0.64600003 -0.046438787 1.788113e-38 318 281
-0.0011326533 0.64600003 -0.046438787 1.7973326e-38 319 281
0 0.64600003 -0.046438787 1.8156991e-38 320 281
0.0011326533 0.64600003 -0.046438787 1.8249187e-38 321 281
0.0022758266 0.64899999 -0.046654444 1.8339232e-38 322 281
0.0034137398 0.64899999 -0.046654444 1.8247036e-38 323 281
0.0045516533 0.64899999 -0.046654444 1.843143e-38 324 281
0.0056895665 0.64899999 -0.046654444 1.843143e-38 325 281
0.0068274797 0.64899999 -0.046654444 1.8155919e-38 326 281
0.0079653924 0.64899999 -0.046654444 1.8063724e-38 327 281
0.0091033066 0.64899999 -0.046654444 1.8063371e-38 328 281
0.01024122 0.64899999 -0.046654444 1.8063371e-38 329 281
0.011379133 0.64899999 -0.046654444 1.8062643e-38 330 281
0.012517046 0.64899999 -0.046654444 1.7786417e-38 331 281
0.013654959 0.64899999 -0.046654444 1.741907e-38 332 281
0.014792874 0.64899999 -0.046654444 1.7326875e-38 333 281
0.015955333 0.64999998 -0.046726331 1.6958098e-38 334 281
0.017147599 0.65200001 -0.046870105 1.7050293e-38 335 281
0.018290773 0.65200001 -0.046870105 1.7141766e-38 336 281
0.019463753 0.653 -0.046941992 1.6772985e-38 337 281
0.020640239 0.65399998 -0.047013879 1.6681511e-38 338 281
0.021786919 0.65399998 -0.047013879 1.6588955e-38 339 281
0.022933599 0.65399998 -0.047013879 1.6037586e-38 340 281
0.024080278 0.65399998 -0.047013879 1.5760641e-38 341 281
0.025226958 0.65399998 -0.047013879 1.585212e-38 342 281
0.02637364 0.65399998 -0.047013879 1.5667728e-38 343 281
0.027562398 0.65499997 -0.047085766 1.5208551e-38 344 281
0.028710833 0.65499997 -0.047085766 1.5116356e-38 345 281
0.029859263 0.65499997 -0.047085766 1.4565697e-38 346 281
0.031149717 0.65799999 -0.047301427 1.4565697e-38 347 281
0.032303412 0.65799999 -0.047301427 1.4656098e-38 348 281
0.033609647 0.66100001 -0.047517084 1.4471705e-38 349 281
0.034821201 0.662 -0.047588971 1.401145e-38 350 281
0.035981905 0.662 -0.047588971 1.3734863e-38 351 281
0.037254825 0.66399997 -0.047732744 1.3643033e-38 352 281
0.03853476 0.66600001 -0.047876518 1.3643033e-38 353 281
0.039702479 0.66600001 -0.047876518 1.327498e-38 354 281
0.040870197 0.66600001 -0.047876518 1.309023e-38 355 281
0.042037919 0.66600001 -0.047876518 1.2999119e-38 356 281
0.04327051 0.667 -0.047948405 1.2999119e-38 357 281
0.044706494 0.671 -0.048235953 1.3090608e-38 358 281
0.045882981 0.671 -0.048235953 1.3182804e-38 359 281
0.047269866 0.67400002 -0.048451614 1.309133e-38 360 281
0.048595384 0.676 -0.048595384 1.3183527e-38 361 281
0.049927916 0.67799997 -0.048739154 1.3183892e-38 362 281
0.051116679 0.67799997 -0.048739154 1.3276088e-38 363 281
0.052382588 0.67900002 -0.048811045 1.2631111e-38 364 281
-0.0090191467 0.64300001 -0.047350518 1.760421e-38 312 282
-0.0078917528 0.64300001 -0.047350518 1.7419817e-38 313 282
-0.0067748795 0.64399999 -0.04742416 1.8063727e-38 314 282
-0.0056457333 0.64399999 -0.04742416 1.8155922e-38 315 282
-0.0045165867 0.64399999 -0.04742416 1.8156994e-38 316 282
-0.0033874398 0.64399999 -0.04742416 1.8156994e-38 317 282
-0.0022582933 0.64399999 -0.04742416 1.8156989e-38 318 282
-0.0011291467 0.64399999 -0.04742416 1.8249543e-38 319 282
0 0.64399999 -0.04742416 1.8340306e-38 320 282
0.0011326533 0.64600003 -0.047571443 1.8063721e-38 321 282
0.0022653067 0.64600003 -0.047571443 1.7418357e-38 322 282
0.00339796 0.64600003 -0.047571443 1.7694584e-38 323 282
0.0045306133 0.64600003 -0.047571443 1.7971174e-38 324 282
0.0056720334 0.64700001 -0.047645077 1.7971174e-38 325 282
0.0068274797 0.64899999 -0.047792356 1.7787861e-38 326 282
0.0079653924 0.64899999 -0.047792356 1.7695666e-38 327 282
0.0091033066 0.64899999 -0.047792356 1.7603114e-38 328 282
0.01024122 0.64899999 -0.047792356 1.7603114e-38 329 282
0.011379133 0.64899999 -0.047792356 1.7510553e-38 330 282
0.012517046 0.64899999 -0.047792356 1.732616e-38 331 282
0.013654959 0.64899999 -0.047792356 1.7051012e-38 332 282
0.014792874 0.64899999 -0.047792356 1.6958817e-38 333 282
0.015930785 0.64899999 -0.047792356 1.6865552e-38 334 282
0.017095 0.64999998 -0.047865998 1.6773356e-38 335 282
0.018234665 0.64999998 -0.047865998 1.6680802e-38 336 282
0.019433947 0.65200001 -0.048013281 1.6588605e-38 337 282
0.02057712 0.65200001 -0.048013281 1.603723e-38 338 282
0.021753605 0.653 -0.048086919 1.5945035e-38 339 282
0.022898532 0.653 -0.048086919 1.5852839e-38 340 282
0.024080278 0.65399998 -0.048160557 1.5484415e-38 341 282
0.025226958 0.65399998 -0.048160557 1.5391867e-38 342 282
0.02637364 0.65399998 -0.048160557 1.5207117e-38 343 282
0.027562398 0.65499997 -0.048234195 1.474794e-38 344 282
0.028710833 0.65499997 -0.048234195 1.4655745e-38 345 282
0.029859263 0.65499997 -0.048234195 1.4471349e-38 346 282
0.03110238 0.65700001 -0.048381478 1.4379154e-38 347 282
0.032303412 0.65799999 -0.048455119 1.4103646e-38 348 282
0.033507951 0.65899998 -0.048528757 1.3919255e-38 349 282
0.0347686 0.66100001 -0.04867604 1.3550841e-38 350 282
0.035927553 0.66100001 -0.04867604 1.3366809e-38 351 282
0.037254825 0.66399997 -0.048896957 1.3274624e-38 352 282
0.038419038 0.66399997 -0.048896957 1.3090232e-38 353 282
0.039702479 0.66600001 -0.04904424 1.2906567e-38 354 282
0.040870197 0.66600001 -0.04904424 1.2906567e-38 355 282
0.042037919 0.66600001 -0.04904424 1.2907289e-38 356 282
0.04327051 0.667 -0.049117878 1.2907289e-38 357 282
0.044706494 0.671 -0.049412437 1.3090608e-38 358 282
0.045882981 0.671 -0.049412437 1.3090608e-38 359 282
0.047129598 0.67199999 -0.049486078 1.3182806e-38 360 282
0.048523501 0.67500001 -0.049706999 1.3366839e-38 361 282
0.049780637 0.676 -0.049780637 1.300023e-38 362 282
0.051116679 0.67799997 -0.049927916 1.281548e-38 363 282
0.052305438 0.67799997 -0.049927916 1.2078311e-38 364 282
-0.010114979 0.64099997 -0.048327126 1.7695327e-38 311 283
-0.0090191467 0.64300001 -0.04847791 1.7880427e-38 312 283
-0.0078917528 0.64300001 -0.04847791 1.7972623e-38 313 283
-0.00675384 0.64200002 -0.048402522 1.8156638e-38 314 283
-0.0056281998 0.64200002 -0.048402522 1.8156638e-38 315 283
-0.0045095733 0.64300001 -0.04847791 1.834066e-38 316 283
-0.0033874398 0.64399999 -0.048553303 1.8432855e-38 317 283
-0.0022582933 0.64399999 -0.048553303 1.8156994e-38 318 283
-0.0011291467 0.64399999 -0.048553303 1.8156994e-38 319 283
0 0.64399999 -0.048553303 1.8155572e-38 320 283
0.0011291467 0.64399999 -0.048553303 1.7878625e-38 321 283
0.0022653067 0.64600003 -0.048704095 1.7418007e-38 322 283
0.00339796 0.64600003 -0.048704095 1.7694234e-38 323 283
0.0045306133 0.64600003 -0.048704095 1.7694231e-38 324 283
0.0056632664 0.64600003 -0.048704095 1.7694231e-38 325 283
