# .PCD v.7 - Point Cloud Data file format
FIELDS x y z rgb imX imY
SIZE 4 4 4 4 4 4
TYPE F F F F F F
COUNT 1 1 1 1 1 1
WIDTH 847
HEIGHT 1
VIEWPOINT 0 0 0 1 0 0 0
POINTS 847
DATA ascii
0.011835 0.75 -0.022355 1.3087358e-38 329 257
0.01315 0.75 -0.022355 1.2995166e-38 330 257
0.014445714 0.74900001 -0.022325192 1.2995166e-38 331 257
0.01575896 0.74900001 -0.022325192 1.2994094e-38 332 257
0.017072206 0.74900001 -0.022325192 1.2994094e-38 333 257
0.018336359 0.74699998 -0.022265578 1.2993377e-38 334 257
0.019646099 0.74699998 -0.022265578 1.3269604e-38 335 257
0.020955838 0.74699998 -0.022265578 1.3087011e-38 336 257
0.022235774 0.74599999 -0.022235774 1.3363599e-38 337 257
0.023480639 0.74400002 -0.022176161 1.3640538e-38 338 257
0.02478512 0.74400002 -0.022176161 1.3732733e-38 339 257
0.026019465 0.74199998 -0.022116546 1.3917126e-38 340 257
0.027320439 0.74199998 -0.022116546 1.3917126e-38 341 257
0.028582839 0.741 -0.02208674 1.3917126e-38 342 257
0.029882059 0.741 -0.02208674 1.4009322e-38 343 257
0.03118128 0.741 -0.02208674 1.3917845e-38 344 257
0.032480497 0.741 -0.02208674 1.4010041e-38 345 257
0.033688545 0.73900002 -0.022027127 1.4101517e-38 346 257
0.034984261 0.73900002 -0.022027127 1.4285907e-38 347 257
0.036279973 0.73900002 -0.022027127 1.4285907e-38 348 257
0.037524838 0.73799998 -0.021997318 1.4285907e-38 349 257
0.038713597 0.736 -0.021937706 1.4469942e-38 350 257
0.040004052 0.736 -0.021937706 1.4469942e-38 351 257
0.041182294 0.73400003 -0.021878093 1.4654338e-38 352 257
0.042469237 0.73400003 -0.021878093 1.4562142e-38 353 257
0.043696571 0.73299998 -0.021848286 1.4563217e-38 354 257
0.044981763 0.73299998 -0.021848286 1.4378827e-38 355 257
0.046140719 0.73100001 -0.021788673 1.4562495e-38 356 257
0.047422405 0.73100001 -0.021788673 1.4562495e-38 357 257
0.048637468 0.73000002 -0.021758866 1.4562849e-38 358 257
0.049780637 0.72799999 -0.021699252 1.4562849e-38 359 257
0.051057063 0.72799999 -0.021699252 1.4562844e-38 360 257
0.052261602 0.727 -0.021669446 1.4470649e-38 361 257
0.053536277 0.727 -0.021669446 1.4562125e-38 362 257
0.054660168 0.72500002 -0.021609833 1.4746157e-38 363 257
0.055931333 0.72500002 -0.021609833 1.4746513e-38 364 257
0.057044696 0.72299999 -0.021550218 1.4746513e-38 365 257
0.058231708 0.722 -0.021520413 1.4563197e-38 366 257
0.059497613 0.722 -0.021520413 1.4563197e-38 367 257
0.060595199 0.72000003 -0.021460801 1.4838693e-38 368 257
0.061857603 0.72000003 -0.021460801 1.4746497e-38 369 257
0.06312 0.72000003 -0.021460801 1.4930157e-38 370 257
0.064382397 0.72000003 -0.021460801 1.5207104e-38 371 257
0.065644801 0.72000003 -0.021460801 1.5392217e-38 372 257
0.066814266 0.71899998 -0.021430992 1.5760641e-38 373 257
0.068074919 0.71899998 -0.021430992 1.6313094e-38 374 257
0.069142699 0.71700001 -0.021371379 1.6497846e-38 375 257
0.070399836 0.71700001 -0.021371379 1.69563e-38 376 257
0.071557038 0.71600002 -0.021341572 1.7140691e-38 377 257
0.072609037 0.71399999 -0.021281958 1.7233243e-38 378 257
0.073860914 0.71399999 -0.021281958 1.7233243e-38 379 257
0.075112797 0.71399999 -0.021281958 1.7233243e-38 380 257
0.076364681 0.71399999 -0.021281958 1.7233243e-38 381 257
0.07761655 0.71399999 -0.021281958 1.7417277e-38 382 257
0.078868434 0.71399999 -0.021281958 1.7509472e-38 383 257
0.080120318 0.71399999 -0.021281958 1.7325804e-38 384 257
0.08125823 0.713 -0.021252153 1.7325804e-38 385 257
0.082276918 0.71100003 -0.021192541 1.7233611e-38 386 257
0.083523542 0.71100003 -0.021192541 1.7141057e-38 387 257
0.085008614 0.713 -0.021252153 1.6865552e-38 388 257
0.086258732 0.713 -0.021252153 1.6865552e-38 389 257
-0.079894133 0.74699998 -0.023575317 1.8068917e-38 259 258
-0.078584395 0.74699998 -0.023575317 1.7330939e-38 260 258
-0.07727465 0.74699998 -0.023575317 1.5210439e-38 261 258
-0.07596492 0.74699998 -0.023575317 1.6681198e-38 262 258
-0.074855059 0.74900001 -0.02363844 1.6589003e-38 263 258
-0.073541813 0.74900001 -0.02363844 1.6036547e-38 264 258
-0.072035693 0.74699998 -0.023575317 1.5760318e-38 265 258
-0.070631281 0.74599999 -0.023543758 1.5759962e-38 266 258
-0.069137439 0.74400002 -0.023480639 1.5575571e-38 267 258
-0.067832954 0.74400002 -0.023480639 1.5575574e-38 268 258
-0.066528477 0.74400002 -0.023480639 1.5483378e-38 269 258
-0.065048665 0.74199998 -0.023417519 1.5207512e-38 270 258
-0.063747689 0.74199998 -0.023417519 1.5299707e-38 271 258
-0.062446713 0.74199998 -0.023417519 1.4747961e-38 272 258
-0.061145745 0.74199998 -0.023417519 1.4194788e-38 273 258
-0.05984477 0.74199998 -0.023417519 1.3735605e-38 274 258
-0.058543798 0.74199998 -0.023417519 1.3459019e-38 275 258
-0.057242822 0.74199998 -0.023417519 1.3734177e-38 276 258
-0.05594185 0.74199998 -0.023417519 1.3641981e-38 277 258
-0.054640878 0.74199998 -0.023417519 1.3366121e-38 278 258
-0.053339902 0.74199998 -0.023417519 1.3366121e-38 279 258
-0.052179199 0.74400002 -0.023480639 1.3273573e-38 280 258
-0.050874721 0.74400002 -0.023480639 1.3365768e-38 281 258
-0.04970349 0.74599999 -0.023543758 1.3365049e-38 282 258
-0.048395503 0.74599999 -0.023543758 1.3365049e-38 283 258
-0.047150634 0.74699998 -0.023575317 1.3273573e-38 284 258
-0.045840897 0.74699998 -0.023575317 1.3181377e-38 285 258
-0.044531155 0.74699998 -0.023575317 1.3088826e-38 286 258
-0.04333714 0.74900001 -0.02363844 1.2904794e-38 287 258
-0.042023893 0.74900001 -0.02363844 1.2903715e-38 288 258
-0.040710647 0.74900001 -0.02363844 1.2627128e-38 289 258
-0.0393974 0.74900001 -0.02363844 1.2350895e-38 290 258
-0.038135 0.75 -0.023669999 1.1889917e-38 291 258
-0.036918186 0.75199997 -0.023733119 1.1798437e-38 292 258
-0.035599679 0.75199997 -0.023733119 1.1890633e-38 293 258
-0.034372345 0.75400001 -0.02379624 1.1983184e-38 294 258
-0.033050332 0.75400001 -0.02379624 1.207538e-38 295 258
-0.03172832 0.75400001 -0.02379624 1.1893141e-38 296 258
-0.030406307 0.75400001 -0.02379624 1.1985337e-38 297 258
-0.029084291 0.75400001 -0.02379624 1.207645e-38 298 258
-0.027762281 0.75400001 -0.02379624 1.207645e-38 299 258
-0.026440267 0.75400001 -0.02379624 1.2076806e-38 300 258
-0.025118252 0.75400001 -0.02379624 1.2169002e-38 301 258
-0.023827799 0.755 -0.023827799 1.2260482e-38 302 258
-0.022504034 0.755 -0.023827799 1.2260482e-38 303 258
-0.021236373 0.75700003 -0.02389092 1.2443441e-38 304 258
-0.019909101 0.75700003 -0.02389092 1.2351245e-38 305 258
-0.018532733 0.755 -0.023827799 1.2351248e-38 306 258
-0.017208965 0.755 -0.023827799 1.2351248e-38 307 258
-0.015927281 0.75700003 -0.02389092 1.2351245e-38 308 258
-0.014542146 0.75400001 -0.02379624 1.2351245e-38 309 258
-0.013220133 0.75400001 -0.02379624 1.2351242e-38 310 258
-0.011913899 0.755 -0.023827799 1.2443438e-38 311 258
-0.010590133 0.755 -0.023827799 1.2443438e-38 312 258
-0.0092663663 0.755 -0.023827799 1.2443438e-38 313 258
-0.0079425992 0.755 -0.023827799 1.2443443e-38 314 258
-0.0066188332 0.755 -0.023827799 1.2443443e-38 315 258
-0.0052950666 0.755 -0.023827799 1.2626403e-38 316 258
-0.0039712996 0.755 -0.023827799 1.2626403e-38 317 258
-0.0026475333 0.755 -0.023827799 1.2626403e-38 318 258
-0.0013237667 0.755 -0.023827799 1.2626403e-38 319 258
0 0.75400001 -0.02379624 1.2810075e-38 320 258
0.0013220133 0.75400001 -0.02379624 1.2810075e-38 321 258
0.0026440267 0.75400001 -0.02379624 1.2718951e-38 322 258
0.00396604 0.75400001 -0.02379624 1.2718951e-38 323 258
0.0052880533 0.75400001 -0.02379624 1.2719658e-38 324 258
0.0066100666 0.75400001 -0.02379624 1.2719658e-38 325 258
0.0079110395 0.75199997 -0.023733119 1.2719652e-38 326 258
0.0092295464 0.75199997 -0.023733119 1.2719652e-38 327 258
0.010548052 0.75199997 -0.023733119 1.2811488e-38 328 258
0.011835 0.75 -0.023669999 1.2811488e-38 329 258
0.01315 0.75 -0.023669999 1.2811132e-38 330 258
0.014465 0.75 -0.023669999 1.2995163e-38 331 258
0.01578 0.75 -0.023669999 1.2904046e-38 332 258
0.017072206 0.74900001 -0.02363844 1.2904046e-38 333 258
0.018385453 0.74900001 -0.02363844 1.281185e-38 334 258
0.019646099 0.74699998 -0.023575317 1.281185e-38 335 258
0.020955838 0.74699998 -0.023575317 1.3178838e-38 336 258
0.022235774 0.74599999 -0.023543758 1.3455425e-38 337 258
0.023480639 0.74400002 -0.023480639 1.3364305e-38 338 258
0.02478512 0.74400002 -0.023480639 1.3456501e-38 339 258
0.026089599 0.74400002 -0.023480639 1.3640532e-38 340 258
0.027320439 0.74199998 -0.023417519 1.3732728e-38 341 258
0.028582839 0.741 -0.023385961 1.3732728e-38 342 258
0.029882059 0.741 -0.023385961 1.3825282e-38 343 258
0.03118128 0.741 -0.023385961 1.3825282e-38 344 258
0.032480497 0.741 -0.023385961 1.3825282e-38 345 258
0.033688545 0.73900002 -0.023322839 1.4100074e-38 346 258
0.034984261 0.73900002 -0.023322839 1.4192271e-38 347 258
0.036279973 0.73900002 -0.023322839 1.4100791e-38 348 258
0.037524838 0.73799998 -0.023291279 1.4192987e-38 349 258
0.038713597 0.736 -0.023228159 1.4285185e-38 350 258
0.040004052 0.736 -0.023228159 1.4377381e-38 351 258
0.041182294 0.73400003 -0.023165042 1.4377381e-38 352 258
0.042469237 0.73400003 -0.023165042 1.4469577e-38 353 258
0.043696571 0.73299998 -0.023133477 1.4469933e-38 354 258
0.044981763 0.73299998 -0.023133477 1.4469933e-38 355 258
0.046140719 0.73100001 -0.02307036 1.4378453e-38 356 258
0.047422405 0.73100001 -0.02307036 1.4378453e-38 357 258
0.048637468 0.73000002 -0.023038799 1.4469933e-38 358 258
0.049780637 0.72799999 -0.022975679 1.4469933e-38 359 258
0.051057063 0.72799999 -0.022975679 1.4562128e-38 360 258
0.052261602 0.727 -0.022944121 1.4469933e-38 361 258
0.053536277 0.727 -0.022944121 1.4653245e-38 362 258
0.054660168 0.72500002 -0.022880999 1.4653245e-38 363 258
0.055777039 0.72299999 -0.02281788 1.4378453e-38 364 258
0.056965802 0.722 -0.022786319 1.4378453e-38 365 258
0.058231708 0.722 -0.022786319 1.4470283e-38 366 258
0.059497613 0.722 -0.022786319 1.4470283e-38 367 258
0.060595199 0.72000003 -0.022723202 1.4652874e-38 368 258
0.061857603 0.72000003 -0.022723202 1.4652874e-38 369 258
0.06312 0.72000003 -0.022723202 1.4469552e-38 370 258
0.064382397 0.72000003 -0.022723202 1.4469552e-38 371 258
0.065553628 0.71899998 -0.022691639 1.3456096e-38 372 258
0.066628419 0.71700001 -0.02262852 1.3271346e-38 373 258
0.067885563 0.71700001 -0.02262852 1.4102181e-38 374 258
0.069046266 0.71600002 -0.022596961 1.5208529e-38 375 258
0.070301652 0.71600002 -0.022596961 1.5944672e-38 376 258
0.071357153 0.71399999 -0.022533838 1.6313094e-38 377 258
0.072609037 0.71399999 -0.022533838 1.6772632e-38 378 258
0.07375747 0.713 -0.022502279 1.6680435e-38 379 258
0.075007595 0.713 -0.022502279 1.6956653e-38 380 258
0.076257721 0.713 -0.022502279 1.7048849e-38 381 258
0.077507854 0.713 -0.022502279 1.7232161e-38 382 258
0.078757972 0.713 -0.022502279 1.7324357e-38 383 258
0.080008104 0.713 -0.022502279 1.723289e-38 384 258
0.081030294 0.71100003 -0.022439159 1.723289e-38 385 258
0.082276918 0.71100003 -0.022439159 1.7140694e-38 386 258
0.083523542 0.71100003 -0.022439159 1.7048498e-38 387 258
0.084770165 0.71100003 -0.022439159 1.6865183e-38 388 258
0.085895792 0.70999998 -0.022407599 1.6865183e-38 389 258
0.087140657 0.70999998 -0.022407599 1.6314177e-38 390 258
0.08838553 0.70999998 -0.022407599 1.6314177e-38 391 258
0.089630395 0.70999998 -0.022407599 1.5946177e-38 392 258
0.090875261 0.70999998 -0.022407599 1.6406796e-38 393 258
-0.078584395 0.74699998 -0.024885058 1.71469e-38 260 259
-0.07727465 0.74699998 -0.024885058 1.5118597e-38 261 259
-0.07596492 0.74699998 -0.024885058 1.6313139e-38 262 259
-0.074655175 0.74699998 -0.024885058 1.6036193e-38 263 259
-0.073345438 0.74699998 -0.024885058 1.5575218e-38 264 259
-0.07193926 0.74599999 -0.024851745 1.5483022e-38 265 259
-0.07025256 0.74199998 -0.024718491 1.5023849e-38 266 259
-0.068951584 0.74199998 -0.024718491 1.4931652e-38 267 259
-0.067832954 0.74400002 -0.02478512 1.5114608e-38 268 259
-0.066349633 0.74199998 -0.024718491 1.5114608e-38 269 259
-0.064960994 0.741 -0.024685178 1.4840526e-38 270 259
-0.063661776 0.741 -0.024685178 1.4656495e-38 271 259
-0.062362559 0.741 -0.024685178 1.4287706e-38 272 259
-0.061145745 0.74199998 -0.024718491 1.3734533e-38 273 259
-0.05984477 0.74199998 -0.024718491 1.3182809e-38 274 259
-0.058543798 0.74199998 -0.024718491 1.3182809e-38 275 259
-0.057242822 0.74199998 -0.024718491 1.3365771e-38 276 259
-0.05594185 0.74199998 -0.024718491 1.3273217e-38 277 259
-0.054640878 0.74199998 -0.024718491 1.3089905e-38 278 259
-0.053339902 0.74199998 -0.024718491 1.3089905e-38 279 259
-0.052179199 0.74400002 -0.02478512 1.3089905e-38 280 259
-0.050874721 0.74400002 -0.02478512 1.2997709e-38 281 259
-0.04970349 0.74599999 -0.024851745 1.3181377e-38 282 259
-0.048395503 0.74599999 -0.024851745 1.3181377e-38 283 259
-0.047150634 0.74699998 -0.024885058 1.3181374e-38 284 259
-0.045840897 0.74699998 -0.024885058 1.2905148e-38 285 259
-0.044531155 0.74699998 -0.024885058 1.3088107e-38 286 259
-0.04333714 0.74900001 -0.024951685 1.2903715e-38 287 259
-0.042023893 0.74900001 -0.024951685 1.2627484e-38 288 259
-0.040710647 0.74900001 -0.024951685 1.2535289e-38 289 259
-0.039449997 0.75 -0.024984999 1.2168646e-38 290 259
-0.038135 0.75 -0.024984999 1.1892418e-38 291 259
-0.036918186 0.75199997 -0.025051624 1.1801291e-38 292 259
-0.035599679 0.75199997 -0.025051624 1.1801291e-38 293 259
-0.034372345 0.75400001 -0.025118252 1.1892418e-38 294 259
-0.033050332 0.75400001 -0.025118252 1.207645e-38 295 259
-0.03172832 0.75400001 -0.025118252 1.1892785e-38 296 259
-0.030446632 0.755 -0.025151566 1.1892785e-38 297 259
-0.029122867 0.755 -0.025151566 1.1893507e-38 298 259
-0.027762281 0.75400001 -0.025118252 1.1617279e-38 299 259
-0.026440267 0.75400001 -0.025118252 1.1892791e-38 300 259
-0.025151566 0.755 -0.025151566 1.1800235e-38 301 259
-0.023827799 0.755 -0.025151566 1.1800242e-38 302 259
-0.022504034 0.755 -0.025151566 1.1707686e-38 303 259
0.010548052 0.75199997 -0.025051624 1.2075383e-38 328 259
0.011866559 0.75199997 -0.025051624 1.2075383e-38 329 259
0.013185065 0.75199997 -0.025051624 1.2167582e-38 330 259
0.014503572 0.75199997 -0.025051624 1.2259778e-38 331 259
0.015822079 0.75199997 -0.025051624 1.244416e-38 332 259
0.017095 0.75 -0.024984999 1.244416e-38 333 259
0.018409999 0.75 -0.024984999 1.2535992e-38 334 259
0.0196987 0.74900001 -0.024951685 1.2628188e-38 335 259
0.020955838 0.74699998 -0.024885058 1.2903699e-38 336 259
0.022265578 0.74699998 -0.024885058 1.2995894e-38 337 259
0.023543758 0.74599999 -0.024851745 1.2813302e-38 338 259
0.02478512 0.74400002 -0.02478512 1.2905498e-38 339 259
0.026089599 0.74400002 -0.02478512 1.3088807e-38 340 259
0.027320439 0.74199998 -0.024718491 1.3181362e-38 341 259
0.028621411 0.74199998 -0.024718491 1.3089882e-38 342 259
0.029922385 0.74199998 -0.024718491 1.3182078e-38 343 259
0.03118128 0.741 -0.024685178 1.3364674e-38 344 259
0.032480497 0.741 -0.024685178 1.345687e-38 345 259
0.033779722 0.741 -0.024685178 1.3731661e-38 346 259
0.034984261 0.73900002 -0.024618553 1.3823857e-38 347 259
0.036279973 0.73900002 -0.024618553 1.373238e-38 348 259
0.037524838 0.73799998 -0.024585238 1.373238e-38 349 259
0.038713597 0.736 -0.024518613 1.3640908e-38 350 259
0.040004052 0.736 -0.024518613 1.3640908e-38 351 259
0.041182294 0.73400003 -0.024451986 1.3916423e-38 352 259
0.042469237 0.73400003 -0.024451986 1.4008618e-38 353 259
0.043756187 0.73400003 -0.024451986 1.3917139e-38 354 259
0.044981763 0.73299998 -0.024418673 1.3917139e-38 355 259
0.046266954 0.73299998 -0.024418673 1.3917139e-38 356 259
0.047422405 0.73100001 -0.024352046 1.4009693e-38 357 259
0.048637468 0.73000002 -0.024318734 1.4101889e-38 358 259
0.049780637 0.72799999 -0.024252106 1.4101889e-38 359 259
0.051057063 0.72799999 -0.024252106 1.4101886e-38 360 259
0.052261602 0.727 -0.024218792 1.4101886e-38 361 259
0.053536277 0.727 -0.024218792 1.4285551e-38 362 259
0.054509375 0.72299999 -0.024085538 1.4377747e-38 363 259
0.055777039 0.72299999 -0.024085538 1.4285904e-38 364 259
0.056965802 0.722 -0.024052227 1.4285904e-38 365 259
0.058231708 0.722 -0.024052227 1.4377381e-38 366 259
0.059332799 0.72000003 -0.0239856 1.4285185e-38 367 259
0.060595199 0.72000003 -0.0239856 1.4285185e-38 368 259
0.061857603 0.72000003 -0.0239856 1.4285185e-38 369 259
0.063032329 0.71899998 -0.023952285 1.4100791e-38 370 259
0.064292975 0.71899998 -0.023952285 1.4100791e-38 371 259
0.065553628 0.71899998 -0.023952285 1.3179169e-38 372 259
0.066535495 0.71600002 -0.023852346 1.1980625e-38 373 259
0.067790881 0.71600002 -0.023852346 1.2903288e-38 374 259
0.068853401 0.71399999 -0.02378572 1.4009636e-38 375 259
0.070105277 0.71399999 -0.02378572 1.5023804e-38 376 259
0.071357153 0.71399999 -0.02378572 1.5484782e-38 377 259
0.072507344 0.713 -0.023752406 1.6127631e-38 378 259
0.07375747 0.713 -0.023752406 1.6219827e-38 379 259
0.075007595 0.713 -0.023752406 1.6588592e-38 380 259
0.076257721 0.713 -0.023752406 1.6588592e-38 381 259
0.077290438 0.71100003 -0.023685781 1.6588955e-38 382 259
0.078537062 0.71100003 -0.023685781 1.6681511e-38 383 259
0.079783678 0.71100003 -0.023685781 1.6680807e-38 384 259
0.081030294 0.71100003 -0.023685781 1.6773003e-38 385 259
0.082161188 0.70999998 -0.023652466 1.6772647e-38 386 259
0.083406061 0.70999998 -0.023652466 1.6772647e-38 387 259
0.084650926 0.70999998 -0.023652466 1.6772635e-38 388 259
0.085895792 0.70999998 -0.023652466 1.686483e-38 389 259
0.087140657 0.70999998 -0.023652466 1.6772647e-38 390 259
0.088136561 0.708 -0.023585839 1.6772647e-38 391 259
0.089377917 0.708 -0.023585839 1.5852864e-38 392 259
0.090619281 0.708 -0.023585839 1.5484082e-38 393 259
0.091860637 0.708 -0.023585839 1.5122196e-38 394 259
-0.078584395 0.74699998 -0.026194798 1.6685922e-38 260 260
-0.07727465 0.74699998 -0.026194798 1.4842011e-38 261 260
-0.07596492 0.74699998 -0.026194798 1.5761037e-38 262 260
-0.074655175 0.74699998 -0.026194798 1.530006e-38 263 260
-0.073247254 0.74599999 -0.026159734 1.5298261e-38 264 260
-0.07193926 0.74599999 -0.026159734 1.5206066e-38 265 260
-0.07025256 0.74199998 -0.026019465 1.50224e-38 266 260
-0.068951584 0.74199998 -0.026019465 1.50224e-38 267 260
-0.067650609 0.74199998 -0.026019465 1.5022397e-38 268 260
-0.066349633 0.74199998 -0.026019465 1.5022397e-38 269 260
-0.064960994 0.741 -0.025984399 1.4563567e-38 270 260
-0.063661776 0.741 -0.025984399 1.3734167e-38 271 260
-0.062362559 0.741 -0.025984399 1.3824926e-38 272 260
-0.061063338 0.741 -0.025984399 1.3640535e-38 273 260
-0.05984477 0.74199998 -0.026019465 1.3273923e-38 274 260
-0.058543798 0.74199998 -0.026019465 1.3273923e-38 275 260
-0.057242822 0.74199998 -0.026019465 1.3272851e-38 276 260
-0.05594185 0.74199998 -0.026019465 1.3272851e-38 277 260
-0.054640878 0.74199998 -0.026019465 1.3181374e-38 278 260
-0.05348368 0.74400002 -0.026089599 1.3181374e-38 279 260
-0.052179199 0.74400002 -0.026089599 1.3181371e-38 280 260
-0.050874721 0.74400002 -0.026089599 1.3181371e-38 281 260
-0.04970349 0.74599999 -0.026159734 1.3181727e-38 282 260
-0.048395503 0.74599999 -0.026159734 1.3181727e-38 283 260
-0.047150634 0.74699998 -0.026194798 1.3181727e-38 284 260
-0.045840897 0.74699998 -0.026194798 1.3089532e-38 285 260
-0.044650383 0.74900001 -0.026264934 1.2904067e-38 286 260
-0.04333714 0.74900001 -0.026264934 1.2811513e-38 287 260
-0.042023893 0.74900001 -0.026264934 1.2627482e-38 288 260
-0.040710647 0.74900001 -0.026264934 1.2535286e-38 289 260
-0.039449997 0.75 -0.0263 1.2168652e-38 290 260
-0.038236689 0.75199997 -0.02637013 1.2076456e-38 291 260
0.021011947 0.74900001 -0.026264934 1.2808979e-38 336 260
0.022265578 0.74699998 -0.026194798 1.2993731e-38 337 260
0.023543758 0.74599999 -0.026159734 1.2994449e-38 338 260
0.024851745 0.74599999 -0.026159734 1.3086645e-38 339 260
0.026159734 0.74599999 -0.026159734 1.3087361e-38 340 260
0.027394081 0.74400002 -0.026089599 1.3087361e-38 341 260
0.028621411 0.74199998 -0.026019465 1.3179557e-38 342 260
0.029922385 0.74199998 -0.026019465 1.3271754e-38 343 260
0.031223357 0.74199998 -0.026019465 1.3271757e-38 344 260
0.032480497 0.741 -0.025984399 1.3271757e-38 345 260
0.033779722 0.741 -0.025984399 1.3639097e-38 346 260
0.035078939 0.741 -0.025984399 1.3639097e-38 347 260
0.036279973 0.73900002 -0.025914267 1.3822765e-38 348 260
0.037575684 0.73900002 -0.025914267 1.3822765e-38 349 260
0.038818799 0.73799998 -0.025879199 1.3822765e-38 350 260
0.040004052 0.736 -0.025809066 1.3822765e-38 351 260
0.041182294 0.73400003 -0.025738932 1.3730211e-38 352 260
0.042469237 0.73400003 -0.025738932 1.3730211e-38 353 260
0.043756187 0.73400003 -0.025738932 1.3454702e-38 354 260
0.044981763 0.73299998 -0.025703866 1.3454702e-38 355 260
0.046266954 0.73299998 -0.025703866 1.3454702e-38 356 260
0.047422405 0.73100001 -0.025633732 1.3639094e-38 357 260
0.048637468 0.73000002 -0.025598666 1.4190469e-38 358 260
0.0499174 0.73000002 -0.025598666 1.437486e-38 359 260
0.051057063 0.72799999 -0.025528532 1.446706e-38 360 260
0.052261602 0.727 -0.025493465 1.4743287e-38 361 260
0.053536277 0.727 -0.025493465 1.4468854e-38 362 260
0.054509375 0.72299999 -0.025353199 1.4561049e-38 363 260
0.055777039 0.72299999 -0.025353199 1.4285539e-38 364 260
0.056965802 0.722 -0.025318133 1.4285539e-38 365 260
0.058231708 0.722 -0.025318133 1.4192624e-38 366 260
0.059332799 0.72000003 -0.025248 1.4192624e-38 367 260
0.060595199 0.72000003 -0.025248 1.4283383e-38 368 260
0.061857603 0.72000003 -0.025248 1.437558e-38 369 260
0.063032329 0.71899998 -0.025212931 1.4100421e-38 370 260
0.064114138 0.71700001 -0.0251428 1.3823835e-38 371 260
0.065371275 0.71700001 -0.0251428 1.3362135e-38 372 260
0.066535495 0.71600002 -0.025107734 1.2993351e-38 373 260
0.067790881 0.71600002 -0.025107734 1.2902954e-38 374 260
0.068853401 0.71399999 -0.025037598 1.364052e-38 375 260
0.070105277 0.71399999 -0.025037598 1.4378438e-38 376 260
0.071257219 0.713 -0.025002534 1.4562829e-38 377 260
0.072507344 0.713 -0.025002534 1.529787e-38 378 260
0.073550582 0.71100003 -0.024932399 1.5574457e-38 379 260
0.074797198 0.71100003 -0.024932399 1.6126538e-38 380 260
0.076043822 0.71100003 -0.024932399 1.6310931e-38 381 260
0.077290438 0.71100003 -0.024932399 1.6495672e-38 382 260
0.0784266 0.70999998 -0.024897331 1.6495672e-38 383 260
0.079671465 0.70999998 -0.024897331 1.6771539e-38 384 260
0.08091633 0.70999998 -0.024897331 1.6863734e-38 385 260
0.082161188 0.70999998 -0.024897331 1.6863381e-38 386 260
0.083406061 0.70999998 -0.024897331 1.6863381e-38 387 260
0.084650926 0.70999998 -0.024897331 1.6863384e-38 388 260
0.085895792 0.70999998 -0.024897331 1.6863384e-38 389 260
0.087140657 0.70999998 -0.024897331 1.6680788e-38 390 260
0.088136561 0.708 -0.024827199 1.6588592e-38 391 260
0.089377917 0.708 -0.024827199 1.631345e-38 392 260
0.090619281 0.708 -0.024827199 1.6220896e-38 393 260
0.091860637 0.708 -0.024827199 1.5578468e-38 394 260
0.093364999 0.70999998 -0.024897331 1.5854694e-38 395 260
-0.078584395 0.74699998 -0.027504537 1.6226023e-38 260 261
-0.077171214 0.74599999 -0.027467718 1.4289915e-38 261 261
-0.07586322 0.74599999 -0.027467718 1.5207865e-38 262 261
-0.074555233 0.74599999 -0.027467718 1.5023472e-38 263 261
-0.073050879 0.74400002 -0.027394081 1.5022397e-38 264 261
-0.071553528 0.74199998 -0.027320439 1.4838006e-38 265 261
-0.070157878 0.741 -0.027283618 1.4654706e-38 266 261
-0.068858653 0.741 -0.027283618 1.4562511e-38 267 261
-0.067559443 0.741 -0.027283618 1.4563217e-38 268 261
-0.066260219 0.741 -0.027283618 1.4194435e-38 269 261
-0.064960994 0.741 -0.027283618 1.3734883e-38 270 261
-0.063661776 0.741 -0.027283618 1.33661e-38 271 261
-0.062362559 0.741 -0.027283618 1.2998765e-38 272 261
-0.061063338 0.741 -0.027283618 1.2998765e-38 273 261
-0.05984477 0.74199998 -0.027320439 1.2906582e-38 274 261
-0.058543798 0.74199998 -0.027320439 1.2906582e-38 275 261
-0.057242822 0.74199998 -0.027320439 1.2906582e-38 276 261
-0.05594185 0.74199998 -0.027320439 1.2906582e-38 277 261
-0.054640878 0.74199998 -0.027320439 1.2905866e-38 278 261
-0.053339902 0.74199998 -0.027320439 1.2905866e-38 279 261
-0.052179199 0.74400002 -0.027394081 1.2905866e-38 280 261
-0.051011477 0.74599999 -0.027467718 1.2905866e-38 281 261
-0.04970349 0.74599999 -0.027467718 1.2905864e-38 282 261
-0.048460379 0.74699998 -0.027504537 1.2905864e-38 283 261
-0.047150634 0.74699998 -0.027504537 1.2813312e-38 284 261
-0.045840897 0.74699998 -0.027504537 1.2537084e-38 285 261
-0.044650383 0.74900001 -0.027578179 1.2811518e-38 286 261
-0.04333714 0.74900001 -0.027578179 1.2627128e-38 287 261
-0.042023893 0.74900001 -0.027578179 1.1984633e-38 288 261
-0.040764999 0.75 -0.027615 1.1892438e-38 289 261
0.024851745 0.74599999 -0.027467718 1.2350172e-38 339 261
0.027394081 0.74400002 -0.027394081 1.2443088e-38 341 261
0.02869856 0.74400002 -0.027394081 1.2443806e-38 342 261
0.030003037 0.74400002 -0.027394081 1.2536002e-38 343 261
0.031307522 0.74400002 -0.027394081 1.2627838e-38 344 261
0.032524332 0.74199998 -0.027320439 1.2811869e-38 345 261
0.033825304 0.74199998 -0.027320439 1.3087014e-38 346 261
0.035078939 0.741 -0.027283618 1.3179209e-38 347 261
0.036378156 0.741 -0.027283618 1.3271039e-38 348 261
0.037575684 0.73900002 -0.027209979 1.3271039e-38 349 261
0.038818799 0.73799998 -0.027173158 1.3179557e-38 350 261
0.040004052 0.736 -0.02709952 1.3179557e-38 351 261
0.041182294 0.73400003 -0.02702588 1.3271036e-38 352 261
0.042469237 0.73400003 -0.02702588 1.3086645e-38 353 261
0.043756187 0.73400003 -0.02702588 1.2994094e-38 354 261
0.044981763 0.73299998 -0.026989058 1.2533474e-38 355 261
0.046266954 0.73299998 -0.026989058 1.2533469e-38 356 261
0.047422405 0.73100001 -0.026915418 1.2810055e-38 357 261
0.048637468 0.73000002 -0.026878599 1.2811134e-38 358 261
0.0499174 0.73000002 -0.026878599 1.3087361e-38 359 261
0.051057063 0.72799999 -0.026804959 1.3546902e-38 360 261
0.052261602 0.727 -0.026768139 1.3915324e-38 361 261
0.053536277 0.727 -0.026768139 1.3824563e-38 362 261
0.054509375 0.72299999 -0.026620859 1.3916759e-38 363 261
0.055777039 0.72299999 -0.026620859 1.3824926e-38 364 261
0.056965802 0.722 -0.026584039 1.3732731e-38 365 261
0.058231708 0.722 -0.026584039 1.3731659e-38 366 261
0.059332799 0.72000003 -0.026510401 1.3547267e-38 367 261
0.060595199 0.72000003 -0.026510401 1.3456151e-38 368 261
0.061857603 0.72000003 -0.026510401 1.3456151e-38 369 261
0.063032329 0.71899998 -0.02647358 1.354762e-38 370 261
0.064114138 0.71700001 -0.02639994 1.3271034e-38 371 261
0.06528011 0.71600002 -0.026363119 1.2992995e-38 372 261
0.066535495 0.71600002 -0.026363119 1.2532377e-38 373 261
0.067601517 0.71399999 -0.026289478 1.3087349e-38 374 261
0.068853401 0.71399999 -0.026289478 1.3640522e-38 375 261
0.070105277 0.71399999 -0.026289478 1.3918195e-38 376 261
0.071257219 0.713 -0.026252659 1.4102586e-38 377 261
0.072303966 0.71100003 -0.026179021 1.4652876e-38 378 261
0.073550582 0.71100003 -0.026179021 1.5021657e-38 379 261
0.074797198 0.71100003 -0.026179021 1.5206754e-38 380 261
0.076043822 0.71100003 -0.026179021 1.5298949e-38 381 261
0.077181734 0.70999998 -0.026142199 1.5484766e-38 382 261
0.0784266 0.70999998 -0.026142199 1.5760994e-38 383 261
0.079671465 0.70999998 -0.026142199 1.6219811e-38 384 261
0.08091633 0.70999998 -0.026142199 1.6588592e-38 385 261
0.082161188 0.70999998 -0.026142199 1.6496043e-38 386 261
0.083406061 0.70999998 -0.026142199 1.6496043e-38 387 261
0.084650926 0.70999998 -0.026142199 1.658752e-38 388 261
0.085895792 0.70999998 -0.026142199 1.658752e-38 389 261
0.086895198 0.708 -0.026068559 1.6312728e-38 390 261
0.088136561 0.708 -0.026068559 1.6312728e-38 391 261
0.089377917 0.708 -0.026068559 1.6037233e-38 392 261
0.090619281 0.708 -0.026068559 1.6037233e-38 393 261
0.091860637 0.708 -0.026068559 1.5484805e-38 394 261
0.093101993 0.708 -0.026068559 1.5300414e-38 395 261
0.094343357 0.708 -0.026068559 1.5581745e-38 396 261
-0.077171214 0.74599999 -0.028775707 1.3551625e-38 261 262
-0.07586322 0.74599999 -0.028775707 1.446993e-38 262 262
-0.074055538 0.741 -0.028582839 1.4562125e-38 263 262
-0.072756313 0.741 -0.028582839 1.502095e-38 264 262
-0.071457103 0.741 -0.028582839 1.502095e-38 265 262
-0.069968522 0.73900002 -0.028505694 1.4562498e-38 266 262
-0.068672806 0.73900002 -0.028505694 1.4469942e-38 267 262
-0.067559443 0.741 -0.028582839 1.4378103e-38 268 262
-0.066260219 0.741 -0.028582839 1.3824929e-38 269 262
-0.064960994 0.741 -0.028582839 1.3089516e-38 270 262
-0.063661776 0.741 -0.028582839 1.3089516e-38 271 262
-0.062362559 0.741 -0.028582839 1.2906214e-38 272 262
-0.061063338 0.741 -0.028582839 1.2906214e-38 273 262
-0.05984477 0.74199998 -0.028621411 1.2906582e-38 274 262
-0.058543798 0.74199998 -0.028621411 1.2722551e-38 275 262
-0.057242822 0.74199998 -0.028621411 1.2722549e-38 276 262
-0.05594185 0.74199998 -0.028621411 1.2722549e-38 277 262
-0.054640878 0.74199998 -0.028621411 1.2814018e-38 278 262
-0.053339902 0.74199998 -0.028621411 1.2814018e-38 279 262
-0.052319467 0.74599999 -0.028775707 1.2814021e-38 280 262
-0.051011477 0.74599999 -0.028775707 1.2814021e-38 281 262
-0.049770117 0.74699998 -0.028814279 1.2721116e-38 282 262
-0.048460379 0.74699998 -0.028814279 1.2721116e-38 283 262
-0.047150634 0.74699998 -0.028814279 1.2536732e-38 284 262
0.03512628 0.74199998 -0.028621411 1.2994444e-38 347 262
0.036378156 0.741 -0.028582839 1.3177759e-38 348 262
0.037677377 0.741 -0.028582839 1.3269955e-38 349 262
0.0388714 0.73900002 -0.028505694 1.2995166e-38 350 262
0.040112756 0.73799998 -0.028467119 1.3087361e-38 351 262
0.041294504 0.736 -0.028389972 1.3087361e-38 352 262
0.042469237 0.73400003 -0.028312827 1.2995166e-38 353 262
0.043756187 0.73400003 -0.028312827 1.2901529e-38 354 262
0.045043133 0.73400003 -0.028312827 1.2163963e-38 355 262
0.046266954 0.73299998 -0.028274251 1.1979569e-38 356 262
0.047422405 0.73100001 -0.028197108 1.1979569e-38 357 262
0.048637468 0.73000002 -0.028158534 1.1979221e-38 358 262
0.0499174 0.73000002 -0.028158534 1.225581e-38 359 262
0.051057063 0.72799999 -0.028081384 1.2346572e-38 360 262
0.052261602 0.727 -0.028042812 1.2531323e-38 361 262
0.053536277 0.727 -0.028042812 1.244092e-38 362 262
0.054660168 0.72500002 -0.027965667 1.2809702e-38 363 262
0.055777039 0.72299999 -0.02788852 1.2903345e-38 364 262
0.056965802 0.722 -0.027849946 1.3087738e-38 365 262
0.058231708 0.722 -0.027849946 1.3087011e-38 366 262
0.059332799 0.72000003 -0.027772799 1.2533837e-38 367 262
0.060595199 0.72000003 -0.027772799 1.2627106e-38 368 262
0.061771683 0.71899998 -0.027734226 1.2719302e-38 369 262
0.063032329 0.71899998 -0.027734226 1.3178488e-38 370 262
0.064114138 0.71700001 -0.027657079 1.3086292e-38 371 262
0.06528011 0.71600002 -0.027618507 1.2624941e-38 372 262
0.066535495 0.71600002 -0.027618507 1.2348356e-38 373 262
0.067601517 0.71399999 -0.02754136 1.3086993e-38 374 262
0.068853401 0.71399999 -0.02754136 1.3640166e-38 375 262
0.070007093 0.713 -0.027502786 1.4101143e-38 376 262
0.071057342 0.71100003 -0.027425639 1.419334e-38 377 262
0.072303966 0.71100003 -0.027425639 1.4285536e-38 378 262
0.073447131 0.70999998 -0.027387066 1.4377731e-38 379 262
0.074691996 0.70999998 -0.027387066 1.4470633e-38 380 262
0.075936861 0.70999998 -0.027387066 1.4378438e-38 381 262
0.077181734 0.70999998 -0.027387066 1.4931962e-38 382 262
0.0784266 0.70999998 -0.027387066 1.5208549e-38 383 262
0.079447038 0.708 -0.027309919 1.6126538e-38 384 262
0.080688395 0.708 -0.027309919 1.6403126e-38 385 262
0.081929758 0.708 -0.027309919 1.6403479e-38 386 262
0.083171122 0.708 -0.027309919 1.6403479e-38 387 262
0.084412478 0.708 -0.027309919 1.6586792e-38 388 262
0.085653841 0.708 -0.027309919 1.6586792e-38 389 262
0.086895198 0.708 -0.027309919 1.6220886e-38 390 262
0.088136561 0.708 -0.027309919 1.6128332e-38 391 262
0.089377917 0.708 -0.027309919 1.5945025e-38 392 262
0.090491287 0.70700002 -0.027271347 1.5945025e-38 393 262
0.091730893 0.70700002 -0.027271347 1.5761369e-38 394 262
0.093101993 0.708 -0.027309919 1.5669174e-38 395 262
0.094609864 0.70999998 -0.027387066 1.5211496e-38 396 262
-0.076136746 0.736 -0.029680425 1.3642743e-38 261 263
-0.075049676 0.73799998 -0.029761078 1.4562849e-38 262 263
-0.073755711 0.73799998 -0.029761078 1.4839435e-38 263 263
-0.072461754 0.73799998 -0.029761078 1.5023104e-38 264 263
-0.07126423 0.73900002 -0.029801406 1.5115299e-38 265 263
-0.069968522 0.73900002 -0.029801406 1.4840157e-38 266 263
-0.068672806 0.73900002 -0.029801406 1.4286983e-38 267 263
-0.06737709 0.73900002 -0.029801406 1.3824573e-38 268 263
-0.066081382 0.73900002 -0.029801406 1.3640182e-38 269 263
-0.064785667 0.73900002 -0.029801406 1.3364674e-38 270 263
-0.063661776 0.741 -0.029882059 1.3364674e-38 271 263
-0.062362559 0.741 -0.029882059 1.2906217e-38 272 263
-0.061063338 0.741 -0.029882059 1.2814021e-38 273 263
-0.05984477 0.74199998 -0.029922385 1.2630353e-38 274 263
-0.058543798 0.74199998 -0.029922385 1.2722549e-38 275 263
-0.057242822 0.74199998 -0.029922385 1.263035e-38 276 263
-0.05594185 0.74199998 -0.029922385 1.263035e-38 277 263
-0.054640878 0.74199998 -0.029922385 1.2630706e-38 278 263
-0.05348368 0.74400002 -0.030003037 1.2446313e-38 279 263
-0.052319467 0.74599999 -0.03008369 1.2537437e-38 280 263
-0.051011477 0.74599999 -0.03008369 1.2537437e-38 281 263
0.040167112 0.73900002 -0.029801406 1.2719304e-38 351 263
0.041462827 0.73900002 -0.029801406 1.2810778e-38 352 263
0.042584959 0.736 -0.029680425 1.2810778e-38 353 263
0.043756187 0.73400003 -0.029599773 1.2994447e-38 354 263
0.045043133 0.73400003 -0.029599773 1.2810055e-38 355 263
0.046266954 0.73299998 -0.029559445 1.2716781e-38 356 263
0.047422405 0.73100001 -0.029478792 1.253239e-38 357 263
0.048637468 0.73000002 -0.029438468 1.2255456e-38 358 263
0.0499174 0.73000002 -0.029438468 1.1978868e-38 359 263
0.051057063 0.72799999 -0.029357811 1.1793405e-38 360 263
0.052261602 0.727 -0.029317487 1.1148036e-38 361 263
0.053536277 0.727 -0.029317487 1.0318618e-38 362 263
0.054660168 0.72500002 -0.029236834 1.0411173e-38 363 263
0.055777039 0.72299999 -0.029156178 1.0688129e-38 364 263
0.056965802 0.722 -0.029115854 1.1056913e-38 365 263
0.058231708 0.722 -0.029115854 1.105547e-38 366 263
0.059332799 0.72000003 -0.029035201 1.0133155e-38 367 263
0.060595199 0.72000003 -0.029035201 9.5864552e-39 368 263
0.061771683 0.71899998 -0.028994869 1.032402e-38 369 263
0.063032329 0.71899998 -0.028994869 1.0970851e-38 370 263
0.064024724 0.71600002 -0.028873893 1.1708416e-38 371 263
0.06528011 0.71600002 -0.028873893 1.2624963e-38 372 263
0.066535495 0.71600002 -0.028873893 1.2624963e-38 373 263
0.067601517 0.71399999 -0.028793238 1.3639816e-38 374 263
0.068853401 0.71399999 -0.028793238 1.3824207e-38 375 263
0.070007093 0.713 -0.028752912 1.3916756e-38 376 263
0.071057342 0.71100003 -0.028672259 1.4193343e-38 377 263
0.072303966 0.71100003 -0.028672259 1.4193343e-38 378 263
0.073447131 0.70999998 -0.028631933 1.4285539e-38 379 263
0.074691996 0.70999998 -0.028631933 1.4469198e-38 380 263
0.075936861 0.70999998 -0.028631933 1.4469198e-38 381 263
0.077181734 0.70999998 -0.028631933 1.4653946e-38 382 263
0.0784266 0.70999998 -0.028631933 1.4838696e-38 383 263
0.079447038 0.708 -0.02855128 1.5114921e-38 384 263
0.080688395 0.708 -0.02855128 1.5391867e-38 385 263
0.081929758 0.708 -0.02855128 1.6035786e-38 386 263
0.083171122 0.708 -0.02855128 1.6035786e-38 387 263
0.084412478 0.708 -0.02855128 1.6311284e-38 388 263
0.085653841 0.708 -0.02855128 1.6403479e-38 389 263
0.086895198 0.708 -0.02855128 1.5852824e-38 390 263
0.088012077 0.70700002 -0.028510952 1.5852824e-38 391 263
0.089251675 0.70700002 -0.028510952 1.5760274e-38 392 263
0.090363286 0.70599997 -0.028470624 1.5760274e-38 393 263
0.091601141 0.70599997 -0.028470624 1.5577328e-38 394 263
0.092970498 0.70700002 -0.028510952 1.5577328e-38 395 263
0.09407685 0.70599997 -0.028470624 1.5024918e-38 396 263
0.095314704 0.70599997 -0.028470624 1.5578092e-38 397 263
0.096552551 0.70599997 -0.028470624 1.549281e-38 398 263
-0.076136746 0.736 -0.030970879 1.3826773e-38 261 264
-0.07484629 0.736 -0.030970879 1.4840142e-38 262 264
-0.073555835 0.736 -0.030970879 1.5208564e-38 263 264
-0.072265387 0.736 -0.030970879 1.4933056e-38 264 264
-0.071167797 0.73799998 -0.031055039 1.5025252e-38 265 264
-0.069873832 0.73799998 -0.031055039 1.4657208e-38 266 264
-0.068579875 0.73799998 -0.031055039 1.3919643e-38 267 264
-0.067285918 0.73799998 -0.031055039 1.3272125e-38 268 264
-0.06599196 0.73799998 -0.031055039 1.3088094e-38 269 264
-0.064785667 0.73900002 -0.03109712 1.2905851e-38 270 264
-0.063489959 0.73900002 -0.03109712 1.2813297e-38 271 264
-0.062362559 0.741 -0.03118128 1.263035e-38 272 264
-0.061063338 0.741 -0.03118128 1.2538154e-38 273 264
-0.059764117 0.741 -0.03118128 1.2354489e-38 274 264
-0.058543798 0.74199998 -0.031223357 1.2354489e-38 275 264
-0.057242822 0.74199998 -0.031223357 1.2354489e-38 276 264
-0.056092639 0.74400002 -0.031307522 1.2262292e-38 277 264
0.043875411 0.736 -0.030970879 1.2443794e-38 354 264
0.045043133 0.73400003 -0.030886721 1.2443794e-38 355 264
0.046330083 0.73400003 -0.030886721 1.2627812e-38 356 264
0.04755215 0.73299998 -0.030844638 1.2627812e-38 357 264
0.048704091 0.73100001 -0.03076048 1.2534172e-38 358 264
0.0499174 0.73000002 -0.030718399 1.2165389e-38 359 264
0.051057063 0.72799999 -0.030634239 1.1979922e-38 360 264
0.052261602 0.727 -0.030592158 1.0873574e-38 361 264
0.053536277 0.727 -0.030592158 9.6714355e-39 362 264
0.054660168 0.72500002 -0.030508002 9.0260661e-39 363 264
0.055931333 0.72500002 -0.030508002 9.0242934e-39 364 264
0.057044696 0.72299999 -0.030423839 8.8399008e-39 365 264
0.058231708 0.722 -0.030381758 7.2769107e-39 366 264
0.059497613 0.722 -0.030381758 6.6315413e-39 367 264
0.060595199 0.72000003 -0.0302976 6.5433141e-39 368 264
0.061771683 0.71899998 -0.030255521 7.5571073e-39 369 264
0.063032329 0.71899998 -0.030255521 8.2982877e-39 370 264
0.064024724 0.71600002 -0.03012928 9.7737779e-39 371 264
0.06528011 0.71600002 -0.03012928 1.1520076e-38 372 264
0.066535495 0.71600002 -0.03012928 1.2165445e-38 373 264
0.067601517 0.71399999 -0.030045118 1.3363968e-38 374 264
0.068853401 0.71399999 -0.030045118 1.3640913e-38 375 264
0.070007093 0.713 -0.030003037 1.3824576e-38 376 264
0.071057342 0.71100003 -0.029918881 1.3824576e-38 377 264
0.072202265 0.70999998 -0.029876797 1.3917479e-38 378 264
0.073447131 0.70999998 -0.029876797 1.3917479e-38 379 264
0.074691996 0.70999998 -0.029876797 1.419262e-38 380 264
0.075936861 0.70999998 -0.029876797 1.419262e-38 381 264
0.077181734 0.70999998 -0.029876797 1.419334e-38 382 264
0.078205675 0.708 -0.02979264 1.4285536e-38 383 264
0.079447038 0.708 -0.02979264 1.447028e-38 384 264
0.080688395 0.708 -0.02979264 1.4746866e-38 385 264
0.081929758 0.708 -0.02979264 1.5299665e-38 386 264
0.083171122 0.708 -0.02979264 1.5760643e-38 387 264
0.084293254 0.70700002 -0.029750559 1.6036142e-38 388 264
0.085532859 0.70700002 -0.029750559 1.6128337e-38 389 264
0.086772464 0.70700002 -0.029750559 1.5760994e-38 390 264
0.088012077 0.70700002 -0.029750559 1.5484766e-38 391 264
0.089125432 0.70599997 -0.029708479 1.548441e-38 392 264
0.090363286 0.70599997 -0.029708479 1.5392214e-38 393 264
0.091601141 0.70599997 -0.029708479 1.5117775e-38 394 264
0.092838995 0.70599997 -0.029708479 1.502558e-38 395 264
0.093810342 0.704 -0.029624319 1.4473149e-38 396 264
0.095044687 0.704 -0.029624319 1.4380953e-38 397 264
0.096279033 0.704 -0.029624319 1.4202045e-38 398 264
0.097513385 0.704 -0.029624319 1.5769731e-38 399 264
-0.076796003 0.73000002 -0.031998333 1.7051465e-38 260 265
-0.07551606 0.73000002 -0.031998333 1.5023161e-38 261 265
-0.074337825 0.73100001 -0.032042164 1.530113e-38 262 265
-0.073355958 0.73400003 -0.032173667 1.5208934e-38 263 265
-0.072069012 0.73400003 -0.032173667 1.4840873e-38 264 265
-0.070782073 0.73400003 -0.032173667 1.4564646e-38 265 265
-0.069495119 0.73400003 -0.032173667 1.3918571e-38 266 265
-0.06839402 0.736 -0.032261331 1.3549787e-38 267 265
-0.067285918 0.73799998 -0.032348998 1.2904061e-38 268 265
-0.06599196 0.73799998 -0.032348998 1.2996259e-38 269 265
-0.064697996 0.73799998 -0.032348998 1.2905495e-38 270 265
-0.063489959 0.73900002 -0.032392833 1.2813299e-38 271 265
-0.062194239 0.73900002 -0.032392833 1.2628551e-38 272 265
-0.061063338 0.741 -0.032480497 1.2628551e-38 273 265
-0.059764117 0.741 -0.032480497 1.2261213e-38 274 265
0.04755215 0.73299998 -0.032129832 1.2902604e-38 357 265
0.048837345 0.73299998 -0.032129832 1.2718933e-38 358 265
0.0499174 0.73000002 -0.031998333 1.2718933e-38 359 265
0.051057063 0.72799999 -0.031910665 1.3178115e-38 360 265
0.052333489 0.72799999 -0.031910665 1.2901529e-38 361 265
0.053536277 0.727 -0.03186683 1.2622067e-38 362 265
0.054660168 0.72500002 -0.031779166 1.1331328e-38 363 265
0.055931333 0.72500002 -0.031779166 1.0590893e-38 364 265
0.057044696 0.72299999 -0.031691495 7.82503e-39 365 265
0.058231708 0.722 -0.031647664 3.4140563e-39 366 265
0.059497613 0.722 -0.031647664 2.0311429e-39 367 265
0.060595199 0.72000003 -0.03156 4.7858757e-39 368 265
0.061771683 0.71899998 -0.031516165 5.1546568e-39 369 265
0.063032329 0.71899998 -0.031516165 4.611201e-39 370 265
0.064024724 0.71600002 -0.031384666 6.1788868e-39 371 265
0.06528011 0.71600002 -0.031384666 8.9418593e-39 372 265
0.066535495 0.71600002 -0.031384666 1.0324794e-38 373 265
0.067601517 0.71399999 -0.031296998 1.2443109e-38 374 265
0.068756968 0.713 -0.031253166 1.2811892e-38 375 265
0.070007093 0.713 -0.031253166 1.3456519e-38 376 265
0.071057342 0.71100003 -0.031165501 1.3548715e-38 377 265
0.072202265 0.70999998 -0.031121666 1.4100074e-38 378 265
0.073447131 0.70999998 -0.031121666 1.4192271e-38 379 265
0.074691996 0.70999998 -0.031121666 1.4100789e-38 380 265
0.075936861 0.70999998 -0.031121666 1.4100789e-38 381 265
0.076964319 0.708 -0.031034 1.4192617e-38 382 265
0.078205675 0.708 -0.031034 1.4192617e-38 383 265
0.079447038 0.708 -0.031034 1.419297e-38 384 265
0.080688395 0.708 -0.031034 1.419297e-38 385 265
0.081929758 0.708 -0.031034 1.4286236e-38 386 265
0.083171122 0.708 -0.031034 1.4747213e-38 387 265
0.084293254 0.70700002 -0.030990168 1.5207823e-38 388 265
0.085532859 0.70700002 -0.030990168 1.5576964e-38 389 265
0.086649731 0.70599997 -0.030946331 1.5761347e-38 390 265
0.087887585 0.70599997 -0.030946331 1.5485119e-38 391 265
0.089125432 0.70599997 -0.030946331 1.5208529e-38 392 265
0.090107299 0.704 -0.030858666 1.5208529e-38 393 265
0.091341652 0.704 -0.030858666 1.4564952e-38 394 265
0.092575997 0.704 -0.030858666 1.4380561e-38 395 265
0.093810342 0.704 -0.030858666 1.3829557e-38 396 265
0.095044687 0.704 -0.030858666 1.3921753e-38 397 265
0.096142277 0.70300001 -0.030814834 1.3002398e-38 398 265
0.097374871 0.70300001 -0.030814834 1.4293136e-38 399 265
-0.076796003 0.73000002 -0.033278264 1.6315695e-38 260 266
-0.07551606 0.73000002 -0.033278264 1.4932761e-38 261 266
-0.074337825 0.73100001 -0.033323854 1.5392256e-38 262 266
-0.073256016 0.73299998 -0.033415023 1.5115668e-38 263 266
-0.072069012 0.73400003 -0.033460613 1.4562861e-38 264 266
-0.070782073 0.73400003 -0.033460613 1.437883e-38 265 266
-0.069495119 0.73400003 -0.033460613 1.3549437e-38 266 266
-0.06839402 0.736 -0.033551786 1.3272851e-38 267 266
-0.067103572 0.736 -0.033551786 1.3087741e-38 268 266
-0.06599196 0.73799998 -0.033642959 1.2995544e-38 269 266
-0.064697996 0.73799998 -0.033642959 1.2628556e-38 270 266
-0.063489959 0.73900002 -0.033688545 1.2443806e-38 271 266
-0.062194239 0.73900002 -0.033688545 1.198428e-38 272 266
0.051197331 0.73000002 -0.033278264 1.2718586e-38 360 266
0.052333489 0.72799999 -0.033187091 1.2994812e-38 361 266
0.053536277 0.727 -0.033141505 1.3361431e-38 362 266
0.054810952 0.727 -0.033141505 1.3084844e-38 363 266
0.055931333 0.72500002 -0.033050332 1.2437676e-38 364 266
0.057202499 0.72500002 -0.033050332 1.0685959e-38 365 266
0.058231708 0.722 -0.032913569 7.7378706e-39 366 266
0.059497613 0.722 -0.032913569 5.5251965e-39 367 266
0.060595199 0.72000003 -0.0328224 4.7826261e-39 368 266
0.061857603 0.72000003 -0.0328224 5.2436028e-39 369 266
0.063032329 0.71899998 -0.032776814 3.4097908e-39 370 266
0.064024724 0.71600002 -0.032640055 3.8707675e-39 371 266
0.06528011 0.71600002 -0.032640055 5.9944886e-39 372 266
0.066349633 0.71399999 -0.032548878 8.1153482e-39 373 266
0.067506835 0.713 -0.032503292 1.0416249e-38 374 266
0.068756968 0.713 -0.032503292 1.1430403e-38 375 266
0.069810718 0.71100003 -0.032412119 1.2995544e-38 376 266
0.071057342 0.71100003 -0.032412119 1.3548718e-38 377 266
0.072202265 0.70999998 -0.032366529 1.3365753e-38 378 266
0.073447131 0.70999998 -0.032366529 1.3549784e-38 379 266
0.074691996 0.70999998 -0.032366529 1.3917831e-38 380 266
0.075936861 0.70999998 -0.032366529 1.3917831e-38 381 266
0.076964319 0.708 -0.03227536 1.4192973e-38 382 266
0.078205675 0.708 -0.03227536 1.4100777e-38 383 266
0.079447038 0.708 -0.03227536 1.4100789e-38 384 266
0.080688395 0.708 -0.03227536 1.4100789e-38 385 266
0.081814043 0.70700002 -0.032229774 1.4010028e-38 386 266
0.083053641 0.70700002 -0.032229774 1.3917831e-38 387 266
0.084174022 0.70599997 -0.032184184 1.4470631e-38 388 266
0.085411869 0.70599997 -0.032184184 1.4931609e-38 389 266
0.086404264 0.704 -0.032093015 1.5484766e-38 390 266
0.087638609 0.704 -0.032093015 1.5300374e-38 391 266
0.088872954 0.704 -0.032093015 1.456497e-38 392 266
0.090107299 0.704 -0.032093015 1.4288743e-38 393 266
0.091341652 0.704 -0.032093015 1.3921753e-38 394 266
0.092575997 0.704 -0.032093015 1.3552971e-38 395 266
0.093810342 0.704 -0.032093015 1.3461125e-38 396 266
0.095044687 0.704 -0.032093015 1.3461125e-38 397 266
0.096142277 0.70300001 -0.032047424 1.2078967e-38 398 266
0.097374871 0.70300001 -0.032047424 1.2540305e-38 399 266
-0.076796003 0.73000002 -0.034558199 1.3366514e-38 260 267
-0.07551606 0.73000002 -0.034558199 1.3827492e-38 261 267
-0.074337825 0.73100001 -0.034605537 1.5112811e-38 262 267
-0.073256016 0.73299998 -0.034700219 1.5205365e-38 263 267
-0.071970828 0.73299998 -0.034700219 1.4008621e-38 264 267
-0.070782073 0.73400003 -0.03474756 1.3639478e-38 265 267
-0.069495119 0.73400003 -0.03474756 1.3180655e-38 266 267
-0.06839402 0.736 -0.034842238 1.2996264e-38 267 267
-0.067103572 0.736 -0.034842238 1.2811513e-38 268 267
0.054810952 0.727 -0.03441618 1.3086998e-38 363 267
0.056085624 0.727 -0.03441618 1.3270683e-38 364 267
0.057360299 0.727 -0.03441618 1.3639466e-38 365 267
0.058312356 0.72299999 -0.03422682 1.3727361e-38 366 267
0.059497613 0.722 -0.034179479 1.1607221e-38 367 267
0.060595199 0.72000003 -0.034084801 9.6707573e-39 368 267
0.061857603 0.72000003 -0.034084801 7.1811151e-39 369 267
0.063032329 0.71899998 -0.03403746 4.0515308e-39 370 267
0.064024724 0.71600002 -0.03389544 3.4983584e-39 371 267
0.06528011 0.71600002 -0.03389544 3.7771047e-39 372 267
0.066349633 0.71399999 -0.033800758 5.4369862e-39 373 267
0.067506835 0.713 -0.033753417 7.3748671e-39 374 267
0.068756968 0.713 -0.033753417 9.4953666e-39 375 267
0.069810718 0.71100003 -0.033658739 1.1797368e-38 376 267
0.071057342 0.71100003 -0.033658739 1.2442737e-38 377 267
0.072202265 0.70999998 -0.033611398 1.3363955e-38 378 267
0.073447131 0.70999998 -0.033611398 1.3640182e-38 379 267
0.074691996 0.70999998 -0.033611398 1.4101143e-38 380 267
0.075936861 0.70999998 -0.033611398 1.4101143e-38 381 267
0.076964319 0.708 -0.033516716 1.4192617e-38 382 267
0.078205675 0.708 -0.033516716 1.4192617e-38 383 267
0.079447038 0.708 -0.033516716 1.4100777e-38 384 267
0.080574431 0.70700002 -0.033469379 1.4008223e-38 385 267
0.081814043 0.70700002 -0.033469379 1.4100775e-38 386 267
0.083053641 0.70700002 -0.033469379 1.4008579e-38 387 267
0.084174022 0.70599997 -0.033422034 1.3641223e-38 388 267
0.085169919 0.704 -0.03332736 1.3733419e-38 389 267
0.086404264 0.704 -0.03332736 1.4194024e-38 390 267
0.087638609 0.704 -0.03332736 1.4470611e-38 391 267
0.088872954 0.704 -0.03332736 1.4011431e-38 392 267
0.090107299 0.704 -0.03332736 1.4011431e-38 393 267
0.091341652 0.704 -0.03332736 1.3551526e-38 394 267
0.092575997 0.704 -0.03332736 1.3367135e-38 395 267
0.093677096 0.70300001 -0.033280019 1.290831e-38 396 267
0.094909683 0.70300001 -0.033280019 1.2631365e-38 397 267
