# .PCD v.7 - Point Cloud Data file format
FIELDS x y z rgb imX imY
SIZE 4 4 4 4 4 4
TYPE F F F F F F
COUNT 1 1 1 1 1 1
WIDTH 833
HEIGHT 1
VIEWPOINT 0 0 0 1 0 0 0
POINTS 833
DATA ascii
0.017140586 0.75199997 -0.0013185065 1.9168272e-38 333 241
0.018459093 0.75199997 -0.0013185065 1.9168272e-38 334 241
0.019724999 0.75 -0.001315 1.9168272e-38 335 241
0.02104 0.75 -0.001315 1.8984607e-38 336 241
0.022355 0.75 -0.001315 1.8984607e-38 337 241
0.023669999 0.75 -0.001315 1.8984601e-38 338 241
0.024984999 0.75 -0.001315 1.8892405e-38 339 241
0.0263 0.75 -0.001315 1.8892759e-38 340 241
0.027615 0.75 -0.001315 1.8892759e-38 341 241
0.028929999 0.75 -0.001315 1.9077153e-38 342 241
0.030244999 0.75 -0.001315 1.8984957e-38 343 241
0.031517919 0.74900001 -0.0013132467 1.8984957e-38 344 241
0.032831166 0.74900001 -0.0013132467 1.8984957e-38 345 241
0.034053236 0.74699998 -0.0013097399 1.898531e-38 346 241
0.035362978 0.74699998 -0.0013097399 1.8892756e-38 347 241
0.036770906 0.74900001 -0.0013132467 1.8709443e-38 348 241
0.038084153 0.74900001 -0.0013132467 1.8617246e-38 349 241
0.039292198 0.74699998 -0.0013097399 1.8892761e-38 350 241
0.040601939 0.74699998 -0.0013097399 1.9077153e-38 351 241
0.041911677 0.74699998 -0.0013097399 1.8986051e-38 352 241
0.043221418 0.74699998 -0.0013097399 1.9078247e-38 353 241
0.044471547 0.74599999 -0.0013079866 1.9536354e-38 354 241
0.045779534 0.74599999 -0.0013079866 1.9351963e-38 355 241
0.046961278 0.74400002 -0.00130448 1.9075746e-38 356 241
0.048265759 0.74400002 -0.00130448 1.9075746e-38 357 241
0.049436983 0.74199998 -0.0013009732 1.8983568e-38 358 241
0.050737958 0.74199998 -0.0013009732 1.8614787e-38 359 241
0.05203893 0.74199998 -0.0013009732 1.8060181e-38 360 241
0.053124249 0.73900002 -0.0012957134 1.7230779e-38 361 241
-0.055524562 0.75400001 -0.0026440267 1.8802456e-38 278 242
-0.054202545 0.75400001 -0.0026440267 1.8341838e-38 279 242
-0.052880533 0.75400001 -0.0026440267 1.8709149e-38 280 242
-0.051558517 0.75400001 -0.0026440267 1.8616954e-38 281 242
-0.050236505 0.75400001 -0.0026440267 1.8984998e-38 282 242
-0.048914492 0.75400001 -0.0026440267 1.9261226e-38 283 242
-0.04759248 0.75400001 -0.0026440267 1.8895305e-38 284 242
-0.046270464 0.75400001 -0.0026440267 1.9079336e-38 285 242
-0.044948451 0.75400001 -0.0026440267 1.907897e-38 286 242
-0.043626439 0.75400001 -0.0026440267 1.907897e-38 287 242
-0.042304426 0.75400001 -0.0026440267 1.9261559e-38 288 242
-0.041036766 0.755 -0.0026475333 1.9261559e-38 289 242
-0.039712999 0.755 -0.0026475333 1.9078247e-38 290 242
-0.038389232 0.755 -0.0026475333 1.9078247e-38 291 242
-0.037065465 0.755 -0.0026475333 1.8894221e-38 292 242
-0.035741698 0.755 -0.0026475333 1.8894221e-38 293 242
-0.034509107 0.75700003 -0.0026545466 1.8893505e-38 294 242
-0.033181835 0.75700003 -0.0026545466 1.8893505e-38 295 242
-0.031854562 0.75700003 -0.0026545466 1.8800954e-38 296 242
-0.030527288 0.75700003 -0.0026545466 1.8800954e-38 297 242
-0.029277159 0.759 -0.00266156 1.8432894e-38 298 242
-0.027946379 0.759 -0.00266156 1.852509e-38 299 242
-0.026615599 0.759 -0.00266156 1.8525443e-38 300 242
-0.025284819 0.759 -0.00266156 1.8433248e-38 301 242
-0.02389092 0.75700003 -0.0026545466 1.8432527e-38 302 242
-0.022563647 0.75700003 -0.0026545466 1.861656e-38 303 242
-0.02129248 0.759 -0.00266156 1.8340699e-38 304 242
-0.0199617 0.759 -0.00266156 1.8340699e-38 305 242
-0.018581826 0.75700003 -0.0026545466 1.8157387e-38 306 242
-0.017208965 0.755 -0.0026475333 1.8157387e-38 307 242
-0.015885198 0.755 -0.0026475333 1.843325e-38 308 242
-0.014561433 0.755 -0.0026475333 1.8340696e-38 309 242
-0.013220133 0.75400001 -0.0026440267 1.8340332e-38 310 242
-0.01189812 0.75400001 -0.0026440267 1.8340332e-38 311 242
-0.010576107 0.75400001 -0.0026440267 1.8248852e-38 312 242
-0.0092540924 0.75400001 -0.0026440267 1.8248852e-38 313 242
-0.00793208 0.75400001 -0.0026440267 1.8340329e-38 314 242
-0.0066100666 0.75400001 -0.0026440267 1.8248133e-38 315 242
-0.0052880533 0.75400001 -0.0026440267 1.815701e-38 316 242
-0.00396604 0.75400001 -0.0026440267 1.815701e-38 317 242
-0.0026440267 0.75400001 -0.0026440267 1.8432152e-38 318 242
-0.0013220133 0.75400001 -0.0026440267 1.8432152e-38 319 242
0 0.75400001 -0.0026440267 1.8523982e-38 320 242
0.0013220133 0.75400001 -0.0026440267 1.8523982e-38 321 242
0.0026440267 0.75400001 -0.0026440267 1.8707647e-38 322 242
0.00396604 0.75400001 -0.0026440267 1.8707647e-38 323 242
0.0052740262 0.75199997 -0.0026370131 1.824919e-38 324 242
0.0065925326 0.75199997 -0.0026370131 1.8156994e-38 325 242
0.0079110395 0.75199997 -0.0026370131 1.8248839e-38 326 242
0.0092295464 0.75199997 -0.0026370131 1.8248839e-38 327 242
0.010548052 0.75199997 -0.0026370131 1.8432152e-38 328 242
0.011866559 0.75199997 -0.0026370131 1.8524347e-38 329 242
0.013185065 0.75199997 -0.0026370131 1.852435e-38 330 242
0.014503572 0.75199997 -0.0026370131 1.852435e-38 331 242
0.015822079 0.75199997 -0.0026370131 1.8431796e-38 332 242
0.017140586 0.75199997 -0.0026370131 1.8616546e-38 333 242
0.018459093 0.75199997 -0.0026370131 1.8799858e-38 334 242
0.019724999 0.75 -0.00263 1.8799858e-38 335 242
0.02104 0.75 -0.00263 1.8799861e-38 336 242
0.022355 0.75 -0.00263 1.8892058e-38 337 242
0.02363844 0.74900001 -0.0026264933 1.8433231e-38 338 242
0.024951685 0.74900001 -0.0026264933 1.8433231e-38 339 242
0.026264934 0.74900001 -0.0026264933 1.8616896e-38 340 242
0.027615 0.75 -0.00263 1.8616896e-38 341 242
0.028891427 0.74900001 -0.0026264933 1.8709096e-38 342 242
0.030204674 0.74900001 -0.0026264933 1.8801292e-38 343 242
0.031517919 0.74900001 -0.0026264933 1.8983882e-38 344 242
0.032743499 0.74699998 -0.0026194798 1.8983882e-38 345 242
0.034053236 0.74699998 -0.0026194798 1.8892038e-38 346 242
0.035362978 0.74699998 -0.0026194798 1.8892038e-38 347 242
0.036672719 0.74699998 -0.0026194798 1.8892035e-38 348 242
0.03798246 0.74699998 -0.0026194798 1.8892035e-38 349 242
0.039292198 0.74699998 -0.0026194798 1.9167903e-38 350 242
0.040601939 0.74699998 -0.0026194798 1.9167903e-38 351 242
0.04185557 0.74599999 -0.0026159731 1.8801642e-38 352 242
0.04316356 0.74599999 -0.0026159731 1.8801642e-38 353 242
0.044471547 0.74599999 -0.0026159731 1.8984235e-38 354 242
0.045779534 0.74599999 -0.0026159731 1.8984235e-38 355 242
0.046961278 0.74400002 -0.00260896 1.9075704e-38 356 242
0.048265759 0.74400002 -0.00260896 1.8891312e-38 357 242
0.049436983 0.74199998 -0.0026019465 1.8523626e-38 358 242
0.050669577 0.741 -0.0025984398 1.8708016e-38 359 242
0.051968798 0.741 -0.0025984398 1.870659e-38 360 242
0.053124249 0.73900002 -0.0025914267 1.8337809e-38 361 242
0.054419957 0.73900002 -0.0025914267 1.7508414e-38 362 242
0.063232213 0.736 -0.0025809065 1.3354264e-38 369 242
-0.056695782 0.75199997 -0.0039555198 1.8065232e-38 277 243
-0.055377278 0.75199997 -0.0039555198 1.8709869e-38 278 243
-0.054058768 0.75199997 -0.0039555198 1.8709869e-38 279 243
-0.052740261 0.75199997 -0.0039555198 1.9170478e-38 280 243
-0.051421758 0.75199997 -0.0039555198 1.9262673e-38 281 243
-0.050236505 0.75400001 -0.00396604 1.9262658e-38 282 243
-0.048914492 0.75400001 -0.00396604 1.9170462e-38 283 243
-0.04759248 0.75400001 -0.00396604 1.898642e-38 284 243
-0.046270464 0.75400001 -0.00396604 1.898642e-38 285 243
-0.044948451 0.75400001 -0.00396604 1.8894224e-38 286 243
-0.043626439 0.75400001 -0.00396604 1.898642e-38 287 243
-0.042304426 0.75400001 -0.00396604 1.9076815e-38 288 243
-0.040982414 0.75400001 -0.00396604 1.9076815e-38 289 243
-0.039660402 0.75400001 -0.00396604 1.898497e-38 290 243
-0.038389232 0.755 -0.0039712996 1.8800938e-38 291 243
-0.037065465 0.755 -0.0039712996 1.8525796e-38 292 243
-0.035741698 0.755 -0.0039712996 1.8525796e-38 293 243
-0.034417931 0.755 -0.0039712996 1.870839e-38 294 243
-0.033181835 0.75700003 -0.0039818203 1.8616193e-38 295 243
-0.031854562 0.75700003 -0.0039818203 1.8616546e-38 296 243
-0.030527288 0.75700003 -0.0039818203 1.8431796e-38 297 243
-0.029200014 0.75700003 -0.0039818203 1.824813e-38 298 243
-0.027872739 0.75700003 -0.0039818203 1.8155935e-38 299 243
-0.026615599 0.759 -0.0039923396 1.769748e-38 300 243
-0.025284819 0.759 -0.0039923396 1.769748e-38 301 243
-0.02389092 0.75700003 -0.0039818203 1.8155216e-38 302 243
-0.022563647 0.75700003 -0.0039818203 1.8155216e-38 303 243
-0.021236373 0.75700003 -0.0039818203 1.8063373e-38 304 243
-0.019909101 0.75700003 -0.0039818203 1.8063373e-38 305 243
-0.018532733 0.755 -0.0039712996 1.7788228e-38 306 243
-0.017208965 0.755 -0.0039712996 1.7788228e-38 307 243
-0.01586416 0.75400001 -0.00396604 1.8063736e-38 308 243
-0.014542146 0.75400001 -0.00396604 1.7971541e-38 309 243
-0.013220133 0.75400001 -0.00396604 1.7971174e-38 310 243
-0.01189812 0.75400001 -0.00396604 1.7971174e-38 311 243
-0.010576107 0.75400001 -0.00396604 1.7695666e-38 312 243
-0.0092540924 0.75400001 -0.00396604 1.7695666e-38 313 243
-0.00793208 0.75400001 -0.00396604 1.769531e-38 314 243
-0.0066100666 0.75400001 -0.00396604 1.7971897e-38 315 243
-0.0052880533 0.75400001 -0.00396604 1.7695313e-38 316 243
-0.00396604 0.75400001 -0.00396604 1.7603117e-38 317 243
-0.0026440267 0.75400001 -0.00396604 1.7695313e-38 318 243
-0.0013220133 0.75400001 -0.00396604 1.7695313e-38 319 243
0 0.75400001 -0.00396604 1.806229e-38 320 243
0.0013220133 0.75400001 -0.00396604 1.7878259e-38 321 243
0.0026370131 0.75199997 -0.0039555198 1.7878609e-38 322 243
0.0039555198 0.75199997 -0.0039555198 1.8062641e-38 323 243
0.0052740262 0.75199997 -0.0039555198 1.7879328e-38 324 243
0.0065925326 0.75199997 -0.0039555198 1.7971524e-38 325 243
0.0079110395 0.75199997 -0.0039555198 1.7879331e-38 326 243
0.0092295464 0.75199997 -0.0039555198 1.7971527e-38 327 243
0.010548052 0.75199997 -0.0039555198 1.8062643e-38 328 243
0.011866559 0.75199997 -0.0039555198 1.8154839e-38 329 243
0.013185065 0.75199997 -0.0039555198 1.8247392e-38 330 243
0.014503572 0.75199997 -0.0039555198 1.8154836e-38 331 243
0.015822079 0.75199997 -0.0039555198 1.8154839e-38 332 243
0.017095 0.75 -0.003945 1.8247036e-38 333 243
0.018409999 0.75 -0.003945 1.8339237e-38 334 243
0.019724999 0.75 -0.003945 1.8523628e-38 335 243
0.021011947 0.74900001 -0.0039397399 1.843108e-38 336 243
0.022325192 0.74900001 -0.0039397399 1.8523275e-38 337 243
0.02363844 0.74900001 -0.0039397399 1.8431796e-38 338 243
0.024951685 0.74900001 -0.0039397399 1.83396e-38 339 243
0.026264934 0.74900001 -0.0039397399 1.843143e-38 340 243
0.027578179 0.74900001 -0.0039397399 1.843143e-38 341 243
0.028891427 0.74900001 -0.0039397399 1.8432152e-38 342 243
0.030124018 0.74699998 -0.0039292197 1.8432152e-38 343 243
0.031433757 0.74699998 -0.0039292197 1.8706588e-38 344 243
0.032743499 0.74699998 -0.0039292197 1.8799142e-38 345 243
0.034053236 0.74699998 -0.0039292197 1.8706941e-38 346 243
0.035362978 0.74699998 -0.0039292197 1.8706941e-38 347 243
0.036672719 0.74699998 -0.0039292197 1.8707297e-38 348 243
0.03798246 0.74699998 -0.0039292197 1.8799492e-38 349 243
0.039239597 0.74599999 -0.0039239596 1.8799855e-38 350 243
0.040547583 0.74599999 -0.0039239596 1.8799855e-38 351 243
0.04185557 0.74599999 -0.0039239596 1.8892408e-38 352 243
0.04316356 0.74599999 -0.0039239596 1.8800211e-38 353 243
0.044471547 0.74599999 -0.0039239596 1.8800206e-38 354 243
0.045779534 0.74599999 -0.0039239596 1.870801e-38 355 243
0.046961278 0.74400002 -0.0039134403 1.8707641e-38 356 243
0.048265759 0.74400002 -0.0039134403 1.8615446e-38 357 243
0.049436983 0.74199998 -0.0039029196 1.8707997e-38 358 243
0.050669577 0.741 -0.0038976599 1.8707997e-38 359 243
0.051968798 0.741 -0.0038976599 1.8708366e-38 360 243
0.053124249 0.73900002 -0.00388714 1.8708366e-38 361 243
0.054419957 0.73900002 -0.00388714 1.8522196e-38 362 243
0.055715673 0.73900002 -0.00388714 1.8614392e-38 363 243
0.057011388 0.73900002 -0.00388714 1.8430373e-38 364 243
0.0583071 0.73900002 -0.00388714 1.8338178e-38 365 243
0.059602812 0.73900002 -0.00388714 1.8428578e-38 366 243
0.060816113 0.73799998 -0.0038818798 1.7691012e-38 367 243
0.061941758 0.736 -0.0038713599 1.722752e-38 368 243
0.063232213 0.736 -0.0038713599 1.6028977e-38 369 243
0.064522661 0.736 -0.0038713599 1.4738257e-38 370 243
0.06563428 0.73400003 -0.0038608401 1.363191e-38 371 243
-0.057859998 0.75 -0.00526 1.8800606e-38 276 244
-0.056544997 0.75 -0.00526 1.9077195e-38 277 244
-0.055377278 0.75199997 -0.0052740262 1.8894598e-38 278 244
-0.054058768 0.75199997 -0.0052740262 1.8894598e-38 279 244
-0.052740261 0.75199997 -0.0052740262 1.9261579e-38 280 244
-0.051421758 0.75199997 -0.0052740262 1.8985351e-38 281 244
-0.050236505 0.75400001 -0.0052880533 1.8985345e-38 282 244
-0.048914492 0.75400001 -0.0052880533 1.8985345e-38 283 244
-0.04759248 0.75400001 -0.0052880533 1.8893149e-38 284 244
-0.046270464 0.75400001 -0.0052880533 1.8893149e-38 285 244
-0.044948451 0.75400001 -0.0052880533 1.8617642e-38 286 244
-0.043626439 0.75400001 -0.0052880533 1.8617642e-38 287 244
-0.042304426 0.75400001 -0.0052880533 1.8525796e-38 288 244
-0.040982414 0.75400001 -0.0052880533 1.8525796e-38 289 244
-0.039660402 0.75400001 -0.0052880533 1.8433234e-38 290 244
-0.038338386 0.75400001 -0.0052880533 1.8340679e-38 291 244
-0.037016369 0.75400001 -0.0052880533 1.8248849e-38 292 244
-0.035694357 0.75400001 -0.0052880533 1.8156654e-38 293 244
-0.034372345 0.75400001 -0.0052880533 1.8063736e-38 294 244
-0.033094164 0.755 -0.0052950666 1.7971541e-38 295 244
-0.031770397 0.755 -0.0052950666 1.7788214e-38 296 244
-0.030446632 0.755 -0.0052950666 1.7603464e-38 297 244
-0.029122867 0.755 -0.0052950666 1.7603467e-38 298 244
-0.027872739 0.75700003 -0.0053090933 1.7603467e-38 299 244
-0.026545467 0.75700003 -0.0053090933 1.7052458e-38 300 244
-0.025218192 0.75700003 -0.0053090933 1.6960263e-38 301 244
-0.02389092 0.75700003 -0.0053090933 1.7326157e-38 302 244
-0.022563647 0.75700003 -0.0053090933 1.7233962e-38 303 244
-0.021236373 0.75700003 -0.0053090933 1.732651e-38 304 244
-0.019909101 0.75700003 -0.0053090933 1.732651e-38 305 244
-0.018532733 0.755 -0.0052950666 1.7051012e-38 306 244
-0.017186172 0.75400001 -0.0052880533 1.7051012e-38 307 244
-0.01586416 0.75400001 -0.0052880533 1.7050293e-38 308 244
-0.014542146 0.75400001 -0.0052880533 1.6865902e-38 309 244
-0.013220133 0.75400001 -0.0052880533 1.6682587e-38 310 244
-0.01189812 0.75400001 -0.0052880533 1.6682587e-38 311 244
-0.010576107 0.75400001 -0.0052880533 1.668259e-38 312 244
-0.0092540924 0.75400001 -0.0052880533 1.668259e-38 313 244
-0.00793208 0.75400001 -0.0052880533 1.6498562e-38 314 244
-0.0065925326 0.75199997 -0.0052740262 1.6590757e-38 315 244
-0.0052740262 0.75199997 -0.0052740262 1.6682237e-38 316 244
-0.00396604 0.75400001 -0.0052880533 1.6590041e-38 317 244
-0.0026440267 0.75400001 -0.0052880533 1.6865549e-38 318 244
-0.0013220133 0.75400001 -0.0052880533 1.6865549e-38 319 244
0 0.75199997 -0.0052740262 1.6681511e-38 320 244
0.0013185065 0.75199997 -0.0052740262 1.6773707e-38 321 244
0.0026370131 0.75199997 -0.0052740262 1.6590389e-38 322 244
0.0039555198 0.75199997 -0.0052740262 1.6590389e-38 323 244
0.0052740262 0.75199997 -0.0052740262 1.6682587e-38 324 244
0.0065925326 0.75199997 -0.0052740262 1.6682587e-38 325 244
0.0079110395 0.75199997 -0.0052740262 1.6958098e-38 326 244
0.0092295464 0.75199997 -0.0052740262 1.6958098e-38 327 244
0.010548052 0.75199997 -0.0052740262 1.6865899e-38 328 244
0.011835 0.75 -0.00526 1.6958095e-38 329 244
0.01315 0.75 -0.00526 1.7234678e-38 330 244
0.014503572 0.75199997 -0.0052740262 1.7326875e-38 331 244
0.01578 0.75 -0.00526 1.7418354e-38 332 244
0.017095 0.75 -0.00526 1.7694581e-38 333 244
0.018409999 0.75 -0.00526 1.7603114e-38 334 244
0.0196987 0.74900001 -0.0052529867 1.769531e-38 335 244
0.020955838 0.74699998 -0.0052389596 1.7695313e-38 336 244
0.022265578 0.74699998 -0.0052389596 1.7695313e-38 337 244
0.023575317 0.74699998 -0.0052389596 1.7971897e-38 338 244
0.024885058 0.74699998 -0.0052389596 1.7787864e-38 339 244
0.026194798 0.74699998 -0.0052389596 1.8063727e-38 340 244
0.027504537 0.74699998 -0.0052389596 1.8063727e-38 341 244
0.028814279 0.74699998 -0.0052389596 1.8338513e-38 342 244
0.030124018 0.74699998 -0.0052389596 1.8338513e-38 343 244
0.031433757 0.74699998 -0.0052389596 1.8522184e-38 344 244
0.032743499 0.74699998 -0.0052389596 1.8706575e-38 345 244
0.034053236 0.74699998 -0.0052389596 1.8522549e-38 346 244
0.03531564 0.74599999 -0.0052319462 1.8614745e-38 347 244
0.036623627 0.74599999 -0.0052319462 1.8614745e-38 348 244
0.03793161 0.74599999 -0.0052319462 1.8706941e-38 349 244
0.039239597 0.74599999 -0.0052319462 1.8706941e-38 350 244
0.040547583 0.74599999 -0.0052319462 1.8706941e-38 351 244
0.04185557 0.74599999 -0.0052319462 1.870766e-38 352 244
0.04316356 0.74599999 -0.0052319462 1.870766e-38 353 244
0.044352323 0.74400002 -0.0052179201 1.8708013e-38 354 244
0.0456568 0.74400002 -0.0052179201 1.8523982e-38 355 244
0.046961278 0.74400002 -0.0052179201 1.8707644e-38 356 244
0.048136011 0.74199998 -0.0052038929 1.8615449e-38 357 244
0.049370356 0.741 -0.0051968796 1.8615802e-38 358 244
0.050669577 0.741 -0.0051968796 1.8707997e-38 359 244
0.051968798 0.741 -0.0051968796 1.8615802e-38 360 244
0.053124249 0.73900002 -0.0051828534 1.8615802e-38 361 244
0.054419957 0.73900002 -0.0051828534 1.8615451e-38 362 244
0.055715673 0.73900002 -0.0051828534 1.8707647e-38 363 244
0.057011388 0.73900002 -0.0051828534 1.8523626e-38 364 244
0.0583071 0.73900002 -0.0051828534 1.8523626e-38 365 244
0.059602812 0.73900002 -0.0051828534 1.8431796e-38 366 244
0.060816113 0.73799998 -0.0051758396 1.8431796e-38 367 244
0.061941758 0.736 -0.005161813 1.8521843e-38 368 244
0.063060381 0.73400003 -0.0051477868 1.7876474e-38 369 244
0.064347334 0.73400003 -0.0051477868 1.7414079e-38 370 244
0.06563428 0.73400003 -0.0051477868 1.6676514e-38 371 244
0.066921227 0.73400003 -0.0051477868 1.6581462e-38 372 244
0.068208173 0.73400003 -0.0051477868 1.5382921e-38 373 244
0.070782073 0.73400003 -0.0051477868 1.4548513e-38 375 244
0.07586322 0.74599999 -0.0052319462 9.8555241e-39 378 244
0.077171214 0.74599999 -0.0052319462 6.9049038e-39 379 244
0.078479193 0.74599999 -0.0052319462 5.7088787e-39 380 244
0.079787187 0.74599999 -0.0052319462 6.4464438e-39 381 244
0.081095167 0.74599999 -0.0052319462 6.6323022e-39 382 244
-0.061722592 0.74900001 -0.0065662335 1.7235115e-38 273 245
-0.060409348 0.74900001 -0.0065662335 1.8155953e-38 274 245
-0.059096102 0.74900001 -0.0065662335 1.8893518e-38 275 245
-0.057782855 0.74900001 -0.0065662335 1.9353772e-38 276 245
-0.056469604 0.74900001 -0.0065662335 1.9261576e-38 277 245
-0.055229999 0.75 -0.006575 1.9078267e-38 278 245
-0.053914998 0.75 -0.006575 1.8986071e-38 279 245
-0.0526 0.75 -0.006575 1.8893152e-38 280 245
-0.051284999 0.75 -0.006575 1.8708761e-38 281 245
-0.050103247 0.75199997 -0.0065925326 1.8525812e-38 282 245
-0.048784744 0.75199997 -0.0065925326 1.8525812e-38 283 245
-0.047466237 0.75199997 -0.0065925326 1.8249595e-38 284 245
-0.04614773 0.75199997 -0.0065925326 1.8157399e-38 285 245
-0.044829223 0.75199997 -0.0065925326 1.8340696e-38 286 245
-0.04351072 0.75199997 -0.0065925326 1.8248499e-38 287 245
-0.04219221 0.75199997 -0.0065925326 1.8248849e-38 288 245
-0.040873703 0.75199997 -0.0065925326 1.8341404e-38 289 245
-0.039660402 0.75400001 -0.0066100666 1.8248484e-38 290 245
-0.038338386 0.75400001 -0.0066100666 1.8064092e-38 291 245
-0.037016369 0.75400001 -0.0066100666 1.7971541e-38 292 245
-0.035694357 0.75400001 -0.0066100666 1.7787508e-38 293 245
-0.034372345 0.75400001 -0.0066100666 1.7511637e-38 294 245
-0.033050332 0.75400001 -0.0066100666 1.7511637e-38 295 245
-0.031770397 0.755 -0.0066188332 1.723683e-38 296 245
-0.030446632 0.755 -0.0066188332 1.6868406e-38 297 245
-0.029122867 0.755 -0.0066188332 1.6775855e-38 298 245
-0.027799098 0.755 -0.0066188332 1.6683659e-38 299 245
-0.026475333 0.755 -0.0066188332 1.6315602e-38 300 245
-0.025151566 0.755 -0.0066188332 1.6315602e-38 301 245
-0.023827799 0.755 -0.0066188332 1.6589664e-38 302 245
-0.022504034 0.755 -0.0066188332 1.6405274e-38 303 245
-0.021180267 0.755 -0.0066188332 1.6405999e-38 304 245
-0.0198565 0.755 -0.0066188332 1.6313444e-38 305 245
-0.018508185 0.75400001 -0.0066100666 1.6129782e-38 306 245
-0.017186172 0.75400001 -0.0066100666 1.6129782e-38 307 245
-0.01586416 0.75400001 -0.0066100666 1.6037586e-38 308 245
-0.014542146 0.75400001 -0.0066100666 1.5853195e-38 309 245
-0.013220133 0.75400001 -0.0066100666 1.5576608e-38 310 245
-0.01189812 0.75400001 -0.0066100666 1.5760641e-38 311 245
-0.010576107 0.75400001 -0.0066100666 1.5852839e-38 312 245
-0.0092540924 0.75400001 -0.0066100666 1.5852839e-38 313 245
-0.0079110395 0.75199997 -0.0065925326 1.5393663e-38 314 245
-0.0065925326 0.75199997 -0.0065925326 1.5393663e-38 315 245
-0.0052740262 0.75199997 -0.0065925326 1.5485136e-38 316 245
-0.0039555198 0.75199997 -0.0065925326 1.539258e-38 317 245
-0.0026370131 0.75199997 -0.0065925326 1.5484412e-38 318 245
-0.0013185065 0.75199997 -0.0065925326 1.5576608e-38 319 245
0 0.75199997 -0.0065925326 1.5575529e-38 320 245
0.0013185065 0.75199997 -0.0065925326 1.5667725e-38 321 245
0.0026370131 0.75199997 -0.0065925326 1.5485131e-38 322 245
0.0039555198 0.75199997 -0.0065925326 1.5577328e-38 323 245
0.0052740262 0.75199997 -0.0065925326 1.5577328e-38 324 245
0.0065925326 0.75199997 -0.0065925326 1.5669524e-38 325 245
0.00789 0.75 -0.006575 1.603687e-38 326 245
0.0092049995 0.75 -0.006575 1.603687e-38 327 245
0.01052 0.75 -0.006575 1.6036867e-38 328 245
0.011835 0.75 -0.006575 1.6036867e-38 329 245
0.01315 0.75 -0.006575 1.6312375e-38 330 245
0.014465 0.75 -0.006575 1.6404571e-38 331 245
0.01578 0.75 -0.006575 1.640529e-38 332 245
0.017072206 0.74900001 -0.0065662335 1.6590041e-38 333 245
0.018385453 0.74900001 -0.0065662335 1.6866271e-38 334 245
0.019646099 0.74699998 -0.0065486995 1.6866271e-38 335 245
0.020955838 0.74699998 -0.0065486995 1.6958464e-38 336 245
0.022265578 0.74699998 -0.0065486995 1.7050659e-38 337 245
0.023575317 0.74699998 -0.0065486995 1.7235408e-38 338 245
0.024885058 0.74699998 -0.0065486995 1.7511635e-38 339 245
0.026194798 0.74699998 -0.0065486995 1.760347e-38 340 245
0.027504537 0.74699998 -0.0065486995 1.760347e-38 341 245
0.028814279 0.74699998 -0.0065486995 1.7878609e-38 342 245
0.030124018 0.74699998 -0.0065486995 1.7878609e-38 343 245
0.031391677 0.74599999 -0.0065399334 1.7878965e-38 344 245
0.032699663 0.74599999 -0.0065399334 1.8155192e-38 345 245
0.034007654 0.74599999 -0.0065399334 1.7787864e-38 346 245
0.03531564 0.74599999 -0.0065399334 1.7971897e-38 347 245
0.036623627 0.74599999 -0.0065399334 1.806302e-38 348 245
0.03793161 0.74599999 -0.0065399334 1.806302e-38 349 245
0.039239597 0.74599999 -0.0065399334 1.8338528e-38 350 245
0.040547583 0.74599999 -0.0065399334 1.8338528e-38 351 245
0.04174336 0.74400002 -0.0065223998 1.8339247e-38 352 245
0.043047838 0.74400002 -0.0065223998 1.8339247e-38 353 245
0.044352323 0.74400002 -0.0065223998 1.8339956e-38 354 245
0.0456568 0.74400002 -0.0065223998 1.8339956e-38 355 245
0.046961278 0.74400002 -0.0065223998 1.8432505e-38 356 245
0.048136011 0.74199998 -0.0065048663 1.833995e-38 357 245
0.049370356 0.741 -0.0064960998 1.8431783e-38 358 245
0.050669577 0.741 -0.0064960998 1.8431783e-38 359 245
0.051828533 0.73900002 -0.0064785667 1.8432136e-38 360 245
0.053124249 0.73900002 -0.0064785667 1.8432136e-38 361 245
0.054419957 0.73900002 -0.0064785667 1.8432133e-38 362 245
0.055715673 0.73900002 -0.0064785667 1.8432133e-38 363 245
0.056934237 0.73799998 -0.0064697997 1.8707281e-38 364 245
0.058228195 0.73799998 -0.0064697997 1.8707281e-38 365 245
0.059522156 0.73799998 -0.0064697997 1.8340654e-38 366 245
0.060651302 0.736 -0.0064522666 1.8433208e-38 367 245
0.061941758 0.736 -0.0064522666 1.8800206e-38 368 245
0.063060381 0.73400003 -0.006434733 1.8523979e-38 369 245
0.064347334 0.73400003 -0.006434733 1.8428562e-38 370 245
0.06563428 0.73400003 -0.006434733 1.824417e-38 371 245
0.066921227 0.73400003 -0.006434733 1.8058354e-38 372 245
0.068208173 0.73400003 -0.006434733 1.7228233e-38 373 245
0.069495119 0.73400003 -0.006434733 1.639493e-38 374 245
0.071970828 0.73299998 -0.0064259665 1.6033019e-38 376 245
0.07586322 0.74599999 -0.0065399334 1.2992687e-38 378 245
0.077171214 0.74599999 -0.0065399334 9.7658396e-39 379 245
0.078479193 0.74599999 -0.0065399334 8.3749738e-39 380 245
0.079787187 0.74599999 -0.0065399334 7.0842476e-39 381 245
0.081095167 0.74599999 -0.0065399334 5.9843922e-39 382 245
0.082403161 0.74599999 -0.0065399334 6.9063499e-39 383 245
-0.06417726 0.74699998 -0.0078584393 1.7511717e-38 271 246
-0.062867515 0.74699998 -0.0078584393 1.8063781e-38 272 246
-0.061557774 0.74699998 -0.0078584393 1.8248172e-38 273 246
-0.060248036 0.74699998 -0.0078584393 1.8709853e-38 274 246
-0.058938295 0.74699998 -0.0078584393 1.9078635e-38 275 246
-0.057628557 0.74699998 -0.0078584393 1.9078267e-38 276 246
-0.056469604 0.74900001 -0.0078794798 1.8986071e-38 277 246
-0.055156358 0.74900001 -0.0078794798 1.8985345e-38 278 246
-0.053843111 0.74900001 -0.0078794798 1.8708758e-38 279 246
-0.052529868 0.74900001 -0.0078794798 1.8430727e-38 280 246
-0.051216617 0.74900001 -0.0078794798 1.8707312e-38 281 246
-0.049969997 0.75 -0.00789 1.8248136e-38 282 246
-0.048655 0.75 -0.00789 1.8248136e-38 283 246
-0.047339998 0.75 -0.00789 1.8155953e-38 284 246
-0.045963634 0.74900001 -0.0078794798 1.8248149e-38 285 246
-0.044650383 0.74900001 -0.0078794798 1.7605653e-38 286 246
-0.04333714 0.74900001 -0.0078794798 1.7329068e-38 287 246
-0.042023893 0.74900001 -0.0078794798 1.7880424e-38 288 246
-0.040764999 0.75 -0.00789 1.7603836e-38 289 246
-0.039555199 0.75199997 -0.0079110395 1.7511269e-38 290 246
-0.038236689 0.75199997 -0.0079110395 1.7511269e-38 291 246
-0.036918186 0.75199997 -0.0079110395 1.732688e-38 292 246
-0.035599679 0.75199997 -0.0079110395 1.7050293e-38 293 246
-0.034372345 0.75400001 -0.00793208 1.6682234e-38 294 246
-0.033050332 0.75400001 -0.00793208 1.6590038e-38 295 246
-0.03172832 0.75400001 -0.00793208 1.5947539e-38 296 246
-0.030406307 0.75400001 -0.00793208 1.5486562e-38 297 246
-0.029122867 0.755 -0.0079425992 1.5578035e-38 298 246
-0.027799098 0.755 -0.0079425992 1.5485838e-38 299 246
-0.026475333 0.755 -0.0079425992 1.5300369e-38 300 246
-0.025151566 0.755 -0.0079425992 1.4931945e-38 301 246
-0.023827799 0.755 -0.0079425992 1.5023059e-38 302 246
-0.022504034 0.755 -0.0079425992 1.5115254e-38 303 246
-0.021180267 0.755 -0.0079425992 1.4839393e-38 304 246
-0.0198565 0.755 -0.0079425992 1.4747198e-38 305 246
-0.018508185 0.75400001 -0.00793208 1.483904e-38 306 246
-0.017186172 0.75400001 -0.00793208 1.483904e-38 307 246
-0.015822079 0.75199997 -0.0079110395 1.456353e-38 308 246
-0.014503572 0.75199997 -0.0079110395 1.4471334e-38 309 246
-0.013185065 0.75199997 -0.0079110395 1.4562451e-38 310 246
-0.01189812 0.75400001 -0.00793208 1.4655005e-38 311 246
-0.010576107 0.75400001 -0.00793208 1.4563532e-38 312 246
-0.0092540924 0.75400001 -0.00793208 1.4839759e-38 313 246
-0.0079110395 0.75199997 -0.0079110395 1.4563901e-38 314 246
-0.0065925326 0.75199997 -0.0079110395 1.4656098e-38 315 246
-0.0052740262 0.75199997 -0.0079110395 1.4656101e-38 316 246
-0.0039555198 0.75199997 -0.0079110395 1.4563904e-38 317 246
-0.0026370131 0.75199997 -0.0079110395 1.483869e-38 318 246
-0.0013185065 0.75199997 -0.0079110395 1.4746494e-38 319 246
0 0.75199997 -0.0079110395 1.4562456e-38 320 246
0.0013185065 0.75199997 -0.0079110395 1.4746847e-38 321 246
0.0026370131 0.75199997 -0.0079110395 1.4656098e-38 322 246
0.0039555198 0.75199997 -0.0079110395 1.4563901e-38 323 246
0.0052740262 0.75199997 -0.0079110395 1.4288037e-38 324 246
0.006575 0.75 -0.00789 1.4288037e-38 325 246
0.00789 0.75 -0.00789 1.4747213e-38 326 246
0.0092049995 0.75 -0.00789 1.4747213e-38 327 246
0.01052 0.75 -0.00789 1.4930157e-38 328 246
0.011835 0.75 -0.00789 1.4930157e-38 329 246
0.01315 0.75 -0.00789 1.493051e-38 330 246
0.014465 0.75 -0.00789 1.493051e-38 331 246
0.01575896 0.74900001 -0.0078794798 1.4929075e-38 332 246
0.017026618 0.74699998 -0.0078584393 1.5482249e-38 333 246
0.018336359 0.74699998 -0.0078584393 1.5116703e-38 334 246
0.019646099 0.74699998 -0.0078584393 1.4932312e-38 335 246
0.020955838 0.74699998 -0.0078584393 1.5482962e-38 336 246
0.022265578 0.74699998 -0.0078584393 1.5759908e-38 337 246
0.023575317 0.74699998 -0.0078584393 1.5853545e-38 338 246
0.024885058 0.74699998 -0.0078584393 1.6130132e-38 339 246
0.026194798 0.74699998 -0.0078584393 1.6405643e-38 340 246
0.027504537 0.74699998 -0.0078584393 1.6590036e-38 341 246
0.028775707 0.74599999 -0.0078479191 1.6866621e-38 342 246
0.03008369 0.74599999 -0.0078479191 1.6958817e-38 343 246
0.031391677 0.74599999 -0.0078479191 1.7051368e-38 344 246
0.032699663 0.74599999 -0.0078479191 1.7235761e-38 345 246
0.034007654 0.74599999 -0.0078479191 1.7969373e-38 346 246
0.03531564 0.74599999 -0.0078479191 1.8154123e-38 347 246
0.036525439 0.74400002 -0.0078268806 1.815377e-38 348 246
0.037829921 0.74400002 -0.0078268806 1.8245965e-38 349 246
0.039134398 0.74400002 -0.0078268806 1.8429278e-38 350 246
0.040438879 0.74400002 -0.0078268806 1.8429278e-38 351 246
0.04174336 0.74400002 -0.0078268806 1.8429631e-38 352 246
0.042932119 0.74199998 -0.0078058392 1.8429631e-38 353 246
0.044233091 0.74199998 -0.0078058392 1.8338869e-38 354 246
0.045534063 0.74199998 -0.0078058392 1.8338869e-38 355 246
0.046835039 0.74199998 -0.0078058392 1.8339222e-38 356 246
0.048136011 0.74199998 -0.0078058392 1.8339222e-38 357 246
0.049370356 0.741 -0.0077953199 1.8522178e-38 358 246
0.050532822 0.73900002 -0.0077742799 1.8614732e-38 359 246
0.051828533 0.73900002 -0.0077742799 1.861473e-38 360 246
0.053124249 0.73900002 -0.0077742799 1.861473e-38 361 246
0.054419957 0.73900002 -0.0077742799 1.8614727e-38 362 246
0.055640277 0.73799998 -0.0077637597 1.8614727e-38 363 246
0.056934237 0.73799998 -0.0077637597 1.8522897e-38 364 246
0.058228195 0.73799998 -0.0077637597 1.8522897e-38 365 246
0.059360851 0.736 -0.0077427197 1.8339585e-38 366 246
0.060651302 0.736 -0.0077427197 1.8339585e-38 367 246
0.061773442 0.73400003 -0.0077216802 1.8522897e-38 368 246
0.063060381 0.73400003 -0.0077216802 1.8246669e-38 369 246
0.064259663 0.73299998 -0.0077111595 1.8061924e-38 370 246
0.065544859 0.73299998 -0.0077111595 1.8061924e-38 371 246
0.066830046 0.73299998 -0.0077111595 1.7878272e-38 372 246
0.068115242 0.73299998 -0.0077111595 1.7970826e-38 373 246
0.069400437 0.73299998 -0.0077111595 1.769212e-38 374 246
0.070685625 0.73299998 -0.0077111595 1.7969067e-38 375 246
0.071970828 0.73299998 -0.0077111595 1.7511724e-38 376 246
0.073056139 0.73100001 -0.00769012 1.7972342e-38 377 246
0.07586322 0.74599999 -0.0078479191 1.7696481e-38 378 246
0.077171214 0.74599999 -0.0078479191 1.7051112e-38 379 246
0.078479193 0.74599999 -0.0078479191 1.6213795e-38 380 246
0.079573281 0.74400002 -0.0078268806 1.2986948e-38 381 246
0.080877759 0.74400002 -0.0078268806 8.3811073e-39 382 246
0.082403161 0.74599999 -0.0078479191 5.4312086e-39 383 246
0.08371114 0.74599999 -0.0078479191 5.4308499e-39 384 246
-0.066796735 0.74699998 -0.0091681797 1.705289e-38 269 247
-0.065486997 0.74699998 -0.0091681797 1.7326199e-38 270 247
-0.06417726 0.74699998 -0.0091681797 1.7879373e-38 271 247
-0.062867515 0.74699998 -0.0091681797 1.8249582e-38 272 247
-0.061557774 0.74699998 -0.0091681797 1.8525809e-38 273 247
-0.060248036 0.74699998 -0.0091681797 1.8710203e-38 274 247
-0.058938295 0.74699998 -0.0091681797 1.8710203e-38 275 247
-0.057628557 0.74699998 -0.0091681797 1.880132e-38 276 247
-0.056318816 0.74699998 -0.0091681797 1.8525093e-38 277 247
-0.055009075 0.74699998 -0.0091681797 1.861656e-38 278 247
-0.053699337 0.74699998 -0.0091681797 1.8340332e-38 279 247
-0.052389596 0.74699998 -0.0091681797 1.7971544e-38 280 247
-0.051079858 0.74699998 -0.0091681797 1.7971544e-38 281 247
-0.049770117 0.74699998 -0.0091681797 1.7604213e-38 282 247
-0.048460379 0.74699998 -0.0091681797 1.7604213e-38 283 247
-0.047150634 0.74699998 -0.0091681797 1.7144322e-38 284 247
-0.045840897 0.74699998 -0.0091681797 1.7144322e-38 285 247
-0.044650383 0.74900001 -0.0091927266 1.7143956e-38 286 247
-0.04333714 0.74900001 -0.0091927266 1.7143956e-38 287 247
-0.042023893 0.74900001 -0.0091927266 1.7050659e-38 288 247
-0.040710647 0.74900001 -0.0091927266 1.6958464e-38 289 247
-0.0393974 0.74900001 -0.0091927266 1.6958814e-38 290 247
-0.038135 0.75 -0.0092049995 1.7051368e-38 291 247
-0.036819998 0.75 -0.0092049995 1.659076e-38 292 247
-0.035599679 0.75199997 -0.0092295464 1.6221978e-38 293 247
-0.034281172 0.75199997 -0.0092295464 1.5853918e-38 294 247
-0.033050332 0.75400001 -0.0092540924 1.5669527e-38 295 247
-0.03172832 0.75400001 -0.0092540924 1.5301465e-38 296 247
-0.030406307 0.75400001 -0.0092540924 1.5117072e-38 297 247
-0.029084291 0.75400001 -0.0092540924 1.4841564e-38 298 247
-0.027762281 0.75400001 -0.0092540924 1.4749368e-38 299 247
-0.026475333 0.755 -0.0092663663 1.4565716e-38 300 247
-0.025151566 0.755 -0.0092663663 1.4197293e-38 301 247
-0.02379624 0.75400001 -0.0092540924 1.4562125e-38 302 247
-0.022474226 0.75400001 -0.0092540924 1.4746157e-38 303 247
-0.021152213 0.75400001 -0.0092540924 1.4471002e-38 304 247
-0.0198565 0.755 -0.0092663663 1.4471002e-38 305 247
-0.018459093 0.75199997 -0.0092295464 1.45632e-38 306 247
-0.017140586 0.75199997 -0.0092295464 1.437845e-38 307 247
-0.015822079 0.75199997 -0.0092295464 1.4562849e-38 308 247
-0.014503572 0.75199997 -0.0092295464 1.4655044e-38 309 247
-0.013185065 0.75199997 -0.0092295464 1.4379902e-38 310 247
-0.011866559 0.75199997 -0.0092295464 1.4287706e-38 311 247
-0.010548052 0.75199997 -0.0092295464 1.4655763e-38 312 247
-0.0092295464 0.75199997 -0.0092295464 1.4379536e-38 313 247
-0.0079110395 0.75199997 -0.0092295464 1.4655763e-38 314 247
-0.0065925326 0.75199997 -0.0092295464 1.4563567e-38 315 247
-0.0052740262 0.75199997 -0.0092295464 1.4655766e-38 316 247
-0.0039555198 0.75199997 -0.0092295464 1.4655766e-38 317 247
-0.0026440267 0.75400001 -0.0092540924 1.4654691e-38 318 247
-0.0013185065 0.75199997 -0.0092295464 1.4654691e-38 319 247
0 0.75199997 -0.0092295464 1.4562495e-38 320 247
0.0013185065 0.75199997 -0.0092295464 1.4654691e-38 321 247
0.0026370131 0.75199997 -0.0092295464 1.4563214e-38 322 247
0.0039555198 0.75199997 -0.0092295464 1.465541e-38 323 247
0.0052740262 0.75199997 -0.0092295464 1.4472098e-38 324 247
0.006575 0.75 -0.0092049995 1.4379902e-38 325 247
0.00789 0.75 -0.0092049995 1.4472095e-38 326 247
0.0092049995 0.75 -0.0092049995 1.4379899e-38 327 247
0.01052 0.75 -0.0092049995 1.4747596e-38 328 247
0.011835 0.75 -0.0092049995 1.4655041e-38 329 247
0.01315 0.75 -0.0092049995 1.4929456e-38 330 247
0.014465 0.75 -0.0092049995 1.4745425e-38 331 247
0.01575896 0.74900001 -0.0091927266 1.4746147e-38 332 247
0.017026618 0.74699998 -0.0091681797 1.4930539e-38 333 247
0.018336359 0.74699998 -0.0091681797 1.483906e-38 334 247
0.019646099 0.74699998 -0.0091681797 1.4562832e-38 335 247
0.020955838 0.74699998 -0.0091681797 1.4930163e-38 336 247
0.022265578 0.74699998 -0.0091681797 1.5114555e-38 337 247
0.023575317 0.74699998 -0.0091681797 1.5207826e-38 338 247
0.024885058 0.74699998 -0.0091681797 1.5300021e-38 339 247
0.026159734 0.74599999 -0.0091559067 1.575992e-38 340 247
0.027467718 0.74599999 -0.0091559067 1.5852476e-38 341 247
0.028775707 0.74599999 -0.0091559067 1.5760641e-38 342 247
0.03008369 0.74599999 -0.0091559067 1.5945391e-38 343 247
0.031391677 0.74599999 -0.0091559067 1.6129782e-38 344 247
0.032699663 0.74599999 -0.0091559067 1.6314175e-38 345 247
0.033916477 0.74400002 -0.0091313599 1.6773353e-38 346 247
0.035220962 0.74400002 -0.0091313599 1.6957745e-38 347 247
0.036525439 0.74400002 -0.0091313599 1.705031e-38 348 247
0.037829921 0.74400002 -0.0091313599 1.723506e-38 349 247
0.039134398 0.74400002 -0.0091313599 1.7602764e-38 350 247
0.040330172 0.74199998 -0.009106813 1.7510568e-38 351 247
0.041631144 0.74199998 -0.009106813 1.7786429e-38 352 247
0.042932119 0.74199998 -0.009106813 1.7786429e-38 353 247
0.044173479 0.741 -0.0090945391 1.8062293e-38 354 247
0.045472696 0.741 -0.0090945391 1.8062293e-38 355 247
0.046835039 0.74199998 -0.009106813 1.7971174e-38 356 247
0.048071139 0.741 -0.0090945391 1.8063371e-38 357 247
0.049237106 0.73900002 -0.0090699932 1.8063371e-38 358 247
0.050532822 0.73900002 -0.0090699932 1.8063371e-38 359 247
0.051828533 0.73900002 -0.0090699932 1.8247039e-38 360 247
0.053052358 0.73799998 -0.0090577193 1.8247039e-38 361 247
0.054346316 0.73799998 -0.0090577193 1.8338516e-38 362 247
0.055489492 0.736 -0.0090331733 1.8338516e-38 363 247
0.056779943 0.736 -0.0090331733 1.8339232e-38 364 247
0.058070395 0.736 -0.0090331733 1.8339232e-38 365 247
0.059360851 0.736 -0.0090331733 1.8339588e-38 366 247
0.060486492 0.73400003 -0.0090086265 1.8247392e-38 367 247
0.061773442 0.73400003 -0.0090086265 1.8338869e-38 368 247
0.063060381 0.73400003 -0.0090086265 1.8246672e-38 369 247
0.064259663 0.73299998 -0.0089963535 1.8338489e-38 370 247
0.065544859 0.73299998 -0.0089963535 1.8338489e-38 371 247
0.066830046 0.73299998 -0.0089963535 1.8245937e-38 372 247
0.067929395 0.73100001 -0.0089718066 1.8430687e-38 373 247
0.069211073 0.73100001 -0.0089718066 1.8061927e-38 374 247
0.070492767 0.73100001 -0.0089718066 1.7969373e-38 375 247
0.071774453 0.73100001 -0.0089718066 1.7693883e-38 376 247
0.073056139 0.73100001 -0.0089718066 1.8062667e-38 377 247
0.074642912 0.73400003 -0.0090086265 1.8064503e-38 378 247
0.07592985 0.73400003 -0.0090086265 1.8064503e-38 379 247
0.077216797 0.73400003 -0.0090086265 1.843153e-38 380 247
0.078717649 0.736 -0.0090331733 1.7324822e-38 381 247
0.080660343 0.74199998 -0.009106813 1.4653305e-38 382 247
0.082182243 0.74400002 -0.0091313599 1.1333904e-38 383 247
0.08371114 0.74599999 -0.0091559067 9.7586523e-39 384 247
-0.068106472 0.74699998 -0.010477919 1.6679045e-38 268 248
-0.066796735 0.74699998 -0.010477919 1.741661e-38 269 248
-0.065486997 0.74699998 -0.010477919 1.7972638e-38 270 248
-0.06417726 0.74699998 -0.010477919 1.8249585e-38 271 248
-0.062867515 0.74699998 -0.010477919 1.8525446e-38 272 248
-0.061557774 0.74699998 -0.010477919 1.8525446e-38 273 248
-0.060248036 0.74699998 -0.010477919 1.8708761e-38 274 248
-0.058938295 0.74699998 -0.010477919 1.8616207e-38 275 248
-0.057628557 0.74699998 -0.010477919 1.8339979e-38 276 248
-0.056318816 0.74699998 -0.010477919 1.8155587e-38 277 248
-0.055009075 0.74699998 -0.010477919 1.8155216e-38 278 248
-0.053699337 0.74699998 -0.010477919 1.7878628e-38 279 248
-0.052389596 0.74699998 -0.010477919 1.7511287e-38 280 248
-0.051079858 0.74699998 -0.010477919 1.7327256e-38 281 248
-0.049770117 0.74699998 -0.010477919 1.7510218e-38 282 248
-0.048460379 0.74699998 -0.010477919 1.7418022e-38 283 248
-0.047150634 0.74699998 -0.010477919 1.6867367e-38 284 248
-0.045840897 0.74699998 -0.010477919 1.6498584e-38 285 248
-0.044531155 0.74699998 -0.010477919 1.6589691e-38 286 248
-0.04333714 0.74900001 -0.010505973 1.6312744e-38 287 248
-0.042023893 0.74900001 -0.010505973 1.5945022e-38 288 248
-0.040710647 0.74900001 -0.010505973 1.5852826e-38 289 248
-0.0393974 0.74900001 -0.010505973 1.5760627e-38 290 248
-0.038084153 0.74900001 -0.010505973 1.5576235e-38 291 248
-0.036819998 0.75 -0.01052 1.5207472e-38 292 248
-0.035505001 0.75 -0.01052 1.5115277e-38 293 248
-0.034281172 0.75199997 -0.010548052 1.4380603e-38 294 248
-0.032962665 0.75199997 -0.010548052 1.419621e-38 295 248
-0.03172832 0.75400001 -0.010576107 1.4470999e-38 296 248
-0.030406307 0.75400001 -0.010576107 1.4470999e-38 297 248
-0.029084291 0.75400001 -0.010576107 1.4471002e-38 298 248
-0.027762281 0.75400001 -0.010576107 1.4563197e-38 299 248
-0.026440267 0.75400001 -0.010576107 1.4379529e-38 300 248
-0.025118252 0.75400001 -0.010576107 1.4379529e-38 301 248
-0.02379624 0.75400001 -0.010576107 1.4562844e-38 302 248
-0.022474226 0.75400001 -0.010576107 1.4562844e-38 303 248
-0.021152213 0.75400001 -0.010576107 1.4562849e-38 304 248
-0.019830201 0.75400001 -0.010576107 1.4562849e-38 305 248
-0.018459093 0.75199997 -0.010548052 1.4562849e-38 306 248
-0.017140586 0.75199997 -0.010548052 1.4562849e-38 307 248
-0.015822079 0.75199997 -0.010548052 1.4562844e-38 308 248
-0.014503572 0.75199997 -0.010548052 1.4470649e-38 309 248
-0.013185065 0.75199997 -0.010548052 1.4471002e-38 310 248
-0.011866559 0.75199997 -0.010548052 1.4563197e-38 311 248
-0.010548052 0.75199997 -0.010548052 1.4562476e-38 312 248
-0.0092295464 0.75199997 -0.010548052 1.4562476e-38 313 248
-0.0079110395 0.75199997 -0.010548052 1.4470999e-38 314 248
-0.0065925326 0.75199997 -0.010548052 1.4470999e-38 315 248
-0.0052740262 0.75199997 -0.010548052 1.45632e-38 316 248
-0.0039555198 0.75199997 -0.010548052 1.45632e-38 317 248
-0.0026370131 0.75199997 -0.010548052 1.4470649e-38 318 248
-0.0013185065 0.75199997 -0.010548052 1.4470649e-38 319 248
0 0.75199997 -0.010548052 1.4470649e-38 320 248
0.0013185065 0.75199997 -0.010548052 1.4470649e-38 321 248
0.0026370131 0.75199997 -0.010548052 1.4470649e-38 322 248
0.0039555198 0.75199997 -0.010548052 1.4470649e-38 323 248
0.00526 0.75 -0.01052 1.4562844e-38 324 248
0.006575 0.75 -0.01052 1.4562844e-38 325 248
0.0078794798 0.74900001 -0.010505973 1.4563195e-38 326 248
0.0091927266 0.74900001 -0.010505973 1.4563195e-38 327 248
0.01052 0.75 -0.01052 1.474686e-38 328 248
0.011835 0.75 -0.01052 1.474686e-38 329 248
0.01315 0.75 -0.01052 1.474686e-38 330 248
0.014465 0.75 -0.01052 1.474686e-38 331 248
0.01575896 0.74900001 -0.010505973 1.483834e-38 332 248
0.017072206 0.74900001 -0.010505973 1.483834e-38 333 248
0.018385453 0.74900001 -0.010505973 1.4930537e-38 334 248
0.019646099 0.74699998 -0.010477919 1.483834e-38 335 248
0.020955838 0.74699998 -0.010477919 1.5114202e-38 336 248
0.022265578 0.74699998 -0.010477919 1.5206398e-38 337 248
0.023575317 0.74699998 -0.010477919 1.4656098e-38 338 248
0.024885058 0.74699998 -0.010477919 1.4471705e-38 339 248
0.026159734 0.74599999 -0.010463892 1.4839046e-38 340 248
0.027467718 0.74599999 -0.010463892 1.4654296e-38 341 248
0.028775707 0.74599999 -0.010463892 1.4563182e-38 342 248
0.03008369 0.74599999 -0.010463892 1.4931606e-38 343 248
0.031307522 0.74400002 -0.01043584 1.5023807e-38 344 248
0.032612 0.74400002 -0.01043584 1.5208198e-38 345 248
0.033916477 0.74400002 -0.01043584 1.5666656e-38 346 248
0.035220962 0.74400002 -0.01043584 1.5942884e-38 347 248
0.036427252 0.74199998 -0.010407786 1.5943966e-38 348 248
0.037728224 0.74199998 -0.010407786 1.6497139e-38 349 248
0.0390292 0.74199998 -0.010407786 1.659041e-38 350 248
0.040330172 0.74199998 -0.010407786 1.6682605e-38 351 248
0.041631144 0.74199998 -0.010407786 1.7233959e-38 352 248
0.042874258 0.741 -0.010393759 1.7233959e-38 353 248
0.044173479 0.741 -0.010393759 1.760202e-38 354 248
0.045472696 0.741 -0.010393759 1.7694215e-38 355 248
0.046771921 0.741 -0.010393759 1.8061924e-38 356 248
0.048071139 0.741 -0.010393759 1.8061924e-38 357 248
0.049237106 0.73900002 -0.010365707 1.7878965e-38 358 248
0.050464436 0.73799998 -0.010351679 1.7878965e-38 359 248
0.051758397 0.73799998 -0.010351679 1.8154473e-38 360 248
0.052908584 0.736 -0.010323626 1.8154473e-38 361 248
0.05419904 0.736 -0.010323626 1.8154476e-38 362 248
0.055489492 0.736 -0.010323626 1.8154476e-38 363 248
0.056779943 0.736 -0.010323626 1.8155192e-38 364 248
0.057912603 0.73400003 -0.010295574 1.8155192e-38 365 248
0.059199546 0.73400003 -0.010295574 1.8246669e-38 366 248
0.060486492 0.73400003 -0.010295574 1.8246669e-38 367 248
0.061773442 0.73400003 -0.010295574 1.8246316e-38 368 248
0.062974468 0.73299998 -0.010281546 1.8246316e-38 369 248
0.064259663 0.73299998 -0.010281546 1.8247389e-38 370 248
0.065544859 0.73299998 -0.010281546 1.8247389e-38 371 248
0.066830046 0.73299998 -0.010281546 1.8155542e-38 372 248
0.067929395 0.73100001 -0.010253493 1.8063347e-38 373 248
0.069211073 0.73100001 -0.010253493 1.8063347e-38 374 248
0.070396334 0.73000002 -0.010239467 1.7879316e-38 375 248
0.071676269 0.73000002 -0.010239467 1.7786779e-38 376 248
0.072956197 0.73000002 -0.010239467 1.7878975e-38 377 248
0.074541211 0.73299998 -0.010281546 1.7602776e-38 378 248
0.075826399 0.73299998 -0.010281546 1.7234354e-38 379 248
0.077111594 0.73299998 -0.010281546 1.7050719e-38 380 248
0.07850375 0.73400003 -0.010295574 1.8341458e-38 381 248
0.080225512 0.73799998 -0.010351679 1.7975589e-38 382 248
0.082182243 0.74400002 -0.01043584 1.7975589e-38 383 248
0.08371114 0.74599999 -0.010463892 1.7233723e-38 384 248
-0.069323286 0.74599999 -0.011771879 1.5851457e-38 267 249
-0.068015307 0.74599999 -0.011771879 1.6682255e-38 268 249
-0.066796735 0.74699998 -0.011787659 1.7512017e-38 269 249
-0.065486997 0.74699998 -0.011787659 1.8616563e-38 270 249
-0.06417726 0.74699998 -0.011787659 1.8708758e-38 271 249
-0.062867515 0.74699998 -0.011787659 1.8800957e-38 272 249
-0.061557774 0.74699998 -0.011787659 1.8708761e-38 273 249
-0.060248036 0.74699998 -0.011787659 1.8707686e-38 274 249
-0.058938295 0.74699998 -0.011787659 1.8523294e-38 275 249
-0.057551414 0.74599999 -0.011771879 1.815595e-38 276 249
-0.056243423 0.74599999 -0.011771879 1.7879723e-38 277 249
-0.054935437 0.74599999 -0.011771879 1.7694962e-38 278 249
-0.053627454 0.74599999 -0.011771879 1.7510212e-38 279 249
-0.052319467 0.74599999 -0.011771879 1.7234707e-38 280 249
-0.051011477 0.74599999 -0.011771879 1.7049957e-38 281 249
-0.04970349 0.74599999 -0.011771879 1.6865567e-38 282 249
-0.048395503 0.74599999 -0.011771879 1.6496786e-38 283 249
-0.047150634 0.74699998 -0.011787659 1.6036517e-38 284 249
-0.045840897 0.74699998 -0.011787659 1.5759571e-38 285 249
-0.044531155 0.74699998 -0.011787659 1.5575532e-38 286 249
-0.04333714 0.74900001 -0.01181922 1.5391501e-38 287 249
-0.042023893 0.74900001 -0.01181922 1.5115274e-38 288 249
-0.040710647 0.74900001 -0.01181922 1.520747e-38 289 249
-0.0393974 0.74900001 -0.01181922 1.5207472e-38 290 249
-0.038084153 0.74900001 -0.01181922 1.5115277e-38 291 249
-0.036819998 0.75 -0.011835 1.4838712e-38 292 249
-0.035505001 0.75 -0.011835 1.4930908e-38 293 249
-0.034189999 0.75 -0.011835 1.4195156e-38 294 249
-0.032962665 0.75199997 -0.011866559 1.4011125e-38 295 249
-0.03172832 0.75400001 -0.01189812 1.428663e-38 296 249
-0.030406307 0.75400001 -0.01189812 1.428663e-38 297 249
-0.029084291 0.75400001 -0.01189812 1.4194432e-38 298 249
-0.027762281 0.75400001 -0.01189812 1.4286986e-38 299 249
-0.026440267 0.75400001 -0.01189812 1.4195504e-38 300 249
-0.025118252 0.75400001 -0.01189812 1.4195504e-38 301 249
-0.02379624 0.75400001 -0.01189812 1.4287704e-38 302 249
-0.022474226 0.75400001 -0.01189812 1.4195507e-38 303 249
-0.021152213 0.75400001 -0.01189812 1.4286986e-38 304 249
-0.019830201 0.75400001 -0.01189812 1.4286986e-38 305 249
-0.018459093 0.75199997 -0.011866559 1.4286983e-38 306 249
-0.017140586 0.75199997 -0.011866559 1.4286983e-38 307 249
-0.015822079 0.75199997 -0.011866559 1.4286981e-38 308 249
-0.014503572 0.75199997 -0.011866559 1.4286981e-38 309 249
-0.013185065 0.75199997 -0.011866559 1.4287336e-38 310 249
-0.011866559 0.75199997 -0.011866559 1.4287336e-38 311 249
-0.010548052 0.75199997 -0.011866559 1.4470649e-38 312 249
-0.0092295464 0.75199997 -0.011866559 1.4470649e-38 313 249
-0.0079110395 0.75199997 -0.011866559 1.4195141e-38 314 249
-0.0065925326 0.75199997 -0.011866559 1.4195141e-38 315 249
-0.0052740262 0.75199997 -0.011866559 1.4287336e-38 316 249
-0.0039555198 0.75199997 -0.011866559 1.4287336e-38 317 249
-0.0026370131 0.75199997 -0.011866559 1.4286981e-38 318 249
-0.0013185065 0.75199997 -0.011866559 1.4286981e-38 319 249
0 0.75199997 -0.011866559 1.4286981e-38 320 249
0.0013185065 0.75199997 -0.011866559 1.4286981e-38 321 249
0.00263 0.75 -0.011835 1.4286983e-38 322 249
0.003945 0.75 -0.011835 1.4286983e-38 323 249
0.00526 0.75 -0.011835 1.4286981e-38 324 249
0.0065662335 0.74900001 -0.01181922 1.4286981e-38 325 249
0.0078794798 0.74900001 -0.01181922 1.428769e-38 326 249
0.0091927266 0.74900001 -0.01181922 1.4379885e-38 327 249
0.010505973 0.74900001 -0.01181922 1.4563551e-38 328 249
0.01181922 0.74900001 -0.01181922 1.4563551e-38 329 249
