# .PCD v.7 - Point Cloud Data file format
FIELDS x y z rgb imX imY
SIZE 4 4 4 4 4 4
TYPE F F F F F F
COUNT 1 1 1 1 1 1
WIDTH 836
HEIGHT 1
VIEWPOINT 0 0 0 1 0 0 0
POINTS 836
DATA ascii
-0.066346131 0.68800002 -0.08564683 1.5758498e-38 265 311
-0.065045156 0.68699998 -0.085522331 1.6035065e-38 266 311
-0.06384062 0.68699998 -0.085522331 1.6403848e-38 267 311
-0.062544905 0.68599999 -0.085397847 1.6771551e-38 268 311
-0.061342116 0.68599999 -0.085397847 1.6956303e-38 269 311
-0.060139328 0.68599999 -0.085397847 1.7323653e-38 270 311
-0.058764715 0.68400002 -0.085148886 1.7508403e-38 271 311
-0.057481278 0.68300003 -0.085024394 1.7418007e-38 272 311
-0.056283753 0.68300003 -0.085024394 1.7510202e-38 273 311
-0.055005573 0.68199998 -0.084899902 1.7876474e-38 274 311
-0.053809796 0.68199998 -0.084899902 1.7876474e-38 275 311
-0.052459732 0.68000001 -0.084650926 1.7876121e-38 276 311
-0.051267464 0.68000001 -0.084650926 1.8060871e-38 277 311
-0.050001562 0.67900002 -0.084526442 1.8244913e-38 278 311
-0.048811045 0.67900002 -0.084526442 1.8613335e-38 279 311
-0.047620531 0.67900002 -0.084526442 1.8614044e-38 280 311
-0.046498399 0.68000001 -0.084650926 1.852149e-38 281 311
-0.045239504 0.67900002 -0.084526442 1.8428559e-38 282 311
-0.043984115 0.67799997 -0.08440195 1.7783189e-38 283 311
-0.042795356 0.67799997 -0.08440195 1.7138173e-38 284 311
-0.041606598 0.67799997 -0.08440195 1.6861586e-38 285 311
-0.040477451 0.67900002 -0.084526442 1.695236e-38 286 311
-0.039286941 0.67900002 -0.084526442 1.7320782e-38 287 311
-0.038096428 0.67900002 -0.084526442 1.7047445e-38 288 311
-0.036960267 0.68000001 -0.084650926 1.7508064e-38 289 311
-0.035873197 0.68199998 -0.084899902 1.8060518e-38 290 311
-0.034677424 0.68199998 -0.084899902 1.8337465e-38 291 311
-0.03348165 0.68199998 -0.084899902 1.8061613e-38 292 311
-0.032285877 0.68199998 -0.084899902 1.8061613e-38 293 311
-0.031135695 0.68300003 -0.085024394 1.7235859e-38 294 311
-0.074546471 0.69700003 -0.087989278 1.3549826e-38 259 312
-0.073324397 0.69700003 -0.087989278 1.382386e-38 260 312
-0.072102323 0.69700003 -0.087989278 1.363911e-38 261 312
-0.070880257 0.69700003 -0.087989278 1.3179188e-38 262 312
-0.069058537 0.69099998 -0.087231837 1.3640166e-38 263 312
-0.067846984 0.69099998 -0.087231837 1.4011094e-38 264 312
-0.066346131 0.68800002 -0.086853124 1.4380236e-38 265 312
-0.065045156 0.68699998 -0.086726874 1.5667362e-38 266 312
-0.06384062 0.68699998 -0.086726874 1.6035786e-38 267 312
-0.062544905 0.68599999 -0.086600631 1.6678624e-38 268 312
-0.061342116 0.68599999 -0.086600631 1.6954851e-38 269 312
-0.059964001 0.68400002 -0.086348161 1.732256e-38 270 312
-0.058764715 0.68400002 -0.086348161 1.7506953e-38 271 312
-0.057481278 0.68300003 -0.086221918 1.7416924e-38 272 312
-0.056283753 0.68300003 -0.086221918 1.7416924e-38 273 312
-0.055005573 0.68199998 -0.086095676 1.7692796e-38 274 312
-0.053652 0.68000001 -0.085843198 1.7692796e-38 275 312
-0.052459732 0.68000001 -0.085843198 1.7875391e-38 276 312
-0.051192071 0.67900002 -0.085716955 1.8151619e-38 277 312
-0.050001562 0.67900002 -0.085716955 1.8336013e-38 278 312
-0.048811045 0.67900002 -0.085716955 1.8704437e-38 279 312
-0.047620531 0.67900002 -0.085716955 1.8704439e-38 280 312
-0.046430022 0.67900002 -0.085716955 1.8704439e-38 281 312
-0.045239504 0.67900002 -0.085716955 1.842928e-38 282 312
-0.043984115 0.67799997 -0.085590713 1.7691715e-38 283 312
-0.042795356 0.67799997 -0.085590713 1.6678624e-38 284 312
-0.041606598 0.67799997 -0.085590713 1.5387885e-38 285 312
-0.040417835 0.67799997 -0.085590713 1.5845634e-38 286 312
-0.039113361 0.676 -0.085338242 1.630661e-38 287 312
-0.037928104 0.676 -0.085338242 1.6032564e-38 288 312
-0.036742851 0.676 -0.085338242 1.6585738e-38 289 312
-0.0356628 0.67799997 -0.085590713 1.7140354e-38 290 312
-0.034524884 0.67900002 -0.085716955 1.7785723e-38 291 312
-0.033383466 0.68000001 -0.085843198 1.8060515e-38 292 312
-0.032191198 0.68000001 -0.085843198 1.8153069e-38 293 312
-0.031090107 0.68199998 -0.086095676 1.7601377e-38 294 312
-0.029894331 0.68199998 -0.086095676 1.7970159e-38 295 312
-0.071481638 0.69099998 -0.088443391 1.3823484e-38 261 313
-0.070270091 0.69099998 -0.088443391 1.3731269e-38 262 313
-0.069058537 0.69099998 -0.088443391 1.30859e-38 263 313
-0.0677488 0.69 -0.088315398 1.2995869e-38 264 313
-0.066346131 0.68800002 -0.088059418 1.3917825e-38 265 313
-0.065045156 0.68699998 -0.087931409 1.4930537e-38 266 313
-0.063747689 0.68599999 -0.087803423 1.5483709e-38 267 313
-0.062544905 0.68599999 -0.087803423 1.6127268e-38 268 313
-0.061342116 0.68599999 -0.087803423 1.6403495e-38 269 313
-0.059964001 0.68400002 -0.087547436 1.6312022e-38 270 313
-0.05867881 0.68300003 -0.087419443 1.6588609e-38 271 313
-0.05739712 0.68199998 -0.087291449 1.677265e-38 272 313
-0.056201346 0.68199998 -0.087291449 1.7049237e-38 273 313
-0.054844268 0.68000001 -0.087035462 1.7232905e-38 274 313
-0.053652 0.68000001 -0.087035462 1.7232905e-38 275 313
-0.052382588 0.67900002 -0.086907476 1.7325105e-38 276 313
-0.051192071 0.67900002 -0.086907476 1.7417301e-38 277 313
-0.049927916 0.67799997 -0.086779475 1.769353e-38 278 313
-0.048739154 0.67799997 -0.086779475 1.7970118e-38 279 313
-0.047550395 0.67799997 -0.086779475 1.8153787e-38 280 313
-0.046361636 0.67799997 -0.086779475 1.8153787e-38 281 313
-0.045172878 0.67799997 -0.086779475 1.8244886e-38 282 313
-0.043854371 0.676 -0.086523488 1.7876105e-38 283 313
-0.042669121 0.676 -0.086523488 1.7597699e-38 284 313
-0.041483864 0.676 -0.086523488 1.6491712e-38 285 313
-0.040298611 0.676 -0.086523488 1.5661226e-38 286 313
-0.039113361 0.676 -0.086523488 1.5937454e-38 287 313
-0.037928104 0.676 -0.086523488 1.584779e-38 288 313
-0.036742851 0.676 -0.086523488 1.6124018e-38 289 313
-0.035557602 0.676 -0.086523488 1.6127278e-38 290 313
-0.034372345 0.676 -0.086523488 1.7049593e-38 291 313
-0.033285279 0.67799997 -0.086779475 1.769209e-38 292 313
-0.032143861 0.67900002 -0.086907476 1.8153066e-38 293 313
-0.030953348 0.67900002 -0.086907476 1.7602782e-38 294 313
-0.029762832 0.67900002 -0.086907476 1.7326197e-38 295 313
-0.028614398 0.68000001 -0.087035462 1.7051831e-38 296 313
-0.070270091 0.69099998 -0.089654945 1.354762e-38 262 314
-0.069058537 0.69099998 -0.089654945 1.2902251e-38 263 314
-0.0677488 0.69 -0.0895252 1.2161443e-38 264 314
-0.066346131 0.68800002 -0.089265712 1.3083398e-38 265 314
-0.065045156 0.68699998 -0.089135952 1.4103296e-38 266 314
-0.063747689 0.68599999 -0.089006208 1.4563915e-38 267 314
-0.062544905 0.68599999 -0.089006208 1.5758123e-38 268 314
-0.061163284 0.68400002 -0.088746719 1.5850318e-38 269 314
-0.059964001 0.68400002 -0.088746719 1.640276e-38 270 314
-0.05867881 0.68300003 -0.088616975 1.6586792e-38 271 314
-0.05739712 0.68199998 -0.088487223 1.6771551e-38 272 314
-0.056201346 0.68199998 -0.088487223 1.7048498e-38 273 314
-0.054844268 0.68000001 -0.088227727 1.7140341e-38 274 314
-0.053573098 0.67900002 -0.08809799 1.695595e-38 275 314
-0.052305438 0.67799997 -0.08796823 1.6863753e-38 276 314
-0.051116679 0.67799997 -0.08796823 1.7140341e-38 277 314
-0.049927916 0.67799997 -0.08796823 1.7875755e-38 278 314
-0.048595384 0.676 -0.087708741 1.8244536e-38 279 314
-0.047410134 0.676 -0.087708741 1.824418e-38 280 314
-0.046224877 0.676 -0.087708741 1.8336734e-38 281 314
-0.045039624 0.676 -0.087708741 1.8337085e-38 282 314
-0.043854371 0.676 -0.087708741 1.8244889e-38 283 314
-0.042669121 0.676 -0.087708741 1.8334916e-38 284 314
-0.041483864 0.676 -0.087708741 1.7597349e-38 285 314
-0.040298611 0.676 -0.087708741 1.6492766e-38 286 314
-0.039055496 0.67500001 -0.087578997 1.492508e-38 287 314
-0.037871998 0.67500001 -0.087578997 1.5752692e-38 288 314
-0.036688499 0.67500001 -0.087578997 1.5937442e-38 289 314
-0.035505001 0.67500001 -0.087578997 1.5296797e-38 290 314
-0.034321502 0.67500001 -0.087578997 1.6034363e-38 291 314
-0.033187091 0.676 -0.087708741 1.6680452e-38 292 314
-0.032001842 0.676 -0.087708741 1.7049593e-38 293 314
-0.030816587 0.676 -0.087708741 1.769209e-38 294 314
-0.029718997 0.67799997 -0.08796823 1.7876121e-38 295 314
-0.028530238 0.67799997 -0.08796823 1.6957805e-38 296 314
-0.027381808 0.67900002 -0.08809799 1.7510979e-38 297 314
-0.070168398 0.69 -0.090734996 1.3823481e-38 262 315
-0.068958595 0.69 -0.090734996 1.3362503e-38 263 315
-0.067552425 0.68800002 -0.090471998 1.3081961e-38 264 315
-0.066346131 0.68800002 -0.090471998 1.2067448e-38 265 315
-0.065045156 0.68699998 -0.090340495 1.2534187e-38 266 315
-0.063747689 0.68599999 -0.090209 1.3917123e-38 267 315
-0.062544905 0.68599999 -0.090209 1.5020933e-38 268 315
-0.061163284 0.68400002 -0.089946002 1.5389716e-38 269 315
-0.059876334 0.68300003 -0.089814499 1.5850674e-38 270 315
-0.05867881 0.68300003 -0.089814499 1.6035065e-38 271 315
-0.05739712 0.68199998 -0.089682996 1.6586438e-38 272 315
-0.056036532 0.68000001 -0.089419998 1.6863384e-38 273 315
-0.054844268 0.68000001 -0.089419998 1.6955227e-38 274 315
-0.053573098 0.67900002 -0.089288503 1.6955227e-38 275 315
-0.052305438 0.67799997 -0.089156993 1.6955599e-38 276 315
-0.051116679 0.67799997 -0.089156993 1.7232186e-38 277 315
-0.049780637 0.676 -0.088893995 1.7233628e-38 278 315
-0.048595384 0.676 -0.088893995 1.7510215e-38 279 315
-0.047410134 0.676 -0.088893995 1.7968675e-38 280 315
-0.046224877 0.676 -0.088893995 1.8060871e-38 281 315
-0.045039624 0.676 -0.088893995 1.8061218e-38 282 315
-0.043789499 0.67500001 -0.088762499 1.7969023e-38 283 315
-0.042606 0.67500001 -0.088762499 1.8337435e-38 284 315
-0.041422497 0.67500001 -0.088762499 1.8061208e-38 285 315
-0.040238999 0.67500001 -0.088762499 1.7873545e-38 286 315
-0.039055496 0.67500001 -0.088762499 1.6214384e-38 287 315
-0.037871998 0.67500001 -0.088762499 1.575233e-38 288 315
-0.036634147 0.67400002 -0.088631004 1.575233e-38 289 315
-0.035452399 0.67400002 -0.088631004 1.5110238e-38 290 315
-0.034321502 0.67500001 -0.088762499 1.5479022e-38 291 315
-0.033137999 0.67500001 -0.088762499 1.5573388e-38 292 315
-0.031954501 0.67500001 -0.088762499 1.6587538e-38 293 315
-0.030771 0.67500001 -0.088762499 1.7049237e-38 294 315
-0.029631332 0.676 -0.088893995 1.7233628e-38 295 315
-0.028446076 0.676 -0.088893995 1.7048533e-38 296 315
-0.027341479 0.67799997 -0.089156993 1.7232925e-38 297 315
-0.026152719 0.67799997 -0.089156993 1.6683055e-38 298 315
-0.068958595 0.69 -0.091944791 1.317956e-38 263 316
-0.067552425 0.68800002 -0.091678292 1.3175223e-38 264 316
-0.066249698 0.68699998 -0.09154503 1.2069234e-38 265 316
-0.065045156 0.68699998 -0.09154503 1.1702256e-38 266 316
-0.063747689 0.68599999 -0.091411777 1.2716768e-38 267 316
-0.062544905 0.68599999 -0.091411777 1.3823835e-38 268 316
-0.061163284 0.68400002 -0.091145277 1.45614e-38 269 316
-0.059876334 0.68300003 -0.091012023 1.5481896e-38 270 316
-0.058592889 0.68199998 -0.090878762 1.5850318e-38 271 316
-0.057228796 0.68000001 -0.090612262 1.6310563e-38 272 316
-0.056036532 0.68000001 -0.090612262 1.6586792e-38 273 316
-0.054763615 0.67900002 -0.090479009 1.6771186e-38 274 316
-0.053494196 0.67799997 -0.090345755 1.6863381e-38 275 316
-0.052151144 0.676 -0.090079248 1.6863753e-38 276 316
-0.050965894 0.676 -0.090079248 1.7140341e-38 277 316
-0.049780637 0.676 -0.090079248 1.7232905e-38 278 316
-0.048523501 0.67500001 -0.089945994 1.7509852e-38 279 316
-0.047339998 0.67500001 -0.089945994 1.7876477e-38 280 316
-0.0461565 0.67500001 -0.089945994 1.7968672e-38 281 316
-0.044972997 0.67500001 -0.089945994 1.7969025e-38 282 316
-0.043789499 0.67500001 -0.089945994 1.8061221e-38 283 316
-0.042542879 0.67400002 -0.089812748 1.8061927e-38 284 316
-0.041361131 0.67400002 -0.089812748 1.8246319e-38 285 316
-0.040179387 0.67400002 -0.089812748 1.8888075e-38 286 316
-0.038997639 0.67400002 -0.089812748 1.7781729e-38 287 316
-0.037815895 0.67400002 -0.089812748 1.7135633e-38 288 316
-0.036634147 0.67400002 -0.089812748 1.6397709e-38 289 316
-0.035452399 0.67400002 -0.089812748 1.5662321e-38 290 316
-0.034270655 0.67400002 -0.089812748 1.5570126e-38 291 316
-0.033088908 0.67400002 -0.089812748 1.4835093e-38 292 316
-0.03190716 0.67400002 -0.089812748 1.5480462e-38 293 316
-0.030771 0.67500001 -0.089945994 1.695595e-38 294 316
-0.0295875 0.67500001 -0.089945994 1.7140341e-38 295 316
-0.028404001 0.67500001 -0.089945994 1.7415854e-38 296 316
-0.027220501 0.67500001 -0.089945994 1.73233e-38 297 316
-0.026075572 0.676 -0.090079248 1.6587581e-38 298 316
-0.068958595 0.69 -0.093154602 1.3180653e-38 263 317
-0.067552425 0.68800002 -0.092884585 1.3728762e-38 264 317
-0.066249698 0.68699998 -0.092749573 1.2807166e-38 265 317
-0.065045156 0.68699998 -0.092749573 1.1611141e-38 266 317
-0.063747689 0.68599999 -0.092614569 1.0965771e-38 267 317
-0.062544905 0.68599999 -0.092614569 1.1889171e-38 268 317
-0.061073858 0.68300003 -0.092209555 1.3364303e-38 269 317
-0.059876334 0.68300003 -0.092209555 1.4929456e-38 270 317
-0.058592889 0.68199998 -0.092074543 1.5298599e-38 271 317
-0.057228796 0.68000001 -0.091804534 1.6125816e-38 272 317
-0.056036532 0.68000001 -0.091804534 1.6310207e-38 273 317
-0.054763615 0.67900002 -0.091669522 1.6586792e-38 274 317
-0.053336397 0.676 -0.091264501 1.6678987e-38 275 317
-0.052151144 0.676 -0.091264501 1.6587523e-38 276 317
-0.050965894 0.676 -0.091264501 1.6955947e-38 277 317
-0.049706999 0.67500001 -0.091129504 1.7140707e-38 278 317
-0.048523501 0.67500001 -0.091129504 1.7325458e-38 279 317
-0.047339998 0.67500001 -0.091129504 1.7692443e-38 280 317
-0.0461565 0.67500001 -0.091129504 1.7876474e-38 281 317
-0.044906374 0.67400002 -0.090994492 1.7876827e-38 282 317
-0.043724626 0.67400002 -0.090994492 1.7969023e-38 283 317
-0.042542879 0.67400002 -0.090994492 1.824524e-38 284 317
-0.041361131 0.67400002 -0.090994492 1.824524e-38 285 317
-0.040060159 0.67199999 -0.090724476 1.8521463e-38 286 317
-0.03888192 0.67199999 -0.090724476 1.8336713e-38 287 317
-0.037703678 0.67199999 -0.090724476 1.8151969e-38 288 317
-0.036525436 0.67199999 -0.090724476 1.7783545e-38 289 317
-0.035347197 0.67199999 -0.090724476 1.7321854e-38 290 317
-0.034118112 0.671 -0.090589471 1.6768682e-38 291 317
-0.032941625 0.671 -0.090589471 1.6308781e-38 292 317
-0.031765141 0.671 -0.090589471 1.6308781e-38 293 317
-0.030634239 0.67199999 -0.090724476 1.6770835e-38 294 317
-0.029455997 0.67199999 -0.090724476 1.6955227e-38 295 317
-0.02836192 0.67400002 -0.090994492 1.7324009e-38 296 317
-0.027180174 0.67400002 -0.090994492 1.7416205e-38 297 317
-0.026037 0.67500001 -0.091129504 1.7140003e-38 298 317
-0.0248535 0.67500001 -0.091129504 1.6863776e-38 299 317
-0.023669999 0.67500001 -0.091129504 1.6682702e-38 300 317
-0.068958595 0.69 -0.094364397 1.3180658e-38 263 318
-0.067552425 0.68800002 -0.094090879 1.3454336e-38 264 318
-0.066346131 0.68800002 -0.094090879 1.317739e-38 265 318
-0.065045156 0.68699998 -0.093954116 1.2622417e-38 266 318
-0.06384062 0.68699998 -0.093954116 1.1331679e-38 267 318
-0.062362559 0.68400002 -0.093543842 1.1333127e-38 268 318
-0.061073858 0.68300003 -0.09340708 1.2531671e-38 269 318
-0.059876334 0.68300003 -0.09340708 1.419262e-38 270 318
-0.058592889 0.68199998 -0.093270317 1.4745794e-38 271 318
-0.057228796 0.68000001 -0.092996798 1.5665561e-38 272 318
-0.055954125 0.67900002 -0.092860043 1.5849952e-38 273 318
-0.054682959 0.67799997 -0.092723273 1.6218731e-38 274 318
-0.053336397 0.676 -0.092449754 1.6403123e-38 275 318
-0.052151144 0.676 -0.092449754 1.6403144e-38 276 318
-0.050890498 0.67500001 -0.092312999 1.6587536e-38 277 318
-0.049706999 0.67500001 -0.092312999 1.6863774e-38 278 318
-0.048523501 0.67500001 -0.092312999 1.7140359e-38 279 318
-0.047339998 0.67500001 -0.092312999 1.7232552e-38 280 318
-0.046088122 0.67400002 -0.092176244 1.7417303e-38 281 318
-0.044773117 0.67199999 -0.091902718 1.7600613e-38 282 318
-0.043594878 0.67199999 -0.091902718 1.7785004e-38 283 318
-0.042416636 0.67199999 -0.091902718 1.7968669e-38 284 318
-0.041238401 0.67199999 -0.091902718 1.7968669e-38 285 318
-0.040060159 0.67199999 -0.091902718 1.8244533e-38 286 318
-0.03888192 0.67199999 -0.091902718 1.8336729e-38 287 318
-0.037647571 0.671 -0.091765963 1.8338534e-38 288 318
-0.036471087 0.671 -0.091765963 1.8430729e-38 289 318
-0.0352946 0.671 -0.091765963 1.8336363e-38 290 318
-0.034118112 0.671 -0.091765963 1.7690994e-38 291 318
-0.032941625 0.671 -0.091765963 1.7231445e-38 292 318
-0.031765141 0.671 -0.091765963 1.7046694e-38 293 318
-0.030588651 0.671 -0.091765963 1.7322207e-38 294 318
-0.029412165 0.671 -0.091765963 1.75066e-38 295 318
-0.028235679 0.671 -0.091765963 1.7600223e-38 296 318
-0.027059194 0.671 -0.091765963 1.7784614e-38 297 318
-0.025921278 0.67199999 -0.091902718 1.7601313e-38 298 318
-0.024816679 0.67400002 -0.092176244 1.7048498e-38 299 318
-0.023634933 0.67400002 -0.092176244 1.6221332e-38 300 318
-0.022453187 0.67400002 -0.092176244 1.751207e-38 301 318
-0.068958595 0.69 -0.095574193 1.3089571e-38 263 319
-0.067552425 0.68800002 -0.095297173 1.3363602e-38 264 319
-0.066346131 0.68800002 -0.095297173 1.3087014e-38 265 319
-0.065045156 0.68699998 -0.095158651 1.3450386e-38 266 319
-0.06384062 0.68699998 -0.095158651 1.2712821e-38 267 319
-0.062362559 0.68400002 -0.094743125 1.1243802e-38 268 319
-0.061073858 0.68300003 -0.094604604 1.0875379e-38 269 319
-0.059788663 0.68199998 -0.09446609 1.2626373e-38 270 319
-0.058421064 0.68000001 -0.094189063 1.3824558e-38 271 319
-0.057228796 0.68000001 -0.094189063 1.4929088e-38 272 319
-0.055954125 0.67900002 -0.094050556 1.529787e-38 273 319
-0.054682959 0.67799997 -0.093912028 1.6033265e-38 274 319
-0.053336397 0.676 -0.093635008 1.6218015e-38 275 319
-0.052151144 0.676 -0.093635008 1.6310213e-38 276 319
-0.050890498 0.67500001 -0.093496501 1.6586441e-38 277 319
-0.049706999 0.67500001 -0.093496501 1.7046343e-38 278 319
-0.048451614 0.67400002 -0.093357988 1.7230736e-38 279 319
-0.047269866 0.67400002 -0.093357988 1.7322934e-38 280 319
-0.046088122 0.67400002 -0.093357988 1.759952e-38 281 319
-0.044773117 0.67199999 -0.093080953 1.7691359e-38 282 319
-0.043530006 0.671 -0.092942439 1.7783914e-38 283 319
-0.042353518 0.671 -0.092942439 1.8059423e-38 284 319
-0.041177034 0.671 -0.092942439 1.8059423e-38 285 319
-0.040000543 0.671 -0.092942439 1.8243449e-38 286 319
-0.038824059 0.671 -0.092942439 1.8243449e-38 287 319
-0.037647571 0.671 -0.092942439 1.815377e-38 288 319
-0.036471087 0.671 -0.092942439 1.8245965e-38 289 319
-0.035241999 0.67000002 -0.092803933 1.8338518e-38 290 319
-0.034067266 0.67000002 -0.092803933 1.8245963e-38 291 319
-0.032892533 0.67000002 -0.092803933 1.8061924e-38 292 319
-0.0317178 0.67000002 -0.092803933 1.7508751e-38 293 319
-0.030543067 0.67000002 -0.092803933 1.7417274e-38 294 319
-0.029368332 0.67000002 -0.092803933 1.7417274e-38 295 319
-0.028193599 0.67000002 -0.092803933 1.7326157e-38 296 319
-0.027018867 0.67000002 -0.092803933 1.7418354e-38 297 319
-0.025882706 0.671 -0.092942439 1.7600949e-38 298 319
-0.024743039 0.67199999 -0.093080953 1.7508753e-38 299 319
-0.023564799 0.67199999 -0.093080953 1.7232944e-38 300 319
-0.022353247 0.671 -0.092942439 1.750953e-38 301 319
-0.021176759 0.671 -0.092942439 1.6412247e-38 302 319
-0.069058537 0.69099998 -0.09692426 1.2997371e-38 263 320
-0.067552425 0.68800002 -0.096503466 1.34558e-38 264 320
-0.066346131 0.68800002 -0.096503466 1.327105e-38 265 320
-0.065139838 0.68800002 -0.096503466 1.3361406e-38 266 320
-0.06384062 0.68699998 -0.096363194 1.2900787e-38 267 320
-0.062362559 0.68400002 -0.0959424 1.2255046e-38 268 320
-0.061073858 0.68300003 -0.095802136 1.1609677e-38 269 320
-0.059788663 0.68199998 -0.095661856 1.1611141e-38 270 320
-0.058421064 0.68000001 -0.095381334 1.3178465e-38 271 320
-0.057144642 0.67900002 -0.095241062 1.4100421e-38 272 320
-0.055871718 0.67799997 -0.09510079 1.4653595e-38 273 320
-0.054682959 0.67799997 -0.09510079 1.5298596e-38 274 320
-0.053336397 0.676 -0.094820268 1.5390792e-38 275 320
-0.052074 0.67500001 -0.094679996 1.5758498e-38 276 320
-0.050890498 0.67500001 -0.094679996 1.6035085e-38 277 320
-0.049633358 0.67400002 -0.094539732 1.6402794e-38 278 320
-0.048451614 0.67400002 -0.094539732 1.6587185e-38 279 320
-0.047269866 0.67400002 -0.094539732 1.6770851e-38 280 320
-0.045951359 0.67199999 -0.094259195 1.7047439e-38 281 320
-0.044706494 0.671 -0.09411893 1.7140709e-38 282 320
-0.043530006 0.671 -0.09411893 1.7232905e-38 283 320
-0.042353518 0.671 -0.09411893 1.7325105e-38 284 320
-0.041177034 0.671 -0.09411893 1.7325105e-38 285 320
-0.040000543 0.671 -0.09411893 1.7600966e-38 286 320
-0.038824059 0.671 -0.09411893 1.7600966e-38 287 320
-0.037591465 0.67000002 -0.093978666 1.7786076e-38 288 320
-0.036416732 0.67000002 -0.093978666 1.7878272e-38 289 320
-0.035241999 0.67000002 -0.093978666 1.8154839e-38 290 320
-0.033965573 0.66799998 -0.093698129 1.8062643e-38 291 320
-0.032794341 0.66799998 -0.093698129 1.8062259e-38 292 320
-0.031623118 0.66799998 -0.093698129 1.7877867e-38 293 320
-0.030451892 0.66799998 -0.093698129 1.7877864e-38 294 320
-0.029280664 0.66799998 -0.093698129 1.7877864e-38 295 320
-0.028193599 0.67000002 -0.093978666 1.796936e-38 296 320
-0.027018867 0.67000002 -0.093978666 1.7877165e-38 297 320
-0.025844134 0.67000002 -0.093978666 1.7876458e-38 298 320
-0.024706218 0.671 -0.09411893 1.7692066e-38 299 320
-0.023529733 0.671 -0.09411893 1.7508403e-38 300 320
-0.022319933 0.67000002 -0.093978666 1.7323653e-38 301 320
-0.0211452 0.67000002 -0.093978666 1.6316401e-38 302 320
-0.019970467 0.67000002 -0.093978666 1.7422749e-38 303 320
-0.069058537 0.69099998 -0.098135822 1.3273264e-38 263 321
-0.067552425 0.68800002 -0.09770976 1.3181751e-38 264 321
-0.066346131 0.68800002 -0.09770976 1.2905163e-38 265 321
-0.065045156 0.68699998 -0.097567737 1.3272107e-38 266 321
-0.06384062 0.68699998 -0.097567737 1.2626738e-38 267 321
-0.06227139 0.68300003 -0.09699966 1.2899362e-38 268 321
-0.061073858 0.68300003 -0.09699966 1.2530578e-38 269 321
-0.059788663 0.68199998 -0.09685763 1.2529153e-38 270 321
-0.058421064 0.68000001 -0.096573599 1.3358913e-38 271 321
-0.057144642 0.67900002 -0.096431576 1.3454705e-38 272 321
-0.055871718 0.67799997 -0.096289553 1.4100074e-38 273 321
-0.054521654 0.676 -0.096005514 1.4929103e-38 274 321
-0.053257499 0.67500001 -0.095863499 1.520605e-38 275 321
-0.052074 0.67500001 -0.095863499 1.5757056e-38 276 321
-0.050815105 0.67400002 -0.095721483 1.5941447e-38 277 321
-0.049486078 0.67199999 -0.095437437 1.6309505e-38 278 321
-0.04830784 0.67199999 -0.095437437 1.6678287e-38 279 321
-0.047129598 0.67199999 -0.095437437 1.6494618e-38 280 321
-0.045951359 0.67199999 -0.095437437 1.6771204e-38 281 321
-0.044706494 0.671 -0.095295422 1.6954878e-38 282 321
-0.043465134 0.67000002 -0.095153399 1.7231104e-38 283 321
-0.042290401 0.67000002 -0.095153399 1.7324009e-38 284 321
-0.041115668 0.67000002 -0.095153399 1.7324009e-38 285 321
-0.039940935 0.67000002 -0.095153399 1.7416202e-38 286 321
-0.038766202 0.67000002 -0.095153399 1.7508398e-38 287 321
-0.037591465 0.67000002 -0.095153399 1.7601316e-38 288 321
-0.036416732 0.67000002 -0.095153399 1.7693512e-38 289 321
-0.035241999 0.67000002 -0.095153399 1.8153773e-38 290 321
-0.033965573 0.66799998 -0.094869353 1.8153773e-38 291 321
-0.032794341 0.66799998 -0.094869353 1.8154123e-38 292 321
-0.031623118 0.66799998 -0.094869353 1.8061927e-38 293 321
-0.030451892 0.66799998 -0.094869353 1.7878612e-38 294 321
-0.029280664 0.66799998 -0.094869353 1.7878612e-38 295 321
-0.028109439 0.66799998 -0.094869353 1.7786063e-38 296 321
-0.026938211 0.66799998 -0.094869353 1.7693868e-38 297 321
-0.025728412 0.667 -0.094727337 1.7692793e-38 298 321
-0.024558939 0.667 -0.094727337 1.7600596e-38 299 321
-0.023424532 0.66799998 -0.094869353 1.75084e-38 300 321
-0.022253305 0.66799998 -0.094869353 1.7600596e-38 301 321
-0.0211452 0.67000002 -0.095153399 1.695779e-38 302 321
-0.019970467 0.67000002 -0.095153399 1.7234016e-38 303 321
-0.018739626 0.66799998 -0.094869353 1.6595191e-38 304 321
-0.067552425 0.68800002 -0.098916054 1.3365788e-38 264 322
-0.066249698 0.68699998 -0.098772272 1.2997005e-38 265 322
-0.065045156 0.68699998 -0.098772272 1.3547255e-38 266 322
-0.06384062 0.68699998 -0.098772272 1.3178112e-38 267 322
-0.06227139 0.68300003 -0.098197185 1.326849e-38 268 322
-0.061073858 0.68300003 -0.098197185 1.3084099e-38 269 322
-0.059788663 0.68199998 -0.098053411 1.2532027e-38 270 322
-0.058421064 0.68000001 -0.09776587 1.2716418e-38 271 322
-0.057144642 0.67900002 -0.097622089 1.2901895e-38 272 322
-0.055706903 0.676 -0.097190768 1.3271036e-38 273 322
-0.054521654 0.676 -0.097190768 1.4009675e-38 274 322
-0.053257499 0.67500001 -0.097047001 1.4470652e-38 275 322
-0.051996857 0.67400002 -0.096903227 1.5389365e-38 276 322
-0.050664317 0.67199999 -0.09661568 1.5481561e-38 277 322
-0.049486078 0.67199999 -0.09661568 1.5666308e-38 278 322
-0.04830784 0.67199999 -0.09661568 1.5942536e-38 279 322
-0.047059465 0.671 -0.096471906 1.6126209e-38 280 322
-0.045882981 0.671 -0.096471906 1.6402794e-38 281 322
-0.044639867 0.67000002 -0.096328132 1.6402788e-38 282 322
-0.043465134 0.67000002 -0.096328132 1.6587538e-38 283 322
-0.042164158 0.66799998 -0.096040577 1.6680089e-38 284 322
-0.040992931 0.66799998 -0.096040577 1.6772284e-38 285 322
-0.039821707 0.66799998 -0.096040577 1.7047792e-38 286 322
-0.038650475 0.66799998 -0.096040577 1.7139988e-38 287 322
-0.037479252 0.66799998 -0.096040577 1.7232908e-38 288 322
-0.036308024 0.66799998 -0.096040577 1.7417301e-38 289 322
-0.035084199 0.667 -0.09589681 1.778536e-38 290 322
-0.033914726 0.667 -0.09589681 1.778536e-38 291 322
-0.032745253 0.667 -0.09589681 1.8060855e-38 292 322
-0.03157578 0.667 -0.09589681 1.8060855e-38 293 322
-0.030406304 0.667 -0.09589681 1.8061924e-38 294 322
-0.029280664 0.66799998 -0.096040577 1.8061924e-38 295 322
-0.028109439 0.66799998 -0.096040577 1.7786061e-38 296 322
-0.026938211 0.66799998 -0.096040577 1.7693865e-38 297 322
-0.025728412 0.667 -0.09589681 1.7509116e-38 298 322
-0.024558939 0.667 -0.09589681 1.7416921e-38 299 322
-0.023389466 0.667 -0.09589681 1.7232892e-38 300 322
-0.022219993 0.667 -0.09589681 1.7232892e-38 301 322
-0.021050518 0.667 -0.09589681 1.7048161e-38 302 322
-0.019881045 0.667 -0.09589681 1.7140356e-38 303 322
-0.018739626 0.66799998 -0.096040577 1.6316418e-38 304 322
-0.017568398 0.66799998 -0.096040577 1.751496e-38 305 322
-0.066249698 0.68699998 -0.099976815 1.2997748e-38 265 323
-0.065045156 0.68699998 -0.099976815 1.3638759e-38 266 323
-0.06384062 0.68699998 -0.099976815 1.3270336e-38 267 323
-0.062544905 0.68599999 -0.099831291 1.3269945e-38 268 323
-0.061073858 0.68300003 -0.099394716 1.3085195e-38 269 323
-0.059788663 0.68199998 -0.099249184 1.2900802e-38 270 323
-0.058421064 0.68000001 -0.098958135 1.2716771e-38 271 323
-0.057060476 0.67799997 -0.09866707 1.2991929e-38 272 323
-0.055706903 0.676 -0.098376028 1.3360352e-38 273 323
-0.054441001 0.67500001 -0.098230496 1.3271757e-38 274 323
-0.053257499 0.67500001 -0.098230496 1.3917126e-38 275 323
-0.051842555 0.67199999 -0.097793922 1.4377731e-38 276 323
-0.050664317 0.67199999 -0.097793922 1.4746513e-38 277 323
-0.049412437 0.671 -0.09764839 1.538936e-38 278 323
-0.048235953 0.671 -0.09764839 1.557411e-38 279 323
-0.047059465 0.671 -0.09764839 1.5849615e-38 280 323
-0.0458146 0.67000002 -0.097502865 1.6034366e-38 281 323
-0.044639867 0.67000002 -0.097502865 1.6218031e-38 282 323
-0.043335386 0.66799998 -0.097211808 1.6402423e-38 283 323
-0.042164158 0.66799998 -0.097211808 1.6403142e-38 284 323
-0.040992931 0.66799998 -0.097211808 1.6495337e-38 285 323
-0.039762091 0.667 -0.097066283 1.6587536e-38 286 323
-0.038592618 0.667 -0.097066283 1.6679733e-38 287 323
-0.037423145 0.667 -0.097066283 1.6864127e-38 288 323
-0.036253672 0.667 -0.097066283 1.7140354e-38 289 323
-0.035084199 0.667 -0.097066283 1.7508414e-38 290 323
-0.033914726 0.667 -0.097066283 1.7600969e-38 291 323
-0.032696161 0.66600001 -0.096920758 1.7692443e-38 292 323
-0.031528439 0.66600001 -0.096920758 1.7692443e-38 293 323
-0.030360719 0.66600001 -0.096920758 1.7693159e-38 294 323
-0.029236831 0.667 -0.097066283 1.7693159e-38 295 323
-0.028067358 0.667 -0.097066283 1.7693159e-38 296 323
-0.026897885 0.667 -0.097066283 1.7600963e-38 297 323
-0.02568984 0.66600001 -0.096920758 1.741657e-38 298 323
-0.02452212 0.66600001 -0.096920758 1.7232539e-38 299 323
-0.023354398 0.66600001 -0.096920758 1.7323656e-38 300 323
-0.02218668 0.66600001 -0.096920758 1.723146e-38 301 323
-0.02101896 0.66600001 -0.096920758 1.7048514e-38 302 323
-0.019851239 0.66600001 -0.096920758 1.7140709e-38 303 323
-0.018683519 0.66600001 -0.096920758 1.5946177e-38 304 323
-0.017515799 0.66600001 -0.096920758 1.6775577e-38 305 323
-0.066249698 0.68699998 -0.10118135 1.3273983e-38 265 324
-0.065045156 0.68699998 -0.10118135 1.3364346e-38 266 324
-0.06384062 0.68699998 -0.10118135 1.3087759e-38 267 324
-0.062636077 0.68699998 -0.10118135 1.3362153e-38 268 324
-0.061073858 0.68300003 -0.10059224 1.3177762e-38 269 324
-0.059788663 0.68199998 -0.10044495 1.2901885e-38 270 324
-0.058421064 0.68000001 -0.10015039 1.2717134e-38 271 324
-0.057060476 0.67799997 -0.099855833 1.2899377e-38 272 324
-0.055706903 0.676 -0.099561274 1.2991573e-38 273 324
-0.054441001 0.67500001 -0.099413998 1.3084847e-38 274 324
-0.053178601 0.67400002 -0.099266715 1.3730217e-38 275 324
-0.051842555 0.67199999 -0.098972157 1.3824558e-38 276 324
-0.050664317 0.67199999 -0.098972157 1.4285536e-38 277 324
-0.049412437 0.671 -0.098824874 1.4746144e-38 278 324
-0.048164066 0.67000002 -0.098677598 1.4930537e-38 279 324
-0.046989333 0.67000002 -0.098677598 1.5664858e-38 280 324
-0.0458146 0.67000002 -0.098677598 1.5849249e-38 281 324
-0.044506609 0.66799998 -0.098383039 1.6032914e-38 282 324
-0.043335386 0.66799998 -0.098383039 1.612511e-38 283 324
-0.042101037 0.667 -0.098235756 1.6034714e-38 284 324
-0.040931564 0.667 -0.098235756 1.6127268e-38 285 324
-0.039762091 0.667 -0.098235756 1.6403139e-38 286 324
-0.038592618 0.667 -0.098235756 1.6403139e-38 287 324
-0.037423145 0.667 -0.098235756 1.6771198e-38 288 324
-0.03619932 0.66600001 -0.098088481 1.695595e-38 289 324
-0.035031598 0.66600001 -0.098088481 1.7231455e-38 290 324
-0.03386388 0.66600001 -0.098088481 1.7324009e-38 291 324
-0.032696161 0.66600001 -0.098088481 1.7323653e-38 292 324
-0.031528439 0.66600001 -0.098088481 1.7508403e-38 293 324
-0.030360719 0.66600001 -0.098088481 1.7691359e-38 294 324
-0.029192999 0.66600001 -0.098088481 1.7691359e-38 295 324
-0.028025279 0.66600001 -0.098088481 1.7783911e-38 296 324
-0.026857559 0.66600001 -0.098088481 1.7691715e-38 297 324
-0.02568984 0.66600001 -0.098088481 1.7415852e-38 298 324
-0.02452212 0.66600001 -0.098088481 1.7323656e-38 299 324
-0.023354398 0.66600001 -0.098088481 1.7231458e-38 300 324
-0.02218668 0.66600001 -0.098088481 1.7047426e-38 301 324
-0.02101896 0.66600001 -0.098088481 1.6772281e-38 302 324
-0.019851239 0.66600001 -0.098088481 1.6864477e-38 303 324
-0.018683519 0.66600001 -0.098088481 1.6495732e-38 304 324
-0.017515799 0.66600001 -0.098088481 1.6956711e-38 305 324
-0.016348081 0.66600001 -0.098088481 1.6410081e-38 306 324
-0.065045156 0.68699998 -0.10238589 1.3181413e-38 266 325
-0.06384062 0.68699998 -0.10238589 1.2997021e-38 267 325
-0.062636077 0.68699998 -0.10238589 1.3454368e-38 268 325
-0.061073858 0.68300003 -0.10178977 1.317814e-38 269 325
-0.059788663 0.68199998 -0.10164072 1.3269589e-38 270 325
-0.058421064 0.68000001 -0.10134266 1.3085198e-38 271 325
-0.057060476 0.67799997 -0.1010446 1.3267073e-38 272 325
-0.055706903 0.676 -0.10074653 1.3174519e-38 273 325
-0.054441001 0.67500001 -0.10059749 1.2900101e-38 274 325
-0.053178601 0.67400002 -0.10044847 1.317669e-38 275 325
-0.051842555 0.67199999 -0.10015039 1.3087711e-38 276 325
-0.050588924 0.671 -0.10000136 1.3456854e-38 277 325
-0.049412437 0.671 -0.10000136 1.4376989e-38 278 325
-0.048164066 0.67000002 -0.099852331 1.4746131e-38 279 325
-0.046989333 0.67000002 -0.099852331 1.5297867e-38 280 325
-0.0458146 0.67000002 -0.099852331 1.5390063e-38 281 325
-0.044506609 0.66799998 -0.099554263 1.529787e-38 282 325
-0.04327051 0.667 -0.099405229 1.5390066e-38 283 325
-0.042101037 0.667 -0.099405229 1.5298599e-38 284 325
-0.040931564 0.667 -0.099405229 1.5574826e-38 285 325
-0.039702479 0.66600001 -0.099256195 1.5759574e-38 286 325
-0.03853476 0.66600001 -0.099256195 1.585177e-38 287 325
-0.037367038 0.66600001 -0.099256195 1.6403142e-38 288 325
-0.03619932 0.66600001 -0.099256195 1.6495337e-38 289 325
-0.035031598 0.66600001 -0.099256195 1.6587533e-38 290 325
-0.03386388 0.66600001 -0.099256195 1.6680089e-38 291 325
-0.032696161 0.66600001 -0.099256195 1.6680098e-38 292 325
-0.031433757 0.66399997 -0.098958127 1.6864848e-38 293 325
-0.030269546 0.66399997 -0.098958127 1.7048161e-38 294 325
-0.029192999 0.66600001 -0.099256195 1.7048161e-38 295 325
-0.028025279 0.66600001 -0.099256195 1.7232186e-38 296 325
-0.026857559 0.66600001 -0.099256195 1.7139991e-38 297 325
-0.02568984 0.66600001 -0.099256195 1.7139988e-38 298 325
-0.02452212 0.66600001 -0.099256195 1.6955597e-38 299 325
-0.023354398 0.66600001 -0.099256195 1.6772281e-38 300 325
-0.02218668 0.66600001 -0.099256195 1.6680086e-38 301 325
-0.020955838 0.66399997 -0.098958127 1.6679733e-38 302 325
-0.019791625 0.66399997 -0.098958127 1.6679733e-38 303 325
-0.018683519 0.66600001 -0.099256195 1.6588281e-38 304 325
-0.017515799 0.66600001 -0.099256195 1.6864508e-38 305 325
-0.016348081 0.66600001 -0.099256195 1.5855092e-38 306 325
-0.063561834 0.68400002 -0.10313808 1.2905202e-38 267 326
-0.062362559 0.68400002 -0.10313808 1.3272516e-38 268 326
-0.061073858 0.68300003 -0.1029873 1.2811539e-38 269 326
-0.059876334 0.68300003 -0.1029873 1.3085939e-38 270 326
-0.058592889 0.68199998 -0.1028365 1.2993743e-38 271 326
-0.057144642 0.67900002 -0.10238414 1.3084491e-38 272 326
-0.055706903 0.676 -0.10193179 1.2992294e-38 273 326
-0.054441001 0.67500001 -0.101781 1.2807537e-38 274 326
-0.053178601 0.67400002 -0.10163021 1.2899733e-38 275 326
-0.051842555 0.67199999 -0.10132863 1.2624573e-38 276 326
-0.050588924 0.671 -0.10117785 1.2624573e-38 277 326
-0.049412437 0.671 -0.10117785 1.3178815e-38 278 326
-0.048164066 0.67000002 -0.10102707 1.3824185e-38 279 326
-0.046989333 0.67000002 -0.10102707 1.4561034e-38 280 326
-0.045677837 0.66799998 -0.10072549 1.465323e-38 281 326
-0.044506609 0.66799998 -0.10072549 1.520388e-38 282 326
-0.04327051 0.667 -0.1005747 1.5296075e-38 283 326
-0.042101037 0.667 -0.1005747 1.5480815e-38 284 326
-0.040931564 0.667 -0.1005747 1.5480815e-38 285 326
-0.039702479 0.66600001 -0.10042392 1.5757757e-38 286 326
-0.03853476 0.66600001 -0.10042392 1.5757757e-38 287 326
-0.037367038 0.66600001 -0.10042392 1.6125816e-38 288 326
-0.03619932 0.66600001 -0.10042392 1.6310207e-38 289 326
-0.0349264 0.66399997 -0.10012234 1.6586076e-38 290 326
-0.033762183 0.66399997 -0.10012234 1.6678271e-38 291 326
-0.03259797 0.66399997 -0.10012234 1.6770116e-38 292 326
-0.031433757 0.66399997 -0.10012234 1.6954148e-38 293 326
-0.030269546 0.66399997 -0.10012234 1.695415e-38 294 326
-0.02910533 0.66399997 -0.10012234 1.7046346e-38 295 326
-0.027941117 0.66399997 -0.10012234 1.7137823e-38 296 326
-0.026776904 0.66399997 -0.10012234 1.7137823e-38 297 326
-0.025612691 0.66399997 -0.10012234 1.6954148e-38 298 326
-0.024448479 0.66399997 -0.10012234 1.7046343e-38 299 326
-0.023284266 0.66399997 -0.10012234 1.6770833e-38 300 326
-0.02218668 0.66600001 -0.10042392 1.6770833e-38 301 326
-0.020955838 0.66399997 -0.10012234 1.6587167e-38 302 326
-0.019791625 0.66399997 -0.10012234 1.6587167e-38 303 326
-0.018683519 0.66600001 -0.10042392 1.640387e-38 304 326
-0.017515799 0.66600001 -0.10042392 1.6680098e-38 305 326
-0.016348081 0.66600001 -0.10042392 1.5945826e-38 306 326
-0.062362559 0.68400002 -0.10433736 1.336364e-38 268 327
-0.061163284 0.68400002 -0.10433736 1.3087053e-38 269 327
-0.059964001 0.68400002 -0.10433736 1.3178856e-38 270 327
-0.058592889 0.68199998 -0.10403228 1.2994465e-38 271 327
-0.057228796 0.68000001 -0.1037272 1.3176674e-38 272 327
-0.055954125 0.67900002 -0.10357466 1.3084477e-38 273 327
-0.054441001 0.67500001 -0.1029645 1.3175594e-38 274 327
-0.053020798 0.67199999 -0.10250688 1.2899367e-38 275 327
-0.051765412 0.671 -0.10235433 1.2716068e-38 276 327
-0.050588924 0.671 -0.10235433 1.2900099e-38 277 327
-0.049338799 0.67000002 -0.1022018 1.2809346e-38 278 327
-0.048164066 0.67000002 -0.1022018 1.3178488e-38 279 327
-0.046989333 0.67000002 -0.1022018 1.3639813e-38 280 327
-0.045677837 0.66799998 -0.10189671 1.3916759e-38 281 327
-0.044506609 0.66799998 -0.10189671 1.3917831e-38 282 327
-0.04327051 0.667 -0.10174417 1.4102224e-38 283 327
-0.042101037 0.667 -0.10174417 1.4561753e-38 284 327
-0.040931564 0.667 -0.10174417 1.4653948e-38 285 327
-0.039702479 0.66600001 -0.10159164 1.5114202e-38 286 327
-0.03853476 0.66600001 -0.10159164 1.5114202e-38 287 327
-0.037367038 0.66600001 -0.10159164 1.5481545e-38 288 327
-0.036090612 0.66399997 -0.10128655 1.5573741e-38 289 327
-0.0349264 0.66399997 -0.10128655 1.5849617e-38 290 327
-0.033762183 0.66399997 -0.10128655 1.5941813e-38 291 327
-0.03259797 0.66399997 -0.10128655 1.6034016e-38 292 327
-0.031386416 0.66299999 -0.10113402 1.6218407e-38 293 327
-0.030223956 0.66299999 -0.10113402 1.6034379e-38 294 327
-0.02910533 0.66399997 -0.10128655 1.6126574e-38 295 327
-0.027941117 0.66399997 -0.10128655 1.6218407e-38 296 327
-0.026736578 0.66299999 -0.10113402 1.6218407e-38 297 327
-0.025574118 0.66299999 -0.10113402 1.6402791e-38 298 327
-0.024411658 0.66299999 -0.10113402 1.621876e-38 299 327
-0.0232492 0.66299999 -0.10113402 1.6127278e-38 300 327
-0.022120051 0.66399997 -0.10128655 1.6127278e-38 301 327
-0.020955838 0.66399997 -0.10128655 1.5943966e-38 302 327
-0.019791625 0.66399997 -0.10128655 1.5943966e-38 303 327
-0.018683519 0.66600001 -0.10159164 1.6220195e-38 304 327
-0.017515799 0.66600001 -0.10159164 1.6312391e-38 305 327
-0.016298985 0.66399997 -0.10128655 1.6036199e-38 306 327
-0.015134773 0.66399997 -0.10128655 1.6404982e-38 307 327
-0.061163284 0.68400002 -0.10553664 1.2996675e-38 269 328
-0.059964001 0.68400002 -0.10553664 1.3179602e-38 270 328
-0.05867881 0.68300003 -0.10538235 1.2902656e-38 271 328
-0.05739712 0.68199998 -0.10522805 1.3086292e-38 272 328
-0.055954125 0.67900002 -0.10476518 1.2901901e-38 273 328
-0.054521654 0.676 -0.10430229 1.2900449e-38 274 328
-0.053020798 0.67199999 -0.10368511 1.2900449e-38 275 328
-0.051765412 0.671 -0.10353082 1.2716421e-38 276 328
-0.050588924 0.671 -0.10353082 1.2623866e-38 277 328
-0.049338799 0.67000002 -0.10337654 1.2716421e-38 278 328
-0.048164066 0.67000002 -0.10337654 1.2900452e-38 279 328
-0.046989333 0.67000002 -0.10337654 1.2626017e-38 280 328
-0.045677837 0.66799998 -0.10306793 1.3179191e-38 281 328
-0.044506609 0.66799998 -0.10306793 1.3732712e-38 282 328
-0.04327051 0.667 -0.10291365 1.3825267e-38 283 328
-0.042101037 0.667 -0.10291365 1.4835446e-38 284 328
-0.040870197 0.66600001 -0.10275936 1.4927643e-38 285 328
-0.039702479 0.66600001 -0.10275936 1.5113106e-38 286 328
-0.03853476 0.66600001 -0.10275936 1.5113106e-38 287 328
-0.037254825 0.66399997 -0.10245077 1.5572289e-38 288 328
-0.036090612 0.66399997 -0.10245077 1.5480094e-38 289 328
-0.0349264 0.66399997 -0.10245077 1.5664492e-38 290 328
-0.033711337 0.66299999 -0.10229647 1.5848523e-38 291 328
-0.032499783 0.662 -0.10214218 1.5848526e-38 292 328
-0.031339079 0.662 -0.10214218 1.6032917e-38 293 328
-0.030178372 0.662 -0.10214218 1.6125116e-38 294 328
-0.029061496 0.66299999 -0.10229647 1.6217311e-38 295 328
-0.027856959 0.662 -0.10214218 1.6216955e-38 296 328
-0.026655925 0.66100001 -0.10198789 1.6216955e-38 297 328
-0.025496973 0.66100001 -0.10198789 1.6309511e-38 298 328
-0.02433802 0.66100001 -0.10198789 1.6216955e-38 299 328
-0.023214132 0.662 -0.10214218 1.6034716e-38 300 328
-0.022120051 0.66399997 -0.10245077 1.5942519e-38 301 328
-0.020924279 0.66299999 -0.10229647 1.6034714e-38 302 328
-0.019761819 0.66299999 -0.10229647 1.6034714e-38 303 328
-0.018627413 0.66399997 -0.10245077 1.594324e-38 304 328
-0.0174632 0.66399997 -0.10245077 1.6127631e-38 305 328
-0.016298985 0.66399997 -0.10245077 1.621841e-38 306 328
-0.015134773 0.66399997 -0.10245077 1.6586832e-38 307 328
-0.05867881 0.68300003 -0.10657988 1.2443481e-38 271 329
-0.05739712 0.68199998 -0.10642382 1.2994109e-38 272 329
-0.056036532 0.68000001 -0.10611173 1.2717882e-38 273 329
-0.054521654 0.676 -0.10548755 1.2901179e-38 274 329
-0.053020798 0.67199999 -0.10486335 1.2808982e-38 275 329
-0.051765412 0.671 -0.10470732 1.2716781e-38 276 329
-0.050588924 0.671 -0.10470732 1.2624585e-38 277 329
-0.049412437 0.671 -0.10470732 1.2532392e-38 278 329
-0.048164066 0.67000002 -0.10455126 1.2624588e-38 279 329
-0.046989333 0.67000002 -0.10455126 1.2716415e-38 280 329
-0.045677837 0.66799998 -0.10423917 1.2716415e-38 281 329
-0.044506609 0.66799998 -0.10423917 1.3270661e-38 282 329
-0.04327051 0.667 -0.10408312 1.3547248e-38 283 329
-0.042037919 0.66600001 -0.10392708 1.3916383e-38 284 329
-0.040870197 0.66600001 -0.10392708 1.4100775e-38 285 329
-0.039702479 0.66600001 -0.10392708 1.4652498e-38 286 329
-0.03853476 0.66600001 -0.10392708 1.4744694e-38 287 329
-0.037254825 0.66399997 -0.10361498 1.4929444e-38 288 329
-0.036036257 0.66299999 -0.10345893 1.4837248e-38 289 329
-0.034873798 0.66299999 -0.10345893 1.5204598e-38 290 329
-0.033660494 0.662 -0.10330289 1.5204598e-38 291 329
-0.032450691 0.66100001 -0.10314685 1.5204604e-38 292 329
-0.031291738 0.66100001 -0.10314685 1.52968e-38 293 329
-0.030132787 0.66100001 -0.10314685 1.5388641e-38 294 329
-0.028973831 0.66100001 -0.10314685 1.5481195e-38 295 329
-0.02781488 0.66100001 -0.10314685 1.5480839e-38 296 329
-0.026655925 0.66100001 -0.10314685 1.5757425e-38 297 329
-0.025496973 0.66100001 -0.10314685 1.5666302e-38 298 329
-0.02433802 0.66100001 -0.10314685 1.5574107e-38 299 329
-0.023179067 0.66100001 -0.10314685 1.5666656e-38 300 329
-0.022053426 0.662 -0.10330289 1.557446e-38 301 329
-0.020892721 0.662 -0.10330289 1.5666656e-38 302 329
-0.019732011 0.662 -0.10330289 1.5666656e-38 303 329
-0.018599359 0.66299999 -0.10345893 1.5758854e-38 304 329
-0.017436899 0.66299999 -0.10345893 1.5758854e-38 305 329
-0.016298985 0.66399997 -0.10361498 1.5759571e-38 306 329
-0.015134773 0.66399997 -0.10361498 1.5851767e-38 307 329
-0.013970559 0.66399997 -0.10361498 1.5300079e-38 308 329
-0.057481278 0.68300003 -0.1077774 1.2901939e-38 272 330
-0.056201346 0.68199998 -0.10761959 1.2717547e-38 273 330
-0.055005573 0.68199998 -0.10761959 1.2625687e-38 274 330
-0.053809796 0.68199998 -0.10761959 1.2533491e-38 275 330
-0.051765412 0.671 -0.10588379 1.2533834e-38 276 330
-0.050588924 0.671 -0.10588379 1.2349443e-38 277 330
-0.049412437 0.671 -0.10588379 1.2532745e-38 278 330
-0.048164066 0.67000002 -0.105726 1.2348356e-38 279 330
-0.046989333 0.67000002 -0.105726 1.2348712e-38 280 330
-0.045677837 0.66799998 -0.1054104 1.2348712e-38 281 330
-0.044506609 0.66799998 -0.1054104 1.2900802e-38 282 330
-0.04327051 0.667 -0.10525259 1.317739e-38 283 330
-0.042037919 0.66600001 -0.1050948 1.2905105e-38 284 330
-0.040870197 0.66600001 -0.1050948 1.3273529e-38 285 330
-0.039702479 0.66600001 -0.1050948 1.4284074e-38 286 330
-0.038419038 0.66399997 -0.10477919 1.437627e-38 287 330
-0.037198719 0.66299999 -0.1046214 1.4469189e-38 288 330
-0.035981905 0.662 -0.1044636 1.4469189e-38 289 330
-0.034821201 0.662 -0.1044636 1.4836176e-38 290 330
-0.033609647 0.66100001 -0.1043058 1.4928372e-38 291 330
-0.032450691 0.66100001 -0.1043058 1.4928374e-38 292 330
-0.031291738 0.66100001 -0.1043058 1.5112406e-38 293 330
-0.030132787 0.66100001 -0.1043058 1.5020933e-38 294 330
-0.028973831 0.66100001 -0.1043058 1.5020933e-38 295 330
-0.02781488 0.66100001 -0.1043058 1.5020933e-38 296 330
-0.026655925 0.66100001 -0.1043058 1.529752e-38 297 330
-0.025496973 0.66100001 -0.1043058 1.5114205e-38 298 330
-0.02433802 0.66100001 -0.1043058 1.5114205e-38 299 330
-0.023179067 0.66100001 -0.1043058 1.5390066e-38 300 330
-0.022053426 0.662 -0.1044636 1.5390066e-38 301 330
-0.020892721 0.662 -0.1044636 1.5482261e-38 302 330
-0.019732011 0.662 -0.1044636 1.5574457e-38 303 330
-0.018599359 0.66299999 -0.1046214 1.5666656e-38 304 330
-0.017436899 0.66299999 -0.1046214 1.557446e-38 305 330
-0.016274439 0.66299999 -0.1046214 1.5575182e-38 306 330
-0.015111978 0.66299999 -0.1046214 1.5667377e-38 307 330
-0.013949519 0.66299999 -0.1046214 1.5484455e-38 308 330
-0.050664317 0.67199999 -0.10721984 1.2440572e-38 277 331
-0.049412437 0.671 -0.10706028 1.2441276e-38 278 331
-0.048164066 0.67000002 -0.10690073 1.234908e-38 279 331
-0.046989333 0.67000002 -0.10690073 1.2073567e-38 280 331
-0.045677837 0.66799998 -0.10658162 1.1981371e-38 281 331
-0.044506609 0.66799998 -0.10658162 1.2348712e-38 282 331
-0.04327051 0.667 -0.10642207 1.2717134e-38 283 331
-0.042037919 0.66600001 -0.10626251 1.2902231e-38 284 331
-0.040870197 0.66600001 -0.10626251 1.2994428e-38 285 331
-0.039702479 0.66600001 -0.10626251 1.3730903e-38 286 331
-0.038419038 0.66399997 -0.1059434 1.3823099e-38 287 331
-0.037198719 0.66299999 -0.10578386 1.4191157e-38 288 331
-0.035981905 0.662 -0.1056243 1.4375188e-38 289 331
-0.034821201 0.662 -0.1056243 1.4559219e-38 290 331
-0.033609647 0.66100001 -0.10546475 1.4651415e-38 291 331
-0.032450691 0.66100001 -0.10546475 1.4651062e-38 292 331
-0.031291738 0.66100001 -0.10546475 1.492729e-38 293 331
-0.030132787 0.66100001 -0.10546475 1.4744343e-38 294 331
-0.028886165 0.65899998 -0.10514564 1.4836539e-38 295 331
-0.027730718 0.65899998 -0.10514564 1.4836539e-38 296 331
-0.026575271 0.65899998 -0.10514564 1.5021289e-38 297 331
-0.025419824 0.65899998 -0.10514564 1.4929812e-38 298 331
-0.02433802 0.66100001 -0.10546475 1.4929812e-38 299 331
-0.023179067 0.66100001 -0.10546475 1.5113835e-38 300 331
-0.022020113 0.66100001 -0.10546475 1.5113835e-38 301 331
-0.02086116 0.66100001 -0.10546475 1.5297867e-38 302 331
-0.019702207 0.66100001 -0.10546475 1.5390063e-38 303 331
-0.018599359 0.66299999 -0.10578386 1.5298949e-38 304 331
-0.017436899 0.66299999 -0.10578386 1.5298949e-38 305 331
-0.016274439 0.66299999 -0.10578386 1.5207117e-38 306 331
-0.015089186 0.662 -0.1056243 1.5391867e-38 307 331
-0.01392848 0.662 -0.1056243 1.5300767e-38 308 331
-0.012767773 0.662 -0.1056243 1.5300767e-38 309 331
-0.049412437 0.671 -0.10823677 1.1981386e-38 278 332
-0.048164066 0.67000002 -0.10807547 1.2073582e-38 279 332
-0.046989333 0.67000002 -0.10807547 1.2256879e-38 280 332
-0.045677837 0.66799998 -0.10775284 1.2164683e-38 281 332
-0.044506609 0.66799998 -0.10775284 1.2256879e-38 282 332
-0.04327051 0.667 -0.10759154 1.2441629e-38 283 332
-0.042037919 0.66600001 -0.10743023 1.2533824e-38 284 332
-0.040870197 0.66600001 -0.10743023 1.2810053e-38 285 332
-0.039583251 0.66399997 -0.10710762 1.2811485e-38 286 332
-0.038419038 0.66399997 -0.10710762 1.2811485e-38 287 332
-0.037198719 0.66299999 -0.10694631 1.3362856e-38 288 332
-0.035981905 0.662 -0.10678501 1.3455052e-38 289 332
-0.034821201 0.662 -0.10678501 1.3823113e-38 290 332
-0.033609647 0.66100001 -0.1066237 1.3915309e-38 291 332
-0.032450691 0.66100001 -0.1066237 1.3915311e-38 292 332
-0.031291738 0.66100001 -0.1066237 1.4099703e-38 293 332
-0.030132787 0.66100001 -0.1066237 1.4100424e-38 294 332
-0.028886165 0.65899998 -0.10630108 1.419262e-38 295 332
-0.027730718 0.65899998 -0.10630108 1.4284817e-38 296 332
-0.026575271 0.65899998 -0.10630108 1.4561044e-38 297 332
-0.025419824 0.65899998 -0.10630108 1.45614e-38 298 332
-0.024264378 0.65899998 -0.10630108 1.45614e-38 299 332
-0.023179067 0.66100001 -0.1066237 1.4745425e-38 300 332
-0.022020113 0.66100001 -0.1066237 1.465323e-38 301 332
-0.02086116 0.66100001 -0.1066237 1.4653592e-38 302 332
-0.019702207 0.66100001 -0.1066237 1.4838342e-38 303 332
-0.018571306 0.662 -0.10678501 1.4563195e-38 304 332
-0.017410601 0.662 -0.10678501 1.465575e-38 305 332
-0.016274439 0.66299999 -0.10694631 1.438025e-38 306 332
-0.015089186 0.662 -0.10678501 1.4565e-38 307 332
-0.01392848 0.662 -0.10678501 1.4656489e-38 308 332
