# .PCD v.7 - Point Cloud Data file format
FIELDS x y z rgb imX imY
SIZE 4 4 4 4 4 4
TYPE F F F F F F
COUNT 1 1 1 1 1 1
WIDTH 827
HEIGHT 1
VIEWPOINT 0 0 0 1 0 0 0
POINTS 827
DATA ascii
0.032831166 0.74900001 -0.064349085 1.529787e-38 345 289
0.034144413 0.74900001 -0.064349085 1.4839043e-38 346 289
0.03545766 0.74900001 -0.064349085 1.4562456e-38 347 289
0.036770906 0.74900001 -0.064349085 1.4469183e-38 348 289
0.038084153 0.74900001 -0.064349085 1.4008564e-38 349 289
0.0393974 0.74900001 -0.064349085 1.3823096e-38 350 289
0.040710647 0.74900001 -0.064349085 1.3546509e-38 351 289
0.042023893 0.74900001 -0.064349085 1.3360689e-38 352 289
0.04333714 0.74900001 -0.064349085 1.3084102e-38 353 289
0.044709999 0.75 -0.064434998 1.2898638e-38 354 289
0.046024997 0.75 -0.064434998 1.2622052e-38 355 289
0.047466237 0.75199997 -0.064606823 1.2070673e-38 356 289
0.048784744 0.75199997 -0.064606823 1.170189e-38 357 289
0.050236505 0.75400001 -0.064778648 1.1425303e-38 358 289
0.051558517 0.75400001 -0.064778648 1.1056521e-38 359 289
0.052950665 0.755 -0.064864561 1.0320052e-38 360 289
0.054274432 0.755 -0.064864561 1.0043463e-38 361 289
0.055745479 0.75700003 -0.065036394 9.3059236e-39 362 289
0.057072755 0.75700003 -0.065036394 9.2133692e-39 363 289
0.058400027 0.75700003 -0.065036394 8.7538386e-39 364 289
0.059727304 0.75700003 -0.065036394 8.7538386e-39 365 289
0.061054576 0.75700003 -0.065036394 8.6605864e-39 366 289
-0.085169919 0.759 -0.066538997 1.3740356e-38 256 290
-0.083839141 0.759 -0.066538997 1.1988281e-38 257 290
-0.082508355 0.759 -0.066538997 1.2539602e-38 258 290
-0.080963671 0.75700003 -0.06636367 1.3553754e-38 259 290
-0.079425998 0.755 -0.066188328 1.4290223e-38 260 290
-0.078102231 0.755 -0.066188328 1.4474616e-38 261 290
-0.076676771 0.75400001 -0.066100664 1.4933076e-38 262 290
-0.075354755 0.75400001 -0.066100664 1.5025271e-38 263 290
-0.074032739 0.75400001 -0.066100664 1.5300782e-38 264 290
-0.07271073 0.75400001 -0.066100664 1.5485173e-38 265 290
-0.071388714 0.75400001 -0.066100664 1.5392609e-38 266 290
-0.069880851 0.75199997 -0.06592533 1.474724e-38 267 290
-0.068562344 0.75199997 -0.06592533 1.3821667e-38 268 290
-0.067243837 0.75199997 -0.06592533 1.2530928e-38 269 290
-0.06592533 0.75199997 -0.06592533 1.2156034e-38 270 290
-0.064606823 0.75199997 -0.06592533 1.1234079e-38 271 290
-0.063288316 0.75199997 -0.06592533 1.0406854e-38 272 290
-0.061969809 0.75199997 -0.06592533 1.0222823e-38 273 290
-0.060651302 0.75199997 -0.06592533 1.0228603e-38 274 290
-0.059332799 0.75199997 -0.06592533 1.2440938e-38 275 290
-0.058014289 0.75199997 -0.06592533 1.3733123e-38 276 290
-0.056695782 0.75199997 -0.06592533 1.5116057e-38 277 290
-0.055377278 0.75199997 -0.06592533 1.5852881e-38 278 290
-0.053843111 0.74900001 -0.065662332 1.5945077e-38 279 290
-0.052529868 0.74900001 -0.065662332 1.6036883e-38 280 290
-0.051079858 0.74699998 -0.065486997 1.6129078e-38 281 290
-0.049770117 0.74699998 -0.065486997 1.6037952e-38 282 290
-0.048460379 0.74699998 -0.065486997 1.6037952e-38 283 290
-0.047087517 0.74599999 -0.065399326 1.6129078e-38 284 290
-0.045779534 0.74599999 -0.065399326 1.6036883e-38 285 290
-0.044531155 0.74699998 -0.065486997 1.5943631e-38 286 290
-0.043221418 0.74699998 -0.065486997 1.6035826e-38 287 290
-0.041911677 0.74699998 -0.065486997 1.5576666e-38 288 290
-0.040601939 0.74699998 -0.065486997 1.5392274e-38 289 290
-0.039292198 0.74699998 -0.065486997 1.5207883e-38 290 290
-0.03798246 0.74699998 -0.065486997 1.5207883e-38 291 290
-0.036672719 0.74699998 -0.065486997 1.5117485e-38 292 290
-0.035362978 0.74699998 -0.065486997 1.5117485e-38 293 290
-0.034007654 0.74599999 -0.065399326 1.5302246e-38 294 290
-0.032699663 0.74599999 -0.065399326 1.5302246e-38 295 290
-0.031433757 0.74699998 -0.065486997 1.5302625e-38 296 290
-0.014465 0.75 -0.065749995 1.5854697e-38 309 290
-0.013132467 0.74900001 -0.065662332 1.6129824e-38 310 290
-0.01181922 0.74900001 -0.065662332 1.5945433e-38 311 290
-0.010505973 0.74900001 -0.065662332 1.5945783e-38 312 290
-0.0091927266 0.74900001 -0.065662332 1.6037979e-38 313 290
-0.0078794798 0.74900001 -0.065662332 1.613053e-38 314 290
-0.0065662335 0.74900001 -0.065662332 1.6314561e-38 315 290
-0.0052529867 0.74900001 -0.065662332 1.6314559e-38 316 290
-0.0039397399 0.74900001 -0.065662332 1.6406754e-38 317 290
-0.0026264933 0.74900001 -0.065662332 1.6774451e-38 318 290
-0.0013132467 0.74900001 -0.065662332 1.6774451e-38 319 290
0 0.74900001 -0.065662332 1.6866998e-38 320 290
0.0013132467 0.74900001 -0.065662332 1.6774801e-38 321 290
0.0026264933 0.74900001 -0.065662332 1.6866994e-38 322 290
0.0039397399 0.74900001 -0.065662332 1.6866994e-38 323 290
0.0052529867 0.74900001 -0.065662332 1.705031e-38 324 290
0.0065662335 0.74900001 -0.065662332 1.705031e-38 325 290
0.0078584393 0.74699998 -0.065486997 1.7050665e-38 326 290
0.0091681797 0.74699998 -0.065486997 1.7050665e-38 327 290
0.010505973 0.74900001 -0.065662332 1.6959547e-38 328 290
0.011787659 0.74699998 -0.065486997 1.686735e-38 329 290
0.013097399 0.74699998 -0.065486997 1.7050313e-38 330 290
0.014407139 0.74699998 -0.065486997 1.7050313e-38 331 290
0.015716879 0.74699998 -0.065486997 1.7049957e-38 332 290
0.017026618 0.74699998 -0.065486997 1.7049957e-38 333 290
0.018336359 0.74699998 -0.065486997 1.695811e-38 334 290
0.019646099 0.74699998 -0.065486997 1.6865915e-38 335 290
0.020955838 0.74699998 -0.065486997 1.6682603e-38 336 290
0.022265578 0.74699998 -0.065486997 1.631418e-38 337 290
0.023575317 0.74699998 -0.065486997 1.6404591e-38 338 290
0.024885058 0.74699998 -0.065486997 1.6220198e-38 339 290
0.026194798 0.74699998 -0.065486997 1.6127281e-38 340 290
0.027504537 0.74699998 -0.065486997 1.5942889e-38 341 290
0.028814279 0.74699998 -0.065486997 1.5758854e-38 342 290
0.030124018 0.74699998 -0.065486997 1.5574463e-38 343 290
0.031433757 0.74699998 -0.065486997 1.5114205e-38 344 290
0.032743499 0.74699998 -0.065486997 1.4745422e-38 345 290
0.034053236 0.74699998 -0.065486997 1.4469902e-38 346 290
0.03545766 0.74900001 -0.065662332 1.4101478e-38 347 290
0.036770906 0.74900001 -0.065662332 1.4191873e-38 348 290
0.038084153 0.74900001 -0.065662332 1.3731254e-38 349 290
0.0393974 0.74900001 -0.065662332 1.3454311e-38 350 290
0.040710647 0.74900001 -0.065662332 1.3085528e-38 351 290
0.042023893 0.74900001 -0.065662332 1.3084102e-38 352 290
0.04333714 0.74900001 -0.065662332 1.2715319e-38 353 290
0.044709999 0.75 -0.065749995 1.2438023e-38 354 290
0.046024997 0.75 -0.065749995 1.2069601e-38 355 290
0.047466237 0.75199997 -0.06592533 1.1701893e-38 356 290
0.048784744 0.75199997 -0.06592533 1.1424948e-38 357 290
0.050236505 0.75400001 -0.066100664 1.1056168e-38 358 290
0.051558517 0.75400001 -0.066100664 1.0779581e-38 359 290
0.052880533 0.75400001 -0.066100664 1.0042757e-38 360 290
0.054274432 0.755 -0.066188328 9.5821392e-39 361 290
0.055598196 0.755 -0.066188328 9.1218981e-39 362 290
0.057072755 0.75700003 -0.06636367 9.1218981e-39 363 290
0.058400027 0.75700003 -0.06636367 8.5701733e-39 364 290
0.059727304 0.75700003 -0.06636367 8.4776189e-39 365 290
-0.085394338 0.76099998 -0.068048611 1.4016585e-38 256 291
-0.083839141 0.759 -0.067869775 1.1988281e-38 257 291
-0.082508355 0.759 -0.067869775 1.1803835e-38 258 291
-0.080963671 0.75700003 -0.067690939 1.3002378e-38 259 291
-0.079425998 0.755 -0.067512102 1.4565012e-38 260 291
-0.078102231 0.755 -0.067512102 1.4749405e-38 261 291
-0.076676771 0.75400001 -0.067422673 1.484052e-38 262 291
-0.075354755 0.75400001 -0.067422673 1.4933076e-38 263 291
-0.074032739 0.75400001 -0.067422673 1.5300416e-38 264 291
-0.072517857 0.75199997 -0.067243837 1.5484808e-38 265 291
-0.071199358 0.75199997 -0.067243837 1.5576277e-38 266 291
-0.069880851 0.75199997 -0.067243837 1.5484082e-38 267 291
-0.068379998 0.75 -0.067065001 1.5572312e-38 268 291
-0.067065001 0.75 -0.067065001 1.4465964e-38 269 291
-0.065749995 0.75 -0.067065001 1.4000292e-38 270 291
-0.064434998 0.75 -0.067065001 1.2341129e-38 271 291
-0.06312 0.75 -0.067065001 1.0960009e-38 272 291
-0.061804999 0.75 -0.067065001 1.0867814e-38 273 291
-0.060489997 0.75 -0.067065001 1.059019e-38 274 291
-0.059175 0.75 -0.067065001 1.1420309e-38 275 291
-0.057859998 0.75 -0.067065001 1.1519342e-38 276 291
-0.056544997 0.75 -0.067065001 1.32707e-38 277 291
-0.055156358 0.74900001 -0.066975579 1.4287e-38 278 291
-0.053843111 0.74900001 -0.066975579 1.5116761e-38 279 291
-0.052529868 0.74900001 -0.066975579 1.631277e-38 280 291
-0.051216617 0.74900001 -0.066975579 1.631277e-38 281 291
-0.04990337 0.74900001 -0.066975579 1.6313471e-38 282 291
-0.048460379 0.74699998 -0.066796735 1.6313471e-38 283 291
-0.047150634 0.74699998 -0.066796735 1.6129796e-38 284 291
-0.045840897 0.74699998 -0.066796735 1.6129796e-38 285 291
-0.044531155 0.74699998 -0.066796735 1.6129081e-38 286 291
-0.043221418 0.74699998 -0.066796735 1.6129081e-38 287 291
-0.041911677 0.74699998 -0.066796735 1.6037251e-38 288 291
-0.040601939 0.74699998 -0.066796735 1.585322e-38 289 291
-0.039292198 0.74699998 -0.066796735 1.5761385e-38 290 291
-0.03798246 0.74699998 -0.066796735 1.5669189e-38 291 291
-0.036672719 0.74699998 -0.066796735 1.5761022e-38 292 291
-0.035362978 0.74699998 -0.066796735 1.5761022e-38 293 291
-0.034007654 0.74599999 -0.066707321 1.5668836e-38 294 291
-0.032699663 0.74599999 -0.066707321 1.576139e-38 295 291
-0.031433757 0.74699998 -0.066796735 1.594508e-38 296 291
-0.030124018 0.74699998 -0.066796735 1.6037275e-38 297 291
-0.028814279 0.74699998 -0.066796735 1.6037997e-38 298 291
-0.027504537 0.74699998 -0.066796735 1.6130192e-38 299 291
-0.026194798 0.74699998 -0.066796735 1.6223111e-38 300 291
-0.020955838 0.74699998 -0.066796735 1.6498253e-38 304 291
-0.019646099 0.74699998 -0.066796735 1.6406056e-38 305 291
-0.018385453 0.74900001 -0.066975579 1.6313492e-38 306 291
-0.01575896 0.74900001 -0.066975579 1.6313121e-38 308 291
-0.014445714 0.74900001 -0.066975579 1.6220925e-38 309 291
-0.013132467 0.74900001 -0.066975579 1.6221629e-38 310 291
-0.01181922 0.74900001 -0.066975579 1.6221629e-38 311 291
-0.010505973 0.74900001 -0.066975579 1.6222701e-38 312 291
-0.0091927266 0.74900001 -0.066975579 1.6222701e-38 313 291
-0.0078794798 0.74900001 -0.066975579 1.6406739e-38 314 291
-0.0065662335 0.74900001 -0.066975579 1.6498934e-38 315 291
-0.0052529867 0.74900001 -0.066975579 1.6498934e-38 316 291
-0.0039397399 0.74900001 -0.066975579 1.6775521e-38 317 291
-0.0026264933 0.74900001 -0.066975579 1.6683321e-38 318 291
-0.0013132467 0.74900001 -0.066975579 1.6775517e-38 319 291
0 0.74900001 -0.066975579 1.686735e-38 320 291
0.0013132467 0.74900001 -0.066975579 1.686735e-38 321 291
0.0026264933 0.74900001 -0.066975579 1.695955e-38 322 291
0.0039292197 0.74699998 -0.066796735 1.695955e-38 323 291
0.0052389596 0.74699998 -0.066796735 1.695955e-38 324 291
0.0065486995 0.74699998 -0.066796735 1.695955e-38 325 291
0.0078584393 0.74699998 -0.066796735 1.6959547e-38 326 291
0.0091681797 0.74699998 -0.066796735 1.6959547e-38 327 291
0.010505973 0.74900001 -0.066975579 1.7142859e-38 328 291
0.011787659 0.74699998 -0.066796735 1.7050662e-38 329 291
0.013097399 0.74699998 -0.066796735 1.6867001e-38 330 291
0.014407139 0.74699998 -0.066796735 1.6867001e-38 331 291
0.015716879 0.74699998 -0.066796735 1.6866645e-38 332 291
0.017026618 0.74699998 -0.066796735 1.6774448e-38 333 291
0.018311813 0.74599999 -0.066707321 1.6958116e-38 334 291
0.019619798 0.74599999 -0.066707321 1.6681531e-38 335 291
0.020927785 0.74599999 -0.066707321 1.6589335e-38 336 291
0.022265578 0.74699998 -0.066796735 1.6404944e-38 337 291
0.023575317 0.74699998 -0.066796735 1.6036167e-38 338 291
0.024885058 0.74699998 -0.066796735 1.5943612e-38 339 291
0.026194798 0.74699998 -0.066796735 1.5574457e-38 340 291
0.027504537 0.74699998 -0.066796735 1.5390066e-38 341 291
0.028814279 0.74699998 -0.066796735 1.5390419e-38 342 291
0.030124018 0.74699998 -0.066796735 1.5298223e-38 343 291
0.031433757 0.74699998 -0.066796735 1.4929088e-38 344 291
0.032743499 0.74699998 -0.066796735 1.4652501e-38 345 291
0.034053236 0.74699998 -0.066796735 1.428479e-38 346 291
0.035362978 0.74699998 -0.066796735 1.3823814e-38 347 291
0.036672719 0.74699998 -0.066796735 1.3914566e-38 348 291
0.038084153 0.74900001 -0.066975579 1.3453589e-38 349 291
0.0393974 0.74900001 -0.066975579 1.336032e-38 350 291
0.040710647 0.74900001 -0.066975579 1.3083733e-38 351 291
0.042023893 0.74900001 -0.066975579 1.2623126e-38 352 291
0.04333714 0.74900001 -0.066975579 1.2438376e-38 353 291
0.044709999 0.75 -0.067065001 1.1977404e-38 354 291
0.046024997 0.75 -0.067065001 1.1792654e-38 355 291
0.047466237 0.75199997 -0.067243837 1.1240919e-38 356 291
0.048784744 0.75199997 -0.067243837 1.0963972e-38 357 291
0.050236505 0.75400001 -0.067422673 1.0779228e-38 358 291
0.051558517 0.75400001 -0.067422673 1.0318608e-38 359 291
0.052880533 0.75400001 -0.067422673 9.6739789e-39 360 291
0.054202545 0.75400001 -0.067422673 9.3973906e-39 361 291
0.055598196 0.755 -0.067512102 8.8460315e-39 362 291
0.056921966 0.755 -0.067512102 8.8460315e-39 363 291
-0.085394338 0.76099998 -0.069382899 1.4200979e-38 256 292
-0.083839141 0.759 -0.069200553 1.1619501e-38 257 292
-0.082290947 0.75700003 -0.069018215 1.1251381e-38 258 292
-0.080963671 0.75700003 -0.069018215 1.2634674e-38 259 292
-0.079425998 0.755 -0.068835862 1.4197309e-38 260 292
-0.078102231 0.755 -0.068835862 1.4473896e-38 261 292
-0.076676771 0.75400001 -0.068744689 1.5207862e-38 262 292
-0.075154878 0.75199997 -0.068562344 1.5115665e-38 263 292
-0.073836371 0.75199997 -0.068562344 1.5207862e-38 264 292
-0.072517857 0.75199997 -0.068562344 1.5392612e-38 265 292
-0.071199358 0.75199997 -0.068562344 1.5668842e-38 266 292
-0.069694996 0.75 -0.068379998 1.5853234e-38 267 292
-0.068379998 0.75 -0.068379998 1.6402441e-38 268 292
-0.067065001 0.75 -0.068379998 1.5849267e-38 269 292
-0.065662332 0.74900001 -0.068288825 1.5201715e-38 270 292
-0.064349085 0.74900001 -0.068288825 1.3726584e-38 271 292
-0.063035838 0.74900001 -0.068288825 1.2434395e-38 272 292
-0.061722592 0.74900001 -0.068288825 1.1696829e-38 273 292
-0.060409348 0.74900001 -0.068288825 1.1602873e-38 274 292
-0.059096102 0.74900001 -0.068288825 1.1787625e-38 275 292
-0.057782855 0.74900001 -0.068288825 1.1238785e-38 276 292
-0.056318816 0.74699998 -0.068106472 1.2529524e-38 277 292
-0.055009075 0.74699998 -0.068106472 1.3088094e-38 278 292
-0.053699337 0.74699998 -0.068106472 1.4286277e-38 279 292
-0.052389596 0.74699998 -0.068106472 1.5484101e-38 280 292
-0.051079858 0.74699998 -0.068106472 1.6129471e-38 281 292
-0.049770117 0.74699998 -0.068106472 1.6314561e-38 282 292
-0.048460379 0.74699998 -0.068106472 1.6314561e-38 283 292
-0.047150634 0.74699998 -0.068106472 1.6498211e-38 284 292
-0.045840897 0.74699998 -0.068106472 1.631418e-38 285 292
-0.044531155 0.74699998 -0.068106472 1.6680802e-38 286 292
-0.043221418 0.74699998 -0.068106472 1.6680802e-38 287 292
-0.041911677 0.74699998 -0.068106472 1.6404944e-38 288 292
-0.040601939 0.74699998 -0.068106472 1.6497139e-38 289 292
-0.039292198 0.74699998 -0.068106472 1.6498211e-38 290 292
-0.03798246 0.74699998 -0.068106472 1.631418e-38 291 292
-0.036672719 0.74699998 -0.068106472 1.6680802e-38 292 292
-0.035362978 0.74699998 -0.068106472 1.6680802e-38 293 292
-0.034007654 0.74599999 -0.068015307 1.6588259e-38 294 292
-0.032699663 0.74599999 -0.068015307 1.6680454e-38 295 292
-0.031433757 0.74699998 -0.068106472 1.6496083e-38 296 292
-0.030124018 0.74699998 -0.068106472 1.6680833e-38 297 292
-0.028775707 0.74599999 -0.068015307 1.6314211e-38 298 292
-0.027467718 0.74599999 -0.068015307 1.6406407e-38 299 292
-0.026159734 0.74599999 -0.068015307 1.6315287e-38 300 292
-0.024851745 0.74599999 -0.068015307 1.6315287e-38 301 292
-0.023543758 0.74599999 -0.068015307 1.6591155e-38 302 292
-0.022265578 0.74699998 -0.068106472 1.6591155e-38 303 292
-0.020955838 0.74699998 -0.068106472 1.6682268e-38 304 292
-0.019646099 0.74699998 -0.068106472 1.6682268e-38 305 292
-0.018336359 0.74699998 -0.068106472 1.668118e-38 306 292
-0.017026618 0.74699998 -0.068106472 1.6865211e-38 307 292
-0.015716879 0.74699998 -0.068106472 1.6681531e-38 308 292
-0.014407139 0.74699998 -0.068106472 1.6589335e-38 309 292
-0.013097399 0.74699998 -0.068106472 1.6589685e-38 310 292
-0.011787659 0.74699998 -0.068106472 1.6681881e-38 311 292
-0.010477919 0.74699998 -0.068106472 1.659076e-38 312 292
-0.0091681797 0.74699998 -0.068106472 1.6682956e-38 313 292
-0.0078794798 0.74900001 -0.068288825 1.6682956e-38 314 292
-0.0065662335 0.74900001 -0.068288825 1.6775151e-38 315 292
-0.0052529867 0.74900001 -0.068288825 1.6775149e-38 316 292
-0.0039397399 0.74900001 -0.068288825 1.6867703e-38 317 292
-0.0026194798 0.74699998 -0.068106472 1.7051015e-38 318 292
-0.0013097399 0.74699998 -0.068106472 1.7051015e-38 319 292
0 0.74699998 -0.068106472 1.7143215e-38 320 292
0.0013097399 0.74699998 -0.068106472 1.7143215e-38 321 292
0.0026194798 0.74699998 -0.068106472 1.7143215e-38 322 292
0.0039292197 0.74699998 -0.068106472 1.7235411e-38 323 292
0.0052389596 0.74699998 -0.068106472 1.6960263e-38 324 292
0.0065486995 0.74699998 -0.068106472 1.6960263e-38 325 292
0.0078584393 0.74699998 -0.068106472 1.7143934e-38 326 292
0.0091681797 0.74699998 -0.068106472 1.6959544e-38 327 292
0.010477919 0.74699998 -0.068106472 1.7142862e-38 328 292
0.011771879 0.74599999 -0.068015307 1.7142862e-38 329 292
0.013079867 0.74599999 -0.068015307 1.6866998e-38 330 292
0.014387853 0.74599999 -0.068015307 1.6866998e-38 331 292
0.015695838 0.74599999 -0.068015307 1.6682971e-38 332 292
0.017003827 0.74599999 -0.068015307 1.6682971e-38 333 292
0.018311813 0.74599999 -0.068015307 1.6406391e-38 334 292
0.019567199 0.74400002 -0.067832954 1.6314196e-38 335 292
0.02087168 0.74400002 -0.067832954 1.6128725e-38 336 292
0.022176161 0.74400002 -0.067832954 1.5944334e-38 337 292
0.023543758 0.74599999 -0.068015307 1.5759221e-38 338 292
0.024885058 0.74699998 -0.068106472 1.5574828e-38 339 292
0.026194798 0.74699998 -0.068106472 1.5114205e-38 340 292
0.027504537 0.74699998 -0.068106472 1.4929812e-38 341 292
0.028814279 0.74699998 -0.068106472 1.5022008e-38 342 292
0.030124018 0.74699998 -0.068106472 1.4745422e-38 343 292
0.031433757 0.74699998 -0.068106472 1.4468835e-38 344 292
0.032743499 0.74699998 -0.068106472 1.4284443e-38 345 292
0.034053236 0.74699998 -0.068106472 1.409933e-38 346 292
0.035362978 0.74699998 -0.068106472 1.3546156e-38 347 292
0.036672719 0.74699998 -0.068106472 1.3453236e-38 348 292
0.038084153 0.74900001 -0.068288825 1.3176648e-38 349 292
0.0393974 0.74900001 -0.068288825 1.2715675e-38 350 292
0.040710647 0.74900001 -0.068288825 1.2530925e-38 351 292
0.042023893 0.74900001 -0.068288825 1.2253995e-38 352 292
0.04333714 0.74900001 -0.068288825 1.1977048e-38 353 292
0.044709999 0.75 -0.068379998 1.1516796e-38 354 292
0.046024997 0.75 -0.068379998 1.1240569e-38 355 292
0.047466237 0.75199997 -0.068562344 1.0963625e-38 356 292
0.048784744 0.75199997 -0.068562344 1.0594844e-38 357 292
0.050236505 0.75400001 -0.068744689 1.0042757e-38 358 292
0.051421758 0.75199997 -0.068562344 9.5821392e-39 359 292
0.052740261 0.75199997 -0.068562344 9.2137252e-39 360 292
0.054202545 0.75400001 -0.068744689 9.3059208e-39 361 292
0.055524562 0.75400001 -0.068744689 8.5708865e-39 362 292
-0.083618224 0.75700003 -0.070345491 1.1527303e-38 257 293
-0.082290947 0.75700003 -0.070345491 1.060638e-38 258 293
-0.080963671 0.75700003 -0.070345491 1.2081869e-38 259 293
-0.079425998 0.755 -0.070159629 1.3553751e-38 260 293
-0.078102231 0.755 -0.070159629 1.4106923e-38 261 293
-0.076676771 0.75400001 -0.070066705 1.5207868e-38 262 293
-0.075154878 0.75199997 -0.069880851 1.5115312e-38 263 293
-0.073836371 0.75199997 -0.069880851 1.5391529e-38 264 293
-0.072517857 0.75199997 -0.069880851 1.5575921e-38 265 293
-0.071199358 0.75199997 -0.069880851 1.5484808e-38 266 293
-0.069694996 0.75 -0.069694996 1.585323e-38 267 293
-0.068288825 0.74900001 -0.069602072 1.5669918e-38 268 293
-0.066975579 0.74900001 -0.069602072 1.5946505e-38 269 293
-0.065662332 0.74900001 -0.069602072 1.6587552e-38 270 293
-0.06417726 0.74699998 -0.069416218 1.5573759e-38 271 293
-0.062867515 0.74699998 -0.069416218 1.4741828e-38 272 293
-0.061557774 0.74699998 -0.069416218 1.3358894e-38 273 293
-0.060248036 0.74699998 -0.069416218 1.3355669e-38 274 293
-0.058938295 0.74699998 -0.069416218 1.2894692e-38 275 293
-0.057628557 0.74699998 -0.069416218 1.2619203e-38 276 293
-0.056318816 0.74699998 -0.069416218 1.2987625e-38 277 293
-0.055009075 0.74699998 -0.069416218 1.2623516e-38 278 293
-0.053699337 0.74699998 -0.069416218 1.3361081e-38 279 293
-0.052389596 0.74699998 -0.069416218 1.4101517e-38 280 293
-0.051079858 0.74699998 -0.069416218 1.5392256e-38 281 293
-0.049770117 0.74699998 -0.069416218 1.6406038e-38 282 293
-0.048395503 0.74599999 -0.069323286 1.6313842e-38 283 293
-0.047087517 0.74599999 -0.069323286 1.6589335e-38 284 293
-0.045840897 0.74699998 -0.069416218 1.6681531e-38 285 293
-0.044531155 0.74699998 -0.069416218 1.6406742e-38 286 293
-0.043221418 0.74699998 -0.069416218 1.6314546e-38 287 293
-0.041911677 0.74699998 -0.069416218 1.6406739e-38 288 293
-0.040601939 0.74699998 -0.069416218 1.6406739e-38 289 293
-0.039292198 0.74699998 -0.069416218 1.6407811e-38 290 293
-0.03798246 0.74699998 -0.069416218 1.6315615e-38 291 293
-0.036672719 0.74699998 -0.069416218 1.6314896e-38 292 293
-0.035362978 0.74699998 -0.069416218 1.6314896e-38 293 293
-0.034007654 0.74599999 -0.069323286 1.6314899e-38 294 293
-0.032699663 0.74599999 -0.069323286 1.6314899e-38 295 293
-0.031433757 0.74699998 -0.069416218 1.6314899e-38 296 293
-0.030124018 0.74699998 -0.069416218 1.6314899e-38 297 293
-0.028775707 0.74599999 -0.069323286 1.6407092e-38 298 293
-0.027467718 0.74599999 -0.069323286 1.6407092e-38 299 293
-0.026159734 0.74599999 -0.069323286 1.6407811e-38 300 293
-0.024851745 0.74599999 -0.069323286 1.6407811e-38 301 293
-0.023543758 0.74599999 -0.069323286 1.6683321e-38 302 293
-0.022235774 0.74599999 -0.069323286 1.6683321e-38 303 293
-0.020927785 0.74599999 -0.069323286 1.6683324e-38 304 293
-0.019619798 0.74599999 -0.069323286 1.6498934e-38 305 293
-0.018336359 0.74699998 -0.069416218 1.66826e-38 306 293
-0.017026618 0.74699998 -0.069416218 1.6590404e-38 307 293
-0.015716879 0.74699998 -0.069416218 1.6590757e-38 308 293
-0.014407139 0.74699998 -0.069416218 1.6498562e-38 309 293
-0.013097399 0.74699998 -0.069416218 1.6682956e-38 310 293
-0.011787659 0.74699998 -0.069416218 1.6682956e-38 311 293
-0.010477919 0.74699998 -0.069416218 1.6683319e-38 312 293
-0.0091681797 0.74699998 -0.069416218 1.6683319e-38 313 293
-0.0078584393 0.74699998 -0.069416218 1.686735e-38 314 293
-0.0065486995 0.74699998 -0.069416218 1.6959547e-38 315 293
-0.0052389596 0.74699998 -0.069416218 1.6867714e-38 316 293
-0.0039292197 0.74699998 -0.069416218 1.6960268e-38 317 293
-0.0026194798 0.74699998 -0.069416218 1.6960268e-38 318 293
-0.0013097399 0.74699998 -0.069416218 1.6960268e-38 319 293
0 0.74599999 -0.069323286 1.7143934e-38 320 293
0.0013079866 0.74599999 -0.069323286 1.7143934e-38 321 293
0.0026159731 0.74599999 -0.069323286 1.7143215e-38 322 293
0.0039239596 0.74599999 -0.069323286 1.7143215e-38 323 293
0.0052319462 0.74599999 -0.069323286 1.6959544e-38 324 293
0.0065399334 0.74599999 -0.069323286 1.6959544e-38 325 293
0.0078479191 0.74599999 -0.069323286 1.6959547e-38 326 293
0.0091559067 0.74599999 -0.069323286 1.6959547e-38 327 293
0.010463892 0.74599999 -0.069323286 1.7143228e-38 328 293
0.011771879 0.74599999 -0.069323286 1.7143228e-38 329 293
0.0130448 0.74400002 -0.069137439 1.6958841e-38 330 293
0.01434928 0.74400002 -0.069137439 1.6866645e-38 331 293
0.015653761 0.74400002 -0.069137439 1.6774445e-38 332 293
0.016958239 0.74400002 -0.069137439 1.6497858e-38 333 293
0.01826272 0.74400002 -0.069137439 1.6680452e-38 334 293
0.019567199 0.74400002 -0.069137439 1.6312028e-38 335 293
0.02087168 0.74400002 -0.069137439 1.594324e-38 336 293
0.022176161 0.74400002 -0.069137439 1.5482261e-38 337 293
0.023480639 0.74400002 -0.069137439 1.5390419e-38 338 293
0.024851745 0.74599999 -0.069323286 1.5390419e-38 339 293
0.026159734 0.74599999 -0.069323286 1.5112753e-38 340 293
0.027504537 0.74699998 -0.069416218 1.4928722e-38 341 293
0.028814279 0.74699998 -0.069416218 1.4560288e-38 342 293
0.030124018 0.74699998 -0.069416218 1.4467734e-38 343 293
0.031433757 0.74699998 -0.069416218 1.4282622e-38 344 293
0.032743499 0.74699998 -0.069416218 1.4006396e-38 345 293
0.034053236 0.74699998 -0.069416218 1.3177727e-38 346 293
0.035362978 0.74699998 -0.069416218 1.3085531e-38 347 293
0.036672719 0.74699998 -0.069416218 1.3175576e-38 348 293
0.03798246 0.74699998 -0.069416218 1.2622402e-38 349 293
0.0393974 0.74900001 -0.069602072 1.206995e-38 350 293
0.040710647 0.74900001 -0.069602072 1.206995e-38 351 293
0.042023893 0.74900001 -0.069602072 1.1884133e-38 352 293
0.04333714 0.74900001 -0.069602072 1.1699742e-38 353 293
0.044709999 0.75 -0.069694996 1.1239133e-38 354 293
0.046024997 0.75 -0.069694996 1.0962906e-38 355 293
0.047466237 0.75199997 -0.069880851 1.0502298e-38 356 293
0.048784744 0.75199997 -0.069880851 1.0225351e-38 357 293
0.050103247 0.75199997 -0.069880851 9.7651011e-39 358 293
0.051421758 0.75199997 -0.069880851 9.6725453e-39 359 293
0.052740261 0.75199997 -0.069880851 8.938583e-39 360 293
0.054058768 0.75199997 -0.069880851 8.938583e-39 361 293
-0.083618224 0.75700003 -0.07167276 1.1895012e-38 257 294
-0.082290947 0.75700003 -0.07167276 1.0146128e-38 258 294
-0.080963671 0.75700003 -0.07167276 1.1436867e-38 259 294
-0.079425998 0.755 -0.071483396 1.3092773e-38 260 294
-0.078102231 0.755 -0.071483396 1.3553751e-38 261 294
-0.076676771 0.75400001 -0.071388714 1.4656492e-38 262 294
-0.075154878 0.75199997 -0.071199358 1.4840523e-38 263 294
-0.073836371 0.75199997 -0.071199358 1.5024916e-38 264 294
-0.072517857 0.75199997 -0.071199358 1.511747e-38 265 294
-0.071010001 0.75 -0.071010001 1.5485176e-38 266 294
-0.069602072 0.74900001 -0.070915319 1.5577372e-38 267 294
-0.068288825 0.74900001 -0.070915319 1.5761034e-38 268 294
-0.066796735 0.74699998 -0.070725955 1.5761034e-38 269 294
-0.065486997 0.74699998 -0.070725955 1.6220575e-38 270 294
-0.06417726 0.74699998 -0.070725955 1.6036182e-38 271 294
-0.062867515 0.74699998 -0.070725955 1.5665599e-38 272 294
-0.061557774 0.74699998 -0.070725955 1.4835838e-38 273 294
-0.060248036 0.74699998 -0.070725955 1.455529e-38 274 294
-0.058938295 0.74699998 -0.070725955 1.3725528e-38 275 294
-0.057628557 0.74699998 -0.070725955 1.2989412e-38 276 294
-0.056318816 0.74699998 -0.070725955 1.3081607e-38 277 294
-0.055009075 0.74699998 -0.070725955 1.3082326e-38 278 294
-0.053699337 0.74699998 -0.070725955 1.2990131e-38 279 294
-0.052389596 0.74699998 -0.070725955 1.3547971e-38 280 294
-0.051011477 0.74599999 -0.070631281 1.4469927e-38 281 294
-0.04970349 0.74599999 -0.070631281 1.5575553e-38 282 294
-0.048395503 0.74599999 -0.070631281 1.6220922e-38 283 294
-0.047087517 0.74599999 -0.070631281 1.631419e-38 284 294
-0.045779534 0.74599999 -0.070631281 1.649894e-38 285 294
-0.044531155 0.74699998 -0.070725955 1.6681881e-38 286 294
-0.043221418 0.74699998 -0.070725955 1.6866271e-38 287 294
-0.041911677 0.74699998 -0.070725955 1.6682953e-38 288 294
-0.040601939 0.74699998 -0.070725955 1.6775149e-38 289 294
-0.039292198 0.74699998 -0.070725955 1.6775502e-38 290 294
-0.03798246 0.74699998 -0.070725955 1.6683306e-38 291 294
-0.036672719 0.74699998 -0.070725955 1.6866971e-38 292 294
-0.035362978 0.74699998 -0.070725955 1.668294e-38 293 294
-0.034007654 0.74599999 -0.070631281 1.6682584e-38 294 294
-0.032699663 0.74599999 -0.070631281 1.6682584e-38 295 294
-0.031433757 0.74699998 -0.070725955 1.6866618e-38 296 294
-0.030124018 0.74699998 -0.070725955 1.6682587e-38 297 294
-0.028775707 0.74599999 -0.070631281 1.6590757e-38 298 294
-0.027467718 0.74599999 -0.070631281 1.6682953e-38 299 294
-0.026159734 0.74599999 -0.070631281 1.6499287e-38 300 294
-0.024851745 0.74599999 -0.070631281 1.6683319e-38 301 294
-0.023543758 0.74599999 -0.070631281 1.6683321e-38 302 294
-0.022235774 0.74599999 -0.070631281 1.6683321e-38 303 294
-0.020927785 0.74599999 -0.070631281 1.695811e-38 304 294
-0.019619798 0.74599999 -0.070631281 1.6865915e-38 305 294
-0.018336359 0.74699998 -0.070725955 1.6866621e-38 306 294
-0.017026618 0.74699998 -0.070725955 1.6866621e-38 307 294
-0.015716879 0.74699998 -0.070725955 1.6866974e-38 308 294
-0.014407139 0.74699998 -0.070725955 1.6866974e-38 309 294
-0.013097399 0.74699998 -0.070725955 1.6683306e-38 310 294
-0.011787659 0.74699998 -0.070725955 1.6775502e-38 311 294
-0.010477919 0.74699998 -0.070725955 1.686735e-38 312 294
-0.0091681797 0.74699998 -0.070725955 1.6959547e-38 313 294
-0.0078584393 0.74699998 -0.070725955 1.6866994e-38 314 294
-0.0065486995 0.74699998 -0.070725955 1.695955e-38 315 294
-0.0052389596 0.74699998 -0.070725955 1.7143225e-38 316 294
-0.0039292197 0.74699998 -0.070725955 1.7143225e-38 317 294
-0.0026159731 0.74599999 -0.070631281 1.7235779e-38 318 294
-0.0013079866 0.74599999 -0.070631281 1.7143225e-38 319 294
0 0.74599999 -0.070631281 1.7143578e-38 320 294
0.00130448 0.74400002 -0.070441924 1.6959547e-38 321 294
0.00260896 0.74400002 -0.070441924 1.695955e-38 322 294
0.0039134403 0.74400002 -0.070441924 1.695955e-38 323 294
0.0052179201 0.74400002 -0.070441924 1.6959194e-38 324 294
0.0065223998 0.74400002 -0.070441924 1.6959194e-38 325 294
0.0078268806 0.74400002 -0.070441924 1.6867364e-38 326 294
0.0091313599 0.74400002 -0.070441924 1.6867364e-38 327 294
0.01043584 0.74400002 -0.070441924 1.6867011e-38 328 294
0.011740319 0.74400002 -0.070441924 1.6959565e-38 329 294
0.0130448 0.74400002 -0.070441924 1.6774818e-38 330 294
0.01434928 0.74400002 -0.070441924 1.649859e-38 331 294
0.015653761 0.74400002 -0.070441924 1.6680454e-38 332 294
0.016958239 0.74400002 -0.070441924 1.6403867e-38 333 294
0.01826272 0.74400002 -0.070441924 1.5944684e-38 334 294
0.019567199 0.74400002 -0.070441924 1.5576262e-38 335 294
0.02087168 0.74400002 -0.070441924 1.5482264e-38 336 294
0.022176161 0.74400002 -0.070441924 1.5297514e-38 337 294
0.023480639 0.74400002 -0.070441924 1.4839043e-38 338 294
0.02478512 0.74400002 -0.070441924 1.4562456e-38 339 294
0.026089599 0.74400002 -0.070441924 1.4561381e-38 340 294
0.027467718 0.74599999 -0.070631281 1.4100762e-38 341 294
0.028814279 0.74699998 -0.070725955 1.409931e-38 342 294
0.030124018 0.74699998 -0.070725955 1.3822723e-38 343 294
0.031433757 0.74699998 -0.070725955 1.3270993e-38 344 294
0.032743499 0.74699998 -0.070725955 1.3270993e-38 345 294
0.034053236 0.74699998 -0.070725955 1.2992279e-38 346 294
0.035362978 0.74699998 -0.070725955 1.2715692e-38 347 294
0.036672719 0.74699998 -0.070725955 1.2439108e-38 348 294
0.03798246 0.74699998 -0.070725955 1.2069967e-38 349 294
0.0393974 0.74900001 -0.070915319 1.1701543e-38 350 294
0.040710647 0.74900001 -0.070915319 1.1424597e-38 351 294
0.042023893 0.74900001 -0.070915319 1.1148016e-38 352 294
0.04333714 0.74900001 -0.070915319 1.0871429e-38 353 294
0.044709999 0.75 -0.071010001 1.0319704e-38 354 294
0.046024997 0.75 -0.071010001 1.0042757e-38 355 294
0.047466237 0.75199997 -0.071199358 9.7665458e-39 356 294
0.048784744 0.75199997 -0.071199358 9.5821546e-39 357 294
0.050103247 0.75199997 -0.071199358 9.2140937e-39 358 294
0.051421758 0.75199997 -0.071199358 9.2140937e-39 359 294
-0.083397292 0.755 -0.07280717 1.1988653e-38 257 295
-0.082073532 0.755 -0.07280717 1.0237618e-38 258 295
-0.080749765 0.755 -0.07280717 1.0975183e-38 259 295
-0.079425998 0.755 -0.07280717 1.2447772e-38 260 295
-0.077998787 0.75400001 -0.07271073 1.3093142e-38 261 295
-0.076676771 0.75400001 -0.07271073 1.4379549e-38 262 295
-0.075154878 0.75199997 -0.072517857 1.4656495e-38 263 295
-0.073836371 0.75199997 -0.072517857 1.4932356e-38 264 295
-0.072324999 0.75 -0.072324999 1.5208584e-38 265 295
-0.071010001 0.75 -0.072324999 1.5392262e-38 266 295
-0.069602072 0.74900001 -0.072228566 1.5484457e-38 267 295
-0.068288825 0.74900001 -0.072228566 1.5850729e-38 268 295
-0.066796735 0.74699998 -0.072035693 1.5942924e-38 269 295
-0.065486997 0.74699998 -0.072035693 1.5668133e-38 270 295
-0.06417726 0.74699998 -0.072035693 1.5668133e-38 271 295
-0.062867515 0.74699998 -0.072035693 1.6220222e-38 272 295
-0.061557774 0.74699998 -0.072035693 1.6128026e-38 273 295
-0.060248036 0.74699998 -0.072035693 1.5940744e-38 274 295
-0.058938295 0.74699998 -0.072035693 1.4926233e-38 275 295
-0.057628557 0.74699998 -0.072035693 1.4097552e-38 276 295
-0.056318816 0.74699998 -0.072035693 1.3728768e-38 277 295
-0.054935437 0.74599999 -0.07193926 1.2993377e-38 278 295
-0.053627454 0.74599999 -0.07193926 1.33618e-38 279 295
-0.052319467 0.74599999 -0.07193926 1.3638744e-38 280 295
-0.051011477 0.74599999 -0.07193926 1.4468145e-38 281 295
-0.04970349 0.74599999 -0.07193926 1.5206416e-38 282 295
-0.048395503 0.74599999 -0.07193926 1.6036177e-38 283 295
-0.047087517 0.74599999 -0.07193926 1.6314193e-38 284 295
-0.045779534 0.74599999 -0.07193926 1.6498584e-38 285 295
-0.044471547 0.74599999 -0.07193926 1.6682971e-38 286 295
-0.04316356 0.74599999 -0.07193926 1.6775168e-38 287 295
-0.04185557 0.74599999 -0.07193926 1.6775165e-38 288 295
-0.040547583 0.74599999 -0.07193926 1.6775165e-38 289 295
-0.039239597 0.74599999 -0.07193926 1.6775521e-38 290 295
-0.03793161 0.74599999 -0.07193926 1.6775521e-38 291 295
-0.036623627 0.74599999 -0.07193926 1.6775517e-38 292 295
-0.03531564 0.74599999 -0.07193926 1.6683321e-38 293 295
-0.034007654 0.74599999 -0.07193926 1.6683675e-38 294 295
-0.032699663 0.74599999 -0.07193926 1.6499643e-38 295 295
-0.031391677 0.74599999 -0.07193926 1.6499643e-38 296 295
-0.03008369 0.74599999 -0.07193926 1.6683675e-38 297 295
-0.028775707 0.74599999 -0.07193926 1.6683321e-38 298 295
-0.027467718 0.74599999 -0.07193926 1.6683321e-38 299 295
-0.026159734 0.74599999 -0.07193926 1.6682968e-38 300 295
-0.024851745 0.74599999 -0.07193926 1.6682968e-38 301 295
-0.023543758 0.74599999 -0.07193926 1.6591856e-38 302 295
-0.022235774 0.74599999 -0.07193926 1.6591856e-38 303 295
-0.020927785 0.74599999 -0.07193926 1.6867001e-38 304 295
-0.019619798 0.74599999 -0.07193926 1.6774445e-38 305 295
-0.018336359 0.74699998 -0.072035693 1.6775151e-38 306 295
-0.017026618 0.74699998 -0.072035693 1.6775151e-38 307 295
-0.015716879 0.74699998 -0.072035693 1.6775149e-38 308 295
-0.014407139 0.74699998 -0.072035693 1.6867703e-38 309 295
-0.013097399 0.74699998 -0.072035693 1.6775873e-38 310 295
-0.011787659 0.74699998 -0.072035693 1.686807e-38 311 295
-0.010463892 0.74599999 -0.07193926 1.686772e-38 312 295
-0.0091559067 0.74599999 -0.07193926 1.6959915e-38 313 295
-0.0078479191 0.74599999 -0.07193926 1.6959559e-38 314 295
-0.0065399334 0.74599999 -0.07193926 1.6959559e-38 315 295
-0.0052389596 0.74699998 -0.072035693 1.6959562e-38 316 295
-0.0039239596 0.74599999 -0.07193926 1.6959562e-38 317 295
-0.0026159731 0.74599999 -0.07193926 1.7142874e-38 318 295
-0.0013079866 0.74599999 -0.07193926 1.7142874e-38 319 295
0 0.74400002 -0.071746401 1.7142509e-38 320 295
0.00130448 0.74400002 -0.071746401 1.7142509e-38 321 295
0.00260896 0.74400002 -0.071746401 1.6867001e-38 322 295
0.0039134403 0.74400002 -0.071746401 1.6867001e-38 323 295
0.0052179201 0.74400002 -0.071746401 1.6866645e-38 324 295
0.0065223998 0.74400002 -0.071746401 1.6774448e-38 325 295
0.0078268806 0.74400002 -0.071746401 1.6682971e-38 326 295
0.0091313599 0.74400002 -0.071746401 1.6682971e-38 327 295
0.01043584 0.74400002 -0.071746401 1.6774448e-38 328 295
0.011740319 0.74400002 -0.071746401 1.6682252e-38 329 295
0.0130448 0.74400002 -0.071746401 1.6589701e-38 330 295
0.01434928 0.74400002 -0.071746401 1.6129081e-38 331 295
0.015653761 0.74400002 -0.071746401 1.594324e-38 332 295
0.016958239 0.74400002 -0.071746401 1.5666653e-38 333 295
0.01826272 0.74400002 -0.071746401 1.5667006e-38 334 295
0.0195146 0.74199998 -0.071553528 1.5113832e-38 335 295
0.020815572 0.74199998 -0.071553528 1.4929807e-38 336 295
0.022116546 0.74199998 -0.071553528 1.4745775e-38 337 295
0.023480639 0.74400002 -0.071746401 1.4469189e-38 338 295
0.02478512 0.74400002 -0.071746401 1.400821e-38 339 295
0.026089599 0.74400002 -0.071746401 1.4099327e-38 340 295
0.027394081 0.74400002 -0.071746401 1.3823099e-38 341 295
0.028775707 0.74599999 -0.07193926 1.3545788e-38 342 295
0.03008369 0.74599999 -0.07193926 1.3361395e-38 343 295
0.031433757 0.74699998 -0.072035693 1.2993333e-38 344 295
0.032743499 0.74699998 -0.072035693 1.2808941e-38 345 295
0.034053236 0.74699998 -0.072035693 1.2532007e-38 346 295
0.035362978 0.74699998 -0.072035693 1.2162866e-38 347 295
0.036770906 0.74900001 -0.072228566 1.216215e-38 348 295
0.038084153 0.74900001 -0.072228566 1.1793007e-38 349 295
0.0393974 0.74900001 -0.072228566 1.1424234e-38 350 295
0.040710647 0.74900001 -0.072228566 1.1147287e-38 351 295
0.042023893 0.74900001 -0.072228566 1.0594844e-38 352 295
0.043394998 0.75 -0.072324999 1.0502647e-38 353 295
0.044709999 0.75 -0.072324999 9.9505615e-39 354 295
0.046024997 0.75 -0.072324999 9.6743348e-39 355 295
0.047466237 0.75199997 -0.072517857 9.3055677e-39 356 295
0.048784744 0.75199997 -0.072517857 9.213372e-39 357 295
0.050103247 0.75199997 -0.072517857 8.938597e-39 358 295
-0.085169919 0.759 -0.07452368 1.5491017e-38 256 296
-0.083397292 0.755 -0.07413093 1.2909539e-38 257 296
-0.082073532 0.755 -0.07413093 1.0880837e-38 258 296
-0.080749765 0.755 -0.07413093 1.0696806e-38 259 296
-0.079425998 0.755 -0.07413093 1.2445258e-38 260 296
-0.077998787 0.75400001 -0.074032739 1.3182823e-38 261 296
-0.076676771 0.75400001 -0.074032739 1.4011488e-38 262 296
-0.075154878 0.75199997 -0.073836371 1.4380271e-38 263 296
-0.073639996 0.75 -0.073639996 1.4839088e-38 264 296
-0.072324999 0.75 -0.073639996 1.5115315e-38 265 296
-0.071010001 0.75 -0.073639996 1.5483022e-38 266 296
-0.069602072 0.74900001 -0.073541813 1.5483022e-38 267 296
-0.068106472 0.74699998 -0.073345438 1.5574499e-38 268 296
-0.066796735 0.74699998 -0.073345438 1.5758889e-38 269 296
-0.065486997 0.74699998 -0.073345438 1.5484452e-38 270 296
-0.06417726 0.74699998 -0.073345438 1.5484452e-38 271 296
-0.062867515 0.74699998 -0.073345438 1.5852514e-38 272 296
-0.061557774 0.74699998 -0.073345438 1.5760318e-38 273 296
-0.06016738 0.74599999 -0.073247254 1.5851069e-38 274 296
-0.058859397 0.74599999 -0.073247254 1.52057e-38 275 296
-0.057551414 0.74599999 -0.073247254 1.5021302e-38 276 296
-0.056243423 0.74599999 -0.073247254 1.4560325e-38 277 296
-0.054935437 0.74599999 -0.073247254 1.4284469e-38 278 296
-0.053627454 0.74599999 -0.073247254 1.4560696e-38 279 296
-0.052319467 0.74599999 -0.073247254 1.4929483e-38 280 296
-0.051011477 0.74599999 -0.073247254 1.5298264e-38 281 296
-0.04970349 0.74599999 -0.073247254 1.5575559e-38 282 296
-0.048395503 0.74599999 -0.073247254 1.6036177e-38 283 296
-0.047087517 0.74599999 -0.073247254 1.6221997e-38 284 296
-0.045779534 0.74599999 -0.073247254 1.6498584e-38 285 296
-0.044471547 0.74599999 -0.073247254 1.6682615e-38 286 296
-0.04316356 0.74599999 -0.073247254 1.6775171e-38 287 296
-0.04185557 0.74599999 -0.073247254 1.6866648e-38 288 296
-0.040438879 0.74400002 -0.073050879 1.6866648e-38 289 296
-0.039134398 0.74400002 -0.073050879 1.6866645e-38 290 296
-0.037829921 0.74400002 -0.073050879 1.6866645e-38 291 296
-0.036623627 0.74599999 -0.073247254 1.6775521e-38 292 296
-0.03531564 0.74599999 -0.073247254 1.6775521e-38 293 296
-0.034007654 0.74599999 -0.073247254 1.6775873e-38 294 296
-0.032699663 0.74599999 -0.073247254 1.6683319e-38 295 296
-0.031391677 0.74599999 -0.073247254 1.6683319e-38 296 296
-0.03008369 0.74599999 -0.073247254 1.6775873e-38 297 296
-0.028775707 0.74599999 -0.073247254 1.6682968e-38 298 296
-0.027394081 0.74400002 -0.073050879 1.6682968e-38 299 296
-0.026019465 0.74199998 -0.072854504 1.6774095e-38 300 296
-0.024718491 0.74199998 -0.072854504 1.6774095e-38 301 296
-0.023417519 0.74199998 -0.072854504 1.6682618e-38 302 296
-0.022176161 0.74400002 -0.073050879 1.6682618e-38 303 296
-0.02087168 0.74400002 -0.073050879 1.6774445e-38 304 296
-0.019567199 0.74400002 -0.073050879 1.6774445e-38 305 296
-0.01826272 0.74400002 -0.073050879 1.6774798e-38 306 296
-0.016958239 0.74400002 -0.073050879 1.6774798e-38 307 296
-0.015695838 0.74599999 -0.073247254 1.6775873e-38 308 296
-0.014387853 0.74599999 -0.073247254 1.6775873e-38 309 296
-0.013079867 0.74599999 -0.073247254 1.6867717e-38 310 296
-0.011771879 0.74599999 -0.073247254 1.6959913e-38 311 296
-0.010463892 0.74599999 -0.073247254 1.6959559e-38 312 296
-0.0091313599 0.74400002 -0.073050879 1.6867364e-38 313 296
-0.0078268806 0.74400002 -0.073050879 1.6867364e-38 314 296
-0.0065399334 0.74599999 -0.073247254 1.6959559e-38 315 296
-0.0052319462 0.74599999 -0.073247254 1.7142874e-38 316 296
-0.0039134403 0.74400002 -0.073050879 1.7142874e-38 317 296
-0.00260896 0.74400002 -0.073050879 1.6959562e-38 318 296
-0.00130448 0.74400002 -0.073050879 1.6775171e-38 319 296
0 0.74400002 -0.073050879 1.704996e-38 320 296
0.00130448 0.74400002 -0.073050879 1.6957763e-38 321 296
0.0026019465 0.74199998 -0.072854504 1.6774448e-38 322 296
0.0039029196 0.74199998 -0.072854504 1.6682252e-38 323 296
0.0052179201 0.74400002 -0.073050879 1.6406742e-38 324 296
0.0065223998 0.74400002 -0.073050879 1.622235e-38 325 296
0.0078268806 0.74400002 -0.073050879 1.6314546e-38 326 296
0.0091313599 0.74400002 -0.073050879 1.6314546e-38 327 296
0.010407786 0.74199998 -0.072854504 1.6313827e-38 328 296
0.01170876 0.74199998 -0.072854504 1.6129076e-38 329 296
0.013009733 0.74199998 -0.072854504 1.6220548e-38 330 296
0.014310705 0.74199998 -0.072854504 1.5759571e-38 331 296
0.015611678 0.74199998 -0.072854504 1.5482261e-38 332 296
0.016912652 0.74199998 -0.072854504 1.5390066e-38 333 296
0.018213626 0.74199998 -0.072854504 1.5022355e-38 334 296
0.0195146 0.74199998 -0.072854504 1.4561737e-38 335 296
0.020815572 0.74199998 -0.072854504 1.4469189e-38 336 296
0.022116546 0.74199998 -0.072854504 1.4376633e-38 337 296
0.023480639 0.74400002 -0.073050879 1.4100059e-38 338 296
0.02478512 0.74400002 -0.073050879 1.3915309e-38 339 296
0.026089599 0.74400002 -0.073050879 1.3638001e-38 340 296
0.027394081 0.74400002 -0.073050879 1.3453251e-38 341 296
0.028775707 0.74599999 -0.073247254 1.3360689e-38 342 296
0.03008369 0.74599999 -0.073247254 1.3176297e-38 343 296
0.031433757 0.74699998 -0.073345438 1.2808235e-38 344 296
0.032743499 0.74699998 -0.073345438 1.2439811e-38 345 296
0.034053236 0.74699998 -0.073345438 1.1887724e-38 346 296
0.035362978 0.74699998 -0.073345438 1.15193e-38 347 296
0.036672719 0.74699998 -0.073345438 1.1609698e-38 348 296
0.038084153 0.74900001 -0.073541813 1.1240916e-38 349 296
0.0393974 0.74900001 -0.073541813 1.0780307e-38 350 296
0.040710647 0.74900001 -0.073541813 1.050372e-38 351 296
0.042023893 0.74900001 -0.073541813 1.0318621e-38 352 296
0.04333714 0.74900001 -0.073541813 9.9498399e-39 353 296
0.044829223 0.75199997 -0.073836371 9.4896002e-39 354 296
0.04614773 0.75199997 -0.073836371 9.213372e-39 355 296
0.047466237 0.75199997 -0.073836371 8.9378768e-39 356 296
0.048784744 0.75199997 -0.073836371 8.9378768e-39 357 296
0.050103247 0.75199997 -0.073836371 8.6627346e-39 358 296
-0.085169919 0.759 -0.075854458 1.5767971e-38 256 297
-0.083618224 0.75700003 -0.075654581 1.3371243e-38 257 297
-0.082290947 0.75700003 -0.075654581 1.1618034e-38 258 297
-0.080963671 0.75700003 -0.075654581 1.0327295e-38 259 297
-0.079425998 0.755 -0.075454697 1.1799869e-38 260 297
-0.078102231 0.755 -0.075454697 1.2721825e-38 261 297
-0.076676771 0.75400001 -0.075354755 1.3458672e-38 262 297
-0.075154878 0.75199997 -0.075154878 1.391929e-38 263 297
-0.073639996 0.75 -0.074954994 1.437883e-38 264 297
-0.072324999 0.75 -0.074954994 1.4747611e-38 265 297
-0.070915319 0.74900001 -0.074855059 1.5114243e-38 266 297
-0.069416218 0.74699998 -0.074655175 1.5114243e-38 267 297
-0.068106472 0.74699998 -0.074655175 1.5206794e-38 268 297
-0.066796735 0.74699998 -0.074655175 1.5206794e-38 269 297
-0.065486997 0.74699998 -0.074655175 1.5208231e-38 270 297
-0.06417726 0.74699998 -0.074655175 1.5208231e-38 271 297
-0.062867515 0.74699998 -0.074655175 1.5300426e-38 272 297
-0.06147537 0.74599999 -0.074555233 1.5208231e-38 273 297
-0.06016738 0.74599999 -0.074555233 1.5207851e-38 274 297
-0.058859397 0.74599999 -0.074555233 1.5207851e-38 275 297
-0.057551414 0.74599999 -0.074555233 1.5300021e-38 276 297
-0.056243423 0.74599999 -0.074555233 1.5300021e-38 277 297
-0.054935437 0.74599999 -0.074555233 1.5666656e-38 278 297
-0.053627454 0.74599999 -0.074555233 1.6035438e-38 279 297
-0.052319467 0.74599999 -0.074555233 1.6128378e-38 280 297
-0.051011477 0.74599999 -0.074555233 1.6220575e-38 281 297
-0.04970349 0.74599999 -0.074555233 1.6128728e-38 282 297
-0.048395503 0.74599999 -0.074555233 1.6220925e-38 283 297
-0.046961278 0.74400002 -0.074355356 1.6406744e-38 284 297
-0.0456568 0.74400002 -0.074355356 1.6682971e-38 285 297
-0.044352323 0.74400002 -0.074355356 1.6498584e-38 286 297
-0.042932119 0.74199998 -0.074155472 1.6682615e-38 287 297
-0.041631144 0.74199998 -0.074155472 1.6774815e-38 288 297
-0.040330172 0.74199998 -0.074155472 1.6774815e-38 289 297
-0.0390292 0.74199998 -0.074155472 1.7049963e-38 290 297
-0.037728224 0.74199998 -0.074155472 1.7049963e-38 291 297
-0.036427252 0.74199998 -0.074155472 1.6866292e-38 292 297
-0.03512628 0.74199998 -0.074155472 1.6866292e-38 293 297
-0.033916477 0.74400002 -0.074355356 1.65915e-38 294 297
-0.032612 0.74400002 -0.074355356 1.65915e-38 295 297
-0.031223357 0.74199998 -0.074155472 1.6775165e-38 296 297
-0.029922385 0.74199998 -0.074155472 1.6775165e-38 297 297
-0.028621411 0.74199998 -0.074155472 1.6866648e-38 298 297
-0.027320439 0.74199998 -0.074155472 1.6774451e-38 299 297
-0.025984399 0.741 -0.074055538 1.695741e-38 300 297
-0.024685178 0.741 -0.074055538 1.695741e-38 301 297
-0.023385961 0.741 -0.074055538 1.6682618e-38 302 297
-0.02208674 0.741 -0.074055538 1.6498587e-38 303 297
-0.020787518 0.741 -0.074055538 1.6865567e-38 304 297
-0.0195146 0.74199998 -0.074155472 1.6681536e-38 305 297
-0.018213626 0.74199998 -0.074155472 1.6865567e-38 306 297
-0.016958239 0.74400002 -0.074355356 1.6957763e-38 307 297
-0.015653761 0.74400002 -0.074355356 1.6866645e-38 308 297
-0.01434928 0.74400002 -0.074355356 1.6866645e-38 309 297
-0.0130448 0.74400002 -0.074355356 1.6958843e-38 310 297
-0.011740319 0.74400002 -0.074355356 1.6958843e-38 311 297
-0.01043584 0.74400002 -0.074355356 1.6683698e-38 312 297
-0.0091313599 0.74400002 -0.074355356 1.6683698e-38 313 297
-0.0078268806 0.74400002 -0.074355356 1.6958843e-38 314 297
-0.0065223998 0.74400002 -0.074355356 1.6958843e-38 315 297
-0.0052179201 0.74400002 -0.074355356 1.6866648e-38 316 297
-0.0039134403 0.74400002 -0.074355356 1.6866648e-38 317 297
-0.0026019465 0.74199998 -0.074155472 1.6774815e-38 318 297
-0.0013009732 0.74199998 -0.074155472 1.6682618e-38 319 297
0 0.74199998 -0.074155472 1.6681902e-38 320 297
0.0013009732 0.74199998 -0.074155472 1.6589706e-38 321 297
0.0026019465 0.74199998 -0.074155472 1.6589706e-38 322 297
0.0039029196 0.74199998 -0.074155472 1.6497152e-38 323 297
0.0052038929 0.74199998 -0.074155472 1.6312391e-38 324 297
0.0065048663 0.74199998 -0.074155472 1.6220195e-38 325 297
0.0078058392 0.74199998 -0.074155472 1.6129782e-38 326 297
0.009106813 0.74199998 -0.074155472 1.5945391e-38 327 297
0.010407786 0.74199998 -0.074155472 1.6036142e-38 328 297
0.01170876 0.74199998 -0.074155472 1.5759555e-38 329 297
0.013009733 0.74199998 -0.074155472 1.5575529e-38 330 297
0.014310705 0.74199998 -0.074155472 1.5207107e-38 331 297
0.015611678 0.74199998 -0.074155472 1.5205305e-38 332 297
0.016912652 0.74199998 -0.074155472 1.4929078e-38 333 297
0.018213626 0.74199998 -0.074155472 1.4561735e-38 334 297
0.0195146 0.74199998 -0.074155472 1.4100756e-38 335 297
0.020815572 0.74199998 -0.074155472 1.4007857e-38 336 297
0.022116546 0.74199998 -0.074155472 1.3915662e-38 337 297
0.023417519 0.74199998 -0.074155472 1.3730919e-38 338 297
