# .PCD v.7 - Point Cloud Data file format
FIELDS x y z rgb imX imY
SIZE 4 4 4 4 4 4
TYPE F F F F F F
COUNT 1 1 1 1 1 1
WIDTH 850
HEIGHT 1
VIEWPOINT 0 0 0 1 0 0 0
POINTS 850
DATA ascii
0.066374183 0.676 -0.084152982 1.8155582e-38 376 311
0.067559443 0.676 -0.084152982 1.8155582e-38 377 311
0.068744689 0.676 -0.084152982 1.833925e-38 378 311
0.069929942 0.676 -0.084152982 1.8431445e-38 379 311
0.071115203 0.676 -0.084152982 1.824813e-38 380 311
0.072193496 0.67500001 -0.084028497 1.8340685e-38 381 311
0.073376998 0.67500001 -0.084028497 1.8248852e-38 382 311
0.074560501 0.67500001 -0.084028497 1.8248852e-38 383 311
0.07563179 0.67400002 -0.083904013 1.8248499e-38 384 311
0.076813534 0.67400002 -0.083904013 1.8156303e-38 385 311
0.077995278 0.67400002 -0.083904013 1.8431448e-38 386 311
0.079177029 0.67400002 -0.083904013 1.8339253e-38 387 311
0.080358773 0.67400002 -0.083904013 1.8063023e-38 388 311
0.0816615 0.67500001 -0.084028497 1.7878272e-38 389 311
0.082844995 0.67500001 -0.084028497 1.7785357e-38 390 311
0.084028497 0.67500001 -0.084028497 1.7600966e-38 391 311
0.085338242 0.676 -0.084152982 1.7232537e-38 392 311
0.086523488 0.676 -0.084152982 1.7048145e-38 393 311
0.08796823 0.67799997 -0.08440195 1.6771551e-38 394 311
0.089156993 0.67799997 -0.08440195 1.658752e-38 395 311
0.090345755 0.67799997 -0.08440195 1.6219458e-38 396 311
0.091669522 0.67900002 -0.084526442 1.6035065e-38 397 311
0.092860043 0.67900002 -0.084526442 1.5759202e-38 398 311
0.094050556 0.67900002 -0.084526442 1.557481e-38 399 311
0.095381334 0.68000001 -0.084650926 1.5206754e-38 400 311
0.096573599 0.68000001 -0.084650926 1.5022002e-38 401 311
0.09776587 0.68000001 -0.084650926 1.4653948e-38 402 311
0.099249184 0.68199998 -0.084899902 1.4561753e-38 403 311
0.10044495 0.68199998 -0.084899902 1.4192617e-38 404 311
0.10178977 0.68300003 -0.085024394 1.3823835e-38 405 311
0.1029873 0.68300003 -0.085024394 1.3454349e-38 406 311
0.10464244 0.68599999 -0.085397847 1.3269957e-38 407 311
0.10599951 0.68699998 -0.085522331 1.2626778e-38 408 311
0.10736011 0.68800002 -0.08564683 1.2626778e-38 409 311
0.108882 0.69 -0.085895799 1.2722612e-38 410 311
0.061815511 0.67799997 -0.085590713 1.8064153e-38 372 312
0.062818423 0.676 -0.085338242 1.7787566e-38 373 312
0.064003684 0.676 -0.085338242 1.8154512e-38 374 312
0.065188929 0.676 -0.085338242 1.8154512e-38 375 312
0.066374183 0.676 -0.085338242 1.8155935e-38 376 312
0.067559443 0.676 -0.085338242 1.824813e-38 377 312
0.068744689 0.676 -0.085338242 1.824813e-38 378 312
0.069929942 0.676 -0.085338242 1.824813e-38 379 312
0.071010001 0.67500001 -0.085212 1.8248133e-38 380 312
0.072193496 0.67500001 -0.085212 1.8340329e-38 381 312
0.073268294 0.67400002 -0.085085757 1.8338897e-38 382 312
0.074450038 0.67400002 -0.085085757 1.8338897e-38 383 312
0.075407356 0.67199999 -0.084833272 1.8430373e-38 384 312
0.076585598 0.67199999 -0.084833272 1.8338178e-38 385 312
0.077763841 0.67199999 -0.084833272 1.8338531e-38 386 312
0.078942075 0.67199999 -0.084833272 1.8246335e-38 387 312
0.080358773 0.67400002 -0.085085757 1.806194e-38 388 312
0.081540518 0.67400002 -0.085085757 1.7785713e-38 389 312
0.082722262 0.67400002 -0.085085757 1.7508766e-38 390 312
0.083904013 0.67400002 -0.085085757 1.741657e-38 391 312
0.085085757 0.67400002 -0.085085757 1.7048145e-38 392 312
0.086395502 0.67500001 -0.085212 1.6863753e-38 393 312
0.087708741 0.676 -0.085338242 1.6403495e-38 394 312
0.088893995 0.676 -0.085338242 1.6219464e-38 395 312
0.090345755 0.67799997 -0.085590713 1.6218029e-38 396 312
0.09153451 0.67799997 -0.085590713 1.6125832e-38 397 312
0.092723273 0.67799997 -0.085590713 1.5574457e-38 398 312
0.094050556 0.67900002 -0.085716955 1.5390066e-38 399 312
0.095241062 0.67900002 -0.085716955 1.5113838e-38 400 312
0.096573599 0.68000001 -0.085843198 1.4929088e-38 401 312
0.09776587 0.68000001 -0.085843198 1.4469552e-38 402 312
0.098958135 0.68000001 -0.085843198 1.428552e-38 403 312
0.10044495 0.68199998 -0.086095676 1.3824558e-38 404 312
0.10164072 0.68199998 -0.086095676 1.3547971e-38 405 312
0.1029873 0.68300003 -0.086221918 1.3269604e-38 406 312
0.10433736 0.68400002 -0.086348161 1.2993377e-38 407 312
0.10584522 0.68599999 -0.086600631 1.2442387e-38 408 312
0.10736011 0.68800002 -0.086853124 1.2442387e-38 409 312
0.108882 0.69 -0.087105595 1.2354547e-38 410 312
0.061633173 0.676 -0.086523488 1.7694976e-38 372 313
0.062818423 0.676 -0.086523488 1.7694976e-38 373 313
0.064003684 0.676 -0.086523488 1.8155216e-38 374 313
0.065092497 0.67500001 -0.086395502 1.8339247e-38 375 313
0.066275999 0.67500001 -0.086395502 1.8431801e-38 376 313
0.067459501 0.67500001 -0.086395502 1.8523997e-38 377 313
0.068643004 0.67500001 -0.086395502 1.8340329e-38 378 313
0.069723055 0.67400002 -0.086267509 1.8248133e-38 379 313
0.070904799 0.67400002 -0.086267509 1.8431448e-38 380 313
0.07208655 0.67400002 -0.086267509 1.8339253e-38 381 313
0.073050871 0.67199999 -0.086011514 1.8154512e-38 382 313
0.074229114 0.67199999 -0.086011514 1.8062317e-38 383 313
0.075407356 0.67199999 -0.086011514 1.806232e-38 384 313
0.076585598 0.67199999 -0.086011514 1.806232e-38 385 313
0.077763841 0.67199999 -0.086011514 1.7786806e-38 386 313
0.078942075 0.67199999 -0.086011514 1.7786806e-38 387 313
0.080358773 0.67400002 -0.086267509 1.7693883e-38 388 313
0.081540518 0.67400002 -0.086267509 1.7417298e-38 389 313
0.082476802 0.67199999 -0.086011514 1.7232183e-38 390 313
0.083655037 0.67199999 -0.086011514 1.6955597e-38 391 313
0.085085757 0.67400002 -0.086267509 1.6863401e-38 392 313
0.086267509 0.67400002 -0.086267509 1.6494618e-38 393 313
0.087449253 0.67400002 -0.086267509 1.6219832e-38 394 313
0.088893995 0.676 -0.086523488 1.6035082e-38 395 313
0.090079248 0.676 -0.086523488 1.5758498e-38 396 313
0.091264501 0.676 -0.086523488 1.5574107e-38 397 313
0.092723273 0.67799997 -0.086779475 1.5481914e-38 398 313
0.093912028 0.67799997 -0.086779475 1.5113131e-38 399 313
0.09510079 0.67799997 -0.086779475 1.4378438e-38 400 313
0.096431576 0.67900002 -0.086907476 1.4378438e-38 401 313
0.097622089 0.67900002 -0.086907476 1.4010378e-38 402 313
0.098958135 0.68000001 -0.087035462 1.3733431e-38 403 313
0.10044495 0.68199998 -0.087291449 1.3365024e-38 404 313
0.10164072 0.68199998 -0.087291449 1.2904046e-38 405 313
0.1028365 0.68199998 -0.087291449 1.2810075e-38 406 313
0.10418482 0.68300003 -0.087419443 1.2625684e-38 407 313
0.10538235 0.68300003 -0.087419443 1.2349485e-38 408 313
0.10736011 0.68800002 -0.088059418 1.1888866e-38 409 313
0.060358498 0.67500001 -0.087578997 1.7511326e-38 371 314
0.061542001 0.67500001 -0.087578997 1.7788247e-38 372 314
0.062632568 0.67400002 -0.087449253 1.7880442e-38 373 314
0.06381432 0.67400002 -0.087449253 1.8155582e-38 374 314
0.064996064 0.67400002 -0.087449253 1.8248136e-38 375 314
0.066177815 0.67400002 -0.087449253 1.824813e-38 376 314
0.067359567 0.67400002 -0.087449253 1.8340685e-38 377 314
0.068541311 0.67400002 -0.087449253 1.824813e-38 378 314
0.069412716 0.671 -0.087060012 1.824813e-38 379 314
0.0705892 0.671 -0.087060012 1.8248133e-38 380 314
0.071765684 0.671 -0.087060012 1.8155938e-38 381 314
0.072942175 0.671 -0.087060012 1.8063023e-38 382 314
0.074118659 0.671 -0.087060012 1.7878272e-38 383 314
0.075295143 0.671 -0.087060012 1.8061224e-38 384 314
0.076471634 0.671 -0.087060012 1.8153419e-38 385 314
0.077648118 0.671 -0.087060012 1.7877909e-38 386 314
0.078824602 0.671 -0.087060012 1.7785713e-38 387 314
0.080120318 0.67199999 -0.087189756 1.7601319e-38 388 314
0.08129856 0.67199999 -0.087189756 1.7232537e-38 389 314
0.082476802 0.67199999 -0.087189756 1.723146e-38 390 314
0.083655037 0.67199999 -0.087189756 1.6954875e-38 391 314
0.084833272 0.67199999 -0.087189756 1.6771201e-38 392 314
0.086267509 0.67400002 -0.087449253 1.6494974e-38 393 314
0.087449253 0.67400002 -0.087449253 1.6126912e-38 394 314
0.088631004 0.67400002 -0.087449253 1.5942519e-38 395 314
0.090079248 0.676 -0.087708741 1.5757772e-38 396 314
0.091264501 0.676 -0.087708741 1.5481545e-38 397 314
0.092449754 0.676 -0.087708741 1.5297517e-38 398 314
0.093635008 0.676 -0.087708741 1.4929093e-38 399 314
0.09510079 0.67799997 -0.08796823 1.4469554e-38 400 314
0.096289553 0.67799997 -0.08796823 1.4193326e-38 401 314
0.097622089 0.67900002 -0.08809799 1.4008223e-38 402 314
0.09881261 0.67900002 -0.08809799 1.3547604e-38 403 314
0.10000312 0.67900002 -0.08809799 1.3086645e-38 404 314
0.10134266 0.68000001 -0.088227727 1.2994449e-38 405 314
0.1028365 0.68199998 -0.088487223 1.2442374e-38 406 314
0.10403228 0.68199998 -0.088487223 1.2442374e-38 407 314
0.10538235 0.68300003 -0.088616975 1.2073977e-38 408 314
0.060090236 0.67199999 -0.088367991 1.7787881e-38 371 315
0.061268479 0.67199999 -0.088367991 1.8063389e-38 372 315
0.062446721 0.67199999 -0.088367991 1.8155584e-38 373 315
0.063624956 0.67199999 -0.088367991 1.8431448e-38 374 315
0.064706765 0.671 -0.088236496 1.8431448e-38 375 315
0.065785065 0.67000002 -0.088105001 1.8248133e-38 376 315
0.066959806 0.67000002 -0.088105001 1.8248133e-38 377 315
0.068134531 0.67000002 -0.088105001 1.8340329e-38 378 315
0.068998925 0.667 -0.0877105 1.8248133e-38 379 315
0.070168398 0.667 -0.0877105 1.833925e-38 380 315
0.071444817 0.66799998 -0.087841995 1.8155219e-38 381 315
0.072833464 0.67000002 -0.088105001 1.8154135e-38 382 315
0.073787279 0.66799998 -0.087841995 1.806194e-38 383 315
0.074958503 0.66799998 -0.087841995 1.7693883e-38 384 315
0.076357663 0.67000002 -0.088105001 1.7509852e-38 385 315
0.077532403 0.67000002 -0.088105001 1.7325468e-38 386 315
0.078707129 0.67000002 -0.088105001 1.7325468e-38 387 315
0.080001086 0.671 -0.088236496 1.7232908e-38 388 315
0.08129856 0.67199999 -0.088367991 1.6864127e-38 389 315
0.082476802 0.67199999 -0.088367991 1.6862681e-38 390 315
0.083655037 0.67199999 -0.088367991 1.6677931e-38 391 315
0.084833272 0.67199999 -0.088367991 1.6402779e-38 392 315
0.086267509 0.67400002 -0.088631004 1.6218029e-38 393 315
0.087449253 0.67400002 -0.088631004 1.5849968e-38 394 315
0.088631004 0.67400002 -0.088631004 1.5757772e-38 395 315
0.089945994 0.67500001 -0.088762499 1.5389716e-38 396 315
0.091129504 0.67500001 -0.088762499 1.5113129e-38 397 315
0.092312999 0.67500001 -0.088762499 1.4746141e-38 398 315
0.093635008 0.676 -0.088893995 1.4469554e-38 399 315
0.094820268 0.676 -0.088893995 1.4101493e-38 400 315
0.096005514 0.676 -0.088893995 1.3825267e-38 401 315
0.097478308 0.67799997 -0.089156993 1.3639094e-38 402 315
0.09866707 0.67799997 -0.089156993 1.3362506e-38 403 315
0.099855833 0.67799997 -0.089156993 1.2901548e-38 404 315
0.1010446 0.67799997 -0.089156993 1.2809352e-38 405 315
0.10253493 0.68000001 -0.089419998 1.2257993e-38 406 315
0.10403228 0.68199998 -0.089682996 1.2257993e-38 407 315
0.10522805 0.68199998 -0.089682996 1.1888157e-38 408 315
0.053715117 0.66600001 -0.088746719 1.7421674e-38 366 316
0.054882839 0.66600001 -0.088746719 1.6499716e-38 367 316
0.056050558 0.66600001 -0.088746719 1.7327637e-38 368 316
0.057218276 0.66600001 -0.088746719 1.751203e-38 369 316
0.058385998 0.66600001 -0.088746719 1.7972275e-38 370 316
0.059553716 0.66600001 -0.088746719 1.7972275e-38 371 316
0.060903784 0.66799998 -0.089013219 1.8339253e-38 372 316
0.06226087 0.67000002 -0.089279734 1.8431448e-38 373 316
0.063435599 0.67000002 -0.089279734 1.8248133e-38 374 316
0.064610332 0.67000002 -0.089279734 1.8340329e-38 375 316
0.065490507 0.667 -0.088879973 1.8248855e-38 376 316
0.06665998 0.667 -0.088879973 1.8248855e-38 377 316
0.067829452 0.667 -0.088879973 1.8340332e-38 378 316
0.068895474 0.66600001 -0.088746719 1.8340332e-38 379 316
0.070063196 0.66600001 -0.088746719 1.8339253e-38 380 316
0.071230918 0.66600001 -0.088746719 1.8062667e-38 381 316
0.072507344 0.667 -0.088879973 1.8061943e-38 382 316
0.073676817 0.667 -0.088879973 1.7877553e-38 383 316
0.07484629 0.667 -0.088879973 1.7693162e-38 384 316
0.076015763 0.667 -0.088879973 1.750877e-38 385 316
0.077185236 0.667 -0.088879973 1.7232552e-38 386 316
0.078354709 0.667 -0.088879973 1.7232552e-38 387 316
0.079643413 0.66799998 -0.089013219 1.7048161e-38 388 316
0.08129856 0.67199999 -0.089546233 1.667938e-38 389 316
0.082354069 0.671 -0.089412987 1.6494621e-38 390 316
0.083530545 0.671 -0.089412987 1.631023e-38 391 316
0.084833272 0.67199999 -0.089546233 1.6034719e-38 392 316
0.086011514 0.67199999 -0.089546233 1.5849968e-38 393 316
0.087189756 0.67199999 -0.089546233 1.5757775e-38 394 316
0.088367991 0.67199999 -0.089546233 1.548119e-38 395 316
0.089546233 0.67199999 -0.089546233 1.5113849e-38 396 316
0.091129504 0.67500001 -0.089945994 1.4929456e-38 397 316
0.092312999 0.67500001 -0.089945994 1.4561753e-38 398 316
0.093635008 0.676 -0.090079248 1.4285167e-38 399 316
0.094820268 0.676 -0.090079248 1.3824558e-38 400 316
0.096005514 0.676 -0.090079248 1.3547971e-38 401 316
0.097478308 0.67799997 -0.090345755 1.3362153e-38 402 316
0.09866707 0.67799997 -0.090345755 1.2993731e-38 403 316
0.099855833 0.67799997 -0.090345755 1.2809349e-38 404 316
0.1010446 0.67799997 -0.090345755 1.2533121e-38 405 316
0.10223336 0.67799997 -0.090345755 1.1982484e-38 406 316
0.10342211 0.67799997 -0.090345755 1.1889929e-38 407 316
0.10522805 0.68199998 -0.090878762 1.15201e-38 408 316
0.052547399 0.66600001 -0.089914441 1.7511737e-38 365 317
0.053715117 0.66600001 -0.089914441 1.7052506e-38 366 317
0.054882839 0.66600001 -0.089914441 1.7052506e-38 367 317
0.056050558 0.66600001 -0.089914441 1.7512014e-38 368 317
0.057218276 0.66600001 -0.089914441 1.77886e-38 369 317
0.058385998 0.66600001 -0.089914441 1.8155582e-38 370 317
0.059553716 0.66600001 -0.089914441 1.8248136e-38 371 317
0.060721438 0.66600001 -0.089914441 1.8248133e-38 372 317
0.06198208 0.667 -0.090049446 1.8248133e-38 373 317
0.063151561 0.667 -0.090049446 1.8340329e-38 374 317
0.064224601 0.66600001 -0.089914441 1.8432524e-38 375 317
0.06519594 0.66399997 -0.089644417 1.8248855e-38 376 317
0.066360161 0.66399997 -0.089644417 1.8248855e-38 377 317
0.067524366 0.66399997 -0.089644417 1.8248136e-38 378 317
0.068688579 0.66399997 -0.089644417 1.8155582e-38 379 317
0.069852799 0.66399997 -0.089644417 1.8154863e-38 380 317
0.071017005 0.66399997 -0.089644417 1.7970472e-38 381 317
0.072181225 0.66399997 -0.089644417 1.7694962e-38 382 317
0.073566355 0.66600001 -0.089914441 1.7510212e-38 383 317
0.074734077 0.66600001 -0.089914441 1.7325102e-38 384 317
0.075901799 0.66600001 -0.089914441 1.7232905e-38 385 317
0.077069521 0.66600001 -0.089914441 1.7048158e-38 386 317
0.078237243 0.66600001 -0.089914441 1.6864127e-38 387 317
0.079524182 0.667 -0.090049446 1.6494987e-38 388 317
0.080693655 0.667 -0.090049446 1.6402791e-38 389 317
0.081985861 0.66799998 -0.090184443 1.6034363e-38 390 317
0.083157085 0.66799998 -0.090184443 1.5849971e-38 391 317
0.084707037 0.671 -0.090589471 1.557446e-38 392 317
0.086011514 0.67199999 -0.090724476 1.5482264e-38 393 317
0.087189756 0.67199999 -0.090724476 1.5113849e-38 394 317
0.088367991 0.67199999 -0.090724476 1.5021652e-38 395 317
0.089546233 0.67199999 -0.090724476 1.4929103e-38 396 317
0.090994492 0.67400002 -0.090994492 1.4560681e-38 397 317
0.092176244 0.67400002 -0.090994492 1.428517e-38 398 317
0.093496501 0.67500001 -0.091129504 1.4008223e-38 399 317
0.094820268 0.676 -0.091264501 1.3087714e-38 400 317
0.096005514 0.676 -0.091264501 1.2718933e-38 401 317
0.097478308 0.67799997 -0.09153451 1.2901182e-38 402 317
0.09866707 0.67799997 -0.09153451 1.271643e-38 403 317
0.099855833 0.67799997 -0.09153451 1.2257976e-38 404 317
0.1010446 0.67799997 -0.09153451 1.2257976e-38 405 317
0.10223336 0.67799997 -0.09153451 1.1889935e-38 406 317
0.10342211 0.67799997 -0.09153451 1.1613349e-38 407 317
0.051379681 0.66600001 -0.091082163 1.760173e-38 364 318
0.052547399 0.66600001 -0.091082163 1.760173e-38 365 318
0.053715117 0.66600001 -0.091082163 1.7143956e-38 366 318
0.054882839 0.66600001 -0.091082163 1.7604934e-38 367 318
0.056050558 0.66600001 -0.091082163 1.8063739e-38 368 318
0.057218276 0.66600001 -0.091082163 1.8155935e-38 369 318
0.05821066 0.66399997 -0.090808637 1.8431799e-38 370 318
0.059374876 0.66399997 -0.090808637 1.8431799e-38 371 318
0.060539093 0.66399997 -0.090808637 1.8523997e-38 372 318
0.061889157 0.66600001 -0.091082163 1.8523997e-38 373 318
0.062867515 0.66399997 -0.090808637 1.8432527e-38 374 318
0.063935295 0.66299999 -0.090671875 1.8340332e-38 375 318
0.065097757 0.66299999 -0.090671875 1.8339976e-38 376 318
0.066260219 0.66299999 -0.090671875 1.824778e-38 377 318
0.067422673 0.66299999 -0.090671875 1.833925e-38 378 318
0.068585135 0.66299999 -0.090671875 1.8155219e-38 379 318
0.069747597 0.66299999 -0.090671875 1.797119e-38 380 318
0.070910059 0.66299999 -0.090671875 1.7694962e-38 381 318
0.072072513 0.66299999 -0.090671875 1.7602413e-38 382 318
0.07334543 0.66399997 -0.090808637 1.7418022e-38 383 318
0.07450965 0.66399997 -0.090808637 1.7140354e-38 384 318
0.075901799 0.66600001 -0.091082163 1.7048158e-38 385 318
0.077069521 0.66600001 -0.091082163 1.6771931e-38 386 318
0.078237243 0.66600001 -0.091082163 1.6587538e-38 387 318
0.079404958 0.66600001 -0.091082163 1.6127281e-38 388 318
0.08057268 0.66600001 -0.091082163 1.5942889e-38 389 318
0.081863128 0.667 -0.091218919 1.5666658e-38 390 318
0.083032601 0.667 -0.091218919 1.5481908e-38 391 318
0.084580801 0.67000002 -0.0916292 1.52064e-38 392 318
0.085883528 0.671 -0.091765963 1.5114205e-38 393 318
0.087060012 0.671 -0.091765963 1.4837987e-38 394 318
0.088236496 0.671 -0.091765963 1.4653595e-38 395 318
0.089546233 0.67199999 -0.091902718 1.4561044e-38 396 318
0.090724476 0.67199999 -0.091902718 1.419262e-38 397 318
0.091902718 0.67199999 -0.091902718 1.391603e-38 398 318
0.093496501 0.67500001 -0.092312999 1.3639803e-38 399 318
0.094820268 0.676 -0.092449754 1.2533819e-38 400 318
0.096005514 0.676 -0.092449754 1.1981004e-38 401 318
0.097190768 0.676 -0.092449754 1.2166131e-38 402 318
0.098376028 0.676 -0.092449754 1.2258326e-38 403 318
0.099561274 0.676 -0.092449754 1.2166499e-38 404 318
0.10074653 0.676 -0.092449754 1.1982468e-38 405 318
0.10193179 0.676 -0.092449754 1.1981061e-38 406 318
0.051225383 0.66399997 -0.091972843 1.7970139e-38 364 319
0.052389596 0.66399997 -0.091972843 1.7970139e-38 365 319
0.053715117 0.66600001 -0.092249878 1.8063392e-38 366 319
0.054882839 0.66600001 -0.092249878 1.8155587e-38 367 319
0.056050558 0.66600001 -0.092249878 1.824813e-38 368 319
0.057218276 0.66600001 -0.092249878 1.8155935e-38 369 319
0.05821066 0.66399997 -0.091972843 1.8431799e-38 370 319
0.059285458 0.66299999 -0.091834337 1.8523994e-38 371 319
0.060447913 0.66299999 -0.091834337 1.8340682e-38 372 319
0.061610378 0.66299999 -0.091834337 1.8340682e-38 373 319
0.062678158 0.662 -0.091695823 1.8340329e-38 374 319
0.063838862 0.662 -0.091695823 1.8248133e-38 375 319
0.064999565 0.662 -0.091695823 1.8338897e-38 376 319
0.066160277 0.662 -0.091695823 1.8338897e-38 377 319
0.067422673 0.66299999 -0.091834337 1.8154863e-38 378 319
0.068585135 0.66299999 -0.091834337 1.8062667e-38 379 319
0.069747597 0.66299999 -0.091834337 1.7878272e-38 380 319
0.070910059 0.66299999 -0.091834337 1.769388e-38 381 319
0.072072513 0.66299999 -0.091834337 1.7325821e-38 382 319
0.073234983 0.66299999 -0.091834337 1.7049593e-38 383 319
0.074397437 0.66299999 -0.091834337 1.7047792e-38 384 319
0.075673863 0.66399997 -0.091972843 1.6955597e-38 385 319
0.076838076 0.66399997 -0.091972843 1.6863034e-38 386 319
0.078002289 0.66399997 -0.091972843 1.6586088e-38 387 319
0.079166502 0.66399997 -0.091972843 1.594324e-38 388 319
0.080330715 0.66399997 -0.091972843 1.5666653e-38 389 319
0.081740394 0.66600001 -0.092249878 1.5390069e-38 390 319
0.083032601 0.667 -0.092388391 1.5297514e-38 391 319
0.084328316 0.66799998 -0.092526905 1.4929812e-38 392 319
0.085755527 0.67000002 -0.092803933 1.4929812e-38 393 319
0.086930268 0.67000002 -0.092803933 1.465323e-38 394 319
0.088236496 0.671 -0.092942439 1.4561034e-38 395 319
0.089412987 0.671 -0.092942439 1.419297e-38 396 319
0.090724476 0.67199999 -0.093080953 1.3916383e-38 397 319
0.091902718 0.67199999 -0.093080953 1.3362491e-38 398 319
0.093357988 0.67400002 -0.093357988 1.2993348e-38 399 319
0.094679996 0.67500001 -0.093496501 1.1518947e-38 400 319
0.096005514 0.676 -0.093635008 1.2164316e-38 401 319
0.097190768 0.676 -0.093635008 1.2073935e-38 402 319
0.098376028 0.676 -0.093635008 1.2166131e-38 403 319
0.099561274 0.676 -0.093635008 1.1982468e-38 404 319
0.10074653 0.676 -0.093635008 1.1982468e-38 405 319
0.10193179 0.676 -0.093635008 1.1704116e-38 406 319
0.046568532 0.66399997 -0.093137063 1.7603525e-38 360 320
0.047660857 0.66299999 -0.092996798 1.7419133e-38 361 320
0.048823316 0.66299999 -0.092996798 1.7602779e-38 362 320
0.050211959 0.66600001 -0.093417592 1.7879726e-38 363 320
0.051225383 0.66399997 -0.093137063 1.8155584e-38 364 320
0.052389596 0.66399997 -0.093137063 1.8155584e-38 365 320
0.053715117 0.66600001 -0.093417592 1.8339603e-38 366 320
0.054882839 0.66600001 -0.093417592 1.8523994e-38 367 320
0.055882234 0.66399997 -0.093137063 1.8523626e-38 368 320
0.057046451 0.66399997 -0.093137063 1.8708016e-38 369 320
0.058122993 0.66299999 -0.092996798 1.8524345e-38 370 320
0.05919604 0.662 -0.092856526 1.8524345e-38 371 320
0.060356744 0.662 -0.092856526 1.8523275e-38 372 320
0.061517447 0.662 -0.092856526 1.8523275e-38 373 320
0.062678158 0.662 -0.092856526 1.8431092e-38 374 320
0.063838862 0.662 -0.092856526 1.8338897e-38 375 320
0.064999565 0.662 -0.092856526 1.8063392e-38 376 320
0.066160277 0.662 -0.092856526 1.8063392e-38 377 320
0.067320988 0.662 -0.092856526 1.797119e-38 378 320
0.068481691 0.662 -0.092856526 1.7602767e-38 379 320
0.069642402 0.662 -0.092856526 1.7602767e-38 380 320
0.070803106 0.662 -0.092856526 1.7325821e-38 381 320
0.071963809 0.662 -0.092856526 1.704924e-38 382 320
0.07312452 0.662 -0.092856526 1.6864848e-38 383 320
0.074285224 0.662 -0.092856526 1.6588253e-38 384 320
0.075559892 0.66299999 -0.092996798 1.6312025e-38 385 320
0.076838076 0.66399997 -0.093137063 1.6035438e-38 386 320
0.078002289 0.66399997 -0.093137063 1.6035438e-38 387 320
0.079166502 0.66399997 -0.093137063 1.5575182e-38 388 320
0.080330715 0.66399997 -0.093137063 1.5298596e-38 389 320
0.081740394 0.66600001 -0.093417592 1.4930537e-38 390 320
0.082908116 0.66600001 -0.093417592 1.483834e-38 391 320
0.084202074 0.667 -0.093557864 1.4562476e-38 392 320
0.085499547 0.66799998 -0.093698129 1.4378085e-38 393 320
0.086670771 0.66799998 -0.093698129 1.4469201e-38 394 320
0.088105001 0.67000002 -0.093978666 1.4192973e-38 395 320
0.089412987 0.671 -0.09411893 1.3823466e-38 396 320
0.090589471 0.671 -0.09411893 1.3454684e-38 397 320
0.091902718 0.67199999 -0.094259195 1.2625642e-38 398 320
0.093080953 0.67199999 -0.094259195 1.1888077e-38 399 320
0.094539732 0.67400002 -0.094539732 1.2256513e-38 400 320
0.095863499 0.67500001 -0.094679996 1.2256513e-38 401 320
0.097047001 0.67500001 -0.094679996 1.1798068e-38 402 320
0.098230496 0.67500001 -0.094679996 1.1982818e-38 403 320
0.099561274 0.676 -0.094820268 1.1982115e-38 404 320
0.10074653 0.676 -0.094820268 1.1889919e-38 405 320
0.10193179 0.676 -0.094820268 1.1886006e-38 406 320
0.044106852 0.662 -0.094017237 1.7786487e-38 358 321
0.04526756 0.662 -0.094017237 1.7602456e-38 359 321
0.046428263 0.662 -0.094017237 1.7694626e-38 360 321
0.047660857 0.66299999 -0.094159253 1.7879017e-38 361 321
0.048823316 0.66299999 -0.094159253 1.8063392e-38 362 321
0.05006117 0.66399997 -0.094301268 1.8155587e-38 363 321
0.051225383 0.66399997 -0.094301268 1.824813e-38 364 321
0.052389596 0.66399997 -0.094301268 1.824813e-38 365 321
0.053553808 0.66399997 -0.094301268 1.8340682e-38 366 321
0.054635618 0.66299999 -0.094159253 1.8340682e-38 367 321
0.055713918 0.662 -0.094017237 1.8616193e-38 368 321
0.056874625 0.662 -0.094017237 1.8616193e-38 369 321
0.057947662 0.66100001 -0.093875214 1.8341404e-38 370 321
0.059106622 0.66100001 -0.093875214 1.8248849e-38 371 321
0.060356744 0.662 -0.094017237 1.8523641e-38 372 321
0.061424527 0.66100001 -0.093875214 1.833925e-38 373 321
0.062583476 0.66100001 -0.093875214 1.8155219e-38 374 321
0.063742429 0.66100001 -0.093875214 1.8155219e-38 375 321
0.064901382 0.66100001 -0.093875214 1.8062667e-38 376 321
0.066060342 0.66100001 -0.093875214 1.7970472e-38 377 321
0.067219295 0.66100001 -0.093875214 1.7602413e-38 378 321
0.068378247 0.66100001 -0.093875214 1.7510218e-38 379 321
0.0695372 0.66100001 -0.093875214 1.7324749e-38 380 321
0.070696153 0.66100001 -0.093875214 1.7140356e-38 381 321
0.071963809 0.662 -0.094017237 1.6864483e-38 382 321
0.07312452 0.662 -0.094017237 1.6679733e-38 383 321
0.074285224 0.662 -0.094017237 1.6495693e-38 384 321
0.075559892 0.66299999 -0.094159253 1.6219108e-38 385 321
0.076722354 0.66299999 -0.094159253 1.5942519e-38 386 321
0.078002289 0.66399997 -0.094301268 1.5850324e-38 387 321
0.079166502 0.66399997 -0.094301268 1.5481908e-38 388 321
0.080330715 0.66399997 -0.094301268 1.5297517e-38 389 321
0.081740394 0.66600001 -0.094585314 1.4929812e-38 390 321
0.082908116 0.66600001 -0.094585314 1.4745422e-38 391 321
0.084202074 0.667 -0.094727337 1.4561753e-38 392 321
0.085371546 0.667 -0.094727337 1.4469198e-38 393 321
0.086670771 0.66799998 -0.094869353 1.4193326e-38 394 321
0.087841995 0.66799998 -0.094869353 1.3916381e-38 395 321
0.089279734 0.67000002 -0.095153399 1.3178813e-38 396 321
0.090589471 0.671 -0.095295422 1.2072824e-38 397 321
0.091765963 0.671 -0.095295422 1.2346909e-38 398 321
0.093080953 0.67199999 -0.095437437 1.2439105e-38 399 321
0.094539732 0.67400002 -0.095721483 1.2255807e-38 400 321
0.095863499 0.67500001 -0.095863499 1.2348361e-38 401 321
0.09661568 0.67199999 -0.095437437 1.1890623e-38 402 321
0.097793922 0.67199999 -0.095437437 1.1982818e-38 403 321
0.099561274 0.676 -0.096005514 1.1798084e-38 404 321
0.10074653 0.676 -0.096005514 1.1614053e-38 405 321
0.10193179 0.676 -0.096005514 1.1518654e-38 406 321
0.042946145 0.662 -0.095177941 1.7510976e-38 357 322
0.044106852 0.662 -0.095177941 1.7786459e-38 358 322
0.04526756 0.662 -0.095177941 1.797049e-38 359 322
0.046428263 0.662 -0.095177941 1.8063392e-38 360 322
0.047588971 0.662 -0.095177941 1.8155587e-38 361 322
0.048749682 0.662 -0.095177941 1.8155584e-38 362 322
0.049985778 0.66299999 -0.095321715 1.8155584e-38 363 322
0.051148236 0.66299999 -0.095321715 1.8248133e-38 364 322
0.0522318 0.662 -0.095177941 1.8340329e-38 365 322
0.053392503 0.662 -0.095177941 1.8523641e-38 366 322
0.054553211 0.662 -0.095177941 1.8616195e-38 367 322
0.05562976 0.66100001 -0.095034167 1.8523644e-38 368 322
0.056788713 0.66100001 -0.095034167 1.861584e-38 369 322
0.057772331 0.65899998 -0.094746619 1.8340332e-38 370 322
0.058927774 0.65899998 -0.094746619 1.8340332e-38 371 322
0.060265575 0.66100001 -0.095034167 1.8431448e-38 372 322
0.061238669 0.65899998 -0.094746619 1.8339253e-38 373 322
0.062394116 0.65899998 -0.094746619 1.7787878e-38 374 322
0.063549563 0.65899998 -0.094746619 1.7695682e-38 375 322
0.064901382 0.66100001 -0.095034167 1.7694609e-38 376 322
0.066060342 0.66100001 -0.095034167 1.7602413e-38 377 322
0.067219295 0.66100001 -0.095034167 1.7509143e-38 378 322
0.068378247 0.66100001 -0.095034167 1.7324752e-38 379 322
0.0695372 0.66100001 -0.095034167 1.7140359e-38 380 322
0.070696153 0.66100001 -0.095034167 1.6771578e-38 381 322
0.071855105 0.66100001 -0.095034167 1.6587183e-38 382 322
0.073014058 0.66100001 -0.095034167 1.6402791e-38 383 322
0.074285224 0.662 -0.095177941 1.6035082e-38 384 322
0.075445928 0.662 -0.095177941 1.5942887e-38 385 322
0.076606639 0.662 -0.095177941 1.5575179e-38 386 322
0.077884816 0.66299999 -0.095321715 1.5298952e-38 387 322
0.079166502 0.66399997 -0.095465489 1.5113849e-38 388 322
0.080330715 0.66399997 -0.095465489 1.4929456e-38 389 322
0.081494927 0.66399997 -0.095465489 1.4561753e-38 390 322
0.082908116 0.66600001 -0.095753036 1.4469198e-38 391 322
0.084075838 0.66600001 -0.095753036 1.4285523e-38 392 322
0.085371546 0.667 -0.09589681 1.4193326e-38 393 322
0.086541019 0.667 -0.09589681 1.4008932e-38 394 322
0.087841995 0.66799998 -0.096040577 1.3640151e-38 395 322
0.089279734 0.67000002 -0.096328132 1.2994428e-38 396 322
0.090454467 0.67000002 -0.096328132 1.2072471e-38 397 322
0.091765963 0.671 -0.096471906 1.1980651e-38 398 322
0.093080953 0.67199999 -0.09661568 1.1980651e-38 399 322
0.094259195 0.67199999 -0.09661568 1.1981021e-38 400 322
0.095437437 0.67199999 -0.09661568 1.2073216e-38 401 322
0.096471906 0.671 -0.096471906 1.1982818e-38 402 322
0.09764839 0.671 -0.096471906 1.1890623e-38 403 322
0.099413998 0.67500001 -0.097047001 1.1797734e-38 404 322
0.10074653 0.676 -0.097190768 1.1429311e-38 405 322
0.041596077 0.65899998 -0.09590207 1.751061e-38 356 323
0.042751525 0.65899998 -0.09590207 1.7602806e-38 357 323
0.044040225 0.66100001 -0.096193127 1.8062332e-38 358 323
0.04526756 0.662 -0.096338652 1.8062332e-38 359 323
0.046428263 0.662 -0.096338652 1.8154866e-38 360 323
0.047517084 0.66100001 -0.096193127 1.8431092e-38 361 323
0.04867604 0.66100001 -0.096193127 1.83389e-38 362 323
0.049834993 0.66100001 -0.096193127 1.8431095e-38 363 323
0.050993945 0.66100001 -0.096193127 1.8247427e-38 364 323
0.051995095 0.65899998 -0.09590207 1.8247427e-38 365 323
0.05306989 0.65799999 -0.095756538 1.8247427e-38 366 323
0.054223582 0.65799999 -0.095756538 1.8247427e-38 367 323
0.055377278 0.65799999 -0.095756538 1.8339979e-38 368 323
0.056530971 0.65799999 -0.095756538 1.8339979e-38 369 323
0.057684667 0.65799999 -0.095756538 1.8339981e-38 370 323
0.058838356 0.65799999 -0.095756538 1.8247427e-38 371 323
0.059992049 0.65799999 -0.095756538 1.8155231e-38 372 323
0.061145745 0.65799999 -0.095756538 1.797084e-38 373 323
0.062394116 0.65899998 -0.09590207 1.7694612e-38 374 323
0.06345313 0.65799999 -0.095756538 1.7602058e-38 375 323
0.064606823 0.65799999 -0.095756538 1.7234357e-38 376 323
0.065860458 0.65899998 -0.09590207 1.7049607e-38 377 323
0.067015901 0.65899998 -0.09590207 1.7232552e-38 378 323
0.068171352 0.65899998 -0.09590207 1.686413e-38 379 323
0.069326796 0.65899998 -0.09590207 1.6587903e-38 380 323
0.070482239 0.65899998 -0.09590207 1.6311675e-38 381 323
0.071855105 0.66100001 -0.096193127 1.6218404e-38 382 323
0.073014058 0.66100001 -0.096193127 1.6126209e-38 383 323
0.074285224 0.662 -0.096338652 1.5666302e-38 384 323
0.075445928 0.662 -0.096338652 1.5574107e-38 385 323
0.076606639 0.662 -0.096338652 1.52064e-38 386 323
0.077767342 0.662 -0.096338652 1.5022008e-38 387 323
0.079047278 0.66299999 -0.096484177 1.4653948e-38 388 323
0.080209732 0.66299999 -0.096484177 1.4561753e-38 389 323
0.081494927 0.66399997 -0.096629702 1.4468482e-38 390 323
0.08265914 0.66399997 -0.096629702 1.4468482e-38 391 323
0.084075838 0.66600001 -0.096920758 1.4100775e-38 392 323
0.085371546 0.667 -0.097066283 1.4008579e-38 393 323
0.086541019 0.667 -0.097066283 1.3640517e-38 394 323
0.0877105 0.667 -0.097066283 1.3272093e-38 395 323
0.089013219 0.66799998 -0.097211808 1.2902599e-38 396 323
0.090454467 0.67000002 -0.097502865 1.2441979e-38 397 323
0.0916292 0.67000002 -0.097502865 1.2165765e-38 398 323
0.092942439 0.671 -0.09764839 1.2073569e-38 399 323
0.09411893 0.671 -0.09764839 1.207286e-38 400 323
0.095295422 0.671 -0.09764839 1.2165415e-38 401 323
0.096471906 0.671 -0.09764839 1.2073582e-38 402 323
0.09764839 0.671 -0.09764839 1.2073582e-38 403 323
0.098824874 0.671 -0.09764839 1.1521156e-38 404 323
0.033660494 0.662 -0.097499363 1.7603216e-38 349 324
0.034821201 0.662 -0.097499363 1.7419878e-38 350 324
0.039165959 0.65700001 -0.096762955 1.7693906e-38 354 324
0.0403179 0.65700001 -0.096762955 1.7786103e-38 355 324
0.041596077 0.65899998 -0.097057514 1.7693908e-38 356 324
0.042751525 0.65899998 -0.097057514 1.7509158e-38 357 324
0.043906972 0.65899998 -0.097057514 1.7599546e-38 358 324
0.045199182 0.66100001 -0.09735208 1.7599546e-38 359 324
0.046358135 0.66100001 -0.09735208 1.7691362e-38 360 324
0.047517084 0.66100001 -0.09735208 1.7691362e-38 361 324
0.04867604 0.66100001 -0.09735208 1.7690643e-38 362 324
0.049684204 0.65899998 -0.097057514 1.7875036e-38 363 324
0.050762504 0.65799999 -0.096910238 1.7785729e-38 364 324
0.051916201 0.65799999 -0.096910238 1.8062317e-38 365 324
0.052989237 0.65700001 -0.096762955 1.8155234e-38 366 324
0.054141179 0.65700001 -0.096762955 1.8155234e-38 367 324
0.055293117 0.65700001 -0.096762955 1.8338544e-38 368 324
0.056445058 0.65700001 -0.096762955 1.8431098e-38 369 324
0.057596996 0.65700001 -0.096762955 1.8338544e-38 370 324
0.058748938 0.65700001 -0.096762955 1.8338544e-38 371 324
0.05990088 0.65700001 -0.096762955 1.8062317e-38 372 324
0.061052818 0.65700001 -0.096762955 1.7785729e-38 373 324
0.062299434 0.65799999 -0.096910238 1.7232555e-38 374 324
0.06345313 0.65799999 -0.096910238 1.7140359e-38 375 324
0.064606823 0.65799999 -0.096910238 1.7232199e-38 376 324
0.065760516 0.65799999 -0.096910238 1.7047808e-38 377 324
0.066914216 0.65799999 -0.096910238 1.6771931e-38 378 324
0.068067901 0.65799999 -0.096910238 1.6402788e-38 379 324
0.069221593 0.65799999 -0.096910238 1.6219832e-38 380 324
0.070375293 0.65799999 -0.096910238 1.6127278e-38 381 324
0.07163769 0.65899998 -0.097057514 1.5942533e-38 382 324
0.073014058 0.66100001 -0.09735208 1.5758501e-38 383 324
0.074173011 0.66100001 -0.09735208 1.5574463e-38 384 324
0.075331964 0.66100001 -0.09735208 1.5389713e-38 385 324
0.076606639 0.662 -0.097499363 1.5113482e-38 386 324
0.077767342 0.662 -0.097499363 1.4929091e-38 387 324
0.078928046 0.662 -0.097499363 1.4285886e-38 388 324
0.080209732 0.66299999 -0.097646631 1.419369e-38 389 324
0.081372194 0.66299999 -0.097646631 1.4376288e-38 390 324
0.08265914 0.66399997 -0.097793914 1.4283734e-38 391 324
0.083823353 0.66399997 -0.097793914 1.4008223e-38 392 324
0.08524356 0.66600001 -0.098088481 1.3823832e-38 393 324
0.086411275 0.66600001 -0.098088481 1.3730916e-38 394 324
0.0877105 0.667 -0.098235756 1.3362135e-38 395 324
0.088879973 0.667 -0.098235756 1.2901885e-38 396 324
0.090184443 0.66799998 -0.098383039 1.2624938e-38 397 324
0.0916292 0.67000002 -0.098677598 1.2073932e-38 398 324
0.092803933 0.67000002 -0.098677598 1.1981737e-38 399 324
0.093978666 0.67000002 -0.098677598 1.207286e-38 400 324
0.095153399 0.67000002 -0.098677598 1.2165415e-38 401 324
0.096471906 0.671 -0.098824874 1.1889919e-38 402 324
0.09764839 0.671 -0.098824874 1.1705169e-38 403 324
0.098824874 0.671 -0.098824874 1.1519374e-38 404 324
0.029017664 0.662 -0.098660067 1.7055083e-38 345 325
0.030178372 0.662 -0.098660067 1.7695388e-38 346 325
0.031291738 0.66100001 -0.098511033 1.7234411e-38 347 325
0.032450691 0.66100001 -0.098511033 1.7508455e-38 348 325
0.033609647 0.66100001 -0.098511033 1.7601009e-38 349 325
0.0347686 0.66100001 -0.098511033 1.7784672e-38 350 325
0.035710141 0.65700001 -0.097914897 1.7876869e-38 351 325
0.036862079 0.65700001 -0.097914897 1.8061969e-38 352 325
0.038014017 0.65700001 -0.097914897 1.8061969e-38 353 325
0.039165959 0.65700001 -0.097914897 1.8060883e-38 354 325
0.0403179 0.65700001 -0.097914897 1.7600265e-38 355 325
0.04153296 0.65799999 -0.098063931 1.7047445e-38 356 325
0.042751525 0.65899998 -0.098212965 1.6770498e-38 357 325
0.043906972 0.65899998 -0.098212965 1.6676861e-38 358 325
0.045062415 0.65899998 -0.098212965 1.649247e-38 359 325
0.046358135 0.66100001 -0.098511033 1.6309511e-38 360 325
0.04737331 0.65899998 -0.098212965 1.612476e-38 361 325
0.048455119 0.65799999 -0.098063931 1.6125116e-38 362 325
0.049533416 0.65700001 -0.097914897 1.6677931e-38 363 325
0.050685361 0.65700001 -0.097914897 1.7414426e-38 364 325
0.051837299 0.65700001 -0.097914897 1.8244186e-38 365 325
0.052827932 0.65499997 -0.097616829 1.7786453e-38 366 325
0.053976361 0.65499997 -0.097616829 1.7970843e-38 367 325
0.055293117 0.65700001 -0.097914897 1.8155231e-38 368 325
0.056445058 0.65700001 -0.097914897 1.8155231e-38 369 325
0.057596996 0.65700001 -0.097914897 1.797084e-38 370 325
0.058748938 0.65700001 -0.097914897 1.7786809e-38 371 325
0.05990088 0.65700001 -0.097914897 1.7877205e-38 372 325
0.061052818 0.65700001 -0.097914897 1.760026e-38 373 325
0.06220476 0.65700001 -0.097914897 1.704781e-38 374 325
0.063356705 0.65700001 -0.097914897 1.6863779e-38 375 325
0.064508639 0.65700001 -0.097914897 1.6863426e-38 376 325
0.065660581 0.65700001 -0.097914897 1.677123e-38 377 325
0.066812515 0.65700001 -0.097914897 1.6403517e-38 378 325
0.067964457 0.65700001 -0.097914897 1.612693e-38 379 325
0.069221593 0.65799999 -0.098063931 1.5851417e-38 380 325
0.070375293 0.65799999 -0.098063931 1.5759221e-38 381 325
0.071528979 0.65799999 -0.098063931 1.5574473e-38 382 325
0.072793134 0.65899998 -0.098212965 1.5298246e-38 383 325
0.074173011 0.66100001 -0.098511033 1.4930539e-38 384 325
0.075331964 0.66100001 -0.098511033 1.4746147e-38 385 325
0.076490916 0.66100001 -0.098511033 1.4378085e-38 386 325
0.077767342 0.662 -0.098660067 1.4285889e-38 387 325
0.078928046 0.662 -0.098660067 1.4101496e-38 388 325
0.080088757 0.662 -0.098660067 1.3917106e-38 389 325
0.081372194 0.66299999 -0.098809093 1.4008226e-38 390 325
0.08265914 0.66399997 -0.098958127 1.391603e-38 391 325
0.083823353 0.66399997 -0.098958127 1.3547968e-38 392 325
0.08524356 0.66600001 -0.099256195 1.3455771e-38 393 325
0.086411275 0.66600001 -0.099256195 1.3362859e-38 394 325
0.0877105 0.667 -0.099405229 1.2901882e-38 395 325
0.088879973 0.667 -0.099405229 1.2441992e-38 396 325
0.090184443 0.66799998 -0.099554263 1.2165765e-38 397 325
0.091355674 0.66799998 -0.099554263 1.1798074e-38 398 325
0.092526905 0.66799998 -0.099554263 1.1798074e-38 399 325
0.093698129 0.66799998 -0.099554263 1.198103e-38 400 325
0.094869353 0.66799998 -0.099554263 1.198103e-38 401 325
0.096471906 0.671 -0.10000136 1.1797017e-38 402 325
0.09764839 0.671 -0.10000136 1.1336039e-38 403 325
0.098824874 0.671 -0.10000136 1.0231529e-38 404 325
0.027730718 0.65899998 -0.099368408 1.7142216e-38 344 326
0.028886165 0.65899998 -0.099368408 1.7142216e-38 345 326
0.030041611 0.65899998 -0.099368408 1.7784322e-38 346 326
0.031197058 0.65899998 -0.099368408 1.7968714e-38 347 326
0.032352503 0.65899998 -0.099368408 1.7969415e-38 348 326
0.033507951 0.65899998 -0.099368408 1.7692827e-38 349 326
0.034663398 0.65899998 -0.099368408 1.7689937e-38 350 326
0.035710141 0.65700001 -0.099066831 1.6952372e-38 351 326
0.036862079 0.65700001 -0.099066831 1.630699e-38 352 326
0.038014017 0.65700001 -0.099066831 1.5661621e-38 353 326
0.039165959 0.65700001 -0.099066831 1.483221e-38 354 326
0.0403179 0.65700001 -0.099066831 1.4094644e-38 355 326
0.041469838 0.65700001 -0.099066831 1.3909528e-38 356 326
0.042686652 0.65799999 -0.099217616 1.4001724e-38 357 326
0.043840345 0.65799999 -0.099217616 1.4276516e-38 358 326
0.044994038 0.65799999 -0.099217616 1.4553101e-38 359 326
0.046217863 0.65899998 -0.099368408 1.3728747e-38 360 326
0.04722954 0.65700001 -0.099066831 1.4651062e-38 361 326
0.048381478 0.65700001 -0.099066831 1.5297517e-38 362 326
0.049533416 0.65700001 -0.099066831 1.6312028e-38 363 326
0.050531063 0.65499997 -0.098765261 1.7417303e-38 364 326
0.051679496 0.65499997 -0.098765261 1.769353e-38 365 326
0.052827932 0.65499997 -0.098765261 1.7970837e-38 366 326
0.053976361 0.65499997 -0.098765261 1.7970837e-38 367 326
0.055124797 0.65499997 -0.098765261 1.7971193e-38 368 326
0.056273226 0.65499997 -0.098765261 1.7787162e-38 369 326
0.057421666 0.65499997 -0.098765261 1.7877921e-38 370 326
0.058570094 0.65499997 -0.098765261 1.7509499e-38 371 326
0.05990088 0.65700001 -0.099066831 1.7047795e-38 372 326
0.061052818 0.65700001 -0.099066831 1.7047795e-38 373 326
0.06220476 0.65700001 -0.099066831 1.7047076e-38 374 326
0.063356705 0.65700001 -0.099066831 1.6862325e-38 375 326
0.064508639 0.65700001 -0.099066831 1.6587183e-38 376 326
0.065660581 0.65700001 -0.099066831 1.6494987e-38 377 326
0.066812515 0.65700001 -0.099066831 1.6127283e-38 378 326
0.067964457 0.65700001 -0.099066831 1.6034729e-38 379 326
0.069116399 0.65700001 -0.099066831 1.5574826e-38 380 326
0.07026834 0.65700001 -0.099066831 1.5298599e-38 381 326
0.071528979 0.65799999 -0.099217616 1.5113852e-38 382 326
0.072793134 0.65899998 -0.099368408 1.5021655e-38 383 326
0.073948584 0.65899998 -0.099368408 1.4745428e-38 384 326
0.075104028 0.65899998 -0.099368408 1.4652874e-38 385 326
0.076490916 0.66100001 -0.099669985 1.4469204e-38 386 326
0.077649876 0.66100001 -0.099669985 1.4192617e-38 387 326
0.078928046 0.662 -0.09982077 1.4100424e-38 388 326
0.080088757 0.662 -0.09982077 1.4008229e-38 389 326
0.081372194 0.66299999 -0.099971555 1.3823479e-38 390 326
0.08265914 0.66399997 -0.10012234 1.3639448e-38 391 326
0.084075838 0.66600001 -0.10042392 1.3362856e-38 392 326
0.08524356 0.66600001 -0.10042392 1.3270661e-38 393 326
0.086411275 0.66600001 -0.10042392 1.2626017e-38 394 326
0.0877105 0.667 -0.1005747 1.2257235e-38 395 326
0.088879973 0.667 -0.1005747 1.2256528e-38 396 326
0.090049446 0.667 -0.1005747 1.2164333e-38 397 326
0.091218919 0.667 -0.1005747 1.1796999e-38 398 326
0.092388391 0.667 -0.1005747 1.198103e-38 399 326
0.093557864 0.667 -0.1005747 1.2072513e-38 400 326
0.094869353 0.66799998 -0.10072549 1.1980317e-38 401 326
0.096328132 0.67000002 -0.10102707 1.1519723e-38 402 326
0.097502865 0.67000002 -0.10102707 1.0966551e-38 403 326
0.021920172 0.65799999 -0.10037132 1.5946231e-38 339 327
0.023073865 0.65799999 -0.10037132 1.5302622e-38 340 327
0.024264378 0.65899998 -0.10052385 1.5394818e-38 341 327
0.025419824 0.65899998 -0.10052385 1.594761e-38 342 327
0.026534945 0.65799999 -0.10037132 1.6316752e-38 343 327
0.027688639 0.65799999 -0.10037132 1.7325496e-38 344 327
0.028842334 0.65799999 -0.10037132 1.72333e-38 345 327
0.029996024 0.65799999 -0.10037132 1.7599894e-38 346 327
0.031149717 0.65799999 -0.10037132 1.7415501e-38 347 327
0.032303412 0.65799999 -0.10037132 1.6953063e-38 348 327
0.033457108 0.65799999 -0.10037132 1.6215498e-38 349 327
0.034610797 0.65799999 -0.10037132 1.5568692e-38 350 327
0.035710141 0.65700001 -0.10021878 1.4923323e-38 351 327
0.036862079 0.65700001 -0.10021878 1.4001742e-38 352 327
0.037840437 0.65399998 -0.099761158 1.3264177e-38 353 327
0.038927507 0.653 -0.099608615 1.1976698e-38 354 327
0.04007243 0.653 -0.099608615 1.2437676e-38 355 327
0.041343596 0.65499997 -0.099913694 1.3079808e-38 356 327
0.042492028 0.65499997 -0.099913694 1.3540428e-38 357 327
0.043640465 0.65499997 -0.099913694 1.418438e-38 358 327
0.044788897 0.65499997 -0.099913694 1.4644998e-38 359 327
0.045867197 0.65399998 -0.099761158 1.4004655e-38 360 327
0.047013879 0.65399998 -0.099761158 1.4373078e-38 361 327
0.048160557 0.65399998 -0.099761158 1.5942889e-38 362 327
0.049307238 0.65399998 -0.099761158 1.677265e-38 363 327
0.050453916 0.65399998 -0.099761158 1.7602063e-38 364 327
0.051600594 0.65399998 -0.099761158 1.7694259e-38 365 327
0.052747279 0.65399998 -0.099761158 1.7419831e-38 366 327
0.053893957 0.65399998 -0.099761158 1.7419831e-38 367 327
0.055040635 0.65399998 -0.099761158 1.7419111e-38 368 327
0.056187313 0.65399998 -0.099761158 1.7419111e-38 369 327
0.057421666 0.65499997 -0.099913694 1.7234001e-38 370 327
0.058570094 0.65499997 -0.099913694 1.6957413e-38 371 327
0.059718527 0.65499997 -0.099913694 1.6680101e-38 372 327
0.060866963 0.65499997 -0.099913694 1.6587906e-38 373 327
0.062015396 0.65499997 -0.099913694 1.6220198e-38 374 327
0.063163824 0.65499997 -0.099913694 1.5943612e-38 375 327
0.064312264 0.65499997 -0.099913694 1.5943618e-38 376 327
0.065460697 0.65499997 -0.099913694 1.5851064e-38 377 327
0.066812515 0.65700001 -0.10021878 1.5483359e-38 378 327
0.067964457 0.65700001 -0.10021878 1.5298967e-38 379 327
0.069116399 0.65700001 -0.10021878 1.4930905e-38 380 327
0.07026834 0.65700001 -0.10021878 1.483871e-38 381 327
0.071420282 0.65700001 -0.10021878 1.4562125e-38 382 327
0.072682679 0.65799999 -0.10037132 1.446993e-38 383 327
0.073948584 0.65899998 -0.10052385 1.4102589e-38 384 327
0.075104028 0.65899998 -0.10052385 1.3918198e-38 385 327
0.076259479 0.65899998 -0.10052385 1.3641967e-38 386 327
0.077649876 0.66100001 -0.10082894 1.3641967e-38 387 327
0.078808829 0.66100001 -0.10082894 1.3640532e-38 388 327
0.080088757 0.662 -0.10098148 1.3456501e-38 389 327
0.081372194 0.66299999 -0.10113402 1.3271754e-38 390 327
0.082534656 0.66299999 -0.10113402 1.2995166e-38 391 327
0.084075838 0.66600001 -0.10159164 1.2718933e-38 392 327
0.08524356 0.66600001 -0.10159164 1.2350149e-38 393 327
0.086411275 0.66600001 -0.10159164 1.2256526e-38 394 327
0.0877105 0.667 -0.10174417 1.216433e-38 395 327
0.088879973 0.667 -0.10174417 1.1797002e-38 396 327
0.090049446 0.667 -0.10174417 1.1704806e-38 397 327
0.091218919 0.667 -0.10174417 1.1705169e-38 398 327
0.092388391 0.667 -0.10174417 1.1612974e-38 399 327
0.093557864 0.667 -0.10174417 1.143003e-38 400 327
0.094727337 0.667 -0.10174417 1.1153443e-38 401 327
0.096328132 0.67000002 -0.1022018 1.0232598e-38 402 327
0.018543253 0.66100001 -0.10198789 1.7789401e-38 336 328
0.019642593 0.65899998 -0.1016793 1.7236229e-38 337 328
0.02076648 0.65799999 -0.10152501 1.7325528e-38 338 328
0.021886859 0.65700001 -0.10137072 1.7141497e-38 339 328
0.023038799 0.65700001 -0.10137072 1.7049998e-38 340 328
0.02422756 0.65799999 -0.10152501 1.741878e-38 341 328
0.025381252 0.65799999 -0.10152501 1.7603156e-38 342 328
0.026494619 0.65700001 -0.10137072 1.7326568e-38 343 328
0.027646558 0.65700001 -0.10137072 1.7233651e-38 344 328
0.028798498 0.65700001 -0.10137072 1.6496086e-38 345 328
0.02995044 0.65700001 -0.10137072 1.5660895e-38 346 328
0.03110238 0.65700001 -0.10137072 1.3724787e-38 347 328
0.03225432 0.65700001 -0.10137072 1.3442421e-38 348 328
0.033406258 0.65700001 -0.10137072 1.233609e-38 349 328
0.034558199 0.65700001 -0.10137072 1.1140435e-38 350 328
0.035710141 0.65700001 -0.10137072 1.1324465e-38 351 328
0.036749862 0.65499997 -0.10106213 1.0774545e-38 352 328
0.037840437 0.65399998 -0.10090783 1.1235164e-38 353 328
0.038867895 0.65200001 -0.10059925 1.0875039e-38 354 328
0.040011063 0.65200001 -0.10059925 1.1981386e-38 355 328
0.041217357 0.653 -0.10075355 1.3358213e-38 356 328
0.042362284 0.653 -0.10075355 1.3726995e-38 357 328
0.043507211 0.653 -0.10075355 1.4097573e-38 358 328
0.044652138 0.653 -0.10075355 1.4742942e-38 359 328
0.045797065 0.653 -0.10075355 1.5574855e-38 360 328
0.046941992 0.653 -0.10075355 1.6128029e-38 361 328
0.048086919 0.653 -0.10075355 1.6957059e-38 362 328
0.049231846 0.653 -0.10075355 1.7326202e-38 363 328
0.050376773 0.653 -0.10075355 1.7419111e-38 364 328
0.0515217 0.653 -0.10075355 1.7419111e-38 365 328
0.052666627 0.653 -0.10075355 1.7602426e-38 366 328
0.05381155 0.653 -0.10075355 1.751023e-38 367 328
0.055040635 0.65399998 -0.10090783 1.7509512e-38 368 328
0.056187313 0.65399998 -0.10090783 1.732512e-38 369 328
0.057333998 0.65399998 -0.10090783 1.7231833e-38 370 328
0.05848068 0.65399998 -0.10090783 1.6955246e-38 371 328
0.059718527 0.65499997 -0.10106213 1.6403139e-38 372 328
0.060866963 0.65499997 -0.10106213 1.6219108e-38 373 328
0.062015396 0.65499997 -0.10106213 1.6126912e-38 374 328
0.063163824 0.65499997 -0.10106213 1.5942519e-38 375 328
0.064312264 0.65499997 -0.10106213 1.5758501e-38 376 328
0.065460697 0.65499997 -0.10106213 1.5481914e-38 377 328
0.066609129 0.65499997 -0.10106213 1.5114573e-38 378 328
0.067757562 0.65499997 -0.10106213 1.4930184e-38 379 328
0.068905994 0.65499997 -0.10106213 1.4746147e-38 380 328
0.07026834 0.65700001 -0.10137072 1.4653592e-38 381 328
0.071420282 0.65700001 -0.10137072 1.45614e-38 382 328
0.072682679 0.65799999 -0.10152501 1.4469204e-38 383 328
0.073836371 0.65799999 -0.10152501 1.3917831e-38 384 328
0.074990064 0.65799999 -0.10152501 1.3825277e-38 385 328
0.076259479 0.65899998 -0.1016793 1.3732362e-38 386 328
0.077649876 0.66100001 -0.10198789 1.3732362e-38 387 328
0.078808829 0.66100001 -0.10198789 1.3547968e-38 388 328
0.079967782 0.66100001 -0.10198789 1.327174e-38 389 328
0.081249461 0.662 -0.10214218 1.2994797e-38 390 328
0.082534656 0.66299999 -0.10229647 1.2626373e-38 391 328
0.084075838 0.66600001 -0.10275936 1.253239e-38 392 328
0.08524356 0.66600001 -0.10275936 1.1979216e-38 393 328
0.086411275 0.66600001 -0.10275936 1.1887752e-38 394 328
