# .PCD v.7 - Point Cloud Data file format
FIELDS x y z rgb imX imY
SIZE 4 4 4 4 4 4
TYPE F F F F F F
COUNT 1 1 1 1 1 1
WIDTH 839
HEIGHT 1
VIEWPOINT 0 0 0 1 0 0 0
POINTS 839
DATA ascii
0.030113498 0.68699998 -0.028908957 1.8524347e-38 345 264
0.031318039 0.68699998 -0.028908957 1.8616546e-38 346 264
0.032522578 0.68699998 -0.028908957 1.8708743e-38 347 264
0.033727121 0.68699998 -0.028908957 1.861691e-38 348 264
0.03498251 0.68800002 -0.028951041 1.861691e-38 349 264
0.0361888 0.68800002 -0.028951041 1.8708392e-38 350 264
0.037395094 0.68800002 -0.028951041 1.8616195e-38 351 264
0.038601387 0.68800002 -0.028951041 1.8615844e-38 352 264
0.039807681 0.68800002 -0.028951041 1.8431092e-38 353 264
0.041013971 0.68800002 -0.028951041 1.8156306e-38 354 264
0.042220265 0.68800002 -0.028951041 1.7879721e-38 355 264
0.043552797 0.69 -0.029035198 1.760421e-38 356 264
0.0447626 0.69 -0.029035198 1.7419817e-38 357 264
0.046039023 0.69099998 -0.029077278 1.7327622e-38 358 264
0.047250576 0.69099998 -0.029077278 1.7235426e-38 359 264
0.048602402 0.69300002 -0.029161438 1.6959559e-38 360 264
0.049817458 0.69300002 -0.029161438 1.6959559e-38 361 264
0.051106159 0.69400001 -0.029203519 1.6683701e-38 362 264
0.052473757 0.69599998 -0.029287677 1.6499309e-38 363 264
0.053848371 0.69800001 -0.029371841 1.6222738e-38 364 264
0.0550722 0.69800001 -0.029371841 1.6038347e-38 365 264
0.056296028 0.69800001 -0.029371841 1.5945077e-38 366 264
0.057519849 0.69800001 -0.029371841 1.5760684e-38 367 264
0.058911994 0.69999999 -0.029455997 1.5208231e-38 368 264
0.060225245 0.70099998 -0.029498078 1.4562861e-38 369 264
0.061629668 0.70300001 -0.029582238 1.3548732e-38 370 264
0.063219935 0.70700002 -0.029750559 1.3548732e-38 371 264
0.064459547 0.70700002 -0.029750559 1.6595191e-38 372 264
0.018935999 0.67500001 -0.0295875 1.8065992e-38 336 265
0.020119499 0.67500001 -0.0295875 1.7881242e-38 337 265
0.022852944 0.68599999 -0.030069664 1.7328029e-38 339 265
0.024055731 0.68599999 -0.030069664 1.7971566e-38 340 265
0.025258519 0.68599999 -0.030069664 1.787937e-38 341 265
0.026461305 0.68599999 -0.030069664 1.8156291e-38 342 265
0.027664091 0.68599999 -0.030069664 1.8248486e-38 343 265
0.02886688 0.68599999 -0.030069664 1.8341035e-38 344 265
0.030069664 0.68599999 -0.030069664 1.8433231e-38 345 265
0.031272452 0.68599999 -0.030069664 1.8617266e-38 346 265
0.032475237 0.68599999 -0.030069664 1.8709462e-38 347 265
0.033678025 0.68599999 -0.030069664 1.8709106e-38 348 265
0.034880809 0.68599999 -0.030069664 1.861691e-38 349 265
0.036083598 0.68599999 -0.030069664 1.8616195e-38 350 265
0.037286382 0.68599999 -0.030069664 1.8523641e-38 351 265
0.03848917 0.68599999 -0.030069664 1.824778e-38 352 265
0.039691959 0.68599999 -0.030069664 1.8155584e-38 353 265
0.040954359 0.68699998 -0.030113498 1.7880074e-38 354 265
0.042158898 0.68699998 -0.030113498 1.7787878e-38 355 265
0.043363437 0.68699998 -0.030113498 1.7419814e-38 356 265
0.044632856 0.68800002 -0.030157333 1.7327619e-38 357 265
0.045839146 0.68800002 -0.030157333 1.7235426e-38 358 265
0.047182199 0.69 -0.030244999 1.714323e-38 359 265
0.04846213 0.69099998 -0.030288832 1.6776247e-38 360 265
0.049673684 0.69099998 -0.030288832 1.6684051e-38 361 265
0.051032521 0.69300002 -0.0303765 1.6591506e-38 362 265
0.052322973 0.69400001 -0.030420333 1.6499309e-38 363 265
0.053694077 0.69599998 -0.030507999 1.6130896e-38 364 265
0.054993302 0.69700003 -0.030551834 1.5577722e-38 365 265
0.056215372 0.69700003 -0.030551834 1.5760318e-38 366 265
0.057519849 0.69800001 -0.030595668 1.5668123e-38 367 265
0.058743682 0.69800001 -0.030595668 1.4931646e-38 368 265
0.060139328 0.69999999 -0.030683333 1.465506e-38 369 265
0.06145433 0.70099998 -0.030727165 1.3733126e-38 370 265
0.062951677 0.704 -0.030858666 1.364093e-38 371 265
0.064186029 0.704 -0.030858666 1.6318964e-38 372 265
0.0177525 0.67500001 -0.030771 1.7881611e-38 335 266
0.018935999 0.67500001 -0.030771 1.797268e-38 336 266
0.020089693 0.67400002 -0.030725412 1.7696092e-38 337 266
0.021271439 0.67400002 -0.030725412 1.7786809e-38 338 266
0.022619752 0.67900002 -0.030953348 1.8063036e-38 339 266
0.023810266 0.67900002 -0.030953348 1.8248484e-38 340 266
0.025258519 0.68599999 -0.031272452 1.8248484e-38 341 266
0.02638416 0.68400002 -0.03118128 1.8524698e-38 342 266
0.027543113 0.68300003 -0.031135695 1.8616893e-38 343 266
0.02869856 0.68199998 -0.031090107 1.8709096e-38 344 266
0.029894331 0.68199998 -0.031090107 1.8709096e-38 345 266
0.031135695 0.68300003 -0.031135695 1.8709459e-38 346 266
0.032285877 0.68199998 -0.031090107 1.8617263e-38 347 266
0.03348165 0.68199998 -0.031090107 1.8616913e-38 348 266
0.034728274 0.68300003 -0.031135695 1.8616913e-38 349 266
0.035925802 0.68300003 -0.031135695 1.8339976e-38 350 266
0.037123326 0.68300003 -0.031135695 1.824778e-38 351 266
0.038320854 0.68300003 -0.031135695 1.8155582e-38 352 266
0.039518382 0.68300003 -0.031135695 1.8063386e-38 353 266
0.040775519 0.68400002 -0.03118128 1.7880427e-38 354 266
0.042097531 0.68599999 -0.031272452 1.7696034e-38 355 266
0.043363437 0.68699998 -0.031318039 1.7052833e-38 356 266
0.044567976 0.68699998 -0.031318039 1.6960278e-38 357 266
0.045772515 0.68699998 -0.031318039 1.6775897e-38 358 266
0.047045439 0.68800002 -0.031363625 1.6683701e-38 359 266
0.048391998 0.69 -0.031454802 1.6499673e-38 360 266
0.049601797 0.69 -0.031454802 1.6499673e-38 361 266
0.050885238 0.69099998 -0.031500384 1.6223089e-38 362 266
0.05224758 0.69300002 -0.031591557 1.6130893e-38 363 266
0.053462639 0.69300002 -0.031591557 1.5853956e-38 364 266
0.054914396 0.69599998 -0.031728316 1.5485173e-38 365 266
0.056134716 0.69599998 -0.031728316 1.5575927e-38 366 266
0.05743745 0.69700003 -0.03177391 1.4930558e-38 367 266
0.05865952 0.69700003 -0.03177391 1.4196237e-38 368 266
0.059967503 0.69800001 -0.031819493 1.4196237e-38 369 266
0.061191335 0.69800001 -0.031819493 1.3366864e-38 370 266
0.062951677 0.704 -0.032093015 1.3274669e-38 371 266
0.064186029 0.704 -0.032093015 1.6502639e-38 372 266
0.011782399 0.67199999 -0.031812478 1.8069255e-38 330 267
0.012960639 0.67199999 -0.031812478 1.7792309e-38 331 267
0.01413888 0.67199999 -0.031812478 1.7974513e-38 332 267
0.01531712 0.67199999 -0.031812478 1.760573e-38 333 267
0.016544454 0.67400002 -0.03190716 1.8064153e-38 334 267
0.0177262 0.67400002 -0.03190716 1.7971598e-38 335 267
0.018935999 0.67500001 -0.031954501 1.8247442e-38 336 267
0.020030079 0.67199999 -0.031812478 1.8155247e-38 337 267
0.021176759 0.671 -0.031765141 1.8248136e-38 338 267
0.022353247 0.671 -0.031765141 1.8248136e-38 339 267
0.023634933 0.67400002 -0.03190716 1.8616896e-38 340 267
0.024890319 0.676 -0.032001842 1.8616896e-38 341 267
0.026075572 0.676 -0.032001842 1.8617614e-38 342 267
0.027381808 0.67900002 -0.032143861 1.8709809e-38 343 267
0.028572321 0.67900002 -0.032143861 1.8709459e-38 344 267
0.029762832 0.67900002 -0.032143861 1.8709459e-38 345 267
0.030998932 0.68000001 -0.032191198 1.8709109e-38 346 267
0.032191198 0.68000001 -0.032191198 1.8616913e-38 347 267
0.033383466 0.68000001 -0.032191198 1.861656e-38 348 267
0.034575731 0.68000001 -0.032191198 1.8432527e-38 349 267
0.035767999 0.68000001 -0.032191198 1.8339976e-38 350 267
0.037068974 0.68199998 -0.032285877 1.824778e-38 351 267
0.038264744 0.68199998 -0.032285877 1.8063389e-38 352 267
0.039460517 0.68199998 -0.032285877 1.8063389e-38 353 267
0.040656291 0.68199998 -0.032285877 1.760313e-38 354 267
0.041852064 0.68199998 -0.032285877 1.7326903e-38 355 267
0.043174081 0.68400002 -0.032380559 1.723507e-38 356 267
0.044503104 0.68599999 -0.032475237 1.6958843e-38 357 267
0.045772515 0.68699998 -0.032522578 1.6866292e-38 358 267
0.046977058 0.68699998 -0.032522578 1.6774095e-38 359 267
0.048251733 0.68800002 -0.032569919 1.6499306e-38 360 267
0.049458027 0.68800002 -0.032569919 1.640711e-38 361 267
0.050664321 0.68800002 -0.032569919 1.6406757e-38 362 267
0.052096792 0.69099998 -0.032711938 1.6314561e-38 363 267
0.053308345 0.69099998 -0.032711938 1.5853953e-38 364 267
0.054677699 0.69300002 -0.03280662 1.5577725e-38 365 267
0.055973411 0.69400001 -0.032853961 1.493272e-38 366 267
0.057355035 0.69599998 -0.032948639 1.3734177e-38 367 267
0.05865952 0.69700003 -0.03299598 1.3367565e-38 368 267
0.059795678 0.69599998 -0.032948639 1.364415e-38 369 267
0.061015997 0.69599998 -0.032948639 1.3549463e-38 370 267
0.062236317 0.69599998 -0.032948639 1.4010083e-38 371 267
0.01058838 0.671 -0.032941625 1.806782e-38 329 268
0.011764866 0.671 -0.032941625 1.8434062e-38 330 268
0.012941353 0.671 -0.032941625 1.8065639e-38 331 268
0.01411784 0.671 -0.032941625 1.8065229e-38 332 268
0.015294326 0.671 -0.032941625 1.7788642e-38 333 268
0.016470812 0.671 -0.032941625 1.7971546e-38 334 268
0.017673599 0.67199999 -0.03299072 1.8063742e-38 335 268
0.018851839 0.67199999 -0.03299072 1.8431796e-38 336 268
0.020000271 0.671 -0.032941625 1.852435e-38 337 268
0.021176759 0.671 -0.032941625 1.8800211e-38 338 268
0.022353247 0.671 -0.032941625 1.8892408e-38 339 268
0.023564799 0.67199999 -0.03299072 1.8892761e-38 340 268
0.024816679 0.67400002 -0.033088908 1.8892761e-38 341 268
0.025998428 0.67400002 -0.033088908 1.870874e-38 342 268
0.027260827 0.676 -0.033187091 1.870874e-38 343 268
0.028446076 0.676 -0.033187091 1.8525796e-38 344 268
0.029631332 0.676 -0.033187091 1.8433601e-38 345 268
0.030953348 0.67900002 -0.033334374 1.8433248e-38 346 268
0.032143861 0.67900002 -0.033334374 1.834105e-38 347 268
0.033334374 0.67900002 -0.033334374 1.8157384e-38 348 268
0.034575731 0.68000001 -0.033383466 1.8157384e-38 349 268
0.035767999 0.68000001 -0.033383466 1.7880439e-38 350 268
0.036960267 0.68000001 -0.033383466 1.7788244e-38 351 268
0.038152531 0.68000001 -0.033383466 1.7695327e-38 352 268
0.039344799 0.68000001 -0.033383466 1.7510934e-38 353 268
0.040537067 0.68000001 -0.033383466 1.7235426e-38 354 268
0.041729335 0.68000001 -0.033383466 1.714323e-38 355 268
0.043174081 0.68400002 -0.033579841 1.6867011e-38 356 268
0.044503104 0.68599999 -0.033678025 1.6774815e-38 357 268
0.045705888 0.68599999 -0.033678025 1.6315638e-38 358 268
0.046977058 0.68699998 -0.033727121 1.6223442e-38 359 268
0.048181597 0.68699998 -0.033727121 1.6223445e-38 360 268
0.049458027 0.68800002 -0.033776212 1.6131249e-38 361 268
0.050664321 0.68800002 -0.033776212 1.6130893e-38 362 268
0.052021399 0.69 -0.0338744 1.5946502e-38 363 268
0.053308345 0.69099998 -0.033923492 1.5577725e-38 364 268
0.054519895 0.69099998 -0.033923492 1.5392975e-38 365 268
0.055892758 0.69300002 -0.034021679 1.484017e-38 366 268
0.057190225 0.69400001 -0.034070771 1.41948e-38 367 268
0.058575355 0.69599998 -0.034168959 1.36438e-38 368 268
0.059623852 0.69400001 -0.034070771 1.3735996e-38 369 268
0.060577665 0.69099998 -0.033923492 1.3459428e-38 370 268
0.061789215 0.69099998 -0.033923492 1.4104798e-38 371 268
0.063000768 0.69099998 -0.033923492 1.6504077e-38 372 268
0.0094118929 0.671 -0.034118112 1.8249652e-38 328 269
0.01058838 0.671 -0.034118112 1.7696837e-38 329 269
0.011764866 0.671 -0.034118112 1.815418e-38 330 269
0.012941353 0.671 -0.034118112 1.8061985e-38 331 269
0.01411784 0.671 -0.034118112 1.8063036e-38 332 269
0.015294326 0.671 -0.034118112 1.8339981e-38 333 269
0.016470812 0.671 -0.034118112 1.8431799e-38 334 269
0.017673599 0.67199999 -0.034168959 1.8431799e-38 335 269
0.018851839 0.67199999 -0.034168959 1.85247e-38 336 269
0.020000271 0.671 -0.034118112 1.8616896e-38 337 269
0.0211452 0.67000002 -0.034067266 1.8709096e-38 338 269
0.022319933 0.67000002 -0.034067266 1.8801292e-38 339 269
0.023564799 0.67199999 -0.034168959 1.8800938e-38 340 269
0.024816679 0.67400002 -0.034270655 1.8800938e-38 341 269
0.025998428 0.67400002 -0.034270655 1.8709109e-38 342 269
0.027220501 0.67500001 -0.034321502 1.8709109e-38 343 269
0.028404001 0.67500001 -0.034321502 1.8433248e-38 344 269
0.0295875 0.67500001 -0.034321502 1.8248855e-38 345 269
0.030816587 0.676 -0.034372345 1.8248499e-38 346 269
0.032001842 0.676 -0.034372345 1.8156303e-38 347 269
0.033187091 0.676 -0.034372345 1.8156303e-38 348 269
0.034474038 0.67799997 -0.034474038 1.7972272e-38 349 269
0.035715401 0.67900002 -0.034524884 1.7604213e-38 350 269
0.036905911 0.67900002 -0.034524884 1.741982e-38 351 269
0.038152531 0.68000001 -0.034575731 1.7327622e-38 352 269
0.039344799 0.68000001 -0.034575731 1.6866645e-38 353 269
0.040537067 0.68000001 -0.034575731 1.6867367e-38 354 269
0.041729335 0.68000001 -0.034575731 1.6775171e-38 355 269
0.043047838 0.68199998 -0.034677424 1.6591503e-38 356 269
0.04437336 0.68400002 -0.03477912 1.6499306e-38 357 269
0.045705888 0.68599999 -0.034880809 1.6223442e-38 358 269
0.046908677 0.68599999 -0.034880809 1.6131246e-38 359 269
0.048181597 0.68699998 -0.034931656 1.6131249e-38 360 269
0.049386136 0.68699998 -0.034931656 1.5946499e-38 361 269
0.050664321 0.68800002 -0.03498251 1.5946502e-38 362 269
0.051870614 0.68800002 -0.03498251 1.5670274e-38 363 269
0.053308345 0.69099998 -0.035135046 1.520966e-38 364 269
0.054519895 0.69099998 -0.035135046 1.5025269e-38 365 269
0.055892758 0.69300002 -0.035236739 1.4656141e-38 366 269
0.057107817 0.69300002 -0.035236739 1.4287e-38 367 269
0.058322877 0.69300002 -0.035236739 1.3827477e-38 368 269
0.05953794 0.69300002 -0.035236739 1.3734921e-38 369 269
0.060577665 0.69099998 -0.035135046 1.3643827e-38 370 269
0.061789215 0.69099998 -0.035135046 1.4657618e-38 371 269
0.063000768 0.69099998 -0.035135046 1.6779955e-38 372 269
0.0081372196 0.66299999 -0.034873798 1.7972348e-38 327 270
0.0092996797 0.66299999 -0.034873798 1.8155982e-38 328 270
0.01058838 0.671 -0.0352946 1.7971231e-38 329 270
0.011764866 0.671 -0.0352946 1.8339253e-38 330 270
0.012883492 0.66799998 -0.035136797 1.8154863e-38 331 270
0.014054719 0.66799998 -0.035136797 1.8339956e-38 332 270
0.015271533 0.67000002 -0.035241999 1.8524347e-38 333 270
0.016446266 0.67000002 -0.035241999 1.8524347e-38 334 270
0.0176473 0.671 -0.0352946 1.8616543e-38 335 270
0.018823786 0.671 -0.0352946 1.861654e-38 336 270
0.019970467 0.67000002 -0.035241999 1.8801292e-38 337 270
0.0211452 0.67000002 -0.035241999 1.8800938e-38 338 270
0.022319933 0.67000002 -0.035241999 1.898497e-38 339 270
0.023529733 0.671 -0.0352946 1.8801304e-38 340 270
0.024706218 0.671 -0.0352946 1.8616913e-38 341 270
0.025882706 0.671 -0.0352946 1.8433601e-38 342 270
0.027099518 0.67199999 -0.035347197 1.8341404e-38 343 270
0.02836192 0.67400002 -0.035452399 1.8248852e-38 344 270
0.029543666 0.67400002 -0.035452399 1.8156656e-38 345 270
0.030771 0.67500001 -0.035505001 1.7972269e-38 346 270
0.031954501 0.67500001 -0.035505001 1.7880074e-38 347 270
0.033137999 0.67500001 -0.035505001 1.7787881e-38 348 270
0.034321502 0.67500001 -0.035505001 1.7695327e-38 349 270
0.035557602 0.676 -0.035557602 1.7510937e-38 350 270
0.036742851 0.676 -0.035557602 1.7326906e-38 351 270
0.038096428 0.67900002 -0.035715401 1.7142158e-38 352 270
0.039344799 0.68000001 -0.035767999 1.7049963e-38 353 270
0.040537067 0.68000001 -0.035767999 1.6682621e-38 354 270
0.041729335 0.68000001 -0.035767999 1.6682621e-38 355 270
0.042921599 0.68000001 -0.035767999 1.6498234e-38 356 270
0.044243611 0.68199998 -0.035873197 1.6498234e-38 357 270
0.045506012 0.68300003 -0.035925802 1.6131246e-38 358 270
0.046771921 0.68400002 -0.035978399 1.6039051e-38 359 270
0.048111461 0.68599999 -0.036083598 1.5946499e-38 360 270
0.049386136 0.68699998 -0.036136195 1.5854303e-38 361 270
0.050590675 0.68699998 -0.036136195 1.5670271e-38 362 270
0.051870614 0.68800002 -0.0361888 1.5393325e-38 363 270
0.053076908 0.68800002 -0.0361888 1.4657564e-38 364 270
0.054440998 0.69 -0.036293998 1.4380618e-38 365 270
0.055731449 0.69099998 -0.036346599 1.4379196e-38 366 270
0.056942999 0.69099998 -0.036346599 1.4010772e-38 367 270
0.058154557 0.69099998 -0.036346599 1.3642372e-38 368 270
0.059366114 0.69099998 -0.036346599 1.3642372e-38 369 270
0.060314666 0.68800002 -0.0361888 1.3828586e-38 370 270
0.061431535 0.68699998 -0.036136195 1.5119325e-38 371 270
0.062636077 0.68699998 -0.036136195 1.696363e-38 372 270
0.0046358132 0.66100001 -0.035927553 1.7973399e-38 324 271
0.0057947668 0.66100001 -0.035927553 1.7512421e-38 325 271
0.0069642398 0.662 -0.035981905 1.7970487e-38 326 271
0.0081372196 0.66299999 -0.036036257 1.7970487e-38 327 271
0.0092996797 0.66299999 -0.036036257 1.8338544e-38 328 271
0.01046214 0.66299999 -0.036036257 1.8431098e-38 329 271
0.0116246 0.66299999 -0.036036257 1.8523997e-38 330 271
0.012787059 0.66299999 -0.036036257 1.8431801e-38 331 271
0.013949519 0.66299999 -0.036036257 1.8708013e-38 332 271
0.015134773 0.66399997 -0.036090612 1.8800208e-38 333 271
0.016348081 0.66600001 -0.03619932 1.8800208e-38 334 271
0.017568398 0.66799998 -0.036308024 1.8800208e-38 335 271
0.018739626 0.66799998 -0.036308024 1.8617266e-38 336 271
0.019910853 0.66799998 -0.036308024 1.8709462e-38 337 271
0.021082079 0.66799998 -0.036308024 1.8708755e-38 338 271
0.022319933 0.67000002 -0.036416732 1.861656e-38 339 271
0.023494666 0.67000002 -0.036416732 1.8433248e-38 340 271
0.024669399 0.67000002 -0.036416732 1.834105e-38 341 271
0.025844134 0.67000002 -0.036416732 1.8065184e-38 342 271
0.027059194 0.671 -0.036471087 1.8065184e-38 343 271
0.02827776 0.67199999 -0.036525436 1.7972991e-38 344 271
0.029455997 0.67199999 -0.036525436 1.77886e-38 345 271
0.030725412 0.67400002 -0.036634147 1.7695682e-38 346 271
0.03190716 0.67400002 -0.036634147 1.7603485e-38 347 271
0.033088908 0.67400002 -0.036634147 1.7328341e-38 348 271
0.034270655 0.67400002 -0.036634147 1.7144309e-38 349 271
0.035505001 0.67500001 -0.036688499 1.7142874e-38 350 271
0.036688499 0.67500001 -0.036688499 1.6866648e-38 351 271
0.037928104 0.676 -0.036742851 1.6774451e-38 352 271
0.039229076 0.67799997 -0.036851559 1.6682255e-38 353 271
0.040417835 0.67799997 -0.036851559 1.6406757e-38 354 271
0.041667968 0.67900002 -0.036905911 1.6314561e-38 355 271
0.042921599 0.68000001 -0.036960267 1.6314205e-38 356 271
0.044113863 0.68000001 -0.036960267 1.6130174e-38 357 271
0.045439381 0.68199998 -0.037068974 1.6038697e-38 358 271
0.04670354 0.68300003 -0.037123326 1.5854306e-38 359 271
0.0479712 0.68400002 -0.037177678 1.5854306e-38 360 271
0.049314249 0.68599999 -0.037286382 1.5577719e-38 361 271
0.050517038 0.68599999 -0.037286382 1.5302211e-38 362 271
0.051795214 0.68699998 -0.037340738 1.5025625e-38 363 271
0.053076908 0.68800002 -0.037395094 1.4105839e-38 364 271
0.054283202 0.68800002 -0.037395094 1.3736696e-38 365 271
0.055650797 0.69 -0.037503798 1.3918589e-38 366 271
0.0568606 0.69 -0.037503798 1.3734198e-38 367 271
0.058070395 0.69 -0.037503798 1.3274669e-38 368 271
0.059280202 0.69 -0.037503798 1.3274669e-38 369 271
0.060314666 0.68800002 -0.037395094 1.4104817e-38 370 271
0.061431535 0.68699998 -0.037340738 1.5395556e-38 371 271
0.062636077 0.68699998 -0.037340738 1.6779249e-38 372 271
0.00347686 0.66100001 -0.037086505 1.8063443e-38 323 272
0.0046358132 0.66100001 -0.037086505 1.8064483e-38 324 272
0.0057947668 0.66100001 -0.037086505 1.7972288e-38 325 272
0.0069642398 0.662 -0.037142612 1.8339247e-38 326 272
0.0081249457 0.662 -0.037142612 1.8339247e-38 327 272
0.0092716264 0.66100001 -0.037086505 1.8707662e-38 328 272
0.01043058 0.66100001 -0.037086505 1.8799858e-38 329 272
0.011589534 0.66100001 -0.037086505 1.861654e-38 330 272
0.012767773 0.662 -0.037142612 1.8709096e-38 331 272
0.013949519 0.66299999 -0.037198719 1.8709096e-38 332 272
0.015134773 0.66399997 -0.037254825 1.861654e-38 333 272
0.016348081 0.66600001 -0.037367038 1.8799855e-38 334 272
0.017515799 0.66600001 -0.037367038 1.8799855e-38 335 272
0.018739626 0.66799998 -0.037479252 1.8799858e-38 336 272
0.019910853 0.66799998 -0.037479252 1.8799858e-38 337 272
0.021082079 0.66799998 -0.037479252 1.861584e-38 338 272
0.022253305 0.66799998 -0.037479252 1.861584e-38 339 272
0.023494666 0.67000002 -0.037591465 1.8339976e-38 340 272
0.024669399 0.67000002 -0.037591465 1.824778e-38 341 272
0.025844134 0.67000002 -0.037591465 1.8155938e-38 342 272
0.027059194 0.671 -0.037647571 1.8063742e-38 343 272
0.028235679 0.671 -0.037647571 1.7787511e-38 344 272
0.029412165 0.671 -0.037647571 1.7602761e-38 345 272
0.030634239 0.67199999 -0.037703678 1.7235776e-38 346 272
0.031812478 0.67199999 -0.037703678 1.7143581e-38 347 272
0.03299072 0.67199999 -0.037703678 1.6959196e-38 348 272
0.034168959 0.67199999 -0.037703678 1.6867001e-38 349 272
0.035505001 0.67500001 -0.037871998 1.6774448e-38 350 272
0.036688499 0.67500001 -0.037871998 1.6590057e-38 351 272
0.037928104 0.676 -0.037928104 1.6406388e-38 352 272
0.039229076 0.67799997 -0.038040318 1.6406388e-38 353 272
0.040417835 0.67799997 -0.038040318 1.6130527e-38 354 272
0.041667968 0.67900002 -0.038096428 1.6130527e-38 355 272
0.042921599 0.68000001 -0.038152531 1.6221644e-38 356 272
0.044113863 0.68000001 -0.038152531 1.6129448e-38 357 272
0.045306131 0.68000001 -0.038152531 1.6038685e-38 358 272
0.046635158 0.68199998 -0.038264744 1.5761738e-38 359 272
0.047901068 0.68300003 -0.038320854 1.5485874e-38 360 272
0.049170479 0.68400002 -0.038376961 1.5209287e-38 361 272
0.050517038 0.68599999 -0.03848917 1.4565365e-38 362 272
0.051719822 0.68599999 -0.03848917 1.4380974e-38 363 272
0.053076908 0.68800002 -0.038601387 1.4011485e-38 364 272
0.054283202 0.68800002 -0.038601387 1.391929e-38 365 272
0.055489492 0.68800002 -0.038601387 1.3458687e-38 366 272
0.0568606 0.69 -0.038713597 1.3366491e-38 367 272
0.058070395 0.69 -0.038713597 1.3181754e-38 368 272
0.059280202 0.69 -0.038713597 1.3550176e-38 369 272
0.060314666 0.68800002 -0.038601387 1.4013345e-38 370 272
0.061431535 0.68699998 -0.038545277 1.5027495e-38 371 272
0.062636077 0.68699998 -0.038545277 1.5952368e-38 372 272
0.0023214133 0.662 -0.038303319 1.8154489e-38 322 273
0.00347686 0.66100001 -0.038245458 1.8338881e-38 323 273
0.0046358132 0.66100001 -0.038245458 1.8339956e-38 324 273
0.0057947668 0.66100001 -0.038245458 1.8432152e-38 325 273
0.00695372 0.66100001 -0.038245458 1.8524347e-38 326 273
0.0081249457 0.662 -0.038303319 1.8524347e-38 327 273
0.0092716264 0.66100001 -0.038245458 1.8523628e-38 328 273
0.01043058 0.66100001 -0.038245458 1.870766e-38 329 273
0.011589534 0.66100001 -0.038245458 1.861654e-38 330 273
0.012748486 0.66100001 -0.038245458 1.861654e-38 331 273
0.01392848 0.662 -0.038303319 1.8616546e-38 332 273
0.015089186 0.662 -0.038303319 1.8616546e-38 333 273
0.016298985 0.66399997 -0.038419038 1.8523641e-38 334 273
0.0174632 0.66399997 -0.038419038 1.8523641e-38 335 273
0.018683519 0.66600001 -0.03853476 1.8340332e-38 336 273
0.019881045 0.667 -0.038592618 1.8340332e-38 337 273
0.021050518 0.667 -0.038592618 1.8340699e-38 338 273
0.022219993 0.667 -0.038592618 1.7972275e-38 339 273
0.023424532 0.66799998 -0.038650475 1.778895e-38 340 273
0.02459576 0.66799998 -0.038650475 1.7512363e-38 341 273
0.025766984 0.66799998 -0.038650475 1.7695663e-38 342 273
0.027018867 0.67000002 -0.038766202 1.7603467e-38 343 273
0.028193599 0.67000002 -0.038766202 1.7143228e-38 344 273
0.029368332 0.67000002 -0.038766202 1.7143228e-38 345 273
0.030588651 0.671 -0.038824059 1.6682615e-38 346 273
0.031765141 0.671 -0.038824059 1.6498584e-38 347 273
0.032941625 0.671 -0.038824059 1.640711e-38 348 273
0.034118112 0.671 -0.038824059 1.640711e-38 349 273
0.0352946 0.671 -0.038824059 1.6314561e-38 350 273
0.036525436 0.67199999 -0.03888192 1.613053e-38 351 273
0.037871998 0.67500001 -0.039055496 1.613053e-38 352 273
0.039113361 0.676 -0.039113361 1.6037976e-38 353 273
0.040417835 0.67799997 -0.039229076 1.6037976e-38 354 273
0.041606598 0.67799997 -0.039229076 1.6037976e-38 355 273
0.042858478 0.67900002 -0.039286941 1.5946499e-38 356 273
0.044048995 0.67900002 -0.039286941 1.5854303e-38 357 273
0.045306131 0.68000001 -0.039344799 1.5578794e-38 358 273
0.046498399 0.68000001 -0.039344799 1.5486599e-38 359 273
0.047830928 0.68199998 -0.039460517 1.4841229e-38 360 273
0.049098592 0.68300003 -0.039518382 1.4656839e-38 361 273
0.050369758 0.68400002 -0.03957624 1.4197309e-38 362 273
0.051719822 0.68599999 -0.039691959 1.4104754e-38 363 273
0.052999757 0.68699998 -0.039749816 1.3644147e-38 364 273
0.054283202 0.68800002 -0.039807681 1.3367921e-38 365 273
0.055489492 0.68800002 -0.039807681 1.3549811e-38 366 273
0.056695789 0.68800002 -0.039807681 1.3365419e-38 367 273
0.057902083 0.68800002 -0.039807681 1.2998807e-38 368 273
0.059108373 0.68800002 -0.039807681 1.3551981e-38 369 273
0.060226995 0.68699998 -0.039749816 1.3646004e-38 370 273
0.061431535 0.68699998 -0.039749816 1.4015145e-38 371 273
0.062636077 0.68699998 -0.039749816 1.5215522e-38 372 273
0.0011607066 0.662 -0.039464023 1.8340332e-38 321 274
0.0023214133 0.662 -0.039464023 1.8524345e-38 322 274
0.00347686 0.66100001 -0.039404415 1.8524345e-38 323 274
0.0046358132 0.66100001 -0.039404415 1.8708016e-38 324 274
0.0057947668 0.66100001 -0.039404415 1.8800211e-38 325 274
0.00695372 0.66100001 -0.039404415 1.8800208e-38 326 274
0.0081249457 0.662 -0.039464023 1.8431786e-38 327 274
0.0092716264 0.66100001 -0.039404415 1.8521828e-38 328 274
0.01043058 0.66100001 -0.039404415 1.8521828e-38 329 274
0.011589534 0.66100001 -0.039404415 1.8522194e-38 330 274
0.012748486 0.66100001 -0.039404415 1.8614748e-38 331 274
0.01392848 0.662 -0.039464023 1.8706944e-38 332 274
0.015089186 0.662 -0.039464023 1.8706944e-38 333 274
0.016274439 0.66299999 -0.039523639 1.8523631e-38 334 274
0.017436899 0.66299999 -0.039523639 1.8338881e-38 335 274
0.018627413 0.66399997 -0.039583251 1.8155572e-38 336 274
0.019851239 0.66600001 -0.039702479 1.8063376e-38 337 274
0.02101896 0.66600001 -0.039702479 1.7787155e-38 338 274
0.02218668 0.66600001 -0.039702479 1.7694959e-38 339 274
0.023389466 0.667 -0.039762091 1.7418367e-38 340 274
0.024558939 0.667 -0.039762091 1.7233974e-38 341 274
0.025728412 0.667 -0.039762091 1.7050296e-38 342 274
0.026938211 0.66799998 -0.039821707 1.7050296e-38 343 274
0.028109439 0.66799998 -0.039821707 1.6957392e-38 344 274
0.029368332 0.67000002 -0.039940935 1.6865196e-38 345 274
0.030588651 0.671 -0.040000543 1.6314546e-38 346 274
0.0317178 0.67000002 -0.039940935 1.6314546e-38 347 274
0.032892533 0.67000002 -0.039940935 1.6497861e-38 348 274
0.034118112 0.671 -0.040000543 1.6313471e-38 349 274
0.0352946 0.671 -0.040000543 1.6129799e-38 350 274
0.036471087 0.671 -0.040000543 1.6129799e-38 351 274
0.037703678 0.67199999 -0.040060159 1.6129799e-38 352 274
0.038997639 0.67400002 -0.040179387 1.6129799e-38 353 274
0.040238999 0.67500001 -0.040238999 1.6037249e-38 354 274
0.041422497 0.67500001 -0.040238999 1.6037249e-38 355 274
0.042669121 0.676 -0.040298611 1.5761741e-38 356 274
0.044048995 0.67900002 -0.040477451 1.5761741e-38 357 274
0.045239504 0.67900002 -0.040477451 1.5393315e-38 358 274
0.046498399 0.68000001 -0.040537067 1.5208564e-38 359 274
0.047830928 0.68199998 -0.040656291 1.4380252e-38 360 274
0.049098592 0.68300003 -0.040715907 1.4288055e-38 361 274
0.05029612 0.68300003 -0.040715907 1.3827094e-38 362 274
0.051569041 0.68400002 -0.040775519 1.391929e-38 363 274
0.05292261 0.68599999 -0.040894743 1.355088e-38 364 274
0.054204296 0.68699998 -0.040954359 1.355088e-38 365 274
0.055408835 0.68699998 -0.040954359 1.3366135e-38 366 274
0.056695789 0.68800002 -0.041013971 1.3089907e-38 367 274
0.057902083 0.68800002 -0.041013971 1.2998807e-38 368 274
0.059108373 0.68800002 -0.041013971 1.3459426e-38 369 274
0.060226995 0.68699998 -0.040954359 1.2448909e-38 370 274
0.061431535 0.68699998 -0.040954359 1.2725495e-38 371 274
-0.014998012 0.65799999 -0.040379263 1.8527359e-38 307 275
-0.01384432 0.65799999 -0.040379263 1.861846e-38 308 275
-0.01043058 0.66100001 -0.040563367 1.8340056e-38 311 275
-0.0092716264 0.66100001 -0.040563367 1.8064878e-38 312 275
-0.0046358132 0.66100001 -0.040563367 1.8246316e-38 316 275
-0.00347686 0.66100001 -0.040563367 1.8338513e-38 317 275
-0.0023108933 0.65899998 -0.04044063 1.8431799e-38 318 275
-0.0011554466 0.65899998 -0.04044063 1.861619e-38 319 275
0 0.65499997 -0.040195163 1.8707306e-38 320 275
0.0011484332 0.65499997 -0.040195163 1.8707306e-38 321 275
0.0023179066 0.66100001 -0.040563367 1.8799489e-38 322 275
0.00347686 0.66100001 -0.040563367 1.8799489e-38 323 275
0.0046358132 0.66100001 -0.040563367 1.8799492e-38 324 275
0.0057947668 0.66100001 -0.040563367 1.8707297e-38 325 275
0.00695372 0.66100001 -0.040563367 1.8522903e-38 326 275
0.0081126727 0.66100001 -0.040563367 1.7969729e-38 327 275
0.0092716264 0.66100001 -0.040563367 1.8060499e-38 328 275
0.01043058 0.66100001 -0.040563367 1.8337085e-38 329 275
0.011589534 0.66100001 -0.040563367 1.8063023e-38 330 275
0.012748486 0.66100001 -0.040563367 1.833925e-38 331 275
0.01390744 0.66100001 -0.040563367 1.8155216e-38 332 275
0.015066394 0.66100001 -0.040563367 1.8155216e-38 333 275
0.016225345 0.66100001 -0.040563367 1.7971544e-38 334 275
0.017410601 0.662 -0.04062473 1.7695315e-38 335 275
0.018599359 0.66299999 -0.040686097 1.7695315e-38 336 275
0.019791625 0.66399997 -0.040747464 1.7510565e-38 337 275
0.020955838 0.66399997 -0.040747464 1.7418373e-38 338 275
0.02218668 0.66600001 -0.040870197 1.7418373e-38 339 275
0.023354398 0.66600001 -0.040870197 1.7142859e-38 340 275
0.02452212 0.66600001 -0.040870197 1.6866271e-38 341 275
0.02568984 0.66600001 -0.040870197 1.6681884e-38 342 275
0.026897885 0.667 -0.040931564 1.6681884e-38 343 275
0.028067358 0.667 -0.040931564 1.6221997e-38 344 275
0.029280664 0.66799998 -0.040992931 1.6221997e-38 345 275
0.030543067 0.67000002 -0.041115668 1.6129092e-38 346 275
0.0317178 0.67000002 -0.041115668 1.6129092e-38 347 275
0.032892533 0.67000002 -0.041115668 1.5853586e-38 348 275
0.034067266 0.67000002 -0.041115668 1.5853586e-38 349 275
0.035241999 0.67000002 -0.041115668 1.5761385e-38 350 275
0.036471087 0.671 -0.041177034 1.5669189e-38 351 275
0.037647571 0.671 -0.041177034 1.5853217e-38 352 275
0.03888192 0.67199999 -0.041238401 1.5853217e-38 353 275
0.040060159 0.67199999 -0.041238401 1.5761385e-38 354 275
0.041361131 0.67400002 -0.041361131 1.5485158e-38 355 275
0.042606 0.67500001 -0.041422497 1.5209287e-38 356 275
0.043854371 0.676 -0.041483864 1.5209287e-38 357 275
0.045039624 0.676 -0.041483864 1.4657192e-38 358 275
0.046498399 0.68000001 -0.041729335 1.4472801e-38 359 275
0.047690667 0.68000001 -0.041729335 1.3919999e-38 360 275
0.049026705 0.68199998 -0.041852064 1.3919999e-38 361 275
0.05029612 0.68300003 -0.041913435 1.3643429e-38 362 275
0.051493648 0.68300003 -0.041913435 1.3551233e-38 363 275
0.05292261 0.68599999 -0.042097531 1.3367568e-38 364 275
0.054204296 0.68699998 -0.042158898 1.3275372e-38 365 275
0.055408835 0.68699998 -0.042158898 1.3457612e-38 366 275
0.056695789 0.68800002 -0.042220265 1.3734198e-38 367 275
0.057902083 0.68800002 -0.042220265 1.2999895e-38 368 275
0.059108373 0.68800002 -0.042220265 1.2999895e-38 369 275
0.060314666 0.68800002 -0.042220265 1.1805707e-38 370 275
-0.01843104 0.65700001 -0.041469838 1.8250749e-38 304 276
-0.0172791 0.65700001 -0.041469838 1.7974163e-38 305 276
-0.01612716 0.65700001 -0.041469838 1.8064891e-38 306 276
-0.014998012 0.65799999 -0.04153296 1.78805e-38 307 276
-0.01384432 0.65799999 -0.04153296 1.7879389e-38 308 276
-0.012690626 0.65799999 -0.04153296 1.7787193e-38 309 276
-0.011554466 0.65899998 -0.041596077 1.8061964e-38 310 276
-0.010399019 0.65899998 -0.041596077 1.8061964e-38 311 276
-0.0092435731 0.65899998 -0.041596077 1.8063036e-38 312 276
-0.0080881258 0.65899998 -0.041596077 1.8339981e-38 313 276
-0.0069326796 0.65899998 -0.041596077 1.8523641e-38 314 276
-0.0057772328 0.65899998 -0.041596077 1.8431445e-38 315 276
-0.0046147732 0.65799999 -0.04153296 1.8523626e-38 316 276
-0.0034558198 0.65700001 -0.041469838 1.8708016e-38 317 276
-0.0023038799 0.65700001 -0.041469838 1.8341388e-38 318 276
-0.0011484332 0.65499997 -0.041343596 1.8341388e-38 319 276
0 0.65499997 -0.041343596 1.8616543e-38 320 276
0.0011484332 0.65499997 -0.041343596 1.8616543e-38 321 276
0.0023038799 0.65700001 -0.041469838 1.8799139e-38 322 276
0.00347686 0.66100001 -0.04172232 1.8799139e-38 323 276
0.0046217865 0.65899998 -0.041596077 1.8706941e-38 324 276
0.0057772328 0.65899998 -0.041596077 1.8522549e-38 325 276
0.00695372 0.66100001 -0.04172232 1.8337435e-38 326 276
0.0081126727 0.66100001 -0.04172232 1.7876458e-38 327 276
0.0092716264 0.66100001 -0.04172232 1.8060855e-38 328 276
0.010399019 0.65899998 -0.041596077 1.8244886e-38 329 276
0.011554466 0.65899998 -0.041596077 1.7695313e-38 330 276
0.012709912 0.65899998 -0.041596077 1.7787508e-38 331 276
0.013865359 0.65899998 -0.041596077 1.806229e-38 332 276
0.015020805 0.65899998 -0.041596077 1.7878259e-38 333 276
0.016176252 0.65899998 -0.041596077 1.7786061e-38 334 276
0.0173843 0.66100001 -0.04172232 1.7601669e-38 335 276
0.018571306 0.662 -0.041785441 1.7418001e-38 336 276
0.019761819 0.66299999 -0.041848559 1.7233609e-38 337 276
0.020955838 0.66399997 -0.041911677 1.714141e-38 338 276
0.022120051 0.66399997 -0.041911677 1.714141e-38 339 276
0.023284266 0.66399997 -0.041911677 1.6682237e-38 340 276
0.024448479 0.66399997 -0.041911677 1.6313094e-38 341 276
0.02568984 0.66600001 -0.042037919 1.6404941e-38 342 276
0.026857559 0.66600001 -0.042037919 1.6312744e-38 343 276
0.028025279 0.66600001 -0.042037919 1.6036886e-38 344 276
0.029236831 0.667 -0.042101037 1.6036886e-38 345 276
0.030451892 0.66799998 -0.042164158 1.5760669e-38 346 276
0.031623118 0.66799998 -0.042164158 1.5760669e-38 347 276
0.032794341 0.66799998 -0.042164158 1.5668836e-38 348 276
0.034067266 0.67000002 -0.042290401 1.5668836e-38 349 276
0.035241999 0.67000002 -0.042290401 1.5485155e-38 350 276
0.036416732 0.67000002 -0.042290401 1.539296e-38 351 276
0.037647571 0.671 -0.042353518 1.5668821e-38 352 276
0.038824059 0.671 -0.042353518 1.5668821e-38 353 276
0.040000543 0.671 -0.042353518 1.539331e-38 354 276
0.041238401 0.67199999 -0.042416636 1.5116722e-38 355 276
0.042542879 0.67400002 -0.042542879 1.4840492e-38 356 276
0.043789499 0.67500001 -0.042606 1.4656101e-38 357 276
0.045039624 0.676 -0.042669121 1.4012545e-38 358 276
0.046430022 0.67900002 -0.042858478 1.4012545e-38 359 276
0.047690667 0.68000001 -0.042921599 1.3827447e-38 360 276
0.049026705 0.68199998 -0.043047838 1.3827447e-38 361 276
0.05029612 0.68300003 -0.043110959 1.3734901e-38 362 276
0.051493648 0.68300003 -0.043110959 1.3550511e-38 363 276
0.05292261 0.68599999 -0.043300316 1.3275372e-38 364 276
0.054204296 0.68699998 -0.043363437 1.3275372e-38 365 276
0.055408835 0.68699998 -0.043363437 1.3458334e-38 366 276
0.056695789 0.68800002 -0.043426562 1.355053e-38 367 276
0.057902083 0.68800002 -0.043426562 1.3091016e-38 368 276
0.059108373 0.68800002 -0.043426562 1.2538201e-38 369 276
-0.019612785 0.65799999 -0.042686652 1.8064178e-38 303 277
-0.01843104 0.65700001 -0.04262178 1.8063797e-38 304 277
-0.017226499 0.65499997 -0.042492028 1.8155992e-38 305 277
-0.016078066 0.65499997 -0.042492028 1.8247442e-38 306 277
-0.014929632 0.65499997 -0.042492028 1.8155247e-38 307 277
-0.013781199 0.65499997 -0.042492028 1.8339253e-38 308 277
-0.012632766 0.65499997 -0.042492028 1.8154863e-38 309 277
-0.011519399 0.65700001 -0.04262178 1.8339234e-38 310 277
-0.01036746 0.65700001 -0.04262178 1.8339234e-38 311 277
-0.0092295464 0.65799999 -0.042686652 1.8339234e-38 312 277
-0.0080758529 0.65799999 -0.042686652 1.8708016e-38 313 277
-0.0069221598 0.65799999 -0.042686652 1.8708013e-38 314 277
-0.0057684663 0.65799999 -0.042686652 1.8708013e-38 315 277
-0.0046077599 0.65700001 -0.04262178 1.8617249e-38 316 277
-0.0034452998 0.65499997 -0.042492028 1.8617249e-38 317 277
-0.0022968664 0.65499997 -0.042492028 1.8616896e-38 318 277
-0.0011484332 0.65499997 -0.042492028 1.85247e-38 319 277
0 0.65499997 -0.042492028 1.8616543e-38 320 277
0.0011484332 0.65499997 -0.042492028 1.8524347e-38 321 277
0.0022968664 0.65499997 -0.042492028 1.8708016e-38 322 277
0.0034452998 0.65499997 -0.042492028 1.8523626e-38 323 277
0.0046077599 0.65700001 -0.04262178 1.8522903e-38 324 277
0.0057684663 0.65799999 -0.042686652 1.8338513e-38 325 277
0.0069221598 0.65799999 -0.042686652 1.8154123e-38 326 277
0.0080758529 0.65799999 -0.042686652 1.8154123e-38 327 277
0.0092295464 0.65799999 -0.042686652 1.7786061e-38 328 277
0.01038324 0.65799999 -0.042686652 1.7878256e-38 329 277
0.011536933 0.65799999 -0.042686652 1.7510918e-38 330 277
0.012690626 0.65799999 -0.042686652 1.7510918e-38 331 277
0.013865359 0.65899998 -0.042751525 1.7234327e-38 332 277
0.015020805 0.65899998 -0.042751525 1.7234327e-38 333 277
0.016176252 0.65899998 -0.042751525 1.6958098e-38 334 277
0.0173843 0.66100001 -0.042881273 1.6958098e-38 335 277
0.018571306 0.662 -0.042946145 1.6958101e-38 336 277
0.019761819 0.66299999 -0.043011017 1.6681155e-38 337 277
0.020924279 0.66299999 -0.043011017 1.6405999e-38 338 277
0.02208674 0.66299999 -0.043011017 1.6405999e-38 339 277
0.0232492 0.66299999 -0.043011017 1.640529e-38 340 277
0.024448479 0.66399997 -0.043075889 1.6220899e-38 341 277
0.025612691 0.66399997 -0.043075889 1.5944684e-38 342 277
0.026776904 0.66399997 -0.043075889 1.5944684e-38 343 277
0.027941117 0.66399997 -0.043075889 1.5668823e-38 344 277
0.029192999 0.66600001 -0.043205637 1.5576628e-38 345 277
0.030406304 0.667 -0.04327051 1.5576272e-38 346 277
0.03157578 0.667 -0.04327051 1.5484076e-38 347 277
0.032794341 0.66799998 -0.043335386 1.520929e-38 348 277
0.034067266 0.67000002 -0.043465134 1.520929e-38 349 277
0.035241999 0.67000002 -0.043465134 1.5025252e-38 350 277
0.036416732 0.67000002 -0.043465134 1.5025252e-38 351 277
0.037647571 0.671 -0.043530006 1.5024526e-38 352 277
0.038824059 0.671 -0.043530006 1.474794e-38 353 277
0.040000543 0.671 -0.043530006 1.4656098e-38 354 277
0.041238401 0.67199999 -0.043594878 1.437951e-38 355 277
0.042416636 0.67199999 -0.043594878 1.4286958e-38 356 277
0.043724626 0.67400002 -0.043724626 1.4286958e-38 357 277
0.044972997 0.67500001 -0.043789499 1.3919277e-38 358 277
0.046430022 0.67900002 -0.044048995 1.3919277e-38 359 277
0.047690667 0.68000001 -0.044113863 1.3734896e-38 360 277
0.049026705 0.68199998 -0.044243611 1.3734896e-38 361 277
0.05029612 0.68300003 -0.044308487 1.345939e-38 362 277
0.051493648 0.68300003 -0.044308487 1.345939e-38 363 277
0.052999757 0.68699998 -0.044567976 1.2999861e-38 364 277
0.054204296 0.68699998 -0.044567976 1.2999861e-38 365 277
0.055489492 0.68800002 -0.044632856 1.2998805e-38 366 277
0.056695789 0.68800002 -0.044632856 1.2906609e-38 367 277
0.057902083 0.68800002 -0.044632856 1.1895362e-38 368 277
0.059280202 0.69 -0.0447626 1.1249993e-38 369 277
-0.03560143 0.65499997 -0.043640465 1.880539e-38 289 278
-0.034400396 0.65399998 -0.043573838 1.871247e-38 290 278
-0.033253718 0.65399998 -0.043573838 1.8528078e-38 291 278
-0.03210704 0.65399998 -0.043573838 1.8618457e-38 292 278
-0.019523365 0.65499997 -0.043640465 1.8430727e-38 303 278
-0.01834688 0.65399998 -0.043573838 1.843108e-38 304 278
-0.017200198 0.65399998 -0.043573838 1.8523275e-38 305 278
-0.01605352 0.65399998 -0.043573838 1.8523997e-38 306 278
-0.014906839 0.65399998 -0.043573838 1.8523997e-38 307 278
-0.013760159 0.65399998 -0.043573838 1.8707309e-38 308 278
-0.01267134 0.65700001 -0.043773718 1.8707309e-38 309 278
-0.011466799 0.65399998 -0.043573838 1.8523982e-38 310 278
-0.01032012 0.65399998 -0.043573838 1.8708013e-38 311 278
-0.0091734398 0.65399998 -0.043573838 1.870801e-38 312 278
-0.008039033 0.65499997 -0.043640465 1.8800206e-38 313 278
-0.0068905996 0.65499997 -0.043640465 1.8616893e-38 314 278
-0.0057596997 0.65700001 -0.043773718 1.8616893e-38 315 278
-0.0045937328 0.65499997 -0.043640465 1.8616896e-38 316 278
-0.0034452998 0.65499997 -0.043640465 1.8616896e-38 317 278
-0.0022968664 0.65499997 -0.043640465 1.8341035e-38 318 278
-0.0011484332 0.65499997 -0.043640465 1.8341035e-38 319 278
0 0.65399998 -0.043573838 1.8340685e-38 320 278
0.00114668 0.65399998 -0.043573838 1.824813e-38 321 278
0.0022968664 0.65499997 -0.043640465 1.8156291e-38 322 278
0.0034452998 0.65499997 -0.043640465 1.8063736e-38 323 278
0.0045937328 0.65499997 -0.043640465 1.8246683e-38 324 278
0.0057421662 0.65499997 -0.043640465 1.8154486e-38 325 278
0.0068905996 0.65499997 -0.043640465 1.7878963e-38 326 278
0.008039033 0.65499997 -0.043640465 1.7786767e-38 327 278
0.0092155198 0.65700001 -0.043773718 1.7510906e-38 328 278
0.01036746 0.65700001 -0.043773718 1.7510906e-38 329 278
0.011519399 0.65700001 -0.043773718 1.7326524e-38 330 278
0.01267134 0.65700001 -0.043773718 1.7050296e-38 331 278
0.013823279 0.65700001 -0.043773718 1.6681881e-38 332 278
0.014998012 0.65799999 -0.043840345 1.6866271e-38 333 278
0.016151706 0.65799999 -0.043840345 1.6497142e-38 334 278
0.017331699 0.65899998 -0.043906972 1.6589338e-38 335 278
0.018543253 0.66100001 -0.044040225 1.6497136e-38 336 278
0.019702207 0.66100001 -0.044040225 1.6312744e-38 337 278
0.02086116 0.66100001 -0.044040225 1.603723e-38 338 278
0.022053426 0.662 -0.044106852 1.5945035e-38 339 278
0.023214132 0.662 -0.044106852 1.6036514e-38 340 278
0.024374841 0.662 -0.044106852 1.5944319e-38 341 278
0.025535546 0.662 -0.044106852 1.5759937e-38 342 278
0.026736578 0.66299999 -0.044173479 1.5575906e-38 343 278
0.027899038 0.66299999 -0.044173479 1.5484076e-38 344 278
0.02910533 0.66399997 -0.044240102 1.5391879e-38 345 278
0.030360719 0.66600001 -0.04437336 1.5207495e-38 346 278
0.031528439 0.66600001 -0.04437336 1.5207495e-38 347 278
0.032794341 0.66799998 -0.044506609 1.4840873e-38 348 278
0.034067266 0.67000002 -0.044639867 1.4840873e-38 349 278
0.035241999 0.67000002 -0.044639867 1.4748309e-38 350 278
0.036416732 0.67000002 -0.044639867 1.4656113e-38 351 278
0.037591465 0.67000002 -0.044639867 1.4287334e-38 352 278
0.038766202 0.67000002 -0.044639867 1.4195138e-38 353 278
0.040000543 0.671 -0.044706494 1.4194785e-38 354 278
0.041177034 0.671 -0.044706494 1.4010394e-38 355 278
0.042416636 0.67199999 -0.044773117 1.4010396e-38 356 278
0.043594878 0.67199999 -0.044773117 1.3917842e-38 357 278
0.044906374 0.67400002 -0.044906374 1.3459388e-38 358 278
0.046224877 0.676 -0.045039624 1.3459388e-38 359 278
0.047620531 0.67900002 -0.045239504 1.3459388e-38 360 278
0.048882935 0.68000001 -0.045306131 1.3459388e-38 361 278
0.05029612 0.68300003 -0.045506012 1.345939e-38 362 278
0.051719822 0.68599999 -0.045705888 1.345939e-38 363 278
0.052999757 0.68699998 -0.045772515 1.3458684e-38 364 278
0.054283202 0.68800002 -0.045839146 1.3182456e-38 365 278
0.055489492 0.68800002 -0.045839146 1.2905903e-38 366 278
0.056695789 0.68800002 -0.045839146 1.2629315e-38 367 278
0.058070395 0.69 -0.045972396 1.152588e-38 368 278
0.059366114 0.69099998 -0.046039023 1.1249292e-38 369 278
-0.036693759 0.65399998 -0.044720516 1.8156741e-38 288 279
-0.035547078 0.65399998 -0.044720516 1.8064543e-38 289 279
-0.034400396 0.65399998 -0.044720516 1.8247121e-38 290 279
-0.033152029 0.65200001 -0.044583756 1.806273e-38 291 279
-0.032008853 0.65200001 -0.044583756 1.8154193e-38 292 279
-0.030865679 0.65200001 -0.044583756 1.7970162e-38 293 279
-0.022863466 0.65200001 -0.044583756 1.8339603e-38 300 279
-0.021720294 0.65200001 -0.044583756 1.8339603e-38 301 279
-0.02057712 0.65200001 -0.044583756 1.8432152e-38 302 279
-0.019463753 0.653 -0.044652138 1.8524347e-38 303 279
-0.018290773 0.65200001 -0.044583756 1.8523982e-38 304 279
-0.017147599 0.65200001 -0.044583756 1.8523982e-38 305 279
-0.016004426 0.65200001 -0.044583756 1.8523979e-38 306 279
-0.014815666 0.64999998 -0.044446997 1.870801e-38 307 279
-0.013675999 0.64999998 -0.044446997 1.8616893e-38 308 279
-0.012574906 0.65200001 -0.044583756 1.8616893e-38 309 279
-0.011449266 0.653 -0.044652138 1.8708366e-38 310 279
-0.010304339 0.653 -0.044652138 1.8708366e-38 311 279
-0.0091594132 0.653 -0.044652138 1.8524332e-38 312 279
-0.0080267601 0.65399998 -0.044720516 1.8708363e-38 313 279
-0.0068905996 0.65499997 -0.044788897 1.8524332e-38 314 279
-0.0057421662 0.65499997 -0.044788897 1.8708363e-38 315 279
-0.0045937328 0.65499997 -0.044788897 1.8524335e-38 316 279
-0.0034400397 0.65399998 -0.044720516 1.843178e-38 317 279
-0.00229336 0.65399998 -0.044720516 1.8339232e-38 318 279
-0.00114668 0.65399998 -0.044720516 1.8339232e-38 319 279
0 0.65399998 -0.044720516 1.8339234e-38 320 279
0.00114668 0.65399998 -0.044720516 1.8247039e-38 321 279
0.0022968664 0.65499997 -0.044788897 1.8155192e-38 322 279
0.0034452998 0.65499997 -0.044788897 1.7786411e-38 323 279
0.0045937328 0.65499997 -0.044788897 1.7786767e-38 324 279
0.0057421662 0.65499997 -0.044788897 1.7786767e-38 325 279
0.0068905996 0.65499997 -0.044788897 1.7693852e-38 326 279
0.008039033 0.65499997 -0.044788897 1.7416905e-38 327 279
0.0091874655 0.65499997 -0.044788897 1.7417624e-38 328 279
0.010335899 0.65499997 -0.044788897 1.7141397e-38 329 279
0.011484332 0.65499997 -0.044788897 1.6680785e-38 330 279
0.012632766 0.65499997 -0.044788897 1.6680785e-38 331 279
0.013781199 0.65499997 -0.044788897 1.6680788e-38 332 279
0.01497522 0.65700001 -0.04492566 1.6588592e-38 333 279
0.016151706 0.65799999 -0.044994038 1.6771554e-38 334 279
0.017331699 0.65899998 -0.045062415 1.6587523e-38 335 279
0.018487146 0.65899998 -0.045062415 1.6220177e-38 336 279
0.019702207 0.66100001 -0.045199182 1.6220177e-38 337 279
0.02086116 0.66100001 -0.045199182 1.5852473e-38 338 279
0.022020113 0.66100001 -0.045199182 1.5852473e-38 339 279
0.023179067 0.66100001 -0.045199182 1.575992e-38 340 279
0.02433802 0.66100001 -0.045199182 1.5667725e-38 341 279
0.025496973 0.66100001 -0.045199182 1.5667372e-38 342 279
0.026696252 0.662 -0.04526756 1.5575176e-38 343 279
0.027856959 0.662 -0.04526756 1.5390795e-38 344 279
0.029061496 0.66299999 -0.045335937 1.5206403e-38 345 279
0.030269546 0.66399997 -0.045404319 1.5206398e-38 346 279
0.031528439 0.66600001 -0.045541082 1.4561028e-38 347 279
0.032696161 0.66600001 -0.045541082 1.4286239e-38 348 279
0.033965573 0.66799998 -0.045677837 1.4286239e-38 349 279
0.035136797 0.66799998 -0.045677837 1.3918546e-38 350 279
0.036416732 0.67000002 -0.0458146 1.3918546e-38 351 279
0.037591465 0.67000002 -0.0458146 1.4009672e-38 352 279
0.038766202 0.67000002 -0.0458146 1.4102226e-38 353 279
0.039940935 0.67000002 -0.0458146 1.373453e-38 354 279
0.041177034 0.671 -0.045882981 1.3642334e-38 355 279
0.042353518 0.671 -0.045882981 1.3642331e-38 356 279
0.043594878 0.67199999 -0.045951359 1.3642331e-38 357 279
0.044906374 0.67400002 -0.046088122 1.3367545e-38 358 279
0.046224877 0.676 -0.046224877 1.3459741e-38 359 279
0.047620531 0.67900002 -0.046430022 1.3276075e-38 360 279
0.048882935 0.68000001 -0.046498399 1.3276075e-38 361 279
0.050369758 0.68400002 -0.046771921 1.345939e-38 362 279
0.051569041 0.68400002 -0.046771921 1.345939e-38 363 279
0.05292261 0.68599999 -0.046908677 1.3276091e-38 364 279
0.054204296 0.68699998 -0.046977058 1.2999864e-38 365 279
0.055489492 0.68800002 -0.047045439 1.2446002e-38 366 279
0.0568606 0.69 -0.047182199 1.2169057e-38 367 279
0.058154557 0.69099998 -0.047250576 1.1248936e-38 368 279
-0.039888334 0.64999998 -0.045586664 1.7604976e-38 285 280
-0.038748663 0.64999998 -0.045586664 1.8064483e-38 286 280
-0.037724718 0.65200001 -0.045726933 1.7603506e-38 287 280
-0.036581546 0.65200001 -0.045726933 1.7878256e-38 288 280
-0.035492726 0.653 -0.045797065 1.7786061e-38 289 280
-0.034295198 0.65200001 -0.045726933 1.8062631e-38 290 280
-0.033050328 0.64999998 -0.045586664 1.8062631e-38 291 280
-0.031910665 0.64999998 -0.045586664 1.8154839e-38 292 280
-0.030770998 0.64999998 -0.045586664 1.8154839e-38 293 280
-0.029631332 0.64999998 -0.045586664 1.8339237e-38 294 280
-0.028491667 0.64999998 -0.045586664 1.8523628e-38 295 280
-0.027351998 0.64999998 -0.045586664 1.843143e-38 296 280
-0.026172007 0.64899999 -0.045516532 1.843143e-38 297 280
-0.025034092 0.64899999 -0.045516532 1.8707294e-38 298 280
-0.024006641 0.65200001 -0.045726933 1.8707294e-38 299 280
-0.022863466 0.65200001 -0.045726933 1.8523626e-38 300 280
-0.021653665 0.64999998 -0.045586664 1.8523626e-38 301 280
-0.020513998 0.64999998 -0.045586664 1.8523626e-38 302 280
-0.019374331 0.64999998 -0.045586664 1.8708016e-38 303 280
-0.018234665 0.64999998 -0.045586664 1.870801e-38 304 280
-0.017095 0.64999998 -0.045586664 1.8523979e-38 305 280
