# .PCD v.7 - Point Cloud Data file format
FIELDS x y z rgb imX imY
SIZE 4 4 4 4 4 4
TYPE F F F F F F
COUNT 1 1 1 1 1 1
WIDTH 860
HEIGHT 1
VIEWPOINT 0 0 0 1 0 0 0
POINTS 860
DATA ascii
0.014570199 0.83099997 0.061194837 1.4562495e-38 330 198
0.01602722 0.83099997 0.061194837 1.4654691e-38 331 198
0.017442159 0.829 0.061047558 1.4929833e-38 332 198
0.018895673 0.829 0.061047558 1.5113864e-38 333 198
0.020349186 0.829 0.061047558 1.5023101e-38 334 198
0.021802699 0.829 0.061047558 1.5115296e-38 335 198
0.023256212 0.829 0.061047558 1.493235e-38 336 198
0.024709726 0.829 0.061047558 1.493235e-38 337 198
0.026163239 0.829 0.061047558 1.4933076e-38 338 198
0.027616752 0.829 0.061047558 1.4933076e-38 339 198
0.029140398 0.83099997 0.061194837 1.5208587e-38 340 198
0.030597419 0.83099997 0.061194837 1.5300782e-38 341 198
0.032054439 0.83099997 0.061194837 1.5393681e-38 342 198
0.033511456 0.83099997 0.061194837 1.5485877e-38 343 198
0.03496848 0.83099997 0.061194837 1.5761388e-38 344 198
0.036337834 0.829 0.061047558 1.5853583e-38 345 198
0.037791345 0.829 0.061047558 1.5669572e-38 346 198
0.039244857 0.829 0.061047558 1.5853603e-38 347 198
0.040698372 0.829 0.061047558 1.6037631e-38 348 198
0.042151887 0.829 0.061047558 1.6129827e-38 349 198
0.043605398 0.829 0.061047558 1.6221641e-38 350 198
0.04505891 0.829 0.061047558 1.6129446e-38 351 198
0.046512425 0.829 0.061047558 1.6588605e-38 352 198
0.04796594 0.829 0.061047558 1.5390063e-38 353 198
0.049419452 0.829 0.061047558 1.4466668e-38 354 198
0.050872963 0.829 0.061047558 1.2898982e-38 355 198
0.052326478 0.829 0.061047558 1.2527352e-38 356 198
0.053779993 0.829 0.061047558 1.2712102e-38 357 198
0.055233505 0.829 0.061047558 1.2348742e-38 358 198
0.05668702 0.829 0.061047558 1.32707e-38 359 198
0.058140531 0.829 0.061047558 1.4562514e-38 360 198
0.059594043 0.829 0.061047558 1.5300079e-38 361 198
0.061047558 0.829 0.061047558 1.5575205e-38 362 198
0.062501073 0.829 0.061047558 1.5390813e-38 363 198
0.063954584 0.829 0.061047558 1.5299315e-38 364 198
0.065408096 0.829 0.061047558 1.5207119e-38 365 198
0.066861607 0.829 0.061047558 1.4563915e-38 366 198
0.068315126 0.829 0.061047558 1.3642317e-38 367 198
0.069768637 0.829 0.061047558 1.2820896e-38 368 198
-0.059450272 0.82700002 0.059450272 1.6313196e-38 279 199
-0.058000267 0.82700002 0.059450272 1.58536e-38 280 199
-0.056550261 0.82700002 0.059450272 1.58536e-38 281 199
-0.055100251 0.82700002 0.059450272 1.6682234e-38 282 199
-0.053650245 0.82700002 0.059450272 1.6866265e-38 283 199
-0.052200239 0.82700002 0.059450272 1.6776571e-38 284 199
-0.050750233 0.82700002 0.059450272 1.6869127e-38 285 199
-0.049300224 0.82700002 0.059450272 1.732866e-38 286 199
-0.047850218 0.82700002 0.059450272 1.7512691e-38 287 199
-0.046400212 0.82700002 0.059450272 1.7697438e-38 288 199
-0.044950206 0.82700002 0.059450272 1.7697438e-38 289 199
-0.0435002 0.82700002 0.059450272 1.7788565e-38 290 199
-0.04205019 0.82700002 0.059450272 1.7788565e-38 291 199
-0.040502001 0.82499999 0.059306499 1.7787861e-38 292 199
-0.039055496 0.82499999 0.059306499 1.7695666e-38 293 199
-0.037608996 0.82499999 0.059306499 1.7695313e-38 294 199
-0.036162499 0.82499999 0.059306499 1.7603117e-38 295 199
-0.034715999 0.82499999 0.059306499 1.7418723e-38 296 199
-0.033269498 0.82499999 0.059306499 1.723433e-38 297 199
-0.031822998 0.82499999 0.059306499 1.7325451e-38 298 199
-0.030450139 0.82700002 0.059450272 1.7233255e-38 299 199
-0.029000133 0.82700002 0.059450272 1.7048142e-38 300 199
-0.027550125 0.82700002 0.059450272 1.6955947e-38 301 199
-0.02610012 0.82700002 0.059450272 1.6588239e-38 302 199
-0.024650112 0.82700002 0.059450272 1.6403848e-38 303 199
-0.023200106 0.82700002 0.059450272 1.6310227e-38 304 199
-0.0217501 0.82700002 0.059450272 1.6125834e-38 305 199
-0.020300092 0.82700002 0.059450272 1.5298599e-38 306 199
-0.018895673 0.829 0.059594043 1.5206403e-38 307 199
-0.017442159 0.829 0.059594043 1.557446e-38 308 199
-0.015988646 0.829 0.059594043 1.5390069e-38 309 199
-0.014535133 0.829 0.059594043 1.5390069e-38 310 199
-0.013113179 0.83099997 0.059737816 1.5113482e-38 311 199
-0.01165616 0.83099997 0.059737816 1.4929809e-38 312 199
-0.01019914 0.83099997 0.059737816 1.4929809e-38 313 199
-0.0087421201 0.83099997 0.059737816 1.4929809e-38 314 199
-0.0072850995 0.83099997 0.059737816 1.4929809e-38 315 199
-0.0058280798 0.83099997 0.059737816 1.4745778e-38 316 199
-0.0043710601 0.83099997 0.059737816 1.4653583e-38 317 199
-0.0029210532 0.833 0.05988159 1.4653577e-38 318 199
-0.0014605266 0.833 0.05988159 1.4653577e-38 319 199
0 0.83099997 0.059737816 1.465393e-38 320 199
0.0014570199 0.83099997 0.059737816 1.465393e-38 321 199
0.0029140399 0.83099997 0.059737816 1.4469189e-38 322 199
0.0043710601 0.83099997 0.059737816 1.4561384e-38 323 199
0.0058421064 0.833 0.05988159 1.4561028e-38 324 199
0.007302633 0.833 0.05988159 1.4468833e-38 325 199
0.0087631596 0.833 0.05988159 1.4285523e-38 326 199
0.010223686 0.833 0.05988159 1.4285523e-38 327 199
0.011684213 0.833 0.05988159 1.446848e-38 328 199
0.01314474 0.833 0.05988159 1.4561034e-38 329 199
0.014570199 0.83099997 0.059737816 1.4560681e-38 330 199
0.01602722 0.83099997 0.059737816 1.4560681e-38 331 199
0.017442159 0.829 0.059594043 1.4285533e-38 332 199
0.018895673 0.829 0.059594043 1.4378087e-38 333 199
0.020349186 0.829 0.059594043 1.4929812e-38 334 199
0.021802699 0.829 0.059594043 1.4929812e-38 335 199
0.023256212 0.829 0.059594043 1.4838696e-38 336 199
0.024709726 0.829 0.059594043 1.4838696e-38 337 199
0.026163239 0.829 0.059594043 1.4839063e-38 338 199
0.027616752 0.829 0.059594043 1.4746866e-38 339 199
0.029140398 0.83099997 0.059737816 1.4747946e-38 340 199
0.030597419 0.83099997 0.059737816 1.4840142e-38 341 199
0.032054439 0.83099997 0.059737816 1.5023454e-38 342 199
0.033511456 0.83099997 0.059737816 1.5207845e-38 343 199
0.03496848 0.83099997 0.059737816 1.5942536e-38 344 199
0.036337834 0.829 0.059594043 1.5942536e-38 345 199
0.037791345 0.829 0.059594043 1.5758871e-38 346 199
0.039244857 0.829 0.059594043 1.5943262e-38 347 199
0.040698372 0.829 0.059594043 1.603653e-38 348 199
0.042151887 0.829 0.059594043 1.6128725e-38 349 199
0.043605398 0.829 0.059594043 1.6404591e-38 350 199
0.04505891 0.829 0.059594043 1.6588982e-38 351 199
0.046512425 0.829 0.059594043 1.6129446e-38 352 199
0.04796594 0.829 0.059594043 1.6037249e-38 353 199
0.049419452 0.829 0.059594043 1.5480465e-38 354 199
0.050872963 0.829 0.059594043 1.3820945e-38 355 199
0.052326478 0.829 0.059594043 1.2987594e-38 356 199
0.053779993 0.829 0.059594043 1.2342225e-38 357 199
0.055233505 0.829 0.059594043 1.2801076e-38 358 199
0.05668702 0.829 0.059594043 1.31695e-38 359 199
0.058140531 0.829 0.059594043 1.2627131e-38 360 199
0.059594043 0.829 0.059594043 1.4010066e-38 361 199
0.061047558 0.829 0.059594043 1.5575221e-38 362 199
0.062501073 0.829 0.059594043 1.5483025e-38 363 199
0.063954584 0.829 0.059594043 1.5390807e-38 364 199
0.065408096 0.829 0.059594043 1.5298612e-38 365 199
0.066861607 0.829 0.059594043 1.4748309e-38 366 199
0.068315126 0.829 0.059594043 1.4379885e-38 367 199
0.069768637 0.829 0.059594043 1.3828195e-38 368 199
0.071222149 0.829 0.059594043 1.4288813e-38 369 199
-0.063645996 0.82499999 0.057859998 1.6506239e-38 276 200
-0.062048711 0.82300001 0.057719734 1.5215501e-38 277 200
-0.06060572 0.82300001 0.057719734 1.5668133e-38 278 200
-0.059306499 0.82499999 0.057859998 1.529971e-38 279 200
-0.057859998 0.82499999 0.057859998 1.6313094e-38 280 200
-0.056413498 0.82499999 0.057859998 1.6590041e-38 281 200
-0.054966997 0.82499999 0.057859998 1.7050644e-38 282 200
-0.053520497 0.82499999 0.057859998 1.7327231e-38 283 200
-0.052073997 0.82499999 0.057859998 1.7236462e-38 284 200
-0.050750233 0.82700002 0.058000267 1.7513047e-38 285 200
-0.049300224 0.82700002 0.058000267 1.7604173e-38 286 200
-0.047850218 0.82700002 0.058000267 1.7696369e-38 287 200
-0.046400212 0.82700002 0.058000267 1.7788209e-38 288 200
-0.044950206 0.82700002 0.058000267 1.79726e-38 289 200
-0.0435002 0.82700002 0.058000267 1.7513067e-38 290 200
-0.041948497 0.82499999 0.057859998 1.7420871e-38 291 200
-0.040502001 0.82499999 0.057859998 1.7327972e-38 292 200
-0.039055496 0.82499999 0.057859998 1.7327972e-38 293 200
-0.037608996 0.82499999 0.057859998 1.6959559e-38 294 200
-0.036162499 0.82499999 0.057859998 1.6867364e-38 295 200
-0.034715999 0.82499999 0.057859998 1.6774801e-38 296 200
-0.033269498 0.82499999 0.057859998 1.659041e-38 297 200
-0.031822998 0.82499999 0.057859998 1.6680807e-38 298 200
-0.030450139 0.82700002 0.058000267 1.6588253e-38 299 200
-0.029000133 0.82700002 0.058000267 1.6129432e-38 300 200
-0.027550125 0.82700002 0.058000267 1.594504e-38 301 200
-0.02610012 0.82700002 0.058000267 1.6036139e-38 302 200
-0.024650112 0.82700002 0.058000267 1.5667356e-38 303 200
-0.023200106 0.82700002 0.058000267 1.5574813e-38 304 200
-0.0217501 0.82700002 0.058000267 1.5574813e-38 305 200
-0.020300092 0.82700002 0.058000267 1.5205344e-38 306 200
-0.018895673 0.829 0.058140531 1.5113148e-38 307 200
-0.017442159 0.829 0.058140531 1.4746161e-38 308 200
-0.015988646 0.829 0.058140531 1.4469933e-38 309 200
-0.014535133 0.829 0.058140531 1.4560681e-38 310 200
-0.01308162 0.829 0.058140531 1.4560681e-38 311 200
-0.01165616 0.83099997 0.058280796 1.4102224e-38 312 200
-0.01019914 0.83099997 0.058280796 1.3917831e-38 313 200
-0.0087421201 0.83099997 0.058280796 1.4285523e-38 314 200
-0.0072850995 0.83099997 0.058280796 1.4100772e-38 315 200
-0.0058280798 0.83099997 0.058280796 1.4100759e-38 316 200
-0.0043710601 0.83099997 0.058280796 1.4008564e-38 317 200
-0.0029140399 0.83099997 0.058280796 1.3641926e-38 318 200
-0.0014605266 0.833 0.058421064 1.3457175e-38 319 200
0 0.83099997 0.058280796 1.3548657e-38 320 200
0.0014570199 0.83099997 0.058280796 1.3548657e-38 321 200
0.0029210532 0.833 0.058421064 1.3456477e-38 322 200
0.0043815798 0.833 0.058421064 1.3456477e-38 323 200
0.0058421064 0.833 0.058421064 1.3455758e-38 324 200
0.007302633 0.833 0.058421064 1.3455758e-38 325 200
0.0087631596 0.833 0.058421064 1.3271389e-38 326 200
0.010223686 0.833 0.058421064 1.3455422e-38 327 200
0.011684213 0.833 0.058421064 1.2814006e-38 328 200
0.01314474 0.833 0.058421064 1.272145e-38 329 200
0.014570199 0.83099997 0.058280796 1.3088088e-38 330 200
0.01602722 0.83099997 0.058280796 1.3088088e-38 331 200
0.017442159 0.829 0.058140531 1.3181009e-38 332 200
0.018895673 0.829 0.058140531 1.33654e-38 333 200
0.020349186 0.829 0.058140531 1.3733431e-38 334 200
0.021802699 0.829 0.058140531 1.3918181e-38 335 200
0.023256212 0.829 0.058140531 1.3734513e-38 336 200
0.024709726 0.829 0.058140531 1.3734513e-38 337 200
0.026163239 0.829 0.058140531 1.3734869e-38 338 200
0.027616752 0.829 0.058140531 1.3918901e-38 339 200
0.029070266 0.829 0.058140531 1.4102586e-38 340 200
0.030597419 0.83099997 0.058280796 1.4102586e-38 341 200
0.032054439 0.83099997 0.058280796 1.3828529e-38 342 200
0.033511456 0.83099997 0.058280796 1.4012561e-38 343 200
0.03496848 0.83099997 0.058280796 1.4562864e-38 344 200
0.036337834 0.829 0.058140531 1.4839451e-38 345 200
0.037791345 0.829 0.058140531 1.4655785e-38 346 200
0.039244857 0.829 0.058140531 1.4932372e-38 347 200
0.040796559 0.83099997 0.058280796 1.530006e-38 348 200
0.042151887 0.829 0.058140531 1.5484452e-38 349 200
0.043605398 0.829 0.058140531 1.5578794e-38 350 200
0.04505891 0.829 0.058140531 1.5578794e-38 351 200
0.046512425 0.829 0.058140531 1.5852867e-38 352 200
0.04796594 0.829 0.058140531 1.6221291e-38 353 200
0.049419452 0.829 0.058140531 1.6219113e-38 354 200
0.050872963 0.829 0.058140531 1.4743624e-38 355 200
0.052326478 0.829 0.058140531 1.4277938e-38 356 200
0.053779993 0.829 0.058140531 1.2434025e-38 357 200
0.055233505 0.829 0.058140531 1.1879101e-38 358 200
0.05668702 0.829 0.058140531 1.1879101e-38 359 200
0.058140531 0.829 0.058140531 1.0689966e-38 360 200
0.059594043 0.829 0.058140531 1.2164736e-38 361 200
0.061047558 0.829 0.058140531 1.3917883e-38 362 200
0.062501073 0.829 0.058140531 1.4840199e-38 363 200
0.063954584 0.829 0.058140531 1.539083e-38 364 200
0.065408096 0.829 0.058140531 1.5206438e-38 365 200
0.066861607 0.829 0.058140531 1.5297893e-38 366 200
0.068315126 0.829 0.058140531 1.5205697e-38 367 200
0.069768637 0.829 0.058140531 1.4011475e-38 368 200
0.071222149 0.829 0.058140531 1.3642334e-38 369 200
-0.0652503 0.82700002 0.056550261 1.6041664e-38 275 201
-0.063645996 0.82499999 0.056413498 1.5579555e-38 276 201
-0.062048711 0.82300001 0.056276739 1.5026381e-38 277 201
-0.06060572 0.82300001 0.056276739 1.6221278e-38 278 201
-0.059162725 0.82300001 0.056276739 1.6589701e-38 279 201
-0.057719734 0.82300001 0.056276739 1.6958451e-38 280 201
-0.056276739 0.82300001 0.056276739 1.7050647e-38 281 201
-0.054833744 0.82300001 0.056276739 1.7144988e-38 282 201
-0.053390753 0.82300001 0.056276739 1.7329379e-38 283 201
-0.052073997 0.82499999 0.056413498 1.7421224e-38 284 201
-0.0506275 0.82499999 0.056413498 1.751342e-38 285 201
-0.049180996 0.82499999 0.056413498 1.7787861e-38 286 201
-0.047734499 0.82499999 0.056413498 1.7971894e-38 287 201
-0.046400212 0.82700002 0.056550261 1.7787861e-38 288 201
-0.044950206 0.82700002 0.056550261 1.7787861e-38 289 201
-0.0435002 0.82700002 0.056550261 1.7603833e-38 290 201
-0.041948497 0.82499999 0.056413498 1.7511637e-38 291 201
-0.040502001 0.82499999 0.056413498 1.723506e-38 292 201
-0.039055496 0.82499999 0.056413498 1.7142506e-38 293 201
-0.037608996 0.82499999 0.056413498 1.6958113e-38 294 201
-0.036162499 0.82499999 0.056413498 1.6589691e-38 295 201
-0.034715999 0.82499999 0.056413498 1.6680802e-38 296 201
-0.033269498 0.82499999 0.056413498 1.6312378e-38 297 201
-0.031822998 0.82499999 0.056413498 1.6219829e-38 298 201
-0.030450139 0.82700002 0.056550261 1.6219829e-38 299 201
-0.029000133 0.82700002 0.056550261 1.594324e-38 300 201
-0.027550125 0.82700002 0.056550261 1.5666653e-38 301 201
-0.02610012 0.82700002 0.056550261 1.5482612e-38 302 201
-0.024650112 0.82700002 0.056550261 1.5390416e-38 303 201
-0.023200106 0.82700002 0.056550261 1.5297147e-38 304 201
-0.0217501 0.82700002 0.056550261 1.5297147e-38 305 201
-0.020300092 0.82700002 0.056550261 1.4929812e-38 306 201
-0.018895673 0.829 0.05668702 1.4653227e-38 307 201
-0.017442159 0.829 0.05668702 1.4469183e-38 308 201
-0.015988646 0.829 0.05668702 1.4008564e-38 309 201
-0.014535133 0.829 0.05668702 1.4100028e-38 310 201
-0.01308162 0.829 0.05668702 1.4007831e-38 311 201
-0.01165616 0.83099997 0.056823779 1.3640124e-38 312 201
-0.01019914 0.83099997 0.056823779 1.3640124e-38 313 201
-0.0087421201 0.83099997 0.056823779 1.3730169e-38 314 201
-0.0072850995 0.83099997 0.056823779 1.3546138e-38 315 201
-0.0058280798 0.83099997 0.056823779 1.2994051e-38 316 201
-0.0043710601 0.83099997 0.056823779 1.2625629e-38 317 201
-0.0029140399 0.83099997 0.056823779 1.2258289e-38 318 201
-0.0014605266 0.833 0.056960538 1.1981702e-38 319 201
0 0.83099997 0.056823779 1.1797313e-38 320 201
0.0014570199 0.83099997 0.056823779 1.1612563e-38 321 201
0.0029210532 0.833 0.056960538 1.2072105e-38 322 201
0.0043815798 0.833 0.056960538 1.1887355e-38 323 201
0.0058421064 0.833 0.056960538 1.1520017e-38 324 201
0.007302633 0.833 0.056960538 1.1612213e-38 325 201
0.0087631596 0.833 0.056960538 1.1520746e-38 326 201
0.010223686 0.833 0.056960538 1.1704777e-38 327 201
0.011684213 0.833 0.056960538 1.1704058e-38 328 201
0.01314474 0.833 0.056960538 1.1796254e-38 329 201
0.014605266 0.833 0.056960538 1.1888452e-38 330 201
0.01602722 0.83099997 0.056823779 1.1980648e-38 331 201
0.01748424 0.83099997 0.056823779 1.2073567e-38 332 201
0.018941259 0.83099997 0.056823779 1.2349793e-38 333 201
0.02039828 0.83099997 0.056823779 1.2076086e-38 334 201
0.021855298 0.83099997 0.056823779 1.2076086e-38 335 201
0.023256212 0.829 0.05668702 1.2626387e-38 336 201
0.024709726 0.829 0.05668702 1.2810778e-38 337 201
0.026163239 0.829 0.05668702 1.2260829e-38 338 201
0.027616752 0.829 0.05668702 1.2260829e-38 339 201
0.029070266 0.829 0.05668702 1.2905118e-38 340 201
0.030597419 0.83099997 0.056823779 1.3274261e-38 341 201
0.032054439 0.83099997 0.056823779 1.3550134e-38 342 201
0.033511456 0.83099997 0.056823779 1.3734886e-38 343 201
0.03496848 0.83099997 0.056823779 1.4652879e-38 344 201
0.036337834 0.829 0.05668702 1.4745075e-38 345 201
0.037791345 0.829 0.05668702 1.4286981e-38 346 201
0.039339535 0.83099997 0.056823779 1.4563567e-38 347 201
0.040698372 0.829 0.05668702 1.4747959e-38 348 201
0.042151887 0.829 0.05668702 1.493235e-38 349 201
0.043605398 0.829 0.05668702 1.520929e-38 350 201
0.04505891 0.829 0.05668702 1.5301486e-38 351 201
0.046512425 0.829 0.05668702 1.5668836e-38 352 201
0.04796594 0.829 0.05668702 1.5668836e-38 353 201
0.049419452 0.829 0.05668702 1.5944334e-38 354 201
0.050872963 0.829 0.05668702 1.5575553e-38 355 201
0.052200239 0.82700002 0.056550261 1.5661968e-38 356 201
0.053650245 0.82700002 0.056550261 1.4002445e-38 357 201
0.055100251 0.82700002 0.056550261 1.1696502e-38 358 201
0.056550261 0.82700002 0.056550261 1.0958937e-38 359 201
0.058000267 0.82700002 0.056550261 9.3066537e-39 360 201
0.059450272 0.82700002 0.056550261 1.0228969e-38 361 201
0.060900278 0.82700002 0.056550261 1.1247809e-38 362 201
0.062350284 0.82700002 0.056550261 1.3091722e-38 363 201
0.06380029 0.82700002 0.056550261 1.5299009e-38 364 201
0.065408096 0.829 0.05668702 1.5206455e-38 365 201
0.066861607 0.829 0.05668702 1.5115315e-38 366 201
0.068315126 0.829 0.05668702 1.4839088e-38 367 201
0.069768637 0.829 0.05668702 1.474581e-38 368 201
0.071222149 0.829 0.05668702 1.474581e-38 369 201
0.072675668 0.829 0.05668702 1.3367233e-38 370 201
-0.066538997 0.82499999 0.054966997 1.6685922e-38 274 202
-0.065092497 0.82499999 0.054966997 1.5302988e-38 275 202
-0.063645996 0.82499999 0.054966997 1.5578428e-38 276 202
-0.062048711 0.82300001 0.054833744 1.5578428e-38 277 202
-0.06060572 0.82300001 0.054833744 1.6773704e-38 278 202
-0.059162725 0.82300001 0.054833744 1.7050649e-38 279 202
-0.057719734 0.82300001 0.054833744 1.769529e-38 280 202
-0.056276739 0.82300001 0.054833744 1.75109e-38 281 202
-0.054833744 0.82300001 0.054833744 1.7512694e-38 282 202
-0.053390753 0.82300001 0.054833744 1.760489e-38 283 202
-0.051947758 0.82300001 0.054833744 1.7696735e-38 284 202
-0.0506275 0.82499999 0.054966997 1.7696735e-38 285 202
-0.049180996 0.82499999 0.054966997 1.7695313e-38 286 202
-0.047734499 0.82499999 0.054966997 1.7695313e-38 287 202
-0.046287999 0.82499999 0.054966997 1.7511287e-38 288 202
-0.044841498 0.82499999 0.054966997 1.7327256e-38 289 202
-0.043394998 0.82499999 0.054966997 1.7234704e-38 290 202
-0.041948497 0.82499999 0.054966997 1.7142509e-38 291 202
-0.040502001 0.82499999 0.054966997 1.6774448e-38 292 202
-0.039055496 0.82499999 0.054966997 1.6682252e-38 293 202
-0.037608996 0.82499999 0.054966997 1.6497861e-38 294 202
-0.036162499 0.82499999 0.054966997 1.6129078e-38 295 202
-0.034715999 0.82499999 0.054966997 1.6311672e-38 296 202
-0.033269498 0.82499999 0.054966997 1.6035085e-38 297 202
-0.031822998 0.82499999 0.054966997 1.6034729e-38 298 202
-0.030376498 0.82499999 0.054966997 1.5666305e-38 299 202
-0.028929999 0.82499999 0.054966997 1.5299315e-38 300 202
-0.027483499 0.82499999 0.054966997 1.5114924e-38 301 202
-0.02610012 0.82700002 0.055100251 1.5022002e-38 302 202
-0.024650112 0.82700002 0.055100251 1.5022002e-38 303 202
-0.023200106 0.82700002 0.055100251 1.4745778e-38 304 202
-0.0217501 0.82700002 0.055100251 1.4561028e-38 305 202
-0.020300092 0.82700002 0.055100251 1.3825261e-38 306 202
-0.018895673 0.829 0.055233505 1.3548674e-38 307 202
-0.017442159 0.829 0.055233505 1.3546141e-38 308 202
-0.015988646 0.829 0.055233505 1.3361389e-38 309 202
-0.014535133 0.829 0.055233505 1.2994386e-38 310 202
-0.013113179 0.83099997 0.055366758 1.2717798e-38 311 202
-0.01165616 0.83099997 0.055366758 1.2441934e-38 312 202
-0.01019914 0.83099997 0.055366758 1.2349739e-38 313 202
-0.0087631596 0.833 0.055500012 1.2073174e-38 314 202
-0.007302633 0.833 0.055500012 1.2073174e-38 315 202
-0.0058421064 0.833 0.055500012 1.170369e-38 316 202
-0.0043815798 0.833 0.055500012 1.1611494e-38 317 202
-0.0029210532 0.833 0.055500012 1.1611146e-38 318 202
-0.0014605266 0.833 0.055500012 1.1611146e-38 319 202
0 0.833 0.055500012 1.1610793e-38 320 202
0.0014605266 0.833 0.055500012 1.1426401e-38 321 202
0.0029210532 0.833 0.055500012 1.1701909e-38 322 202
0.0043815798 0.833 0.055500012 1.1609713e-38 323 202
0.0058561331 0.83499998 0.055633266 1.1241651e-38 324 202
0.0073201661 0.83499998 0.055633266 1.1333846e-38 325 202
0.0087841991 0.83499998 0.055633266 1.1150903e-38 326 202
0.010248233 0.83499998 0.055633266 1.1150903e-38 327 202
0.011712266 0.83499998 0.055633266 1.1333143e-38 328 202
0.01314474 0.833 0.055500012 1.1425697e-38 329 202
0.014605266 0.833 0.055500012 1.1425692e-38 330 202
0.016065793 0.833 0.055500012 1.1518246e-38 331 202
0.01748424 0.83099997 0.055366758 1.1702639e-38 332 202
0.018941259 0.83099997 0.055366758 1.188667e-38 333 202
0.02039828 0.83099997 0.055366758 1.1978162e-38 334 202
0.021855298 0.83099997 0.055366758 1.2162913e-38 335 202
0.023312319 0.83099997 0.055366758 1.1979611e-38 336 202
0.02476934 0.83099997 0.055366758 1.1979611e-38 337 202
0.026226358 0.83099997 0.055366758 1.1888824e-38 338 202
0.027683379 0.83099997 0.055366758 1.1796269e-38 339 202
0.029140398 0.83099997 0.055366758 1.1889171e-38 340 202
0.030597419 0.83099997 0.055366758 1.2350149e-38 341 202
0.032054439 0.83099997 0.055366758 1.2350872e-38 342 202
0.033511456 0.83099997 0.055366758 1.2719655e-38 343 202
0.03496848 0.83099997 0.055366758 1.2997315e-38 344 202
0.036337834 0.829 0.055233505 1.3366456e-38 345 202
0.037791345 0.829 0.055233505 1.3826728e-38 346 202
0.039339535 0.83099997 0.055366758 1.401112e-38 347 202
0.040698372 0.829 0.055233505 1.4194435e-38 348 202
0.042151887 0.829 0.055233505 1.4378827e-38 349 202
0.043605398 0.829 0.055233505 1.4656489e-38 350 202
0.04505891 0.829 0.055233505 1.484052e-38 351 202
0.046512425 0.829 0.055233505 1.5300779e-38 352 202
0.04796594 0.829 0.055233505 1.5300779e-38 353 202
0.049419452 0.829 0.055233505 1.5485511e-38 354 202
0.050750233 0.82700002 0.055100251 1.5393315e-38 355 202
0.052200239 0.82700002 0.055100251 1.6034716e-38 356 202
0.053650245 0.82700002 0.055100251 1.4928369e-38 357 202
0.055100251 0.82700002 0.055100251 1.4001373e-38 358 202
0.056550261 0.82700002 0.055100251 1.197307e-38 359 202
0.058000267 0.82700002 0.055100251 1.104863e-38 360 202
0.059450272 0.82700002 0.055100251 1.104863e-38 361 202
0.060900278 0.82700002 0.055100251 9.587565e-39 362 202
0.062350284 0.82700002 0.055100251 1.1431478e-38 363 202
0.06380029 0.82700002 0.055100251 1.3551248e-38 364 202
0.065408096 0.829 0.055233505 1.4288813e-38 365 202
0.066861607 0.829 0.055233505 1.5207515e-38 366 202
0.068315126 0.829 0.055233505 1.4746536e-38 367 202
0.069768637 0.829 0.055233505 1.483764e-38 368 202
0.071222149 0.829 0.055233505 1.4745443e-38 369 202
0.072675668 0.829 0.055233505 1.3549437e-38 370 202
-0.070534848 0.82099998 0.053261004 1.7427865e-38 271 203
-0.069095351 0.82099998 0.053261004 1.7424952e-38 272 203
-0.067820683 0.82300001 0.053390753 1.5396648e-38 273 203
-0.066377692 0.82300001 0.053390753 1.5484808e-38 274 203
-0.065092497 0.82499999 0.053520497 1.5392612e-38 275 203
-0.06349171 0.82300001 0.053390753 1.6314528e-38 276 203
-0.062048711 0.82300001 0.053390753 1.6683309e-38 277 203
-0.06060572 0.82300001 0.053390753 1.7050649e-38 278 203
-0.059162725 0.82300001 0.053390753 1.7326878e-38 279 203
-0.057719734 0.82300001 0.053390753 1.7879684e-38 280 203
-0.056276739 0.82300001 0.053390753 1.7879684e-38 281 203
-0.054833744 0.82300001 0.053390753 1.7696738e-38 282 203
-0.053390753 0.82300001 0.053390753 1.7696738e-38 283 203
-0.051947758 0.82300001 0.053390753 1.7787861e-38 284 203
-0.050504766 0.82300001 0.053390753 1.7695666e-38 285 203
-0.049061771 0.82300001 0.053390753 1.7603117e-38 286 203
-0.047734499 0.82499999 0.053520497 1.7510921e-38 287 203
-0.046287999 0.82499999 0.053520497 1.723506e-38 288 203
-0.044841498 0.82499999 0.053520497 1.7142506e-38 289 203
-0.043394998 0.82499999 0.053520497 1.705031e-38 290 203
-0.041948497 0.82499999 0.053520497 1.6865918e-38 291 203
-0.040502001 0.82499999 0.053520497 1.6681531e-38 292 203
-0.039055496 0.82499999 0.053520497 1.6497139e-38 293 203
-0.037608996 0.82499999 0.053520497 1.6312747e-38 294 203
-0.036162499 0.82499999 0.053520497 1.5943966e-38 295 203
-0.034715999 0.82499999 0.053520497 1.5942887e-38 296 203
-0.033269498 0.82499999 0.053520497 1.5666658e-38 297 203
-0.031822998 0.82499999 0.053520497 1.5574463e-38 298 203
-0.030376498 0.82499999 0.053520497 1.5389713e-38 299 203
-0.028929999 0.82499999 0.053520497 1.5022005e-38 300 203
-0.027483499 0.82499999 0.053520497 1.4745778e-38 301 203
-0.026036998 0.82499999 0.053520497 1.47454e-38 302 203
-0.024590498 0.82499999 0.053520497 1.4469172e-38 303 203
-0.023200106 0.82700002 0.053650245 1.4468075e-38 304 203
-0.0217501 0.82700002 0.053650245 1.4191128e-38 305 203
-0.020300092 0.82700002 0.053650245 1.3454647e-38 306 203
-0.018895673 0.829 0.053779993 1.2809278e-38 307 203
-0.017442159 0.829 0.053779993 1.2438714e-38 308 203
-0.01602722 0.83099997 0.053909738 1.2254321e-38 309 203
-0.014570199 0.83099997 0.053909738 1.1795161e-38 310 203
-0.013113179 0.83099997 0.053909738 1.142638e-38 311 203
-0.01165616 0.83099997 0.053909738 1.1334555e-38 312 203
-0.010223686 0.833 0.054039486 1.1242001e-38 313 203
-0.0087631596 0.833 0.054039486 1.0965787e-38 314 203
-0.007302633 0.833 0.054039486 1.0965787e-38 315 203
-0.0058421064 0.833 0.054039486 1.0965439e-38 316 203
-0.0043815798 0.833 0.054039486 1.0965439e-38 317 203
-0.0029210532 0.833 0.054039486 1.1332427e-38 318 203
-0.0014605266 0.833 0.054039486 1.1332427e-38 319 203
0 0.833 0.054039486 1.1332427e-38 320 203
0.0014605266 0.833 0.054039486 1.1332427e-38 321 203
0.0029280665 0.83499998 0.05416923 1.1332424e-38 322 203
0.0043920996 0.83499998 0.05416923 1.1332424e-38 323 203
0.0058561331 0.83499998 0.05416923 1.1240584e-38 324 203
0.0073201661 0.83499998 0.05416923 1.1240584e-38 325 203
0.0087841991 0.83499998 0.05416923 1.1057632e-38 326 203
0.010248233 0.83499998 0.05416923 1.1057632e-38 327 203
0.011712266 0.83499998 0.05416923 1.124095e-38 328 203
0.0131763 0.83499998 0.05416923 1.124095e-38 329 203
0.014640332 0.83499998 0.05416923 1.1240594e-38 330 203
0.016065793 0.833 0.054039486 1.1240594e-38 331 203
0.017526319 0.833 0.054039486 1.1239878e-38 332 203
0.018986847 0.833 0.054039486 1.1332074e-38 333 203
0.020447372 0.833 0.054039486 1.1515386e-38 334 203
0.0219079 0.833 0.054039486 1.160794e-38 335 203
0.023312319 0.83099997 0.053909738 1.1424988e-38 336 203
0.02476934 0.83099997 0.053909738 1.1424988e-38 337 203
0.026226358 0.83099997 0.053909738 1.1426417e-38 338 203
0.027683379 0.83099997 0.053909738 1.1149831e-38 339 203
0.029140398 0.83099997 0.053909738 1.1150905e-38 340 203
0.030597419 0.83099997 0.053909738 1.1150905e-38 341 203
0.032054439 0.83099997 0.053909738 1.11509e-38 342 203
0.033592112 0.833 0.054039486 1.11509e-38 343 203
0.03496848 0.83099997 0.053909738 1.1614026e-38 344 203
0.036425497 0.83099997 0.053909738 1.2444147e-38 345 203
0.037882518 0.83099997 0.053909738 1.3088442e-38 346 203
0.039339535 0.83099997 0.053909738 1.3457223e-38 347 203
0.040698372 0.829 0.053779993 1.3733458e-38 348 203
0.042151887 0.829 0.053779993 1.4102239e-38 349 203
0.043605398 0.829 0.053779993 1.4195151e-38 350 203
0.044950206 0.82700002 0.053650245 1.4287706e-38 351 203
0.046400212 0.82700002 0.053650245 1.5022753e-38 352 203
0.047850218 0.82700002 0.053650245 1.5207145e-38 353 203
0.049300224 0.82700002 0.053650245 1.4933076e-38 354 203
0.050750233 0.82700002 0.053650245 1.5117467e-38 355 203
0.052200239 0.82700002 0.053650245 1.5576275e-38 356 203
0.053650245 0.82700002 0.053650245 1.5576275e-38 357 203
0.055100251 0.82700002 0.053650245 1.5386832e-38 358 203
0.056413498 0.82499999 0.053520497 1.3819146e-38 359 203
0.057859998 0.82499999 0.053520497 1.1878015e-38 360 203
0.059450272 0.82700002 0.053650245 1.1232646e-38 361 203
0.060900278 0.82700002 0.053650245 8.4804733e-39 362 203
0.062350284 0.82700002 0.053650245 9.7712122e-39 363 203
0.06380029 0.82700002 0.053650245 1.1892421e-38 364 203
0.0652503 0.82700002 0.053650245 1.3551583e-38 365 203
0.066700302 0.82700002 0.053650245 1.4747596e-38 366 203
0.068150312 0.82700002 0.053650245 1.4655041e-38 367 203
0.069768637 0.829 0.053779993 1.4745438e-38 368 203
0.071222149 0.829 0.053779993 1.4653242e-38 369 203
0.072675668 0.829 0.053779993 1.3917495e-38 370 203
0.074129179 0.829 0.053779993 1.3733463e-38 371 203
-0.071799003 0.81900001 0.05169528 1.7607919e-38 270 204
-0.070363015 0.81900001 0.05169528 1.6685964e-38 271 204
-0.069095351 0.82099998 0.051821519 1.6499716e-38 272 204
-0.067820683 0.82300001 0.051947758 1.539337e-38 273 204
-0.066377692 0.82300001 0.051947758 1.6219829e-38 274 204
-0.064934701 0.82300001 0.051947758 1.6312025e-38 275 204
-0.06349171 0.82300001 0.051947758 1.7049212e-38 276 204
-0.062048711 0.82300001 0.051947758 1.7326157e-38 277 204
-0.06060572 0.82300001 0.051947758 1.7418001e-38 278 204
-0.059162725 0.82300001 0.051947758 1.7694587e-38 279 204
-0.057579465 0.82099998 0.051821519 1.7695663e-38 280 204
-0.05613998 0.82099998 0.051821519 1.7787858e-38 281 204
-0.05470049 0.82099998 0.051821519 1.7696382e-38 282 204
-0.053261004 0.82099998 0.051821519 1.7604186e-38 283 204
-0.051821519 0.82099998 0.051821519 1.7603114e-38 284 204
-0.050504766 0.82300001 0.051947758 1.7510918e-38 285 204
-0.049061771 0.82300001 0.051947758 1.7418723e-38 286 204
-0.047734499 0.82499999 0.052073997 1.7326527e-38 287 204
-0.046287999 0.82499999 0.052073997 1.6866271e-38 288 204
-0.044841498 0.82499999 0.052073997 1.6866271e-38 289 204
-0.043394998 0.82499999 0.052073997 1.6589688e-38 290 204
-0.041948497 0.82499999 0.052073997 1.6497492e-38 291 204
-0.040502001 0.82499999 0.052073997 1.6404577e-38 292 204
-0.039055496 0.82499999 0.052073997 1.6219827e-38 293 204
-0.037608996 0.82499999 0.052073997 1.6035435e-38 294 204
-0.036162499 0.82499999 0.052073997 1.5574457e-38 295 204
-0.034715999 0.82499999 0.052073997 1.5390066e-38 296 204
-0.033269498 0.82499999 0.052073997 1.5482261e-38 297 204
-0.031822998 0.82499999 0.052073997 1.5113838e-38 298 204
-0.030376498 0.82499999 0.052073997 1.4652501e-38 299 204
-0.028929999 0.82499999 0.052073997 1.4652854e-38 300 204
-0.027483499 0.82499999 0.052073997 1.4191876e-38 301 204
-0.026036998 0.82499999 0.052073997 1.3822355e-38 302 204
-0.024590498 0.82499999 0.052073997 1.3361377e-38 303 204
-0.023200106 0.82700002 0.052200239 1.2992575e-38 304 204
-0.0217501 0.82700002 0.052200239 1.2715629e-38 305 204
-0.020300092 0.82700002 0.052200239 1.1888044e-38 306 204
-0.018895673 0.829 0.052326478 1.1703653e-38 307 204
-0.01748424 0.83099997 0.052452717 1.1241272e-38 308 204
-0.01602722 0.83099997 0.052452717 1.1517499e-38 309 204
-0.014570199 0.83099997 0.052452717 1.1516443e-38 310 204
-0.01314474 0.833 0.05257896 1.1516443e-38 311 204
-0.011684213 0.833 0.05257896 1.1240584e-38 312 204
-0.010223686 0.833 0.05257896 1.1055834e-38 313 204
-0.0087841991 0.83499998 0.052705199 1.1055837e-38 314 204
-0.0073201661 0.83499998 0.052705199 1.1148033e-38 315 204
-0.0058561331 0.83499998 0.052705199 1.0964367e-38 316 204
-0.0043920996 0.83499998 0.052705199 1.0872172e-38 317 204
-0.0029280665 0.83499998 0.052705199 1.0689576e-38 318 204
-0.0014640333 0.83499998 0.052705199 1.0689576e-38 319 204
0 0.83499998 0.052705199 1.0873244e-38 320 204
0.0014640333 0.83499998 0.052705199 1.0965439e-38 321 204
0.0029280665 0.83499998 0.052705199 1.1056916e-38 322 204
0.0043920996 0.83499998 0.052705199 1.1056916e-38 323 204
0.0058561331 0.83499998 0.052705199 1.1056913e-38 324 204
0.0073201661 0.83499998 0.052705199 1.0964718e-38 325 204
0.0087841991 0.83499998 0.052705199 1.0965792e-38 326 204
0.010248233 0.83499998 0.052705199 1.0965792e-38 327 204
0.011712266 0.83499998 0.052705199 1.0965439e-38 328 204
0.013207859 0.83700001 0.052831437 1.0873244e-38 329 204
0.014640332 0.83499998 0.052705199 1.0781771e-38 330 204
0.016104365 0.83499998 0.052705199 1.0689576e-38 331 204
0.017568398 0.83499998 0.052705199 1.0780692e-38 332 204
0.018986847 0.833 0.05257896 1.0780692e-38 333 204
0.020447372 0.833 0.05257896 1.0780692e-38 334 204
0.0219079 0.833 0.05257896 1.0872888e-38 335 204
0.023368426 0.833 0.05257896 1.0506263e-38 336 204
0.024828954 0.833 0.05257896 1.0690294e-38 337 204
0.026226358 0.83099997 0.052452717 1.078249e-38 338 204
0.027683379 0.83099997 0.052452717 1.078249e-38 339 204
0.029140398 0.83099997 0.052452717 1.087432e-38 340 204
0.030597419 0.83099997 0.052452717 1.1058351e-38 341 204
0.032131586 0.833 0.05257896 1.1241298e-38 342 204
0.033592112 0.833 0.05257896 1.1241298e-38 343 204
0.035052639 0.833 0.05257896 1.1426764e-38 344 204
0.036425497 0.83099997 0.052452717 1.1703711e-38 345 204
0.037882518 0.83099997 0.052452717 1.1520761e-38 346 204
0.039339535 0.83099997 0.052452717 1.2258326e-38 347 204
0.040698372 0.829 0.052326478 1.2720749e-38 348 204
0.042151887 0.829 0.052326478 1.3273923e-38 349 204
0.043605398 0.829 0.052326478 1.3641984e-38 350 204
0.044950206 0.82700002 0.052200239 1.3918571e-38 351 204
0.046400212 0.82700002 0.052200239 1.4470296e-38 352 204
0.047850218 0.82700002 0.052200239 1.4655047e-38 353 204
0.049300224 0.82700002 0.052200239 1.4747961e-38 354 204
0.050750233 0.82700002 0.052200239 1.4932353e-38 355 204
0.052200239 0.82700002 0.052200239 1.5116018e-38 356 204
0.053520497 0.82499999 0.052073997 1.5300411e-38 357 204
0.054966997 0.82499999 0.052073997 1.5851417e-38 358 204
0.056413498 0.82499999 0.052073997 1.5021655e-38 359 204
0.057859998 0.82499999 0.052073997 1.455456e-38 360 204
0.059306499 0.82499999 0.052073997 1.2618452e-38 361 204
0.060752995 0.82499999 0.052073997 1.0225688e-38 362 204
0.062199496 0.82499999 0.052073997 1.0594469e-38 363 204
0.063645996 0.82499999 0.052073997 1.1520746e-38 364 204
0.0652503 0.82700002 0.052200239 1.3917831e-38 365 204
0.066700302 0.82700002 0.052200239 1.5298243e-38 366 204
0.068150312 0.82700002 0.052200239 1.5206047e-38 367 204
0.069768637 0.829 0.052326478 1.4562481e-38 368 204
0.071222149 0.829 0.052326478 1.4469927e-38 369 204
0.072500333 0.82700002 0.052200239 1.4009322e-38 370 204
0.073950343 0.82700002 0.052200239 1.4009322e-38 371 204
0.075400345 0.82700002 0.052200239 1.1802798e-38 372 204
-0.073234983 0.81900001 0.0502593 1.65981e-38 269 205
-0.071799003 0.81900001 0.0502593 1.6869967e-38 270 205
-0.070363015 0.81900001 0.0502593 1.5487033e-38 271 205
-0.068927035 0.81900001 0.0502593 1.5668826e-38 272 205
-0.067655869 0.82099998 0.050382029 1.5576272e-38 273 205
-0.066216379 0.82099998 0.050382029 1.6681505e-38 274 205
-0.064934701 0.82300001 0.050504766 1.6773701e-38 275 205
-0.063337415 0.82099998 0.050382029 1.7232887e-38 276 205
-0.061897919 0.82099998 0.050382029 1.7601669e-38 277 205
-0.060458437 0.82099998 0.050382029 1.7510916e-38 278 205
-0.059018951 0.82099998 0.050382029 1.760347e-38 279 205
-0.057579465 0.82099998 0.050382029 1.7603836e-38 280 205
-0.056003217 0.81900001 0.0502593 1.7696031e-38 281 205
-0.054567236 0.81900001 0.0502593 1.7420168e-38 282 205
-0.053131256 0.81900001 0.0502593 1.7327972e-38 283 205
-0.051821519 0.82099998 0.050382029 1.7327253e-38 284 205
-0.050382029 0.82099998 0.050382029 1.7235057e-38 285 205
-0.048942544 0.82099998 0.050382029 1.705031e-38 286 205
-0.04761878 0.82300001 0.050504766 1.6865918e-38 287 205
-0.046175785 0.82300001 0.050504766 1.6497858e-38 288 205
-0.044732794 0.82300001 0.050504766 1.6313827e-38 289 205
-0.043394998 0.82499999 0.0506275 1.6129076e-38 290 205
-0.041948497 0.82499999 0.0506275 1.5944684e-38 291 205
-0.040403813 0.82300001 0.050504766 1.5943968e-38 292 205
-0.038960818 0.82300001 0.050504766 1.5759218e-38 293 205
-0.037517827 0.82300001 0.050504766 1.5575182e-38 294 205
-0.036162499 0.82499999 0.0506275 1.5114205e-38 295 205
-0.034715999 0.82499999 0.0506275 1.5297147e-38 296 205
-0.033269498 0.82499999 0.0506275 1.5204952e-38 297 205
-0.031822998 0.82499999 0.0506275 1.47454e-38 298 205
-0.030376498 0.82499999 0.0506275 1.4192226e-38 299 205
-0.028929999 0.82499999 0.0506275 1.3915269e-38 300 205
-0.027483499 0.82499999 0.0506275 1.3454291e-38 301 205
-0.026036998 0.82499999 0.0506275 1.3176632e-38 302 205
-0.024590498 0.82499999 0.0506275 1.2623458e-38 303 205
-0.023200106 0.82700002 0.050750233 1.1794806e-38 304 205
-0.0217501 0.82700002 0.050750233 1.1610414e-38 305 205
-0.020300092 0.82700002 0.050750233 1.1150181e-38 306 205
-0.018941259 0.83099997 0.050995696 1.1057985e-38 307 205
-0.01748424 0.83099997 0.050995696 1.0965074e-38 308 205
-0.01602722 0.83099997 0.050995696 1.0965074e-38 309 205
-0.014605266 0.833 0.051118433 1.0872877e-38 310 205
-0.01314474 0.833 0.051118433 1.0872877e-38 311 205
-0.011684213 0.833 0.051118433 1.0688127e-38 312 205
-0.010223686 0.833 0.051118433 1.0688127e-38 313 205
-0.0087841991 0.83499998 0.051241163 1.0596657e-38 314 205
-0.0073201661 0.83499998 0.051241163 1.0504461e-38 315 205
-0.0058561331 0.83499998 0.051241163 1.0596662e-38 316 205
-0.0043920996 0.83499998 0.051241163 1.0596662e-38 317 205
-0.0029280665 0.83499998 0.051241163 1.0321871e-38 318 205
-0.0014640333 0.83499998 0.051241163 1.0321871e-38 319 205
0 0.83499998 0.051241163 1.0597377e-38 320 205
0.0014640333 0.83499998 0.051241163 1.0597377e-38 321 205
0.0029280665 0.83499998 0.051241163 1.1055837e-38 322 205
0.0043920996 0.83499998 0.051241163 1.1055837e-38 323 205
0.0058561331 0.83499998 0.051241163 1.0781041e-38 324 205
0.0073201661 0.83499998 0.051241163 1.0781041e-38 325 205
0.0087841991 0.83499998 0.051241163 1.0598085e-38 326 205
0.010248233 0.83499998 0.051241163 1.0598085e-38 327 205
0.011712266 0.83499998 0.051241163 1.0506616e-38 328 205
0.013207859 0.83700001 0.051363897 1.0414421e-38 329 205
0.014675399 0.83700001 0.051363897 1.0414065e-38 330 205
0.016104365 0.83499998 0.051241163 1.0229672e-38 331 205
0.017568398 0.83499998 0.051241163 1.0229672e-38 332 205
0.019032432 0.83499998 0.051241163 1.0321868e-38 333 205
0.020496465 0.83499998 0.051241163 1.0321868e-38 334 205
0.021960499 0.83499998 0.051241163 1.0321868e-38 335 205
0.023368426 0.833 0.051118433 1.0322588e-38 336 205
0.024828954 0.833 0.051118433 1.0322588e-38 337 205
0.02628948 0.833 0.051118433 1.0231471e-38 338 205
0.027750006 0.833 0.051118433 1.0231471e-38 339 205
0.029210532 0.833 0.051118433 1.0507332e-38 340 205
0.030671058 0.833 0.051118433 1.0507332e-38 341 205
0.032131586 0.833 0.051118433 1.0690645e-38 342 205
0.033592112 0.833 0.051118433 1.078284e-38 343 205
0.035052639 0.833 0.051118433 1.1058001e-38 344 205
0.036513168 0.833 0.051118433 1.1334948e-38 345 205
0.037882518 0.83099997 0.050995696 1.1151635e-38 346 205
0.039244857 0.829 0.050872963 1.1335667e-38 347 205
0.040698372 0.829 0.050872963 1.1890986e-38 348 205
0.042151887 0.829 0.050872963 1.244416e-38 349 205
0.0435002 0.82700002 0.050750233 1.3272478e-38 350 205
0.044950206 0.82700002 0.050750233 1.3549065e-38 351 205
0.046400212 0.82700002 0.050750233 1.3917848e-38 352 205
0.047850218 0.82700002 0.050750233 1.4102239e-38 353 205
0.049300224 0.82700002 0.050750233 1.4011485e-38 354 205
0.050750233 0.82700002 0.050750233 1.4196237e-38 355 205
0.052200239 0.82700002 0.050750233 1.4655413e-38 356 205
0.053520497 0.82499999 0.0506275 1.4839804e-38 357 205
0.054966997 0.82499999 0.0506275 1.5208584e-38 358 205
0.056413498 0.82499999 0.0506275 1.5392975e-38 359 205
0.057859998 0.82499999 0.0506275 1.5481561e-38 360 205
0.059306499 0.82499999 0.0506275 1.4098626e-38 361 205
0.060752995 0.82499999 0.0506275 1.2254363e-38 362 205
0.062199496 0.82499999 0.0506275 1.1793385e-38 363 205
0.063645996 0.82499999 0.0506275 1.2806462e-38 364 205
0.065092497 0.82499999 0.0506275 1.4926962e-38 365 205
0.066700302 0.82700002 0.050750233 1.5392235e-38 366 205
0.068150312 0.82700002 0.050750233 1.4839063e-38 367 205
0.069600314 0.82700002 0.050750233 1.4562476e-38 368 205
0.071050331 0.82700002 0.050750233 1.4378085e-38 369 205
0.072500333 0.82700002 0.050750233 1.3918548e-38 370 205
0.073950343 0.82700002 0.050750233 1.3734516e-38 371 205
0.075400345 0.82700002 0.050750233 1.1524747e-38 372 205
-0.073056139 0.81699997 0.048704091 1.5304449e-38 269 206
-0.071623661 0.81699997 0.048704091 1.5301511e-38 270 206
-0.07019119 0.81699997 0.048704091 1.5209315e-38 271 206
-0.068927035 0.81900001 0.048823319 1.6036514e-38 272 206
-0.067491055 0.81900001 0.048823319 1.6312741e-38 273 206
-0.066216379 0.82099998 0.048942544 1.6773707e-38 274 206
-0.064776897 0.82099998 0.048942544 1.6865902e-38 275 206
-0.063183114 0.81900001 0.048823319 1.7418352e-38 276 206
-0.061747137 0.81900001 0.048823319 1.7694937e-38 277 206
-0.060311157 0.81900001 0.048823319 1.7511272e-38 278 206
-0.058875177 0.81900001 0.048823319 1.7603467e-38 279 206
-0.057439201 0.81900001 0.048823319 1.7878981e-38 280 206
-0.056003217 0.81900001 0.048823319 1.7786426e-38 281 206
-0.054567236 0.81900001 0.048823319 1.7510918e-38 282 206
-0.053131256 0.81900001 0.048823319 1.7418723e-38 283 206
-0.05169528 0.81900001 0.048823319 1.723433e-38 284 206
-0.0502593 0.81900001 0.048823319 1.704994e-38 285 206
-0.048942544 0.82099998 0.048942544 1.6589685e-38 286 206
-0.047503054 0.82099998 0.048942544 1.6589685e-38 287 206
-0.046063572 0.82099998 0.048942544 1.6404577e-38 288 206
-0.044624086 0.82099998 0.048942544 1.6219827e-38 289 206
-0.043289799 0.82300001 0.049061771 1.6127631e-38 290 206
-0.041846808 0.82300001 0.049061771 1.5759207e-38 291 206
-0.040403813 0.82300001 0.049061771 1.5391501e-38 292 206
-0.038960818 0.82300001 0.049061771 1.5206751e-38 293 206
-0.037517827 0.82300001 0.049061771 1.5114188e-38 294 206
-0.036162499 0.82499999 0.049180996 1.4745047e-38 295 206
-0.034715999 0.82499999 0.049180996 1.4377339e-38 296 206
-0.033269498 0.82499999 0.049180996 1.3639774e-38 297 206
-0.031822998 0.82499999 0.049180996 1.3269547e-38 298 206
-0.030376498 0.82499999 0.049180996 1.2716373e-38 299 206
-0.028929999 0.82499999 0.049180996 1.2164275e-38 300 206
-0.027483499 0.82499999 0.049180996 1.1887689e-38 301 206
-0.02610012 0.82700002 0.049300224 1.1334534e-38 302 206
-0.024650112 0.82700002 0.049300224 1.142673e-38 303 206
-0.023200106 0.82700002 0.049300224 1.1791938e-38 304 206
-0.0217501 0.82700002 0.049300224 1.1699742e-38 305 206
-0.020349186 0.829 0.049419452 1.1424247e-38 306 206
-0.018941259 0.83099997 0.049538679 1.1240216e-38 307 206
-0.01748424 0.83099997 0.049538679 1.1056183e-38 308 206
-0.016065793 0.833 0.049657907 1.0963988e-38 309 206
-0.014605266 0.833 0.049657907 1.0688483e-38 310 206
-0.0131763 0.83499998 0.049777132 1.0688483e-38 311 206
-0.011712266 0.83499998 0.049777132 1.0595928e-38 312 206
-0.010248233 0.83499998 0.049777132 1.0595928e-38 313 206
-0.0087841991 0.83499998 0.049777132 1.0595928e-38 314 206
-0.0073201661 0.83499998 0.049777132 1.0595928e-38 315 206
-0.0058561331 0.83499998 0.049777132 1.0504817e-38 316 206
-0.0043920996 0.83499998 0.049777132 1.0504817e-38 317 206
-0.0029280665 0.83499998 0.049777132 1.0504461e-38 318 206
-0.0014640333 0.83499998 0.049777132 1.0596657e-38 319 206
0 0.83499998 0.049777132 1.0597013e-38 320 206
0.0014640333 0.83499998 0.049777132 1.0597013e-38 321 206
0.0029280665 0.83499998 0.049777132 1.1056189e-38 322 206
0.0043920996 0.83499998 0.049777132 1.1056189e-38 323 206
0.0058561331 0.83499998 0.049777132 1.0781394e-38 324 206
0.0073201661 0.83499998 0.049777132 1.0781394e-38 325 206
0.0087841991 0.83499998 0.049777132 1.0322571e-38 326 206
0.010248233 0.83499998 0.049777132 1.0322571e-38 327 206
0.011712266 0.83499998 0.049777132 1.050553e-38 328 206
0.013207859 0.83700001 0.049896359 1.050553e-38 329 206
0.014675399 0.83700001 0.049896359 1.0412982e-38 330 206
0.016142938 0.83700001 0.049896359 1.0228951e-38 331 206
0.017568398 0.83499998 0.049777132 1.0228953e-38 332 206
0.019032432 0.83499998 0.049777132 1.0228953e-38 333 206
0.020496465 0.83499998 0.049777132 1.0229672e-38 334 206
0.021960499 0.83499998 0.049777132 1.0229672e-38 335 206
0.023424532 0.83499998 0.049777132 1.0230025e-38 336 206
0.024828954 0.833 0.049657907 1.0230025e-38 337 206
0.02628948 0.833 0.049657907 1.0230741e-38 338 206
0.027750006 0.833 0.049657907 1.0230741e-38 339 206
0.029210532 0.833 0.049657907 1.0598085e-38 340 206
0.030671058 0.833 0.049657907 1.0598085e-38 341 206
0.032131586 0.833 0.049657907 1.0690282e-38 342 206
0.033592112 0.833 0.049657907 1.0874673e-38 343 206
0.035052639 0.833 0.049657907 1.12413e-38 344 206
0.036513168 0.833 0.049657907 1.1425692e-38 345 206
0.037882518 0.83099997 0.049538679 1.1425341e-38 346 206
0.039244857 0.829 0.049419452 1.1610093e-38 347 206
0.040698372 0.829 0.049419452 1.1337099e-38 348 206
0.042151887 0.829 0.049419452 1.152113e-38 349 206
0.0435002 0.82700002 0.049300224 1.2073932e-38 350 206
0.044950206 0.82700002 0.049300224 1.2627106e-38 351 206
0.046400212 0.82700002 0.049300224 1.327211e-38 352 206
0.047850218 0.82700002 0.049300224 1.3456501e-38 353 206
0.049300224 0.82700002 0.049300224 1.4101143e-38 354 206
0.050750233 0.82700002 0.049300224 1.419334e-38 355 206
0.052200239 0.82700002 0.049300224 1.4653242e-38 356 206
0.053520497 0.82499999 0.049180996 1.4837992e-38 357 206
0.054966997 0.82499999 0.049180996 1.4838356e-38 358 206
0.056276739 0.82300001 0.049061771 1.5115302e-38 359 206
0.057719734 0.82300001 0.049061771 1.4840157e-38 360 206
0.059162725 0.82300001 0.049061771 1.5208581e-38 361 206
0.06060572 0.82300001 0.049061771 1.4838735e-38 362 206
0.062048711 0.82300001 0.049061771 1.4654344e-38 363 206
0.06349171 0.82300001 0.049061771 1.4195881e-38 364 206
0.065092497 0.82499999 0.049180996 1.4564662e-38 365 206
0.066538997 0.82499999 0.049180996 1.4656842e-38 366 206
0.068150312 0.82700002 0.049300224 1.4472451e-38 367 206
0.069600314 0.82700002 0.049300224 1.428769e-38 368 206
0.071050331 0.82700002 0.049300224 1.410294e-38 369 206
0.072500333 0.82700002 0.049300224 1.3643036e-38 370 206
0.073950343 0.82700002 0.049300224 1.3550841e-38 371 206
0.075400345 0.82700002 0.049300224 1.2444891e-38 372 206
0.076850355 0.82700002 0.049300224 1.2260141e-38 373 206
-0.074488603 0.81699997 0.047271617 1.5948319e-38 268 207
-0.073056139 0.81699997 0.047271617 1.4749776e-38 269 207
-0.071623661 0.81699997 0.047271617 1.5575514e-38 270 207
-0.07019119 0.81699997 0.047271617 1.6036492e-38 271 207
-0.068927035 0.81900001 0.047387339 1.6588574e-38 272 207
-0.067491055 0.81900001 0.047387339 1.6957357e-38 273 207
-0.066055074 0.81900001 0.047387339 1.686625e-38 274 207
-0.064619094 0.81900001 0.047387339 1.7051e-38 275 207
-0.063183114 0.81900001 0.047387339 1.732688e-38 276 207
-0.061747137 0.81900001 0.047387339 1.7511272e-38 277 207
-0.060311157 0.81900001 0.047387339 1.7510921e-38 278 207
-0.058875177 0.81900001 0.047387339 1.7603117e-38 279 207
-0.057439201 0.81900001 0.047387339 1.7235426e-38 280 207
-0.056003217 0.81900001 0.047387339 1.714323e-38 281 207
-0.054567236 0.81900001 0.047387339 1.7142509e-38 282 207
-0.053131256 0.81900001 0.047387339 1.6958116e-38 283 207
-0.05169528 0.81900001 0.047387339 1.6865915e-38 284 207
-0.0502593 0.81900001 0.047387339 1.6589688e-38 285 207
-0.048823319 0.81900001 0.047387339 1.6129796e-38 286 207
-0.047387339 0.81900001 0.047387339 1.5853568e-38 287 207
-0.045951359 0.81900001 0.047387339 1.5944331e-38 288 207
-0.044515379 0.81900001 0.047387339 1.575994e-38 289 207
-0.043184597 0.82099998 0.047503054 1.5392585e-38 290 207
-0.041846808 0.82300001 0.04761878 1.5023804e-38 291 207
-0.040403813 0.82300001 0.04761878 1.5114188e-38 292 207
-0.038960818 0.82300001 0.04761878 1.4929797e-38 293 207
-0.037517827 0.82300001 0.04761878 1.4469522e-38 294 207
-0.036162499 0.82499999 0.047734499 1.4100381e-38 295 207
-0.034715999 0.82499999 0.047734499 1.354721e-38 296 207
-0.033269498 0.82499999 0.047734499 1.2994036e-38 297 207
