# .PCD v.7 - Point Cloud Data file format
FIELDS x y z rgb imX imY
SIZE 4 4 4 4 4 4
TYPE F F F F F F
COUNT 1 1 1 1 1 1
WIDTH 834
HEIGHT 1
VIEWPOINT 0 0 0 1 0 0 0
POINTS 834
DATA ascii
0.040168867 0.79000002 -0.0069256667 1.8435064e-38 349 245
0.041554 0.79000002 -0.0069256667 1.8526538e-38 350 245
0.04293913 0.79000002 -0.0069256667 1.8526538e-38 351 245
0.044324268 0.79000002 -0.0069256667 1.8802403e-38 352 245
0.045709401 0.79000002 -0.0069256667 1.8802403e-38 353 245
0.047094531 0.79000002 -0.0069256667 1.88024e-38 354 245
0.048479669 0.79000002 -0.0069256667 1.88024e-38 355 245
0.049801677 0.78899997 -0.0069168997 1.8802406e-38 356 245
0.051185057 0.78899997 -0.0069168997 1.8802406e-38 357 245
0.052568436 0.78899997 -0.0069168997 1.8893518e-38 358 245
0.053951818 0.78899997 -0.0069168997 1.8893518e-38 359 245
0.055335198 0.78899997 -0.0069168997 1.8985348e-38 360 245
0.056718577 0.78899997 -0.0069168997 1.8616207e-38 361 245
0.05810196 0.78899997 -0.0069168997 1.7876814e-38 362 245
0.059485335 0.78899997 -0.0069168997 1.6586076e-38 363 245
0.060868718 0.78899997 -0.0069168997 1.5935273e-38 364 245
0.062252093 0.78899997 -0.0069168997 1.5105511e-38 365 245
0.063635476 0.78899997 -0.0069168997 1.3727285e-38 366 245
0.065018855 0.78899997 -0.0069168997 1.446485e-38 367 245
0.066233918 0.787 -0.0068993662 1.4284835e-38 368 245
0.067613788 0.787 -0.0068993662 1.5852161e-38 369 245
0.068993665 0.787 -0.0068993662 1.6682291e-38 370 245
0.070373543 0.787 -0.0068993662 1.714327e-38 371 245
0.071935758 0.78899997 -0.0069168997 1.7510607e-38 372 245
0.07331913 0.78899997 -0.0069168997 1.7418412e-38 373 245
0.074702516 0.78899997 -0.0069168997 1.7050707e-38 374 245
0.076085895 0.78899997 -0.0069168997 1.7050707e-38 375 245
0.077469274 0.78899997 -0.0069168997 1.7418074e-38 376 245
0.078852654 0.78899997 -0.0069168997 1.769502e-38 377 245
0.080236033 0.78899997 -0.0069168997 1.7511018e-38 378 245
0.081619412 0.78899997 -0.0069168997 1.7695409e-38 379 245
-0.032948639 0.78299999 -0.0082371598 1.8893563e-38 296 246
-0.031575777 0.78299999 -0.0082371598 1.8801367e-38 297 246
-0.030125774 0.78100002 -0.0082161194 1.8801346e-38 298 246
-0.028830061 0.78299999 -0.0082371598 1.9077932e-38 299 246
-0.027457198 0.78299999 -0.0082371598 1.9353774e-38 300 246
-0.026084339 0.78299999 -0.0082371598 1.944597e-38 301 246
-0.024711479 0.78299999 -0.0082371598 1.9907649e-38 302 246
-0.023398234 0.78500003 -0.0082582003 1.9999845e-38 303 246
-0.022077972 0.787 -0.0082792398 1.9724323e-38 304 246
-0.0206981 0.787 -0.0082792398 1.9724323e-38 305 246
-0.019318225 0.787 -0.0082792398 1.9907632e-38 306 246
-0.017983939 0.78899997 -0.0083002793 1.9999829e-38 307 246
-0.016600559 0.78899997 -0.0083002793 2.009095e-38 308 246
-0.015217179 0.78899997 -0.0083002793 2.009095e-38 309 246
-0.013833799 0.78899997 -0.0083002793 2.0090231e-38 310 246
-0.012450419 0.78899997 -0.0083002793 1.9998035e-38 311 246
-0.011067039 0.78899997 -0.0083002793 1.9905484e-38 312 246
-0.0096836593 0.78899997 -0.0083002793 1.9905484e-38 313 246
-0.0083002793 0.78899997 -0.0083002793 1.9812216e-38 314 246
-0.0069168997 0.78899997 -0.0083002793 1.9812216e-38 315 246
-0.0055405335 0.79000002 -0.0083108004 1.9628551e-38 316 246
-0.0041554002 0.79000002 -0.0083108004 1.9536354e-38 317 246
-0.0027702667 0.79000002 -0.0083108004 1.9628198e-38 318 246
-0.0013833799 0.78899997 -0.0083002793 1.9443805e-38 319 246
0 0.78899997 -0.0083002793 1.9627117e-38 320 246
0.0013833799 0.78899997 -0.0083002793 1.9534922e-38 321 246
0.0027667598 0.78899997 -0.0083002793 1.9168292e-38 322 246
0.0041501396 0.78899997 -0.0083002793 1.9076096e-38 323 246
0.0055335197 0.78899997 -0.0083002793 1.8984619e-38 324 246
0.0069168997 0.78899997 -0.0083002793 1.8984619e-38 325 246
0.0083002793 0.78899997 -0.0083002793 1.8616916e-38 326 246
0.0096836593 0.78899997 -0.0083002793 1.8432524e-38 327 246
0.011067039 0.78899997 -0.0083002793 1.8616195e-38 328 246
0.012450419 0.78899997 -0.0083002793 1.8523641e-38 329 246
0.013851333 0.79000002 -0.0083108004 1.7790395e-38 330 246
0.015236467 0.79000002 -0.0083108004 1.7790395e-38 331 246
0.016621601 0.79000002 -0.0083108004 1.7972635e-38 332 246
0.017983939 0.78899997 -0.0083002793 1.7972635e-38 333 246
0.019367319 0.78899997 -0.0083002793 1.7880439e-38 334 246
0.020777 0.79000002 -0.0083108004 1.7788244e-38 335 246
0.022162134 0.79000002 -0.0083108004 1.8063389e-38 336 246
0.023547266 0.79000002 -0.0083108004 1.8155584e-38 337 246
0.024932399 0.79000002 -0.0083108004 1.8430727e-38 338 246
0.026317533 0.79000002 -0.0083108004 1.8522922e-38 339 246
0.027772799 0.792 -0.0083318399 1.8156301e-38 340 246
0.029161438 0.792 -0.0083318399 1.8156301e-38 341 246
0.030550079 0.792 -0.0083318399 1.8339976e-38 342 246
0.031858064 0.79000002 -0.0083108004 1.8339976e-38 343 246
0.033243202 0.79000002 -0.0083108004 1.8432176e-38 344 246
0.034628332 0.79000002 -0.0083108004 1.8339979e-38 345 246
0.036013465 0.79000002 -0.0083108004 1.8339979e-38 346 246
0.037398599 0.79000002 -0.0083108004 1.8339979e-38 347 246
0.038783733 0.79000002 -0.0083108004 1.7973357e-38 348 246
0.040168867 0.79000002 -0.0083108004 1.8065554e-38 349 246
0.041554 0.79000002 -0.0083108004 1.7974084e-38 350 246
0.04293913 0.79000002 -0.0083108004 1.7974084e-38 351 246
0.044324268 0.79000002 -0.0083108004 1.8066638e-38 352 246
0.045709401 0.79000002 -0.0083108004 1.825067e-38 353 246
0.047094531 0.79000002 -0.0083108004 1.8708761e-38 354 246
0.048418298 0.78899997 -0.0083002793 1.8800957e-38 355 246
0.049801677 0.78899997 -0.0083002793 1.8984266e-38 356 246
0.051185057 0.78899997 -0.0083002793 1.9076462e-38 357 246
0.052568436 0.78899997 -0.0083002793 1.9076462e-38 358 246
0.053951818 0.78899997 -0.0083002793 1.9076462e-38 359 246
0.055335198 0.78899997 -0.0083002793 1.9077171e-38 360 246
0.056718577 0.78899997 -0.0083002793 1.9169366e-38 361 246
0.05810196 0.78899997 -0.0083002793 1.9535272e-38 362 246
0.059485335 0.78899997 -0.0083002793 1.8613676e-38 363 246
0.060868718 0.78899997 -0.0083002793 1.8147989e-38 364 246
0.062252093 0.78899997 -0.0083002793 1.5934936e-38 365 246
0.063474171 0.787 -0.0082792398 1.4461944e-38 366 246
0.064854041 0.787 -0.0082792398 1.3263413e-38 367 246
0.066233918 0.787 -0.0082792398 1.2805354e-38 368 246
0.067441963 0.78500003 -0.0082582003 1.3819146e-38 369 246
0.068818331 0.78500003 -0.0082582003 1.3917141e-38 370 246
0.070373543 0.787 -0.0082792398 1.5300076e-38 371 246
0.071753412 0.787 -0.0082792398 1.7050001e-38 372 246
0.073133282 0.787 -0.0082792398 1.7603174e-38 373 246
0.074702516 0.78899997 -0.0083002793 1.7784675e-38 374 246
0.076085895 0.78899997 -0.0083002793 1.7784675e-38 375 246
0.077469274 0.78899997 -0.0083002793 1.7601724e-38 376 246
0.078852654 0.78899997 -0.0083002793 1.7601724e-38 377 246
0.080236033 0.78899997 -0.0083002793 1.6958898e-38 378 246
0.081412524 0.787 -0.0082792398 1.7327679e-38 379 246
0.082792401 0.787 -0.0082792398 1.7419544e-38 380 246
0.084172271 0.787 -0.0082792398 1.7696131e-38 381 246
-0.035557598 0.77999997 -0.0095731998 1.9171223e-38 294 247
-0.034189999 0.77999997 -0.0095731998 1.8710245e-38 295 247
-0.032948639 0.78299999 -0.0096100196 1.9260863e-38 296 247
-0.031575777 0.78299999 -0.0096100196 1.9353058e-38 297 247
-0.030125774 0.78100002 -0.0095854728 1.9354478e-38 298 247
-0.028756421 0.78100002 -0.0095854728 1.9538869e-38 299 247
-0.027457198 0.78299999 -0.0096100196 1.9722888e-38 300 247
-0.026017714 0.78100002 -0.0095854728 1.9815083e-38 301 247
-0.024648361 0.78100002 -0.0095854728 2.00913e-38 302 247
-0.02333862 0.78299999 -0.0096100196 2.0183496e-38 303 247
-0.022021867 0.78500003 -0.0096345674 2.01835e-38 304 247
-0.020645501 0.78500003 -0.0096345674 2.0090944e-38 305 247
-0.019269135 0.78500003 -0.0096345674 2.0183144e-38 306 247
-0.017938353 0.787 -0.0096591124 2.0090947e-38 307 247
-0.01655848 0.787 -0.0096591124 1.9907282e-38 308 247
-0.015178605 0.787 -0.0096591124 1.9815086e-38 309 247
-0.013833799 0.78899997 -0.0096836593 1.9630339e-38 310 247
-0.012450419 0.78899997 -0.0096836593 1.9446308e-38 311 247
-0.011038986 0.787 -0.0096591124 1.9537074e-38 312 247
-0.0096591124 0.787 -0.0096591124 1.9260846e-38 313 247
-0.0083002793 0.78899997 -0.0096836593 1.9169364e-38 314 247
-0.0069168997 0.78899997 -0.0096836593 1.8984972e-38 315 247
-0.0055335197 0.78899997 -0.0096836593 1.8801307e-38 316 247
-0.0041501396 0.78899997 -0.0096836593 1.8893503e-38 317 247
-0.0027667598 0.78899997 -0.0096836593 1.8616938e-38 318 247
-0.0013833799 0.78899997 -0.0096836593 1.8524743e-38 319 247
0 0.78899997 -0.0096836593 1.8890648e-38 320 247
0.0013833799 0.78899997 -0.0096836593 1.8890648e-38 321 247
0.0027667598 0.78899997 -0.0096836593 1.8340699e-38 322 247
0.0041501396 0.78899997 -0.0096836593 1.8248502e-38 323 247
0.0055335197 0.78899997 -0.0096836593 1.8156306e-38 324 247
0.0069168997 0.78899997 -0.0096836593 1.8156306e-38 325 247
0.0083002793 0.78899997 -0.0096836593 1.7971566e-38 326 247
0.0096836593 0.78899997 -0.0096836593 1.7971566e-38 327 247
0.011067039 0.78899997 -0.0096836593 1.7604944e-38 328 247
0.012450419 0.78899997 -0.0096836593 1.7420913e-38 329 247
0.013851333 0.79000002 -0.0096959332 1.7604932e-38 330 247
0.015236467 0.79000002 -0.0096959332 1.742054e-38 331 247
0.016621601 0.79000002 -0.0096959332 1.7695315e-38 332 247
0.017983939 0.78899997 -0.0096836593 1.7695315e-38 333 247
0.019367319 0.78899997 -0.0096836593 1.7327987e-38 334 247
0.0207507 0.78899997 -0.0096836593 1.7327987e-38 335 247
0.022134079 0.78899997 -0.0096836593 1.7419111e-38 336 247
0.023517458 0.78899997 -0.0096836593 1.7326915e-38 337 247
0.024932399 0.79000002 -0.0096959332 1.7051758e-38 338 247
0.026317533 0.79000002 -0.0096959332 1.7143953e-38 339 247
0.027702667 0.79000002 -0.0096959332 1.7602782e-38 340 247
0.029087799 0.79000002 -0.0096959332 1.7694979e-38 341 247
0.030472934 0.79000002 -0.0096959332 1.7419484e-38 342 247
0.031858064 0.79000002 -0.0096959332 1.7511679e-38 343 247
0.033243202 0.79000002 -0.0096959332 1.7787175e-38 344 247
0.034628332 0.79000002 -0.0096959332 1.7787175e-38 345 247
0.036013465 0.79000002 -0.0096959332 1.7328715e-38 346 247
0.037398599 0.79000002 -0.0096959332 1.7421269e-38 347 247
0.038783733 0.79000002 -0.0096959332 1.7512386e-38 348 247
0.040118016 0.78899997 -0.0096836593 1.7419831e-38 349 247
0.041501399 0.78899997 -0.0096836593 1.7604581e-38 350 247
0.04293913 0.79000002 -0.0096959332 1.7696777e-38 351 247
0.044324268 0.79000002 -0.0096959332 1.7604947e-38 352 247
0.045709401 0.79000002 -0.0096959332 1.7604947e-38 353 247
0.047094531 0.79000002 -0.0096959332 1.8065557e-38 354 247
0.048418298 0.78899997 -0.0096836593 1.797336e-38 355 247
0.049801677 0.78899997 -0.0096836593 1.8156306e-38 356 247
0.051185057 0.78899997 -0.0096836593 1.8248502e-38 357 247
0.052568436 0.78899997 -0.0096836593 1.8157752e-38 358 247
0.053951818 0.78899997 -0.0096836593 1.8157752e-38 359 247
0.055194929 0.787 -0.0096591124 1.8249582e-38 360 247
0.056574803 0.787 -0.0096591124 1.8433613e-38 361 247
0.05795468 0.787 -0.0096591124 1.8800954e-38 362 247
0.05933455 0.787 -0.0096591124 1.8800954e-38 363 247
0.06071442 0.787 -0.0096591124 1.8613676e-38 364 247
0.062094301 0.787 -0.0096591124 1.7230741e-38 365 247
0.063312866 0.78500003 -0.0096345674 1.6120399e-38 366 247
0.064689234 0.78500003 -0.0096345674 1.4369042e-38 367 247
0.066065602 0.78500003 -0.0096345674 1.3076893e-38 368 247
0.067441963 0.78500003 -0.0096345674 1.270847e-38 369 247
0.068818331 0.78500003 -0.0096345674 1.1518257e-38 370 247
0.070194699 0.78500003 -0.0096345674 1.3085942e-38 371 247
0.071571067 0.78500003 -0.0096345674 1.4378492e-38 372 247
0.073133282 0.787 -0.0096591124 1.6130208e-38 373 247
0.07451316 0.787 -0.0096591124 1.7233669e-38 374 247
0.07589303 0.787 -0.0096591124 1.7602453e-38 375 247
0.077272899 0.787 -0.0096591124 1.7419133e-38 376 247
0.078652777 0.787 -0.0096591124 1.7326938e-38 377 247
0.080032654 0.787 -0.0096591124 1.7050354e-38 378 247
0.081412524 0.787 -0.0096591124 1.7142549e-38 379 247
0.082582004 0.78500003 -0.0096345674 1.6867071e-38 380 247
0.083744459 0.78299999 -0.0096100196 1.7420245e-38 381 247
0.08511731 0.78299999 -0.0096100196 1.7879093e-38 382 247
-0.036925197 0.77999997 -0.010940799 1.8986112e-38 293 248
-0.035557598 0.77999997 -0.010940799 1.8802406e-38 294 248
-0.034189999 0.77999997 -0.010940799 1.9078632e-38 295 248
-0.032822397 0.77999997 -0.010940799 1.981438e-38 296 248
-0.031454798 0.77999997 -0.010940799 1.9906934e-38 297 248
-0.030125774 0.78100002 -0.010954826 2.0182794e-38 298 248
-0.028756421 0.78100002 -0.010954826 2.0182794e-38 299 248
-0.027387068 0.78100002 -0.010954826 1.9907635e-38 300 248
-0.026017714 0.78100002 -0.010954826 1.9907635e-38 301 248
-0.024648361 0.78100002 -0.010954826 2.0183144e-38 302 248
-0.023279008 0.78100002 -0.010954826 2.0183144e-38 303 248
-0.021965759 0.78299999 -0.010982879 2.0182071e-38 304 248
-0.0205929 0.78299999 -0.010982879 2.0182071e-38 305 248
-0.019220039 0.78299999 -0.010982879 2.0089881e-38 306 248
-0.017892767 0.78500003 -0.011010934 1.9997326e-38 307 248
-0.016516401 0.78500003 -0.011010934 1.9905131e-38 308 248
-0.015140033 0.78500003 -0.011010934 1.9812935e-38 309 248
-0.013798732 0.787 -0.011038986 1.9537422e-38 310 248
-0.01241886 0.787 -0.011038986 1.9261194e-38 311 248
-0.011038986 0.787 -0.011038986 1.9260117e-38 312 248
-0.0096591124 0.787 -0.011038986 1.9260117e-38 313 248
-0.0082792398 0.787 -0.011038986 1.8891335e-38 314 248
-0.0068993662 0.787 -0.011038986 1.8706944e-38 315 248
-0.005519493 0.787 -0.011038986 1.8431801e-38 316 248
-0.0041501396 0.78899997 -0.011067039 1.8431801e-38 317 248
-0.0027667598 0.78899997 -0.011067039 1.8155587e-38 318 248
-0.0013798733 0.787 -0.011038986 1.8155587e-38 319 248
0 0.787 -0.011038986 1.8614044e-38 320 248
0.0013798733 0.787 -0.011038986 1.852149e-38 321 248
0.0027597465 0.787 -0.011038986 1.7787881e-38 322 248
0.0041396199 0.787 -0.011038986 1.7695327e-38 323 248
0.005519493 0.787 -0.011038986 1.7695332e-38 324 248
0.0068993662 0.787 -0.011038986 1.7602776e-38 325 248
0.0082792398 0.787 -0.011038986 1.7603132e-38 326 248
0.0096836593 0.78899997 -0.011067039 1.7603132e-38 327 248
0.011067039 0.78899997 -0.011067039 1.732725e-38 328 248
0.012450419 0.78899997 -0.011067039 1.7235055e-38 329 248
0.013833799 0.78899997 -0.011067039 1.7234327e-38 330 248
0.015217179 0.78899997 -0.011067039 1.7234327e-38 331 248
0.016621601 0.79000002 -0.011081067 1.7601319e-38 332 248
0.017983939 0.78899997 -0.011067039 1.7601319e-38 333 248
0.019367319 0.78899997 -0.011067039 1.7418007e-38 334 248
0.0207507 0.78899997 -0.011067039 1.7325451e-38 335 248
0.022134079 0.78899997 -0.011067039 1.7233974e-38 336 248
0.023517458 0.78899997 -0.011067039 1.7049943e-38 337 248
0.024932399 0.79000002 -0.011081067 1.6682605e-38 338 248
0.026317533 0.79000002 -0.011081067 1.6774801e-38 339 248
0.027702667 0.79000002 -0.011081067 1.7141802e-38 340 248
0.029087799 0.79000002 -0.011081067 1.7141802e-38 341 248
0.030472934 0.79000002 -0.011081067 1.7234004e-38 342 248
0.031858064 0.79000002 -0.011081067 1.7326199e-38 343 248
0.033201117 0.78899997 -0.011067039 1.7509143e-38 344 248
0.034584496 0.78899997 -0.011067039 1.7509143e-38 345 248
0.035967879 0.78899997 -0.011067039 1.7509143e-38 346 248
0.037351258 0.78899997 -0.011067039 1.7416947e-38 347 248
0.038734637 0.78899997 -0.011067039 1.6681899e-38 348 248
0.040118016 0.78899997 -0.011067039 1.6774095e-38 349 248
0.041501399 0.78899997 -0.011067039 1.6958846e-38 350 248
0.042884778 0.78899997 -0.011067039 1.6958846e-38 351 248
0.044268157 0.78899997 -0.011067039 1.7235076e-38 352 248
0.045651536 0.78899997 -0.011067039 1.7235076e-38 353 248
0.047034916 0.78899997 -0.011067039 1.7052126e-38 354 248
0.048418298 0.78899997 -0.011067039 1.7144322e-38 355 248
0.049801677 0.78899997 -0.011067039 1.7420187e-38 356 248
0.051185057 0.78899997 -0.011067039 1.7512383e-38 357 248
0.052435186 0.787 -0.011038986 1.8155584e-38 358 248
0.053815059 0.787 -0.011038986 1.824778e-38 359 248
0.055194929 0.787 -0.011038986 1.8431095e-38 360 248
0.056574803 0.787 -0.011038986 1.8523291e-38 361 248
0.05795468 0.787 -0.011038986 1.8431825e-38 362 248
0.05933455 0.787 -0.011038986 1.8431825e-38 363 248
0.060560133 0.78500003 -0.011010934 1.8615503e-38 364 248
0.061936498 0.78500003 -0.011010934 1.8708058e-38 365 248
0.063312866 0.78500003 -0.011010934 1.8611521e-38 366 248
0.064689234 0.78500003 -0.011010934 1.6491021e-38 367 248
0.066065602 0.78500003 -0.011010934 1.4829312e-38 368 248
0.067270137 0.78299999 -0.010982879 1.243223e-38 369 248
0.068643004 0.78299999 -0.010982879 1.0686647e-38 370 248
0.070015855 0.78299999 -0.010982879 1.1239821e-38 371 248
0.071388714 0.78299999 -0.010982879 1.0875395e-38 372 248
0.072947428 0.78500003 -0.011010934 1.2903699e-38 373 248
0.074323803 0.78500003 -0.011010934 1.5391921e-38 374 248
0.075700171 0.78500003 -0.011010934 1.668266e-38 375 248
0.077076539 0.78500003 -0.011010934 1.7235818e-38 376 248
0.0784529 0.78500003 -0.011010934 1.6958871e-38 377 248
0.079829268 0.78500003 -0.011010934 1.7142524e-38 378 248
0.081205636 0.78500003 -0.011010934 1.6958493e-38 379 248
0.0823716 0.78299999 -0.010982879 1.6590818e-38 380 248
0.083744459 0.78299999 -0.010982879 1.6867404e-38 381 248
0.08511731 0.78299999 -0.010982879 1.7144029e-38 382 248
0.086490177 0.78299999 -0.010982879 1.7420617e-38 383 248
-0.040922798 0.778 -0.012276839 1.9355983e-38 290 249
-0.039558705 0.778 -0.012276839 1.8987561e-38 291 249
-0.038194612 0.778 -0.012276839 1.8985715e-38 292 249
-0.036925197 0.77999997 -0.012308398 1.9077911e-38 293 249
-0.035557598 0.77999997 -0.012308398 1.9446308e-38 294 249
-0.034189999 0.77999997 -0.012308398 1.9722535e-38 295 249
-0.032822397 0.77999997 -0.012308398 2.0090594e-38 296 249
-0.031454798 0.77999997 -0.012308398 2.0090594e-38 297 249
-0.030087199 0.77999997 -0.012308398 2.0182424e-38 298 249
-0.028719598 0.77999997 -0.012308398 2.0182424e-38 299 249
-0.027387068 0.78100002 -0.01232418 2.0090944e-38 300 249
-0.026017714 0.78100002 -0.01232418 2.01835e-38 301 249
-0.024648361 0.78100002 -0.01232418 1.9999479e-38 302 249
-0.023279008 0.78100002 -0.01232418 1.9907282e-38 303 249
-0.021909652 0.78100002 -0.01232418 1.9721816e-38 304 249
-0.020540299 0.78100002 -0.01232418 1.9721816e-38 305 249
-0.019170946 0.78100002 -0.01232418 1.9812935e-38 306 249
-0.017847179 0.78299999 -0.012355739 1.9628904e-38 307 249
-0.01647432 0.78299999 -0.012355739 1.9444877e-38 308 249
-0.01510146 0.78299999 -0.012355739 1.9168292e-38 309 249
-0.013728599 0.78299999 -0.012355739 1.8984616e-38 310 249
-0.012355739 0.78299999 -0.012355739 1.8800585e-38 311 249
-0.010982879 0.78299999 -0.012355739 1.8708037e-38 312 249
-0.0096345674 0.78500003 -0.0123873 1.8523644e-38 313 249
-0.0082582003 0.78500003 -0.0123873 1.8431448e-38 314 249
-0.0068818335 0.78500003 -0.0123873 1.8339253e-38 315 249
-0.0055054668 0.78500003 -0.0123873 1.8154863e-38 316 249
-0.0041396199 0.787 -0.01241886 1.8062667e-38 317 249
-0.0027597465 0.787 -0.01241886 1.8062317e-38 318 249
-0.0013798733 0.787 -0.01241886 1.7970121e-38 319 249
0 0.787 -0.01241886 1.7970121e-38 320 249
0.0013798733 0.787 -0.01241886 1.7877924e-38 321 249
0.0027597465 0.787 -0.01241886 1.7602413e-38 322 249
0.0041396199 0.787 -0.01241886 1.7602413e-38 323 249
0.005519493 0.787 -0.01241886 1.7509865e-38 324 249
0.0068993662 0.787 -0.01241886 1.7509865e-38 325 249
0.0082792398 0.787 -0.01241886 1.6867001e-38 326 249
0.0096591124 0.787 -0.01241886 1.6590054e-38 327 249
0.011067039 0.78899997 -0.012450419 1.7049214e-38 328 249
0.012450419 0.78899997 -0.012450419 1.6865183e-38 329 249
0.013833799 0.78899997 -0.012450419 1.6772985e-38 330 249
0.015217179 0.78899997 -0.012450419 1.6772985e-38 331 249
0.016600559 0.78899997 -0.012450419 1.6680438e-38 332 249
0.017983939 0.78899997 -0.012450419 1.6680438e-38 333 249
0.019367319 0.78899997 -0.012450419 1.6221978e-38 334 249
0.0207507 0.78899997 -0.012450419 1.6037586e-38 335 249
0.022134079 0.78899997 -0.012450419 1.6220901e-38 336 249
0.023517458 0.78899997 -0.012450419 1.6220901e-38 337 249
0.024900839 0.78899997 -0.012450419 1.594504e-38 338 249
0.026284218 0.78899997 -0.012450419 1.594504e-38 339 249
0.027667599 0.78899997 -0.012450419 1.6220195e-38 340 249
0.02905098 0.78899997 -0.012450419 1.6312391e-38 341 249
0.030434359 0.78899997 -0.012450419 1.594578e-38 342 249
0.031817738 0.78899997 -0.012450419 1.6037976e-38 343 249
0.033201117 0.78899997 -0.012450419 1.6312038e-38 344 249
0.034584496 0.78899997 -0.012450419 1.6312038e-38 345 249
0.035967879 0.78899997 -0.012450419 1.6221278e-38 346 249
0.037351258 0.78899997 -0.012450419 1.6129081e-38 347 249
0.038734637 0.78899997 -0.012450419 1.5761022e-38 348 249
0.040118016 0.78899997 -0.012450419 1.5761022e-38 349 249
0.041501399 0.78899997 -0.012450419 1.6220925e-38 350 249
0.042884778 0.78899997 -0.012450419 1.6313121e-38 351 249
0.044268157 0.78899997 -0.012450419 1.6039051e-38 352 249
0.045651536 0.78899997 -0.012450419 1.6315638e-38 353 249
0.047034916 0.78899997 -0.012450419 1.6498955e-38 354 249
0.048418298 0.78899997 -0.012450419 1.6591152e-38 355 249
0.049675439 0.787 -0.01241886 1.6958856e-38 356 249
0.051055312 0.787 -0.01241886 1.6958856e-38 357 249
0.052435186 0.787 -0.01241886 1.7051407e-38 358 249
0.053815059 0.787 -0.01241886 1.7327634e-38 359 249
0.055054668 0.78500003 -0.0123873 1.7419481e-38 360 249
0.056431033 0.78500003 -0.0123873 1.7604231e-38 361 249
0.057807401 0.78500003 -0.0123873 1.7879739e-38 362 249
0.059183765 0.78500003 -0.0123873 1.7971934e-38 363 249
0.060560133 0.78500003 -0.0123873 1.8339998e-38 364 249
0.061936498 0.78500003 -0.0123873 1.8524389e-38 365 249
0.063151553 0.78299999 -0.012355739 1.8707686e-38 366 249
0.064524412 0.78299999 -0.012355739 1.7693533e-38 367 249
0.065897278 0.78299999 -0.012355739 1.7320769e-38 368 249
0.067270137 0.78299999 -0.012355739 1.5384661e-38 369 249
0.068643004 0.78299999 -0.012355739 1.3907726e-38 370 249
0.070015855 0.78299999 -0.012355739 1.3077965e-38 371 249
0.071388714 0.78299999 -0.012355739 1.123767e-38 372 249
0.07276158 0.78299999 -0.012355739 1.1329865e-38 373 249
0.074134432 0.78299999 -0.012355739 1.1615841e-38 374 249
0.075507298 0.78299999 -0.012355739 1.3828896e-38 375 249
0.076880157 0.78299999 -0.012355739 1.5670291e-38 376 249
0.078253016 0.78299999 -0.012355739 1.6407856e-38 377 249
0.079625882 0.78299999 -0.012355739 1.6958856e-38 378 249
0.080998734 0.78299999 -0.012355739 1.6774465e-38 379 249
0.0823716 0.78299999 -0.012355739 1.6680843e-38 380 249
0.083530553 0.78100002 -0.01232418 1.695779e-38 381 249
0.084899902 0.78100002 -0.01232418 1.6775224e-38 382 249
0.086269259 0.78100002 -0.01232418 1.6959617e-38 383 249
0.087638609 0.78100002 -0.01232418 1.7143313e-38 384 249
-0.042286891 0.778 -0.013640933 1.8433658e-38 289 250
-0.040922798 0.778 -0.013640933 1.8985345e-38 290 250
-0.039558705 0.778 -0.013640933 1.9261932e-38 291 250
-0.038194612 0.778 -0.013640933 1.962962e-38 292 250
-0.036830518 0.778 -0.013640933 1.981437e-38 293 250
-0.035466425 0.778 -0.013640933 1.990656e-38 294 250
-0.034189999 0.77999997 -0.013675999 2.009095e-38 295 250
-0.032738242 0.778 -0.013640933 2.0274624e-38 296 250
-0.031374145 0.778 -0.013640933 2.0274624e-38 297 250
-0.030087199 0.77999997 -0.013675999 1.9907282e-38 298 250
-0.028719598 0.77999997 -0.013675999 1.9907282e-38 299 250
-0.027351998 0.77999997 -0.013675999 1.9907282e-38 300 250
-0.025984399 0.77999997 -0.013675999 1.9907282e-38 301 250
-0.024616797 0.77999997 -0.013675999 1.9631421e-38 302 250
-0.023249198 0.77999997 -0.013675999 1.9539225e-38 303 250
-0.021909652 0.78100002 -0.013693534 1.9261559e-38 304 250
-0.020513998 0.77999997 -0.013675999 1.9169364e-38 305 250
-0.0191464 0.77999997 -0.013675999 1.9260843e-38 306 250
-0.017847179 0.78299999 -0.013728599 1.9168648e-38 307 250
-0.01647432 0.78299999 -0.013728599 1.8984266e-38 308 250
-0.01510146 0.78299999 -0.013728599 1.8708039e-38 309 250
-0.013728599 0.78299999 -0.013728599 1.8615488e-38 310 250
-0.012355739 0.78299999 -0.013728599 1.8523291e-38 311 250
-0.010982879 0.78299999 -0.013728599 1.8431092e-38 312 250
-0.0096100196 0.78299999 -0.013728599 1.8154866e-38 313 250
-0.0082371598 0.78299999 -0.013728599 1.806302e-38 314 250
-0.0068642995 0.78299999 -0.013728599 1.7878628e-38 315 250
-0.0055054668 0.78500003 -0.013763667 1.7878628e-38 316 250
-0.0041396199 0.787 -0.013798732 1.7786432e-38 317 250
-0.0027597465 0.787 -0.013798732 1.7877909e-38 318 250
-0.0013763667 0.78500003 -0.013763667 1.7693159e-38 319 250
0 0.78500003 -0.013763667 1.7601313e-38 320 250
0.0013763667 0.78500003 -0.013763667 1.7509116e-38 321 250
0.0027527334 0.78500003 -0.013763667 1.7233255e-38 322 250
0.0041291001 0.78500003 -0.013763667 1.7233255e-38 323 250
0.0055054668 0.78500003 -0.013763667 1.7141063e-38 324 250
0.0068818335 0.78500003 -0.013763667 1.7048508e-38 325 250
0.0082792398 0.787 -0.013798732 1.6405277e-38 326 250
0.0096591124 0.787 -0.013798732 1.6128332e-38 327 250
0.011067039 0.78899997 -0.013833799 1.6220161e-38 328 250
0.012450419 0.78899997 -0.013833799 1.6127966e-38 329 250
0.013833799 0.78899997 -0.013833799 1.5759925e-38 330 250
0.015217179 0.78899997 -0.013833799 1.5575532e-38 331 250
0.016600559 0.78899997 -0.013833799 1.5481908e-38 332 250
0.017983939 0.78899997 -0.013833799 1.5481908e-38 333 250
0.019367319 0.78899997 -0.013833799 1.5298949e-38 334 250
0.0207507 0.78899997 -0.013833799 1.5206754e-38 335 250
0.022134079 0.78899997 -0.013833799 1.52064e-38 336 250
0.023517458 0.78899997 -0.013833799 1.52064e-38 337 250
0.024900839 0.78899997 -0.013833799 1.4655748e-38 338 250
0.026284218 0.78899997 -0.013833799 1.4563551e-38 339 250
0.027667599 0.78899997 -0.013833799 1.483869e-38 340 250
0.02905098 0.78899997 -0.013833799 1.483869e-38 341 250
0.030434359 0.78899997 -0.013833799 1.5115277e-38 342 250
0.031817738 0.78899997 -0.013833799 1.5207472e-38 343 250
0.033201117 0.78899997 -0.013833799 1.5206403e-38 344 250
0.034584496 0.78899997 -0.013833799 1.5206403e-38 345 250
0.035967879 0.78899997 -0.013833799 1.5114568e-38 346 250
0.037351258 0.78899997 -0.013833799 1.4930537e-38 347 250
0.038734637 0.78899997 -0.013833799 1.4471355e-38 348 250
0.040118016 0.78899997 -0.013833799 1.4563551e-38 349 250
0.041501399 0.78899997 -0.013833799 1.5206766e-38 350 250
0.042884778 0.78899997 -0.013833799 1.5391516e-38 351 250
0.044155944 0.787 -0.013798732 1.520929e-38 352 250
0.045535821 0.787 -0.013798732 1.5485877e-38 353 250
0.046915691 0.787 -0.013798732 1.6036532e-38 354 250
0.048295565 0.787 -0.013798732 1.6220925e-38 355 250
0.049675439 0.787 -0.013798732 1.6588634e-38 356 250
0.050925564 0.78500003 -0.013763667 1.668083e-38 357 250
0.052301936 0.78500003 -0.013763667 1.6406051e-38 358 250
0.0536783 0.78500003 -0.013763667 1.6498606e-38 359 250
0.055054668 0.78500003 -0.013763667 1.6682998e-38 360 250
0.056287259 0.78299999 -0.013728599 1.705142e-38 361 250
0.057660121 0.78299999 -0.013728599 1.7326921e-38 362 250
0.059032977 0.78299999 -0.013728599 1.7511314e-38 363 250
0.060405839 0.78299999 -0.013728599 1.7603506e-38 364 250
0.061778698 0.78299999 -0.013728599 1.7880092e-38 365 250
0.063151553 0.78299999 -0.013728599 1.8064483e-38 366 250
0.064524412 0.78299999 -0.013728599 1.8248876e-38 367 250
0.065897278 0.78299999 -0.013728599 1.8889932e-38 368 250
0.067270137 0.78299999 -0.013728599 1.8059811e-38 369 250
0.068643004 0.78299999 -0.013728599 1.6951281e-38 370 250
0.069837019 0.78100002 -0.013693534 1.5107368e-38 371 250
0.071206369 0.78100002 -0.013693534 1.2710637e-38 372 250
0.072575726 0.78100002 -0.013693534 1.1327703e-38 373 250
0.073945075 0.78100002 -0.013693534 8.8503349e-39 374 250
0.075314432 0.78100002 -0.013693534 1.1247421e-38 375 250
0.076683782 0.78100002 -0.013693534 1.5207515e-38 376 250
0.078253016 0.78299999 -0.013728599 1.6590449e-38 377 250
0.079625882 0.78299999 -0.013728599 1.7143956e-38 378 250
0.080998734 0.78299999 -0.013728599 1.6867011e-38 379 250
0.0823716 0.78299999 -0.013728599 1.704961e-38 380 250
0.083530553 0.78100002 -0.013693534 1.704961e-38 381 250
0.084899902 0.78100002 -0.013693534 1.6498972e-38 382 250
0.086269259 0.78100002 -0.013693534 1.6222385e-38 383 250
0.087638609 0.78100002 -0.013693534 1.6314253e-38 384 250
0.088438138 0.77600002 -0.013605867 1.6774872e-38 385 250
-0.042178184 0.77600002 -0.014966453 1.852798e-38 289 251
-0.0408176 0.77600002 -0.014966453 1.9722891e-38 290 251
-0.039355319 0.77399999 -0.014927879 1.9815086e-38 291 251
-0.037998237 0.77399999 -0.014927879 1.9814364e-38 292 251
-0.036641158 0.77399999 -0.014927879 1.990656e-38 293 251
-0.03528408 0.77399999 -0.014927879 1.9907635e-38 294 251
-0.034102332 0.778 -0.015005025 1.9907635e-38 295 251
-0.032738242 0.778 -0.015005025 2.0090947e-38 296 251
-0.031374145 0.778 -0.015005025 2.0090947e-38 297 251
-0.03001005 0.778 -0.015005025 1.9815086e-38 298 251
-0.028645959 0.778 -0.015005025 1.9907282e-38 299 251
-0.027281865 0.778 -0.015005025 1.9815089e-38 300 251
-0.025984399 0.77999997 -0.0150436 1.9722535e-38 301 251
-0.024616797 0.77999997 -0.0150436 1.9445955e-38 302 251
-0.023249198 0.77999997 -0.0150436 1.9353759e-38 303 251
-0.021881599 0.77999997 -0.0150436 1.898497e-38 304 251
-0.020513998 0.77999997 -0.0150436 1.8800938e-38 305 251
-0.0191464 0.77999997 -0.0150436 1.8800941e-38 306 251
-0.017801592 0.78100002 -0.015062887 1.8708387e-38 307 251
-0.016432239 0.78100002 -0.015062887 1.8706956e-38 308 251
-0.015062887 0.78100002 -0.015062887 1.8522925e-38 309 251
-0.013693534 0.78100002 -0.015062887 1.8430729e-38 310 251
-0.01232418 0.78100002 -0.015062887 1.8338534e-38 311 251
-0.010982879 0.78299999 -0.01510146 1.7970826e-38 312 251
-0.0096100196 0.78299999 -0.01510146 1.7970826e-38 313 251
-0.0082371598 0.78299999 -0.01510146 1.7694587e-38 314 251
-0.0068642995 0.78299999 -0.01510146 1.7233609e-38 315 251
-0.0054914397 0.78299999 -0.01510146 1.6865181e-38 316 251
-0.0041291001 0.78500003 -0.015140033 1.6680788e-38 317 251
-0.0027527334 0.78500003 -0.015140033 1.6496041e-38 318 251
-0.0013763667 0.78500003 -0.015140033 1.6496041e-38 319 251
0 0.78500003 -0.015140033 1.6036865e-38 320 251
0.0013763667 0.78500003 -0.015140033 1.5944669e-38 321 251
0.0027527334 0.78500003 -0.015140033 1.5759925e-38 322 251
0.0041291001 0.78500003 -0.015140033 1.5667728e-38 323 251
0.0055054668 0.78500003 -0.015140033 1.5391498e-38 324 251
0.0068818335 0.78500003 -0.015140033 1.493016e-38 325 251
0.0082792398 0.787 -0.015178605 1.4837946e-38 326 251
0.0096591124 0.787 -0.015178605 1.474575e-38 327 251
0.011067039 0.78899997 -0.015217179 1.4837949e-38 328 251
0.012450419 0.78899997 -0.015217179 1.4837949e-38 329 251
0.013833799 0.78899997 -0.015217179 1.4286239e-38 330 251
0.015217179 0.78899997 -0.015217179 1.4101847e-38 331 251
0.016600559 0.78899997 -0.015217179 1.4193693e-38 332 251
0.017983939 0.78899997 -0.015217179 1.3917106e-38 333 251
0.019367319 0.78899997 -0.015217179 1.3916381e-38 334 251
0.0207507 0.78899997 -0.015217179 1.4100772e-38 335 251
0.022134079 0.78899997 -0.015217179 1.4100777e-38 336 251
0.023517458 0.78899997 -0.015217179 1.4008223e-38 337 251
0.024900839 0.78899997 -0.015217179 1.3549766e-38 338 251
0.026284218 0.78899997 -0.015217179 1.3549766e-38 339 251
0.027667599 0.78899997 -0.015217179 1.3365356e-38 340 251
0.02905098 0.78899997 -0.015217179 1.3088768e-38 341 251
0.030434359 0.78899997 -0.015217179 1.3824888e-38 342 251
0.031817738 0.78899997 -0.015217179 1.3824888e-38 343 251
0.033201117 0.78899997 -0.015217179 1.3823463e-38 344 251
0.034584496 0.78899997 -0.015217179 1.3915659e-38 345 251
0.035967879 0.78899997 -0.015217179 1.3733431e-38 346 251
0.037351258 0.78899997 -0.015217179 1.3365009e-38 347 251
0.038734637 0.78899997 -0.015217179 1.3548321e-38 348 251
0.040118016 0.78899997 -0.015217179 1.3640517e-38 349 251
0.041501399 0.78899997 -0.015217179 1.4008579e-38 350 251
0.042776071 0.787 -0.015178605 1.4008579e-38 351 251
0.044155944 0.787 -0.015178605 1.4008223e-38 352 251
0.045535821 0.787 -0.015178605 1.4192973e-38 353 251
0.046915691 0.787 -0.015178605 1.4378085e-38 354 251
0.048295565 0.787 -0.015178605 1.4562476e-38 355 251
0.0495492 0.78500003 -0.015140033 1.5115302e-38 356 251
0.050925564 0.78500003 -0.015140033 1.5575921e-38 357 251
0.052168678 0.78299999 -0.01510146 1.5577016e-38 358 251
0.053541537 0.78299999 -0.01510146 1.5945798e-38 359 251
0.054914396 0.78299999 -0.01510146 1.6130546e-38 360 251
0.056287259 0.78299999 -0.01510146 1.6314938e-38 361 251
0.057660121 0.78299999 -0.01510146 1.6681915e-38 362 251
0.059032977 0.78299999 -0.01510146 1.6774112e-38 363 251
0.060405839 0.78299999 -0.01510146 1.6683348e-38 364 251
0.061778698 0.78299999 -0.01510146 1.6959575e-38 365 251
0.063151553 0.78299999 -0.01510146 1.7143969e-38 366 251
0.064524412 0.78299999 -0.01510146 1.732872e-38 367 251
0.065897278 0.78299999 -0.01510146 1.7878667e-38 368 251
0.067098312 0.78100002 -0.015062887 1.7878667e-38 369 251
0.068467662 0.78100002 -0.015062887 1.8244926e-38 370 251
0.069837019 0.78100002 -0.015062887 1.7507361e-38 371 251
0.071206369 0.78100002 -0.015062887 1.6491048e-38 372 251
0.072575726 0.78100002 -0.015062887 1.538434e-38 373 251
0.073945075 0.78100002 -0.015062887 1.3639831e-38 374 251
0.075314432 0.78100002 -0.015062887 1.4285201e-38 375 251
0.076683782 0.78100002 -0.015062887 1.640389e-38 376 251
0.078053139 0.78100002 -0.015062887 1.7233651e-38 377 251
0.079422489 0.78100002 -0.015062887 1.7143956e-38 378 251
0.080791846 0.78100002 -0.015062887 1.6867011e-38 379 251
0.082161196 0.78100002 -0.015062887 1.67741e-38 380 251
0.083530553 0.78100002 -0.015062887 1.6681546e-38 381 251
0.084791191 0.77999997 -0.0150436 1.6223094e-38 382 251
0.08593788 0.778 -0.015005025 1.613054e-38 383 251
0.087077543 0.77600002 -0.014966453 1.6126972e-38 384 251
0.088438138 0.77600002 -0.014966453 1.6311364e-38 385 251
0.089798726 0.77600002 -0.014966453 1.7962285e-38 386 251
-0.046140719 0.77399999 -0.016284959 1.8339625e-38 286 252
-0.044783637 0.77399999 -0.016284959 1.8800604e-38 287 252
-0.043426558 0.77399999 -0.016284959 1.9078967e-38 288 252
-0.042069476 0.77399999 -0.016284959 1.9539944e-38 289 252
-0.040712398 0.77399999 -0.016284959 2.0182427e-38 290 252
-0.039355319 0.77399999 -0.016284959 2.0090231e-38 291 252
-0.037998237 0.77399999 -0.016284959 2.018278e-38 292 252
-0.036641158 0.77399999 -0.016284959 2.018278e-38 293 252
-0.03528408 0.77399999 -0.016284959 1.9907635e-38 294 252
-0.033927001 0.77399999 -0.016284959 1.9907635e-38 295 252
-0.032569919 0.77399999 -0.016284959 1.9907285e-38 296 252
-0.031212838 0.77399999 -0.016284959 1.9722535e-38 297 252
-0.029932907 0.77600002 -0.01632704 1.9631424e-38 298 252
-0.028572321 0.77600002 -0.01632704 1.9446674e-38 299 252
-0.027211733 0.77600002 -0.01632704 1.9446676e-38 300 252
-0.025917772 0.778 -0.016369121 1.9262285e-38 301 252
-0.024553679 0.778 -0.016369121 1.8986054e-38 302 252
-0.023189586 0.778 -0.016369121 1.8801304e-38 303 252
-0.021825492 0.778 -0.016369121 1.8432524e-38 304 252
-0.020461399 0.778 -0.016369121 1.8432524e-38 305 252
-0.019097306 0.778 -0.016369121 1.8339979e-38 306 252
-0.017801592 0.78100002 -0.016432239 1.8247783e-38 307 252
-0.016432239 0.78100002 -0.016432239 1.8338544e-38 308 252
-0.015062887 0.78100002 -0.016432239 1.8062317e-38 309 252
-0.013693534 0.78100002 -0.016432239 1.7787159e-38 310 252
-0.01232418 0.78100002 -0.016432239 1.7694962e-38 311 252
-0.010982879 0.78299999 -0.01647432 1.7786426e-38 312 252
-0.0096100196 0.78299999 -0.01647432 1.7694231e-38 313 252
-0.0082371598 0.78299999 -0.01647432 1.7234315e-38 314 252
-0.0068642995 0.78299999 -0.01647432 1.6681141e-38 315 252
-0.0054914397 0.78299999 -0.01647432 1.6128319e-38 316 252
-0.0041185799 0.78299999 -0.01647432 1.5851731e-38 317 252
-0.0027457199 0.78299999 -0.01647432 1.5482965e-38 318 252
-0.0013728599 0.78299999 -0.01647432 1.5575161e-38 319 252
0 0.78299999 -0.01647432 1.4931609e-38 320 252
0.0013763667 0.78500003 -0.016516401 1.4563185e-38 321 252
0.0027527334 0.78500003 -0.016516401 1.4470999e-38 322 252
0.0041291001 0.78500003 -0.016516401 1.4378803e-38 323 252
0.0055054668 0.78500003 -0.016516401 1.4469198e-38 324 252
0.0068993662 0.787 -0.01655848 1.4100775e-38 325 252
0.0082792398 0.787 -0.01655848 1.3915677e-38 326 252
0.0096836593 0.78899997 -0.016600559 1.4100068e-38 327 252
0.011067039 0.78899997 -0.016600559 1.3916776e-38 328 252
0.012450419 0.78899997 -0.016600559 1.3916776e-38 329 252
0.013833799 0.78899997 -0.016600559 1.3640913e-38 330 252
0.015217179 0.78899997 -0.016600559 1.3640913e-38 331 252
0.016600559 0.78899997 -0.016600559 1.364056e-38 332 252
0.017983939 0.78899997 -0.016600559 1.364056e-38 333 252
0.019367319 0.78899997 -0.016600559 1.3639478e-38 334 252
0.0207507 0.78899997 -0.016600559 1.3639478e-38 335 252
0.022134079 0.78899997 -0.016600559 1.3639834e-38 336 252
0.023517458 0.78899997 -0.016600559 1.3639834e-38 337 252
0.024900839 0.78899997 -0.016600559 1.3273204e-38 338 252
0.026284218 0.78899997 -0.016600559 1.3181009e-38 339 252
0.027667599 0.78899997 -0.016600559 1.3089163e-38 340 252
0.02905098 0.78899997 -0.016600559 1.2904412e-38 341 252
0.030434359 0.78899997 -0.016600559 1.3179557e-38 342 252
0.031817738 0.78899997 -0.016600559 1.3271754e-38 343 252
0.033201117 0.78899997 -0.016600559 1.3362506e-38 344 252
0.034584496 0.78899997 -0.016600559 1.3362506e-38 345 252
0.035967879 0.78899997 -0.016600559 1.2903699e-38 346 252
0.037351258 0.78899997 -0.016600559 1.3088091e-38 347 252
0.038734637 0.78899997 -0.016600559 1.2996264e-38 348 252
0.040118016 0.78899997 -0.016600559 1.2904067e-38 349 252
0.041501399 0.78899997 -0.016600559 1.3546551e-38 350 252
0.042776071 0.787 -0.01655848 1.3638747e-38 351 252
0.044155944 0.787 -0.01655848 1.3364324e-38 352 252
0.045535821 0.787 -0.01655848 1.3364324e-38 353 252
0.046915691 0.787 -0.01655848 1.3363952e-38 354 252
0.048295565 0.787 -0.01655848 1.3363952e-38 355 252
0.0495492 0.78500003 -0.016516401 1.3733081e-38 356 252
0.050925564 0.78500003 -0.016516401 1.4102224e-38 357 252
0.052168678 0.78299999 -0.01647432 1.4379549e-38 358 252
0.053541537 0.78299999 -0.01647432 1.4932723e-38 359 252
0.054914396 0.78299999 -0.01647432 1.5301508e-38 360 252
0.056287259 0.78299999 -0.01647432 1.5577736e-38 361 252
0.057660121 0.78299999 -0.01647432 1.6037628e-38 362 252
0.059032977 0.78299999 -0.01647432 1.6129824e-38 363 252
0.060405839 0.78299999 -0.01647432 1.5855754e-38 364 252
0.061778698 0.78299999 -0.01647432 1.6040146e-38 365 252
0.063151553 0.78299999 -0.01647432 1.6497897e-38 366 252
0.064359605 0.78100002 -0.016432239 1.6774843e-38 367 252
0.065728955 0.78100002 -0.016432239 1.6775206e-38 368 252
0.067098312 0.78100002 -0.016432239 1.7052153e-38 369 252
0.068467662 0.78100002 -0.016432239 1.8154178e-38 370 252
0.069837019 0.78100002 -0.016432239 1.8154178e-38 371 252
0.071206369 0.78100002 -0.016432239 1.8061613e-38 372 252
0.072575726 0.78100002 -0.016432239 1.7692829e-38 373 252
0.073850393 0.77999997 -0.016411198 1.6496804e-38 374 252
0.075217992 0.77999997 -0.016411198 1.6496804e-38 375 252
0.076585598 0.77999997 -0.016411198 1.6774467e-38 376 252
0.077953197 0.77999997 -0.016411198 1.6958859e-38 377 252
0.079320796 0.77999997 -0.016411198 1.7142874e-38 378 252
0.080688395 0.77999997 -0.016411198 1.6866648e-38 379 252
0.082055993 0.77999997 -0.016411198 1.6774095e-38 380 252
0.083423592 0.77999997 -0.016411198 1.6681899e-38 381 252
0.084791191 0.77999997 -0.016411198 1.6131615e-38 382 252
0.08593788 0.778 -0.016369121 1.5947584e-38 383 252
0.087077543 0.77600002 -0.01632704 1.6035493e-38 384 252
0.088438138 0.77600002 -0.01632704 1.5667069e-38 385 252
0.089798726 0.77600002 -0.01632704 1.7775373e-38 386 252
0.091159306 0.77600002 -0.01632704 1.8052319e-38 387 252
-0.047497798 0.77399999 -0.01764204 1.8800622e-38 285 253
-0.046140719 0.77399999 -0.01764204 1.9353756e-38 286 253
-0.044725779 0.773 -0.017619247 1.9814733e-38 287 253
-0.043370452 0.773 -0.017619247 2.0274627e-38 288 253
-0.042015124 0.773 -0.017619247 2.0274627e-38 289 253
-0.0406598 0.773 -0.017619247 2.0090594e-38 290 253
-0.039304473 0.773 -0.017619247 2.0090594e-38 291 253
-0.037949149 0.773 -0.017619247 1.9999479e-38 292 253
-0.036593821 0.773 -0.017619247 1.9907282e-38 293 253
-0.035238493 0.773 -0.017619247 1.9907285e-38 294 253
-0.033927001 0.77399999 -0.01764204 1.9815089e-38 295 253
-0.032569919 0.77399999 -0.01764204 1.9997326e-38 296 253
-0.031212838 0.77399999 -0.01764204 1.9812935e-38 297 253
-0.029855758 0.77399999 -0.01764204 1.9537071e-38 298 253
-0.028498679 0.77399999 -0.01764204 1.9537071e-38 299 253
-0.027141599 0.77399999 -0.01764204 1.9168645e-38 300 253
-0.025851147 0.77600002 -0.017687626 1.9168645e-38 301 253
-0.024553679 0.778 -0.017733213 1.870766e-38 302 253
-0.023189586 0.778 -0.017733213 1.8523628e-38 303 253
-0.021825492 0.778 -0.017733213 1.8523631e-38 304 253
-0.020461399 0.778 -0.017733213 1.8338881e-38 305 253
-0.019097306 0.778 -0.017733213 1.8338531e-38 306 253
-0.017778799 0.77999997 -0.017778799 1.8154138e-38 307 253
-0.016432239 0.78100002 -0.017801592 1.806194e-38 308 253
-0.015062887 0.78100002 -0.017801592 1.7877909e-38 309 253
-0.013693534 0.78100002 -0.017801592 1.7509472e-38 310 253
-0.01232418 0.78100002 -0.017801592 1.6864103e-38 311 253
-0.010954826 0.78100002 -0.017801592 1.6313079e-38 312 253
-0.0095854728 0.78100002 -0.017801592 1.6036492e-38 313 253
-0.0082161194 0.78100002 -0.017801592 1.5758463e-38 314 253
-0.0068642995 0.78299999 -0.017847179 1.5481516e-38 315 253
-0.0054914397 0.78299999 -0.017847179 1.4838302e-38 316 253
-0.0041185799 0.78299999 -0.017847179 1.4469519e-38 317 253
-0.0027457199 0.78299999 -0.017847179 1.4101475e-38 318 253
-0.0013728599 0.78299999 -0.017847179 1.4101475e-38 319 253
0 0.78299999 -0.017847179 1.3918181e-38 320 253
0.0013763667 0.78500003 -0.017892767 1.3825986e-38 321 253
0.0027527334 0.78500003 -0.017892767 1.3825277e-38 322 253
0.0041291001 0.78500003 -0.017892767 1.4010028e-38 323 253
0.0055054668 0.78500003 -0.017892767 1.4192271e-38 324 253
0.0068993662 0.787 -0.017938353 1.4100074e-38 325 253
0.0082792398 0.787 -0.017938353 1.3732733e-38 326 253
0.0096836593 0.78899997 -0.017983939 1.3824929e-38 327 253
0.011067039 0.78899997 -0.017983939 1.3823854e-38 328 253
0.012450419 0.78899997 -0.017983939 1.3823854e-38 329 253
0.013833799 0.78899997 -0.017983939 1.3731659e-38 330 253
0.015217179 0.78899997 -0.017983939 1.3731659e-38 331 253
0.016600559 0.78899997 -0.017983939 1.3640538e-38 332 253
0.017983939 0.78899997 -0.017983939 1.3456148e-38 333 253
0.019367319 0.78899997 -0.017983939 1.3639819e-38 334 253
0.0207507 0.78899997 -0.017983939 1.3639819e-38 335 253
0.022134079 0.78899997 -0.017983939 1.3639463e-38 336 253
0.023517458 0.78899997 -0.017983939 1.3639463e-38 337 253
0.024900839 0.78899997 -0.017983939 1.3272122e-38 338 253
0.026284218 0.78899997 -0.017983939 1.3272122e-38 339 253
0.027667599 0.78899997 -0.017983939 1.2996247e-38 340 253
0.02905098 0.78899997 -0.017983939 1.2996247e-38 341 253
0.030434359 0.78899997 -0.017983939 1.3087358e-38 342 253
0.031817738 0.78899997 -0.017983939 1.3087358e-38 343 253
0.033201117 0.78899997 -0.017983939 1.3179194e-38 344 253
0.034584496 0.78899997 -0.017983939 1.3179194e-38 345 253
0.035967879 0.78899997 -0.017983939 1.3178838e-38 346 253
0.037351258 0.78899997 -0.017983939 1.3178838e-38 347 253
0.038734637 0.78899997 -0.017983939 1.3087364e-38 348 253
0.040118016 0.78899997 -0.017983939 1.3087364e-38 349 253
0.041501399 0.78899997 -0.017983939 1.317956e-38 350 253
0.042884778 0.78899997 -0.017983939 1.317956e-38 351 253
0.044155944 0.787 -0.017938353 1.317956e-38 352 253
0.045535821 0.787 -0.017938353 1.3271757e-38 353 253
0.046915691 0.787 -0.017938353 1.3455422e-38 354 253
0.048295565 0.787 -0.017938353 1.3547618e-38 355 253
0.0495492 0.78500003 -0.017892767 1.3364305e-38 356 253
0.050925564 0.78500003 -0.017892767 1.3364305e-38 357 253
0.052301936 0.78500003 -0.017892767 1.3182081e-38 358 253
0.053541537 0.78299999 -0.017847179 1.3458669e-38 359 253
0.054914396 0.78299999 -0.017847179 1.3826728e-38 360 253
0.056287259 0.78299999 -0.017847179 1.4287706e-38 361 253
0.057660121 0.78299999 -0.017847179 1.4747606e-38 362 253
0.058882192 0.78100002 -0.017801592 1.5208584e-38 363 253
0.060251549 0.78100002 -0.017801592 1.5485176e-38 364 253
0.061620899 0.78100002 -0.017801592 1.58536e-38 365 253
0.062990256 0.78100002 -0.017801592 1.6313136e-38 366 253
0.064359605 0.78100002 -0.017801592 1.6405332e-38 367 253
0.065728955 0.78100002 -0.017801592 1.649753e-38 368 253
0.067098312 0.78100002 -0.017801592 1.6681563e-38 369 253
0.068467662 0.78100002 -0.017801592 1.7324414e-38 370 253
0.069837019 0.78100002 -0.017801592 1.741661e-38 371 253
0.071115196 0.77999997 -0.017778799 1.7234723e-38 372 253
0.072482795 0.77999997 -0.017778799 1.7419114e-38 373 253
0.073850393 0.77999997 -0.017778799 1.7879742e-38 374 253
0.075025134 0.778 -0.017733213 1.7787187e-38 375 253
0.076389223 0.778 -0.017733213 1.6960657e-38 376 253
0.07775332 0.778 -0.017733213 1.6776265e-38 377 253
0.07911741 0.778 -0.017733213 1.6959928e-38 378 253
0.080481507 0.778 -0.017733213 1.6683701e-38 379 253
0.081845596 0.778 -0.017733213 1.6499309e-38 380 253
0.082995787 0.77600002 -0.017687626 1.6499309e-38 381 253
0.084356368 0.77600002 -0.017687626 1.5947578e-38 382 253
0.085716955 0.77600002 -0.017687626 1.5855382e-38 383 253
0.087077543 0.77600002 -0.017687626 1.5669935e-38 384 253
0.088666067 0.778 -0.017733213 1.493237e-38 385 253
0.090030156 0.778 -0.017733213 1.7128189e-38 386 253
-0.050211959 0.77399999 -0.018999118 1.8247442e-38 283 254
-0.04885488 0.77399999 -0.018999118 1.8799142e-38 284 254
-0.047436431 0.773 -0.018974574 1.9628904e-38 285 254
-0.046081103 0.773 -0.018974574 1.9998033e-38 286 254
-0.044725779 0.773 -0.018974574 1.9998033e-38 287 254
-0.043370452 0.773 -0.018974574 2.0090944e-38 288 254
-0.042015124 0.773 -0.018974574 2.0090944e-38 289 254
-0.0406598 0.773 -0.018974574 2.0182427e-38 290 254
-0.039304473 0.773 -0.018974574 2.0182427e-38 291 254
-0.037949149 0.773 -0.018974574 1.9723616e-38 292 254
-0.036593821 0.773 -0.018974574 1.9723616e-38 293 254
-0.035238493 0.773 -0.018974574 1.963107e-38 294 254
-0.033883166 0.773 -0.018974574 1.944632e-38 295 254
-0.032527838 0.773 -0.018974574 1.9445607e-38 296 254
-0.031212838 0.77399999 -0.018999118 1.9260857e-38 297 254
-0.029855758 0.77399999 -0.018999118 1.9169016e-38 298 254
-0.028498679 0.77399999 -0.018999118 1.8984266e-38 299 254
-0.027141599 0.77399999 -0.018999118 1.870839e-38 300 254
-0.025784519 0.77399999 -0.018999118 1.8616193e-38 301 254
-0.024490559 0.77600002 -0.019048214 1.843143e-38 302 254
-0.023129974 0.77600002 -0.019048214 1.8339234e-38 303 254
-0.021825492 0.778 -0.019097306 1.7971897e-38 304 254
-0.020461399 0.778 -0.019097306 1.7787864e-38 305 254
-0.019097306 0.778 -0.019097306 1.7693162e-38 306 254
-0.017778799 0.77999997 -0.0191464 1.750877e-38 307 254
-0.016432239 0.78100002 -0.019170946 1.6864833e-38 308 254
-0.015062887 0.78100002 -0.019170946 1.6680082e-38 309 254
-0.013693534 0.78100002 -0.019170946 1.6403845e-38 310 254
-0.01232418 0.78100002 -0.019170946 1.5942867e-38 311 254
-0.010954826 0.78100002 -0.019170946 1.5575161e-38 312 254
-0.0095854728 0.78100002 -0.019170946 1.5298572e-38 313 254
-0.0082161194 0.78100002 -0.019170946 1.4929797e-38 314 254
-0.0068467669 0.78100002 -0.019170946 1.4745047e-38 315 254
-0.0054914397 0.78299999 -0.019220039 1.4378082e-38 316 254
-0.0041185799 0.78299999 -0.019220039 1.4285886e-38 317 254
-0.0027457199 0.78299999 -0.019220039 1.4100088e-38 318 254
-0.0013728599 0.78299999 -0.019220039 1.3916055e-38 319 254
0 0.78299999 -0.019220039 1.3915699e-38 320 254
0.0013728599 0.78299999 -0.019220039 1.3915699e-38 321 254
0.0027527334 0.78500003 -0.019269135 1.3641264e-38 322 254
0.0041291001 0.78500003 -0.019269135 1.3641264e-38 323 254
0.0055054668 0.78500003 -0.019269135 1.3549068e-38 324 254
0.0068993662 0.787 -0.019318225 1.3549068e-38 325 254
