# .PCD v.7 - Point Cloud Data file format
FIELDS x y z rgb imX imY
SIZE 4 4 4 4 4 4
TYPE F F F F F F
COUNT 1 1 1 1 1 1
WIDTH 840
HEIGHT 1
VIEWPOINT 0 0 0 1 0 0 0
POINTS 840
DATA ascii
-0.10970256 0.71100003 -0.038645219 1.2812541e-38 232 271
-0.10799832 0.708 -0.038482159 1.2720346e-38 233 271
-0.10660617 0.70700002 -0.038427804 1.2996926e-38 234 271
-0.10521752 0.70599997 -0.038373452 1.2996926e-38 235 271
-0.10368512 0.704 -0.038264744 1.3273147e-38 236 271
-0.10230524 0.70300001 -0.038210396 1.3457178e-38 237 271
-0.1007851 0.70099998 -0.038101684 1.3731972e-38 238 271
-0.099413998 0.69999999 -0.038047329 1.4008561e-38 239 271
-0.097906128 0.69800001 -0.037938625 1.4009282e-38 240 271
-0.096543796 0.69700003 -0.037884273 1.4101478e-38 241 271
-0.095184952 0.69599998 -0.037829921 1.4654999e-38 242 271
-0.09369462 0.69400001 -0.037721213 1.5208173e-38 243 271
-0.09234456 0.69300002 -0.037666857 1.57617e-38 244 271
-0.090866491 0.69099998 -0.03755815 1.6038287e-38 245 271
-0.089654945 0.69099998 -0.03755815 1.6589664e-38 246 271
-0.088315398 0.69 -0.037503798 1.6681861e-38 247 271
-0.086853124 0.68800002 -0.037395094 1.6498915e-38 248 271
-0.085522331 0.68699998 -0.037340738 1.659111e-38 249 271
-0.084195063 0.68599999 -0.037286382 1.7050649e-38 250 271
-0.082992278 0.68599999 -0.037286382 1.7234681e-38 251 271
-0.081908718 0.68699998 -0.037340738 1.7418707e-38 252 271
-0.080704175 0.68699998 -0.037340738 1.7418707e-38 253 271
-0.07915248 0.68400002 -0.037177678 1.7511253e-38 254 271
-0.077953197 0.68400002 -0.037177678 1.7695285e-38 255 271
-0.076641709 0.68300003 -0.037123326 1.7787114e-38 256 271
-0.075444184 0.68300003 -0.037123326 1.787931e-38 257 271
-0.074137948 0.68199998 -0.037068974 1.8063344e-38 258 271
-0.072942168 0.68199998 -0.037068974 1.8063344e-38 259 271
-0.071746394 0.68199998 -0.037068974 1.8064074e-38 260 271
-0.070550621 0.68199998 -0.037068974 1.8064074e-38 261 271
-0.069151461 0.68000001 -0.036960267 1.8156991e-38 262 271
-0.067859262 0.67900002 -0.036905911 1.8249187e-38 263 271
-0.066668749 0.67900002 -0.036905911 1.8432502e-38 264 271
-0.065381795 0.67799997 -0.036851559 1.8524698e-38 265 271
-0.064003684 0.676 -0.036742851 1.8524345e-38 266 271
-0.062818423 0.676 -0.036742851 1.861654e-38 267 271
-0.061633173 0.676 -0.036742851 1.8433584e-38 268 271
-0.06044792 0.676 -0.036742851 1.8617616e-38 269 271
-0.059262663 0.676 -0.036742851 1.8526853e-38 270 271
-0.057905588 0.67400002 -0.036634147 1.8526853e-38 271 271
-0.056723841 0.67400002 -0.036634147 1.8617967e-38 272 271
-0.055542093 0.67400002 -0.036634147 1.8617967e-38 273 271
-0.054521654 0.676 -0.036742851 1.8709798e-38 274 271
-0.053257499 0.67500001 -0.036688499 1.8709798e-38 275 271
-0.051842555 0.67199999 -0.036525436 1.8709798e-38 276 271
-0.050664317 0.67199999 -0.036525436 1.8617244e-38 277 271
-0.049633358 0.67400002 -0.036634147 1.8709798e-38 278 271
-0.04830784 0.67199999 -0.036525436 1.8709798e-38 279 271
-0.047059465 0.671 -0.036471087 1.8801642e-38 280 271
-0.045882981 0.671 -0.036471087 1.8709446e-38 281 271
-0.044706494 0.671 -0.036471087 1.8342104e-38 282 271
-0.043530006 0.671 -0.036471087 1.8434301e-38 283 271
-0.042353518 0.671 -0.036471087 1.8526144e-38 284 271
-0.041177034 0.671 -0.036471087 1.8526144e-38 285 271
-0.040000543 0.671 -0.036471087 1.8341388e-38 286 271
-0.038824059 0.671 -0.036471087 1.8064443e-38 287 271
-0.037479252 0.66799998 -0.036308024 1.8522897e-38 288 271
-0.036308024 0.66799998 -0.036308024 1.8338866e-38 289 271
-0.035084199 0.667 -0.036253672 1.8247039e-38 290 271
-0.033914726 0.667 -0.036253672 1.8247039e-38 291 271
-0.032745253 0.667 -0.036253672 1.7878628e-38 292 271
-0.031433757 0.66399997 -0.036090612 1.7878628e-38 293 271
-0.030269546 0.66399997 -0.036090612 1.7787525e-38 294 271
-0.02910533 0.66399997 -0.036090612 1.7695329e-38 295 271
-0.027941117 0.66399997 -0.036090612 1.7694976e-38 296 271
-0.026776904 0.66399997 -0.036090612 1.7879726e-38 297 271
0.0081494926 0.66399997 -0.036090612 1.769861e-38 327 271
0.0093137063 0.66399997 -0.036090612 1.7698589e-38 328 271
0.010477919 0.66399997 -0.036090612 1.7606393e-38 329 271
0.011642133 0.66399997 -0.036090612 1.7697143e-38 330 271
0.012806346 0.66399997 -0.036090612 1.7697143e-38 331 271
0.014012639 0.66600001 -0.03619932 1.797229e-38 332 271
0.015203152 0.667 -0.036253672 1.797229e-38 333 271
0.016372627 0.667 -0.036253672 1.7788975e-38 334 271
0.017620999 0.67000002 -0.036416732 1.7788975e-38 335 271
0.018795732 0.67000002 -0.036416732 1.7789691e-38 336 271
0.019970467 0.67000002 -0.036416732 1.7789691e-38 337 271
0.0211452 0.67000002 -0.036416732 1.8066638e-38 338 271
0.022319933 0.67000002 -0.036416732 1.825067e-38 339 271
0.028193599 0.67000002 -0.036416732 1.8249963e-38 344 271
0.029368332 0.67000002 -0.036416732 1.8065932e-38 345 271
0.030588651 0.671 -0.036471087 1.7881907e-38 346 271
0.031765141 0.671 -0.036471087 1.7881907e-38 347 271
0.032941625 0.671 -0.036471087 1.7881909e-38 348 271
0.034118112 0.671 -0.036471087 1.7605324e-38 349 271
0.035347197 0.67199999 -0.036525436 1.7697143e-38 350 271
0.036634147 0.67400002 -0.036634147 1.7420916e-38 351 271
0.037871998 0.67500001 -0.036688499 1.7144325e-38 352 271
0.039113361 0.676 -0.036742851 1.7236522e-38 353 271
0.040417835 0.67799997 -0.036851559 1.7143974e-38 354 271
-0.11392108 0.71399999 -0.040060159 1.309174e-38 229 272
-0.1121958 0.71100003 -0.039891839 1.2904052e-38 230 272
-0.11094918 0.71100003 -0.039891839 1.2996247e-38 231 272
-0.10954826 0.70999998 -0.039835732 1.2812188e-38 232 272
-0.10799832 0.708 -0.039723519 1.2719993e-38 233 272
-0.10660617 0.70700002 -0.039667413 1.2995854e-38 234 272
-0.10491946 0.704 -0.039499093 1.3088049e-38 235 272
-0.10368512 0.704 -0.039499093 1.3455387e-38 236 272
-0.10230524 0.70300001 -0.039442986 1.3455387e-38 237 272
-0.10064133 0.69999999 -0.039274666 1.3731251e-38 238 272
-0.099413998 0.69999999 -0.039274666 1.4007479e-38 239 272
-0.097906128 0.69800001 -0.039162453 1.4099314e-38 240 272
-0.096405275 0.69599998 -0.039050236 1.4006759e-38 241 272
-0.094911434 0.69400001 -0.038938027 1.3456812e-38 242 272
-0.09369462 0.69400001 -0.038938027 1.4102181e-38 243 272
-0.09234456 0.69300002 -0.03888192 1.4380561e-38 244 272
-0.090866491 0.69099998 -0.038769703 1.502593e-38 245 272
-0.0895252 0.69 -0.038713597 1.6128334e-38 246 272
-0.088315398 0.69 -0.038713597 1.640528e-38 247 272
-0.086853124 0.68800002 -0.038601387 1.6589311e-38 248 272
-0.085522331 0.68699998 -0.038545277 1.6589311e-38 249 272
-0.084195063 0.68599999 -0.03848917 1.7049918e-38 250 272
-0.082992278 0.68599999 -0.03848917 1.7142114e-38 251 272
-0.081789486 0.68599999 -0.03848917 1.7417975e-38 252 272
-0.080586702 0.68599999 -0.03848917 1.751017e-38 253 272
-0.079036765 0.68300003 -0.038320854 1.7510523e-38 254 272
-0.077839233 0.68300003 -0.038320854 1.7602719e-38 255 272
-0.076641709 0.68300003 -0.038320854 1.7877867e-38 256 272
-0.075444184 0.68300003 -0.038320854 1.7970064e-38 257 272
-0.074137948 0.68199998 -0.038264744 1.8062259e-38 258 272
-0.072942168 0.68199998 -0.038264744 1.8062259e-38 259 272
-0.071746394 0.68199998 -0.038264744 1.80637e-38 260 272
-0.070343733 0.68000001 -0.038152531 1.80637e-38 261 272
-0.069151461 0.68000001 -0.038152531 1.806443e-38 262 272
-0.067859262 0.67900002 -0.038096428 1.806443e-38 263 272
-0.066668749 0.67900002 -0.038096428 1.8339941e-38 264 272
-0.065381795 0.67799997 -0.038040318 1.8432136e-38 265 272
-0.064003684 0.676 -0.037928104 1.8432136e-38 266 272
-0.062818423 0.676 -0.037928104 1.8524332e-38 267 272
-0.061542001 0.67500001 -0.037871998 1.8432852e-38 268 272
-0.060358498 0.67500001 -0.037871998 1.8525048e-38 269 272
-0.059175 0.67500001 -0.037871998 1.8617244e-38 270 272
-0.057905588 0.67400002 -0.037815895 1.8617244e-38 271 272
-0.056723841 0.67400002 -0.037815895 1.8617244e-38 272 272
-0.055542093 0.67400002 -0.037815895 1.8617244e-38 273 272
-0.054360349 0.67400002 -0.037815895 1.8800912e-38 274 272
-0.053178601 0.67400002 -0.037815895 1.8800912e-38 275 272
-0.051996857 0.67400002 -0.037815895 1.8800559e-38 276 272
-0.050815105 0.67400002 -0.037815895 1.8892756e-38 277 272
-0.049633358 0.67400002 -0.037815895 1.8800206e-38 278 272
-0.04830784 0.67199999 -0.037703678 1.870801e-38 279 272
-0.047059465 0.671 -0.037647571 1.8708016e-38 280 272
-0.045882981 0.671 -0.037647571 1.843143e-38 281 272
-0.044706494 0.671 -0.037647571 1.8431433e-38 282 272
-0.043530006 0.671 -0.037647571 1.870766e-38 283 272
-0.042353518 0.671 -0.037647571 1.8709096e-38 284 272
-0.041177034 0.671 -0.037647571 1.8985323e-38 285 272
-0.039940935 0.67000002 -0.037591465 1.917007e-38 286 272
-0.038650475 0.66799998 -0.037479252 1.9077874e-38 287 272
-0.037479252 0.66799998 -0.037479252 1.9077155e-38 288 272
-0.036308024 0.66799998 -0.037479252 1.8984601e-38 289 272
-0.035084199 0.667 -0.037423145 1.898532e-38 290 272
-0.033914726 0.667 -0.037423145 1.8801289e-38 291 272
-0.032745253 0.667 -0.037423145 1.8709093e-38 292 272
-0.03157578 0.667 -0.037423145 1.8616896e-38 293 272
-0.030269546 0.66399997 -0.037254825 1.8249556e-38 294 272
-0.02910533 0.66399997 -0.037254825 1.8341751e-38 295 272
-0.027941117 0.66399997 -0.037254825 1.8341754e-38 296 272
-0.026776904 0.66399997 -0.037254825 1.8341754e-38 297 272
-0.025766984 0.66799998 -0.037479252 1.8433234e-38 298 272
-0.02459576 0.66799998 -0.037479252 1.8617266e-38 299 272
-0.023424532 0.66799998 -0.037479252 1.8433245e-38 300 272
0 0.65700001 -0.036862079 1.8065226e-38 320 272
0.00115194 0.65700001 -0.036862079 1.8341811e-38 321 272
0.0023179066 0.66100001 -0.037086505 1.8341811e-38 322 272
0.0034821199 0.662 -0.037142612 1.8434008e-38 323 272
0.0046498398 0.66299999 -0.037198719 1.8434006e-38 324 272
0.0058122999 0.66299999 -0.037198719 1.8434006e-38 325 272
0.0069747595 0.66299999 -0.037198719 1.8342868e-38 326 272
0.0081372196 0.66299999 -0.037198719 1.8342868e-38 327 272
0.0093137063 0.66399997 -0.037254825 1.8250654e-38 328 272
0.010477919 0.66399997 -0.037254825 1.8250654e-38 329 272
0.011642133 0.66399997 -0.037254825 1.8249932e-38 330 272
0.012806346 0.66399997 -0.037254825 1.8433964e-38 331 272
0.014012639 0.66600001 -0.037367038 1.8251007e-38 332 272
0.015203152 0.667 -0.037423145 1.8251007e-38 333 272
0.016372627 0.667 -0.037423145 1.8251007e-38 334 272
0.017568398 0.66799998 -0.037479252 1.8158453e-38 335 272
0.018739626 0.66799998 -0.037479252 1.8250286e-38 336 272
0.019970467 0.67000002 -0.037591465 1.8250286e-38 337 272
0.0211452 0.67000002 -0.037591465 1.8433966e-38 338 272
0.022319933 0.67000002 -0.037591465 1.8433966e-38 339 272
0.023494666 0.67000002 -0.037591465 1.8249579e-38 340 272
0.024669399 0.67000002 -0.037591465 1.8433969e-38 341 272
0.025844134 0.67000002 -0.037591465 1.8065907e-38 342 272
0.027018867 0.67000002 -0.037591465 1.8065907e-38 343 272
0.028193599 0.67000002 -0.037591465 1.8157033e-38 344 272
0.029412165 0.671 -0.037647571 1.8157033e-38 345 272
0.030588651 0.671 -0.037647571 1.7973009e-38 346 272
0.031765141 0.671 -0.037647571 1.7973009e-38 347 272
0.032941625 0.671 -0.037647571 1.7972653e-38 348 272
0.034118112 0.671 -0.037647571 1.7788622e-38 349 272
0.035347197 0.67199999 -0.037703678 1.7604944e-38 350 272
0.036634147 0.67400002 -0.037815895 1.7144325e-38 351 272
0.037871998 0.67500001 -0.037871998 1.7143603e-38 352 272
0.039113361 0.676 -0.037928104 1.7143603e-38 353 272
0.040417835 0.67799997 -0.038040318 1.6959578e-38 354 272
0.041606598 0.67799997 -0.038040318 1.6775546e-38 355 272
0.044113863 0.68000001 -0.038152531 1.4839789e-38 357 272
0.045306131 0.68000001 -0.038152531 1.4011094e-38 358 272
0.046498399 0.68000001 -0.038152531 1.4011094e-38 359 272
-0.1121958 0.71100003 -0.041138459 1.3272478e-38 230 273
-0.11079313 0.70999998 -0.041080594 1.2903696e-38 231 273
-0.10923968 0.708 -0.040964879 1.3178815e-38 232 273
-0.10784578 0.70700002 -0.040907022 1.2994784e-38 233 273
-0.10645538 0.70599997 -0.040849157 1.2812191e-38 234 273
-0.10491946 0.704 -0.040733438 1.2812191e-38 235 273
-0.10353784 0.70300001 -0.040675577 1.2996222e-38 236 273
-0.10230524 0.70300001 -0.040675577 1.3088418e-38 237 273
-0.10064133 0.69999999 -0.040502001 1.327244e-38 238 273
-0.09912996 0.69800001 -0.040386278 1.327244e-38 239 273
-0.09776587 0.69700003 -0.040328421 1.3547954e-38 240 273
-0.096405275 0.69599998 -0.040270556 1.3640151e-38 241 273
-0.094911434 0.69400001 -0.040154841 1.3456462e-38 242 273
-0.09369462 0.69400001 -0.040154841 1.3364266e-38 243 273
-0.092078045 0.69099998 -0.039981257 1.391779e-38 244 273
-0.090866491 0.69099998 -0.039981257 1.4470605e-38 245 273
-0.0895252 0.69 -0.0399234 1.5115271e-38 246 273
-0.088059418 0.68800002 -0.039807681 1.5484412e-38 247 273
-0.086853124 0.68800002 -0.039807681 1.6036136e-38 248 273
-0.085522331 0.68699998 -0.039749816 1.6220886e-38 249 273
-0.084195063 0.68599999 -0.039691959 1.6682212e-38 250 273
-0.082992278 0.68599999 -0.039691959 1.6774407e-38 251 273
-0.081431814 0.68300003 -0.039518382 1.6866603e-38 252 273
-0.080234289 0.68300003 -0.039518382 1.6958798e-38 253 273
-0.078921035 0.68199998 -0.039460517 1.6959167e-38 254 273
-0.077725261 0.68199998 -0.039460517 1.7051363e-38 255 273
-0.076529488 0.68199998 -0.039460517 1.7326157e-38 256 273
-0.075333714 0.68199998 -0.039460517 1.7418354e-38 257 273
-0.074137948 0.68199998 -0.039460517 1.7327228e-38 258 273
-0.072728261 0.68000001 -0.039344799 1.7327228e-38 259 273
-0.071535997 0.68000001 -0.039344799 1.7327954e-38 260 273
-0.070240289 0.67900002 -0.039286941 1.7327954e-38 261 273
-0.069049768 0.67900002 -0.039286941 1.7511988e-38 262 273
-0.06775932 0.67799997 -0.039229076 1.7604183e-38 263 273
-0.066570558 0.67799997 -0.039229076 1.7696382e-38 264 273
-0.065188929 0.676 -0.039113361 1.7788579e-38 265 273
-0.063909002 0.67500001 -0.039055496 1.7788584e-38 266 273
-0.062725499 0.67500001 -0.039055496 1.788078e-38 267 273
-0.061450824 0.67400002 -0.038997639 1.8156285e-38 268 273
-0.06026908 0.67400002 -0.038997639 1.8248839e-38 269 273
-0.059087332 0.67400002 -0.038997639 1.833995e-38 270 273
-0.057733759 0.67199999 -0.03888192 1.8432505e-38 271 273
-0.056555521 0.67199999 -0.03888192 1.8342104e-38 272 273
-0.055377278 0.67199999 -0.03888192 1.8249909e-38 273 273
-0.054199036 0.67199999 -0.03888192 1.8342104e-38 274 273
-0.053020798 0.67199999 -0.03888192 1.8342104e-38 275 273
-0.051996857 0.67400002 -0.038997639 1.8433584e-38 276 273
-0.050815105 0.67400002 -0.038997639 1.8433584e-38 277 273
-0.049486078 0.67199999 -0.03888192 1.8524345e-38 278 273
-0.04830784 0.67199999 -0.03888192 1.8524345e-38 279 273
-0.047059465 0.671 -0.038824059 1.8339237e-38 280 273
-0.045882981 0.671 -0.038824059 1.8339237e-38 281 273
-0.044706494 0.671 -0.038824059 1.8246686e-38 282 273
-0.043465134 0.67000002 -0.038766202 1.8523631e-38 283 273
-0.042290401 0.67000002 -0.038766202 1.8616543e-38 284 273
-0.040992931 0.66799998 -0.038650475 1.8985325e-38 285 273
-0.039821707 0.66799998 -0.038650475 1.9077874e-38 286 273
-0.038650475 0.66799998 -0.038650475 1.917007e-38 287 273
-0.037423145 0.667 -0.038592618 1.9169704e-38 288 273
-0.036253672 0.667 -0.038592618 1.9169704e-38 289 273
-0.035084199 0.667 -0.038592618 1.9077503e-38 290 273
-0.033914726 0.667 -0.038592618 1.9077503e-38 291 273
-0.032696161 0.66600001 -0.03853476 1.8986379e-38 292 273
-0.031528439 0.66600001 -0.03853476 1.8802348e-38 293 273
-0.030360719 0.66600001 -0.03853476 1.8894907e-38 294 273
-0.029192999 0.66600001 -0.03853476 1.8802711e-38 295 273
-0.027941117 0.66399997 -0.038419038 1.9078222e-38 296 273
-0.026776904 0.66399997 -0.038419038 1.8986026e-38 297 273
-0.025766984 0.66799998 -0.038650475 1.8802358e-38 298 273
-0.02459576 0.66799998 -0.038650475 1.8802358e-38 299 273
-0.023389466 0.667 -0.038592618 1.8894559e-38 300 273
-0.022219993 0.667 -0.038592618 1.8802364e-38 301 273
-0.021050518 0.667 -0.038592618 1.8618342e-38 302 273
-0.0093417596 0.66600001 -0.03853476 1.8433601e-38 312 273
-0.0081740404 0.66600001 -0.03853476 1.8433601e-38 313 273
-0.0070063197 0.66600001 -0.03853476 1.8433601e-38 314 273
-0.0058385995 0.66600001 -0.03853476 1.8433601e-38 315 273
-0.0046568532 0.66399997 -0.038419038 1.8249932e-38 316 273
-0.0034926396 0.66399997 -0.038419038 1.8249932e-38 317 273
-0.0023214133 0.662 -0.038303319 1.8433248e-38 318 273
-0.0011607066 0.662 -0.038303319 1.834105e-38 319 273
0 0.65700001 -0.038014017 1.8249935e-38 320 273
0.00115194 0.65700001 -0.038014017 1.8433966e-38 321 273
0.0023179066 0.66100001 -0.038245458 1.861801e-38 322 273
0.00347686 0.66100001 -0.038245458 1.8710206e-38 323 273
0.0046428265 0.662 -0.038303319 1.8527261e-38 324 273
0.0058122999 0.66299999 -0.038361177 1.8342868e-38 325 273
0.0069747595 0.66299999 -0.038361177 1.861836e-38 326 273
0.0081372196 0.66299999 -0.038361177 1.861836e-38 327 273
0.0092996797 0.66299999 -0.038361177 1.8526515e-38 328 273
0.01046214 0.66299999 -0.038361177 1.8526515e-38 329 273
0.0116246 0.66299999 -0.038361177 1.8618345e-38 330 273
0.012806346 0.66399997 -0.038419038 1.8802376e-38 331 273
0.014012639 0.66600001 -0.03853476 1.8618342e-38 332 273
0.01518036 0.66600001 -0.03853476 1.8526147e-38 333 273
0.016372627 0.667 -0.038592618 1.8434314e-38 334 273
0.017568398 0.66799998 -0.038650475 1.8434314e-38 335 273
0.018739626 0.66799998 -0.038650475 1.8433964e-38 336 273
0.019910853 0.66799998 -0.038650475 1.8249932e-38 337 273
0.021082079 0.66799998 -0.038650475 1.8249579e-38 338 273
0.022253305 0.66799998 -0.038650475 1.8249579e-38 339 273
0.023424532 0.66799998 -0.038650475 1.8249579e-38 340 273
0.024669399 0.67000002 -0.038766202 1.8157384e-38 341 273
0.025844134 0.67000002 -0.038766202 1.7973354e-38 342 273
0.027018867 0.67000002 -0.038766202 1.7789323e-38 343 273
0.028193599 0.67000002 -0.038766202 1.7513833e-38 344 273
0.029412165 0.671 -0.038824059 1.7513833e-38 345 273
0.030588651 0.671 -0.038824059 1.7513124e-38 346 273
0.031765141 0.671 -0.038824059 1.7513124e-38 347 273
0.032941625 0.671 -0.038824059 1.7237616e-38 348 273
0.034118112 0.671 -0.038824059 1.7145421e-38 349 273
0.035347197 0.67199999 -0.03888192 1.7235816e-38 350 273
0.036525436 0.67199999 -0.03888192 1.714362e-38 351 273
0.037815895 0.67400002 -0.038997639 1.6868464e-38 352 273
0.038997639 0.67400002 -0.038997639 1.6775909e-38 353 273
0.040238999 0.67500001 -0.039055496 1.668407e-38 354 273
0.041483864 0.676 -0.039113361 1.6315287e-38 355 273
0.042669121 0.676 -0.039113361 1.6313477e-38 356 273
0.043854371 0.676 -0.039113361 1.5575553e-38 357 273
0.045172878 0.67799997 -0.039229076 1.4563915e-38 358 273
0.046361636 0.67799997 -0.039229076 1.4287687e-38 359 273
0.047690667 0.68000001 -0.039344799 1.4287704e-38 360 273
0.049026705 0.68199998 -0.039460517 1.4656845e-38 361 273
0.050222475 0.68199998 -0.039460517 1.5208584e-38 362 273
-0.11079313 0.70999998 -0.042325463 1.2904794e-38 231 274
-0.10908539 0.70700002 -0.042146627 1.3088067e-38 232 274
-0.10769323 0.70599997 -0.042087011 1.2995513e-38 233 274
-0.10615381 0.704 -0.041967787 1.2811835e-38 234 274
-0.10491946 0.704 -0.041967787 1.2811835e-38 235 274
-0.10353784 0.70300001 -0.041908171 1.2994784e-38 236 274
-0.10230524 0.70300001 -0.041908171 1.3271011e-38 237 274
-0.10064133 0.69999999 -0.041729331 1.3362841e-38 238 274
-0.09912996 0.69800001 -0.041610107 1.3455037e-38 239 274
-0.097625598 0.69599998 -0.041490879 1.3639777e-38 240 274
-0.096128248 0.69400001 -0.041371655 1.3455387e-38 241 274
-0.094911434 0.69400001 -0.041371655 1.3639408e-38 242 274
-0.093289606 0.69099998 -0.041192811 1.3639408e-38 243 274
-0.092078045 0.69099998 -0.041192811 1.3914913e-38 244 274
-0.090866491 0.69099998 -0.041192811 1.3822718e-38 245 274
-0.089265712 0.68800002 -0.041013971 1.3549378e-38 246 274
-0.088059418 0.68800002 -0.041013971 1.4286943e-38 247 274
-0.086853124 0.68800002 -0.041013971 1.5205655e-38 248 274
-0.085522331 0.68699998 -0.040954359 1.5390046e-38 249 274
-0.084195063 0.68599999 -0.040894743 1.5576586e-38 250 274
-0.082750313 0.68400002 -0.040775519 1.5760977e-38 251 274
-0.081431814 0.68300003 -0.040715907 1.594537e-38 252 274
-0.080234289 0.68300003 -0.040715907 1.6406346e-38 253 274
-0.078921035 0.68199998 -0.040656291 1.6957001e-38 254 274
-0.077725261 0.68199998 -0.040656291 1.7049196e-38 255 274
-0.076305062 0.68000001 -0.040537067 1.7049196e-38 256 274
-0.075112797 0.68000001 -0.040537067 1.7233946e-38 257 274
-0.073811822 0.67900002 -0.040477451 1.7142467e-38 258 274
-0.072621316 0.67900002 -0.040477451 1.7142467e-38 259 274
-0.071430802 0.67900002 -0.040477451 1.7418328e-38 260 274
-0.070136838 0.67799997 -0.040417835 1.7418328e-38 261 274
-0.068948075 0.67799997 -0.040417835 1.7417612e-38 262 274
-0.06775932 0.67799997 -0.040417835 1.7602003e-38 263 274
-0.066374183 0.676 -0.040298611 1.7235384e-38 264 274
-0.065188929 0.676 -0.040298611 1.7327581e-38 265 274
-0.063909002 0.67500001 -0.040238999 1.7327225e-38 266 274
-0.062632568 0.67400002 -0.040179387 1.7604171e-38 267 274
-0.061450824 0.67400002 -0.040179387 1.8062628e-38 268 274
-0.060090236 0.67199999 -0.040060159 1.8062628e-38 269 274
-0.058911994 0.67199999 -0.040060159 1.8247375e-38 270 274
-0.057647847 0.671 -0.040000543 1.8339571e-38 271 274
-0.056471359 0.671 -0.040000543 1.8339935e-38 272 274
-0.055294871 0.671 -0.040000543 1.8339935e-38 273 274
-0.054118387 0.671 -0.040000543 1.8156623e-38 274 274
-0.052941896 0.671 -0.040000543 1.8340654e-38 275 274
-0.051765412 0.671 -0.040000543 1.8432852e-38 276 274
-0.050588924 0.671 -0.040000543 1.8525048e-38 277 274
-0.049412437 0.671 -0.040000543 1.8432852e-38 278 274
-0.048235953 0.671 -0.040000543 1.8156626e-38 279 274
-0.046989333 0.67000002 -0.039940935 1.8339938e-38 280 274
-0.0458146 0.67000002 -0.039940935 1.8247742e-38 281 274
-0.044706494 0.671 -0.040000543 1.8339941e-38 282 274
-0.043465134 0.67000002 -0.039940935 1.8524332e-38 283 274
-0.042164158 0.66799998 -0.039821707 1.85247e-38 284 274
-0.040992931 0.66799998 -0.039821707 1.8709093e-38 285 274
-0.039762091 0.667 -0.039762091 1.8801654e-38 286 274
-0.038592618 0.667 -0.039762091 1.8801654e-38 287 274
-0.037367038 0.66600001 -0.039702479 1.9077521e-38 288 274
-0.03619932 0.66600001 -0.039702479 1.9077521e-38 289 274
-0.035031598 0.66600001 -0.039702479 1.8894209e-38 290 274
-0.03386388 0.66600001 -0.039702479 1.8986404e-38 291 274
-0.03259797 0.66399997 -0.039583251 1.8893853e-38 292 274
-0.031433757 0.66399997 -0.039583251 1.8893853e-38 293 274
-0.030360719 0.66600001 -0.039702479 1.8802376e-38 294 274
-0.029192999 0.66600001 -0.039702479 1.8894572e-38 295 274
-0.028025279 0.66600001 -0.039702479 1.8894928e-38 296 274
-0.026857559 0.66600001 -0.039702479 1.8802373e-38 297 274
-0.025728412 0.667 -0.039762091 1.8895278e-38 298 274
-0.024558939 0.667 -0.039762091 1.8803082e-38 299 274
-0.023389466 0.667 -0.039762091 1.8895278e-38 300 274
-0.02218668 0.66600001 -0.039702479 1.8803082e-38 301 274
-0.02101896 0.66600001 -0.039702479 1.8802729e-38 302 274
-0.019851239 0.66600001 -0.039702479 1.8802729e-38 303 274
-0.018627413 0.66399997 -0.039583251 1.8435749e-38 304 274
-0.0174632 0.66399997 -0.039583251 1.8435749e-38 305 274
-0.011607066 0.662 -0.039464023 1.8618342e-38 310 274
-0.01044636 0.662 -0.039464023 1.8802373e-38 311 274
-0.009285653 0.662 -0.039464023 1.8619061e-38 312 274
-0.0081372196 0.66299999 -0.039523639 1.8619061e-38 313 274
-0.0069747595 0.66299999 -0.039523639 1.8618345e-38 314 274
-0.0058122999 0.66299999 -0.039523639 1.8618345e-38 315 274
-0.0046498398 0.66299999 -0.039523639 1.8526512e-38 316 274
-0.0034821199 0.662 -0.039464023 1.8526512e-38 317 274
-0.0023214133 0.662 -0.039464023 1.8434317e-38 318 274
-0.0011589533 0.66100001 -0.039404415 1.8526512e-38 319 274
0 0.66100001 -0.039404415 1.8617989e-38 320 274
0.0011589533 0.66100001 -0.039404415 1.8802379e-38 321 274
0.0023179066 0.66100001 -0.039404415 1.8526515e-38 322 274
0.00347686 0.66100001 -0.039404415 1.8618711e-38 323 274
0.0046428265 0.662 -0.039464023 1.8618358e-38 324 274
0.0058035329 0.662 -0.039464023 1.8526162e-38 325 274
0.0069642398 0.662 -0.039464023 1.8526162e-38 326 274
0.0081372196 0.66299999 -0.039523639 1.8526162e-38 327 274
0.0092996797 0.66299999 -0.039523639 1.8617995e-38 328 274
0.01046214 0.66299999 -0.039523639 1.8617995e-38 329 274
0.0116246 0.66299999 -0.039523639 1.8617995e-38 330 274
0.012806346 0.66399997 -0.039583251 1.852544e-38 331 274
0.014012639 0.66600001 -0.039702479 1.8525443e-38 332 274
0.01518036 0.66600001 -0.039702479 1.8433248e-38 333 274
0.016372627 0.667 -0.039762091 1.8433248e-38 334 274
0.017568398 0.66799998 -0.039821707 1.834105e-38 335 274
0.018739626 0.66799998 -0.039821707 1.8249579e-38 336 274
0.019881045 0.667 -0.039762091 1.8157384e-38 337 274
0.021050518 0.667 -0.039762091 1.8340696e-38 338 274
0.022219993 0.667 -0.039762091 1.8340696e-38 339 274
0.023424532 0.66799998 -0.039821707 1.7972988e-38 340 274
0.02459576 0.66799998 -0.039821707 1.7972988e-38 341 274
0.025766984 0.66799998 -0.039821707 1.7697478e-38 342 274
0.027018867 0.67000002 -0.039940935 1.7605282e-38 343 274
0.028193599 0.67000002 -0.039940935 1.7604216e-38 344 274
0.029412165 0.671 -0.040000543 1.7604216e-38 345 274
0.030588651 0.671 -0.040000543 1.7512033e-38 346 274
0.031765141 0.671 -0.040000543 1.7512033e-38 347 274
0.032941625 0.671 -0.040000543 1.7236166e-38 348 274
0.034118112 0.671 -0.040000543 1.7143969e-38 349 274
0.0352946 0.671 -0.040000543 1.7051054e-38 350 274
0.036525436 0.67199999 -0.040060159 1.6958859e-38 351 274
0.037815895 0.67400002 -0.040179387 1.6591871e-38 352 274
0.038997639 0.67400002 -0.040179387 1.6591871e-38 353 274
0.040238999 0.67500001 -0.040238999 1.6499323e-38 354 274
0.041422497 0.67500001 -0.040238999 1.6591518e-38 355 274
0.042669121 0.676 -0.040298611 1.6408209e-38 356 274
0.043854371 0.676 -0.040298611 1.6131262e-38 357 274
0.045039624 0.676 -0.040298611 1.5855385e-38 358 274
0.046361636 0.67799997 -0.040417835 1.5302211e-38 359 274
0.047620531 0.67900002 -0.040477451 1.4567881e-38 360 274
0.049026705 0.68199998 -0.040656291 1.4567881e-38 361 274
0.050222475 0.68199998 -0.040656291 1.4935593e-38 362 274
0.051418249 0.68199998 -0.040656291 1.4935593e-38 363 274
-0.10908539 0.70700002 -0.043386232 1.3179557e-38 232 275
-0.10738816 0.704 -0.043202132 1.2995166e-38 233 275
-0.10615381 0.704 -0.043202132 1.2811838e-38 234 275
-0.10491946 0.704 -0.043202132 1.2811838e-38 235 275
-0.10368512 0.704 -0.043202132 1.2811835e-38 236 275
-0.10230524 0.70300001 -0.043140765 1.2811835e-38 237 275
-0.10064133 0.69999999 -0.042956665 1.3271014e-38 238 275
-0.09912996 0.69800001 -0.042833932 1.3271014e-38 239 275
-0.097625598 0.69599998 -0.042711195 1.3362838e-38 240 275
-0.096128248 0.69400001 -0.042588469 1.3455393e-38 241 275
-0.094911434 0.69400001 -0.042588469 1.3364266e-38 242 275
-0.093289606 0.69099998 -0.042404365 1.3364266e-38 243 275
-0.092078045 0.69099998 -0.042404365 1.3363913e-38 244 275
-0.090866491 0.69099998 -0.042404365 1.3363913e-38 245 275
-0.089265712 0.68800002 -0.042220265 1.345539e-38 246 275
-0.088059418 0.68800002 -0.042220265 1.3916368e-38 247 275
-0.086853124 0.68800002 -0.042220265 1.4284772e-38 248 275
-0.085522331 0.68699998 -0.042158898 1.4377326e-38 249 275
-0.084195063 0.68599999 -0.042097531 1.465535e-38 250 275
-0.082750313 0.68400002 -0.041974798 1.48401e-38 251 275
-0.081431814 0.68300003 -0.041913435 1.53e-38 252 275
-0.080116808 0.68199998 -0.041852064 1.5760977e-38 253 275
-0.078689598 0.68000001 -0.041729335 1.6037921e-38 254 275
-0.077497333 0.68000001 -0.041729335 1.6221952e-38 255 275
-0.076305062 0.68000001 -0.041729335 1.6130483e-38 256 275
-0.075002335 0.67900002 -0.041667968 1.6223037e-38 257 275
-0.073811822 0.67900002 -0.041667968 1.6498546e-38 258 275
-0.072514355 0.67799997 -0.041606598 1.6498546e-38 259 275
-0.0713256 0.67799997 -0.041606598 1.6956984e-38 260 275
-0.070136838 0.67799997 -0.041606598 1.6864788e-38 261 275
-0.068948075 0.67799997 -0.041606598 1.695734e-38 262 275
-0.067559443 0.676 -0.041483864 1.7233568e-38 263 275
-0.066374183 0.676 -0.041483864 1.7049565e-38 264 275
-0.065092497 0.67500001 -0.041422497 1.7234315e-38 265 275
-0.06381432 0.67400002 -0.041361131 1.6958464e-38 266 275
-0.062632568 0.67400002 -0.041361131 1.7143215e-38 267 275
-0.061268479 0.67199999 -0.041238401 1.732651e-38 268 275
-0.060090236 0.67199999 -0.041238401 1.7418707e-38 269 275
-0.058911994 0.67199999 -0.041238401 1.7419774e-38 270 275
-0.057647847 0.671 -0.041177034 1.7512328e-38 271 275
-0.056471359 0.671 -0.041177034 1.7787486e-38 272 275
-0.055294871 0.671 -0.041177034 1.7787486e-38 273 275
-0.054118387 0.671 -0.041177034 1.7788214e-38 274 275
-0.052941896 0.671 -0.041177034 1.7788214e-38 275 275
-0.051765412 0.671 -0.041177034 1.7788935e-38 276 275
-0.050588924 0.671 -0.041177034 1.7788935e-38 277 275
-0.049338799 0.67000002 -0.041115668 1.8064443e-38 278 275
-0.048164066 0.67000002 -0.041115668 1.7972247e-38 279 275
-0.046849065 0.66799998 -0.040992931 1.7971527e-38 280 275
-0.045677837 0.66799998 -0.040992931 1.8063724e-38 281 275
-0.044639867 0.67000002 -0.041115668 1.8155919e-38 282 275
-0.04327051 0.667 -0.040931564 1.8432505e-38 283 275
-0.042101037 0.667 -0.040931564 1.8249202e-38 284 275
-0.040931564 0.667 -0.040931564 1.8341398e-38 285 275
-0.039762091 0.667 -0.040931564 1.8433954e-38 286 275
-0.03853476 0.66600001 -0.040870197 1.8433954e-38 287 275
-0.037367038 0.66600001 -0.040870197 1.8709459e-38 288 275
-0.03619932 0.66600001 -0.040870197 1.8709459e-38 289 275
-0.035031598 0.66600001 -0.040870197 1.8617989e-38 290 275
-0.033762183 0.66399997 -0.040747464 1.8617989e-38 291 275
-0.03259797 0.66399997 -0.040747464 1.8802023e-38 292 275
-0.031433757 0.66399997 -0.040747464 1.8617992e-38 293 275
-0.030269546 0.66399997 -0.040747464 1.8617989e-38 294 275
-0.02910533 0.66399997 -0.040747464 1.8802379e-38 295 275
-0.027941117 0.66399997 -0.040747464 1.9077165e-38 296 275
-0.026776904 0.66399997 -0.040747464 1.9077165e-38 297 275
-0.025574118 0.66299999 -0.040686097 1.8894206e-38 298 275
-0.024411658 0.66299999 -0.040686097 1.8894206e-38 299 275
-0.023389466 0.667 -0.040931564 1.8894206e-38 300 275
-0.022120051 0.66399997 -0.040747464 1.8894206e-38 301 275
-0.020924279 0.66299999 -0.040686097 1.8802373e-38 302 275
-0.019761819 0.66299999 -0.040686097 1.8802373e-38 303 275
-0.018599359 0.66299999 -0.040686097 1.8802373e-38 304 275
-0.017436899 0.66299999 -0.040686097 1.8802373e-38 305 275
-0.016274439 0.66299999 -0.040686097 1.8802376e-38 306 275
-0.015089186 0.662 -0.04062473 1.8802376e-38 307 275
-0.01392848 0.662 -0.04062473 1.8802376e-38 308 275
-0.012767773 0.662 -0.04062473 1.8802376e-38 309 275
-0.011607066 0.662 -0.04062473 1.8894209e-38 310 275
-0.01044636 0.662 -0.04062473 1.8894209e-38 311 275
-0.009285653 0.662 -0.04062473 1.8618345e-38 312 275
-0.0081372196 0.66299999 -0.040686097 1.8618345e-38 313 275
-0.0069642398 0.662 -0.04062473 1.880166e-38 314 275
-0.0058035329 0.662 -0.04062473 1.880166e-38 315 275
-0.0046498398 0.66299999 -0.040686097 1.8526512e-38 316 275
-0.0034821199 0.662 -0.04062473 1.8526512e-38 317 275
-0.0023214133 0.662 -0.04062473 1.8434317e-38 318 275
-0.0011589533 0.66100001 -0.040563367 1.8526512e-38 319 275
0 0.66100001 -0.040563367 1.8617989e-38 320 275
0.0011589533 0.66100001 -0.040563367 1.8617989e-38 321 275
0.0023179066 0.66100001 -0.040563367 1.8617995e-38 322 275
0.0034821199 0.662 -0.04062473 1.8802026e-38 323 275
0.0046428265 0.662 -0.04062473 1.8526165e-38 324 275
0.0058035329 0.662 -0.04062473 1.8526165e-38 325 275
0.0069642398 0.662 -0.04062473 1.834285e-38 326 275
0.0081372196 0.66299999 -0.040686097 1.834285e-38 327 275
0.0092996797 0.66299999 -0.040686097 1.8433966e-38 328 275
0.01046214 0.66299999 -0.040686097 1.8433966e-38 329 275
0.0116246 0.66299999 -0.040686097 1.8433969e-38 330 275
0.012787059 0.66299999 -0.040686097 1.8249579e-38 331 275
0.013970559 0.66399997 -0.040747464 1.8157384e-38 332 275
0.015134773 0.66399997 -0.040747464 1.8157384e-38 333 275
0.016348081 0.66600001 -0.040870197 1.8065189e-38 334 275
0.017515799 0.66600001 -0.040870197 1.7972635e-38 335 275
0.018711573 0.667 -0.040931564 1.7973357e-38 336 275
0.019881045 0.667 -0.040931564 1.7789326e-38 337 275
0.021050518 0.667 -0.040931564 1.7696774e-38 338 275
0.022219993 0.667 -0.040931564 1.7604578e-38 339 275
0.023389466 0.667 -0.040931564 1.7604934e-38 340 275
0.024558939 0.667 -0.040931564 1.751238e-38 341 275
0.025728412 0.667 -0.040931564 1.7328338e-38 342 275
0.026938211 0.66799998 -0.040992931 1.7144307e-38 343 275
0.028109439 0.66799998 -0.040992931 1.7052124e-38 344 275
0.029368332 0.67000002 -0.041115668 1.6959928e-38 345 275
0.030588651 0.671 -0.041177034 1.6683714e-38 346 275
0.0317178 0.67000002 -0.041115668 1.6683714e-38 347 275
0.032892533 0.67000002 -0.041115668 1.6775546e-38 348 275
0.034067266 0.67000002 -0.041115668 1.6591155e-38 349 275
0.0352946 0.671 -0.041177034 1.6315643e-38 350 275
0.036471087 0.671 -0.041177034 1.6315643e-38 351 275
0.037703678 0.67199999 -0.041238401 1.6223813e-38 352 275
0.038997639 0.67400002 -0.041361131 1.6131259e-38 353 275
0.040179387 0.67400002 -0.041361131 1.6040149e-38 354 275
0.041361131 0.67400002 -0.041361131 1.6040149e-38 355 275
0.042606 0.67500001 -0.041422497 1.5947596e-38 356 275
0.043854371 0.676 -0.041483864 1.5947596e-38 357 275
0.045039624 0.676 -0.041483864 1.5763908e-38 358 275
0.046224877 0.676 -0.041483864 1.5395126e-38 359 275
0.047620531 0.67900002 -0.041667968 1.5028492e-38 360 275
0.048882935 0.68000001 -0.041729335 1.5028492e-38 361 275
0.050075196 0.68000001 -0.041729335 1.5120337e-38 362 275
0.051267464 0.68000001 -0.041729335 1.5028141e-38 363 275
0.052614026 0.68199998 -0.041852064 1.5301861e-38 364 275
-0.1086225 0.704 -0.044436477 1.2812949e-38 232 276
-0.10738816 0.704 -0.044436477 1.2720752e-38 233 276
-0.10615381 0.704 -0.044436477 1.2995516e-38 234 276
-0.10491946 0.704 -0.044436477 1.2811485e-38 235 276
-0.10353784 0.70300001 -0.04437336 1.2719639e-38 236 276
-0.10230524 0.70300001 -0.04437336 1.2719639e-38 237 276
-0.10064133 0.69999999 -0.044183996 1.317846e-38 238 276
-0.09912996 0.69800001 -0.04405776 1.317846e-38 239 276
-0.097625598 0.69599998 -0.043931518 1.3270645e-38 240 276
-0.096128248 0.69400001 -0.043805279 1.3362841e-38 241 276
-0.094911434 0.69400001 -0.043805279 1.3271715e-38 242 276
-0.093559615 0.69300002 -0.043742158 1.3271715e-38 243 276
-0.092078045 0.69099998 -0.043615919 1.3179872e-38 244 276
-0.090866491 0.69099998 -0.043615919 1.3272068e-38 245 276
-0.089265712 0.68800002 -0.043426562 1.3364261e-38 246 276
-0.088059418 0.68800002 -0.043426562 1.3364261e-38 247 276
-0.086726874 0.68699998 -0.043363437 1.345609e-38 248 276
-0.085397847 0.68599999 -0.043300316 1.3363895e-38 249 276
-0.083949596 0.68400002 -0.043174081 1.3457881e-38 250 276
-0.082629345 0.68300003 -0.043110959 1.3827024e-38 251 276
-0.081312582 0.68199998 -0.043047838 1.4286929e-38 252 276
-0.080116808 0.68199998 -0.043047838 1.4747548e-38 253 276
-0.078689598 0.68000001 -0.042921599 1.5208879e-38 254 276
-0.077497333 0.68000001 -0.042921599 1.5485466e-38 255 276
-0.076192856 0.67900002 -0.042858478 1.5944993e-38 256 276
-0.074891873 0.67799997 -0.042795356 1.6037188e-38 257 276
-0.073703118 0.67799997 -0.042795356 1.6404536e-38 258 276
-0.072514355 0.67799997 -0.042795356 1.6404536e-38 259 276
-0.071115203 0.676 -0.042669121 1.6220868e-38 260 276
-0.069929942 0.676 -0.042669121 1.6128672e-38 261 276
-0.068744689 0.676 -0.042669121 1.640418e-38 262 276
-0.067559443 0.676 -0.042669121 1.658893e-38 263 276
-0.066374183 0.676 -0.042669121 1.6588943e-38 264 276
-0.065092497 0.67500001 -0.042606 1.6865531e-38 265 276
-0.06381432 0.67400002 -0.042542879 1.6590392e-38 266 276
-0.062632568 0.67400002 -0.042542879 1.6866618e-38 267 276
-0.061268479 0.67199999 -0.042416636 1.6682584e-38 268 276
-0.060090236 0.67199999 -0.042416636 1.6866974e-38 269 276
-0.058824331 0.671 -0.042353518 1.6866969e-38 270 276
-0.057647847 0.671 -0.042353518 1.6866969e-38 271 276
-0.056471359 0.671 -0.042353518 1.7327228e-38 272 276
-0.055294871 0.671 -0.042353518 1.7051e-38 273 276
-0.054118387 0.671 -0.042353518 1.741907e-38 274 276
-0.052941896 0.671 -0.042353518 1.7511625e-38 275 276
-0.051765412 0.671 -0.042353518 1.7328322e-38 276 276
-0.050362743 0.66799998 -0.042164158 1.7328322e-38 277 276
-0.04919152 0.66799998 -0.042164158 1.7786779e-38 278 276
-0.048020288 0.66799998 -0.042164158 1.7786779e-38 279 276
-0.046778932 0.667 -0.042101037 1.7787133e-38 280 276
-0.045609459 0.667 -0.042101037 1.7879328e-38 281 276
-0.044439986 0.667 -0.042101037 1.7879331e-38 282 276
-0.04327051 0.667 -0.042101037 1.8063724e-38 283 276
-0.042037919 0.66600001 -0.042037919 1.8064445e-38 284 276
-0.040870197 0.66600001 -0.042037919 1.8156641e-38 285 276
-0.039702479 0.66600001 -0.042037919 1.8523979e-38 286 276
-0.03853476 0.66600001 -0.042037919 1.8523979e-38 287 276
-0.037254825 0.66399997 -0.041911677 1.8248834e-38 288 276
-0.036090612 0.66399997 -0.041911677 1.8341388e-38 289 276
-0.0349264 0.66399997 -0.041911677 1.8433234e-38 290 276
-0.033762183 0.66399997 -0.041911677 1.8617266e-38 291 276
-0.032548878 0.66299999 -0.041848559 1.8617263e-38 292 276
-0.031386416 0.66299999 -0.041848559 1.8617263e-38 293 276
-0.030269546 0.66399997 -0.041911677 1.861726e-38 294 276
-0.02910533 0.66399997 -0.041911677 1.8709815e-38 295 276
-0.027941117 0.66399997 -0.041911677 1.8801292e-38 296 276
-0.026776904 0.66399997 -0.041911677 1.8801292e-38 297 276
-0.025574118 0.66299999 -0.041848559 1.8618345e-38 298 276
-0.024411658 0.66299999 -0.041848559 1.8618345e-38 299 276
-0.023354398 0.66600001 -0.042037919 1.8617989e-38 300 276
-0.022120051 0.66399997 -0.041911677 1.8525793e-38 301 276
-0.020892721 0.662 -0.041785441 1.8617995e-38 302 276
-0.019732011 0.662 -0.041785441 1.8617995e-38 303 276
-0.018571306 0.662 -0.041785441 1.852544e-38 304 276
-0.0173843 0.66100001 -0.04172232 1.8617995e-38 305 276
-0.016225345 0.66100001 -0.04172232 1.8617995e-38 306 276
-0.015066394 0.66100001 -0.04172232 1.8617995e-38 307 276
-0.01390744 0.66100001 -0.04172232 1.8617992e-38 308 276
-0.012748486 0.66100001 -0.04172232 1.8617992e-38 309 276
-0.011589534 0.66100001 -0.04172232 1.8617992e-38 310 276
-0.01043058 0.66100001 -0.04172232 1.8617992e-38 311 276
-0.0092716264 0.66100001 -0.04172232 1.8617992e-38 312 276
-0.0081249457 0.662 -0.041785441 1.8617992e-38 313 276
-0.0069642398 0.662 -0.041785441 1.8526515e-38 314 276
-0.0058035329 0.662 -0.041785441 1.8526515e-38 315 276
-0.0046428265 0.662 -0.041785441 1.843432e-38 316 276
-0.00347686 0.66100001 -0.04172232 1.843432e-38 317 276
-0.0023179066 0.66100001 -0.04172232 1.8525443e-38 318 276
-0.0011589533 0.66100001 -0.04172232 1.8525443e-38 319 276
0 0.66100001 -0.04172232 1.8525446e-38 320 276
0.0011589533 0.66100001 -0.04172232 1.8525446e-38 321 276
0.0023179066 0.66100001 -0.04172232 1.8525446e-38 322 276
0.00347686 0.66100001 -0.04172232 1.8617642e-38 323 276
0.0046428265 0.662 -0.041785441 1.8525443e-38 324 276
0.0058035329 0.662 -0.041785441 1.8525443e-38 325 276
0.0069642398 0.662 -0.041785441 1.8433964e-38 326 276
0.0081249457 0.662 -0.041785441 1.8249932e-38 327 276
0.009285653 0.662 -0.041785441 1.8433245e-38 328 276
0.01046214 0.66299999 -0.041848559 1.8341048e-38 329 276
0.011607066 0.662 -0.041785441 1.8157384e-38 330 276
0.012767773 0.662 -0.041785441 1.8065187e-38 331 276
0.013949519 0.66299999 -0.041848559 1.7973357e-38 332 276
0.015111978 0.66299999 -0.041848559 1.7789326e-38 333 276
0.016298985 0.66399997 -0.041911677 1.7880439e-38 334 276
0.0174632 0.66399997 -0.041911677 1.7880439e-38 335 276
0.018683519 0.66600001 -0.042037919 1.769713e-38 336 276
0.019851239 0.66600001 -0.042037919 1.7604934e-38 337 276
0.02101896 0.66600001 -0.042037919 1.751238e-38 338 276
0.02218668 0.66600001 -0.042037919 1.7327987e-38 339 276
0.023354398 0.66600001 -0.042037919 1.7235426e-38 340 276
0.024558939 0.667 -0.042101037 1.7235426e-38 341 276
0.025728412 0.667 -0.042101037 1.7143228e-38 342 276
0.026897885 0.667 -0.042101037 1.6959196e-38 343 276
0.028067358 0.667 -0.042101037 1.6774818e-38 344 276
0.029280664 0.66799998 -0.042164158 1.6682621e-38 345 276
0.030543067 0.67000002 -0.042290401 1.6314208e-38 346 276
0.0317178 0.67000002 -0.042290401 1.6130177e-38 347 276
0.032892533 0.67000002 -0.042290401 1.6038347e-38 348 276
0.034067266 0.67000002 -0.042290401 1.5946152e-38 349 276
0.035241999 0.67000002 -0.042290401 1.5854685e-38 350 276
0.036471087 0.671 -0.042353518 1.5854685e-38 351 276
0.037647571 0.671 -0.042353518 1.5762486e-38 352 276
0.03888192 0.67199999 -0.042416636 1.5762486e-38 353 276
0.040060159 0.67199999 -0.042416636 1.5579893e-38 354 276
0.041238401 0.67199999 -0.042416636 1.5579893e-38 355 276
0.042542879 0.67400002 -0.042542879 1.5579184e-38 356 276
0.043789499 0.67500001 -0.042606 1.5579184e-38 357 276
0.044972997 0.67500001 -0.042606 1.5303673e-38 358 276
0.046224877 0.676 -0.042669121 1.5211477e-38 359 276
0.047550395 0.67799997 -0.042795356 1.4936323e-38 360 276
0.048882935 0.68000001 -0.042921599 1.4936323e-38 361 276
0.050075196 0.68000001 -0.042921599 1.5118912e-38 362 276
0.051267464 0.68000001 -0.042921599 1.5026716e-38 363 276
0.052614026 0.68199998 -0.043047838 1.5118189e-38 364 276
0.053809796 0.68199998 -0.043047838 1.5118189e-38 365 276
-0.10738816 0.704 -0.045670826 1.2352352e-38 233 277
-0.10615381 0.704 -0.045670826 1.281185e-38 234 277
-0.10491946 0.704 -0.045670826 1.2719655e-38 235 277
-0.10353784 0.70300001 -0.04560595 1.2627807e-38 236 277
-0.10230524 0.70300001 -0.04560595 1.2443774e-38 237 277
-0.1007851 0.70099998 -0.045476202 1.2627086e-38 238 277
-0.09912996 0.69800001 -0.045281585 1.2627086e-38 239 277
-0.09776587 0.69700003 -0.045216713 1.3085897e-38 240 277
-0.096405275 0.69599998 -0.045151837 1.3178094e-38 241 277
-0.094911434 0.69400001 -0.045022093 1.2995488e-38 242 277
-0.09369462 0.69400001 -0.045022093 1.2995488e-38 243 277
-0.092078045 0.69099998 -0.044827472 1.2904008e-38 244 277
-0.090866491 0.69099998 -0.044827472 1.2996204e-38 245 277
-0.089265712 0.68800002 -0.044632856 1.3271712e-38 246 277
-0.088059418 0.68800002 -0.044632856 1.3271712e-38 247 277
-0.086726874 0.68699998 -0.044567976 1.3364263e-38 248 277
-0.085397847 0.68599999 -0.044503104 1.3272068e-38 249 277
-0.083949596 0.68400002 -0.04437336 1.2997273e-38 250 277
-0.082629345 0.68300003 -0.044308487 1.3089469e-38 251 277
-0.081312582 0.68199998 -0.044243611 1.3549724e-38 252 277
-0.080116808 0.68199998 -0.044243611 1.3826671e-38 253 277
-0.078689598 0.68000001 -0.044113863 1.4012134e-38 254 277
-0.077497333 0.68000001 -0.044113863 1.4380558e-38 255 277
-0.076192856 0.67900002 -0.044048995 1.4840803e-38 256 277
-0.074891873 0.67799997 -0.043984115 1.511703e-38 257 277
-0.073485702 0.676 -0.043854371 1.5391819e-38 258 277
-0.072300449 0.676 -0.043854371 1.5484375e-38 259 277
-0.071115203 0.676 -0.043854371 1.5668416e-38 260 277
-0.069929942 0.676 -0.043854371 1.5760611e-38 261 277
-0.068744689 0.676 -0.043854371 1.6128319e-38 262 277
-0.067459501 0.67500001 -0.043789499 1.6220515e-38 263 277
-0.066275999 0.67500001 -0.043789499 1.6404551e-38 264 277
-0.064996064 0.67400002 -0.043724626 1.6588943e-38 265 277
-0.06381432 0.67400002 -0.043724626 1.6588589e-38 266 277
-0.062446721 0.67199999 -0.043594878 1.6772982e-38 267 277
-0.061268479 0.67199999 -0.043594878 1.6681861e-38 268 277
-0.060090236 0.67199999 -0.043594878 1.6774057e-38 269 277
-0.058824331 0.671 -0.043530006 1.6590739e-38 270 277
-0.057647847 0.671 -0.043530006 1.6590739e-38 271 277
-0.056387197 0.67000002 -0.043465134 1.6866606e-38 272 277
-0.055212468 0.67000002 -0.043465134 1.677441e-38 273 277
-0.054037735 0.67000002 -0.043465134 1.668294e-38 274 277
-0.052863002 0.67000002 -0.043465134 1.6959167e-38 275 277
-0.051533967 0.66799998 -0.043335386 1.7051012e-38 276 277
-0.050362743 0.66799998 -0.043335386 1.7143209e-38 277 277
-0.049117878 0.667 -0.04327051 1.7235034e-38 278 277
-0.047948405 0.667 -0.04327051 1.7050644e-38 279 277
-0.046708796 0.66600001 -0.043205637 1.732651e-38 280 277
-0.045541082 0.66600001 -0.043205637 1.7694934e-38 281 277
-0.04437336 0.66600001 -0.043205637 1.7694584e-38 282 277
-0.043205637 0.66600001 -0.043205637 1.7786779e-38 283 277
-0.042037919 0.66600001 -0.043205637 1.7696016e-38 284 277
-0.040747464 0.66399997 -0.043075889 1.7511625e-38 285 277
-0.039583251 0.66399997 -0.043075889 1.8062996e-38 286 277
-0.038419038 0.66399997 -0.043075889 1.8062996e-38 287 277
-0.037254825 0.66399997 -0.043075889 1.8063724e-38 288 277
-0.036090612 0.66399997 -0.043075889 1.8063724e-38 289 277
-0.034873798 0.66299999 -0.043011017 1.7880777e-38 290 277
-0.033711337 0.66299999 -0.043011017 1.7880777e-38 291 277
-0.032499783 0.662 -0.042946145 1.7880777e-38 292 277
-0.031339079 0.662 -0.042946145 1.7880777e-38 293 277
-0.030178372 0.662 -0.042946145 1.788113e-38 294 277
-0.02910533 0.66399997 -0.043075889 1.8157357e-38 295 277
-0.027899038 0.66299999 -0.043011017 1.8156641e-38 296 277
-0.026736578 0.66299999 -0.043011017 1.8248837e-38 297 277
-0.025535546 0.662 -0.042946145 1.8249558e-38 298 277
-0.024374841 0.662 -0.042946145 1.8249558e-38 299 277
-0.023214132 0.662 -0.042946145 1.8341401e-38 300 277
-0.022053426 0.662 -0.042946145 1.8249205e-38 301 277
-0.02086116 0.66100001 -0.042881273 1.8341048e-38 302 277
-0.019702207 0.66100001 -0.042881273 1.8341048e-38 303 277
-0.018543253 0.66100001 -0.042881273 1.8432524e-38 304 277
-0.017331699 0.65899998 -0.042751525 1.8432524e-38 305 277
-0.016176252 0.65899998 -0.042751525 1.8616193e-38 306 277
-0.015066394 0.66100001 -0.042881273 1.8616193e-38 307 277
-0.01390744 0.66100001 -0.042881273 1.8432524e-38 308 277
-0.012748486 0.66100001 -0.042881273 1.8432524e-38 309 277
-0.011589534 0.66100001 -0.042881273 1.8433245e-38 310 277
-0.01043058 0.66100001 -0.042881273 1.8433245e-38 311 277
-0.0092716264 0.66100001 -0.042881273 1.8250288e-38 312 277
-0.0081126727 0.66100001 -0.042881273 1.8250288e-38 313 277
-0.00695372 0.66100001 -0.042881273 1.8250288e-38 314 277
-0.0057947668 0.66100001 -0.042881273 1.8250288e-38 315 277
-0.0046358132 0.66100001 -0.042881273 1.8157735e-38 316 277
-0.00347686 0.66100001 -0.042881273 1.8157735e-38 317 277
-0.0023179066 0.66100001 -0.042881273 1.8340696e-38 318 277
-0.0011589533 0.66100001 -0.042881273 1.8248499e-38 319 277
0 0.65899998 -0.042751525 1.7973357e-38 320 277
0.0011554466 0.65899998 -0.042751525 1.7973357e-38 321 277
0.0023108933 0.65899998 -0.042751525 1.8340699e-38 322 277
0.00347686 0.66100001 -0.042881273 1.8340699e-38 323 277
0.0046358132 0.66100001 -0.042881273 1.8340332e-38 324 277
0.0057947668 0.66100001 -0.042881273 1.8340332e-38 325 277
0.00695372 0.66100001 -0.042881273 1.7973344e-38 326 277
0.0081249457 0.662 -0.042946145 1.788079e-38 327 277
0.009285653 0.662 -0.042946145 1.788043e-38 328 277
0.01044636 0.662 -0.042946145 1.788043e-38 329 277
0.011607066 0.662 -0.042946145 1.7880077e-38 330 277
0.012767773 0.662 -0.042946145 1.7787881e-38 331 277
0.01392848 0.662 -0.042946145 1.7053557e-38 332 277
0.015089186 0.662 -0.042946145 1.696136e-38 333 277
0.016249891 0.662 -0.042946145 1.7327985e-38 334 277
0.017436899 0.66299999 -0.043011017 1.7327985e-38 335 277
0.018627413 0.66399997 -0.043075889 1.7052479e-38 336 277
0.019791625 0.66399997 -0.043075889 1.6775894e-38 337 277
0.020955838 0.66399997 -0.043075889 1.6776247e-38 338 277
0.022120051 0.66399997 -0.043075889 1.6591856e-38 339 277
0.023354398 0.66600001 -0.043205637 1.640746e-38 340 277
0.02452212 0.66600001 -0.043205637 1.6315265e-38 341 277
0.02568984 0.66600001 -0.043205637 1.6406744e-38 342 277
0.026857559 0.66600001 -0.043205637 1.6406744e-38 343 277
0.028025279 0.66600001 -0.043205637 1.6497155e-38 344 277
0.029236831 0.667 -0.04327051 1.6220928e-38 345 277
0.030451892 0.66799998 -0.043335386 1.5669918e-38 346 277
0.031623118 0.66799998 -0.043335386 1.5669918e-38 347 277
0.032794341 0.66799998 -0.043335386 1.5669566e-38 348 277
0.034067266 0.67000002 -0.043465134 1.5669566e-38 349 277
0.035241999 0.67000002 -0.043465134 1.5577739e-38 350 277
0.036416732 0.67000002 -0.043465134 1.5485542e-38 351 277
