# .PCD v.7 - Point Cloud Data file format
FIELDS x y z rgb imX imY
SIZE 4 4 4 4 4 4
TYPE F F F F F F
COUNT 1 1 1 1 1 1
WIDTH 851
HEIGHT 1
VIEWPOINT 0 0 0 1 0 0 0
POINTS 851
DATA ascii
-0.049896359 0.83700001 0.03815604 8.8482217e-39 286 214
-0.048428819 0.83700001 0.03815604 8.6638304e-39 287 214
-0.046961278 0.83700001 0.03815604 8.7545939e-39 288 214
-0.045493741 0.83700001 0.03815604 8.4783658e-39 289 214
-0.043920998 0.83499998 0.038064864 8.5684132e-39 290 214
-0.042456966 0.83499998 0.038064864 8.4762176e-39 291 214
-0.040992931 0.83499998 0.038064864 8.1081581e-39 292 214
-0.039528899 0.83499998 0.038064864 7.9237655e-39 293 214
-0.03815604 0.83700001 0.03815604 7.0965243e-39 294 214
-0.036688499 0.83700001 0.03815604 6.9121331e-39 295 214
-0.035220962 0.83700001 0.03815604 6.6351917e-39 296 214
-0.03383407 0.83899999 0.038247209 6.1742135e-39 297 214
-0.032363027 0.83899999 0.038247209 6.1731415e-39 298 214
-0.030891977 0.83899999 0.038247209 5.8965546e-39 299 214
-0.029420931 0.83899999 0.038247209 5.6210467e-39 300 214
-0.02788326 0.83700001 0.03815604 5.805438e-39 301 214
-0.026415719 0.83700001 0.03815604 6.1720625e-39 302 214
-0.02494818 0.83700001 0.03815604 6.3568125e-39 303 214
-0.023480639 0.83700001 0.03815604 6.4486592e-39 304 214
-0.0220131 0.83700001 0.03815604 6.6330505e-39 305 214
-0.010297326 0.83899999 0.038247209 7.1861976e-39 313 214
-0.00882628 0.83899999 0.038247209 7.2780401e-39 314 214
-0.0073552327 0.83899999 0.038247209 7.3702372e-39 315 214
-0.0058841864 0.83899999 0.038247209 7.3702428e-39 316 214
-0.00441314 0.83899999 0.038247209 7.4624384e-39 317 214
0.010174593 0.829 0.037791345 9.769064e-39 327 214
0.011628106 0.829 0.037791345 9.953458e-39 328 214
0.01305006 0.82700002 0.037700173 1.0045654e-38 329 214
0.014465 0.82499999 0.037608996 1.02286e-38 330 214
0.015911499 0.82499999 0.037608996 1.02286e-38 331 214
0.017442159 0.829 0.037791345 9.8627071e-39 332 214
0.018895673 0.829 0.037791345 1.004674e-38 333 214
0.020349186 0.829 0.037791345 1.0138222e-38 334 214
0.021802699 0.829 0.037791345 1.0322613e-38 335 214
0.023256212 0.829 0.037791345 1.0506279e-38 336 214
0.024709726 0.829 0.037791345 1.069067e-38 337 214
0.026163239 0.829 0.037791345 1.0692092e-38 338 214
0.027550125 0.82700002 0.037700173 1.0784289e-38 339 214
0.029000133 0.82700002 0.037700173 1.1151983e-38 340 214
0.030450139 0.82700002 0.037700173 1.1151983e-38 341 214
0.031900145 0.82700002 0.037700173 1.1518963e-38 342 214
0.033269498 0.82499999 0.037608996 1.1703355e-38 343 214
0.034715999 0.82499999 0.037608996 1.170372e-38 344 214
0.036162499 0.82499999 0.037608996 1.1796275e-38 345 214
0.037517827 0.82300001 0.037517827 1.1887398e-38 346 214
0.038960818 0.82300001 0.037517827 1.2163627e-38 347 214
0.040305622 0.82099998 0.037426651 1.1797724e-38 348 214
0.041745111 0.82099998 0.037426651 1.1982115e-38 349 214
0.043184597 0.82099998 0.037426651 1.2074678e-38 350 214
0.044515379 0.81900001 0.037335481 1.2443459e-38 351 214
0.045951359 0.81900001 0.037335481 1.2535636e-38 352 214
0.047387339 0.81900001 0.037335481 1.3181006e-38 353 214
0.048823319 0.81900001 0.037335481 1.3919277e-38 354 214
0.0502593 0.81900001 0.037335481 1.4287701e-38 355 214
0.051569037 0.81699997 0.037244301 1.4380618e-38 356 214
0.053001508 0.81699997 0.037244301 1.4472814e-38 357 214
0.054433983 0.81699997 0.037244301 1.5115665e-38 358 214
0.055866458 0.81699997 0.037244301 1.5300416e-38 359 214
0.057298932 0.81699997 0.037244301 1.5759237e-38 360 214
0.058587633 0.815 0.037153132 1.5943628e-38 361 214
0.060016599 0.815 0.037153132 1.5853586e-38 362 214
0.06144556 0.815 0.037153132 1.6130174e-38 363 214
0.062874533 0.815 0.037153132 1.6131246e-38 364 214
0.064145707 0.81300002 0.03706196 1.6223442e-38 365 214
0.065571159 0.81300002 0.03706196 1.6498584e-38 366 214
0.066996619 0.81300002 0.03706196 1.6682615e-38 367 214
0.068422079 0.81300002 0.03706196 1.6683321e-38 368 214
0.069847539 0.81300002 0.03706196 1.6683321e-38 369 214
0.071272999 0.81300002 0.03706196 1.6958814e-38 370 214
0.072698459 0.81300002 0.03706196 1.6866618e-38 371 214
0.074123919 0.81300002 0.03706196 1.6591448e-38 372 214
0.075549379 0.81300002 0.03706196 1.6406697e-38 373 214
0.076974839 0.81300002 0.03706196 1.6314488e-38 374 214
0.078400299 0.81300002 0.03706196 1.6129738e-38 375 214
0.079825759 0.81300002 0.03706196 1.6037195e-38 376 214
0.081251219 0.81300002 0.03706196 1.5576217e-38 377 214
0.082676686 0.81300002 0.03706196 1.5390046e-38 378 214
0.084102139 0.81300002 0.03706196 1.4929428e-38 379 214
0.085527599 0.81300002 0.03706196 1.3457204e-38 380 214
0.087380864 0.81699997 0.037244301 1.3457204e-38 381 214
0.088813342 0.81699997 0.037244301 1.2728716e-38 382 214
-0.057370819 0.83899999 0.036776166 9.4075318e-39 281 215
-0.055899773 0.83899999 0.036776166 8.4812497e-39 282 215
-0.054428723 0.83899999 0.036776166 8.4812497e-39 283 215
-0.044131398 0.83899999 0.036776166 8.1038365e-39 290 215
-0.042558659 0.83700001 0.036688499 7.9194439e-39 291 215
-0.041091122 0.83700001 0.036688499 8.0109234e-39 292 215
-0.039623581 0.83700001 0.036688499 7.7339778e-39 293 215
0.011628106 0.829 0.036337834 6.9110345e-39 328 215
0.01305006 0.82700002 0.036250167 7.1879801e-39 329 215
0.014465 0.82499999 0.036162499 8.0148667e-39 330 215
0.015911499 0.82499999 0.036162499 8.3836506e-39 331 215
0.017442159 0.829 0.036337834 8.478363e-39 332 215
0.018941259 0.83099997 0.036425497 8.5709187e-39 333 215
0.02039828 0.83099997 0.036425497 9.3970767e-39 334 215
0.021802699 0.829 0.036337834 9.8580548e-39 335 215
0.023256212 0.829 0.036337834 1.0226102e-38 336 215
0.024709726 0.829 0.036337834 1.0594524e-38 337 215
0.026163239 0.829 0.036337834 1.0504827e-38 338 215
0.027616752 0.829 0.036337834 1.0781774e-38 339 215
0.029000133 0.82700002 0.036250167 1.1242379e-38 340 215
0.030450139 0.82700002 0.036250167 1.1150184e-38 341 215
0.031900145 0.82700002 0.036250167 1.1150903e-38 342 215
0.033350151 0.82700002 0.036250167 1.1335295e-38 343 215
0.034800157 0.82700002 0.036250167 1.1519689e-38 344 215
0.036162499 0.82499999 0.036162499 1.170372e-38 345 215
0.037608996 0.82499999 0.036162499 1.17952e-38 346 215
0.038960818 0.82300001 0.036074832 1.197995e-38 347 215
0.040403813 0.82300001 0.036074832 1.1980667e-38 348 215
0.041745111 0.82099998 0.035987165 1.2072863e-38 349 215
0.043184597 0.82099998 0.035987165 1.2166131e-38 350 215
0.044624086 0.82099998 0.035987165 1.2258326e-38 351 215
0.045951359 0.81900001 0.035899501 1.262639e-38 352 215
0.047387339 0.81900001 0.035899501 1.2810781e-38 353 215
0.048823319 0.81900001 0.035899501 1.2538508e-38 354 215
0.0502593 0.81900001 0.035899501 1.309168e-38 355 215
0.051569037 0.81699997 0.03581183 1.3736328e-38 356 215
0.053001508 0.81699997 0.03581183 1.410511e-38 357 215
0.054433983 0.81699997 0.03581183 1.5206416e-38 358 215
0.055866458 0.81699997 0.03581183 1.5390807e-38 359 215
0.057158664 0.815 0.035724167 1.5667027e-38 360 215
0.058587633 0.815 0.035724167 1.585142e-38 361 215
0.059869319 0.81300002 0.0356365 1.5944331e-38 362 215
0.061294779 0.81300002 0.0356365 1.6129081e-38 363 215
0.062720239 0.81300002 0.0356365 1.6221997e-38 364 215
0.064145707 0.81300002 0.0356365 1.6314193e-38 365 215
0.065571159 0.81300002 0.0356365 1.6498584e-38 366 215
0.066831805 0.81099999 0.035548832 1.6498584e-38 367 215
0.068253763 0.81099999 0.035548832 1.6500026e-38 368 215
0.069675706 0.81099999 0.035548832 1.6500026e-38 369 215
0.071097665 0.81099999 0.035548832 1.6684054e-38 370 215
0.072519615 0.81099999 0.035548832 1.65915e-38 371 215
0.073941574 0.81099999 0.035548832 1.6500006e-38 372 215
0.075363517 0.81099999 0.035548832 1.6315615e-38 373 215
0.076785475 0.81099999 0.035548832 1.6315602e-38 374 215
0.078207433 0.81099999 0.035548832 1.6130851e-38 375 215
0.079629384 0.81099999 0.035548832 1.5762423e-38 376 215
0.081051342 0.81099999 0.035548832 1.5485835e-38 377 215
0.082473285 0.81099999 0.035548832 1.5574792e-38 378 215
0.083895244 0.81099999 0.035548832 1.5298204e-38 379 215
0.085317194 0.81099999 0.035548832 1.4654296e-38 380 215
0.086953059 0.81300002 0.0356365 1.4285874e-38 381 215
0.088378519 0.81300002 0.0356365 1.2725088e-38 382 215
0.0220131 0.83700001 0.035220962 8.8410569e-39 335 216
0.023368426 0.833 0.035052639 8.9350279e-39 336 216
0.024828954 0.833 0.035052639 8.8424736e-39 337 216
0.026226358 0.83099997 0.03496848 8.1124349e-39 338 216
0.027683379 0.83099997 0.03496848 8.8499999e-39 339 216
0.029070266 0.829 0.034884319 1.0136051e-38 340 216
0.030523779 0.829 0.034884319 1.0228247e-38 341 216
0.031977292 0.829 0.034884319 1.0780339e-38 342 216
0.033350151 0.82700002 0.034800157 1.114948e-38 343 216
0.034800157 0.82700002 0.034800157 1.1610093e-38 344 216
0.036250167 0.82700002 0.034800157 1.1886319e-38 345 216
0.037608996 0.82499999 0.034715999 1.1978512e-38 346 216
0.039055496 0.82499999 0.034715999 1.2163262e-38 347 216
0.040403813 0.82300001 0.034631841 1.1979947e-38 348 216
0.041846808 0.82300001 0.034631841 1.216398e-38 349 216
0.043184597 0.82099998 0.034547675 1.1981739e-38 350 216
0.044624086 0.82099998 0.034547675 1.2166131e-38 351 216
0.046063572 0.82099998 0.034547675 1.2259045e-38 352 216
0.047387339 0.81900001 0.034463517 1.2351242e-38 353 216
0.048823319 0.81900001 0.034463517 1.2351595e-38 354 216
0.0502593 0.81900001 0.034463517 1.2628541e-38 355 216
0.051569037 0.81699997 0.034379359 1.2906567e-38 356 216
0.053001508 0.81699997 0.034379359 1.3551936e-38 357 216
0.054433983 0.81699997 0.034379359 1.4379902e-38 358 216
0.055866458 0.81699997 0.034379359 1.4564293e-38 359 216
0.057158664 0.815 0.034295198 1.5298614e-38 360 216
0.058587633 0.815 0.034295198 1.5483006e-38 361 216
0.059869319 0.81300002 0.03421104 1.5759587e-38 362 216
0.061294779 0.81300002 0.03421104 1.5944337e-38 363 216
0.062720239 0.81300002 0.03421104 1.6128725e-38 364 216
0.063987896 0.81099999 0.034126882 1.6313477e-38 365 216
0.065409854 0.81099999 0.034126882 1.6131243e-38 366 216
0.066831805 0.81099999 0.034126882 1.6131243e-38 367 216
0.068253763 0.81099999 0.034126882 1.6223442e-38 368 216
0.069675706 0.81099999 0.034126882 1.649967e-38 369 216
0.071097665 0.81099999 0.034126882 1.6867011e-38 370 216
0.072519615 0.81099999 0.034126882 1.6867011e-38 371 216
0.073941574 0.81099999 0.034126882 1.6867717e-38 372 216
0.075363517 0.81099999 0.034126882 1.6683324e-38 373 216
0.076785475 0.81099999 0.034126882 1.6407442e-38 374 216
0.078207433 0.81099999 0.034126882 1.6223051e-38 375 216
0.079629384 0.81099999 0.034126882 1.6130488e-38 376 216
0.081051342 0.81099999 0.034126882 1.5853543e-38 377 216
0.082269907 0.80900002 0.03404272 1.5759911e-38 378 216
0.083688356 0.80900002 0.03404272 1.5482965e-38 379 216
0.085106798 0.80900002 0.03404272 1.5297503e-38 380 216
0.086739153 0.81099999 0.034126882 1.4928722e-38 381 216
0.088161096 0.81099999 0.034126882 1.3641617e-38 382 216
0.089583054 0.81099999 0.034126882 1.3733814e-38 383 216
0.091005012 0.81099999 0.034126882 1.3095351e-38 384 216
0.092426963 0.81099999 0.034126882 1.4939263e-38 385 216
0.026352599 0.83499998 0.033672765 7.0050378e-39 338 217
0.027750006 0.833 0.033592112 7.5578528e-39 339 217
0.029140398 0.83099997 0.033511456 8.2014104e-39 340 217
0.030597419 0.83099997 0.033511456 8.7545841e-39 341 217
0.031977292 0.829 0.033430804 9.675446e-39 342 217
0.033430804 0.829 0.033430804 1.0320814e-38 343 217
0.034884319 0.829 0.033430804 1.1332793e-38 344 217
0.036250167 0.82700002 0.033350151 1.1885966e-38 345 217
0.037608996 0.82499999 0.033269498 1.1427859e-38 346 217
0.039055496 0.82499999 0.033269498 1.1612609e-38 347 217
0.040403813 0.82300001 0.033188846 1.1888468e-38 348 217
0.041745111 0.82099998 0.03310819 1.1980665e-38 349 217
0.043184597 0.82099998 0.03310819 1.2073567e-38 350 217
0.044624086 0.82099998 0.03310819 1.2165762e-38 351 217
0.046063572 0.82099998 0.03310819 1.2166481e-38 352 217
0.047387339 0.81900001 0.033027537 1.2258677e-38 353 217
0.048823319 0.81900001 0.033027537 1.2443072e-38 354 217
0.0502593 0.81900001 0.033027537 1.2627103e-38 355 217
0.05169528 0.81900001 0.033027537 1.2445592e-38 356 217
0.053131256 0.81900001 0.033027537 1.2814015e-38 357 217
0.054433983 0.81699997 0.032946885 1.3458666e-38 358 217
0.055866458 0.81699997 0.032946885 1.4011838e-38 359 217
0.057158664 0.815 0.032866232 1.4838356e-38 360 217
0.058587633 0.815 0.032866232 1.5115302e-38 361 217
0.059869319 0.81300002 0.03278558 1.5484079e-38 362 217
0.061294779 0.81300002 0.03278558 1.566847e-38 363 217
0.062565938 0.81099999 0.032704927 1.5853215e-38 364 217
0.063987896 0.81099999 0.032704927 1.6037604e-38 365 217
0.065409854 0.81099999 0.032704927 1.5946852e-38 366 217
0.066831805 0.81099999 0.032704927 1.6039048e-38 367 217
0.06808544 0.80900002 0.032624274 1.6223445e-38 368 217
0.069503881 0.80900002 0.032624274 1.6223445e-38 369 217
0.07092233 0.80900002 0.032624274 1.659115e-38 370 217
0.072340779 0.80900002 0.032624274 1.6683345e-38 371 217
0.073759228 0.80900002 0.032624274 1.6683698e-38 372 217
0.07517767 0.80900002 0.032624274 1.6683698e-38 373 217
0.076596119 0.80900002 0.032624274 1.6499653e-38 374 217
0.078014567 0.80900002 0.032624274 1.6407458e-38 375 217
0.079433009 0.80900002 0.032624274 1.6498208e-38 376 217
0.080851458 0.80900002 0.032624274 1.6129785e-38 377 217
0.082269907 0.80900002 0.032624274 1.6127984e-38 378 217
0.083688356 0.80900002 0.032624274 1.5759202e-38 379 217
0.085106798 0.80900002 0.032624274 1.5573015e-38 380 217
0.086525239 0.80900002 0.032624274 1.5480459e-38 381 217
0.087943695 0.80900002 0.032624274 1.4652876e-38 382 217
0.089362144 0.80900002 0.032624274 1.4376288e-38 383 217
0.090780586 0.80900002 0.032624274 1.253927e-38 384 217
0.091971092 0.80699998 0.032543618 1.3737813e-38 385 217
0.093386032 0.80699998 0.032543618 1.4938936e-38 386 217
0.029280664 0.83499998 0.03220873 8.1045386e-39 340 218
0.030744698 0.83499998 0.03220873 8.3814856e-39 341 218
0.032131586 0.833 0.032131586 8.0162932e-39 342 218
0.033592112 0.833 0.032131586 8.4772714e-39 343 218
0.03496848 0.83099997 0.032054439 9.2177077e-39 344 218
0.036337834 0.829 0.031977292 1.0047468e-38 345 218
0.037700173 0.82700002 0.031900145 1.1152001e-38 346 218
0.039150178 0.82700002 0.031900145 1.1520424e-38 347 218
0.040403813 0.82300001 0.031745855 1.1888821e-38 348 218
0.041745111 0.82099998 0.031668708 1.1981018e-38 349 218
0.043184597 0.82099998 0.031668708 1.2073564e-38 350 218
0.044624086 0.82099998 0.031668708 1.2166118e-38 351 218
0.046063572 0.82099998 0.031668708 1.2441992e-38 352 218
0.047503054 0.82099998 0.031668708 1.2441992e-38 353 218
0.048942544 0.82099998 0.031668708 1.2166847e-38 354 218
0.0502593 0.81900001 0.031591557 1.2351598e-38 355 218
0.05169528 0.81900001 0.031591557 1.2719658e-38 356 218
0.053131256 0.81900001 0.031591557 1.2811853e-38 357 218
0.054433983 0.81699997 0.03151441 1.2904768e-38 358 218
0.055866458 0.81699997 0.03151441 1.3366106e-38 359 218
0.057158664 0.815 0.031437267 1.4011473e-38 360 218
0.058587633 0.815 0.031437267 1.4380255e-38 361 218
0.059869319 0.81300002 0.03136012 1.5390797e-38 362 218
0.061294779 0.81300002 0.03136012 1.5851417e-38 363 218
0.062565938 0.81099999 0.031282969 1.5944687e-38 364 218
0.063987896 0.81099999 0.031282969 1.6036883e-38 365 218
0.065248549 0.80900002 0.031205826 1.5853933e-38 366 218
0.066666998 0.80900002 0.031205826 1.5946131e-38 367 218
0.06808544 0.80900002 0.031205826 1.6130525e-38 368 218
0.069332056 0.80699998 0.031128678 1.6314914e-38 369 218
0.070746996 0.80699998 0.031128678 1.6499303e-38 370 218
0.072161935 0.80699998 0.031128678 1.65915e-38 371 218
0.073576882 0.80699998 0.031128678 1.6775171e-38 372 218
0.074991815 0.80699998 0.031128678 1.6867367e-38 373 218
0.076406755 0.80699998 0.031128678 1.6684051e-38 374 218
0.078014567 0.80900002 0.031205826 1.6591856e-38 375 218
0.079433009 0.80900002 0.031205826 1.6315265e-38 376 218
0.080651581 0.80699998 0.031128678 1.6038679e-38 377 218
0.082066514 0.80699998 0.031128678 1.603723e-38 378 218
0.083481453 0.80699998 0.031128678 1.5484415e-38 379 218
0.084896393 0.80699998 0.031128678 1.5574094e-38 380 218
0.086311333 0.80699998 0.031128678 1.5389344e-38 381 218
0.08772628 0.80699998 0.031128678 1.4745428e-38 382 218
0.08914122 0.80699998 0.031128678 1.4468482e-38 383 218
0.090556152 0.80699998 0.031128678 1.3548715e-38 384 218
0.091971092 0.80699998 0.031128678 1.3733108e-38 385 218
0.093386032 0.80699998 0.031128678 1.3649251e-38 386 218
0.094800979 0.80699998 0.031128678 1.493999e-38 387 218
0.036513168 0.833 0.030671058 8.4808867e-39 345 219
0.037791345 0.829 0.030523779 9.862361e-39 346 219
0.039150178 0.82700002 0.030450139 1.0968348e-38 347 219
0.040403813 0.82300001 0.03030286 1.1337114e-38 348 219
0.041745111 0.82099998 0.030229218 1.1429311e-38 349 219
0.043184597 0.82099998 0.030229218 1.152221e-38 350 219
0.044624086 0.82099998 0.030229218 1.1614406e-38 351 219
0.046063572 0.82099998 0.030229218 1.1890986e-38 352 219
0.047503054 0.82099998 0.030229218 1.1983181e-38 353 219
0.048942544 0.82099998 0.030229218 1.2166847e-38 354 219
0.050382029 0.82099998 0.030229218 1.2259401e-38 355 219
0.05169528 0.81900001 0.030155579 1.216793e-38 356 219
0.053131256 0.81900001 0.030155579 1.2444157e-38 357 219
0.054567236 0.81900001 0.030155579 1.2536711e-38 358 219
0.055866458 0.81699997 0.030081939 1.2628907e-38 359 219
0.057158664 0.815 0.030008299 1.3274629e-38 360 219
0.058443859 0.81300002 0.02993466 1.3827444e-38 361 219
0.059869319 0.81300002 0.02993466 1.4747596e-38 362 219
0.061143994 0.81099999 0.02986102 1.5116018e-38 363 219
0.062565938 0.81099999 0.02986102 1.5024904e-38 364 219
0.063830093 0.80900002 0.02978738 1.5393328e-38 365 219
0.065087236 0.80699998 0.029713741 1.5486243e-38 366 219
0.066502176 0.80699998 0.029713741 1.5578438e-38 367 219
0.067917116 0.80699998 0.029713741 1.5946499e-38 368 219
0.069332056 0.80699998 0.029713741 1.6038695e-38 369 219
0.070571661 0.80500001 0.029640101 1.6406757e-38 370 219
0.071983099 0.80500001 0.029640101 1.6498953e-38 371 219
0.07339453 0.80500001 0.029640101 1.649967e-38 372 219
0.074805968 0.80500001 0.029640101 1.6592224e-38 373 219
0.076217398 0.80500001 0.029640101 1.6684054e-38 374 219
0.077821694 0.80699998 0.029713741 1.6499303e-38 375 219
0.079040267 0.80500001 0.029640101 1.6683319e-38 376 219
0.080451705 0.80500001 0.029640101 1.6407092e-38 377 219
0.081863128 0.80500001 0.029640101 1.6589311e-38 378 219
0.083274566 0.80500001 0.029640101 1.6128334e-38 379 219
0.084685996 0.80500001 0.029640101 1.5758473e-38 380 219
0.086097427 0.80500001 0.029640101 1.5390049e-38 381 219
0.087508865 0.80500001 0.029640101 1.5204583e-38 382 219
0.088920295 0.80500001 0.029640101 1.5112387e-38 383 219
0.090331733 0.80500001 0.029640101 1.4468482e-38 384 219
0.091971092 0.80699998 0.029713741 1.3823113e-38 385 219
0.093386032 0.80699998 0.029713741 1.3000621e-38 386 219
0.094800979 0.80699998 0.029713741 1.4567588e-38 387 219
0.041846808 0.82300001 0.028859867 1.0785758e-38 349 220
0.043289799 0.82300001 0.028859867 1.1614421e-38 350 220
0.044732794 0.82300001 0.028859867 1.1614421e-38 351 220
0.046063572 0.82099998 0.028789733 1.2166852e-38 352 220
0.047503054 0.82099998 0.028789733 1.2166852e-38 353 220
0.048942544 0.82099998 0.028789733 1.2259401e-38 354 220
0.050382029 0.82099998 0.028789733 1.2259401e-38 355 220
0.05169528 0.81900001 0.0287196 1.2351598e-38 356 220
0.053131256 0.81900001 0.0287196 1.2351598e-38 357 220
0.054567236 0.81900001 0.0287196 1.2627106e-38 358 220
0.055866458 0.81699997 0.028649466 1.2811497e-38 359 220
0.057158664 0.815 0.028579332 1.2353762e-38 360 220
0.058443859 0.81300002 0.0285092 1.2999131e-38 361 220
0.059869319 0.81300002 0.0285092 1.3919292e-38 362 220
0.061143994 0.81099999 0.028439065 1.4472466e-38 363 220
0.062565938 0.81099999 0.028439065 1.5116018e-38 364 220
0.063830093 0.80900002 0.028368933 1.5208214e-38 365 220
0.065087236 0.80699998 0.028298797 1.5485508e-38 366 220
0.066502176 0.80699998 0.028298797 1.5485508e-38 367 220
0.067917116 0.80699998 0.028298797 1.6129081e-38 368 220
0.06916023 0.80500001 0.028228667 1.6221278e-38 369 220
0.070571661 0.80500001 0.028228667 1.6406388e-38 370 220
0.071983099 0.80500001 0.028228667 1.6498584e-38 371 220
0.07339453 0.80500001 0.028228667 1.6682618e-38 372 220
0.074805968 0.80500001 0.028228667 1.6867011e-38 373 220
0.076217398 0.80500001 0.028228667 1.6683701e-38 374 220
0.077628836 0.80500001 0.028228667 1.6683701e-38 375 220
0.079040267 0.80500001 0.028228667 1.6592222e-38 376 220
0.080451705 0.80500001 0.028228667 1.6315993e-38 377 220
0.081863128 0.80500001 0.028228667 1.6498211e-38 378 220
0.083274566 0.80500001 0.028228667 1.6129429e-38 379 220
0.084685996 0.80500001 0.028228667 1.575992e-38 380 220
0.086097427 0.80500001 0.028228667 1.5575529e-38 381 220
0.087508865 0.80500001 0.028228667 1.5298223e-38 382 220
0.088920295 0.80500001 0.028228667 1.4929441e-38 383 220
0.090331733 0.80500001 0.028228667 1.4285523e-38 384 220
0.091743164 0.80500001 0.028228667 1.4285523e-38 385 220
0.093154602 0.80500001 0.028228667 1.2444552e-38 386 220
0.094566032 0.80500001 0.028228667 1.3735291e-38 387 220
0.096215919 0.80699998 0.028298797 1.4201727e-38 388 220
0.097630851 0.80699998 0.028298797 1.5215519e-38 389 220
0.043289799 0.82300001 0.027416872 9.5890167e-39 350 221
0.044732794 0.82300001 0.027416872 1.0510613e-38 351 221
0.046063572 0.82099998 0.027350245 1.1431112e-38 352 221
0.047503054 0.82099998 0.027350245 1.1615143e-38 353 221
0.048942544 0.82099998 0.027350245 1.1707323e-38 354 221
0.050382029 0.82099998 0.027350245 1.1891714e-38 355 221
0.051821519 0.82099998 0.027350245 1.1983184e-38 356 221
0.053131256 0.81900001 0.027283618 1.207538e-38 357 221
0.054567236 0.81900001 0.027283618 1.2167933e-38 358 221
0.055866458 0.81699997 0.027216991 1.2260128e-38 359 221
0.057298932 0.81699997 0.027216991 1.2810428e-38 360 221
0.058587633 0.815 0.027150365 1.2994459e-38 361 221
0.059869319 0.81300002 0.02708374 1.3090611e-38 362 221
0.061143994 0.81099999 0.027017111 1.3643785e-38 363 221
0.062565938 0.81099999 0.027017111 1.4379546e-38 364 221
0.063830093 0.80900002 0.026950486 1.4564296e-38 365 221
0.065087236 0.80699998 0.026883857 1.4657564e-38 366 221
0.066502176 0.80699998 0.026883857 1.5025988e-38 367 221
0.067917116 0.80699998 0.026883857 1.5302211e-38 368 221
0.06916023 0.80500001 0.026817232 1.5578438e-38 369 221
0.070571661 0.80500001 0.026817232 1.6037976e-38 370 221
0.071983099 0.80500001 0.026817232 1.6314561e-38 371 221
0.07339453 0.80500001 0.026817232 1.640676e-38 372 221
0.074805968 0.80500001 0.026817232 1.6591152e-38 373 221
0.076217398 0.80500001 0.026817232 1.6591868e-38 374 221
0.077628836 0.80500001 0.026817232 1.6591868e-38 375 221
0.079040267 0.80500001 0.026817232 1.6684054e-38 376 221
0.08025182 0.80299997 0.026750606 1.6499303e-38 377 221
0.081659742 0.80299997 0.026750606 1.6865562e-38 378 221
0.083274566 0.80500001 0.026817232 1.6497139e-38 379 221
0.084685996 0.80500001 0.026817232 1.6495678e-38 380 221
0.086097427 0.80500001 0.026817232 1.5942504e-38 381 221
0.087508865 0.80500001 0.026817232 1.5666262e-38 382 221
0.088920295 0.80500001 0.026817232 1.5481869e-38 383 221
0.090331733 0.80500001 0.026817232 1.5112738e-38 384 221
0.091743164 0.80500001 0.026817232 1.4836149e-38 385 221
0.093154602 0.80500001 0.026817232 1.3271754e-38 386 221
0.094566032 0.80500001 0.026817232 1.3456504e-38 387 221
0.095977463 0.80500001 0.026817232 1.3279748e-38 388 221
0.097388901 0.80500001 0.026817232 1.4662683e-38 389 221
0.098800331 0.80500001 0.026817232 1.5399211e-38 390 221
0.044732794 0.82300001 0.025973879 8.3000898e-39 351 222
0.046175785 0.82300001 0.025973879 1.0140756e-38 352 222
0.04761878 0.82300001 0.025973879 1.0878321e-38 353 222
0.048942544 0.82099998 0.025910759 1.1797736e-38 354 222
0.050382029 0.82099998 0.025910759 1.1797736e-38 355 222
0.051821519 0.82099998 0.025910759 1.2166496e-38 356 222
0.053131256 0.81900001 0.02584764 1.2258692e-38 357 222
0.054567236 0.81900001 0.02584764 1.2259048e-38 358 222
0.055866458 0.81699997 0.025784519 1.2259048e-38 359 222
0.057298932 0.81699997 0.025784519 1.2625314e-38 360 222
0.058587633 0.815 0.025721399 1.2901901e-38 361 222
0.059869319 0.81300002 0.02565828 1.2628907e-38 362 222
0.061143994 0.81099999 0.025595158 1.3089526e-38 363 222
0.062565938 0.81099999 0.025595158 1.3734179e-38 364 222
0.063830093 0.80900002 0.025532039 1.4195156e-38 365 222
0.065087236 0.80699998 0.025468919 1.4747606e-38 366 222
0.066502176 0.80699998 0.025468919 1.4932356e-38 367 222
0.067917116 0.80699998 0.025468919 1.5576272e-38 368 222
0.06916023 0.80500001 0.025405798 1.5761022e-38 369 222
0.070571661 0.80500001 0.025405798 1.6220922e-38 370 222
0.071983099 0.80500001 0.025405798 1.6497508e-38 371 222
0.07339453 0.80500001 0.025405798 1.6406041e-38 372 222
0.074805968 0.80500001 0.025405798 1.6682268e-38 373 222
0.076217398 0.80500001 0.025405798 1.6591155e-38 374 222
0.077435955 0.80299997 0.025342679 1.6683351e-38 375 222
0.078843892 0.80299997 0.025342679 1.6683348e-38 376 222
0.08025182 0.80299997 0.025342679 1.6683348e-38 377 222
0.081659742 0.80299997 0.025342679 1.6773744e-38 378 222
0.08306767 0.80299997 0.025342679 1.6681549e-38 379 222
0.084475599 0.80299997 0.025342679 1.6679733e-38 380 222
0.085883521 0.80299997 0.025342679 1.6126559e-38 381 222
0.087291449 0.80299997 0.025342679 1.5576235e-38 382 222
0.088920295 0.80500001 0.025405798 1.5207454e-38 383 222
0.090331733 0.80500001 0.025405798 1.5204933e-38 384 222
0.091743164 0.80500001 0.025405798 1.5020542e-38 385 222
0.093154602 0.80500001 0.025405798 1.4101847e-38 386 222
0.094566032 0.80500001 0.025405798 1.364087e-38 387 222
0.095977463 0.80500001 0.025405798 1.2263406e-38 388 222
0.097388901 0.80500001 0.025405798 1.4199514e-38 389 222
0.098800331 0.80500001 0.025405798 1.5031856e-38 390 222
0.046400212 0.82700002 0.024650112 7.2877329e-39 352 223
0.047734499 0.82499999 0.024590498 8.1174936e-39 353 223
0.049061771 0.82300001 0.024530886 9.9595915e-39 354 223
0.050504766 0.82300001 0.024530886 1.0604961e-38 355 223
0.051821519 0.82099998 0.024471272 1.1889919e-38 356 223
0.053261004 0.82099998 0.024471272 1.1982115e-38 357 223
0.054567236 0.81900001 0.02441166 1.2166134e-38 358 223
0.056003217 0.81900001 0.02441166 1.2166134e-38 359 223
0.057298932 0.81699997 0.024352046 1.2441641e-38 360 223
0.058587633 0.815 0.024292432 1.2533837e-38 361 223
0.060016599 0.815 0.024292432 1.2626387e-38 362 223
0.061294779 0.81300002 0.02423282 1.2995168e-38 363 223
0.062565938 0.81099999 0.024173206 1.3271757e-38 364 223
0.063830093 0.80900002 0.024113594 1.3640538e-38 365 223
0.065087236 0.80699998 0.02405398 1.3643785e-38 366 223
0.066502176 0.80699998 0.02405398 1.4289154e-38 367 223
0.0677488 0.80500001 0.023994366 1.4933076e-38 368 223
0.06916023 0.80500001 0.023994366 1.5117467e-38 369 223
0.070571661 0.80500001 0.023994366 1.5852864e-38 370 223
0.071983099 0.80500001 0.023994366 1.6129092e-38 371 223
0.07339453 0.80500001 0.023994366 1.6313487e-38 372 223
0.074620105 0.80299997 0.023934752 1.6498237e-38 373 223
0.076028034 0.80299997 0.023934752 1.668227e-38 374 223
0.077435955 0.80299997 0.023934752 1.6774467e-38 375 223
0.078843892 0.80299997 0.023934752 1.6683348e-38 376 223
0.08025182 0.80299997 0.023934752 1.6683348e-38 377 223
0.081659742 0.80299997 0.023934752 1.7049256e-38 378 223
0.08306767 0.80299997 0.023934752 1.6957059e-38 379 223
0.084475599 0.80299997 0.023934752 1.6680101e-38 380 223
0.085883521 0.80299997 0.023934752 1.6311677e-38 381 223
0.087291449 0.80299997 0.023934752 1.5943586e-38 382 223
0.088920295 0.80500001 0.023994366 1.5575163e-38 383 223
0.090331733 0.80500001 0.023994366 1.5114536e-38 384 223
0.091743164 0.80500001 0.023994366 1.4837949e-38 385 223
0.093154602 0.80500001 0.023994366 1.4194391e-38 386 223
0.094566032 0.80500001 0.023994366 1.3641576e-38 387 223
0.095977463 0.80500001 0.023994366 1.2811518e-38 388 223
0.097146936 0.80299997 0.023934752 1.4010422e-38 389 223
0.098554865 0.80299997 0.023934752 1.3834016e-38 390 223
0.049180996 0.82499999 0.023143999 8.023133e-39 354 224
0.050504766 0.82300001 0.023087893 9.6822956e-39 355 224
0.051821519 0.82099998 0.023031786 1.0969423e-38 356 224
0.053261004 0.82099998 0.023031786 1.1153816e-38 357 224
0.054567236 0.81900001 0.022975679 1.1889917e-38 358 224
0.056003217 0.81900001 0.022975679 1.1982112e-38 359 224
0.057439201 0.81900001 0.022975679 1.2258329e-38 360 224
0.058731399 0.81699997 0.022919571 1.2258329e-38 361 224
0.060016599 0.815 0.022863466 1.2533834e-38 362 224
0.061294779 0.81300002 0.02280736 1.2718586e-38 363 224
0.062565938 0.81099999 0.022751253 1.2903343e-38 364 224
0.063830093 0.80900002 0.022695147 1.2995897e-38 365 224
0.065087236 0.80699998 0.022639038 1.2813668e-38 366 224
0.066502176 0.80699998 0.022639038 1.3828179e-38 367 224
0.0677488 0.80500001 0.022582933 1.456394e-38 368 224
0.06916023 0.80500001 0.022582933 1.4932723e-38 369 224
0.070571661 0.80500001 0.022582933 1.5300782e-38 370 224
0.071983099 0.80500001 0.022582933 1.5577369e-38 371 224
0.07339453 0.80500001 0.022582933 1.6037626e-38 372 224
0.074620105 0.80299997 0.022526825 1.6129821e-38 373 224
0.076028034 0.80299997 0.022526825 1.6314211e-38 374 224
0.077435955 0.80299997 0.022526825 1.6498602e-38 375 224
0.078843892 0.80299997 0.022526825 1.6498599e-38 376 224
0.08025182 0.80299997 0.022526825 1.6591155e-38 377 224
0.081659742 0.80299997 0.022526825 1.6773747e-38 378 224
0.08306767 0.80299997 0.022526825 1.6588997e-38 379 224
0.084475599 0.80299997 0.022526825 1.6587552e-38 380 224
0.085883521 0.80299997 0.022526825 1.6311324e-38 381 224
0.087291449 0.80299997 0.022526825 1.585212e-38 382 224
0.088699371 0.80299997 0.022526825 1.5575532e-38 383 224
0.090107299 0.80299997 0.022526825 1.5207101e-38 384 224
0.091515228 0.80299997 0.022526825 1.4930513e-38 385 224
0.092923149 0.80299997 0.022526825 1.4562103e-38 386 224
0.094331078 0.80299997 0.022526825 1.4101125e-38 387 224
0.095739007 0.80299997 0.022526825 1.3640185e-38 388 224
0.097146936 0.80299997 0.022526825 1.373238e-38 389 224
0.09794119 0.79799998 0.022386558 1.3185751e-38 390 224
0.099340349 0.79799998 0.022386558 1.5121859e-38 391 224
0.051947758 0.82300001 0.0216449 8.3940581e-39 356 225
0.053261004 0.82099998 0.021592299 9.5004056e-39 357 225
0.05470049 0.82099998 0.021592299 1.1796649e-38 358 225
0.056003217 0.81900001 0.021539699 1.216543e-38 359 225
0.057439201 0.81900001 0.021539699 1.2165059e-38 360 225
0.058587633 0.815 0.021434501 1.2441644e-38 361 225
0.060016599 0.815 0.021434501 1.2441992e-38 362 225
0.061294779 0.81300002 0.0213819 1.2626384e-38 363 225
0.062565938 0.81099999 0.021329299 1.2718933e-38 364 225
0.063830093 0.80900002 0.021276699 1.2995519e-38 365 225
0.065087236 0.80699998 0.021224098 1.2811853e-38 366 225
0.066502176 0.80699998 0.021224098 1.3641614e-38 367 225
0.0677488 0.80500001 0.021171499 1.428663e-38 368 225
0.06916023 0.80500001 0.021171499 1.4839804e-38 369 225
0.070571661 0.80500001 0.021171499 1.5391177e-38 370 225
0.071804255 0.80299997 0.0211189 1.5668123e-38 371 225
0.073212177 0.80299997 0.0211189 1.6036179e-38 372 225
0.074620105 0.80299997 0.0211189 1.6220572e-38 373 225
0.076028034 0.80299997 0.0211189 1.6220575e-38 374 225
0.077435955 0.80299997 0.0211189 1.6496802e-38 375 225
0.078843892 0.80299997 0.0211189 1.6497881e-38 376 225
0.08025182 0.80299997 0.0211189 1.668227e-38 377 225
0.081659742 0.80299997 0.0211189 1.6680833e-38 378 225
0.08306767 0.80299997 0.0211189 1.6496083e-38 379 225
0.084370397 0.80199999 0.021092599 1.6494283e-38 380 225
0.085776575 0.80199999 0.021092599 1.6402088e-38 381 225
0.087182745 0.80199999 0.021092599 1.5851417e-38 382 225
0.088699371 0.80299997 0.0211189 1.5667024e-38 383 225
0.090107299 0.80299997 0.0211189 1.5299671e-38 384 225
0.091515228 0.80299997 0.0211189 1.493089e-38 385 225
0.092923149 0.80299997 0.0211189 1.5112403e-38 386 225
0.094331078 0.80299997 0.0211189 1.474398e-38 387 225
0.095739007 0.80299997 0.0211189 1.3825279e-38 388 225
0.097025953 0.80199999 0.021092599 1.3456857e-38 389 225
0.09794119 0.79799998 0.020987399 1.2814432e-38 390 225
0.099340349 0.79799998 0.020987399 1.4750181e-38 391 225
0.053390753 0.82300001 0.020201907 9.0362087e-39 357 226
0.05470049 0.82099998 0.020152811 1.0415895e-38 358 226
0.056003217 0.81900001 0.020103719 1.133821e-38 359 226
0.057439201 0.81900001 0.020103719 1.1614058e-38 360 226
0.058587633 0.815 0.020005532 1.1798089e-38 361 226
0.060016599 0.815 0.020005532 1.2166852e-38 362 226
0.061294779 0.81300002 0.01995644 1.2259048e-38 363 226
0.062720239 0.81300002 0.01995644 1.2351595e-38 364 226
0.063987896 0.81099999 0.019907346 1.2443791e-38 365 226
0.065248549 0.80900002 0.019858252 1.262926e-38 366 226
0.066502176 0.80699998 0.019809159 1.2813653e-38 367 226
0.0677488 0.80500001 0.019760067 1.3641617e-38 368 226
0.06916023 0.80500001 0.019760067 1.4563214e-38 369 226
0.070571661 0.80500001 0.019760067 1.5024202e-38 370 226
0.071804255 0.80299997 0.019710973 1.5208233e-38 371 226
0.073212177 0.80299997 0.019710973 1.5209312e-38 372 226
0.074620105 0.80299997 0.019710973 1.5485539e-38 373 226
0.076028034 0.80299997 0.019710973 1.5945433e-38 374 226
0.077435955 0.80299997 0.019710973 1.6129824e-38 375 226
0.078843892 0.80299997 0.019710973 1.6314211e-38 376 226
0.08025182 0.80299997 0.019710973 1.6406407e-38 377 226
0.081558049 0.80199999 0.019686425 1.6589e-38 378 226
0.082964227 0.80199999 0.019686425 1.5943631e-38 379 226
0.084370397 0.80199999 0.019686425 1.5482654e-38 380 226
0.085776575 0.80199999 0.019686425 1.5298261e-38 381 226
0.087182745 0.80199999 0.019686425 1.5207142e-38 382 226
0.088588916 0.80199999 0.019686425 1.5114946e-38 383 226
0.089995086 0.80199999 0.019686425 1.5023457e-38 384 226
0.091401257 0.80199999 0.019686425 1.4838707e-38 385 226
0.092923149 0.80299997 0.019710973 1.4746845e-38 386 226
0.094331078 0.80299997 0.019710973 1.4470258e-38 387 226
0.095739007 0.80299997 0.019710973 1.4376633e-38 388 226
0.097025953 0.80199999 0.019686425 1.3916015e-38 389 226
0.098186664 0.80000001 0.019637333 1.2720063e-38 390 226
0.099340349 0.79799998 0.019588239 1.4195551e-38 391 226
0.10073951 0.79799998 0.019588239 1.4109175e-38 392 226
0.05470049 0.82099998 0.018713325 8.9414907e-39 358 227
0.056003217 0.81900001 0.018667741 9.8634456e-39 359 227
0.057439201 0.81900001 0.018667741 1.133856e-38 360 227
0.058587633 0.815 0.018576566 1.1614787e-38 361 227
0.060016599 0.815 0.018576566 1.2258329e-38 362 227
0.061294779 0.81300002 0.01853098 1.2350525e-38 363 227
0.062720239 0.81300002 0.01853098 1.2443428e-38 364 227
0.063987896 0.81099999 0.018485393 1.2443428e-38 365 227
0.065248549 0.80900002 0.018439807 1.2811132e-38 366 227
0.066502176 0.80699998 0.018394221 1.2718936e-38 367 227
0.067917116 0.80699998 0.018394221 1.2996968e-38 368 227
0.06916023 0.80500001 0.018348632 1.3734533e-38 369 227
0.070571661 0.80500001 0.018348632 1.4563214e-38 370 227
0.071804255 0.80299997 0.018303044 1.4932356e-38 371 227
0.073212177 0.80299997 0.018303044 1.5301486e-38 372 227
0.074620105 0.80299997 0.018303044 1.5485877e-38 373 227
0.076028034 0.80299997 0.018303044 1.6036532e-38 374 227
0.077435955 0.80299997 0.018303044 1.6220925e-38 375 227
0.078843892 0.80299997 0.018303044 1.613053e-38 376 227
0.080151878 0.80199999 0.018280253 1.613053e-38 377 227
0.081558049 0.80199999 0.018280253 1.6220938e-38 378 227
0.082964227 0.80199999 0.018280253 1.5207145e-38 379 227
0.08416 0.80000001 0.018234666 1.4928037e-38 380 227
0.085562661 0.80000001 0.018234666 1.4282667e-38 381 227
0.086965337 0.80000001 0.018234666 1.5386138e-38 382 227
0.088588916 0.80199999 0.018280253 1.5478692e-38 383 227
0.089995086 0.80199999 0.018280253 1.5205344e-38 384 227
0.091401257 0.80199999 0.018280253 1.5113148e-38 385 227
0.092923149 0.80299997 0.018303044 1.4839063e-38 386 227
0.094331078 0.80299997 0.018303044 1.4378085e-38 387 227
0.095739007 0.80299997 0.018303044 1.419369e-38 388 227
0.097025953 0.80199999 0.018280253 1.3825267e-38 389 227
0.098186664 0.80000001 0.018234666 1.3365052e-38 390 227
0.099340349 0.79799998 0.018189078 1.364128e-38 391 227
0.10073951 0.79799998 0.018189078 1.2819862e-38 392 227
0.05613998 0.82099998 0.017273838 8.7560317e-39 359 228
0.057579465 0.82099998 0.017273838 9.4042695e-39 360 228
0.058875177 0.81900001 0.017231759 1.0787204e-38 361 228
0.060163878 0.81699997 0.01718968 1.1431109e-38 362 228
0.06144556 0.815 0.017147599 1.161514e-38 363 228
0.062874533 0.815 0.017147599 1.2258326e-38 364 228
0.064145707 0.81300002 0.01710552 1.2442719e-38 365 228
0.065409854 0.81099999 0.017063441 1.2443794e-38 366 228
0.066502176 0.80699998 0.016979279 1.2628185e-38 367 228
0.067917116 0.80699998 0.016979279 1.2811503e-38 368 228
0.06916023 0.80500001 0.0169372 1.3272122e-38 369 228
0.070571661 0.80500001 0.0169372 1.4285904e-38 370 228
0.071804255 0.80299997 0.016895119 1.4747243e-38 371 228
0.073212177 0.80299997 0.016895119 1.5116021e-38 372 228
0.074620105 0.80299997 0.016895119 1.5392609e-38 373 228
0.075933352 0.80199999 0.016874079 1.5761037e-38 374 228
0.07733953 0.80199999 0.016874079 1.594543e-38 375 228
0.0787457 0.80199999 0.016874079 1.6037976e-38 376 228
0.080151878 0.80199999 0.016874079 1.6037976e-38 377 228
0.08135467 0.80000001 0.016832 1.6128378e-38 378 228
0.082757331 0.80000001 0.016832 1.5298258e-38 379 228
0.08416 0.80000001 0.016832 1.4375586e-38 380 228
0.085562661 0.80000001 0.016832 1.3361434e-38 381 228
0.086965337 0.80000001 0.016832 1.3271759e-38 382 228
0.088367999 0.80000001 0.016832 1.3824573e-38 383 228
0.089770667 0.80000001 0.016832 1.4194081e-38 384 228
0.091173328 0.80000001 0.016832 1.4378833e-38 385 228
0.092807434 0.80199999 0.016874079 1.4562479e-38 386 228
0.094213605 0.80199999 0.016874079 1.4378087e-38 387 228
0.095619783 0.80199999 0.016874079 1.4468835e-38 388 228
0.097025953 0.80199999 0.016874079 1.4284443e-38 389 228
0.098186664 0.80000001 0.016832 1.3456504e-38 390 228
0.099340349 0.79799998 0.016789921 1.3179557e-38 391 228
0.10073951 0.79799998 0.016789921 1.2265221e-38 392 228
0.057719734 0.82300001 0.015872927 8.4812398e-39 360 229
0.059018951 0.82099998 0.015834354 9.7719787e-39 361 229
0.060311157 0.81900001 0.015795778 1.0785752e-38 362 229
0.061596353 0.81699997 0.015757205 1.1062699e-38 363 229
0.062874533 0.815 0.015718633 1.2257973e-38 364 229
0.064145707 0.81300002 0.01568006 1.2442725e-38 365 229
0.065409854 0.81099999 0.015641484 1.2444157e-38 366 229
0.066502176 0.80699998 0.015564339 1.2444157e-38 367 229
0.0677488 0.80500001 0.015525767 1.2810784e-38 368 229
0.06916023 0.80500001 0.015525767 1.271823e-38 369 229
0.070571661 0.80500001 0.015525767 1.3732377e-38 370 229
0.071804255 0.80299997 0.015487193 1.4654694e-38 371 229
0.073212177 0.80299997 0.015487193 1.5022751e-38 372 229
0.074620105 0.80299997 0.015487193 1.5483729e-38 373 229
0.075933352 0.80199999 0.015467905 1.566812e-38 374 229
0.07733953 0.80199999 0.015467905 1.6036901e-38 375 229
0.0787457 0.80199999 0.015467905 1.6037979e-38 376 229
0.080151878 0.80199999 0.015467905 1.5945783e-38 377 229
0.08135467 0.80000001 0.015429333 1.6311694e-38 378 229
0.082757331 0.80000001 0.015429333 1.5205347e-38 379 229
0.08416 0.80000001 0.015429333 1.4007169e-38 380 229
0.085562661 0.80000001 0.015429333 1.2348008e-38 381 229
0.086965337 0.80000001 0.015429333 1.2531686e-38 382 229
0.088367999 0.80000001 0.015429333 1.3177055e-38 383 229
0.089770667 0.80000001 0.015429333 1.3641264e-38 384 229
0.091173328 0.80000001 0.015429333 1.4194437e-38 385 229
0.092575997 0.80000001 0.015429333 1.4653598e-38 386 229
0.094213605 0.80199999 0.015467905 1.4561044e-38 387 229
0.095619783 0.80199999 0.015467905 1.4469198e-38 388 229
0.097025953 0.80199999 0.015467905 1.4100775e-38 389 229
0.098186664 0.80000001 0.015429333 1.3733068e-38 390 229
0.099340349 0.79799998 0.015390759 1.3179894e-38 391 229
0.10073951 0.79799998 0.015390759 1.207829e-38 392 229
0.06060572 0.82300001 0.014429933 1.0138237e-38 362 230
0.061897919 0.82099998 0.014394866 1.0783607e-38 363 230
0.063183114 0.81900001 0.0143598 1.1430383e-38 364 230
0.064145707 0.81300002 0.0142546 1.1799166e-38 365 230
0.065087236 0.80699998 0.014149399 1.2260126e-38 366 230
0.066502176 0.80699998 0.014149399 1.2444157e-38 367 230
0.0677488 0.80500001 0.014114333 1.2994812e-38 368 230
0.06916023 0.80500001 0.014114333 1.2994812e-38 369 230
0.070571661 0.80500001 0.014114333 1.3638744e-38 370 230
0.071804255 0.80299997 0.014079265 1.4652895e-38 371 230
0.073212177 0.80299997 0.014079265 1.4929839e-38 372 230
0.074620105 0.80299997 0.014079265 1.5390457e-38 373 230
0.075933352 0.80199999 0.014061732 1.5575927e-38 374 230
0.07733953 0.80199999 0.014061732 1.5760318e-38 375 230
0.078549333 0.80000001 0.014026666 1.594578e-38 376 230
0.079952002 0.80000001 0.014026666 1.594578e-38 377 230
0.081151277 0.79799998 0.013991599 1.631169e-38 378 230
0.082550429 0.79799998 0.013991599 1.5113148e-38 379 230
0.083949596 0.79799998 0.013991599 1.3913902e-38 380 230
0.085348755 0.79799998 0.013991599 1.2254379e-38 381 230
0.086747915 0.79799998 0.013991599 1.2620647e-38 382 230
0.088147074 0.79799998 0.013991599 1.3081626e-38 383 230
0.089546233 0.79799998 0.013991599 1.3271406e-38 384 230
0.090945393 0.79799998 0.013991599 1.4285198e-38 385 230
0.092575997 0.80000001 0.014026666 1.4468851e-38 386 230
0.093978666 0.80000001 0.014026666 1.4468851e-38 387 230
0.095381334 0.80000001 0.014026666 1.4285523e-38 388 230
0.097025953 0.80199999 0.014061732 1.4100772e-38 389 230
0.098432131 0.80199999 0.014061732 1.3916378e-38 390 230
0.099589325 0.80000001 0.014026666 1.3363563e-38 391 230
0.100992 0.80000001 0.014026666 1.2444188e-38 392 230
0.10239466 0.80000001 0.014026666 1.474872e-38 393 230
0.063337415 0.82099998 0.01295538 1.0693913e-38 364 231
0.064776897 0.82099998 0.01295538 1.1431478e-38 365 231
0.065087236 0.80699998 0.01273446 1.2442725e-38 366 231
0.066337362 0.80500001 0.012702899 1.2718951e-38 367 231
0.0677488 0.80500001 0.012702899 1.2811497e-38 368 231
0.06916023 0.80500001 0.012702899 1.2996247e-38 369 231
0.070396326 0.80299997 0.012671339 1.3456516e-38 370 231
0.071804255 0.80299997 0.012671339 1.3917495e-38 371 231
0.073212177 0.80299997 0.012671339 1.4654344e-38 372 231
0.074620105 0.80299997 0.012671339 1.5022766e-38 373 231
0.075933352 0.80199999 0.01265556 1.5300416e-38 374 231
0.07733953 0.80199999 0.01265556 1.5484808e-38 375 231
0.078549333 0.80000001 0.012624 1.576139e-38 376 231
0.079952002 0.80000001 0.012624 1.5853586e-38 377 231
0.081151277 0.79799998 0.012592439 1.6220578e-38 378 231
0.082550429 0.79799998 0.012592439 1.4837284e-38 379 231
0.083949596 0.79799998 0.012592439 1.3453282e-38 380 231
0.085348755 0.79799998 0.012592439 1.1793402e-38 381 231
0.086747915 0.79799998 0.012592439 1.2160036e-38 382 231
0.088147074 0.79799998 0.012592439 1.271321e-38 383 231
0.089546233 0.79799998 0.012592439 1.3270333e-38 384 231
0.090945393 0.79799998 0.012592439 1.437668e-38 385 231
0.092344552 0.79799998 0.012592439 1.4285183e-38 386 231
0.093978666 0.80000001 0.012624 1.4285183e-38 387 231
0.095381334 0.80000001 0.012624 1.4194044e-38 388 231
0.096783996 0.80000001 0.012624 1.3917815e-38 389 231
0.098186664 0.80000001 0.012624 1.391603e-38 390 231
0.099340349 0.79799998 0.012592439 1.3639803e-38 391 231
0.10073951 0.79799998 0.012592439 1.3087406e-38 392 231
0.10213868 0.79799998 0.012592439 1.4193395e-38 393 231
0.065087236 0.80699998 0.011319519 1.2350895e-38 366 232
0.066337362 0.80500001 0.011291467 1.2350895e-38 367 232
0.0677488 0.80500001 0.011291467 1.2719658e-38 368 232
0.06916023 0.80500001 0.011291467 1.2904049e-38 369 232
0.070396326 0.80299997 0.011263412 1.3364674e-38 370 232
0.071804255 0.80299997 0.011263412 1.3733458e-38 371 232
0.073212177 0.80299997 0.011263412 1.4562864e-38 372 232
0.074620105 0.80299997 0.011263412 1.4747255e-38 373 232
0.075933352 0.80199999 0.011249386 1.5390457e-38 374 232
0.077146664 0.80000001 0.011221333 1.5759239e-38 375 232
0.078549333 0.80000001 0.011221333 1.5668117e-38 376 232
0.079952002 0.80000001 0.011221333 1.6036898e-38 377 232
0.081151277 0.79799998 0.011193279 1.6220575e-38 378 232
0.082550429 0.79799998 0.011193279 1.483764e-38 379 232
0.083739199 0.796 0.011165227 1.3361803e-38 380 232
0.085134849 0.796 0.011165227 1.0872522e-38 381 232
0.086747915 0.79799998 0.011193279 1.1240594e-38 382 232
0.088147074 0.79799998 0.011193279 1.1701932e-38 383 232
0.089546233 0.79799998 0.011193279 1.3268888e-38 384 232
0.090945393 0.79799998 0.011193279 1.4559627e-38 385 232
0.092344552 0.79799998 0.011193279 1.4561046e-38 386 232
0.093743719 0.79799998 0.011193279 1.4561046e-38 387 232
0.095142879 0.79799998 0.011193279 1.4011097e-38 388 232
0.096542038 0.79799998 0.011193279 1.3734869e-38 389 232
0.09794119 0.79799998 0.011193279 1.3824914e-38 390 232
0.099340349 0.79799998 0.011193279 1.3640522e-38 391 232
0.10048704 0.796 0.011165227 1.3640185e-38 392 232
0.1018827 0.796 0.011165227 1.3640185e-38 393 232
0.066337362 0.80500001 0.0098800333 1.2075399e-38 367 233
0.0677488 0.80500001 0.0098800333 1.1893507e-38 368 233
0.068988405 0.80299997 0.0098554865 1.2262648e-38 369 233
0.070396326 0.80299997 0.0098554865 1.2722198e-38 370 233
0.071804255 0.80299997 0.0098554865 1.3090979e-38 371 233
0.073212177 0.80299997 0.0098554865 1.3826037e-38 372 233
0.074620105 0.80299997 0.0098554865 1.4102984e-38 373 233
0.075933352 0.80199999 0.0098432126 1.4839101e-38 374 233
0.077146664 0.80000001 0.0098186666 1.5207883e-38 375 233
0.078549333 0.80000001 0.0098186666 1.5392981e-38 376 233
0.079752117 0.79799998 0.0097941197 1.5669569e-38 377 233
0.080947891 0.796 0.0097695729 1.5945786e-38 378 233
0.082343549 0.796 0.0097695729 1.4562493e-38 379 233
0.083739199 0.796 0.0097695729 1.3729863e-38 380 233
0.085134849 0.796 0.0097695729 1.0687408e-38 381 233
0.086530507 0.796 0.0097695729 1.050231e-38 382 233
0.087926157 0.796 0.0097695729 1.114768e-38 383 233
0.089546233 0.79799998 0.0097941197 1.2900101e-38 384 233
0.090945393 0.79799998 0.0097941197 1.4375233e-38 385 233
0.092344552 0.79799998 0.0097941197 1.4195141e-38 386 233
0.093743719 0.79799998 0.0097941197 1.4195141e-38 387 233
0.095142879 0.79799998 0.0097941197 1.4285523e-38 388 233
0.096542038 0.79799998 0.0097941197 1.4193326e-38 389 233
0.09794119 0.79799998 0.0097941197 1.3825267e-38 390 233
0.099340349 0.79799998 0.0097941197 1.3732712e-38 391 233
0.10048704 0.796 0.0097695729 1.3456872e-38 392 233
0.1018827 0.796 0.0097695729 1.2718949e-38 393 233
0.067580476 0.80299997 0.0084475596 1.1984983e-38 368 234
0.068988405 0.80299997 0.0084475596 1.2353765e-38 369 234
0.070396326 0.80299997 0.0084475596 1.2905495e-38 370 234
0.071804255 0.80299997 0.0084475596 1.3274276e-38 371 234
0.073212177 0.80299997 0.0084475596 1.3917129e-38 372 234
0.074620105 0.80299997 0.0084475596 1.4562498e-38 373 234
0.075933352 0.80199999 0.0084370393 1.4930555e-38 374 234
0.077146664 0.80000001 0.0084159998 1.5207142e-38 375 234
0.078352958 0.79799998 0.0083949603 1.5300414e-38 376 234
0.079752117 0.79799998 0.0083949603 1.5668836e-38 377 234
0.080947891 0.796 0.0083739199 1.585323e-38 378 234
0.082343549 0.796 0.0083739199 1.4747243e-38 379 234
0.083739199 0.796 0.0083739199 1.4005371e-38 380 234
0.085134849 0.796 0.0083739199 1.0317905e-38 381 234
0.086530507 0.796 0.0083739199 1.0223202e-38 382 234
0.087926157 0.796 0.0083739199 1.0960767e-38 383 234
0.089321814 0.796 0.0083739199 1.2163262e-38 384 234
0.090717465 0.796 0.0083739199 1.391462e-38 385 234
0.092344552 0.79799998 0.0083949603 1.4838359e-38 386 234
0.093743719 0.79799998 0.0083949603 1.4746164e-38 387 234
0.095142879 0.79799998 0.0083949603 1.4286255e-38 388 234
0.096542038 0.79799998 0.0083949603 1.4010028e-38 389 234
0.09794119 0.79799998 0.0083949603 1.3733081e-38 390 234
0.099340349 0.79799998 0.0083949603 1.3640885e-38 391 234
0.10048704 0.796 0.0083739199 1.3364656e-38 392 234
0.1018827 0.796 0.0083739199 1.2534894e-38 393 234
0.067580476 0.80299997 0.0070396326 1.1891363e-38 368 235
