# .PCD v.7 - Point Cloud Data file format
FIELDS x y z rgb imX imY
SIZE 4 4 4 4 4 4
TYPE F F F F F F
COUNT 1 1 1 1 1 1
WIDTH 842
HEIGHT 1
VIEWPOINT 0 0 0 1 0 0 0
POINTS 842
DATA ascii
-0.014638579 0.759 -0 1.8711628e-38 309 240
-0.0133078 0.759 -0 1.8711625e-38 310 240
-0.01197702 0.759 -0 1.8711625e-38 311 240
-0.01064624 0.759 -0 1.8711981e-38 312 240
-0.00931546 0.759 -0 1.8711981e-38 313 240
-0.0079636406 0.75700003 -0 1.8803458e-38 314 240
-0.0066188332 0.755 -0 1.8803458e-38 315 240
-0.0052950666 0.755 -0 1.8803458e-38 316 240
-0.0039712996 0.755 -0 1.8711262e-38 317 240
-0.0026475333 0.755 -0 1.8986767e-38 318 240
-0.0013237667 0.755 -0 1.9078964e-38 319 240
0 0.755 -0 1.9171513e-38 320 240
0.0013237667 0.755 -0 1.9079318e-38 321 240
0.0026440267 0.75400001 -0 1.9079671e-38 322 240
0.00396604 0.75400001 -0 1.9079671e-38 323 240
0.0052880533 0.75400001 -0 1.9079668e-38 324 240
0.0065925326 0.75199997 -0 1.8987471e-38 325 240
0.0079110395 0.75199997 -0 1.9079304e-38 326 240
0.0092049995 0.75 -0 1.9079304e-38 327 240
0.01052 0.75 -0 1.9079657e-38 328 240
0.011835 0.75 -0 1.9079657e-38 329 240
0.01315 0.75 -0 1.9170771e-38 330 240
0.014465 0.75 -0 1.9170771e-38 331 240
0.01578 0.75 -0 1.9262603e-38 332 240
0.017095 0.75 -0 1.9077853e-38 333 240
0.018409999 0.75 -0 1.9261165e-38 334 240
0.019724999 0.75 -0 1.935372e-38 335 240
0.020955838 0.74699998 -0 1.9169676e-38 336 240
0.022265578 0.74699998 -0 1.8985644e-38 337 240
0.023575317 0.74699998 -0 1.9076745e-38 338 240
0.024885058 0.74699998 -0 1.916894e-38 339 240
0.026194798 0.74699998 -0 1.8983493e-38 340 240
0.027578179 0.74900001 -0 1.9351915e-38 341 240
0.028814279 0.74699998 -0 1.870836e-38 342 240
0.030124018 0.74699998 -0 1.8524329e-38 343 240
0.031433757 0.74699998 -0 1.8524345e-38 344 240
0.032743499 0.74699998 -0 1.8432149e-38 345 240
0.034053236 0.74699998 -0 1.824961e-38 346 240
0.038976599 0.741 -0 1.8897936e-38 350 240
0.042758539 0.73900002 -0 1.779159e-38 353 240
0.044054255 0.73900002 -0 1.6961828e-38 354 240
-0.047908079 0.759 -0.00133078 1.7605342e-38 284 241
-0.046700031 0.76099998 -0.0013342865 1.7789733e-38 285 241
-0.045365743 0.76099998 -0.0013342865 1.8343595e-38 286 241
-0.044031456 0.76099998 -0.0013342865 1.8527626e-38 287 241
-0.042697169 0.76099998 -0.0013342865 1.8987863e-38 288 241
-0.041362885 0.76099998 -0.0013342865 1.8895668e-38 289 241
-0.040028598 0.76099998 -0.0013342865 1.8896737e-38 290 241
-0.038694311 0.76099998 -0.0013342865 1.862051e-38 291 241
-0.037409119 0.76200002 -0.00133604 1.8710906e-38 292 241
-0.036073081 0.76200002 -0.00133604 1.8618711e-38 293 241
-0.034737039 0.76200002 -0.00133604 1.8893503e-38 294 241
-0.033357166 0.76099998 -0.0013342865 1.8985698e-38 295 241
-0.032022879 0.76099998 -0.0013342865 1.8894224e-38 296 241
-0.030688593 0.76099998 -0.0013342865 1.8894224e-38 297 241
-0.029354304 0.76099998 -0.0013342865 1.898642e-38 298 241
-0.028020019 0.76099998 -0.0013342865 1.8894224e-38 299 241
-0.026685731 0.76099998 -0.0013342865 1.8710909e-38 300 241
-0.025351444 0.76099998 -0.0013342865 1.8710909e-38 301 241
-0.024017159 0.76099998 -0.0013342865 1.8802379e-38 302 241
-0.022682872 0.76099998 -0.0013342865 1.8802379e-38 303 241
-0.021348584 0.76099998 -0.0013342865 1.8801657e-38 304 241
-0.020014299 0.76099998 -0.0013342865 1.8801657e-38 305 241
-0.01863092 0.759 -0.00133078 1.8801654e-38 306 241
-0.017300138 0.759 -0.00133078 1.8801654e-38 307 241
-0.015927281 0.75700003 -0.0013272733 1.8618695e-38 308 241
-0.014600007 0.75700003 -0.0013272733 1.8618695e-38 309 241
-0.0133078 0.759 -0.00133078 1.8618693e-38 310 241
-0.01197702 0.759 -0.00133078 1.8618693e-38 311 241
-0.010618187 0.75700003 -0.0013272733 1.880201e-38 312 241
-0.0092909131 0.75700003 -0.0013272733 1.880201e-38 313 241
-0.0079636406 0.75700003 -0.0013272733 1.8618345e-38 314 241
-0.0066188332 0.755 -0.0013237667 1.8618345e-38 315 241
-0.0052950666 0.755 -0.0013237667 1.8801657e-38 316 241
-0.0039712996 0.755 -0.0013237667 1.8801657e-38 317 241
-0.0026475333 0.755 -0.0013237667 1.880201e-38 318 241
-0.0013237667 0.755 -0.0013237667 1.8894206e-38 319 241
0 0.75400001 -0.0013220133 1.9077518e-38 320 241
0.0013220133 0.75400001 -0.0013220133 1.9169714e-38 321 241
0.0026440267 0.75400001 -0.0013220133 1.8894203e-38 322 241
0.00396604 0.75400001 -0.0013220133 1.8986758e-38 323 241
0.0052880533 0.75400001 -0.0013220133 1.8895278e-38 324 241
0.0065925326 0.75199997 -0.0013185065 1.8895278e-38 325 241
0.0079110395 0.75199997 -0.0013185065 1.8987118e-38 326 241
0.0092049995 0.75 -0.001315 1.8987118e-38 327 241
0.010505973 0.74900001 -0.0013132467 1.8986755e-38 328 241
0.01181922 0.74900001 -0.0013132467 1.8986755e-38 329 241
0.013132467 0.74900001 -0.0013132467 1.9170064e-38 330 241
0.014445714 0.74900001 -0.0013132467 1.9077869e-38 331 241
0.01575896 0.74900001 -0.0013132467 1.9261897e-38 332 241
0.017026618 0.74699998 -0.0013097399 1.9261897e-38 333 241
0.018336359 0.74699998 -0.0013097399 1.9078225e-38 334 241
0.019646099 0.74699998 -0.0013097399 1.9078225e-38 335 241
0.020955838 0.74699998 -0.0013097399 1.9077869e-38 336 241
0.022265578 0.74699998 -0.0013097399 1.9077869e-38 337 241
0.023575317 0.74699998 -0.0013097399 1.9077506e-38 338 241
0.024885058 0.74699998 -0.0013097399 1.9169701e-38 339 241
0.026194798 0.74699998 -0.0013097399 1.9077869e-38 340 241
0.027504537 0.74699998 -0.0013097399 1.9262619e-38 341 241
0.028814279 0.74699998 -0.0013097399 1.9169701e-38 342 241
0.03008369 0.74599999 -0.0013079866 1.898531e-38 343 241
0.031391677 0.74599999 -0.0013079866 1.8892756e-38 344 241
0.032743499 0.74699998 -0.0013097399 1.8800559e-38 345 241
0.03512628 0.74199998 -0.0013009732 1.7881146e-38 347 241
0.037524838 0.73799998 -0.0012939599 1.7420563e-38 349 241
0.038976599 0.741 -0.0012992199 1.7513144e-38 350 241
0.04027582 0.741 -0.0012992199 1.8158513e-38 351 241
0.041462827 0.73900002 -0.0012957134 1.8158536e-38 352 241
0.042758539 0.73900002 -0.0012957134 1.9172686e-38 353 241
0.044054255 0.73900002 -0.0012957134 1.8992284e-38 354 241
0.0452886 0.73799998 -0.0012939599 1.9545458e-38 355 241
-0.049238857 0.759 -0.00266156 1.742238e-38 283 242
-0.047908079 0.759 -0.00266156 1.7789323e-38 284 242
-0.046700031 0.76099998 -0.0026685731 1.8250301e-38 285 242
-0.045365743 0.76099998 -0.0026685731 1.8527594e-38 286 242
-0.044031456 0.76099998 -0.0026685731 1.8527594e-38 287 242
-0.042697169 0.76099998 -0.0026685731 1.8804178e-38 288 242
-0.041362885 0.76099998 -0.0026685731 1.8711981e-38 289 242
-0.040028598 0.76099998 -0.0026685731 1.8711262e-38 290 242
-0.038694311 0.76099998 -0.0026685731 1.8618708e-38 291 242
-0.037360024 0.76099998 -0.0026685731 1.8251007e-38 292 242
-0.036025736 0.76099998 -0.0026685731 1.8158453e-38 293 242
-0.034737039 0.76200002 -0.00267208 1.8250654e-38 294 242
-0.033357166 0.76099998 -0.0026685731 1.8250654e-38 295 242
-0.032022879 0.76099998 -0.0026685731 1.8250301e-38 296 242
-0.030688593 0.76099998 -0.0026685731 1.8250301e-38 297 242
-0.029354304 0.76099998 -0.0026685731 1.8342853e-38 298 242
-0.028020019 0.76099998 -0.0026685731 1.8158103e-38 299 242
-0.026685731 0.76099998 -0.0026685731 1.8342847e-38 300 242
-0.025351444 0.76099998 -0.0026685731 1.8250651e-38 301 242
-0.024017159 0.76099998 -0.0026685731 1.8433964e-38 302 242
-0.022682872 0.76099998 -0.0026685731 1.8249932e-38 303 242
-0.021348584 0.76099998 -0.0026685731 1.8066259e-38 304 242
-0.020014299 0.76099998 -0.0026685731 1.7974063e-38 305 242
-0.01863092 0.759 -0.00266156 1.8157004e-38 306 242
-0.017300138 0.759 -0.00266156 1.8157004e-38 307 242
-0.015927281 0.75700003 -0.0026545466 1.8066947e-38 308 242
-0.014600007 0.75700003 -0.0026545466 1.7974751e-38 309 242
-0.013272733 0.75700003 -0.0026545466 1.8249537e-38 310 242
-0.01194546 0.75700003 -0.0026545466 1.8249537e-38 311 242
-0.010590133 0.755 -0.0026475333 1.8249909e-38 312 242
-0.0092663663 0.755 -0.0026475333 1.8249909e-38 313 242
-0.0079425992 0.755 -0.0026475333 1.8065893e-38 314 242
-0.0066188332 0.755 -0.0026475333 1.8158089e-38 315 242
-0.0052950666 0.755 -0.0026475333 1.8157733e-38 316 242
-0.00396604 0.75400001 -0.0026440267 1.8250288e-38 317 242
-0.0026440267 0.75400001 -0.0026440267 1.8250283e-38 318 242
-0.0013220133 0.75400001 -0.0026440267 1.8250283e-38 319 242
0 0.75400001 -0.0026440267 1.8800936e-38 320 242
0.0013220133 0.75400001 -0.0026440267 1.8800936e-38 321 242
0.0026440267 0.75400001 -0.0026440267 1.8709459e-38 322 242
0.0039555198 0.75199997 -0.0026370131 1.8801654e-38 323 242
0.0052740262 0.75199997 -0.0026370131 1.8618698e-38 324 242
0.0065925326 0.75199997 -0.0026370131 1.8618698e-38 325 242
0.00789 0.75 -0.00263 1.8619061e-38 326 242
0.0092049995 0.75 -0.00263 1.8526865e-38 327 242
0.010505973 0.74900001 -0.0026264933 1.8802729e-38 328 242
0.01181922 0.74900001 -0.0026264933 1.8618698e-38 329 242
0.013132467 0.74900001 -0.0026264933 1.8894559e-38 330 242
0.014445714 0.74900001 -0.0026264933 1.8894559e-38 331 242
0.015716879 0.74699998 -0.0026194798 1.9077869e-38 332 242
0.017026618 0.74699998 -0.0026194798 1.9077869e-38 333 242
0.018336359 0.74699998 -0.0026194798 1.9077874e-38 334 242
0.019646099 0.74699998 -0.0026194798 1.9077874e-38 335 242
0.020927785 0.74599999 -0.0026159731 1.8894206e-38 336 242
0.022235774 0.74599999 -0.0026159731 1.8894206e-38 337 242
0.023543758 0.74599999 -0.0026159731 1.8985673e-38 338 242
0.024851745 0.74599999 -0.0026159731 1.9170064e-38 339 242
0.026159734 0.74599999 -0.0026159731 1.9170773e-38 340 242
0.027467718 0.74599999 -0.0026159731 1.9170773e-38 341 242
0.028775707 0.74599999 -0.0026159731 1.935372e-38 342 242
0.030003037 0.74400002 -0.00260896 1.9261165e-38 343 242
0.031307522 0.74400002 -0.00260896 1.8985658e-38 344 242
0.032524332 0.74199998 -0.0026019465 1.8985658e-38 345 242
0.033825304 0.74199998 -0.0026019465 1.8709798e-38 346 242
0.037524838 0.73799998 -0.0025879198 1.7971524e-38 349 242
0.038818799 0.73799998 -0.0025879198 1.7787864e-38 350 242
0.040167112 0.73900002 -0.0025914267 1.8248484e-38 351 242
0.041462827 0.73900002 -0.0025914267 1.8248881e-38 352 242
0.042758539 0.73900002 -0.0025914267 1.8617304e-38 353 242
0.043994635 0.73799998 -0.0025879198 1.8710633e-38 354 242
0.0452886 0.73799998 -0.0025879198 1.9356003e-38 355 242
0.046582557 0.73799998 -0.0025879198 1.8990488e-38 356 242
-0.053090934 0.75700003 -0.0039818203 1.6590467e-38 280 243
-0.051763661 0.75700003 -0.0039818203 1.6313882e-38 281 243
-0.050569639 0.759 -0.0039923396 1.7329439e-38 282 243
-0.049238857 0.759 -0.0039923396 1.8067004e-38 283 243
-0.047908079 0.759 -0.0039923396 1.8435048e-38 284 243
-0.046700031 0.76099998 -0.0040028598 1.8342853e-38 285 243
-0.045365743 0.76099998 -0.0040028598 1.8618714e-38 286 243
-0.044031456 0.76099998 -0.0040028598 1.8526159e-38 287 243
-0.042697169 0.76099998 -0.0040028598 1.8617995e-38 288 243
-0.041362885 0.76099998 -0.0040028598 1.852544e-38 289 243
-0.040028598 0.76099998 -0.0040028598 1.8433245e-38 290 243
-0.038694311 0.76099998 -0.0040028598 1.8341048e-38 291 243
-0.037360024 0.76099998 -0.0040028598 1.7790395e-38 292 243
-0.036025736 0.76099998 -0.0040028598 1.7790395e-38 293 243
-0.034691449 0.76099998 -0.0040028598 1.7973339e-38 294 243
-0.033357166 0.76099998 -0.0040028598 1.7881143e-38 295 243
-0.032022879 0.76099998 -0.0040028598 1.815736e-38 296 243
-0.030688593 0.76099998 -0.0040028598 1.8249556e-38 297 243
-0.029354304 0.76099998 -0.0040028598 1.7974048e-38 298 243
-0.028020019 0.76099998 -0.0040028598 1.7789298e-38 299 243
-0.026685731 0.76099998 -0.0040028598 1.7881499e-38 300 243
-0.025351444 0.76099998 -0.0040028598 1.7881499e-38 301 243
-0.024017159 0.76099998 -0.0040028598 1.7972976e-38 302 243
-0.022682872 0.76099998 -0.0040028598 1.788078e-38 303 243
-0.021348584 0.76099998 -0.0040028598 1.7605267e-38 304 243
-0.020014299 0.76099998 -0.0040028598 1.7513069e-38 305 243
-0.01863092 0.759 -0.0039923396 1.7328675e-38 306 243
-0.017300138 0.759 -0.0039923396 1.7328675e-38 307 243
-0.015927281 0.75700003 -0.0039818203 1.7329026e-38 308 243
-0.014600007 0.75700003 -0.0039818203 1.7329026e-38 309 243
-0.013272733 0.75700003 -0.0039818203 1.7512341e-38 310 243
-0.011913899 0.755 -0.0039712996 1.7604536e-38 311 243
-0.010590133 0.755 -0.0039712996 1.7604186e-38 312 243
-0.0092540924 0.75400001 -0.00396604 1.7604186e-38 313 243
-0.00793208 0.75400001 -0.00396604 1.7421237e-38 314 243
-0.0066100666 0.75400001 -0.00396604 1.7421237e-38 315 243
-0.0052880533 0.75400001 -0.00396604 1.7788584e-38 316 243
-0.00396604 0.75400001 -0.00396604 1.788078e-38 317 243
-0.0026440267 0.75400001 -0.00396604 1.7697831e-38 318 243
-0.0013220133 0.75400001 -0.00396604 1.7790026e-38 319 243
0 0.75400001 -0.00396604 1.8432152e-38 320 243
0.0013220133 0.75400001 -0.00396604 1.8524347e-38 321 243
0.0026370131 0.75199997 -0.0039555198 1.8432502e-38 322 243
0.0039555198 0.75199997 -0.0039555198 1.8524698e-38 323 243
0.0052740262 0.75199997 -0.0039555198 1.8341383e-38 324 243
0.006575 0.75 -0.003945 1.8341383e-38 325 243
0.00789 0.75 -0.003945 1.8342457e-38 326 243
0.0091927266 0.74900001 -0.0039397399 1.8342457e-38 327 243
0.010477919 0.74699998 -0.0039292197 1.8617967e-38 328 243
0.011787659 0.74699998 -0.0039292197 1.8617967e-38 329 243
0.013097399 0.74699998 -0.0039292197 1.8709809e-38 330 243
0.014407139 0.74699998 -0.0039292197 1.8709809e-38 331 243
0.015716879 0.74699998 -0.0039292197 1.8709815e-38 332 243
0.017026618 0.74699998 -0.0039292197 1.8709815e-38 333 243
0.018336359 0.74699998 -0.0039292197 1.8800938e-38 334 243
0.019646099 0.74699998 -0.0039292197 1.898497e-38 335 243
0.020927785 0.74599999 -0.0039239596 1.8709106e-38 336 243
0.022235774 0.74599999 -0.0039239596 1.880166e-38 337 243
0.023543758 0.74599999 -0.0039239596 1.8801654e-38 338 243
0.024851745 0.74599999 -0.0039239596 1.8894209e-38 339 243
0.026159734 0.74599999 -0.0039239596 1.9077871e-38 340 243
0.027467718 0.74599999 -0.0039239596 1.9077871e-38 341 243
0.028775707 0.74599999 -0.0039239596 1.9169701e-38 342 243
0.030003037 0.74400002 -0.0039134403 1.9077506e-38 343 243
0.031307522 0.74400002 -0.0039134403 1.8986026e-38 344 243
0.032524332 0.74199998 -0.0039029196 1.8801995e-38 345 243
0.033779722 0.741 -0.0038976599 1.8986379e-38 346 243
0.035078939 0.741 -0.0038976599 1.8802348e-38 347 243
0.036279973 0.73900002 -0.00388714 1.9078225e-38 348 243
0.037524838 0.73799998 -0.0038818798 1.8801639e-38 349 243
0.038818799 0.73799998 -0.0038818798 1.8892041e-38 350 243
0.040167112 0.73900002 -0.00388714 1.8892041e-38 351 243
0.041462827 0.73900002 -0.00388714 1.8616543e-38 352 243
0.042700678 0.73799998 -0.0038818798 1.8339956e-38 353 243
0.043875411 0.736 -0.0038713599 1.8063036e-38 354 243
0.045165867 0.736 -0.0038713599 1.8155231e-38 355 243
0.046645679 0.73900002 -0.00388714 1.760569e-38 356 243
0.047941394 0.73900002 -0.00388714 1.7882635e-38 357 243
0.049170475 0.73799998 -0.0038818798 1.760897e-38 358 243
0.050464436 0.73799998 -0.0038818798 1.8070308e-38 359 243
-0.054561976 0.759 -0.0053231199 1.6774875e-38 279 244
-0.053090934 0.75700003 -0.0053090933 1.686991e-38 280 244
-0.051763661 0.75700003 -0.0053090933 1.7238332e-38 281 244
-0.050569639 0.759 -0.0053231199 1.8067708e-38 282 244
-0.049238857 0.759 -0.0053231199 1.8159903e-38 283 244
-0.048034318 0.76099998 -0.0053371461 1.834285e-38 284 244
-0.046577301 0.759 -0.0053231199 1.834285e-38 285 244
-0.045246519 0.759 -0.0053231199 1.8433248e-38 286 244
-0.043915741 0.759 -0.0053231199 1.8433248e-38 287 244
-0.042697169 0.76099998 -0.0053371461 1.8248852e-38 288 244
-0.041362885 0.76099998 -0.0053371461 1.8156656e-38 289 244
-0.0399234 0.759 -0.0053231199 1.7881143e-38 290 244
-0.038592618 0.759 -0.0053231199 1.7788947e-38 291 244
-0.03726184 0.759 -0.0053231199 1.7788594e-38 292 244
-0.035931058 0.759 -0.0053231199 1.7604563e-38 293 244
-0.034600276 0.759 -0.0053231199 1.742124e-38 294 244
-0.033357166 0.76099998 -0.0053371461 1.7329044e-38 295 244
-0.032022879 0.76099998 -0.0053371461 1.760382e-38 296 244
-0.030688593 0.76099998 -0.0053371461 1.760382e-38 297 244
-0.029354304 0.76099998 -0.0053371461 1.7052812e-38 298 244
-0.028020019 0.76099998 -0.0053371461 1.7145007e-38 299 244
-0.026685731 0.76099998 -0.0053371461 1.6960982e-38 300 244
-0.025351444 0.76099998 -0.0053371461 1.6776951e-38 301 244
-0.024017159 0.76099998 -0.0053371461 1.6960253e-38 302 244
-0.022682872 0.76099998 -0.0053371461 1.6960253e-38 303 244
-0.021348584 0.76099998 -0.0053371461 1.6775858e-38 304 244
-0.0199617 0.759 -0.0053231199 1.6683303e-38 305 244
-0.018581826 0.75700003 -0.0053090933 1.6591108e-38 306 244
-0.017254554 0.75700003 -0.0053090933 1.6591108e-38 307 244
-0.015885198 0.755 -0.0052950666 1.6315953e-38 308 244
-0.014561433 0.755 -0.0052950666 1.6315953e-38 309 244
-0.013220133 0.75400001 -0.0052880533 1.6315597e-38 310 244
-0.01189812 0.75400001 -0.0052880533 1.6407793e-38 311 244
-0.010576107 0.75400001 -0.0052880533 1.6407442e-38 312 244
-0.0092540924 0.75400001 -0.0052880533 1.6407442e-38 313 244
-0.00793208 0.75400001 -0.0052880533 1.6408164e-38 314 244
-0.0066100666 0.75400001 -0.0052880533 1.6408164e-38 315 244
-0.0052880533 0.75400001 -0.0052880533 1.6775151e-38 316 244
-0.00396604 0.75400001 -0.0052880533 1.6867347e-38 317 244
-0.0026440267 0.75400001 -0.0052880533 1.7235411e-38 318 244
-0.0013220133 0.75400001 -0.0052880533 1.7235411e-38 319 244
0 0.75199997 -0.0052740262 1.7327959e-38 320 244
0.0013185065 0.75199997 -0.0052740262 1.751199e-38 321 244
0.0026370131 0.75199997 -0.0052740262 1.7420871e-38 322 244
0.0039555198 0.75199997 -0.0052740262 1.7420871e-38 323 244
0.00526 0.75 -0.00526 1.7513067e-38 324 244
0.006575 0.75 -0.00526 1.7605622e-38 325 244
0.0078794798 0.74900001 -0.0052529867 1.7605617e-38 326 244
0.0091927266 0.74900001 -0.0052529867 1.7605617e-38 327 244
0.010477919 0.74699998 -0.0052389596 1.7881846e-38 328 244
0.011787659 0.74699998 -0.0052389596 1.8066596e-38 329 244
0.013097399 0.74699998 -0.0052389596 1.8341388e-38 330 244
0.014407139 0.74699998 -0.0052389596 1.8341388e-38 331 244
0.015695838 0.74599999 -0.0052319462 1.8524345e-38 332 244
0.017003827 0.74599999 -0.0052319462 1.861654e-38 333 244
0.018311813 0.74599999 -0.0052319462 1.852435e-38 334 244
0.019619798 0.74599999 -0.0052319462 1.8708743e-38 335 244
0.02087168 0.74400002 -0.0052179201 1.861691e-38 336 244
0.022176161 0.74400002 -0.0052179201 1.8709106e-38 337 244
0.023480639 0.74400002 -0.0052179201 1.8709459e-38 338 244
0.02478512 0.74400002 -0.0052179201 1.8801654e-38 339 244
0.026089599 0.74400002 -0.0052179201 1.8985676e-38 340 244
0.027394081 0.74400002 -0.0052179201 1.8985676e-38 341 244
0.02869856 0.74400002 -0.0052179201 1.8985673e-38 342 244
0.029922385 0.74199998 -0.0052038929 1.8801642e-38 343 244
0.031223357 0.74199998 -0.0052038929 1.9078225e-38 344 244
0.032480497 0.741 -0.0051968796 1.8986029e-38 345 244
0.033779722 0.741 -0.0051968796 1.8986023e-38 346 244
0.034984261 0.73900002 -0.0051828534 1.8986023e-38 347 244
0.036279973 0.73900002 -0.0051828534 1.9078222e-38 348 244
0.037575684 0.73900002 -0.0051828534 1.8986026e-38 349 244
0.0388714 0.73900002 -0.0051828534 1.9077503e-38 350 244
0.040167112 0.73900002 -0.0051828534 1.8985307e-38 351 244
0.041462827 0.73900002 -0.0051828534 1.8801992e-38 352 244
0.042700678 0.73799998 -0.0051758396 1.86176e-38 353 244
0.043875411 0.736 -0.005161813 1.8432499e-38 354 244
0.045165867 0.736 -0.005161813 1.8340304e-38 355 244
0.046582557 0.73799998 -0.0051758396 1.7972988e-38 356 244
0.047876518 0.73799998 -0.0051758396 1.8065184e-38 357 244
0.049170475 0.73799998 -0.0051758396 1.7697522e-38 358 244
0.050190922 0.73400003 -0.0051477868 1.7973749e-38 359 244
0.051477864 0.73400003 -0.0051477868 1.7974147e-38 360 244
-0.055892758 0.759 -0.0066538998 1.5578075e-38 278 245
-0.054561976 0.759 -0.0066538998 1.631564e-38 279 245
-0.053231198 0.759 -0.0066538998 1.8067357e-38 280 245
-0.051900417 0.759 -0.0066538998 1.8527977e-38 281 245
-0.050569639 0.759 -0.0066538998 1.8343946e-38 282 245
-0.049238857 0.759 -0.0066538998 1.8251749e-38 283 245
-0.047908079 0.759 -0.0066538998 1.8342499e-38 284 245
-0.046577301 0.759 -0.0066538998 1.8157749e-38 285 245
-0.045246519 0.759 -0.0066538998 1.8156303e-38 286 245
-0.043915741 0.759 -0.0066538998 1.8156303e-38 287 245
-0.042584959 0.759 -0.0066538998 1.7880427e-38 288 245
-0.041254178 0.759 -0.0066538998 1.7788231e-38 289 245
-0.0399234 0.759 -0.0066538998 1.7603833e-38 290 245
-0.038592618 0.759 -0.0066538998 1.7327606e-38 291 245
-0.03726184 0.759 -0.0066538998 1.7143578e-38 292 245
-0.035931058 0.759 -0.0066538998 1.7143578e-38 293 245
-0.034600276 0.759 -0.0066538998 1.677587e-38 294 245
-0.033269498 0.759 -0.0066538998 1.6499643e-38 295 245
-0.031938717 0.759 -0.0066538998 1.659111e-38 296 245
-0.030688593 0.76099998 -0.0066714329 1.6498915e-38 297 245
-0.029354304 0.76099998 -0.0066714329 1.6131581e-38 298 245
-0.027946379 0.759 -0.0066538998 1.6131581e-38 299 245
-0.026615599 0.759 -0.0066538998 1.6039388e-38 300 245
-0.025284819 0.759 -0.0066538998 1.6039388e-38 301 245
-0.023954039 0.759 -0.0066538998 1.6131207e-38 302 245
-0.02262326 0.759 -0.0066538998 1.6131207e-38 303 245
-0.02129248 0.759 -0.0066538998 1.5854977e-38 304 245
-0.0199617 0.759 -0.0066538998 1.5762423e-38 305 245
-0.018581826 0.75700003 -0.0066363667 1.5670952e-38 306 245
-0.017254554 0.75700003 -0.0066363667 1.5486562e-38 307 245
-0.015885198 0.755 -0.0066188332 1.5486918e-38 308 245
-0.014542146 0.75400001 -0.0066100666 1.5486918e-38 309 245
-0.013220133 0.75400001 -0.0066100666 1.5210337e-38 310 245
-0.01189812 0.75400001 -0.0066100666 1.5302892e-38 311 245
-0.010576107 0.75400001 -0.0066100666 1.5394016e-38 312 245
-0.0092540924 0.75400001 -0.0066100666 1.5394016e-38 313 245
-0.00793208 0.75400001 -0.0066100666 1.5394385e-38 314 245
-0.0065925326 0.75199997 -0.0065925326 1.5578776e-38 315 245
-0.0052740262 0.75199997 -0.0065925326 1.5854289e-38 316 245
-0.00396604 0.75400001 -0.0066100666 1.5946486e-38 317 245
-0.0026440267 0.75400001 -0.0066100666 1.6314177e-38 318 245
-0.0013185065 0.75199997 -0.0065925326 1.6314177e-38 319 245
0 0.75199997 -0.0065925326 1.6315247e-38 320 245
0.0013185065 0.75199997 -0.0065925326 1.6407442e-38 321 245
0.00263 0.75 -0.006575 1.6499641e-38 322 245
0.003945 0.75 -0.006575 1.6775867e-38 323 245
0.00526 0.75 -0.006575 1.6684752e-38 324 245
0.0065662335 0.74900001 -0.0065662335 1.6961338e-38 325 245
0.0078584393 0.74699998 -0.0065486995 1.7053177e-38 326 245
0.0091681797 0.74699998 -0.0065486995 1.7053177e-38 327 245
0.010477919 0.74699998 -0.0065486995 1.7237571e-38 328 245
0.011787659 0.74699998 -0.0065486995 1.7330127e-38 329 245
0.013079867 0.74599999 -0.0065399334 1.7788579e-38 330 245
0.014387853 0.74599999 -0.0065399334 1.7788579e-38 331 245
0.015695838 0.74599999 -0.0065399334 1.8064443e-38 332 245
0.017003827 0.74599999 -0.0065399334 1.8064443e-38 333 245
0.018311813 0.74599999 -0.0065399334 1.8156288e-38 334 245
0.019619798 0.74599999 -0.0065399334 1.8340679e-38 335 245
0.020815572 0.74199998 -0.0065048663 1.8248849e-38 336 245
0.022116546 0.74199998 -0.0065048663 1.8248849e-38 337 245
0.023417519 0.74199998 -0.0065048663 1.8433598e-38 338 245
0.024718491 0.74199998 -0.0065048663 1.8433598e-38 339 245
0.026019465 0.74199998 -0.0065048663 1.8526149e-38 340 245
0.027320439 0.74199998 -0.0065048663 1.8526149e-38 341 245
0.02869856 0.74400002 -0.0065223998 1.8526149e-38 342 245
0.029922385 0.74199998 -0.0065048663 1.8526149e-38 343 245
0.031223357 0.74199998 -0.0065048663 1.8618695e-38 344 245
0.032480497 0.741 -0.0064960998 1.8618695e-38 345 245
0.033779722 0.741 -0.0064960998 1.8619048e-38 346 245
0.034984261 0.73900002 -0.0064785667 1.8619048e-38 347 245
0.036279973 0.73900002 -0.0064785667 1.8894912e-38 348 245
0.037575684 0.73900002 -0.0064785667 1.8802358e-38 349 245
0.038818799 0.73799998 -0.0064697997 1.9077856e-38 350 245
0.040112756 0.73799998 -0.0064697997 1.9077856e-38 351 245
0.041406717 0.73799998 -0.0064697997 1.9169326e-38 352 245
0.042584959 0.736 -0.0064522666 1.8985293e-38 353 245
0.043875411 0.736 -0.0064522666 1.8893461e-38 354 245
0.045165867 0.736 -0.0064522666 1.8801265e-38 355 245
0.046456318 0.736 -0.0064522666 1.8709446e-38 356 245
0.047746774 0.736 -0.0064522666 1.8432499e-38 357 245
0.049037226 0.736 -0.0064522666 1.8063727e-38 358 245
0.050190922 0.73400003 -0.006434733 1.7971529e-38 359 245
0.051477864 0.73400003 -0.006434733 1.7418017e-38 360 245
0.052764814 0.73400003 -0.006434733 1.797119e-38 361 245
0.054051761 0.73400003 -0.006434733 1.751531e-38 362 245
-0.05722354 0.759 -0.0079846792 1.7324051e-38 277 246
-0.055892758 0.759 -0.0079846792 1.7421632e-38 278 246
-0.054561976 0.759 -0.0079846792 1.7974806e-38 279 246
-0.053090934 0.75700003 -0.0079636406 1.8342862e-38 280 246
-0.051763661 0.75700003 -0.0079636406 1.8250667e-38 281 246
-0.050436385 0.75700003 -0.0079636406 1.8250301e-38 282 246
-0.049109112 0.75700003 -0.0079636406 1.7973354e-38 283 246
-0.04778184 0.75700003 -0.0079636406 1.760565e-38 284 246
-0.046454567 0.75700003 -0.0079636406 1.7421619e-38 285 246
-0.045127295 0.75700003 -0.0079636406 1.7512366e-38 286 246
-0.043800019 0.75700003 -0.0079636406 1.7327975e-38 287 246
-0.042584959 0.759 -0.0079846792 1.7235408e-38 288 246
-0.041254178 0.759 -0.0079846792 1.6866265e-38 289 246
-0.039818201 0.75700003 -0.0079636406 1.6588955e-38 290 246
-0.038490929 0.75700003 -0.0079636406 1.6220533e-38 291 246
-0.037163652 0.75700003 -0.0079636406 1.5667359e-38 292 246
-0.03583638 0.75700003 -0.0079636406 1.5390772e-38 293 246
-0.034509107 0.75700003 -0.0079636406 1.4654283e-38 294 246
-0.033181835 0.75700003 -0.0079636406 1.4562088e-38 295 246
-0.031854562 0.75700003 -0.0079636406 1.4379489e-38 296 246
-0.030607941 0.759 -0.0079846792 1.4379489e-38 297 246
-0.029277159 0.759 -0.0079846792 1.4471334e-38 298 246
-0.027946379 0.759 -0.0079846792 1.456353e-38 299 246
-0.026545467 0.75700003 -0.0079636406 1.4839766e-38 300 246
-0.025218192 0.75700003 -0.0079636406 1.4839766e-38 301 246
-0.02389092 0.75700003 -0.0079636406 1.4564604e-38 302 246
-0.022563647 0.75700003 -0.0079636406 1.4564604e-38 303 246
-0.021236373 0.75700003 -0.0079636406 1.428981e-38 304 246
-0.019909101 0.75700003 -0.0079636406 1.428981e-38 305 246
-0.018532733 0.755 -0.0079425992 1.4472409e-38 306 246
-0.017208965 0.755 -0.0079425992 1.4380213e-38 307 246
-0.01586416 0.75400001 -0.00793208 1.4472409e-38 308 246
-0.014542146 0.75400001 -0.00793208 1.4472409e-38 309 246
-0.013220133 0.75400001 -0.00793208 1.4197264e-38 310 246
-0.01189812 0.75400001 -0.00793208 1.4289459e-38 311 246
-0.010576107 0.75400001 -0.00793208 1.4380942e-38 312 246
-0.0092540924 0.75400001 -0.00793208 1.4564974e-38 313 246
-0.00793208 0.75400001 -0.00793208 1.4564974e-38 314 246
-0.0065925326 0.75199997 -0.0079110395 1.4564974e-38 315 246
-0.0052740262 0.75199997 -0.0079110395 1.474865e-38 316 246
-0.0039555198 0.75199997 -0.0079110395 1.474865e-38 317 246
-0.0026370131 0.75199997 -0.0079110395 1.4565697e-38 318 246
-0.0013185065 0.75199997 -0.0079110395 1.4473502e-38 319 246
0 0.75199997 -0.0079110395 1.4932312e-38 320 246
0.001315 0.75 -0.00789 1.5116703e-38 321 246
0.00263 0.75 -0.00789 1.5393289e-38 322 246
0.003945 0.75 -0.00789 1.5485484e-38 323 246
0.0052529867 0.74900001 -0.0078794798 1.5302172e-38 324 246
0.0065486995 0.74699998 -0.0078584393 1.5394369e-38 325 246
0.0078584393 0.74699998 -0.0078584393 1.5670596e-38 326 246
0.0091681797 0.74699998 -0.0078584393 1.5947542e-38 327 246
0.010463892 0.74599999 -0.0078479191 1.6039383e-38 328 246
0.011771879 0.74599999 -0.0078479191 1.6131937e-38 329 246
0.013079867 0.74599999 -0.0078479191 1.6408161e-38 330 246
0.014387853 0.74599999 -0.0078479191 1.6500357e-38 331 246
0.015695838 0.74599999 -0.0078479191 1.68677e-38 332 246
0.017003827 0.74599999 -0.0078479191 1.7420874e-38 333 246
0.018311813 0.74599999 -0.0078479191 1.7697831e-38 334 246
0.019567199 0.74400002 -0.0078268806 1.7605635e-38 335 246
0.020815572 0.74199998 -0.0078058392 1.7788945e-38 336 246
0.022116546 0.74199998 -0.0078058392 1.7788945e-38 337 246
0.023417519 0.74199998 -0.0078058392 1.8339953e-38 338 246
0.024718491 0.74199998 -0.0078058392 1.8432149e-38 339 246
0.026019465 0.74199998 -0.0078058392 1.8248837e-38 340 246
0.027320439 0.74199998 -0.0078058392 1.8341032e-38 341 246
0.028621411 0.74199998 -0.0078058392 1.8616896e-38 342 246
0.029882059 0.741 -0.0077953199 1.8709093e-38 343 246
0.03118128 0.741 -0.0077953199 1.870909e-38 344 246
0.032392833 0.73900002 -0.0077742799 1.8801645e-38 345 246
0.033688545 0.73900002 -0.0077742799 1.8801642e-38 346 246
0.034936916 0.73799998 -0.0077637597 1.8801642e-38 347 246
0.036230877 0.73799998 -0.0077637597 1.8984954e-38 348 246
0.037524838 0.73799998 -0.0077637597 1.8984954e-38 349 246
0.038713597 0.736 -0.0077427197 1.8984954e-38 350 246
0.040004052 0.736 -0.0077427197 1.907715e-38 351 246
0.041294504 0.736 -0.0077427197 1.8986029e-38 352 246
0.042469237 0.73400003 -0.0077216802 1.8801639e-38 353 246
0.043756187 0.73400003 -0.0077216802 1.8986026e-38 354 246
0.045043133 0.73400003 -0.0077216802 1.8801995e-38 355 246
0.046330083 0.73400003 -0.0077216802 1.8710518e-38 356 246
0.047746774 0.736 -0.0077427197 1.8433931e-38 357 246
0.048903972 0.73400003 -0.0077216802 1.8341733e-38 358 246
0.050122537 0.73299998 -0.0077111595 1.8249537e-38 359 246
0.051407732 0.73299998 -0.0077111595 1.7973326e-38 360 246
0.052692924 0.73299998 -0.0077111595 1.8157357e-38 361 246
0.053978115 0.73299998 -0.0077111595 1.7789338e-38 362 246
0.055338707 0.73400003 -0.0077216802 1.7881535e-38 363 246
0.056625653 0.73400003 -0.0077216802 1.7513522e-38 364 246
-0.058554318 0.759 -0.00931546 1.6497861e-38 276 247
-0.057072755 0.75700003 -0.0092909131 1.7419817e-38 277 247
-0.055745479 0.75700003 -0.0092909131 1.7514537e-38 278 247
-0.054418206 0.75700003 -0.0092909131 1.788296e-38 279 247
-0.053090934 0.75700003 -0.0092909131 1.7698573e-38 280 247
-0.051763661 0.75700003 -0.0092909131 1.7698573e-38 281 247
-0.050303131 0.755 -0.0092663663 1.769713e-38 282 247
-0.048979364 0.755 -0.0092663663 1.7604934e-38 283 247
-0.047655597 0.755 -0.0092663663 1.7236872e-38 284 247
-0.04633183 0.755 -0.0092663663 1.7052479e-38 285 247
-0.045008067 0.755 -0.0092663663 1.705283e-38 286 247
-0.043684296 0.755 -0.0092663663 1.6591853e-38 287 247
-0.042472746 0.75700003 -0.0092909131 1.6682587e-38 288 247
-0.041145474 0.75700003 -0.0092909131 1.5945022e-38 289 247
-0.039818201 0.75700003 -0.0092909131 1.5390046e-38 290 247
-0.038389232 0.755 -0.0092663663 1.4929428e-38 291 247
-0.037065465 0.755 -0.0092663663 1.3916715e-38 292 247
-0.03583638 0.75700003 -0.0092909131 1.3271346e-38 293 247
-0.034509107 0.75700003 -0.0092909131 1.318132e-38 294 247
-0.033181835 0.75700003 -0.0092909131 1.3734135e-38 295 247
-0.031854562 0.75700003 -0.0092909131 1.4010025e-38 296 247
-0.030527288 0.75700003 -0.0092909131 1.4286252e-38 297 247
-0.029200014 0.75700003 -0.0092909131 1.4011823e-38 298 247
-0.027872739 0.75700003 -0.0092909131 1.3919627e-38 299 247
-0.026545467 0.75700003 -0.0092909131 1.4379532e-38 300 247
-0.025218192 0.75700003 -0.0092909131 1.4563565e-38 301 247
-0.02389092 0.75700003 -0.0092909131 1.4287336e-38 302 247
-0.022563647 0.75700003 -0.0092909131 1.4287336e-38 303 247
-0.021236373 0.75700003 -0.0092909131 1.4287701e-38 304 247
-0.019909101 0.75700003 -0.0092909131 1.4287701e-38 305 247
-0.018508185 0.75400001 -0.0092540924 1.4012208e-38 306 247
-0.017186172 0.75400001 -0.0092540924 1.4012208e-38 307 247
-0.01586416 0.75400001 -0.0092540924 1.4104038e-38 308 247
-0.014542146 0.75400001 -0.0092540924 1.4196234e-38 309 247
-0.013220133 0.75400001 -0.0092540924 1.4196584e-38 310 247
-0.01189812 0.75400001 -0.0092540924 1.4196584e-38 311 247
-0.010576107 0.75400001 -0.0092540924 1.4197659e-38 312 247
-0.0092540924 0.75400001 -0.0092540924 1.4197659e-38 313 247
-0.00793208 0.75400001 -0.0092540924 1.4380233e-38 314 247
-0.0065925326 0.75199997 -0.0092295464 1.4564265e-38 315 247
-0.0052740262 0.75199997 -0.0092295464 1.4656467e-38 316 247
-0.0039555198 0.75199997 -0.0092295464 1.4840858e-38 317 247
-0.0026370131 0.75199997 -0.0092295464 1.4656495e-38 318 247
-0.0013185065 0.75199997 -0.0092295464 1.4840526e-38 319 247
0 0.75 -0.0092049995 1.4656495e-38 320 247
0.001315 0.75 -0.0092049995 1.4840526e-38 321 247
0.00263 0.75 -0.0092049995 1.4840523e-38 322 247
0.0039397399 0.74900001 -0.0091927266 1.4840523e-38 323 247
0.0052529867 0.74900001 -0.0091927266 1.4748312e-38 324 247
0.0065486995 0.74699998 -0.0091681797 1.4748312e-38 325 247
0.0078584393 0.74699998 -0.0091681797 1.5117075e-38 326 247
0.0091681797 0.74699998 -0.0091681797 1.5117075e-38 327 247
0.010463892 0.74599999 -0.0091559067 1.5301816e-38 328 247
0.011771879 0.74599999 -0.0091559067 1.5394013e-38 329 247
0.013079867 0.74599999 -0.0091559067 1.5670596e-38 330 247
0.014387853 0.74599999 -0.0091559067 1.5670596e-38 331 247
0.015695838 0.74599999 -0.0091559067 1.6130135e-38 332 247
0.016958239 0.74400002 -0.0091313599 1.6590754e-38 333 247
0.01826272 0.74400002 -0.0091313599 1.6500357e-38 334 247
0.019567199 0.74400002 -0.0091313599 1.6500357e-38 335 247
0.020815572 0.74199998 -0.009106813 1.6868771e-38 336 247
0.022116546 0.74199998 -0.009106813 1.7053162e-38 337 247
0.023417519 0.74199998 -0.009106813 1.7329029e-38 338 247
0.024718491 0.74199998 -0.009106813 1.751342e-38 339 247
0.025984399 0.741 -0.0090945391 1.7604916e-38 340 247
0.027283618 0.741 -0.0090945391 1.7788947e-38 341 247
0.028582839 0.741 -0.0090945391 1.7789673e-38 342 247
0.029882059 0.741 -0.0090945391 1.7789673e-38 343 247
0.031055039 0.73799998 -0.0090577193 1.8340682e-38 344 247
0.032348998 0.73799998 -0.0090577193 1.8432878e-38 345 247
0.033642959 0.73799998 -0.0090577193 1.8432878e-38 346 247
0.034842238 0.736 -0.0090331733 1.861691e-38 347 247
0.036132693 0.736 -0.0090331733 1.8617266e-38 348 247
0.037423145 0.736 -0.0090331733 1.8709462e-38 349 247
0.038608398 0.73400003 -0.0090086265 1.8617266e-38 350 247
0.039895348 0.73400003 -0.0090086265 1.8617266e-38 351 247
0.041182294 0.73400003 -0.0090086265 1.8801292e-38 352 247
0.042469237 0.73400003 -0.0090086265 1.8801292e-38 353 247
0.043756187 0.73400003 -0.0090086265 1.8986029e-38 354 247
0.045043133 0.73400003 -0.0090086265 1.8986029e-38 355 247
0.046330083 0.73400003 -0.0090086265 1.898566e-38 356 247
0.047617026 0.73400003 -0.0090086265 1.8893463e-38 357 247
0.048837345 0.73299998 -0.0089963535 1.8801618e-38 358 247
0.049985781 0.73100001 -0.0089718066 1.8709064e-38 359 247
0.051267464 0.73100001 -0.0089718066 1.8709067e-38 360 247
0.052549154 0.73100001 -0.0089718066 1.8709067e-38 361 247
0.053830836 0.73100001 -0.0089718066 1.8248094e-38 362 247
0.055338707 0.73400003 -0.0090086265 1.7879313e-38 363 247
0.056548502 0.73299998 -0.0089963535 1.7603836e-38 364 247
0.057833698 0.73299998 -0.0089963535 1.7696031e-38 365 247
0.059118889 0.73299998 -0.0089963535 1.7052887e-38 366 247
-0.059885096 0.759 -0.01064624 1.6776634e-38 275 248
-0.058554318 0.759 -0.01064624 1.705356e-38 276 248
-0.057072755 0.75700003 -0.010618187 1.7329787e-38 277 248
-0.055745479 0.75700003 -0.010618187 1.7514534e-38 278 248
-0.054418206 0.75700003 -0.010618187 1.7330143e-38 279 248
-0.052950665 0.755 -0.010590133 1.7604934e-38 280 248
-0.051626898 0.755 -0.010590133 1.7327987e-38 281 248
-0.050303131 0.755 -0.010590133 1.6775897e-38 282 248
-0.048979364 0.755 -0.010590133 1.6775897e-38 283 248
-0.047655597 0.755 -0.010590133 1.65915e-38 284 248
-0.04633183 0.755 -0.010590133 1.6407107e-38 285 248
-0.045008067 0.755 -0.010590133 1.6773003e-38 286 248
-0.043684296 0.755 -0.010590133 1.6127634e-38 287 248
-0.042360533 0.755 -0.010590133 1.5114536e-38 288 248
-0.041145474 0.75700003 -0.010618187 1.354721e-38 289 248
-0.039818201 0.75700003 -0.010618187 1.2805312e-38 290 248
-0.038389232 0.755 -0.010590133 1.2528371e-38 291 248
-0.037065465 0.755 -0.010590133 1.1243764e-38 292 248
-0.03583638 0.75700003 -0.010618187 1.2626698e-38 293 248
-0.034509107 0.75700003 -0.010618187 1.3090586e-38 294 248
-0.033181835 0.75700003 -0.010618187 1.3459368e-38 295 248
-0.031854562 0.75700003 -0.010618187 1.4010394e-38 296 248
-0.030527288 0.75700003 -0.010618187 1.4194785e-38 297 248
-0.029200014 0.75700003 -0.010618187 1.4195141e-38 298 248
-0.027872739 0.75700003 -0.010618187 1.4195141e-38 299 248
-0.026545467 0.75700003 -0.010618187 1.401147e-38 300 248
-0.025218192 0.75700003 -0.010618187 1.401147e-38 301 248
-0.023827799 0.755 -0.010590133 1.4011473e-38 302 248
-0.022504034 0.755 -0.010590133 1.4011473e-38 303 248
-0.021180267 0.755 -0.010590133 1.4194785e-38 304 248
-0.0198565 0.755 -0.010590133 1.4194785e-38 305 248
-0.018508185 0.75400001 -0.010576107 1.4011473e-38 306 248
-0.017186172 0.75400001 -0.010576107 1.4011473e-38 307 248
-0.01586416 0.75400001 -0.010576107 1.4287334e-38 308 248
-0.014542146 0.75400001 -0.010576107 1.4287334e-38 309 248
-0.013220133 0.75400001 -0.010576107 1.4104737e-38 310 248
-0.01189812 0.75400001 -0.010576107 1.4104737e-38 311 248
-0.010576107 0.75400001 -0.010576107 1.4288406e-38 312 248
-0.0092540924 0.75400001 -0.010576107 1.4288406e-38 313 248
-0.0079110395 0.75199997 -0.010548052 1.4564268e-38 314 248
-0.0065925326 0.75199997 -0.010548052 1.4564268e-38 315 248
-0.0052740262 0.75199997 -0.010548052 1.465682e-38 316 248
-0.0039555198 0.75199997 -0.010548052 1.465682e-38 317 248
-0.0026370131 0.75199997 -0.010548052 1.4656111e-38 318 248
-0.0013185065 0.75199997 -0.010548052 1.4656111e-38 319 248
0 0.75 -0.01052 1.4748665e-38 320 248
0.0013132467 0.74900001 -0.010505973 1.4748665e-38 321 248
0.0026264933 0.74900001 -0.010505973 1.4840142e-38 322 248
0.0039397399 0.74900001 -0.010505973 1.4840142e-38 323 248
0.0052389596 0.74699998 -0.010477919 1.502417e-38 324 248
0.0065486995 0.74699998 -0.010477919 1.502417e-38 325 248
0.0078479191 0.74599999 -0.010463892 1.5024879e-38 326 248
0.0091559067 0.74599999 -0.010463892 1.5024879e-38 327 248
0.010463892 0.74599999 -0.010463892 1.5117075e-38 328 248
0.011771879 0.74599999 -0.010463892 1.5024879e-38 329 248
0.013079867 0.74599999 -0.010463892 1.4840489e-38 330 248
0.014387853 0.74599999 -0.010463892 1.4748294e-38 331 248
0.015695838 0.74599999 -0.010463892 1.5022711e-38 332 248
0.016958239 0.74400002 -0.01043584 1.52993e-38 333 248
0.01826272 0.74400002 -0.01043584 1.5209621e-38 334 248
0.019567199 0.74400002 -0.01043584 1.5301816e-38 335 248
0.020815572 0.74199998 -0.010407786 1.5487287e-38 336 248
0.02208674 0.741 -0.010393759 1.5855709e-38 337 248
0.023385961 0.741 -0.010393759 1.6314884e-38 338 248
0.024685178 0.741 -0.010393759 1.659111e-38 339 248
0.025984399 0.741 -0.010393759 1.6958819e-38 340 248
0.027209979 0.73900002 -0.010365707 1.7235408e-38 341 248
0.028505694 0.73900002 -0.010365707 1.7696031e-38 342 248
0.029801406 0.73900002 -0.010365707 1.797262e-38 343 248
0.030970879 0.736 -0.010323626 1.8339953e-38 344 248
0.032261331 0.736 -0.010323626 1.8339953e-38 345 248
0.033551786 0.736 -0.010323626 1.8339588e-38 346 248
0.034842238 0.736 -0.010323626 1.8431783e-38 347 248
0.036034506 0.73400003 -0.010295574 1.8524345e-38 348 248
0.037321456 0.73400003 -0.010295574 1.861654e-38 349 248
0.038608398 0.73400003 -0.010295574 1.8524347e-38 350 248
0.039895348 0.73400003 -0.010295574 1.8524347e-38 351 248
0.041182294 0.73400003 -0.010295574 1.8800206e-38 352 248
0.042411376 0.73299998 -0.010281546 1.8800206e-38 353 248
0.043696571 0.73299998 -0.010281546 1.8709798e-38 354 248
0.044981763 0.73299998 -0.010281546 1.8709798e-38 355 248
0.046266954 0.73299998 -0.010281546 1.8801639e-38 356 248
0.04755215 0.73299998 -0.010281546 1.8801639e-38 357 248
0.048837345 0.73299998 -0.010281546 1.8710518e-38 358 248
0.049985781 0.73100001 -0.010253493 1.8617962e-38 359 248
0.051267464 0.73100001 -0.010253493 1.8710513e-38 360 248
0.052549154 0.73100001 -0.010253493 1.8434284e-38 361 248
0.053830836 0.73100001 -0.010253493 1.8525048e-38 362 248
0.055263311 0.73299998 -0.010281546 1.8432852e-38 363 248
0.056394216 0.73100001 -0.010253493 1.8248834e-38 364 248
0.057675898 0.73100001 -0.010253493 1.8156638e-38 365 248
0.058715623 0.72799999 -0.010211413 1.7788244e-38 366 248
0.059909642 0.727 -0.010197386 1.741982e-38 367 248
0.061016005 0.72500002 -0.010169334 1.7418783e-38 368 248
0.062287167 0.72500002 -0.010169334 1.769537e-38 369 248
-0.061215881 0.759 -0.01197702 1.6775897e-38 274 249
-0.059885096 0.759 -0.01197702 1.7236875e-38 275 249
-0.058400027 0.75700003 -0.01194546 1.7237588e-38 276 249
-0.057072755 0.75700003 -0.01194546 1.7237588e-38 277 249
-0.055598196 0.755 -0.011913899 1.7143956e-38 278 249
-0.054274432 0.755 -0.011913899 1.7143956e-38 279 249
-0.052950665 0.755 -0.011913899 1.6958856e-38 280 249
-0.051626898 0.755 -0.011913899 1.6774465e-38 281 249
-0.050303131 0.755 -0.011913899 1.640676e-38 282 249
-0.048979364 0.755 -0.011913899 1.6130174e-38 283 249
-0.047655597 0.755 -0.011913899 1.6038329e-38 284 249
-0.04633183 0.755 -0.011913899 1.5761741e-38 285 249
-0.045008067 0.755 -0.011913899 1.5669542e-38 286 249
-0.043684296 0.755 -0.011913899 1.4563195e-38 287 249
-0.042360533 0.755 -0.011913899 1.382598e-38 288 249
-0.041036766 0.755 -0.011913899 1.2812188e-38 289 249
-0.039712999 0.755 -0.011913899 1.2810742e-38 290 249
-0.038389232 0.755 -0.011913899 1.2995135e-38 291 249
-0.037065465 0.755 -0.011913899 1.2536696e-38 292 249
-0.03583638 0.75700003 -0.01194546 1.3089511e-38 293 249
-0.034509107 0.75700003 -0.01194546 1.3274629e-38 294 249
-0.033181835 0.75700003 -0.01194546 1.3551218e-38 295 249
-0.031854562 0.75700003 -0.01194546 1.3735251e-38 296 249
-0.030527288 0.75700003 -0.01194546 1.3827447e-38 297 249
-0.029200014 0.75700003 -0.01194546 1.3827447e-38 298 249
-0.027872739 0.75700003 -0.01194546 1.3827447e-38 299 249
-0.026545467 0.75700003 -0.01194546 1.3644135e-38 300 249
-0.025151566 0.755 -0.011913899 1.3644135e-38 301 249
-0.023827799 0.755 -0.011913899 1.382745e-38 302 249
-0.022504034 0.755 -0.011913899 1.382745e-38 303 249
-0.021180267 0.755 -0.011913899 1.3827094e-38 304 249
-0.0198565 0.755 -0.011913899 1.3827094e-38 305 249
-0.018508185 0.75400001 -0.01189812 1.3827094e-38 306 249
-0.017140586 0.75199997 -0.011866559 1.3827094e-38 307 249
-0.015822079 0.75199997 -0.011866559 1.3918924e-38 308 249
-0.014503572 0.75199997 -0.011866559 1.3918924e-38 309 249
-0.013185065 0.75199997 -0.011866559 1.3828879e-38 310 249
-0.011866559 0.75199997 -0.011866559 1.3828879e-38 311 249
-0.010548052 0.75199997 -0.011866559 1.4104743e-38 312 249
-0.0092295464 0.75199997 -0.011866559 1.4104743e-38 313 249
-0.0079110395 0.75199997 -0.011866559 1.4105093e-38 314 249
-0.0065925326 0.75199997 -0.011866559 1.4105093e-38 315 249
-0.0052740262 0.75199997 -0.011866559 1.4564271e-38 316 249
-0.0039555198 0.75199997 -0.011866559 1.4656467e-38 317 249
-0.0026370131 0.75199997 -0.011866559 1.4656113e-38 318 249
-0.001315 0.75 -0.011835 1.4656113e-38 319 249
0 0.75 -0.011835 1.4656116e-38 320 249
0.0013132467 0.74900001 -0.01181922 1.4656116e-38 321 249
0.0026264933 0.74900001 -0.01181922 1.4656113e-38 322 249
0.0039292197 0.74699998 -0.011787659 1.4748309e-38 323 249
0.0052389596 0.74699998 -0.011787659 1.4748309e-38 324 249
0.0065399334 0.74599999 -0.011771879 1.4748309e-38 325 249
0.0078479191 0.74599999 -0.011771879 1.4748662e-38 326 249
0.0091559067 0.74599999 -0.011771879 1.4748662e-38 327 249
0.010463892 0.74599999 -0.011771879 1.4748665e-38 328 249
0.011771879 0.74599999 -0.011771879 1.4748665e-38 329 249
0.013079867 0.74599999 -0.011771879 1.4839435e-38 330 249
0.01434928 0.74400002 -0.011740319 1.4839435e-38 331 249
0.015653761 0.74400002 -0.011740319 1.4839786e-38 332 249
0.016958239 0.74400002 -0.011740319 1.4839786e-38 333 249
0.01826272 0.74400002 -0.011740319 1.4840492e-38 334 249
0.019567199 0.74400002 -0.011740319 1.4840492e-38 335 249
0.020815572 0.74199998 -0.01170876 1.5117075e-38 336 249
0.02208674 0.741 -0.01169298 1.5301467e-38 337 249
0.023385961 0.741 -0.01169298 1.5760997e-38 338 249
0.024685178 0.741 -0.01169298 1.5760997e-38 339 249
0.025984399 0.741 -0.01169298 1.5945388e-38 340 249
0.027209979 0.73900002 -0.01166142 1.631453e-38 341 249
0.028505694 0.73900002 -0.01166142 1.6683319e-38 342 249
0.029801406 0.73900002 -0.01166142 1.6960266e-38 343 249
0.030970879 0.736 -0.01161408 1.7236127e-38 344 249
0.032261331 0.736 -0.01161408 1.7328322e-38 345 249
0.033460613 0.73400003 -0.011582521 1.7513069e-38 346 249
0.03474756 0.73400003 -0.011582521 1.7605267e-38 347 249
0.036034506 0.73400003 -0.011582521 1.7972973e-38 348 249
0.037270606 0.73299998 -0.011566739 1.7972973e-38 349 249
0.038555797 0.73299998 -0.011566739 1.8248837e-38 350 249
0.039840993 0.73299998 -0.011566739 1.8248837e-38 351 249
0.041126184 0.73299998 -0.011566739 1.8341385e-38 352 249
0.042295661 0.73100001 -0.01153518 1.824919e-38 353 249
0.043577347 0.73100001 -0.01153518 1.8341739e-38 354 249
0.044797666 0.73000002 -0.011519399 1.8341739e-38 355 249
0.046077598 0.73000002 -0.011519399 1.8617249e-38 356 249
0.047357533 0.73000002 -0.011519399 1.8709446e-38 357 249
0.048704091 0.73100001 -0.01153518 1.8709446e-38 358 249
0.049780637 0.72799999 -0.01148784 1.8709446e-38 359 249
0.051057063 0.72799999 -0.01148784 1.8801995e-38 360 249
0.052333489 0.72799999 -0.01148784 1.8709798e-38 361 249
0.053830836 0.73100001 -0.01153518 1.8893107e-38 362 249
0.055112526 0.73100001 -0.01153518 1.8800912e-38 363 249
0.056317069 0.73000002 -0.011519399 1.8524332e-38 364 249
0.057597004 0.73000002 -0.011519399 1.8524332e-38 365 249
0.058634974 0.727 -0.01147206 1.8064074e-38 366 249
0.059909642 0.727 -0.01147206 1.7787486e-38 367 249
0.061016005 0.72500002 -0.0114405 1.7418354e-38 368 249
0.062029421 0.722 -0.01139316 1.7418354e-38 369 249
0.063295327 0.722 -0.01139316 1.7052506e-38 370 249
0.064561233 0.722 -0.01139316 1.760568e-38 371 249
-0.062546656 0.759 -0.0133078 1.686776e-38 273 250
-0.061215881 0.759 -0.0133078 1.6961013e-38 274 250
-0.059727304 0.75700003 -0.013272733 1.6961013e-38 275 250
-0.058400027 0.75700003 -0.013272733 1.6869164e-38 276 250
-0.057072755 0.75700003 -0.013272733 1.6776969e-38 277 250
-0.055598196 0.755 -0.013237666 1.6866998e-38 278 250
-0.054274432 0.755 -0.013237666 1.6774801e-38 279 250
-0.052950665 0.755 -0.013237666 1.6682255e-38 280 250
-0.051626898 0.755 -0.013237666 1.6589701e-38 281 250
-0.050303131 0.755 -0.013237666 1.6038332e-38 282 250
-0.048979364 0.755 -0.013237666 1.5761385e-38 283 250
-0.047655597 0.755 -0.013237666 1.5485155e-38 284 250
-0.04633183 0.755 -0.013237666 1.5024176e-38 285 250
-0.045008067 0.755 -0.013237666 1.4287701e-38 286 250
-0.043684296 0.755 -0.013237666 1.3550134e-38 287 250
-0.042360533 0.755 -0.013237666 1.345722e-38 288 250
-0.041036766 0.755 -0.013237666 1.3365024e-38 289 250
-0.039712999 0.755 -0.013237666 1.3274255e-38 290 250
-0.038389232 0.755 -0.013237666 1.3274255e-38 291 250
-0.037065465 0.755 -0.013237666 1.3274974e-38 292 250
-0.03583638 0.75700003 -0.013272733 1.3274974e-38 293 250
-0.034509107 0.75700003 -0.013272733 1.3366819e-38 294 250
-0.033181835 0.75700003 -0.013272733 1.3551571e-38 295 250
-0.031854562 0.75700003 -0.013272733 1.3735251e-38 296 250
-0.030527288 0.75700003 -0.013272733 1.3827447e-38 297 250
-0.029200014 0.75700003 -0.013272733 1.3735251e-38 298 250
-0.027872739 0.75700003 -0.013272733 1.355122e-38 299 250
-0.026475333 0.755 -0.013237666 1.3551939e-38 300 250
-0.025151566 0.755 -0.013237666 1.3459385e-38 301 250
-0.023827799 0.755 -0.013237666 1.3734901e-38 302 250
-0.022504034 0.755 -0.013237666 1.3734901e-38 303 250
-0.021180267 0.755 -0.013237666 1.3550511e-38 304 250
-0.0198565 0.755 -0.013237666 1.3734901e-38 305 250
-0.018508185 0.75400001 -0.013220133 1.3459037e-38 306 250
-0.017140586 0.75199997 -0.013185065 1.3551233e-38 307 250
-0.015822079 0.75199997 -0.013185065 1.3827097e-38 308 250
-0.014503572 0.75199997 -0.013185065 1.3827097e-38 309 250
-0.013185065 0.75199997 -0.013185065 1.3919646e-38 310 250
-0.011866559 0.75199997 -0.013185065 1.3919646e-38 311 250
-0.010548052 0.75199997 -0.013185065 1.3919643e-38 312 250
