# .PCD v.7 - Point Cloud Data file format
FIELDS x y z rgb imX imY
SIZE 4 4 4 4 4 4
TYPE F F F F F F
COUNT 1 1 1 1 1 1
WIDTH 850
HEIGHT 1
VIEWPOINT 0 0 0 1 0 0 0
POINTS 850
DATA ascii
0.087070532 0.764 -0.022772292 1.8433964e-38 385 257
0.088410079 0.764 -0.022772292 1.8709109e-38 386 257
0.089749627 0.764 -0.022772292 1.8616913e-38 387 257
0.091089167 0.764 -0.022772292 1.8433228e-38 388 257
0.092428714 0.764 -0.022772292 1.8341032e-38 389 257
0.093768261 0.764 -0.022772292 1.8432133e-38 390 257
0.095107809 0.764 -0.022772292 1.8339938e-38 391 257
0.096194878 0.76200002 -0.02271268 1.8247019e-38 392 257
0.097530924 0.76200002 -0.02271268 1.8062628e-38 393 257
0.098866954 0.76200002 -0.02271268 1.7601667e-38 394 257
0.10007149 0.76099998 -0.022682872 1.7417274e-38 395 257
0.10140578 0.76099998 -0.022682872 1.6773395e-38 396 257
0.10247006 0.759 -0.02262326 1.7234372e-38 397 257
0.10380083 0.759 -0.02262326 1.7326623e-38 398 257
-0.055194929 0.787 -0.024837719 1.6230381e-38 280 258
-0.053815059 0.787 -0.024837719 1.2819141e-38 281 258
-0.052435186 0.787 -0.024837719 8.3965594e-39 282 258
-0.051055312 0.787 -0.024837719 1.070145e-38 283 258
-0.049675439 0.787 -0.024837719 1.318565e-38 284 258
-0.048172832 0.78500003 -0.0247746 1.33704e-38 285 258
-0.046796467 0.78500003 -0.0247746 1.4289112e-38 286 258
-0.045420099 0.78500003 -0.0247746 1.4381309e-38 287 258
-0.044043735 0.78500003 -0.0247746 1.4839747e-38 288 258
-0.042667367 0.78500003 -0.0247746 1.4470605e-38 289 258
-0.041291002 0.78500003 -0.0247746 1.4195083e-38 290 258
-0.039914634 0.78500003 -0.0247746 1.4102529e-38 291 258
-0.03853827 0.78500003 -0.0247746 1.4009264e-38 292 258
-0.037161902 0.78500003 -0.0247746 1.3917069e-38 293 258
-0.035785533 0.78500003 -0.0247746 1.4100759e-38 294 258
-0.034409165 0.78500003 -0.0247746 1.4376986e-38 295 258
-0.032948639 0.78299999 -0.024711479 1.446848e-38 296 258
-0.031575777 0.78299999 -0.024711479 1.446848e-38 297 258
-0.03020292 0.78299999 -0.024711479 1.4376282e-38 298 258
-0.028830061 0.78299999 -0.024711479 1.4376282e-38 299 258
-0.027457198 0.78299999 -0.024711479 1.4193326e-38 300 258
-0.026017714 0.78100002 -0.024648361 1.4100772e-38 301 258
-0.024648361 0.78100002 -0.024648361 1.4008579e-38 302 258
-0.02333862 0.78299999 -0.024711479 1.3916383e-38 303 258
-0.021965759 0.78299999 -0.024711479 1.3823835e-38 304 258
-0.0205929 0.78299999 -0.024711479 1.3823835e-38 305 258
-0.019269135 0.78500003 -0.0247746 1.382276e-38 306 258
-0.017892767 0.78500003 -0.0247746 1.382276e-38 307 258
-0.01647432 0.78299999 -0.024711479 1.3823116e-38 308 258
-0.01510146 0.78299999 -0.024711479 1.3730919e-38 309 258
-0.013728599 0.78299999 -0.024711479 1.3547248e-38 310 258
-0.012355739 0.78299999 -0.024711479 1.3547248e-38 311 258
-0.010982879 0.78299999 -0.024711479 1.3272463e-38 312 258
-0.0096100196 0.78299999 -0.024711479 1.3272463e-38 313 258
-0.0082582003 0.78500003 -0.0247746 1.3271743e-38 314 258
-0.0068818335 0.78500003 -0.0247746 1.3271743e-38 315 258
-0.0055054668 0.78500003 -0.0247746 1.3272107e-38 316 258
-0.0041291001 0.78500003 -0.0247746 1.317991e-38 317 258
-0.0027527334 0.78500003 -0.0247746 1.3271389e-38 318 258
-0.0013763667 0.78500003 -0.0247746 1.3271389e-38 319 258
0 0.78500003 -0.0247746 1.3546899e-38 320 258
0.0013763667 0.78500003 -0.0247746 1.3454702e-38 321 258
0.0027597465 0.787 -0.024837719 1.3455422e-38 322 258
0.0041396199 0.787 -0.024837719 1.3455422e-38 323 258
0.005519493 0.787 -0.024837719 1.3088795e-38 324 258
0.0068993662 0.787 -0.024837719 1.3088795e-38 325 258
0.0082792398 0.787 -0.024837719 1.3179907e-38 326 258
0.0096591124 0.787 -0.024837719 1.3272463e-38 327 258
0.011038986 0.787 -0.024837719 1.3272463e-38 328 258
0.01241886 0.787 -0.024837719 1.3272463e-38 329 258
0.013763667 0.78500003 -0.0247746 1.3272826e-38 330 258
0.015140033 0.78500003 -0.0247746 1.3272826e-38 331 258
0.016516401 0.78500003 -0.0247746 1.3547974e-38 332 258
0.017892767 0.78500003 -0.0247746 1.3547974e-38 333 258
0.019269135 0.78500003 -0.0247746 1.354762e-38 334 258
0.020645501 0.78500003 -0.0247746 1.354762e-38 335 258
0.022021867 0.78500003 -0.0247746 1.3639819e-38 336 258
0.023398234 0.78500003 -0.0247746 1.3547264e-38 337 258
0.0247746 0.78500003 -0.0247746 1.3547618e-38 338 258
0.026150968 0.78500003 -0.0247746 1.3639813e-38 339 258
0.027527334 0.78500003 -0.0247746 1.3456857e-38 340 258
0.028830061 0.78299999 -0.024711479 1.3456857e-38 341 258
0.03020292 0.78299999 -0.024711479 1.3364305e-38 342 258
0.031575777 0.78299999 -0.024711479 1.3364305e-38 343 258
0.032948639 0.78299999 -0.024711479 1.3547618e-38 344 258
0.034321502 0.78299999 -0.024711479 1.3547618e-38 345 258
0.035694357 0.78299999 -0.024711479 1.3547974e-38 346 258
0.037067216 0.78299999 -0.024711479 1.3547974e-38 347 258
0.038341891 0.78100002 -0.024648361 1.3455422e-38 348 258
0.039711244 0.78100002 -0.024648361 1.3455422e-38 349 258
0.041080598 0.78100002 -0.024648361 1.354762e-38 350 258
0.042449951 0.78100002 -0.024648361 1.354762e-38 351 258
0.043763198 0.77999997 -0.024616797 1.3455422e-38 352 258
0.045130797 0.77999997 -0.024616797 1.3455422e-38 353 258
0.046498396 0.77999997 -0.024616797 1.3546899e-38 354 258
0.047743265 0.778 -0.024553679 1.3546899e-38 355 258
0.049107358 0.778 -0.024553679 1.354762e-38 356 258
0.050341707 0.77600002 -0.024490559 1.3639816e-38 357 258
0.051702294 0.77600002 -0.024490559 1.3732012e-38 358 258
0.053062879 0.77600002 -0.024490559 1.3732012e-38 359 258
0.054283198 0.77399999 -0.02442744 1.3915324e-38 360 258
0.055640277 0.77399999 -0.02442744 1.400752e-38 361 258
0.056997359 0.77399999 -0.02442744 1.4283383e-38 362 258
0.058354434 0.77399999 -0.02442744 1.4468135e-38 363 258
0.059711516 0.77399999 -0.02442744 1.4468848e-38 364 258
0.061068594 0.77399999 -0.02442744 1.4653598e-38 365 258
0.062425677 0.77399999 -0.02442744 1.4746147e-38 366 258
0.063782752 0.77399999 -0.02442744 1.4653592e-38 367 258
0.065055676 0.773 -0.024395877 1.4748312e-38 368 258
0.066411003 0.773 -0.024395877 1.5301486e-38 369 258
0.067591004 0.77100003 -0.02433276 1.5578072e-38 370 258
0.068942823 0.77100003 -0.02433276 1.6039051e-38 371 258
0.070294641 0.77100003 -0.02433276 1.6498587e-38 372 258
0.071460605 0.76899999 -0.024269639 1.6774815e-38 373 258
0.072619557 0.76700002 -0.024206521 1.723507e-38 374 258
0.073964365 0.76700002 -0.024206521 1.7327266e-38 375 258
0.075309172 0.76700002 -0.024206521 1.7878274e-38 376 258
0.07665398 0.76700002 -0.024206521 1.8062667e-38 377 258
0.077998787 0.76700002 -0.024206521 1.8063742e-38 378 258
0.079343595 0.76700002 -0.024206521 1.8155938e-38 379 258
0.080583192 0.76599997 -0.024174958 1.8156654e-38 380 258
0.081926249 0.76599997 -0.024174958 1.8248849e-38 381 258
0.08305189 0.764 -0.024111839 1.8248849e-38 382 258
0.084391437 0.764 -0.024111839 1.8341404e-38 383 258
0.085506558 0.76200002 -0.02404872 1.8433245e-38 384 258
0.086842604 0.76200002 -0.02404872 1.852544e-38 385 258
0.088178635 0.76200002 -0.02404872 1.8709111e-38 386 258
0.08951468 0.76200002 -0.02404872 1.8709111e-38 387 258
0.090850718 0.76200002 -0.02404872 1.8617266e-38 388 258
0.092065774 0.76099998 -0.024017159 1.8433234e-38 389 258
0.093400061 0.76099998 -0.024017159 1.8524345e-38 390 258
0.094734348 0.76099998 -0.024017159 1.8432149e-38 391 258
0.096068636 0.76099998 -0.024017159 1.8522547e-38 392 258
0.097402923 0.76099998 -0.024017159 1.8522547e-38 393 258
0.09873721 0.76099998 -0.024017159 1.8153767e-38 394 258
0.10007149 0.76099998 -0.024017159 1.7693149e-38 395 258
0.10140578 0.76099998 -0.024017159 1.704996e-38 396 258
0.10247006 0.759 -0.023954039 1.704996e-38 397 258
0.10352732 0.75700003 -0.02389092 1.6222408e-38 398 258
0.10457756 0.755 -0.023827799 1.6867777e-38 399 258
0.10590133 0.755 -0.023827799 1.7237674e-38 400 258
0.1072251 0.755 -0.023827799 1.7237674e-38 401 258
-0.055194929 0.787 -0.026217593 1.3649635e-38 280 259
-0.053815059 0.787 -0.026217593 9.5011917e-39 281 259
-0.052435186 0.787 -0.026217593 6.097449e-39 282 259
-0.051055312 0.787 -0.026217593 9.0480679e-39 283 259
-0.049675439 0.787 -0.026217593 1.2907992e-38 284 259
-0.048172832 0.78500003 -0.026150968 1.3000188e-38 285 259
-0.046796467 0.78500003 -0.026150968 1.336751e-38 286 259
-0.045420099 0.78500003 -0.026150968 1.3551541e-38 287 259
-0.044043735 0.78500003 -0.026150968 1.382598e-38 288 259
-0.042667367 0.78500003 -0.026150968 1.3733784e-38 289 259
-0.041291002 0.78500003 -0.026150968 1.3366106e-38 290 259
-0.039914634 0.78500003 -0.026150968 1.3366106e-38 291 259
-0.03853827 0.78500003 -0.026150968 1.3639819e-38 292 259
-0.037161902 0.78500003 -0.026150968 1.3732014e-38 293 259
-0.035785533 0.78500003 -0.026150968 1.4008229e-38 294 259
-0.034409165 0.78500003 -0.026150968 1.4100424e-38 295 259
-0.032948639 0.78299999 -0.026084339 1.3917462e-38 296 259
-0.031575777 0.78299999 -0.026084339 1.3917462e-38 297 259
-0.03020292 0.78299999 -0.026084339 1.4101128e-38 298 259
-0.028830061 0.78299999 -0.026084339 1.4193323e-38 299 259
-0.027457198 0.78299999 -0.026084339 1.4100775e-38 300 259
-0.026017714 0.78100002 -0.026017714 1.4008579e-38 301 259
-0.024648361 0.78100002 -0.026017714 1.3824914e-38 302 259
-0.023279008 0.78100002 -0.026017714 1.3732718e-38 303 259
-0.021965759 0.78299999 -0.026084339 1.3547974e-38 304 259
-0.0205929 0.78299999 -0.026084339 1.3547974e-38 305 259
-0.019269135 0.78500003 -0.026150968 1.3455425e-38 306 259
-0.017892767 0.78500003 -0.026150968 1.3455425e-38 307 259
-0.016516401 0.78500003 -0.026150968 1.3178838e-38 308 259
-0.015140033 0.78500003 -0.026150968 1.3178838e-38 309 259
-0.013763667 0.78500003 -0.026150968 1.2996245e-38 310 259
-0.0123873 0.78500003 -0.026150968 1.2904049e-38 311 259
-0.010982879 0.78299999 -0.026084339 1.2812572e-38 312 259
-0.0096100196 0.78299999 -0.026084339 1.2812572e-38 313 259
-0.0082371598 0.78299999 -0.026084339 1.3087364e-38 314 259
-0.0068818335 0.78500003 -0.026150968 1.3087364e-38 315 259
-0.0055054668 0.78500003 -0.026150968 1.2904052e-38 316 259
-0.0041291001 0.78500003 -0.026150968 1.2904052e-38 317 259
-0.0027527334 0.78500003 -0.026150968 1.3087008e-38 318 259
-0.0013763667 0.78500003 -0.026150968 1.3087008e-38 319 259
0 0.78500003 -0.026150968 1.3271039e-38 320 259
0.0013798733 0.787 -0.026217593 1.3271039e-38 321 259
0.0027597465 0.787 -0.026217593 1.2904052e-38 322 259
0.0041501396 0.78899997 -0.026284218 1.2996247e-38 323 259
0.0055335197 0.78899997 -0.026284218 1.2904768e-38 324 259
0.0069168997 0.78899997 -0.026284218 1.2812572e-38 325 259
0.0083002793 0.78899997 -0.026284218 1.2904046e-38 326 259
0.0096591124 0.787 -0.026217593 1.2904046e-38 327 259
0.011038986 0.787 -0.026217593 1.2996242e-38 328 259
0.01241886 0.787 -0.026217593 1.3088797e-38 329 259
0.013763667 0.78500003 -0.026150968 1.3088442e-38 330 259
0.015140033 0.78500003 -0.026150968 1.3088442e-38 331 259
0.016516401 0.78500003 -0.026150968 1.3363952e-38 332 259
0.017892767 0.78500003 -0.026150968 1.3363952e-38 333 259
0.019269135 0.78500003 -0.026150968 1.3547267e-38 334 259
0.020645501 0.78500003 -0.026150968 1.3547267e-38 335 259
0.022021867 0.78500003 -0.026150968 1.3272475e-38 336 259
0.023398234 0.78500003 -0.026150968 1.3272475e-38 337 259
0.0247746 0.78500003 -0.026150968 1.3272473e-38 338 259
0.026150968 0.78500003 -0.026150968 1.3272473e-38 339 259
0.027527334 0.78500003 -0.026150968 1.354762e-38 340 259
0.0289037 0.78500003 -0.026150968 1.354762e-38 341 259
0.03020292 0.78299999 -0.026084339 1.3363952e-38 342 259
0.031575777 0.78299999 -0.026084339 1.3363952e-38 343 259
0.032948639 0.78299999 -0.026084339 1.3364308e-38 344 259
0.034321502 0.78299999 -0.026084339 1.3364308e-38 345 259
0.035694357 0.78299999 -0.026084339 1.327211e-38 346 259
0.037067216 0.78299999 -0.026084339 1.3179913e-38 347 259
0.038341891 0.78100002 -0.026017714 1.3271754e-38 348 259
0.039711244 0.78100002 -0.026017714 1.3271754e-38 349 259
0.041080598 0.78100002 -0.026017714 1.3455069e-38 350 259
0.042449951 0.78100002 -0.026017714 1.3455069e-38 351 259
0.043819305 0.78100002 -0.026017714 1.3455422e-38 352 259
0.045130797 0.77999997 -0.025984399 1.3455422e-38 353 259
0.046498396 0.77999997 -0.025984399 1.363945e-38 354 259
0.047743265 0.778 -0.025917772 1.3547255e-38 355 259
0.049107358 0.778 -0.025917772 1.3547618e-38 356 259
0.050471451 0.778 -0.025917772 1.3639813e-38 357 259
0.051702294 0.77600002 -0.025851147 1.3456504e-38 358 259
0.053062879 0.77600002 -0.025851147 1.3456504e-38 359 259
0.054283198 0.77399999 -0.025784519 1.3639816e-38 360 259
0.055640277 0.77399999 -0.025784519 1.3732012e-38 361 259
0.056997359 0.77399999 -0.025784519 1.3732012e-38 362 259
0.058354434 0.77399999 -0.025784519 1.3916403e-38 363 259
0.059711516 0.77399999 -0.025784519 1.4100791e-38 364 259
0.061068594 0.77399999 -0.025784519 1.4192987e-38 365 259
0.062425677 0.77399999 -0.025784519 1.4285907e-38 366 259
0.063700356 0.773 -0.025751207 1.4009322e-38 367 259
0.065055676 0.773 -0.025751207 1.4101167e-38 368 259
0.066411003 0.773 -0.025751207 1.4654341e-38 369 259
0.067591004 0.77100003 -0.02568458 1.4747608e-38 370 259
0.068942823 0.77100003 -0.02568458 1.5300782e-38 371 259
0.070112288 0.76899999 -0.025617953 1.5669918e-38 372 259
0.07127475 0.76700002 -0.025551327 1.60387e-38 373 259
0.072619557 0.76700002 -0.025551327 1.6315643e-38 374 259
0.073867925 0.76599997 -0.025518013 1.6591871e-38 375 259
0.075210981 0.76599997 -0.025518013 1.6959212e-38 376 259
0.076554038 0.76599997 -0.025518013 1.7143603e-38 377 259
0.077897087 0.76599997 -0.025518013 1.7419467e-38 378 259
0.079240143 0.76599997 -0.025518013 1.7511664e-38 379 259
0.080372795 0.764 -0.025451386 1.7604932e-38 380 259
0.081712343 0.764 -0.025451386 1.7604932e-38 381 259
0.082834482 0.76200002 -0.02538476 1.769713e-38 382 259
0.08417052 0.76200002 -0.02538476 1.7973357e-38 383 259
0.085394338 0.76099998 -0.025351444 1.8065557e-38 384 259
0.086728632 0.76099998 -0.025351444 1.8157752e-38 385 259
0.088062912 0.76099998 -0.025351444 1.8525093e-38 386 259
0.089397199 0.76099998 -0.025351444 1.8432897e-38 387 259
0.090731487 0.76099998 -0.025351444 1.8709106e-38 388 259
0.092065774 0.76099998 -0.025351444 1.861691e-38 389 259
0.093400061 0.76099998 -0.025351444 1.8892408e-38 390 259
0.094734348 0.76099998 -0.025351444 1.8800211e-38 391 259
0.095816158 0.759 -0.025284819 1.8890606e-38 392 259
0.097146936 0.759 -0.025284819 1.8614379e-38 393 259
0.098477714 0.759 -0.025284819 1.8706928e-38 394 259
0.099808492 0.759 -0.025284819 1.824559e-38 395 259
0.10113928 0.759 -0.025284819 1.7693862e-38 396 259
0.10247006 0.759 -0.025284819 1.750947e-38 397 259
0.10352732 0.75700003 -0.025218192 1.6220925e-38 398 259
0.10457756 0.755 -0.025151566 1.6220925e-38 399 259
0.10590133 0.755 -0.025151566 1.6867074e-38 400 259
0.1072251 0.755 -0.025151566 1.7696834e-38 401 259
0.10854886 0.755 -0.025151566 1.7974535e-38 402 259
-0.055194929 0.787 -0.027597465 1.0152315e-38 280 260
-0.053815059 0.787 -0.027597465 3.9755678e-39 281 260
-0.052435186 0.787 -0.027597465 1.769662e-39 282 260
-0.051055312 0.787 -0.027597465 6.3794435e-39 283 260
-0.049675439 0.787 -0.027597465 1.1616544e-38 284 260
-0.048172832 0.78500003 -0.027527334 1.1616544e-38 285 260
-0.046796467 0.78500003 -0.027527334 1.1985648e-38 286 260
-0.045420099 0.78500003 -0.027527334 1.1893093e-38 287 260
-0.044043735 0.78500003 -0.027527334 1.2535594e-38 288 260
-0.042667367 0.78500003 -0.027527334 1.3088768e-38 289 260
-0.041291002 0.78500003 -0.027527334 1.3547601e-38 290 260
-0.039914634 0.78500003 -0.027527334 1.3639798e-38 291 260
-0.03853827 0.78500003 -0.027527334 1.3915662e-38 292 260
-0.037161902 0.78500003 -0.027527334 1.4100053e-38 293 260
-0.035785533 0.78500003 -0.027527334 1.4008929e-38 294 260
-0.034409165 0.78500003 -0.027527334 1.4101125e-38 295 260
-0.032948639 0.78299999 -0.027457198 1.3917813e-38 296 260
-0.031575777 0.78299999 -0.027457198 1.4101844e-38 297 260
-0.03020292 0.78299999 -0.027457198 1.4101844e-38 298 260
-0.028830061 0.78299999 -0.027457198 1.3917813e-38 299 260
-0.027457198 0.78299999 -0.027457198 1.3916381e-38 300 260
-0.026017714 0.78100002 -0.027387068 1.4008576e-38 301 260
-0.024648361 0.78100002 -0.027387068 1.3640166e-38 302 260
-0.023279008 0.78100002 -0.027387068 1.3640166e-38 303 260
-0.021965759 0.78299999 -0.027457198 1.363945e-38 304 260
-0.0205929 0.78299999 -0.027457198 1.3454699e-38 305 260
-0.019269135 0.78500003 -0.027527334 1.345398e-38 306 260
-0.017892767 0.78500003 -0.027527334 1.345398e-38 307 260
-0.016516401 0.78500003 -0.027527334 1.3361434e-38 308 260
-0.015140033 0.78500003 -0.027527334 1.3361434e-38 309 260
-0.013763667 0.78500003 -0.027527334 1.3178841e-38 310 260
-0.0123873 0.78500003 -0.027527334 1.3086645e-38 311 260
-0.010982879 0.78299999 -0.027457198 1.3269955e-38 312 260
-0.0096100196 0.78299999 -0.027457198 1.3177759e-38 313 260
-0.0082371598 0.78299999 -0.027457198 1.3177396e-38 314 260
-0.0068818335 0.78500003 -0.027527334 1.3269592e-38 315 260
-0.0055054668 0.78500003 -0.027527334 1.3178115e-38 316 260
-0.0041291001 0.78500003 -0.027527334 1.2993725e-38 317 260
-0.0027527334 0.78500003 -0.027527334 1.3360352e-38 318 260
-0.0013763667 0.78500003 -0.027527334 1.3545102e-38 319 260
0 0.78500003 -0.027527334 1.3177762e-38 320 260
0.0013798733 0.787 -0.027597465 1.2993731e-38 321 260
0.0027597465 0.787 -0.027597465 1.2901898e-38 322 260
0.0041396199 0.787 -0.027597465 1.2994094e-38 323 260
0.005519493 0.787 -0.027597465 1.2901895e-38 324 260
0.0068993662 0.787 -0.027597465 1.2901895e-38 325 260
0.0082792398 0.787 -0.027597465 1.2993728e-38 326 260
0.0096591124 0.787 -0.027597465 1.2993728e-38 327 260
0.011038986 0.787 -0.027597465 1.3269592e-38 328 260
0.01241886 0.787 -0.027597465 1.3361787e-38 329 260
0.013798732 0.787 -0.027597465 1.3269955e-38 330 260
0.015178605 0.787 -0.027597465 1.336215e-38 331 260
0.01655848 0.787 -0.027597465 1.3637661e-38 332 260
0.017892767 0.78500003 -0.027527334 1.3637661e-38 333 260
0.019269135 0.78500003 -0.027527334 1.3637661e-38 334 260
0.020645501 0.78500003 -0.027527334 1.3730217e-38 335 260
0.022021867 0.78500003 -0.027527334 1.3455425e-38 336 260
0.023398234 0.78500003 -0.027527334 1.3455425e-38 337 260
0.0247746 0.78500003 -0.027527334 1.3455425e-38 338 260
0.026150968 0.78500003 -0.027527334 1.3455425e-38 339 260
0.027527334 0.78500003 -0.027527334 1.3455425e-38 340 260
0.0289037 0.78500003 -0.027527334 1.3271034e-38 341 260
0.030280067 0.78500003 -0.027527334 1.3271034e-38 342 260
0.031575777 0.78299999 -0.027457198 1.3455425e-38 343 260
0.032948639 0.78299999 -0.027457198 1.3271034e-38 344 260
0.034321502 0.78299999 -0.027457198 1.3271034e-38 345 260
0.035694357 0.78299999 -0.027457198 1.3362506e-38 346 260
0.037067216 0.78299999 -0.027457198 1.3362506e-38 347 260
0.038341891 0.78100002 -0.027387068 1.3454705e-38 348 260
0.039711244 0.78100002 -0.027387068 1.336215e-38 349 260
0.041080598 0.78100002 -0.027387068 1.3638017e-38 350 260
0.042449951 0.78100002 -0.027387068 1.3638017e-38 351 260
0.043819305 0.78100002 -0.027387068 1.3639094e-38 352 260
0.045188658 0.78100002 -0.027387068 1.3546899e-38 353 260
0.046498396 0.77999997 -0.027351998 1.3546899e-38 354 260
0.047865998 0.77999997 -0.027351998 1.3546899e-38 355 260
0.049107358 0.778 -0.027281865 1.3547974e-38 356 260
0.050471451 0.778 -0.027281865 1.3640169e-38 357 260
0.051702294 0.77600002 -0.027211733 1.3456501e-38 358 260
0.053062879 0.77600002 -0.027211733 1.3456501e-38 359 260
0.054423466 0.77600002 -0.027211733 1.3639813e-38 360 260
0.055640277 0.77399999 -0.027141599 1.3732009e-38 361 260
0.056997359 0.77399999 -0.027141599 1.3732365e-38 362 260
0.058354434 0.77399999 -0.027141599 1.382456e-38 363 260
0.059711516 0.77399999 -0.027141599 1.3917109e-38 364 260
0.061068594 0.77399999 -0.027141599 1.410114e-38 365 260
0.062425677 0.77399999 -0.027141599 1.3917106e-38 366 260
0.063700356 0.773 -0.027106533 1.4101496e-38 367 260
0.065055676 0.773 -0.027106533 1.4468485e-38 368 260
0.066239186 0.77100003 -0.027036399 1.4560681e-38 369 260
0.067415662 0.76899999 -0.026966266 1.4284817e-38 370 260
0.068763971 0.76899999 -0.026966266 1.4561044e-38 371 260
0.070112288 0.76899999 -0.026966266 1.4563567e-38 372 260
0.07127475 0.76700002 -0.026896132 1.5208937e-38 373 260
0.072619557 0.76700002 -0.026896132 1.5670641e-38 374 260
0.073867925 0.76599997 -0.026861066 1.5947228e-38 375 260
0.075014614 0.764 -0.026790932 1.6774095e-38 376 260
0.076354161 0.764 -0.026790932 1.6866292e-38 377 260
0.077693708 0.764 -0.026790932 1.7417654e-38 378 260
0.079033248 0.764 -0.026790932 1.7509849e-38 379 260
0.080162399 0.76200002 -0.0267208 1.7603483e-38 380 260
0.081498444 0.76200002 -0.0267208 1.7603483e-38 381 260
0.082834482 0.76200002 -0.0267208 1.797119e-38 382 260
0.08417052 0.76200002 -0.0267208 1.8063386e-38 383 260
0.085394338 0.76099998 -0.026685731 1.8247783e-38 384 260
0.086728632 0.76099998 -0.026685731 1.8432176e-38 385 260
0.088062912 0.76099998 -0.026685731 1.8615488e-38 386 260
0.089397199 0.76099998 -0.026685731 1.8708042e-38 387 260
0.090493038 0.759 -0.026615599 1.8800235e-38 388 260
0.091823816 0.759 -0.026615599 1.8800235e-38 389 260
0.092909135 0.75700003 -0.026545467 1.8708755e-38 390 260
0.094236404 0.75700003 -0.026545467 1.8708755e-38 391 260
0.095816158 0.759 -0.026615599 1.8708037e-38 392 260
0.096890956 0.75700003 -0.026545467 1.861584e-38 393 260
0.098218225 0.75700003 -0.026545467 1.8430727e-38 394 260
0.099545501 0.75700003 -0.026545467 1.8246335e-38 395 260
0.10087277 0.75700003 -0.026545467 1.8061937e-38 396 260
0.10220005 0.75700003 -0.026545467 1.7877906e-38 397 260
0.1032538 0.755 -0.026475333 1.7142862e-38 398 260
0.10443905 0.75400001 -0.026440267 1.695811e-38 399 260
0.10576107 0.75400001 -0.026440267 1.6403184e-38 400 260
0.10708308 0.75400001 -0.026440267 1.6956357e-38 401 260
0.10811754 0.75199997 -0.02637013 1.6592304e-38 402 260
0.10943604 0.75199997 -0.02637013 1.7790847e-38 403 260
0.11075456 0.75199997 -0.02637013 1.8710302e-38 404 260
-0.055194929 0.787 -0.02897734 9.1359994e-39 280 261
-0.053815059 0.787 -0.02897734 2.5901096e-39 281 261
-0.052435186 0.787 -0.02897734 3.7853752e-39 282 261
-0.051055312 0.787 -0.02897734 7.0122208e-39 283 261
-0.049675439 0.787 -0.02897734 1.0418734e-38 284 261
-0.048172832 0.78500003 -0.0289037 1.1064103e-38 285 261
-0.046796467 0.78500003 -0.0289037 1.1343187e-38 286 261
-0.045420099 0.78500003 -0.0289037 1.1435384e-38 287 261
-0.044043735 0.78500003 -0.0289037 1.2261901e-38 288 261
-0.042667367 0.78500003 -0.0289037 1.2446292e-38 289 261
-0.041291002 0.78500003 -0.0289037 1.3089494e-38 290 261
-0.039914634 0.78500003 -0.0289037 1.3366081e-38 291 261
-0.03853827 0.78500003 -0.0289037 1.3733416e-38 292 261
-0.03725658 0.787 -0.02897734 1.3733416e-38 293 261
-0.035876706 0.787 -0.02897734 1.4101478e-38 294 261
-0.034409165 0.78500003 -0.0289037 1.4101478e-38 295 261
-0.033032801 0.78500003 -0.0289037 1.4101128e-38 296 261
-0.031656433 0.78500003 -0.0289037 1.4101128e-38 297 261
-0.030280067 0.78500003 -0.0289037 1.4284443e-38 298 261
-0.0289037 0.78500003 -0.0289037 1.4007857e-38 299 261
-0.027457198 0.78299999 -0.028830061 1.3915311e-38 300 261
-0.026017714 0.78100002 -0.028756421 1.3730919e-38 301 261
-0.024648361 0.78100002 -0.028756421 1.3178841e-38 302 261
-0.023279008 0.78100002 -0.028756421 1.2994449e-38 303 261
-0.021965759 0.78299999 -0.028830061 1.2992645e-38 304 261
-0.0205929 0.78299999 -0.028830061 1.2716418e-38 305 261
-0.019269135 0.78500003 -0.0289037 1.2900083e-38 306 261
-0.017892767 0.78500003 -0.0289037 1.2900083e-38 307 261
-0.016516401 0.78500003 -0.0289037 1.1979944e-38 308 261
-0.015140033 0.78500003 -0.0289037 1.1979944e-38 309 261
-0.013763667 0.78500003 -0.0289037 1.1613325e-38 310 261
-0.0123873 0.78500003 -0.0289037 1.1613325e-38 311 261
-0.011010934 0.78500003 -0.0289037 1.1888821e-38 312 261
-0.0096345674 0.78500003 -0.0289037 1.1796625e-38 313 261
-0.0082582003 0.78500003 -0.0289037 1.1704427e-38 314 261
-0.0068818335 0.78500003 -0.0289037 1.1796622e-38 315 261
-0.0055054668 0.78500003 -0.0289037 1.1888102e-38 316 261
-0.0041291001 0.78500003 -0.0289037 1.1795906e-38 317 261
-0.0027597465 0.787 -0.02897734 1.1796625e-38 318 261
-0.0013798733 0.787 -0.02897734 1.1888821e-38 319 261
0 0.787 -0.02897734 1.1245266e-38 320 261
0.0013798733 0.787 -0.02897734 1.1429659e-38 321 261
0.0027667598 0.78899997 -0.02905098 1.1429674e-38 322 261
0.0041396199 0.787 -0.02897734 1.1614424e-38 323 261
0.005519493 0.787 -0.02897734 1.1889569e-38 324 261
0.0068993662 0.787 -0.02897734 1.1889569e-38 325 261
0.0082792398 0.787 -0.02897734 1.216543e-38 326 261
0.0096591124 0.787 -0.02897734 1.216543e-38 327 261
0.011038986 0.787 -0.02897734 1.2624963e-38 328 261
0.01241886 0.787 -0.02897734 1.2808996e-38 329 261
0.013763667 0.78500003 -0.0289037 1.299374e-38 330 261
0.015140033 0.78500003 -0.0289037 1.299374e-38 331 261
0.016516401 0.78500003 -0.0289037 1.3269251e-38 332 261
0.017892767 0.78500003 -0.0289037 1.3269251e-38 333 261
0.019269135 0.78500003 -0.0289037 1.3086295e-38 334 261
0.020645501 0.78500003 -0.0289037 1.317849e-38 335 261
0.022021867 0.78500003 -0.0289037 1.3087008e-38 336 261
0.023398234 0.78500003 -0.0289037 1.3087008e-38 337 261
0.024837719 0.787 -0.02897734 1.3178844e-38 338 261
0.026150968 0.78500003 -0.0289037 1.3178844e-38 339 261
0.027527334 0.78500003 -0.0289037 1.3271036e-38 340 261
0.02897734 0.787 -0.02897734 1.3178841e-38 341 261
0.030280067 0.78500003 -0.0289037 1.2994812e-38 342 261
0.031656433 0.78500003 -0.0289037 1.2994812e-38 343 261
0.033032801 0.78500003 -0.0289037 1.3085939e-38 344 261
0.034409165 0.78500003 -0.0289037 1.2993743e-38 345 261
0.035694357 0.78299999 -0.028830061 1.2901545e-38 346 261
0.037067216 0.78299999 -0.028830061 1.299374e-38 347 261
0.038440078 0.78299999 -0.028830061 1.2993022e-38 348 261
0.039711244 0.78100002 -0.028756421 1.2993022e-38 349 261
0.041080598 0.78100002 -0.028756421 1.3177411e-38 350 261
0.042449951 0.78100002 -0.028756421 1.3269607e-38 351 261
0.043819305 0.78100002 -0.028756421 1.3086289e-38 352 261
0.045188658 0.78100002 -0.028756421 1.3178844e-38 353 261
0.046558015 0.78100002 -0.028756421 1.3271036e-38 354 261
0.047865998 0.77999997 -0.028719598 1.3455069e-38 355 261
0.049233593 0.77999997 -0.028719598 1.3364308e-38 356 261
0.050471451 0.778 -0.028645959 1.3456504e-38 357 261
0.051702294 0.77600002 -0.028572321 1.3456857e-38 358 261
0.053062879 0.77600002 -0.028572321 1.3640888e-38 359 261
0.054423466 0.77600002 -0.028572321 1.3640885e-38 360 261
0.055784054 0.77600002 -0.028572321 1.3640885e-38 361 261
0.056997359 0.77399999 -0.028498679 1.3732362e-38 362 261
0.058354434 0.77399999 -0.028498679 1.3824558e-38 363 261
0.059711516 0.77399999 -0.028498679 1.3825277e-38 364 261
0.061068594 0.77399999 -0.028498679 1.3825277e-38 365 261
0.062425677 0.77399999 -0.028498679 1.3917112e-38 366 261
0.063700356 0.773 -0.028461859 1.4101143e-38 367 261
0.065055676 0.773 -0.028461859 1.4009678e-38 368 261
0.066239186 0.77100003 -0.028388219 1.4009678e-38 369 261
0.067415662 0.76899999 -0.028314579 1.4285185e-38 370 261
0.068763971 0.76899999 -0.028314579 1.4100794e-38 371 261
0.070112288 0.76899999 -0.028314579 1.4009672e-38 372 261
0.07127475 0.76700002 -0.02824094 1.4562844e-38 373 261
0.072619557 0.76700002 -0.02824094 1.4840157e-38 374 261
0.073867925 0.76599997 -0.028204117 1.5301135e-38 375 261
0.075014614 0.764 -0.028130481 1.6036898e-38 376 261
0.076354161 0.764 -0.028130481 1.6313487e-38 377 261
0.077490322 0.76200002 -0.028056841 1.6680827e-38 378 261
0.07882636 0.76200002 -0.028056841 1.6957413e-38 379 261
0.080162399 0.76200002 -0.028056841 1.6867016e-38 380 261
0.081498444 0.76200002 -0.028056841 1.6959212e-38 381 261
0.082725771 0.76099998 -0.028020019 1.7326915e-38 382 261
0.084060051 0.76099998 -0.028020019 1.7419111e-38 383 261
0.085394338 0.76099998 -0.028020019 1.7420913e-38 384 261
0.086500697 0.759 -0.027946379 1.7697499e-38 385 261
0.087831482 0.759 -0.027946379 1.8339272e-38 386 261
0.08916226 0.759 -0.027946379 1.8431828e-38 387 261
0.09025459 0.75700003 -0.027872739 1.8432541e-38 388 261
0.091581859 0.75700003 -0.027872739 1.8525096e-38 389 261
0.092663661 0.755 -0.027799098 1.8708755e-38 390 261
0.093987428 0.755 -0.027799098 1.8708755e-38 391 261
0.09556368 0.75700003 -0.027872739 1.8708392e-38 392 261
0.096634962 0.755 -0.027799098 1.8616195e-38 393 261
0.097958729 0.755 -0.027799098 1.8705874e-38 394 261
0.099282496 0.755 -0.027799098 1.8521124e-38 395 261
0.10060626 0.755 -0.027799098 1.8245965e-38 396 261
0.10179503 0.75400001 -0.027762281 1.8061574e-38 397 261
0.10284352 0.75199997 -0.027688639 1.7877177e-38 398 261
0.10416202 0.75199997 -0.027688639 1.7600949e-38 399 261
0.10548052 0.75199997 -0.027688639 1.7047789e-38 400 261
0.10679904 0.75199997 -0.027688639 1.6863398e-38 401 261
0.10811754 0.75199997 -0.027688639 1.6404997e-38 402 261
0.10943604 0.75199997 -0.027688639 1.7327313e-38 403 261
0.11075456 0.75199997 -0.027688639 1.7331687e-38 404 261
0.11207306 0.75199997 -0.027688639 1.7700469e-38 405 261
0.11339156 0.75199997 -0.027688639 1.7973091e-38 406 261
-0.055194929 0.787 -0.03035721 9.7784597e-39 280 262
-0.053815059 0.787 -0.03035721 2.9559817e-39 281 262
-0.052435186 0.787 -0.03035721 5.989762e-39 282 262
-0.051055312 0.787 -0.03035721 8.2028173e-39 283 262
-0.049675439 0.787 -0.03035721 9.4981986e-39 284 262
-0.048295565 0.787 -0.03035721 1.0788937e-38 285 262
-0.046796467 0.78500003 -0.030280067 1.1067654e-38 286 262
-0.045420099 0.78500003 -0.030280067 1.1436437e-38 287 262
-0.044043735 0.78500003 -0.030280067 1.2446623e-38 288 262
-0.042667367 0.78500003 -0.030280067 1.272321e-38 289 262
-0.041291002 0.78500003 -0.030280067 1.3274584e-38 290 262
-0.040016327 0.787 -0.03035721 1.3366781e-38 291 262
-0.03863645 0.787 -0.03035721 1.3733769e-38 292 262
-0.03725658 0.787 -0.03035721 1.3918519e-38 293 262
-0.035876706 0.787 -0.03035721 1.4008929e-38 294 262
-0.034496833 0.787 -0.03035721 1.4101125e-38 295 262
-0.033032801 0.78500003 -0.030280067 1.4008579e-38 296 262
-0.031656433 0.78500003 -0.030280067 1.4008579e-38 297 262
-0.030280067 0.78500003 -0.030280067 1.4191175e-38 298 262
-0.0289037 0.78500003 -0.030280067 1.3822393e-38 299 262
-0.027527334 0.78500003 -0.030280067 1.3545806e-38 300 262
-0.026084339 0.78299999 -0.03020292 1.3361056e-38 301 262
-0.024711479 0.78299999 -0.03020292 1.2899717e-38 302 262
-0.02333862 0.78299999 -0.03020292 1.2254348e-38 303 262
-0.022021867 0.78500003 -0.030280067 1.1609698e-38 304 262
-0.020645501 0.78500003 -0.030280067 1.1240916e-38 305 262
-0.019269135 0.78500003 -0.030280067 1.0963622e-38 306 262
-0.017892767 0.78500003 -0.030280067 1.0226057e-38 307 262
-0.016516401 0.78500003 -0.030280067 9.1218953e-39 308 262
-0.015140033 0.78500003 -0.030280067 8.7531142e-39 309 262
-0.013763667 0.78500003 -0.030280067 7.927322e-39 310 262
-0.0123873 0.78500003 -0.030280067 7.8351263e-39 311 262
-0.011010934 0.78500003 -0.030280067 8.1106174e-39 312 262
-0.0096345674 0.78500003 -0.030280067 8.4790412e-39 313 262
-0.0082582003 0.78500003 -0.030280067 8.7548924e-39 314 262
-0.0068993662 0.787 -0.03035721 9.0314793e-39 315 262
-0.005519493 0.787 -0.03035721 9.582858e-39 316 262
-0.0041396199 0.787 -0.03035721 9.9516405e-39 317 262
-0.0027597465 0.787 -0.03035721 1.0227518e-38 318 262
-0.0013798733 0.787 -0.03035721 1.0412268e-38 319 262
0 0.787 -0.03035721 1.068706e-38 320 262
0.0013833799 0.78899997 -0.030434359 1.114768e-38 321 262
0.0027667598 0.78899997 -0.030434359 1.1241676e-38 322 262
0.0041501396 0.78899997 -0.030434359 1.1702654e-38 323 262
0.0055335197 0.78899997 -0.030434359 1.1885613e-38 324 262
0.0069168997 0.78899997 -0.030434359 1.1977809e-38 325 262
0.0083002793 0.78899997 -0.030434359 1.1979964e-38 326 262
0.0096836593 0.78899997 -0.030434359 1.207216e-38 327 262
0.011038986 0.787 -0.03035721 1.2440572e-38 328 262
0.01241886 0.787 -0.03035721 1.2532768e-38 329 262
0.013763667 0.78500003 -0.030280067 1.2624963e-38 330 262
0.015140033 0.78500003 -0.030280067 1.2624963e-38 331 262
0.016516401 0.78500003 -0.030280067 1.2900473e-38 332 262
0.017892767 0.78500003 -0.030280067 1.2993027e-38 333 262
0.019269135 0.78500003 -0.030280067 1.2718235e-38 334 262
0.020645501 0.78500003 -0.030280067 1.2810431e-38 335 262
0.022077972 0.787 -0.03035721 1.3086289e-38 336 262
0.023457846 0.787 -0.03035721 1.2994094e-38 337 262
0.024837719 0.787 -0.03035721 1.3177759e-38 338 262
0.026217593 0.787 -0.03035721 1.3269955e-38 339 262
0.027597465 0.787 -0.03035721 1.336215e-38 340 262
0.02897734 0.787 -0.03035721 1.3177759e-38 341 262
0.03035721 0.787 -0.03035721 1.2718586e-38 342 262
0.031737085 0.787 -0.03035721 1.262639e-38 343 262
0.033032801 0.78500003 -0.030280067 1.2900826e-38 344 262
0.034409165 0.78500003 -0.030280067 1.2808629e-38 345 262
0.035785533 0.78500003 -0.030280067 1.3082344e-38 346 262
0.037067216 0.78299999 -0.03020292 1.2897955e-38 347 262
0.038440078 0.78299999 -0.03020292 1.2898311e-38 348 262
0.039812941 0.78299999 -0.03020292 1.2898311e-38 349 262
0.0411858 0.78299999 -0.03020292 1.3174172e-38 350 262
0.042558655 0.78299999 -0.03020292 1.3266367e-38 351 262
0.043819305 0.78100002 -0.030125774 1.2901182e-38 352 262
0.045188658 0.78100002 -0.030125774 1.2993377e-38 353 262
0.046558015 0.78100002 -0.030125774 1.3269604e-38 354 262
0.047927368 0.78100002 -0.030125774 1.33618e-38 355 262
0.049233593 0.77999997 -0.030087199 1.3271039e-38 356 262
0.050601196 0.77999997 -0.030087199 1.3547267e-38 357 262
0.051835544 0.778 -0.03001005 1.3547618e-38 358 262
0.053199638 0.778 -0.03001005 1.3639813e-38 359 262
0.054423466 0.77600002 -0.029932907 1.3640882e-38 360 262
0.055784054 0.77600002 -0.029932907 1.3733437e-38 361 262
0.057144642 0.77600002 -0.029932907 1.3824914e-38 362 262
0.058505226 0.77600002 -0.029932907 1.3917109e-38 363 262
0.059711516 0.77399999 -0.029855758 1.3825277e-38 364 262
0.061068594 0.77399999 -0.029855758 1.3825277e-38 365 262
0.062425677 0.77399999 -0.029855758 1.3917476e-38 366 262
0.063700356 0.773 -0.029817186 1.3917476e-38 367 262
0.065055676 0.773 -0.029817186 1.3917476e-38 368 262
0.066239186 0.77100003 -0.029740039 1.4009672e-38 369 262
0.067415662 0.76899999 -0.02966289 1.4101143e-38 370 262
0.068763971 0.76899999 -0.02966289 1.419334e-38 371 262
0.070112288 0.76899999 -0.02966289 1.3916759e-38 372 262
0.07127475 0.76700002 -0.029585747 1.4377378e-38 373 262
0.072619557 0.76700002 -0.029585747 1.410187e-38 374 262
0.073867925 0.76599997 -0.029547172 1.4378097e-38 375 262
0.075014614 0.764 -0.029470026 1.4747596e-38 376 262
0.076154284 0.76200002 -0.029392879 1.5208214e-38 377 262
0.077490322 0.76200002 -0.029392879 1.5852138e-38 378 262
0.07882636 0.76200002 -0.029392879 1.6220922e-38 379 262
0.080162399 0.76200002 -0.029392879 1.6497861e-38 380 262
0.081391476 0.76099998 -0.029354304 1.6682252e-38 381 262
0.082725771 0.76099998 -0.029354304 1.6958846e-38 382 262
0.084060051 0.76099998 -0.029354304 1.7142877e-38 383 262
0.085169919 0.759 -0.029277159 1.732799e-38 384 262
0.086500697 0.759 -0.029277159 1.7512383e-38 385 262
0.087831482 0.759 -0.029277159 1.8155237e-38 386 262
0.088927314 0.75700003 -0.029200014 1.8247433e-38 387 262
0.09025459 0.75700003 -0.029200014 1.8339625e-38 388 262
0.091339901 0.755 -0.029122867 1.8616212e-38 389 262
0.092663661 0.755 -0.029122867 1.8525446e-38 390 262
0.093987428 0.755 -0.029122867 1.8617642e-38 391 262
0.095311195 0.755 -0.029122867 1.843325e-38 392 262
0.096634962 0.755 -0.029122867 1.8340696e-38 393 262
0.097828984 0.75400001 -0.029084291 1.8522575e-38 394 262
0.099150993 0.75400001 -0.029084291 1.8153433e-38 395 262
0.10047301 0.75400001 -0.029084291 1.8152713e-38 396 262
0.10152501 0.75199997 -0.029007144 1.8152713e-38 397 262
0.10284352 0.75199997 -0.029007144 1.8060871e-38 398 262
0.10388499 0.75 -0.028929999 1.7876121e-38 399 262
0.1052 0.75 -0.028929999 1.7233623e-38 400 262
0.106515 0.75 -0.028929999 1.704959e-38 401 262
0.10783 0.75 -0.028929999 1.668083e-38 402 262
0.10943604 0.75199997 -0.029007144 1.6311687e-38 403 262
0.11075456 0.75199997 -0.029007144 1.5212957e-38 404 262
0.11207306 0.75199997 -0.029007144 1.7333815e-38 405 262
0.11339156 0.75199997 -0.029007144 1.8435526e-38 406 262
0.11516769 0.755 -0.029122867 1.7974908e-38 407 262
0.11649147 0.755 -0.029122867 1.7970935e-38 408 262
0.11781523 0.755 -0.029122867 1.723337e-38 409 262
-0.053815059 0.787 -0.031737085 8.018461e-39 281 263
-0.052568436 0.78899997 -0.031817738 4.4267579e-39 282 263
-0.051055312 0.787 -0.031737085 6.086617e-39 283 263
-0.049675439 0.787 -0.031737085 8.6695141e-39 284 263
-0.048295565 0.787 -0.031737085 1.0790015e-38 285 263
-0.046796467 0.78500003 -0.031656433 1.106838e-38 286 263
-0.045420099 0.78500003 -0.031656433 1.1529358e-38 287 263
-0.044043735 0.78500003 -0.031656433 1.2630661e-38 288 263
-0.042667367 0.78500003 -0.031656433 1.2907608e-38 289 263
-0.041291002 0.78500003 -0.031656433 1.3457905e-38 290 263
-0.040016327 0.787 -0.031737085 1.3642295e-38 291 263
-0.03863645 0.787 -0.031737085 1.3825617e-38 292 263
-0.03725658 0.787 -0.031737085 1.3733421e-38 293 263
-0.035876706 0.787 -0.031737085 1.4007504e-38 294 263
-0.034496833 0.787 -0.031737085 1.4007504e-38 295 263
-0.033032801 0.78500003 -0.031656433 1.3914955e-38 296 263
-0.031656433 0.78500003 -0.031656433 1.3638367e-38 297 263
-0.030280067 0.78500003 -0.031656433 1.3820963e-38 298 263
-0.0289037 0.78500003 -0.031656433 1.3544378e-38 299 263
-0.027527334 0.78500003 -0.031656433 1.2901176e-38 300 263
-0.026084339 0.78299999 -0.031575777 1.2071414e-38 301 263
-0.024711479 0.78299999 -0.031575777 1.1702262e-38 302 263
-0.023398234 0.78500003 -0.031656433 1.0319327e-38 303 263
-0.022021867 0.78500003 -0.031656433 9.0296688e-39 304 263
-0.020645501 0.78500003 -0.031656433 8.8449174e-39 305 263
-0.019318225 0.787 -0.031737085 7.1897373e-39 306 263
-0.017938353 0.787 -0.031737085 6.8205961e-39 307 263
-0.01655848 0.787 -0.031737085 6.1759764e-39 308 263
-0.015178605 0.787 -0.031737085 6.268172e-39 309 263
-0.013798732 0.787 -0.031737085 6.8181228e-39 310 263
-0.01241886 0.787 -0.031737085 7.002514e-39 311 263
-0.011038986 0.787 -0.031737085 7.3719986e-39 312 263
-0.0096345674 0.78500003 -0.031656433 8.2017607e-39 313 263
-0.0082582003 0.78500003 -0.031656433 9.1218953e-39 314 263
-0.0068993662 0.787 -0.031737085 9.4910379e-39 315 263
-0.005519493 0.787 -0.031737085 1.0227524e-38 316 263
-0.0041396199 0.787 -0.031737085 1.0780339e-38 317 263
-0.0027597465 0.787 -0.031737085 1.1056213e-38 318 263
-0.0013833799 0.78899997 -0.031817738 1.1424994e-38 319 263
0 0.78899997 -0.031817738 1.1425711e-38 320 263
0.0013833799 0.78899997 -0.031817738 1.1517907e-38 321 263
0.0027667598 0.78899997 -0.031817738 1.1610458e-38 322 263
0.0041501396 0.78899997 -0.031817738 1.179485e-38 323 263
0.0055335197 0.78899997 -0.031817738 1.170337e-38 324 263
0.0069168997 0.78899997 -0.031817738 1.1888122e-38 325 263
0.0083002793 0.78899997 -0.031817738 1.1797002e-38 326 263
0.0096836593 0.78899997 -0.031817738 1.1797002e-38 327 263
0.011067039 0.78899997 -0.031817738 1.1981033e-38 328 263
0.01241886 0.787 -0.031737085 1.1981033e-38 329 263
0.013798732 0.787 -0.031737085 1.2348021e-38 330 263
0.015178605 0.787 -0.031737085 1.2348021e-38 331 263
0.016516401 0.78500003 -0.031656433 1.2347305e-38 332 263
0.017892767 0.78500003 -0.031656433 1.2531336e-38 333 263
0.019318225 0.787 -0.031737085 1.2348023e-38 334 263
0.0206981 0.787 -0.031737085 1.2348023e-38 335 263
0.022077972 0.787 -0.031737085 1.2165062e-38 336 263
0.023457846 0.787 -0.031737085 1.2072866e-38 337 263
0.024900839 0.78899997 -0.031817738 1.2624585e-38 338 263
0.026284218 0.78899997 -0.031817738 1.253239e-38 339 263
0.027667599 0.78899997 -0.031817738 1.2441276e-38 340 263
0.02905098 0.78899997 -0.031817738 1.2441276e-38 341 263
0.030434359 0.78899997 -0.031817738 1.2533118e-38 342 263
0.031737085 0.787 -0.031737085 1.2533118e-38 343 263
0.033116959 0.787 -0.031737085 1.271643e-38 344 263
0.034496833 0.787 -0.031737085 1.271643e-38 345 263
0.035785533 0.78500003 -0.031656433 1.2623872e-38 346 263
0.037161902 0.78500003 -0.031656433 1.2623872e-38 347 263
0.03853827 0.78500003 -0.031656433 1.2623872e-38 348 263
0.039914634 0.78500003 -0.031656433 1.2531318e-38 349 263
0.0411858 0.78299999 -0.031575777 1.2530601e-38 350 263
0.042558655 0.78299999 -0.031575777 1.2714633e-38 351 263
0.043931518 0.78299999 -0.031575777 1.2623163e-38 352 263
0.045188658 0.78100002 -0.031495128 1.2715717e-38 353 263
0.046558015 0.78100002 -0.031495128 1.2991588e-38 354 263
0.047927368 0.78100002 -0.031495128 1.3176339e-38 355 263
0.049233593 0.77999997 -0.031454798 1.3269251e-38 356 263
0.050601196 0.77999997 -0.031454798 1.3454001e-38 357 263
0.051835544 0.778 -0.031374145 1.3546546e-38 358 263
0.053199638 0.778 -0.031374145 1.3823131e-38 359 263
0.054423466 0.77600002 -0.031293493 1.3823479e-38 360 263
0.055784054 0.77600002 -0.031293493 1.3915674e-38 361 263
0.057144642 0.77600002 -0.031293493 1.3733081e-38 362 263
0.058505226 0.77600002 -0.031293493 1.3733081e-38 363 263
0.059865814 0.77600002 -0.031293493 1.3825279e-38 364 263
0.061068594 0.77399999 -0.031212838 1.3825279e-38 365 263
0.062425677 0.77399999 -0.031212838 1.3641611e-38 366 263
0.063700356 0.773 -0.03117251 1.3734167e-38 367 263
0.065055676 0.773 -0.03117251 1.3917479e-38 368 263
0.066239186 0.77100003 -0.031091858 1.3917479e-38 369 263
0.067415662 0.76899999 -0.031011207 1.3916756e-38 370 263
0.068763971 0.76899999 -0.031011207 1.4100789e-38 371 263
0.070112288 0.76899999 -0.031011207 1.4100791e-38 372 263
0.07127475 0.76700002 -0.030930554 1.4100791e-38 373 263
0.072619557 0.76700002 -0.030930554 1.4192268e-38 374 263
0.073867925 0.76599997 -0.030890226 1.4284464e-38 375 263
0.075014614 0.764 -0.030809574 1.4102224e-38 376 263
0.076154284 0.76200002 -0.030728921 1.437845e-38 377 263
0.077490322 0.76200002 -0.030728921 1.4930905e-38 378 263
0.07882636 0.76200002 -0.030728921 1.5207851e-38 379 263
0.080162399 0.76200002 -0.030728921 1.5118533e-38 380 263
0.081391476 0.76099998 -0.030688593 1.5579872e-38 381 263
0.082725771 0.76099998 -0.030688593 1.6314208e-38 382 263
0.084060051 0.76099998 -0.030688593 1.6591155e-38 383 263
0.085169919 0.759 -0.030607941 1.686666e-38 384 263
0.086272769 0.75700003 -0.030527288 1.7143606e-38 385 263
0.087600037 0.75700003 -0.030527288 1.7786456e-38 386 263
0.088927314 0.75700003 -0.030527288 1.8062683e-38 387 263
0.090016134 0.755 -0.030446632 1.8155953e-38 388 263
0.091218919 0.75400001 -0.030406307 1.8248149e-38 389 263
0.092540927 0.75400001 -0.030406307 1.843325e-38 390 263
0.093862943 0.75400001 -0.030406307 1.843325e-38 391 263
0.095184959 0.75400001 -0.030406307 1.8432176e-38 392 263
0.096506968 0.75400001 -0.030406307 1.8339979e-38 393 263
0.097828984 0.75400001 -0.030406307 1.8338181e-38 394 263
0.098887995 0.75199997 -0.030325651 1.7139637e-38 395 263
0.10020649 0.75199997 -0.030325651 1.7046723e-38 396 263
0.101255 0.75 -0.030244999 1.7046723e-38 397 263
0.10257 0.75 -0.030244999 1.7232555e-38 398 263
0.10388499 0.75 -0.030244999 1.7416947e-38 399 263
0.1052 0.75 -0.030244999 1.7325468e-38 400 263
0.10637298 0.74900001 -0.030204674 1.7233272e-38 401 263
0.10768622 0.74900001 -0.030204674 1.7141063e-38 402 263
0.10914499 0.75 -0.030244999 1.6587889e-38 403 263
0.11046 0.75 -0.030244999 1.5486272e-38 404 263
0.111775 0.75 -0.030244999 1.6407868e-38 405 263
0.11369315 0.75400001 -0.030406307 1.6597006e-38 406 263
0.11516769 0.755 -0.030446632 1.7703713e-38 407 263
0.11649147 0.755 -0.030446632 1.8434444e-38 408 263
0.11781523 0.755 -0.030446632 1.7604684e-38 409 263
0.11913899 0.755 -0.030446632 1.769398e-38 410 263
-0.052568436 0.78899997 -0.033201117 9.6764984e-39 282 264
-0.051055312 0.787 -0.033116959 8.4779566e-39 283 264
-0.049675439 0.787 -0.033116959 8.8521229e-39 284 264
-0.048295565 0.787 -0.033116959 1.0880427e-38 285 264
-0.046915691 0.787 -0.033116959 1.1986409e-38 286 264
-0.045535821 0.787 -0.033116959 1.2078604e-38 287 264
-0.044155944 0.787 -0.033116959 1.2998017e-38 288 264
-0.042776071 0.787 -0.033116959 1.3090214e-38 289 264
-0.041396201 0.787 -0.033116959 1.3273532e-38 290 264
-0.040016327 0.787 -0.033116959 1.3365728e-38 291 264
-0.03863645 0.787 -0.033116959 1.3364303e-38 292 264
-0.03725658 0.787 -0.033116959 1.3364303e-38 293 264
-0.035876706 0.787 -0.033116959 1.3453995e-38 294 264
-0.034496833 0.787 -0.033116959 1.3453995e-38 295 264
-0.033116959 0.787 -0.033116959 1.33618e-38 296 264
-0.031737085 0.787 -0.033116959 1.3177409e-38 297 264
-0.03035721 0.787 -0.033116959 1.2993377e-38 298 264
-0.02897734 0.787 -0.033116959 1.2901182e-38 299 264
-0.027597465 0.787 -0.033116959 1.2623884e-38 300 264
-0.026217593 0.787 -0.033116959 1.1886319e-38 301 264
-0.024837719 0.787 -0.033116959 1.1057635e-38 302 264
-0.023457846 0.787 -0.033116959 1.0135679e-38 303 264
-0.022077972 0.787 -0.033116959 9.2122776e-39 304 264
-0.0206981 0.787 -0.033116959 8.7512995e-39 305 264
-0.019391866 0.79000002 -0.033243202 7.2801477e-39 306 264
-0.018006733 0.79000002 -0.033243202 7.2801477e-39 307 264
-0.016621601 0.79000002 -0.033243202 7.555685e-39 308 264
-0.013833799 0.78899997 -0.033201117 8.0166618e-39 310 264
-0.012450419 0.78899997 -0.033201117 8.2936088e-39 311 264
-0.011038986 0.787 -0.033116959 8.9378936e-39 312 264
-0.0096345674 0.78500003 -0.033032801 9.6754586e-39 313 264
-0.0082582003 0.78500003 -0.033032801 1.0413727e-38 314 264
-0.0068993662 0.787 -0.033116959 1.0506281e-38 315 264
-0.005519493 0.787 -0.033116959 1.0508777e-38 316 264
-0.0041396199 0.787 -0.033116959 1.0693168e-38 317 264
-0.0027667598 0.78899997 -0.033201117 1.1060506e-38 318 264
-0.0013833799 0.78899997 -0.033201117 1.1152702e-38 319 264
0 0.78899997 -0.033201117 1.087756e-38 320 264
0.0013851334 0.79000002 -0.033243202 1.087756e-38 321 264
0.0027702667 0.79000002 -0.033243202 1.0601343e-38 322 264
0.0041554002 0.79000002 -0.033243202 1.0601343e-38 323 264
0.0055405335 0.79000002 -0.033243202 1.0693541e-38 324 264
0.0069168997 0.78899997 -0.033201117 1.0601346e-38 325 264
0.0083002793 0.78899997 -0.033201117 1.0693544e-38 326 264
0.0096836593 0.78899997 -0.033201117 1.0601348e-38 327 264
0.011067039 0.78899997 -0.033201117 1.0692112e-38 328 264
0.01241886 0.787 -0.033116959 1.0692112e-38 329 264
0.013798732 0.787 -0.033116959 1.0966551e-38 330 264
0.015178605 0.787 -0.033116959 1.0966551e-38 331 264
0.01655848 0.787 -0.033116959 1.069069e-38 332 264
0.017938353 0.787 -0.033116959 1.0782885e-38 333 264
0.019318225 0.787 -0.033116959 1.1609033e-38 334 264
0.0207507 0.78899997 -0.033201117 1.1516838e-38 335 264
0.022134079 0.78899997 -0.033201117 1.1150199e-38 336 264
0.023517458 0.78899997 -0.033201117 1.1058004e-38 337 264
0.030434359 0.78899997 -0.033201117 1.1795553e-38 342 264
0.031817738 0.78899997 -0.033201117 1.1979944e-38 343 264
0.033201117 0.78899997 -0.033201117 1.2164686e-38 344 264
0.034584496 0.78899997 -0.033201117 1.2256882e-38 345 264
0.035876706 0.787 -0.033116959 1.2348712e-38 346 264
0.03725658 0.787 -0.033116959 1.2532743e-38 347 264
0.03853827 0.78500003 -0.033032801 1.2624585e-38 348 264
0.039914634 0.78500003 -0.033032801 1.253239e-38 349 264
0.0411858 0.78299999 -0.032948639 1.1888119e-38 350 264
0.042558655 0.78299999 -0.032948639 1.1888119e-38 351 264
0.043931518 0.78299999 -0.032948639 1.1887768e-38 352 264
0.045188658 0.78100002 -0.032864477 1.1979964e-38 353 264
0.046558015 0.78100002 -0.032864477 1.2347668e-38 354 264
0.047927368 0.78100002 -0.032864477 1.2532418e-38 355 264
0.049233593 0.77999997 -0.032822397 1.2809002e-38 356 264
0.050601196 0.77999997 -0.032822397 1.2993393e-38 357 264
0.051835544 0.778 -0.032738242 1.3178134e-38 358 264
0.053199638 0.778 -0.032738242 1.3454721e-38 359 264
0.054563731 0.778 -0.032738242 1.3363952e-38 360 264
0.055784054 0.77600002 -0.032654081 1.3363952e-38 361 264
0.057144642 0.77600002 -0.032654081 1.3640535e-38 362 264
0.058505226 0.77600002 -0.032654081 1.3640535e-38 363 264
0.059865814 0.77600002 -0.032654081 1.3549418e-38 364 264
0.061068594 0.77399999 -0.032569919 1.3549418e-38 365 264
