# .PCD v.7 - Point Cloud Data file format
FIELDS x y z rgb imX imY
SIZE 4 4 4 4 4 4
TYPE F F F F F F
COUNT 1 1 1 1 1 1
WIDTH 853
HEIGHT 1
VIEWPOINT 0 0 0 1 0 0 0
POINTS 853
DATA ascii
0.059427481 0.80699998 0.026883857 1.585142e-38 362 221
0.060691636 0.80500001 0.026817232 1.5759224e-38 363 221
0.062103067 0.80500001 0.026817232 1.5574473e-38 364 221
0.063514493 0.80500001 0.026817232 1.585142e-38 365 221
0.064925931 0.80500001 0.026817232 1.6771907e-38 366 221
0.066337362 0.80500001 0.026817232 1.6310931e-38 367 221
0.0677488 0.80500001 0.026817232 1.6033971e-38 368 221
0.06916023 0.80500001 0.026817232 1.5480797e-38 369 221
0.070571661 0.80500001 0.026817232 1.4928342e-38 370 221
0.071983099 0.80500001 0.026817232 1.4375529e-38 371 221
0.07339453 0.80500001 0.026817232 1.3914566e-38 372 221
0.074805968 0.80500001 0.026817232 1.3453589e-38 373 221
0.076217398 0.80500001 0.026817232 1.2075049e-38 374 221
0.044515379 0.81900001 0.02584764 1.3826025e-38 351 222
0.045839142 0.81699997 0.025784519 1.4377747e-38 352 222
0.047155898 0.815 0.025721399 1.4469942e-38 353 222
0.048465639 0.81300002 0.02565828 1.4838712e-38 354 222
0.049891099 0.81300002 0.02565828 1.5115299e-38 355 222
0.051190317 0.81099999 0.025595158 1.5851417e-38 356 222
0.052482527 0.80900002 0.025532039 1.6404591e-38 357 222
0.053767715 0.80699998 0.025468919 1.6497861e-38 358 222
0.055182658 0.80699998 0.025468919 1.6590057e-38 359 222
0.056457333 0.80500001 0.025405798 1.6498208e-38 360 222
0.057868768 0.80500001 0.025405798 1.6314177e-38 361 222
0.059280202 0.80500001 0.025405798 1.6957748e-38 362 222
0.060691636 0.80500001 0.025405798 1.6957748e-38 363 222
0.062103067 0.80500001 0.025405798 1.6865199e-38 364 222
0.063514493 0.80500001 0.025405798 1.6588253e-38 365 222
0.064925931 0.80500001 0.025405798 1.6587889e-38 366 222
0.066337362 0.80500001 0.025405798 1.6495693e-38 367 222
0.0677488 0.80500001 0.025405798 1.6493876e-38 368 222
0.06916023 0.80500001 0.025405798 1.5756311e-38 369 222
0.070571661 0.80500001 0.025405798 1.4929776e-38 370 222
0.071983099 0.80500001 0.025405798 1.4468437e-38 371 222
0.07339453 0.80500001 0.025405798 1.4007833e-38 372 222
0.074805968 0.80500001 0.025405798 1.3823802e-38 373 222
0.076217398 0.80500001 0.025405798 1.2715727e-38 374 222
0.077628836 0.80500001 0.025405798 1.4098661e-38 375 222
0.044515379 0.81900001 0.02441166 1.3457965e-38 351 223
0.045614719 0.81300002 0.02423282 1.4102236e-38 352 223
0.047040179 0.81300002 0.02423282 1.4194432e-38 353 223
0.048465639 0.81300002 0.02423282 1.4562844e-38 354 223
0.049768366 0.81099999 0.024173206 1.5023823e-38 355 223
0.051190317 0.81099999 0.024173206 1.5575559e-38 356 223
0.052352779 0.80699998 0.02405398 1.6036177e-38 357 223
0.053767715 0.80699998 0.02405398 1.6496789e-38 358 223
0.055045899 0.80500001 0.023994366 1.668118e-38 359 223
0.056457333 0.80500001 0.023994366 1.6865196e-38 360 223
0.057868768 0.80500001 0.023994366 1.6865196e-38 361 223
0.059132915 0.80299997 0.023934752 1.6865899e-38 362 223
0.060540844 0.80299997 0.023934752 1.6865899e-38 363 223
0.061948773 0.80299997 0.023934752 1.6865546e-38 364 223
0.063356698 0.80299997 0.023934752 1.6865546e-38 365 223
0.064764626 0.80299997 0.023934752 1.695595e-38 366 223
0.066172548 0.80299997 0.023934752 1.6863753e-38 367 223
0.0677488 0.80500001 0.023994366 1.6403479e-38 368 223
0.06916023 0.80500001 0.023994366 1.575811e-38 369 223
0.070396326 0.80299997 0.023934752 1.5389305e-38 370 223
0.071804255 0.80299997 0.023934752 1.4836131e-38 371 223
0.07339453 0.80500001 0.023994366 1.4376598e-38 372 223
0.074805968 0.80500001 0.023994366 1.4007815e-38 373 223
0.076217398 0.80500001 0.023994366 1.2901529e-38 374 223
0.077628836 0.80500001 0.023994366 1.3454702e-38 375 223
0.045502506 0.81099999 0.022751253 1.4285188e-38 352 224
0.046924461 0.81099999 0.022751253 1.446958e-38 353 224
0.048346411 0.81099999 0.022751253 1.4286983e-38 354 224
0.049768366 0.81099999 0.022751253 1.4655766e-38 355 224
0.051064078 0.80900002 0.022695147 1.5391879e-38 356 224
0.052352779 0.80699998 0.022639038 1.5668826e-38 357 224
0.053767715 0.80699998 0.022639038 1.6404591e-38 358 224
0.055045899 0.80500001 0.022582933 1.6681536e-38 359 224
0.056457333 0.80500001 0.022582933 1.6865211e-38 360 224
0.057724994 0.80299997 0.022526825 1.6865211e-38 361 224
0.059132915 0.80299997 0.022526825 1.695811e-38 362 224
0.060540844 0.80299997 0.022526825 1.695811e-38 363 224
0.061948773 0.80299997 0.022526825 1.7050296e-38 364 224
0.063356698 0.80299997 0.022526825 1.7050296e-38 365 224
0.064764626 0.80299997 0.022526825 1.7049217e-38 366 224
0.066172548 0.80299997 0.022526825 1.6864827e-38 367 224
0.067580476 0.80299997 0.022526825 1.6954854e-38 368 224
0.068988405 0.80299997 0.022526825 1.640168e-38 369 224
0.070396326 0.80299997 0.022526825 1.5665544e-38 370 224
0.071804255 0.80299997 0.022526825 1.5204207e-38 371 224
0.073212177 0.80299997 0.022526825 1.4652113e-38 372 224
0.074805968 0.80500001 0.022582933 1.4375526e-38 373 224
0.076217398 0.80500001 0.022582933 1.3731617e-38 374 224
0.077628836 0.80500001 0.022582933 1.3363194e-38 375 224
0.079040267 0.80500001 0.022582933 1.2629668e-38 376 224
0.080451705 0.80500001 0.022582933 1.5303341e-38 377 224
0.045502506 0.81099999 0.021329299 1.4102239e-38 352 225
0.046924461 0.81099999 0.021329299 1.4102239e-38 353 225
0.048346411 0.81099999 0.021329299 1.4470652e-38 354 225
0.049645633 0.80900002 0.021276699 1.4562849e-38 355 225
0.051064078 0.80900002 0.021276699 1.5116006e-38 356 225
0.052352779 0.80699998 0.021224098 1.5576625e-38 357 225
0.053767715 0.80699998 0.021224098 1.6312025e-38 358 225
0.055045899 0.80500001 0.021171499 1.6680807e-38 359 225
0.056317061 0.80299997 0.0211189 1.6865202e-38 360 225
0.057724994 0.80299997 0.0211189 1.7049593e-38 361 225
0.059132915 0.80299997 0.0211189 1.7049946e-38 362 225
0.060540844 0.80299997 0.0211189 1.7233977e-38 363 225
0.061948773 0.80299997 0.0211189 1.7050659e-38 364 225
0.063356698 0.80299997 0.0211189 1.7143215e-38 365 225
0.064764626 0.80299997 0.0211189 1.704994e-38 366 225
0.066172548 0.80299997 0.0211189 1.6957745e-38 367 225
0.067580476 0.80299997 0.0211189 1.6588961e-38 368 225
0.068988405 0.80299997 0.0211189 1.622018e-38 369 225
0.070396326 0.80299997 0.0211189 1.6032899e-38 370 225
0.071804255 0.80299997 0.0211189 1.5479725e-38 371 225
0.073212177 0.80299997 0.0211189 1.5295684e-38 372 225
0.074620105 0.80299997 0.0211189 1.4835065e-38 373 225
0.076217398 0.80500001 0.021171499 1.3825236e-38 374 225
0.077628836 0.80500001 0.021171499 1.3364616e-38 375 225
0.079040267 0.80500001 0.021171499 1.2627131e-38 376 225
0.080451705 0.80500001 0.021171499 1.5024218e-38 377 225
0.081863128 0.80500001 0.021171499 1.5121529e-38 378 225
0.045390293 0.80900002 0.019858252 1.4101889e-38 352 226
0.046808738 0.80900002 0.019858252 1.4194084e-38 353 226
0.048346411 0.81099999 0.019907346 1.4195151e-38 354 226
0.049645633 0.80900002 0.019858252 1.4379902e-38 355 226
0.050937839 0.80699998 0.019809159 1.4747961e-38 356 226
0.05222303 0.80500001 0.019760067 1.502455e-38 357 226
0.053634465 0.80500001 0.019760067 1.5852867e-38 358 226
0.055045899 0.80500001 0.019760067 1.6221291e-38 359 226
0.056317061 0.80299997 0.019710973 1.6589703e-38 360 226
0.057724994 0.80299997 0.019710973 1.6681899e-38 361 226
0.059132915 0.80299997 0.019710973 1.6683324e-38 362 226
0.060540844 0.80299997 0.019710973 1.6775521e-38 363 226
0.061948773 0.80299997 0.019710973 1.6867703e-38 364 226
0.063356698 0.80299997 0.019710973 1.69599e-38 365 226
0.064683966 0.80199999 0.019686425 1.7326157e-38 366 226
0.066090144 0.80199999 0.019686425 1.7233962e-38 367 226
0.067580476 0.80299997 0.019710973 1.6957003e-38 368 226
0.068902493 0.80199999 0.019686425 1.6588221e-38 369 226
0.070308663 0.80199999 0.019686425 1.6494917e-38 370 226
0.071714841 0.80199999 0.019686425 1.6033579e-38 371 226
0.073121011 0.80199999 0.019686425 1.5390345e-38 372 226
0.074527182 0.80199999 0.019686425 1.5021203e-38 373 226
0.076028034 0.80299997 0.019710973 1.4469131e-38 374 226
0.077435955 0.80299997 0.019710973 1.4008153e-38 375 226
0.078843892 0.80299997 0.019710973 1.2626756e-38 376 226
0.08025182 0.80299997 0.019710973 1.4194081e-38 377 226
0.081659742 0.80299997 0.019710973 1.3924061e-38 378 226
0.045278076 0.80699998 0.018394221 1.336757e-38 352 227
0.046693016 0.80699998 0.018394221 1.3551602e-38 353 227
0.048227187 0.80900002 0.018439807 1.428663e-38 354 227
0.049522895 0.80699998 0.018394221 1.4563217e-38 355 227
0.050937839 0.80699998 0.018394221 1.4930905e-38 356 227
0.05222303 0.80500001 0.018348632 1.5207851e-38 357 227
0.053634465 0.80500001 0.018348632 1.5851773e-38 358 227
0.055045899 0.80500001 0.018348632 1.6312391e-38 359 227
0.056317061 0.80299997 0.018303044 1.6771934e-38 360 227
0.057724994 0.80299997 0.018303044 1.7140356e-38 361 227
0.059132915 0.80299997 0.018303044 1.6774445e-38 362 227
0.060540844 0.80299997 0.018303044 1.6867001e-38 363 227
0.061948773 0.80299997 0.018303044 1.695955e-38 364 227
0.063356698 0.80299997 0.018303044 1.7143581e-38 365 227
0.064683966 0.80199999 0.018280253 1.7235057e-38 366 227
0.066090144 0.80199999 0.018280253 1.7142862e-38 367 227
0.067496315 0.80199999 0.018280253 1.6866268e-38 368 227
0.068902493 0.80199999 0.018280253 1.6497846e-38 369 227
0.070308663 0.80199999 0.018280253 1.6403477e-38 370 227
0.071714841 0.80199999 0.018280253 1.5942857e-38 371 227
0.073121011 0.80199999 0.018280253 1.4933013e-38 372 227
0.074527182 0.80199999 0.018280253 1.4380198e-38 373 227
0.075933352 0.80199999 0.018280253 1.4559917e-38 374 227
0.07733953 0.80199999 0.018280253 1.4283329e-38 375 227
0.0787457 0.80199999 0.018280253 1.3179544e-38 376 227
0.080151878 0.80199999 0.018280253 1.3087349e-38 377 227
0.081558049 0.80199999 0.018280253 1.2540381e-38 378 227
0.045278076 0.80699998 0.016979279 1.3181751e-38 352 228
0.046693016 0.80699998 0.016979279 1.3642728e-38 353 228
0.048227187 0.80900002 0.01702136 1.4010769e-38 354 228
0.049522895 0.80699998 0.016979279 1.4286997e-38 355 228
0.050937839 0.80699998 0.016979279 1.465541e-38 356 228
0.05222303 0.80500001 0.0169372 1.4932356e-38 357 228
0.053634465 0.80500001 0.0169372 1.5483729e-38 358 228
0.054909136 0.80299997 0.016895119 1.5852511e-38 359 228
0.056317061 0.80299997 0.016895119 1.6679748e-38 360 228
0.057724994 0.80299997 0.016895119 1.6864498e-38 361 228
0.059059273 0.80199999 0.016874079 1.6774448e-38 362 228
0.060465451 0.80199999 0.016874079 1.6866645e-38 363 228
0.061871622 0.80199999 0.016874079 1.6867717e-38 364 228
0.063277796 0.80199999 0.016874079 1.6867717e-38 365 228
0.064522661 0.80000001 0.016832 1.7142862e-38 366 228
0.065925337 0.80000001 0.016832 1.7142862e-38 367 228
0.067327999 0.80000001 0.016832 1.7050649e-38 368 228
0.068730667 0.80000001 0.016832 1.6773704e-38 369 228
0.070133328 0.80000001 0.016832 1.6771892e-38 370 228
0.071535997 0.80000001 0.016832 1.6403111e-38 371 228
0.072938666 0.80000001 0.016832 1.5575148e-38 372 228
0.074341334 0.80000001 0.016832 1.5298201e-38 373 228
0.075743996 0.80000001 0.016832 1.4653541e-38 374 228
0.077146664 0.80000001 0.016832 1.4376595e-38 375 228
0.078549333 0.80000001 0.016832 1.3731954e-38 376 228
0.079952002 0.80000001 0.016832 1.3086585e-38 377 228
0.08135467 0.80000001 0.016832 1.207721e-38 378 228
0.082757331 0.80000001 0.016832 1.4750885e-38 379 228
0.046808738 0.80900002 0.015602913 1.373457e-38 353 229
0.048227187 0.80900002 0.015602913 1.4286633e-38 354 229
0.049522895 0.80699998 0.015564339 1.437883e-38 355 229
0.050937839 0.80699998 0.015564339 1.4563211e-38 356 229
0.05222303 0.80500001 0.015525767 1.4840157e-38 357 229
0.053634465 0.80500001 0.015525767 1.5667024e-38 358 229
0.054909136 0.80299997 0.015487193 1.5943612e-38 359 229
0.056246929 0.80199999 0.015467905 1.6587536e-38 360 229
0.057653103 0.80199999 0.015467905 1.7048514e-38 361 229
0.058912002 0.80000001 0.015429333 1.6958116e-38 362 229
0.060314666 0.80000001 0.015429333 1.7050313e-38 363 229
0.061717331 0.80000001 0.015429333 1.6959194e-38 364 229
0.06312 0.80000001 0.015429333 1.6959194e-38 365 229
0.064522661 0.80000001 0.015429333 1.7142506e-38 366 229
0.065760516 0.79799998 0.015390759 1.7142506e-38 367 229
0.067159683 0.79799998 0.015390759 1.7142506e-38 368 229
0.068558834 0.79799998 0.015390759 1.6958113e-38 369 229
0.069957994 0.79799998 0.015390759 1.6956653e-38 370 229
0.071357153 0.79799998 0.015390759 1.6403479e-38 371 229
0.072756313 0.79799998 0.015390759 1.612722e-38 372 229
0.074155472 0.79799998 0.015390759 1.5481851e-38 373 229
0.075554639 0.79799998 0.015390759 1.4839e-38 374 229
0.076953799 0.79799998 0.015390759 1.437838e-38 375 229
0.078352958 0.79799998 0.015390759 1.4192211e-38 376 229
0.079752117 0.79799998 0.015390759 1.3730872e-38 377 229
0.08135467 0.80000001 0.015429333 1.2443456e-38 378 229
0.082757331 0.80000001 0.015429333 1.4011141e-38 379 229
0.08416 0.80000001 0.015429333 1.383403e-38 380 229
0.048107959 0.80699998 0.014149399 1.4286633e-38 354 230
0.049522895 0.80699998 0.014149399 1.4286633e-38 355 230
0.050937839 0.80699998 0.014149399 1.437918e-38 356 230
0.05222303 0.80500001 0.014114333 1.4747961e-38 357 230
0.053634465 0.80500001 0.014114333 1.539116e-38 358 230
0.054909136 0.80299997 0.014079265 1.5852138e-38 359 230
0.056246929 0.80199999 0.014061732 1.6588256e-38 360 230
0.057509329 0.80000001 0.014026666 1.6680452e-38 361 230
0.058764715 0.79799998 0.013991599 1.6865202e-38 362 230
0.060163878 0.79799998 0.013991599 1.7233625e-38 363 230
0.061563037 0.79799998 0.013991599 1.6866998e-38 364 230
0.062962197 0.79799998 0.013991599 1.6959194e-38 365 230
0.064361356 0.79799998 0.013991599 1.695955e-38 366 230
0.065760516 0.79799998 0.013991599 1.695955e-38 367 230
0.067159683 0.79799998 0.013991599 1.6959194e-38 368 230
0.068558834 0.79799998 0.013991599 1.6866998e-38 369 230
0.069782659 0.796 0.013956533 1.6682587e-38 370 230
0.071178317 0.796 0.013956533 1.6221249e-38 371 230
0.072573967 0.796 0.013956533 1.6587125e-38 372 230
0.073969625 0.796 0.013956533 1.5941756e-38 373 230
0.075365283 0.796 0.013956533 1.502375e-38 374 230
0.076953799 0.79799998 0.013991599 1.4470576e-38 375 230
0.078352958 0.79799998 0.013991599 1.4376242e-38 376 230
0.079752117 0.79799998 0.013991599 1.3823068e-38 377 230
0.081151277 0.79799998 0.013991599 1.2718586e-38 378 230
0.082550429 0.79799998 0.013991599 1.3271759e-38 379 230
0.083949596 0.79799998 0.013991599 1.3003531e-38 380 230
0.085348755 0.79799998 0.013991599 1.5216225e-38 381 230
0.048107959 0.80699998 0.01273446 1.4285551e-38 354 231
0.049522895 0.80699998 0.01273446 1.4469942e-38 355 231
0.050937839 0.80699998 0.01273446 1.4379902e-38 356 231
0.05222303 0.80500001 0.012702899 1.4564293e-38 357 231
0.053634465 0.80500001 0.012702899 1.5115668e-38 358 231
0.054909136 0.80299997 0.012671339 1.5392256e-38 359 231
0.056246929 0.80199999 0.01265556 1.640387e-38 360 231
0.057509329 0.80000001 0.012624 1.6587903e-38 361 231
0.058764715 0.79799998 0.012592439 1.6681881e-38 362 231
0.060163878 0.79799998 0.012592439 1.6958466e-38 363 231
0.061563037 0.79799998 0.012592439 1.6775521e-38 364 231
0.062962197 0.79799998 0.012592439 1.6867717e-38 365 231
0.064361356 0.79799998 0.012592439 1.6959913e-38 366 231
0.065595701 0.796 0.01256088 1.6959913e-38 367 231
0.066991359 0.796 0.01256088 1.6867717e-38 368 231
0.068387017 0.796 0.01256088 1.6775521e-38 369 231
0.069782659 0.796 0.01256088 1.6958095e-38 370 231
0.071178317 0.796 0.01256088 1.6589311e-38 371 231
0.072573967 0.796 0.01256088 1.6679325e-38 372 231
0.073969625 0.796 0.01256088 1.6126151e-38 373 231
0.075365283 0.796 0.01256088 1.5482923e-38 374 231
0.076953799 0.79799998 0.012592439 1.4929749e-38 375 231
0.078156583 0.796 0.01256088 1.4468793e-38 376 231
0.079552241 0.796 0.01256088 1.4007815e-38 377 231
0.081151277 0.79799998 0.012592439 1.3361412e-38 378 231
0.082550429 0.79799998 0.012592439 1.2900434e-38 379 231
0.083949596 0.79799998 0.012592439 1.2448889e-38 380 231
0.085348755 0.79799998 0.012592439 1.5306953e-38 381 231
0.047988731 0.80500001 0.011291467 1.4285198e-38 354 232
0.049400166 0.80500001 0.011291467 1.4377752e-38 355 232
0.050811596 0.80500001 0.011291467 1.4379183e-38 356 232
0.05222303 0.80500001 0.011291467 1.4563214e-38 357 232
0.053634465 0.80500001 0.011291467 1.5022751e-38 358 232
0.054909136 0.80299997 0.011263412 1.5391533e-38 359 232
0.056246929 0.80199999 0.011249386 1.6219113e-38 360 232
0.057509329 0.80000001 0.011221333 1.6679733e-38 361 232
0.058764715 0.79799998 0.011193279 1.6589685e-38 362 232
0.060163878 0.79799998 0.011193279 1.6866271e-38 363 232
0.061408747 0.796 0.011165227 1.6866998e-38 364 232
0.062804401 0.796 0.011165227 1.6866998e-38 365 232
0.064200051 0.796 0.011165227 1.686772e-38 366 232
0.065595701 0.796 0.011165227 1.686772e-38 367 232
0.066991359 0.796 0.011165227 1.6959915e-38 368 232
0.068387017 0.796 0.011165227 1.6775165e-38 369 232
0.069782659 0.796 0.011165227 1.6774798e-38 370 232
0.071178317 0.796 0.011165227 1.6498211e-38 371 232
0.072573967 0.796 0.011165227 1.6313082e-38 372 232
0.073969625 0.796 0.011165227 1.5759908e-38 373 232
0.075365283 0.796 0.011165227 1.5300353e-38 374 232
0.076760925 0.796 0.011165227 1.4654984e-38 375 232
0.078156583 0.796 0.011165227 1.4836503e-38 376 232
0.079552241 0.796 0.011165227 1.4375526e-38 377 232
0.080947891 0.796 0.011165227 1.3639052e-38 378 232
0.082343549 0.796 0.011165227 1.2993683e-38 379 232
0.083739199 0.796 0.011165227 1.2629296e-38 380 232
0.085348755 0.79799998 0.011193279 1.5210774e-38 381 232
0.047988731 0.80500001 0.0098800333 1.3826028e-38 354 233
0.049400166 0.80500001 0.0098800333 1.4010419e-38 355 233
0.050811596 0.80500001 0.0098800333 1.4104038e-38 356 233
0.05222303 0.80500001 0.0098800333 1.4380265e-38 357 233
0.053501211 0.80299997 0.0098554865 1.4748312e-38 358 233
0.054840758 0.80199999 0.0098432126 1.4748312e-38 359 233
0.056106664 0.80000001 0.0098186666 1.5669176e-38 360 233
0.057365555 0.79799998 0.0097941197 1.6037599e-38 361 233
0.058617435 0.796 0.0097695729 1.6314193e-38 362 233
0.060013093 0.796 0.0097695729 1.6498584e-38 363 233
0.061408747 0.796 0.0097695729 1.6775168e-38 364 233
0.062804401 0.796 0.0097695729 1.6775168e-38 365 233
0.064200051 0.796 0.0097695729 1.6867364e-38 366 233
0.065595701 0.796 0.0097695729 1.6867364e-38 367 233
0.066991359 0.796 0.0097695729 1.7143225e-38 368 233
0.068387017 0.796 0.0097695729 1.6959194e-38 369 233
0.069607332 0.79400003 0.0097450269 1.7050296e-38 370 233
0.070999481 0.79400003 0.0097450269 1.6865546e-38 371 233
0.072391629 0.79400003 0.0097450269 1.6771905e-38 372 233
0.073969625 0.796 0.0097695729 1.6310928e-38 373 233
0.075365283 0.796 0.0097695729 1.5849927e-38 374 233
0.076760925 0.796 0.0097695729 1.5389308e-38 375 233
0.078156583 0.796 0.0097695729 1.5112345e-38 376 233
0.079552241 0.796 0.0097695729 1.4651367e-38 377 233
0.080947891 0.796 0.0097695729 1.4191133e-38 378 233
0.082136653 0.79400003 0.0097450269 1.3269178e-38 379 233
0.083528802 0.79400003 0.0097450269 1.2443459e-38 380 233
0.047988731 0.80500001 0.0084686 1.3182107e-38 354 234
0.049400166 0.80500001 0.0084686 1.4011508e-38 355 234
0.050811596 0.80500001 0.0084686 1.4286986e-38 356 234
0.05222303 0.80500001 0.0084686 1.4563214e-38 357 234
0.053501211 0.80299997 0.0084475596 1.4930552e-38 358 234
0.054840758 0.80199999 0.0084370393 1.5207498e-38 359 234
0.056106664 0.80000001 0.0084159998 1.5943612e-38 360 234
0.057365555 0.79799998 0.0083949603 1.6220198e-38 361 234
0.058617435 0.796 0.0083739199 1.6497136e-38 362 234
0.060013093 0.796 0.0083739199 1.6865918e-38 363 234
0.061408747 0.796 0.0083739199 1.6958116e-38 364 234
0.062646598 0.79400003 0.0083528794 1.7050313e-38 365 234
0.064038746 0.79400003 0.0083528794 1.695955e-38 366 234
0.065430894 0.79400003 0.0083528794 1.695955e-38 367 234
0.066823035 0.79400003 0.0083528794 1.6959547e-38 368 234
0.068215191 0.79400003 0.0083528794 1.6959547e-38 369 234
0.069607332 0.79400003 0.0083528794 1.6867347e-38 370 234
0.070999481 0.79400003 0.0083528794 1.659076e-38 371 234
0.072391629 0.79400003 0.0083528794 1.6588945e-38 372 234
0.07378377 0.79400003 0.0083528794 1.6127969e-38 373 234
0.075175926 0.79400003 0.0083528794 1.5760614e-38 374 234
0.076568067 0.79400003 0.0083528794 1.5115245e-38 375 234
0.077960216 0.79400003 0.0083528794 1.4838299e-38 376 234
0.079352364 0.79400003 0.0083528794 1.4377321e-38 377 234
0.080744505 0.79400003 0.0083528794 1.409931e-38 378 234
0.082136653 0.79400003 0.0083528794 1.3730169e-38 379 234
0.083318397 0.792 0.0083318399 1.2993746e-38 380 234
0.084707037 0.792 0.0083318399 1.419193e-38 381 234
0.047988731 0.80500001 0.0070571667 1.2812967e-38 354 235
0.049400166 0.80500001 0.0070571667 1.3827121e-38 355 235
0.050685357 0.80299997 0.0070396326 1.4562493e-38 356 235
0.052093282 0.80299997 0.0070396326 1.4655047e-38 357 235
0.053434584 0.80199999 0.0070308661 1.4746887e-38 358 235
0.054703999 0.80000001 0.007013333 1.5023472e-38 359 235
0.056106664 0.80000001 0.007013333 1.5576277e-38 360 235
0.057221789 0.796 0.0069782664 1.5760669e-38 361 235
0.058617435 0.796 0.0069782664 1.6129802e-38 362 235
0.059862308 0.79400003 0.0069607338 1.6406388e-38 363 235
0.061254453 0.79400003 0.0069607338 1.6774448e-38 364 235
0.062646598 0.79400003 0.0069607338 1.6866645e-38 365 235
0.063877434 0.792 0.0069431998 1.695955e-38 366 235
0.065266073 0.792 0.0069431998 1.695955e-38 367 235
0.066654719 0.792 0.0069431998 1.6959547e-38 368 235
0.068043359 0.792 0.0069431998 1.6959547e-38 369 235
0.069431998 0.792 0.0069431998 1.7051015e-38 370 235
0.070820637 0.792 0.0069431998 1.6866265e-38 371 235
0.072209276 0.792 0.0069431998 1.6682212e-38 372 235
0.073597915 0.792 0.0069431998 1.6129038e-38 373 235
0.075175926 0.79400003 0.0069607338 1.612722e-38 374 235
0.076568067 0.79400003 0.0069607338 1.5666601e-38 375 235
0.077763841 0.792 0.0069431998 1.5113791e-38 376 235
0.07915248 0.792 0.0069431998 1.4653172e-38 377 235
0.080744505 0.79400003 0.0069607338 1.4558485e-38 378 235
0.082136653 0.79400003 0.0069607338 1.4282257e-38 379 235
0.083318397 0.792 0.0069431998 1.3177762e-38 380 235
0.084493138 0.79000002 0.0069256667 1.3177762e-38 381 235
0.08587826 0.79000002 0.0069256667 1.346306e-38 382 235
0.047869503 0.80299997 0.0056317062 1.2537103e-38 354 236
0.049277432 0.80299997 0.0056317062 1.3550895e-38 355 236
0.050685357 0.80299997 0.0056317062 1.4562495e-38 356 236
0.052093282 0.80299997 0.0056317062 1.4654691e-38 357 236
0.053434584 0.80199999 0.0056246929 1.4746887e-38 358 236
0.054703999 0.80000001 0.0056106667 1.5023472e-38 359 236
0.056106664 0.80000001 0.0056106667 1.5300416e-38 360 236
0.057221789 0.796 0.0055826134 1.5668839e-38 361 236
0.058617435 0.796 0.0055826134 1.6128728e-38 362 236
0.059862308 0.79400003 0.0055685868 1.6497152e-38 363 236
0.061254453 0.79400003 0.0055685868 1.6682252e-38 364 236
0.062488798 0.792 0.0055545596 1.6866645e-38 365 236
0.063877434 0.792 0.0055545596 1.6959194e-38 366 236
0.065266073 0.792 0.0055545596 1.6959194e-38 367 236
0.066654719 0.792 0.0055545596 1.7235055e-38 368 236
0.068043359 0.792 0.0055545596 1.7235055e-38 369 236
0.069256663 0.79000002 0.0055405335 1.7143215e-38 370 236
0.070641801 0.79000002 0.0055405335 1.6958464e-38 371 236
0.072026931 0.79000002 0.0055405335 1.6683293e-38 372 236
0.073597915 0.792 0.0055545596 1.6037924e-38 373 236
0.074986562 0.792 0.0055545596 1.6219419e-38 374 236
0.076568067 0.79400003 0.0055685868 1.5850276e-38 375 236
0.077763841 0.792 0.0055545596 1.5205993e-38 376 236
0.07915248 0.792 0.0055545596 1.4929046e-38 377 236
0.080744505 0.79400003 0.0055685868 1.4651034e-38 378 236
0.082136653 0.79400003 0.0055685868 1.4374806e-38 379 236
0.083318397 0.792 0.0055545596 1.3637999e-38 380 236
0.084493138 0.79000002 0.0055405335 1.2808238e-38 381 236
0.08587826 0.79000002 0.0055405335 1.2816595e-38 382 236
0.047869503 0.80299997 0.0042237798 1.2352358e-38 354 237
0.049277432 0.80299997 0.0042237798 1.3366511e-38 355 237
0.050685357 0.80299997 0.0042237798 1.4286277e-38 356 237
0.052093282 0.80299997 0.0042237798 1.4378833e-38 357 237
0.053501211 0.80299997 0.0042237798 1.4655413e-38 358 237
0.054703999 0.80000001 0.0042079999 1.4747608e-38 359 237
0.056106664 0.80000001 0.0042079999 1.5115665e-38 360 237
0.057221789 0.796 0.0041869599 1.5484808e-38 361 237
0.058617435 0.796 0.0041869599 1.6037249e-38 362 237
0.059862308 0.79400003 0.0041764397 1.6314196e-38 363 237
0.061100159 0.792 0.00416592 1.6682249e-38 364 237
0.062488798 0.792 0.00416592 1.6867001e-38 365 237
0.063877434 0.792 0.00416592 1.6867717e-38 366 237
0.065266073 0.792 0.00416592 1.6867717e-38 367 237
0.066654719 0.792 0.00416592 1.6959194e-38 368 237
0.067871533 0.79000002 0.0041554002 1.7143225e-38 369 237
0.069256663 0.79000002 0.0041554002 1.7143934e-38 370 237
0.070641801 0.79000002 0.0041554002 1.6867347e-38 371 237
0.072026931 0.79000002 0.0041554002 1.6867325e-38 372 237
0.073412068 0.79000002 0.0041554002 1.6314151e-38 373 237
0.074797198 0.79000002 0.0041554002 1.6128668e-38 374 237
0.076375201 0.792 0.00416592 1.5759885e-38 375 237
0.077763841 0.792 0.00416592 1.529891e-38 376 237
0.07915248 0.792 0.00416592 1.4930129e-38 377 237
0.080541119 0.792 0.00416592 1.4835784e-38 378 237
0.082136653 0.79400003 0.0041764397 1.4558838e-38 379 237
0.083528802 0.79400003 0.0041764397 1.3822017e-38 380 237
0.084707037 0.792 0.00416592 1.3084452e-38 381 237
0.086095676 0.792 0.00416592 1.2814059e-38 382 237
0.087926157 0.796 0.0041869599 1.5211145e-38 383 237
0.049400166 0.80500001 0.0028228667 1.3182132e-38 355 238
0.050685357 0.80299997 0.0028158531 1.3642725e-38 356 238
0.052093282 0.80299997 0.0028158531 1.4011508e-38 357 238
0.053501211 0.80299997 0.0028158531 1.4563217e-38 358 238
0.054840758 0.80199999 0.0028123464 1.4839804e-38 359 238
0.056246929 0.80199999 0.0028123464 1.5116015e-38 360 238
0.057365555 0.79799998 0.0027983198 1.5392962e-38 361 238
0.058322877 0.792 0.0027772798 1.5853933e-38 362 238
0.059711516 0.792 0.0027772798 1.6038685e-38 363 238
0.060945868 0.79000002 0.0027702667 1.649894e-38 364 238
0.062330995 0.79000002 0.0027702667 1.6775168e-38 365 238
0.063716128 0.79000002 0.0027702667 1.6775165e-38 366 238
0.065101266 0.79000002 0.0027702667 1.686772e-38 367 238
0.066486403 0.79000002 0.0027702667 1.6867717e-38 368 238
0.067871533 0.79000002 0.0027702667 1.6867717e-38 369 238
0.069256663 0.79000002 0.0027702667 1.7143215e-38 370 238
0.070552371 0.78899997 0.0027667598 1.7050659e-38 371 238
0.071935758 0.78899997 0.0027667598 1.6867325e-38 372 238
0.07331913 0.78899997 0.0027667598 1.6406346e-38 373 238
0.074702516 0.78899997 0.0027667598 1.6404533e-38 374 238
0.076085895 0.78899997 0.0027667598 1.5943555e-38 375 238
0.077567466 0.79000002 0.0027702667 1.5483303e-38 376 238
0.078952603 0.79000002 0.0027702667 1.511416e-38 377 238
0.080337733 0.79000002 0.0027702667 1.511057e-38 378 238
0.081929758 0.792 0.0027772798 1.4833983e-38 379 238
0.083528802 0.79400003 0.0027842934 1.4188992e-38 380 238
0.08492095 0.79400003 0.0027842934 1.3727654e-38 381 238
0.086313091 0.79400003 0.0027842934 1.2995205e-38 382 238
0.087926157 0.796 0.0027913067 1.4655085e-38 383 238
0.049400166 0.80500001 0.0014114333 1.2170504e-38 355 239
0.050685357 0.80299997 0.0014079266 1.3825321e-38 356 239
0.052093282 0.80299997 0.0014079266 1.42863e-38 357 239
0.053501211 0.80299997 0.0014079266 1.4655057e-38 358 239
0.054840758 0.80199999 0.0014061732 1.4839807e-38 359 239
0.056246929 0.80199999 0.0014061732 1.5115299e-38 360 239
0.057221789 0.796 0.0013956534 1.5484082e-38 361 239
0.058322877 0.792 0.0013886399 1.5761019e-38 362 239
0.059560735 0.79000002 0.0013851334 1.6221997e-38 363 239
0.060945868 0.79000002 0.0013851334 1.6681531e-38 364 239
0.062330995 0.79000002 0.0013851334 1.6865562e-38 365 239
0.063716128 0.79000002 0.0013851334 1.7049957e-38 366 239
0.065101266 0.79000002 0.0013851334 1.7049957e-38 367 239
0.066402234 0.78899997 0.0013833799 1.6959196e-38 368 239
0.067785613 0.78899997 0.0013833799 1.6959196e-38 369 239
0.069168992 0.78899997 0.0013833799 1.6959547e-38 370 239
0.070552371 0.78899997 0.0013833799 1.686735e-38 371 239
0.071935758 0.78899997 0.0013833799 1.6775149e-38 372 239
0.07331913 0.78899997 0.0013833799 1.6222333e-38 373 239
0.074702516 0.78899997 0.0013833799 1.6312726e-38 374 239
0.076085895 0.78899997 0.0013833799 1.5759911e-38 375 239
0.077469274 0.78899997 0.0013833799 1.5574442e-38 376 239
0.078852654 0.78899997 0.0013833799 1.5297853e-38 377 239
0.080236033 0.78899997 0.0013833799 1.5112738e-38 378 239
0.081722863 0.79000002 0.0013851334 1.4467368e-38 379 239
0.083318397 0.792 0.0013886399 1.400604e-38 380 239
0.084707037 0.792 0.0013886399 1.3729453e-38 381 239
0.086095676 0.792 0.0013886399 1.2443103e-38 382 239
0.08770524 0.79400003 0.0013921467 1.3457615e-38 383 239
0.049400166 0.80500001 -0 1.2353822e-38 355 240
0.050685357 0.80299997 -0 1.3274318e-38 356 240
0.05202841 0.80199999 -0 1.3734938e-38 357 240
0.053434584 0.80199999 -0 1.4378843e-38 358 240
0.054840758 0.80199999 -0 1.4563593e-38 359 240
0.056106664 0.80000001 -0 1.4932e-38 360 240
0.057221789 0.796 -0 1.5300782e-38 361 240
0.058322877 0.792 -0 1.5486243e-38 362 240
0.059560735 0.79000002 -0 1.5670994e-38 363 240
0.060868718 0.78899997 -0 1.6314912e-38 364 240
0.062252093 0.78899997 -0 1.6499303e-38 365 240
0.063635476 0.78899997 -0 1.6957763e-38 366 240
0.065018855 0.78899997 -0 1.704996e-38 367 240
0.066402234 0.78899997 -0 1.686772e-38 368 240
0.067785613 0.78899997 -0 1.6959915e-38 369 240
0.068993665 0.787 -0 1.6959547e-38 370 240
0.070373543 0.787 -0 1.686735e-38 371 240
0.071753412 0.787 -0 1.714141e-38 372 240
0.073133282 0.787 -0 1.6772988e-38 373 240
0.07451316 0.787 -0 1.6588224e-38 374 240
0.07589303 0.787 -0 1.6219081e-38 375 240
0.077272899 0.787 -0 1.6034321e-38 376 240
0.078652777 0.787 -0 1.5573702e-38 377 240
0.080236033 0.78899997 -0 1.511381e-38 378 240
0.081619412 0.78899997 -0 1.4560636e-38 379 240
0.083108 0.79000002 -0 1.4464512e-38 380 240
0.084493138 0.79000002 -0 1.4188286e-38 381 240
0.08587826 0.79000002 -0 1.2808999e-38 382 240
0.087484315 0.792 -0 1.299339e-38 383 240
0.088872954 0.792 -0 1.4108433e-38 384 240
0.050685357 0.80299997 -0.0014079266 1.3732054e-38 356 241
0.05202841 0.80199999 -0.0014061732 1.4377423e-38 357 241
0.053434584 0.80199999 -0.0014061732 1.4654706e-38 358 241
0.054840758 0.80199999 -0.0014061732 1.4839456e-38 359 241
0.05568587 0.79400003 -0.0013921467 1.5115312e-38 360 241
0.056934237 0.792 -0.0013886399 1.5392259e-38 361 241
0.058322877 0.792 -0.0013886399 1.5761385e-38 362 241
0.059560735 0.79000002 -0.0013851334 1.6038332e-38 363 241
0.060868718 0.78899997 -0.0013833799 1.6497858e-38 364 241
0.062252093 0.78899997 -0.0013833799 1.6682249e-38 365 241
0.063635476 0.78899997 -0.0013833799 1.6958116e-38 366 241
0.065018855 0.78899997 -0.0013833799 1.6958116e-38 367 241
0.066402234 0.78899997 -0.0013833799 1.6959196e-38 368 241
0.067613788 0.787 -0.0013798733 1.6867001e-38 369 241
0.068993665 0.787 -0.0013798733 1.695955e-38 370 241
0.070373543 0.787 -0.0013798733 1.6866994e-38 371 241
0.071753412 0.787 -0.0013798733 1.6958464e-38 372 241
0.073133282 0.787 -0.0013798733 1.6590041e-38 373 241
0.07451316 0.787 -0.0013798733 1.640528e-38 374 241
0.07589303 0.787 -0.0013798733 1.6036139e-38 375 241
0.077272899 0.787 -0.0013798733 1.5850671e-38 376 241
0.078652777 0.787 -0.0013798733 1.5482249e-38 377 241
0.080032654 0.787 -0.0013798733 1.5112753e-38 378 241
0.081619412 0.78899997 -0.0013833799 1.4836526e-38 379 241
0.083002798 0.78899997 -0.0013833799 1.4098608e-38 380 241
0.084493138 0.79000002 -0.0013851334 1.3914216e-38 381 241
0.08587826 0.79000002 -0.0013851334 1.2899727e-38 382 241
0.087484315 0.792 -0.0013886399 1.2531305e-38 383 241
0.088872954 0.792 -0.0013886399 1.3737834e-38 384 241
0.052093282 0.80299997 -0.0028158531 1.4010083e-38 357 242
0.053501211 0.80299997 -0.0028158531 1.4654353e-38 358 242
0.054430481 0.796 -0.0027913067 1.4839103e-38 359 242
0.05568587 0.79400003 -0.0027842934 1.5024199e-38 360 242
0.056934237 0.792 -0.0027772798 1.5300426e-38 361 242
0.058175597 0.79000002 -0.0027702667 1.5668836e-38 362 242
0.059560735 0.79000002 -0.0027702667 1.5945783e-38 363 242
0.060868718 0.78899997 -0.0027667598 1.6314193e-38 364 242
0.062252093 0.78899997 -0.0027667598 1.6498584e-38 365 242
0.063635476 0.78899997 -0.0027667598 1.695776e-38 366 242
0.064854041 0.787 -0.0027597465 1.695776e-38 367 242
0.066233918 0.787 -0.0027597465 1.6775165e-38 368 242
0.067613788 0.787 -0.0027597465 1.686772e-38 369 242
0.068818331 0.78500003 -0.0027527334 1.6866994e-38 370 242
0.070194699 0.78500003 -0.0027527334 1.6866994e-38 371 242
0.071571067 0.78500003 -0.0027527334 1.6958817e-38 372 242
0.072947428 0.78500003 -0.0027527334 1.6590036e-38 373 242
0.074323803 0.78500003 -0.0027527334 1.6405274e-38 374 242
0.075700171 0.78500003 -0.0027527334 1.6128687e-38 375 242
0.077076539 0.78500003 -0.0027527334 1.6126888e-38 376 242
0.0784529 0.78500003 -0.0027527334 1.5665911e-38 377 242
0.079829268 0.78500003 -0.0027527334 1.5205658e-38 378 242
0.081412524 0.787 -0.0027597465 1.4836877e-38 379 242
0.082792401 0.787 -0.0027597465 1.4374822e-38 380 242
0.08438617 0.78899997 -0.0027667598 1.400604e-38 381 242
0.08587826 0.79000002 -0.0027702667 1.3175225e-38 382 242
0.087263398 0.79000002 -0.0027702667 1.243766e-38 383 242
0.088648535 0.79000002 -0.0027702667 1.3549841e-38 384 242
0.090033665 0.79000002 -0.0027702667 1.5855092e-38 385 242
0.054293722 0.79400003 -0.0041764397 1.4931302e-38 359 243
0.055545598 0.792 -0.00416592 1.5024199e-38 360 243
0.056934237 0.792 -0.00416592 1.5208231e-38 361 243
0.058175597 0.79000002 -0.0041554002 1.5484805e-38 362 243
0.059485335 0.78899997 -0.0041501396 1.5853586e-38 363 243
0.060868718 0.78899997 -0.0041501396 1.6497508e-38 364 243
0.062094301 0.787 -0.0041396199 1.6589703e-38 365 243
0.063474171 0.787 -0.0041396199 1.6865562e-38 366 243
0.064854041 0.787 -0.0041396199 1.6958116e-38 367 243
0.066065602 0.78500003 -0.0041291001 1.6866994e-38 368 243
0.067441963 0.78500003 -0.0041291001 1.6866994e-38 369 243
0.068818331 0.78500003 -0.0041291001 1.6959194e-38 370 243
0.070015855 0.78299999 -0.0041185799 1.6866998e-38 371 243
0.071388714 0.78299999 -0.0041185799 1.7050662e-38 372 243
0.07276158 0.78299999 -0.0041185799 1.6681881e-38 373 243
0.074134432 0.78299999 -0.0041185799 1.6681508e-38 374 243
0.075507298 0.78299999 -0.0041185799 1.622053e-38 375 243
0.076880157 0.78299999 -0.0041185799 1.6035418e-38 376 243
0.078253016 0.78299999 -0.0041185799 1.5574442e-38 377 243
0.079625882 0.78299999 -0.0041185799 1.5389696e-38 378 243
0.081205636 0.78500003 -0.0041291001 1.5113109e-38 379 243
0.082582004 0.78500003 -0.0041291001 1.4559216e-38 380 243
0.084172271 0.787 -0.0041396199 1.4006043e-38 381 243
0.085769556 0.78899997 -0.0041501396 1.3451086e-38 382 243
0.087152928 0.78899997 -0.0041501396 1.2897913e-38 383 243
0.088648535 0.79000002 -0.0041554002 1.2997377e-38 384 243
0.090033665 0.79000002 -0.0041554002 1.5117878e-38 385 243
0.054293722 0.79400003 -0.0055685868 1.4838747e-38 359 244
0.055545598 0.792 -0.0055545596 1.5115315e-38 360 244
0.056934237 0.792 -0.0055545596 1.5207512e-38 361 244
0.058175597 0.79000002 -0.0055405335 1.5575924e-38 362 244
0.059485335 0.78899997 -0.0055335197 1.6036901e-38 363 244
0.06071442 0.787 -0.005519493 1.6221641e-38 364 244
0.062094301 0.787 -0.005519493 1.6406391e-38 365 244
0.063312866 0.78500003 -0.0055054668 1.6865918e-38 366 244
0.064689234 0.78500003 -0.0055054668 1.6865918e-38 367 244
0.065897278 0.78299999 -0.0054914397 1.6866994e-38 368 244
0.067270137 0.78299999 -0.0054914397 1.6866994e-38 369 244
0.068643004 0.78299999 -0.0054914397 1.686772e-38 370 244
0.070015855 0.78299999 -0.0054914397 1.6775165e-38 371 244
0.071388714 0.78299999 -0.0054914397 1.7233977e-38 372 244
0.07276158 0.78299999 -0.0054914397 1.6865196e-38 373 244
0.074134432 0.78299999 -0.0054914397 1.649784e-38 374 244
0.075507298 0.78299999 -0.0054914397 1.6221252e-38 375 244
0.076880157 0.78299999 -0.0054914397 1.5852826e-38 376 244
0.078253016 0.78299999 -0.0054914397 1.5391848e-38 377 244
0.079625882 0.78299999 -0.0054914397 1.5389696e-38 378 244
0.081205636 0.78500003 -0.0055054668 1.5113109e-38 379 244
0.082582004 0.78500003 -0.0055054668 1.4559579e-38 380 244
0.083958365 0.78500003 -0.0055054668 1.4098961e-38 381 244
0.085552141 0.787 -0.005519493 1.3360691e-38 382 244
0.086932018 0.787 -0.005519493 1.2807519e-38 383 244
0.088536315 0.78899997 -0.0055335197 1.2629312e-38 384 244
0.089919694 0.78899997 -0.0055335197 1.4289193e-38 385 244
0.054293722 0.79400003 -0.0069607338 1.4655791e-38 359 245
0.055545598 0.792 -0.0069431998 1.5024197e-38 360 245
0.056934237 0.792 -0.0069431998 1.5024197e-38 361 245
0.05810196 0.78899997 -0.0069168997 1.5484452e-38 362 245
0.059485335 0.78899997 -0.0069168997 1.5761037e-38 363 245
0.06071442 0.787 -0.0068993662 1.6038329e-38 364 245
0.061936498 0.78500003 -0.0068818335 1.6314914e-38 365 245
0.063312866 0.78500003 -0.0068818335 1.6682605e-38 366 245
0.064524412 0.78299999 -0.0068642995 1.6774801e-38 367 245
0.065897278 0.78299999 -0.0068642995 1.6866998e-38 368 245
0.067270137 0.78299999 -0.0068642995 1.6959194e-38 369 245
0.068643004 0.78299999 -0.0068642995 1.6959196e-38 370 245
0.070015855 0.78299999 -0.0068642995 1.6959196e-38 371 245
0.071206369 0.78100002 -0.0068467669 1.704994e-38 372 245
0.072575726 0.78100002 -0.0068467669 1.6957745e-38 373 245
0.074134432 0.78299999 -0.0068642995 1.6681505e-38 374 245
0.075507298 0.78299999 -0.0068642995 1.6313082e-38 375 245
0.076880157 0.78299999 -0.0068642995 1.6036136e-38 376 245
0.078253016 0.78299999 -0.0068642995 1.5667712e-38 377 245
0.079625882 0.78299999 -0.0068642995 1.5573361e-38 378 245
0.080998734 0.78299999 -0.0068642995 1.5112385e-38 379 245
0.0823716 0.78299999 -0.0068642995 1.5110585e-38 380 245
0.083958365 0.78500003 -0.0068818335 1.455777e-38 381 245
0.085334733 0.78500003 -0.0068818335 1.3544001e-38 382 245
0.086932018 0.787 -0.0068993662 1.3083383e-38 383 245
0.088311888 0.787 -0.0068993662 1.2444202e-38 384 245
0.089691758 0.787 -0.0068993662 1.4011886e-38 385 245
0.053034827 0.796 -0.0083739199 1.4471394e-38 358 246
0.054293722 0.79400003 -0.0083528794 1.4839817e-38 359 246
0.055545598 0.792 -0.0083318399 1.5115665e-38 360 246
0.056934237 0.792 -0.0083318399 1.5300416e-38 361 246
0.05810196 0.78899997 -0.0083002793 1.5576275e-38 362 246
0.059485335 0.78899997 -0.0083002793 1.5760666e-38 363 246
0.06071442 0.787 -0.0082792398 1.6313827e-38 364 246
0.061936498 0.78500003 -0.0082582003 1.6590054e-38 365 246
0.063312866 0.78500003 -0.0082582003 1.6865915e-38 366 246
0.064524412 0.78299999 -0.0082371598 1.695811e-38 367 246
0.065897278 0.78299999 -0.0082371598 1.705031e-38 368 246
0.067270137 0.78299999 -0.0082371598 1.705031e-38 369 246
0.068643004 0.78299999 -0.0082371598 1.7143225e-38 370 246
0.070015855 0.78299999 -0.0082371598 1.6959194e-38 371 246
0.071206369 0.78100002 -0.0082161194 1.6959547e-38 372 246
0.072575726 0.78100002 -0.0082161194 1.6590404e-38 373 246
0.073945075 0.78100002 -0.0082161194 1.6590038e-38 374 246
0.075507298 0.78299999 -0.0082371598 1.6220896e-38 375 246
0.076880157 0.78299999 -0.0082371598 1.5852471e-38 376 246
0.078253016 0.78299999 -0.0082371598 1.5575882e-38 377 246
0.079625882 0.78299999 -0.0082371598 1.5298216e-38 378 246
0.080998734 0.78299999 -0.0082371598 1.502199e-38 379 246
0.0823716 0.78299999 -0.0082371598 1.4651059e-38 380 246
0.083744459 0.78299999 -0.0082371598 1.4374472e-38 381 246
0.085334733 0.78500003 -0.0082582003 1.3269942e-38 382 246
0.086711101 0.78500003 -0.0082582003 1.2900799e-38 383 246
0.088087469 0.78500003 -0.0082582003 1.216509e-38 384 246
0.089691758 0.787 -0.0082792398 1.3732775e-38 385 246
0.053034827 0.796 -0.0097695729 1.4195886e-38 358 247
0.054293722 0.79400003 -0.0097450269 1.4841256e-38 359 247
0.055545598 0.792 -0.0097204801 1.4932356e-38 360 247
0.056790464 0.79000002 -0.0096959332 1.5024553e-38 361 247
0.058175597 0.79000002 -0.0096959332 1.5301135e-38 362 247
0.059485335 0.78899997 -0.0096836593 1.5577722e-38 363 247
0.060560133 0.78500003 -0.0096345674 1.6038329e-38 364 247
0.061936498 0.78500003 -0.0096345674 1.6130525e-38 365 247
0.063312866 0.78500003 -0.0096345674 1.649894e-38 366 247
0.064524412 0.78299999 -0.0096100196 1.6682971e-38 367 247
0.065897278 0.78299999 -0.0096100196 1.6866292e-38 368 247
0.067270137 0.78299999 -0.0096100196 1.6866292e-38 369 247
0.068643004 0.78299999 -0.0096100196 1.6958841e-38 370 247
0.070015855 0.78299999 -0.0096100196 1.6866645e-38 371 247
0.071206369 0.78100002 -0.0095854728 1.704994e-38 372 247
0.072575726 0.78100002 -0.0095854728 1.6957745e-38 373 247
0.073945075 0.78100002 -0.0095854728 1.6772982e-38 374 247
0.075314432 0.78100002 -0.0095854728 1.6496394e-38 375 247
0.076683782 0.78100002 -0.0095854728 1.6219081e-38 376 247
0.078253016 0.78299999 -0.0096100196 1.5850659e-38 377 247
0.079625882 0.78299999 -0.0096100196 1.5573714e-38 378 247
0.080998734 0.78299999 -0.0096100196 1.5112738e-38 379 247
0.0823716 0.78299999 -0.0096100196 1.5202421e-38 380 247
0.083744459 0.78299999 -0.0096100196 1.4557051e-38 381 247
0.08511731 0.78299999 -0.0096100196 1.3820945e-38 382 247
0.086490177 0.78299999 -0.0096100196 1.3360326e-38 383 247
0.088087469 0.78500003 -0.0096345674 1.1704456e-38 384 247
0.08946383 0.78500003 -0.0096345674 1.3087391e-38 385 247
0.054156959 0.792 -0.011109119 1.4748354e-38 359 248
0.055545598 0.792 -0.011109119 1.5024202e-38 360 248
0.056790464 0.79000002 -0.011081067 1.5024202e-38 361 248
0.05810196 0.78899997 -0.011067039 1.5392612e-38 362 248
0.05933455 0.787 -0.011038986 1.5668839e-38 363 248
0.060560133 0.78500003 -0.011010934 1.6221997e-38 364 248
0.061936498 0.78500003 -0.011010934 1.6314193e-38 365 248
0.063151553 0.78299999 -0.010982879 1.6682252e-38 366 248
0.064524412 0.78299999 -0.010982879 1.6682252e-38 367 248
0.065897278 0.78299999 -0.010982879 1.6957763e-38 368 248
0.067270137 0.78299999 -0.010982879 1.6957763e-38 369 248
0.068467662 0.78100002 -0.010954826 1.7049957e-38 370 248
0.069837019 0.78100002 -0.010954826 1.7049957e-38 371 248
0.071206369 0.78100002 -0.010954826 1.7050665e-38 372 248
0.072575726 0.78100002 -0.010954826 1.6681884e-38 373 248
0.073945075 0.78100002 -0.010954826 1.6865181e-38 374 248
0.075314432 0.78100002 -0.010954826 1.6496397e-38 375 248
0.076683782 0.78100002 -0.010954826 1.6036136e-38 376 248
0.078053139 0.78100002 -0.010954826 1.5575517e-38 377 248
0.079422489 0.78100002 -0.010954826 1.5390052e-38 378 248
0.080791846 0.78100002 -0.010954826 1.5205302e-38 379 248
0.0823716 0.78299999 -0.010982879 1.4834724e-38 380 248
0.083744459 0.78299999 -0.010982879 1.4558137e-38 381 248
0.08511731 0.78299999 -0.010982879 1.3546509e-38 382 248
0.086490177 0.78299999 -0.010982879 1.3361759e-38 383 248
0.087863036 0.78299999 -0.010982879 1.2163257e-38 384 248
0.089235894 0.78299999 -0.010982879 1.271643e-38 385 248
0.054156959 0.792 -0.012497759 1.4472493e-38 359 249
0.055405334 0.79000002 -0.0124662 1.5023846e-38 360 249
0.056790464 0.79000002 -0.0124662 1.5023846e-38 361 249
0.05810196 0.78899997 -0.012450419 1.5300782e-38 362 249
0.05933455 0.787 -0.01241886 1.5577369e-38 363 249
0.060560133 0.78500003 -0.0123873 1.6221644e-38 364 249
0.061936498 0.78500003 -0.0123873 1.631384e-38 365 249
0.063151553 0.78299999 -0.012355739 1.6682255e-38 366 249
0.064524412 0.78299999 -0.012355739 1.6682255e-38 367 249
0.065728955 0.78100002 -0.01232418 1.6774451e-38 368 249
0.067098312 0.78100002 -0.01232418 1.6774451e-38 369 249
0.068467662 0.78100002 -0.01232418 1.6774451e-38 370 249
0.069837019 0.78100002 -0.01232418 1.6866648e-38 371 249
0.071206369 0.78100002 -0.01232418 1.7049946e-38 372 249
0.072482795 0.77999997 -0.012308398 1.6957392e-38 373 249
0.073850393 0.77999997 -0.012308398 1.6681508e-38 374 249
0.075314432 0.78100002 -0.01232418 1.6312726e-38 375 249
0.076683782 0.78100002 -0.01232418 1.6311281e-38 376 249
0.078053139 0.78100002 -0.01232418 1.5850303e-38 377 249
0.079422489 0.78100002 -0.01232418 1.5665558e-38 378 249
0.080791846 0.78100002 -0.01232418 1.5204939e-38 379 249
0.082161196 0.78100002 -0.01232418 1.4835077e-38 380 249
0.083530553 0.78100002 -0.01232418 1.4374099e-38 381 249
0.084899902 0.78100002 -0.01232418 1.3821651e-38 382 249
0.086269259 0.78100002 -0.01232418 1.3636901e-38 383 249
0.087638609 0.78100002 -0.01232418 1.2254729e-38 384 249
0.088893995 0.77999997 -0.012308398 1.2346925e-38 385 249
0.090261593 0.77999997 -0.012308398 1.4566884e-38 386 249
0.054293722 0.79400003 -0.013921468 1.4105151e-38 359 250
0.055405334 0.79000002 -0.013851333 1.5023849e-38 360 250
0.056790464 0.79000002 -0.013851333 1.520788e-38 361 250
0.058175597 0.79000002 -0.013851333 1.5392981e-38 362 250
0.059485335 0.78899997 -0.013833799 1.5577372e-38 363 250
0.060560133 0.78500003 -0.013763667 1.6221647e-38 364 250
0.061778698 0.78299999 -0.013728599 1.6313842e-38 365 250
0.063151553 0.78299999 -0.013728599 1.6590057e-38 366 250
0.064359605 0.78100002 -0.013693534 1.6590057e-38 367 250
0.065728955 0.78100002 -0.013693534 1.6682252e-38 368 250
0.067098312 0.78100002 -0.013693534 1.6774448e-38 369 250
0.068379998 0.77999997 -0.013675999 1.7049957e-38 370 250
0.069747597 0.77999997 -0.013675999 1.7049957e-38 371 250
0.071115196 0.77999997 -0.013675999 1.7050665e-38 372 250
0.072482795 0.77999997 -0.013675999 1.6865915e-38 373 250
0.073850393 0.77999997 -0.013675999 1.6681508e-38 374 250
0.075217992 0.77999997 -0.013675999 1.6312726e-38 375 250
0.076585598 0.77999997 -0.013675999 1.6127969e-38 376 250
0.078053139 0.78100002 -0.013693534 1.5851022e-38 377 250
0.079422489 0.78100002 -0.013693534 1.5665561e-38 378 250
0.080791846 0.78100002 -0.013693534 1.5204583e-38 379 250
0.082161196 0.78100002 -0.013693534 1.483508e-38 380 250
0.083530553 0.78100002 -0.013693534 1.4558135e-38 381 250
0.084899902 0.78100002 -0.013693534 1.3913847e-38 382 250
0.086269259 0.78100002 -0.013693534 1.3544704e-38 383 250
0.087638609 0.78100002 -0.013693534 1.2346925e-38 384 250
0.088666067 0.778 -0.013640933 1.2070698e-38 385 250
0.090030156 0.778 -0.013640933 1.4381776e-38 386 250
0.054293722 0.79400003 -0.015313613 1.438066e-38 359 251
0.055545598 0.792 -0.01527504 1.5114962e-38 360 251
0.056790464 0.79000002 -0.015236467 1.5207159e-38 361 251
0.058175597 0.79000002 -0.015236467 1.5392256e-38 362 251
0.059485335 0.78899997 -0.015217179 1.5668842e-38 363 251
0.060405839 0.78299999 -0.01510146 1.6129802e-38 364 251
0.061778698 0.78299999 -0.01510146 1.6221997e-38 365 251
0.062990256 0.78100002 -0.015062887 1.6314546e-38 366 251
0.064359605 0.78100002 -0.015062887 1.6314546e-38 367 251
0.065644793 0.77999997 -0.0150436 1.6590054e-38 368 251
0.067012392 0.77999997 -0.0150436 1.6682249e-38 369 251
0.068204664 0.778 -0.015005025 1.6958116e-38 370 251
0.069568761 0.778 -0.015005025 1.7050313e-38 371 251
0.07093285 0.778 -0.015005025 1.7050665e-38 372 251
0.072296947 0.778 -0.015005025 1.695811e-38 373 251
0.073661037 0.778 -0.015005025 1.6590757e-38 374 251
0.075025134 0.778 -0.015005025 1.6129779e-38 375 251
0.076389223 0.778 -0.015005025 1.6128334e-38 376 251
0.077953197 0.77999997 -0.0150436 1.5759911e-38 377 251
0.079320796 0.77999997 -0.0150436 1.5665558e-38 378 251
0.080688395 0.77999997 -0.0150436 1.5297135e-38 379 251
0.082055993 0.77999997 -0.0150436 1.4835443e-38 380 251
0.083423592 0.77999997 -0.0150436 1.4374825e-38 381 251
0.084791191 0.77999997 -0.0150436 1.3822017e-38 382 251
0.086158797 0.77999997 -0.0150436 1.3453236e-38 383 251
0.08730197 0.778 -0.015005025 1.2163257e-38 384 251
0.088438138 0.77600002 -0.014966453 1.1978865e-38 385 251
0.089798726 0.77600002 -0.014966453 1.3830404e-38 386 251
0.054430481 0.796 -0.01674784 1.4471056e-38 359 252
0.055405334 0.79000002 -0.016621601 1.4931649e-38 360 252
0.056718577 0.78899997 -0.016600559 1.5023846e-38 361 252
0.05810196 0.78899997 -0.016600559 1.5208587e-38 362 252
0.05933455 0.787 -0.01655848 1.5392978e-38 363 252
0.060405839 0.78299999 -0.01647432 1.5853936e-38 364 252
