# .PCD v.7 - Point Cloud Data file format
FIELDS x y z rgb imX imY
SIZE 4 4 4 4 4 4
TYPE F F F F F F
COUNT 1 1 1 1 1 1
WIDTH 850
HEIGHT 1
VIEWPOINT 0 0 0 1 0 0 0
POINTS 850
DATA ascii
0.04262178 0.65700001 -0.099066831 1.6953441e-38 357 326
0.043773718 0.65700001 -0.099066831 1.7045271e-38 358 326
0.04492566 0.65700001 -0.099066831 1.6953076e-38 359 326
0.04614773 0.65799999 -0.099217616 1.7136744e-38 360 326
0.047301427 0.65799999 -0.099217616 1.7136744e-38 361 326
0.048455119 0.65799999 -0.099217616 1.6769763e-38 362 326
0.049608808 0.65799999 -0.099217616 1.6677568e-38 363 326
0.050762504 0.65799999 -0.099217616 1.6677212e-38 364 326
0.051916201 0.65799999 -0.099217616 1.649282e-38 365 326
0.05306989 0.65799999 -0.099217616 1.6400626e-38 366 326
0.054305989 0.65899998 -0.099368408 1.6308072e-38 367 326
0.055461437 0.65899998 -0.099368408 1.6124397e-38 368 326
0.056788713 0.66100001 -0.099669985 1.6032201e-38 369 326
0.058035329 0.662 -0.09982077 1.5940003e-38 370 326
0.05919604 0.662 -0.09982077 1.6032198e-38 371 326
0.060356744 0.662 -0.09982077 1.5571939e-38 372 326
0.061517447 0.662 -0.09982077 1.5571939e-38 373 326
0.062678158 0.662 -0.09982077 1.5755254e-38 374 326
0.063838862 0.662 -0.09982077 1.5755254e-38 375 326
0.064999565 0.662 -0.09982077 1.5295725e-38 376 326
0.066160277 0.662 -0.09982077 1.5203529e-38 377 326
0.067320988 0.662 -0.09982077 1.5203532e-38 378 326
0.068688579 0.66399997 -0.10012234 1.5111336e-38 379 326
0.069852799 0.66399997 -0.10012234 1.4561034e-38 380 326
0.071017005 0.66399997 -0.10012234 1.4561034e-38 381 326
0.072507344 0.667 -0.1005747 1.4468833e-38 382 326
0.073676817 0.667 -0.1005747 1.4376636e-38 383 326
0.07484629 0.667 -0.1005747 1.4101125e-38 384 326
0.076129727 0.66799998 -0.10072549 1.3916734e-38 385 326
0.077532403 0.67000002 -0.10102707 1.3548671e-38 386 326
0.078824602 0.671 -0.10117785 1.2627074e-38 387 326
0.080001086 0.671 -0.10117785 1.1522537e-38 388 326
0.08129856 0.67199999 -0.10132863 1.0969363e-38 389 326
0.082476802 0.67199999 -0.10132863 9.6808158e-39 390 326
0.083904013 0.67400002 -0.10163021 9.4042275e-39 391 326
0.085085757 0.67400002 -0.10163021 7.7458174e-39 392 326
0.086267509 0.67400002 -0.10163021 7.4692305e-39 393 326
0.087449253 0.67400002 -0.10163021 1.2264883e-38 394 326
0.088631004 0.67400002 -0.10163021 1.7520034e-38 395 326
-0.061450824 0.67400002 -0.10281195 1.3271036e-38 268 327
-0.060090236 0.67199999 -0.10250688 1.3271036e-38 269 327
-0.058824331 0.671 -0.10235433 1.336215e-38 270 327
-0.057647847 0.671 -0.10235433 1.2993728e-38 271 327
-0.056387197 0.67000002 -0.1022018 1.317669e-38 272 327
-0.055212468 0.67000002 -0.1022018 1.2715712e-38 273 327
-0.053876422 0.66799998 -0.10189671 1.2071061e-38 274 327
-0.052626297 0.667 -0.10174417 1.3546551e-38 275 327
-0.051456824 0.667 -0.10174417 1.4100421e-38 276 327
-0.050211959 0.66600001 -0.10159164 1.4469204e-38 277 327
-0.04904424 0.66600001 -0.10159164 1.5021286e-38 278 327
-0.047732744 0.66399997 -0.10128655 1.5390069e-38 279 327
-0.046568532 0.66399997 -0.10128655 1.4931258e-38 280 327
-0.045404319 0.66399997 -0.10128655 1.5023454e-38 281 327
-0.044240102 0.66399997 -0.10128655 1.5390441e-38 282 327
-0.043011017 0.66299999 -0.10113402 1.5667027e-38 283 327
-0.041848559 0.66299999 -0.10113402 1.5759218e-38 284 327
-0.04062473 0.662 -0.10098148 1.5759218e-38 285 327
-0.039464023 0.662 -0.10098148 1.5851417e-38 286 327
-0.038303319 0.662 -0.10098148 1.5943612e-38 287 327
-0.037086505 0.66100001 -0.10082894 1.5761022e-38 288 327
-0.035927553 0.66100001 -0.10082894 1.5761022e-38 289 327
-0.0347686 0.66100001 -0.10082894 1.5944337e-38 290 327
-0.033507951 0.65899998 -0.10052385 1.6036532e-38 291 327
-0.032352503 0.65899998 -0.10052385 1.6402423e-38 292 327
-0.031197058 0.65899998 -0.10052385 1.6402423e-38 293 327
-0.030041611 0.65899998 -0.10052385 1.6404221e-38 294 327
-0.028886165 0.65899998 -0.10052385 1.6588253e-38 295 327
-0.027688639 0.65799999 -0.10037132 1.6863051e-38 296 327
-0.026494619 0.65700001 -0.10021878 1.7047442e-38 297 327
-0.025342681 0.65700001 -0.10021878 1.7415498e-38 298 327
-0.024190739 0.65700001 -0.10021878 1.7323303e-38 299 327
-0.023038799 0.65700001 -0.10021878 1.6865567e-38 300 327
-0.021886859 0.65700001 -0.10021878 1.6681536e-38 301 327
-0.020734919 0.65700001 -0.10021878 1.686413e-38 302 327
-0.019582979 0.65700001 -0.10021878 1.7140356e-38 303 327
-0.01843104 0.65700001 -0.10021878 1.7049237e-38 304 327
-0.0172791 0.65700001 -0.10021878 1.7325824e-38 305 327
-0.01612716 0.65700001 -0.10021878 1.6958493e-38 306 327
-0.01497522 0.65700001 -0.10021878 1.7142524e-38 307 327
-0.013823279 0.65700001 -0.10021878 1.7141452e-38 308 327
-0.01267134 0.65700001 -0.10021878 1.7141452e-38 309 327
-0.011519399 0.65700001 -0.10021878 1.7417666e-38 310 327
-0.01036746 0.65700001 -0.10021878 1.7417666e-38 311 327
-0.0092155198 0.65700001 -0.10021878 1.7784654e-38 312 327
-0.0080635799 0.65700001 -0.10021878 1.7784654e-38 313 327
-0.0069116396 0.65700001 -0.10021878 1.760206e-38 314 327
-0.0057596997 0.65700001 -0.10021878 1.760206e-38 315 327
-0.0046077599 0.65700001 -0.10021878 1.7785729e-38 316 327
-0.0034558198 0.65700001 -0.10021878 1.7877924e-38 317 327
-0.0023038799 0.65700001 -0.10021878 1.7785373e-38 318 327
-0.0011484332 0.65499997 -0.099913694 1.7785373e-38 319 327
0 0.65499997 -0.099913694 1.7784659e-38 320 327
0.0011484332 0.65499997 -0.099913694 1.7784659e-38 321 327
0.0022968664 0.65499997 -0.099913694 1.7692827e-38 322 327
0.0034452998 0.65499997 -0.099913694 1.7785022e-38 323 327
0.0045937328 0.65499997 -0.099913694 1.7601707e-38 324 327
0.0057421662 0.65499997 -0.099913694 1.7509512e-38 325 327
0.0068905996 0.65499997 -0.099913694 1.7602063e-38 326 327
0.008039033 0.65499997 -0.099913694 1.7509868e-38 327 327
0.0091874655 0.65499997 -0.099913694 1.7785373e-38 328 327
0.010335899 0.65499997 -0.099913694 1.7693177e-38 329 327
0.011484332 0.65499997 -0.099913694 1.7693162e-38 330 327
0.012632766 0.65499997 -0.099913694 1.7600966e-38 331 327
0.013781199 0.65499997 -0.099913694 1.7693164e-38 332 327
0.014929632 0.65499997 -0.099913694 1.7693164e-38 333 327
0.016078066 0.65499997 -0.099913694 1.7416947e-38 334 327
0.0172791 0.65700001 -0.10021878 1.7509143e-38 335 327
0.01843104 0.65700001 -0.10021878 1.7692445e-38 336 327
0.019582979 0.65700001 -0.10021878 1.7692445e-38 337 327
0.020734919 0.65700001 -0.10021878 1.7325458e-38 338 327
0.021886859 0.65700001 -0.10021878 1.7325458e-38 339 327
0.023038799 0.65700001 -0.10021878 1.7417303e-38 340 327
0.024190739 0.65700001 -0.10021878 1.7324749e-38 341 327
0.025342681 0.65700001 -0.10021878 1.7324046e-38 342 327
0.026494619 0.65700001 -0.10021878 1.7231848e-38 343 327
0.027646558 0.65700001 -0.10021878 1.7322252e-38 344 327
0.028710833 0.65499997 -0.099913694 1.7229697e-38 345 327
0.029859263 0.65499997 -0.099913694 1.7044571e-38 346 327
0.03110238 0.65700001 -0.10021878 1.7044571e-38 347 327
0.03225432 0.65700001 -0.10021878 1.6494271e-38 348 327
0.033406258 0.65700001 -0.10021878 1.6402075e-38 349 327
0.034558199 0.65700001 -0.10021878 1.6126224e-38 350 327
0.03560143 0.65499997 -0.099913694 1.6034028e-38 351 327
0.036749862 0.65499997 -0.099913694 1.5943615e-38 352 327
0.038014017 0.65700001 -0.10021878 1.5759224e-38 353 327
0.039046731 0.65499997 -0.099913694 1.6034719e-38 354 327
0.040195163 0.65499997 -0.099913694 1.6126915e-38 355 327
0.041343596 0.65499997 -0.099913694 1.6309877e-38 356 327
0.04262178 0.65700001 -0.10021878 1.6309877e-38 357 327
0.043773718 0.65700001 -0.10021878 1.6216972e-38 358 327
0.04492566 0.65700001 -0.10021878 1.6216972e-38 359 327
0.046077598 0.65700001 -0.10021878 1.5941466e-38 360 327
0.04722954 0.65700001 -0.10021878 1.6033663e-38 361 327
0.048381478 0.65700001 -0.10021878 1.594146e-38 362 327
0.049533416 0.65700001 -0.10021878 1.5849264e-38 363 327
0.050685361 0.65700001 -0.10021878 1.5756703e-38 364 327
0.051837299 0.65700001 -0.10021878 1.5664507e-38 365 327
0.05306989 0.65799999 -0.10037132 1.5480839e-38 366 327
0.054223582 0.65799999 -0.10037132 1.5388644e-38 367 327
0.055377278 0.65799999 -0.10037132 1.5296447e-38 368 327
0.056616884 0.65899998 -0.10052385 1.5204251e-38 369 327
0.057947662 0.66100001 -0.10082894 1.5203898e-38 370 327
0.059106622 0.66100001 -0.10082894 1.5203898e-38 371 327
0.060356744 0.662 -0.10098148 1.4927315e-38 372 327
0.061517447 0.662 -0.10098148 1.4927315e-38 373 327
0.062678158 0.662 -0.10098148 1.4835119e-38 374 327
0.063838862 0.662 -0.10098148 1.4835119e-38 375 327
0.064999565 0.662 -0.10098148 1.4467782e-38 376 327
0.066160277 0.662 -0.10098148 1.4375586e-38 377 327
0.067320988 0.662 -0.10098148 1.4375586e-38 378 327
0.068585135 0.66299999 -0.10113402 1.428303e-38 379 327
0.069747597 0.66299999 -0.10113402 1.4283383e-38 380 327
0.071017005 0.66399997 -0.10128655 1.4099352e-38 381 327
0.07239864 0.66600001 -0.10159164 1.4008223e-38 382 327
0.073676817 0.667 -0.10174417 1.3823832e-38 383 327
0.07484629 0.667 -0.10174417 1.327174e-38 384 327
0.076015763 0.667 -0.10174417 1.3179544e-38 385 327
0.077300951 0.66799998 -0.10189671 1.2809685e-38 386 327
0.078707129 0.67000002 -0.1022018 1.2256513e-38 387 327
0.080001086 0.671 -0.10235433 1.0970462e-38 388 327
0.08129856 0.67199999 -0.10250688 1.0417288e-38 389 327
0.082476802 0.67199999 -0.10250688 9.6804655e-39 390 327
0.083904013 0.67400002 -0.10281195 8.6659534e-39 391 327
0.085085757 0.67400002 -0.10281195 7.2848196e-39 392 327
0.086267509 0.67400002 -0.10281195 1.1526179e-38 393 327
0.087449253 0.67400002 -0.10281195 1.575967e-38 394 327
-0.058824331 0.671 -0.10353082 1.3178109e-38 270 328
-0.057647847 0.671 -0.10353082 1.3178109e-38 271 328
-0.056387197 0.67000002 -0.10337654 1.2902231e-38 272 328
-0.055212468 0.67000002 -0.10337654 1.2902231e-38 273 328
-0.053876422 0.66799998 -0.10306793 1.3085546e-38 274 328
-0.052626297 0.667 -0.10291365 1.2716765e-38 275 328
-0.051456824 0.667 -0.10291365 1.2810403e-38 276 328
-0.050211959 0.66600001 -0.10275936 1.327174e-38 277 328
-0.04904424 0.66600001 -0.10275936 1.4008223e-38 278 328
-0.047732744 0.66399997 -0.10245077 1.4469201e-38 279 328
-0.046568532 0.66399997 -0.10245077 1.4561753e-38 280 328
-0.045404319 0.66399997 -0.10245077 1.4746144e-38 281 328
-0.044240102 0.66399997 -0.10245077 1.5572659e-38 282 328
-0.043011017 0.66299999 -0.10229647 1.5757409e-38 283 328
-0.041848559 0.66299999 -0.10229647 1.5482617e-38 284 328
-0.04062473 0.662 -0.10214218 1.5667009e-38 285 328
-0.039464023 0.662 -0.10214218 1.5850324e-38 286 328
-0.038303319 0.662 -0.10214218 1.5942519e-38 287 328
-0.037086505 0.66100001 -0.10198789 1.5667728e-38 288 328
-0.035818845 0.65899998 -0.1016793 1.5667728e-38 289 328
-0.034663398 0.65899998 -0.1016793 1.5941798e-38 290 328
-0.033457108 0.65799999 -0.10152501 1.6125829e-38 291 328
-0.032303412 0.65799999 -0.10152501 1.6217308e-38 292 328
-0.031149717 0.65799999 -0.10152501 1.6217308e-38 293 328
-0.029996024 0.65799999 -0.10152501 1.6217308e-38 294 328
-0.028842334 0.65799999 -0.10152501 1.6125113e-38 295 328
-0.027562398 0.65499997 -0.10106213 1.6034719e-38 296 328
-0.026413966 0.65499997 -0.10106213 1.6126915e-38 297 328
-0.025265532 0.65499997 -0.10106213 1.621911e-38 298 328
-0.024117097 0.65499997 -0.10106213 1.6403142e-38 299 328
-0.022968665 0.65499997 -0.10106213 1.6495693e-38 300 328
-0.021820232 0.65499997 -0.10106213 1.6495693e-38 301 328
-0.020671798 0.65499997 -0.10106213 1.6770835e-38 302 328
-0.019582979 0.65700001 -0.10137072 1.6770835e-38 303 328
-0.01843104 0.65700001 -0.10137072 1.6678637e-38 304 328
-0.0172791 0.65700001 -0.10137072 1.6770833e-38 305 328
-0.01612716 0.65700001 -0.10137072 1.6771551e-38 306 328
-0.014929632 0.65499997 -0.10106213 1.6863747e-38 307 328
-0.013781199 0.65499997 -0.10106213 1.6680435e-38 308 328
-0.012632766 0.65499997 -0.10106213 1.6772632e-38 309 328
-0.011484332 0.65499997 -0.10106213 1.7048142e-38 310 328
-0.01036746 0.65700001 -0.10137072 1.7048142e-38 311 328
-0.0092155198 0.65700001 -0.10137072 1.73233e-38 312 328
-0.0080635799 0.65700001 -0.10137072 1.750805e-38 313 328
-0.0069116396 0.65700001 -0.10137072 1.750805e-38 314 328
-0.0057596997 0.65700001 -0.10137072 1.750805e-38 315 328
-0.0046077599 0.65700001 -0.10137072 1.7600243e-38 316 328
-0.0034558198 0.65700001 -0.10137072 1.7600243e-38 317 328
-0.0022968664 0.65499997 -0.10106213 1.7600243e-38 318 328
-0.0011484332 0.65499997 -0.10106213 1.7600243e-38 319 328
0 0.65499997 -0.10106213 1.7783562e-38 320 328
0.0011484332 0.65499997 -0.10106213 1.7691365e-38 321 328
0.00229336 0.65399998 -0.10090783 1.7507697e-38 322 328
0.0034400397 0.65399998 -0.10090783 1.7507697e-38 323 328
0.0045867199 0.65399998 -0.10090783 1.7416217e-38 324 328
0.0057333997 0.65399998 -0.10090783 1.7508414e-38 325 328
0.0068905996 0.65499997 -0.10106213 1.7232905e-38 326 328
0.008039033 0.65499997 -0.10106213 1.7325102e-38 327 328
0.0091874655 0.65499997 -0.10106213 1.7508047e-38 328 328
0.010335899 0.65499997 -0.10106213 1.7508047e-38 329 328
0.011449266 0.653 -0.10075355 1.7324006e-38 330 328
0.012594193 0.653 -0.10075355 1.7231811e-38 331 328
0.013781199 0.65499997 -0.10106213 1.7598795e-38 332 328
0.014929632 0.65499997 -0.10106213 1.75066e-38 333 328
0.016078066 0.65499997 -0.10106213 1.75066e-38 334 328
0.0172791 0.65700001 -0.10137072 1.7414404e-38 335 328
0.01843104 0.65700001 -0.10137072 1.695595e-38 336 328
0.019582979 0.65700001 -0.10137072 1.695595e-38 337 328
0.020734919 0.65700001 -0.10137072 1.7047442e-38 338 328
0.021820232 0.65499997 -0.10106213 1.7047442e-38 339 328
0.022968665 0.65499997 -0.10106213 1.7231107e-38 340 328
0.024117097 0.65499997 -0.10106213 1.695488e-38 341 328
0.025265532 0.65499997 -0.10106213 1.6770482e-38 342 328
0.026413966 0.65499997 -0.10106213 1.6770482e-38 343 328
0.027520318 0.65399998 -0.10090783 1.6953441e-38 344 328
0.028666999 0.65399998 -0.10090783 1.6677215e-38 345 328
0.029859263 0.65499997 -0.10106213 1.6309505e-38 346 328
0.031007698 0.65499997 -0.10106213 1.6125113e-38 347 328
0.032156132 0.65499997 -0.10106213 1.6308425e-38 348 328
0.033304565 0.65499997 -0.10106213 1.6308425e-38 349 328
0.034452997 0.65499997 -0.10106213 1.5940368e-38 350 328
0.03560143 0.65499997 -0.10106213 1.5940368e-38 351 328
0.036749862 0.65499997 -0.10106213 1.5573008e-38 352 328
0.037898298 0.65499997 -0.10106213 1.492764e-38 353 328
0.039046731 0.65499997 -0.10106213 1.4653933e-38 354 328
0.040195163 0.65499997 -0.10106213 1.5114552e-38 355 328
0.041343596 0.65499997 -0.10106213 1.5847817e-38 356 328
0.042492028 0.65499997 -0.10106213 1.5847817e-38 357 328
0.043640465 0.65499997 -0.10106213 1.593965e-38 358 328
0.044788897 0.65499997 -0.10106213 1.593965e-38 359 328
0.046077598 0.65700001 -0.10137072 1.5939652e-38 360 328
0.04722954 0.65700001 -0.10137072 1.5847098e-38 361 328
0.048381478 0.65700001 -0.10137072 1.5847098e-38 362 328
0.049533416 0.65700001 -0.10137072 1.5662705e-38 363 328
0.050685361 0.65700001 -0.10137072 1.520388e-38 364 328
0.051837299 0.65700001 -0.10137072 1.520388e-38 365 328
0.052989237 0.65700001 -0.10137072 1.5294999e-38 366 328
0.054223582 0.65799999 -0.10152501 1.5294999e-38 367 328
0.055377278 0.65799999 -0.10152501 1.5202803e-38 368 328
0.056530971 0.65799999 -0.10152501 1.5018772e-38 369 328
0.057772331 0.65899998 -0.1016793 1.4926219e-38 370 328
0.058927774 0.65899998 -0.1016793 1.4834024e-38 371 328
0.060265575 0.66100001 -0.10198789 1.4834021e-38 372 328
0.061517447 0.662 -0.10214218 1.4834021e-38 373 328
0.062678158 0.662 -0.10214218 1.4741825e-38 374 328
0.063742429 0.66100001 -0.10198789 1.4741825e-38 375 328
0.064901382 0.66100001 -0.10198789 1.4374485e-38 376 328
0.066160277 0.662 -0.10214218 1.4190453e-38 377 328
0.067320988 0.662 -0.10214218 1.4098977e-38 378 328
0.068585135 0.66299999 -0.10229647 1.4006781e-38 379 328
0.069747597 0.66299999 -0.10229647 1.4097902e-38 380 328
0.070910059 0.66299999 -0.10229647 1.4005705e-38 381 328
0.07239864 0.66600001 -0.10275936 1.3638355e-38 382 328
0.073566355 0.66600001 -0.10275936 1.3177376e-38 383 328
0.07484629 0.667 -0.10291365 1.2624923e-38 384 328
0.076015763 0.667 -0.10291365 1.2624923e-38 385 328
0.077300951 0.66799998 -0.10306793 1.1428194e-38 386 328
0.078472182 0.66799998 -0.10306793 1.1428194e-38 387 328
0.079881869 0.67000002 -0.10337654 1.0876114e-38 388 328
0.081177577 0.671 -0.10353082 1.0415137e-38 389 328
0.082354069 0.671 -0.10353082 9.1287294e-39 390 328
0.083655037 0.67199999 -0.10368511 8.1149376e-39 391 328
0.084833272 0.67199999 -0.10368511 7.5625219e-39 392 328
0.086267509 0.67400002 -0.10399371 1.4569388e-38 393 328
-0.057647847 0.671 -0.10470732 1.2902601e-38 271 329
-0.056387197 0.67000002 -0.10455126 1.3085546e-38 272 329
-0.055212468 0.67000002 -0.10455126 1.3085546e-38 273 329
-0.053876422 0.66799998 -0.10423917 1.2994434e-38 274 329
-0.052626297 0.667 -0.10408312 1.290188e-38 275 329
-0.051456824 0.667 -0.10408312 1.2809332e-38 276 329
-0.050211959 0.66600001 -0.10392708 1.2901529e-38 277 329
-0.04904424 0.66600001 -0.10392708 1.2902604e-38 278 329
-0.047732744 0.66399997 -0.10361498 1.3455419e-38 279 329
-0.046568532 0.66399997 -0.10361498 1.3732715e-38 280 329
-0.045404319 0.66399997 -0.10361498 1.4193693e-38 281 329
-0.044173479 0.66299999 -0.10345893 1.4653946e-38 282 329
-0.043011017 0.66299999 -0.10345893 1.4838696e-38 283 329
-0.041785441 0.662 -0.10330289 1.5022008e-38 284 329
-0.040563367 0.66100001 -0.10314685 1.5114205e-38 285 329
-0.039404415 0.66100001 -0.10314685 1.52064e-38 286 329
-0.038245458 0.66100001 -0.10314685 1.52064e-38 287 329
-0.036974292 0.65899998 -0.10283475 1.5482264e-38 288 329
-0.035818845 0.65899998 -0.10283475 1.5390069e-38 289 329
-0.034610797 0.65799999 -0.1026787 1.5388997e-38 290 329
-0.033406258 0.65700001 -0.10252266 1.5481192e-38 291 329
-0.03225432 0.65700001 -0.10252266 1.5664507e-38 292 329
-0.03110238 0.65700001 -0.10252266 1.5756703e-38 293 329
-0.02995044 0.65700001 -0.10252266 1.5664151e-38 294 329
-0.028798498 0.65700001 -0.10252266 1.5848901e-38 295 329
-0.027562398 0.65499997 -0.10221056 1.5757425e-38 296 329
-0.026413966 0.65499997 -0.10221056 1.584962e-38 297 329
-0.025265532 0.65499997 -0.10221056 1.5758501e-38 298 329
-0.024117097 0.65499997 -0.10221056 1.5758501e-38 299 329
-0.022968665 0.65499997 -0.10221056 1.5851773e-38 300 329
-0.021820232 0.65499997 -0.10221056 1.5759218e-38 301 329
-0.020671798 0.65499997 -0.10221056 1.6126915e-38 302 329
-0.019582979 0.65700001 -0.10252266 1.6126915e-38 303 329
-0.01843104 0.65700001 -0.10252266 1.6493525e-38 304 329
-0.0172791 0.65700001 -0.10252266 1.6493525e-38 305 329
-0.016078066 0.65499997 -0.10221056 1.6677915e-38 306 329
-0.014929632 0.65499997 -0.10221056 1.6677915e-38 307 329
-0.013781199 0.65499997 -0.10221056 1.6586085e-38 308 329
-0.012632766 0.65499997 -0.10221056 1.667864e-38 309 329
-0.011484332 0.65499997 -0.10221056 1.6587886e-38 310 329
-0.010335899 0.65499997 -0.10221056 1.649569e-38 311 329
-0.0091874655 0.65499997 -0.10221056 1.6771204e-38 312 329
-0.008039033 0.65499997 -0.10221056 1.6955597e-38 313 329
-0.0068905996 0.65499997 -0.10221056 1.6771928e-38 314 329
-0.0057421662 0.65499997 -0.10221056 1.6771928e-38 315 329
-0.0045937328 0.65499997 -0.10221056 1.7047442e-38 316 329
-0.0034452998 0.65499997 -0.10221056 1.7139637e-38 317 329
-0.0022968664 0.65499997 -0.10221056 1.7047442e-38 318 329
-0.00114668 0.65399998 -0.10205451 1.7139637e-38 319 329
0 0.65399998 -0.10205451 1.6955246e-38 320 329
0.0011449266 0.653 -0.10189847 1.6955246e-38 321 329
0.0022898533 0.653 -0.10189847 1.6955246e-38 322 329
0.0034347798 0.653 -0.10189847 1.6955246e-38 323 329
0.0045797066 0.653 -0.10189847 1.6955246e-38 324 329
0.0057246331 0.653 -0.10189847 1.6955246e-38 325 329
0.0068695596 0.653 -0.10189847 1.6680454e-38 326 329
0.0080144862 0.653 -0.10189847 1.6680454e-38 327 329
0.0091594132 0.653 -0.10189847 1.6680086e-38 328 329
0.010304339 0.653 -0.10189847 1.6587889e-38 329 329
0.011449266 0.653 -0.10189847 1.6863384e-38 330 329
0.012594193 0.653 -0.10189847 1.6771188e-38 331 329
0.013739119 0.653 -0.10189847 1.6678637e-38 332 329
0.014884046 0.653 -0.10189847 1.6678637e-38 333 329
0.016028972 0.653 -0.10189847 1.6770479e-38 334 329
0.017226499 0.65499997 -0.10221056 1.6678284e-38 335 329
0.018374931 0.65499997 -0.10221056 1.6494984e-38 336 329
0.019523365 0.65499997 -0.10221056 1.6587538e-38 337 329
0.020671798 0.65499997 -0.10221056 1.6494637e-38 338 329
0.021820232 0.65499997 -0.10221056 1.6494637e-38 339 329
0.022968665 0.65499997 -0.10221056 1.6494984e-38 340 329
0.024117097 0.65499997 -0.10221056 1.6218757e-38 341 329
0.025265532 0.65499997 -0.10221056 1.6401707e-38 342 329
0.026413966 0.65499997 -0.10221056 1.6401707e-38 343 329
0.027520318 0.65399998 -0.10205451 1.6217325e-38 344 329
0.028666999 0.65399998 -0.10205451 1.5941097e-38 345 329
0.029813679 0.65399998 -0.10205451 1.5848526e-38 346 329
0.031007698 0.65499997 -0.10221056 1.5664136e-38 347 329
0.032156132 0.65499997 -0.10221056 1.5664139e-38 348 329
0.033253718 0.65399998 -0.10205451 1.5664139e-38 349 329
0.034400396 0.65399998 -0.10205451 1.5479756e-38 350 329
0.035547078 0.65399998 -0.10205451 1.5479756e-38 351 329
0.036693759 0.65399998 -0.10205451 1.5112753e-38 352 329
0.037898298 0.65499997 -0.10221056 1.4375188e-38 353 329
0.039046731 0.65499997 -0.10221056 1.4375188e-38 354 329
0.040195163 0.65499997 -0.10221056 1.4836526e-38 355 329
0.041343596 0.65499997 -0.10221056 1.5111334e-38 356 329
0.042492028 0.65499997 -0.10221056 1.5295725e-38 357 329
0.043640465 0.65499997 -0.10221056 1.5203532e-38 358 329
0.044788897 0.65499997 -0.10221056 1.5295728e-38 359 329
0.04593733 0.65499997 -0.10221056 1.5203179e-38 360 329
0.047085766 0.65499997 -0.10221056 1.5203179e-38 361 329
0.048234195 0.65499997 -0.10221056 1.52021e-38 362 329
0.049533416 0.65700001 -0.10252266 1.52021e-38 363 329
0.050685361 0.65700001 -0.10252266 1.4743274e-38 364 329
0.051837299 0.65700001 -0.10252266 1.4558881e-38 365 329
0.052989237 0.65700001 -0.10252266 1.4559235e-38 366 329
0.054141179 0.65700001 -0.10252266 1.446668e-38 367 329
0.055293117 0.65700001 -0.10252266 1.4558163e-38 368 329
0.056530971 0.65799999 -0.1026787 1.4465967e-38 369 329
0.057772331 0.65899998 -0.10283475 1.4373418e-38 370 329
0.058927774 0.65899998 -0.10283475 1.4373418e-38 371 329
0.060083222 0.65899998 -0.10283475 1.4373415e-38 372 329
0.061424527 0.66100001 -0.10314685 1.4373415e-38 373 329
0.062583476 0.66100001 -0.10314685 1.41901e-38 374 329
0.063742429 0.66100001 -0.10314685 1.4005708e-38 375 329
0.064901382 0.66100001 -0.10314685 1.3822395e-38 376 329
0.066160277 0.662 -0.10330289 1.37302e-38 377 329
0.067320988 0.662 -0.10330289 1.3637645e-38 378 329
0.068481691 0.662 -0.10330289 1.354545e-38 379 329
0.069642402 0.662 -0.10330289 1.336214e-38 380 329
0.070910059 0.66299999 -0.10345893 1.317739e-38 381 329
0.072181225 0.66399997 -0.10361498 1.2993351e-38 382 329
0.073566355 0.66600001 -0.10392708 1.262457e-38 383 329
0.074734077 0.66600001 -0.10392708 1.2165036e-38 384 329
0.076015763 0.667 -0.10408312 1.1888449e-38 385 329
0.077185236 0.667 -0.10408312 1.1427494e-38 386 329
0.078472182 0.66799998 -0.10423917 1.1058351e-38 387 329
0.079881869 0.67000002 -0.10455126 1.0323317e-38 388 329
0.081177577 0.671 -0.10470732 9.9541741e-39 389 329
0.082354069 0.671 -0.10470732 8.4851649e-39 390 329
0.083655037 0.67199999 -0.10486335 9.2227299e-39 391 329
0.084833272 0.67199999 -0.10486335 1.2529581e-38 392 329
-0.057647847 0.671 -0.10588379 1.2902604e-38 271 330
-0.056387197 0.67000002 -0.105726 1.2901885e-38 272 330
-0.055212468 0.67000002 -0.105726 1.2901885e-38 273 330
-0.053876422 0.66799998 -0.1054104 1.2810403e-38 274 330
-0.052626297 0.667 -0.10525259 1.262637e-38 275 330
-0.051456824 0.667 -0.10525259 1.2992995e-38 276 330
-0.050211959 0.66600001 -0.1050948 1.3085551e-38 277 330
-0.04904424 0.66600001 -0.1050948 1.2441273e-38 278 330
-0.047732744 0.66399997 -0.10477919 1.2902251e-38 279 330
-0.046568532 0.66399997 -0.10477919 1.3087364e-38 280 330
-0.045335937 0.66299999 -0.1046214 1.3456148e-38 281 330
-0.044173479 0.66299999 -0.1046214 1.3824914e-38 282 330
-0.042946145 0.662 -0.1044636 1.4193337e-38 283 330
-0.041785441 0.662 -0.1044636 1.4836176e-38 284 330
-0.040563367 0.66100001 -0.1043058 1.5112403e-38 285 330
-0.039404415 0.66100001 -0.1043058 1.4746129e-38 286 330
-0.038129739 0.65899998 -0.10399019 1.4746129e-38 287 330
-0.036974292 0.65899998 -0.10399019 1.5204586e-38 288 330
-0.035818845 0.65899998 -0.10399019 1.5296781e-38 289 330
-0.034558199 0.65700001 -0.1036746 1.5112403e-38 290 330
-0.033406258 0.65700001 -0.1036746 1.5204598e-38 291 330
-0.03225432 0.65700001 -0.1036746 1.5203885e-38 292 330
-0.03110238 0.65700001 -0.1036746 1.5203885e-38 293 330
-0.029859263 0.65499997 -0.10335899 1.5203885e-38 294 330
-0.028710833 0.65499997 -0.10335899 1.5296081e-38 295 330
-0.027562398 0.65499997 -0.10335899 1.5296797e-38 296 330
-0.026413966 0.65499997 -0.10335899 1.5388994e-38 297 330
-0.025265532 0.65499997 -0.10335899 1.5389713e-38 298 330
-0.024117097 0.65499997 -0.10335899 1.5389713e-38 299 330
-0.022968665 0.65499997 -0.10335899 1.5298596e-38 300 330
-0.021820232 0.65499997 -0.10335899 1.52064e-38 301 330
-0.020671798 0.65499997 -0.10335899 1.5573741e-38 302 330
-0.019582979 0.65700001 -0.1036746 1.5757772e-38 303 330
-0.01843104 0.65700001 -0.1036746 1.5849249e-38 304 330
-0.017226499 0.65499997 -0.10335899 1.5941445e-38 305 330
-0.016078066 0.65499997 -0.10335899 1.5941447e-38 306 330
-0.014929632 0.65499997 -0.10335899 1.6125479e-38 307 330
-0.013781199 0.65499997 -0.10335899 1.5941447e-38 308 330
-0.012632766 0.65499997 -0.10335899 1.6125479e-38 309 330
-0.011484332 0.65499997 -0.10335899 1.5942884e-38 310 330
-0.010335899 0.65499997 -0.10335899 1.5942884e-38 311 330
-0.0091874655 0.65499997 -0.10335899 1.6310224e-38 312 330
-0.008039033 0.65499997 -0.10335899 1.6402779e-38 313 330
-0.0068905996 0.65499997 -0.10335899 1.6403142e-38 314 330
-0.0057421662 0.65499997 -0.10335899 1.621911e-38 315 330
-0.0045867199 0.65399998 -0.10320119 1.6402788e-38 316 330
-0.0034400397 0.65399998 -0.10320119 1.6494984e-38 317 330
-0.00229336 0.65399998 -0.10320119 1.6494268e-38 318 330
-0.0011449266 0.653 -0.1030434 1.6586464e-38 319 330
0 0.653 -0.1030434 1.6677565e-38 320 330
0.0011449266 0.653 -0.1030434 1.6585369e-38 321 330
0.0022898533 0.653 -0.1030434 1.6678271e-38 322 330
0.0034347798 0.653 -0.1030434 1.6678271e-38 323 330
0.0045797066 0.653 -0.1030434 1.631021e-38 324 330
0.0057246331 0.653 -0.1030434 1.631021e-38 325 330
0.0068695596 0.653 -0.1030434 1.6219087e-38 326 330
0.0080144862 0.653 -0.1030434 1.6219087e-38 327 330
0.0091594132 0.653 -0.1030434 1.6218378e-38 328 330
0.010304339 0.653 -0.1030434 1.6126182e-38 329 330
0.011449266 0.653 -0.1030434 1.5758498e-38 330 330
0.012594193 0.653 -0.1030434 1.5758498e-38 331 330
0.013739119 0.653 -0.1030434 1.5941097e-38 332 330
0.014884046 0.653 -0.1030434 1.6125128e-38 333 330
0.016028972 0.653 -0.1030434 1.6125131e-38 334 330
0.017200198 0.65399998 -0.10320119 1.6125131e-38 335 330
0.01834688 0.65399998 -0.10320119 1.6125131e-38 336 330
0.019493559 0.65399998 -0.10320119 1.6217328e-38 337 330
0.020640239 0.65399998 -0.10320119 1.5941813e-38 338 330
0.021786919 0.65399998 -0.10320119 1.5849617e-38 339 330
0.022933599 0.65399998 -0.10320119 1.5666658e-38 340 330
0.024080278 0.65399998 -0.10320119 1.5574463e-38 341 330
0.025226958 0.65399998 -0.10320119 1.5757422e-38 342 330
0.02637364 0.65399998 -0.10320119 1.5573391e-38 343 330
0.027520318 0.65399998 -0.10320119 1.5664507e-38 344 330
0.028666999 0.65399998 -0.10320119 1.5572312e-38 345 330
0.029813679 0.65399998 -0.10320119 1.5203885e-38 346 330
0.030960357 0.65399998 -0.10320119 1.5296081e-38 347 330
0.03210704 0.65399998 -0.10320119 1.5203885e-38 348 330
0.033253718 0.65399998 -0.10320119 1.5203885e-38 349 330
0.034400396 0.65399998 -0.10320119 1.4928021e-38 350 330
0.035547078 0.65399998 -0.10320119 1.4835826e-38 351 330
0.036693759 0.65399998 -0.10320119 1.4651427e-38 352 330
0.037840437 0.65399998 -0.10320119 1.4374841e-38 353 330
0.038987119 0.65399998 -0.10320119 1.446668e-38 354 330
0.040133797 0.65399998 -0.10320119 1.4559235e-38 355 330
0.041343596 0.65499997 -0.10335899 1.4651074e-38 356 330
0.042492028 0.65499997 -0.10335899 1.4651074e-38 357 330
0.043640465 0.65499997 -0.10335899 1.4651074e-38 358 330
0.044788897 0.65499997 -0.10335899 1.4651074e-38 359 330
0.04593733 0.65499997 -0.10335899 1.4651077e-38 360 330
0.047085766 0.65499997 -0.10335899 1.4558881e-38 361 330
0.048234195 0.65499997 -0.10335899 1.4558163e-38 362 330
0.049382631 0.65499997 -0.10335899 1.4558163e-38 363 330
0.050531063 0.65499997 -0.10335899 1.4374485e-38 364 330
0.051679496 0.65499997 -0.10335899 1.4098258e-38 365 330
0.052989237 0.65700001 -0.1036746 1.4098255e-38 366 330
0.054141179 0.65700001 -0.1036746 1.4006058e-38 367 330
0.055293117 0.65700001 -0.1036746 1.3913512e-38 368 330
0.056530971 0.65799999 -0.1038324 1.3821316e-38 369 330
0.057772331 0.65899998 -0.10399019 1.391244e-38 370 330
0.058927774 0.65899998 -0.10399019 1.391244e-38 371 330
0.060083222 0.65899998 -0.10399019 1.3912437e-38 372 330
0.061238669 0.65899998 -0.10399019 1.3912437e-38 373 330
0.062583476 0.66100001 -0.1043058 1.3637645e-38 374 330
0.063742429 0.66100001 -0.1043058 1.3637645e-38 375 330
0.064901382 0.66100001 -0.1043058 1.3362138e-38 376 330
0.066160277 0.662 -0.1044636 1.3177746e-38 377 330
0.067320988 0.662 -0.1044636 1.3085551e-38 378 330
0.068481691 0.662 -0.1044636 1.2992995e-38 379 330
0.069642402 0.662 -0.1044636 1.2717134e-38 380 330
0.070910059 0.66299999 -0.1046214 1.2624938e-38 381 330
0.072181225 0.66399997 -0.10477919 1.2439828e-38 382 330
0.073566355 0.66600001 -0.1050948 1.2071046e-38 383 330
0.074734077 0.66600001 -0.1050948 1.1703711e-38 384 330
0.075901799 0.66600001 -0.1050948 1.1426764e-38 385 330
0.077185236 0.667 -0.10525259 1.1058354e-38 386 330
0.078354709 0.667 -0.10525259 1.0782127e-38 387 330
0.079643413 0.66799998 -0.1054104 1.013857e-38 388 330
0.081177577 0.671 -0.10588379 9.6779501e-39 389 330
0.082354069 0.671 -0.10588379 7.9323793e-39 390 330
0.083655037 0.67199999 -0.1060416 1.0882639e-38 391 330
-0.056471359 0.671 -0.10706028 1.2810053e-38 272 331
-0.055212468 0.67000002 -0.10690073 1.2902248e-38 273 331
-0.053876422 0.66799998 -0.10658162 1.290188e-38 274 331
-0.052705199 0.66799998 -0.10658162 1.290188e-38 275 331
-0.051456824 0.667 -0.10642207 1.2810039e-38 276 331
-0.050211959 0.66600001 -0.10626251 1.2810039e-38 277 331
-0.04904424 0.66600001 -0.10626251 1.271749e-38 278 331
-0.047732744 0.66399997 -0.1059434 1.2809685e-38 279 331
-0.046568532 0.66399997 -0.1059434 1.3084842e-38 280 331
-0.045335937 0.66299999 -0.10578386 1.3269592e-38 281 331
-0.044173479 0.66299999 -0.10578386 1.3270661e-38 282 331
-0.042946145 0.662 -0.1056243 1.3455052e-38 283 331
-0.04172232 0.66100001 -0.10546475 1.3915662e-38 284 331
-0.040563367 0.66100001 -0.10546475 1.4100053e-38 285 331
-0.039285187 0.65899998 -0.10514564 1.4376986e-38 286 331
-0.038129739 0.65899998 -0.10514564 1.428479e-38 287 331
-0.036974292 0.65899998 -0.10514564 1.4468819e-38 288 331
-0.035764489 0.65799999 -0.10498609 1.4652851e-38 289 331
-0.034558199 0.65700001 -0.10482653 1.4743978e-38 290 331
-0.033406258 0.65700001 -0.10482653 1.4743978e-38 291 331
-0.03225432 0.65700001 -0.10482653 1.4927293e-38 292 331
-0.031007698 0.65499997 -0.10450742 1.4927293e-38 293 331
-0.029859263 0.65499997 -0.10450742 1.4743978e-38 294 331
-0.028710833 0.65499997 -0.10450742 1.4836173e-38 295 331
-0.027562398 0.65499997 -0.10450742 1.4928369e-38 296 331
-0.026413966 0.65499997 -0.10450742 1.5112759e-38 297 331
-0.025265532 0.65499997 -0.10450742 1.5204598e-38 298 331
-0.024117097 0.65499997 -0.10450742 1.5204598e-38 299 331
-0.022968665 0.65499997 -0.10450742 1.5021283e-38 300 331
-0.021820232 0.65499997 -0.10450742 1.5113838e-38 301 331
-0.020671798 0.65499997 -0.10450742 1.5297147e-38 302 331
-0.019523365 0.65499997 -0.10450742 1.5297147e-38 303 331
-0.018374931 0.65499997 -0.10450742 1.5480459e-38 304 331
-0.017226499 0.65499997 -0.10450742 1.5573015e-38 305 331
-0.016078066 0.65499997 -0.10450742 1.5572662e-38 306 331
-0.014929632 0.65499997 -0.10450742 1.5664858e-38 307 331
-0.013760159 0.65399998 -0.10434788 1.5848173e-38 308 331
-0.012613479 0.65399998 -0.10434788 1.5848173e-38 309 331
-0.011466799 0.65399998 -0.10434788 1.5573741e-38 310 331
-0.01032012 0.65399998 -0.10434788 1.5573741e-38 311 331
-0.0091734398 0.65399998 -0.10434788 1.5757404e-38 312 331
-0.0080267601 0.65399998 -0.10434788 1.5942154e-38 313 331
-0.0068800794 0.65399998 -0.10434788 1.5942154e-38 314 331
-0.0057333997 0.65399998 -0.10434788 1.5942154e-38 315 331
-0.0045797066 0.653 -0.10418832 1.5849968e-38 316 331
-0.0034347798 0.653 -0.10418832 1.5849968e-38 317 331
-0.0022898533 0.653 -0.10418832 1.6125479e-38 318 331
-0.0011449266 0.653 -0.10418832 1.5941447e-38 319 331
0 0.653 -0.10418832 1.5664841e-38 320 331
0.0011449266 0.653 -0.10418832 1.5664841e-38 321 331
0.0022898533 0.653 -0.10418832 1.5665911e-38 322 331
0.0034295199 0.65200001 -0.10402877 1.5758107e-38 323 331
0.0045726933 0.65200001 -0.10402877 1.5390049e-38 324 331
0.0057158666 0.65200001 -0.10402877 1.5390049e-38 325 331
0.0068695596 0.653 -0.10418832 1.5298204e-38 326 331
0.0080144862 0.653 -0.10418832 1.5206008e-38 327 331
0.0091594132 0.653 -0.10418832 1.5665194e-38 328 331
0.01028856 0.65200001 -0.10402877 1.5941422e-38 329 331
0.011431733 0.65200001 -0.10402877 1.5757056e-38 330 331
0.012574906 0.65200001 -0.10402877 1.566486e-38 331 331
0.01371808 0.65200001 -0.10402877 1.6122609e-38 332 331
0.014861252 0.65200001 -0.10402877 1.6030413e-38 333 331
0.016028972 0.653 -0.10418832 1.5939296e-38 334 331
0.017173899 0.653 -0.10418832 1.5939296e-38 335 331
0.018318826 0.653 -0.10418832 1.5571589e-38 336 331
0.019493559 0.65399998 -0.10434788 1.5571589e-38 337 331
0.020608678 0.653 -0.10418832 1.5572662e-38 338 331
0.021753605 0.653 -0.10418832 1.5480465e-38 339 331
0.022898532 0.653 -0.10418832 1.5296794e-38 340 331
0.024043459 0.653 -0.10418832 1.5204598e-38 341 331
0.025149813 0.65200001 -0.10402877 1.5112406e-38 342 331
0.026292987 0.65200001 -0.10402877 1.5112406e-38 343 331
0.027478239 0.653 -0.10418832 1.5294999e-38 344 331
0.028623167 0.653 -0.10418832 1.5202803e-38 345 331
0.029768093 0.653 -0.10418832 1.5202084e-38 346 331
0.030960357 0.65399998 -0.10434788 1.5202084e-38 347 331
0.03210704 0.65399998 -0.10434788 1.4926219e-38 348 331
0.033253718 0.65399998 -0.10434788 1.4926219e-38 349 331
0.034400396 0.65399998 -0.10434788 1.4559235e-38 350 331
0.035547078 0.65399998 -0.10434788 1.4559235e-38 351 331
0.036693759 0.65399998 -0.10434788 1.446668e-38 352 331
0.037840437 0.65399998 -0.10434788 1.4374485e-38 353 331
0.038987119 0.65399998 -0.10434788 1.4190451e-38 354 331
0.040133797 0.65399998 -0.10434788 1.4190451e-38 355 331
0.041280478 0.65399998 -0.10434788 1.4374119e-38 356 331
0.04242716 0.65399998 -0.10434788 1.4374119e-38 357 331
0.043573838 0.65399998 -0.10434788 1.4374122e-38 358 331
0.044788897 0.65499997 -0.10450742 1.4374122e-38 359 331
0.04593733 0.65499997 -0.10450742 1.428157e-38 360 331
0.047085766 0.65499997 -0.10450742 1.428157e-38 361 331
0.048234195 0.65499997 -0.10450742 1.4189373e-38 362 331
0.049382631 0.65499997 -0.10450742 1.4189373e-38 363 331
0.050531063 0.65499997 -0.10450742 1.4005339e-38 364 331
0.051679496 0.65499997 -0.10450742 1.4005339e-38 365 331
0.052989237 0.65700001 -0.10482653 1.3729118e-38 366 331
0.054141179 0.65700001 -0.10482653 1.3821314e-38 367 331
0.055293117 0.65700001 -0.10482653 1.3453257e-38 368 331
0.056530971 0.65799999 -0.10498609 1.3361061e-38 369 331
0.057684667 0.65799999 -0.10498609 1.3452538e-38 370 331
0.058838356 0.65799999 -0.10498609 1.3360342e-38 371 331
0.059992049 0.65799999 -0.10498609 1.3543655e-38 372 331
0.061238669 0.65899998 -0.10514564 1.3543655e-38 373 331
0.062583476 0.66100001 -0.10546475 1.336034e-38 374 331
0.063742429 0.66100001 -0.10546475 1.336034e-38 375 331
0.064901382 0.66100001 -0.10546475 1.3084474e-38 376 331
0.066060342 0.66100001 -0.10546475 1.2900083e-38 377 331
0.067320988 0.662 -0.1056243 1.2807532e-38 378 331
0.068481691 0.662 -0.1056243 1.2715336e-38 379 331
0.069642402 0.662 -0.1056243 1.2439475e-38 380 331
0.070910059 0.66299999 -0.10578386 1.2255082e-38 381 331
0.072181225 0.66399997 -0.1059434 1.1978502e-38 382 331
0.073566355 0.66600001 -0.10626251 1.1885948e-38 383 331
0.074734077 0.66600001 -0.10626251 1.142641e-38 384 331
0.075901799 0.66600001 -0.10626251 1.1150184e-38 385 331
0.077185236 0.667 -0.10642207 1.0599181e-38 386 331
0.078354709 0.667 -0.10642207 1.0414431e-38 387 331
0.079643413 0.66799998 -0.10658162 9.7708772e-39 388 331
0.081177577 0.671 -0.10706028 1.0416247e-38 389 331
0.082354069 0.671 -0.10706028 1.0328046e-38 390 331
-0.055212468 0.67000002 -0.10807547 1.262674e-38 273 332
-0.054037735 0.67000002 -0.10807547 1.2810403e-38 274 332
-0.052705199 0.66799998 -0.10775284 1.262637e-38 275 332
-0.051533967 0.66799998 -0.10775284 1.2626721e-38 276 332
-0.050287351 0.667 -0.10759154 1.2534525e-38 277 332
-0.04904424 0.66600001 -0.10743023 1.2901152e-38 278 332
-0.047876518 0.66600001 -0.10743023 1.2901152e-38 279 332
-0.046568532 0.66399997 -0.10710762 1.2717134e-38 280 332
-0.045404319 0.66399997 -0.10710762 1.2901885e-38 281 332
-0.044173479 0.66299999 -0.10694631 1.2809702e-38 282 332
-0.043011017 0.66299999 -0.10694631 1.2994094e-38 283 332
-0.04172232 0.66100001 -0.1066237 1.3087008e-38 284 332
-0.04044063 0.65899998 -0.10630108 1.3271759e-38 285 332
-0.039285187 0.65899998 -0.10630108 1.3272473e-38 286 332
-0.038129739 0.65899998 -0.10630108 1.3365027e-38 287 332
-0.036974292 0.65899998 -0.10630108 1.3640882e-38 288 332
-0.035764489 0.65799999 -0.10613978 1.3733437e-38 289 332
-0.034558199 0.65700001 -0.10597847 1.4099703e-38 290 332
-0.033406258 0.65700001 -0.10597847 1.4099703e-38 291 332
-0.03225432 0.65700001 -0.10597847 1.4008229e-38 292 332
-0.031007698 0.65499997 -0.10565586 1.4008229e-38 293 332
-0.029859263 0.65499997 -0.10565586 1.4008226e-38 294 332
-0.028710833 0.65499997 -0.10565586 1.4100421e-38 295 332
-0.027562398 0.65499997 -0.10565586 1.4376285e-38 296 332
-0.02637364 0.65399998 -0.10549456 1.4468482e-38 297 332
-0.025226958 0.65399998 -0.10549456 1.4469201e-38 298 332
-0.024080278 0.65399998 -0.10549456 1.4469201e-38 299 332
-0.022933599 0.65399998 -0.10549456 1.4561397e-38 300 332
-0.021820232 0.65499997 -0.10565586 1.4561397e-38 301 332
-0.020671798 0.65499997 -0.10565586 1.465323e-38 302 332
-0.019523365 0.65499997 -0.10565586 1.465323e-38 303 332
-0.018374931 0.65499997 -0.10565586 1.4652874e-38 304 332
-0.017226499 0.65499997 -0.10565586 1.4745428e-38 305 332
-0.016078066 0.65499997 -0.10565586 1.4653598e-38 306 332
-0.014906839 0.65399998 -0.10549456 1.4745794e-38 307 332
-0.013760159 0.65399998 -0.10549456 1.5020583e-38 308 332
-0.012613479 0.65399998 -0.10549456 1.5020583e-38 309 332
-0.011466799 0.65399998 -0.10549456 1.5021655e-38 310 332
-0.01032012 0.65399998 -0.10549456 1.5021655e-38 311 332
-0.0091734398 0.65399998 -0.10549456 1.483834e-38 312 332
-0.0080267601 0.65399998 -0.10549456 1.483834e-38 313 332
-0.0068800794 0.65399998 -0.10549456 1.4930539e-38 314 332
-0.0057246331 0.653 -0.10533325 1.4930539e-38 315 332
-0.0045797066 0.653 -0.10533325 1.5113499e-38 316 332
-0.0034347798 0.653 -0.10533325 1.5113499e-38 317 332
-0.0022863466 0.65200001 -0.10517195 1.5296814e-38 318 332
-0.0011431733 0.65200001 -0.10517195 1.5112781e-38 319 332
0 0.65200001 -0.10517195 1.5203532e-38 320 332
0.0011431733 0.65200001 -0.10517195 1.5479759e-38 321 332
0.0022863466 0.65200001 -0.10517195 1.5020933e-38 322 332
0.0034295199 0.65200001 -0.10517195 1.5020933e-38 323 332
0.0045726933 0.65200001 -0.10517195 1.4929456e-38 324 332
0.0057158666 0.65200001 -0.10517195 1.4745425e-38 325 332
0.0068590399 0.65200001 -0.10517195 1.4929807e-38 326 332
0.0080144862 0.653 -0.10533325 1.465358e-38 327 332
0.0091453865 0.65200001 -0.10517195 1.4929807e-38 328 332
0.01028856 0.65200001 -0.10517195 1.4929807e-38 329 332
0.011431733 0.65200001 -0.10517195 1.5020936e-38 330 332
0.012574906 0.65200001 -0.10517195 1.5020936e-38 331 332
0.01371808 0.65200001 -0.10517195 1.5111336e-38 332 332
0.014861252 0.65200001 -0.10517195 1.5203532e-38 333 332
0.016004426 0.65200001 -0.10517195 1.4927668e-38 334 332
0.017173899 0.653 -0.10533325 1.4927668e-38 335 332
0.018318826 0.653 -0.10533325 1.4835473e-38 336 332
0.019463753 0.653 -0.10533325 1.4743277e-38 337 332
0.02057712 0.65200001 -0.10517195 1.4836189e-38 338 332
0.021720294 0.65200001 -0.10517195 1.4651797e-38 339 332
0.022863466 0.65200001 -0.10517195 1.4743993e-38 340 332
0.024006641 0.65200001 -0.10517195 1.4467765e-38 341 332
0.025149813 0.65200001 -0.10517195 1.4651077e-38 342 332
0.026292987 0.65200001 -0.10517195 1.4558881e-38 343 332
0.02743616 0.65200001 -0.10517195 1.4558163e-38 344 332
0.028579334 0.65200001 -0.10517195 1.4558163e-38 345 332
0.029722504 0.65200001 -0.10517195 1.4374134e-38 346 332
0.03091302 0.653 -0.10533325 1.4374134e-38 347 332
0.032057945 0.653 -0.10533325 1.3914958e-38 348 332
0.033202872 0.653 -0.10533325 1.4007154e-38 349 332
0.034347799 0.653 -0.10533325 1.409827e-38 350 332
0.035492726 0.653 -0.10533325 1.409827e-38 351 332
0.036637653 0.653 -0.10533325 1.382276e-38 352 332
0.037840437 0.65399998 -0.10549456 1.3730564e-38 353 332
0.038987119 0.65399998 -0.10549456 1.3822393e-38 354 332
0.040133797 0.65399998 -0.10549456 1.3730197e-38 355 332
0.041280478 0.65399998 -0.10549456 1.3913512e-38 356 332
0.04242716 0.65399998 -0.10549456 1.3821316e-38 357 332
0.043573838 0.65399998 -0.10549456 1.3637651e-38 358 332
0.044788897 0.65499997 -0.10565586 1.3637651e-38 359 332
0.04593733 0.65499997 -0.10565586 1.3637651e-38 360 332
0.047085766 0.65499997 -0.10565586 1.3545097e-38 361 332
0.048234195 0.65499997 -0.10565586 1.3545097e-38 362 332
0.049382631 0.65499997 -0.10565586 1.3545097e-38 363 332
0.050531063 0.65499997 -0.10565586 1.3452901e-38 364 332
0.051679496 0.65499997 -0.10565586 1.3452901e-38 365 332
0.052989237 0.65700001 -0.10597847 1.3177393e-38 366 332
0.054141179 0.65700001 -0.10597847 1.3177393e-38 367 332
0.055293117 0.65700001 -0.10597847 1.2992645e-38 368 332
0.056530971 0.65799999 -0.10613978 1.2900449e-38 369 332
0.057684667 0.65799999 -0.10613978 1.2533471e-38 370 332
0.058838356 0.65799999 -0.10613978 1.2441276e-38 371 332
0.059992049 0.65799999 -0.10613978 1.2532036e-38 372 332
0.061238669 0.65899998 -0.10630108 1.2624591e-38 373 332
0.062583476 0.66100001 -0.1066237 1.2532039e-38 374 332
0.063742429 0.66100001 -0.1066237 1.2532039e-38 375 332
0.064901382 0.66100001 -0.1066237 1.2348008e-38 376 332
0.066060342 0.66100001 -0.1066237 1.2163257e-38 377 332
0.067320988 0.662 -0.10678501 1.2071061e-38 378 332
0.068481691 0.662 -0.10678501 1.1978865e-38 379 332
0.069747597 0.66299999 -0.10694631 1.1886673e-38 380 332
0.070910059 0.66299999 -0.10694631 1.1702283e-38 381 332
0.072181225 0.66399997 -0.10710762 1.151861e-38 382 332
0.073566355 0.66600001 -0.10743023 1.1426413e-38 383 332
0.074734077 0.66600001 -0.10743023 1.0875039e-38 384 332
0.075901799 0.66600001 -0.10743023 1.0782843e-38 385 332
0.077185236 0.667 -0.10759154 1.032367e-38 386 332
0.078354709 0.667 -0.10759154 1.013892e-38 387 332
0.079643413 0.66799998 -0.10775284 9.8637959e-39 388 332
0.081177577 0.671 -0.10823677 1.0970504e-38 389 332
-0.054037735 0.67000002 -0.1092502 1.2810053e-38 274 333
-0.052863002 0.67000002 -0.1092502 1.2810053e-38 275 333
-0.051533967 0.66799998 -0.10892407 1.2626373e-38 276 333
-0.050287351 0.667 -0.10876101 1.2626373e-38 277 333
-0.04904424 0.66600001 -0.10859796 1.2626373e-38 278 333
-0.047876518 0.66600001 -0.10859796 1.2626373e-38 279 333
-0.046568532 0.66399997 -0.10827184 1.2533819e-38 280 333
-0.045404319 0.66399997 -0.10827184 1.2533819e-38 281 333
-0.044173479 0.66299999 -0.10810877 1.2992995e-38 282 333
-0.043011017 0.66299999 -0.10810877 1.2992995e-38 283 333
-0.04172232 0.66100001 -0.10778265 1.2809683e-38 284 333
-0.04044063 0.65899998 -0.10745654 1.290188e-38 285 333
-0.039285187 0.65899998 -0.10745654 1.3177746e-38 286 333
-0.038129739 0.65899998 -0.10745654 1.3269942e-38 287 333
-0.036974292 0.65899998 -0.10745654 1.3270305e-38 288 333
-0.035764489 0.65799999 -0.10729348 1.3270305e-38 289 333
-0.034558199 0.65700001 -0.10713042 1.3821314e-38 290 333
-0.033304565 0.65499997 -0.10680429 1.3821314e-38 291 333
-0.032156132 0.65499997 -0.10680429 1.3913141e-38 292 333
-0.031007698 0.65499997 -0.10680429 1.4005695e-38 293 333
-0.029859263 0.65499997 -0.10680429 1.4006411e-38 294 333
-0.028710833 0.65499997 -0.10680429 1.4190804e-38 295 333
-0.027562398 0.65499997 -0.10680429 1.4190804e-38 296 333
-0.02637364 0.65399998 -0.10664123 1.4467389e-38 297 333
-0.025226958 0.65399998 -0.10664123 1.4283718e-38 298 333
-0.024080278 0.65399998 -0.10664123 1.4283718e-38 299 333
-0.022933599 0.65399998 -0.10664123 1.4376273e-38 300 333
-0.021786919 0.65399998 -0.10664123 1.4376273e-38 301 333
-0.020640239 0.65399998 -0.10664123 1.4468112e-38 302 333
-0.019523365 0.65499997 -0.10680429 1.4468112e-38 303 333
-0.018374931 0.65499997 -0.10680429 1.4651425e-38 304 333
-0.017226499 0.65499997 -0.10680429 1.474398e-38 305 333
-0.016078066 0.65499997 -0.10680429 1.474398e-38 306 333
-0.014906839 0.65399998 -0.10664123 1.474398e-38 307 333
-0.013760159 0.65399998 -0.10664123 1.4926937e-38 308 333
-0.012613479 0.65399998 -0.10664123 1.5019491e-38 309 333
-0.011466799 0.65399998 -0.10664123 1.4744699e-38 310 333
-0.01032012 0.65399998 -0.10664123 1.4744699e-38 311 333
-0.0091594132 0.653 -0.10647818 1.4744696e-38 312 333
-0.0080144862 0.653 -0.10647818 1.4744696e-38 313 333
-0.0068695596 0.653 -0.10647818 1.4744331e-38 314 333
-0.0057246331 0.653 -0.10647818 1.4836526e-38 315 333
-0.0045726933 0.65200001 -0.10631512 1.5019839e-38 316 333
-0.0034295199 0.65200001 -0.10631512 1.4927643e-38 317 333
-0.0022863466 0.65200001 -0.10631512 1.5294986e-38 318 333
-0.0011431733 0.65200001 -0.10631512 1.5202432e-38 319 333
0 0.65200001 -0.10631512 1.5202788e-38 320 333
0.0011431733 0.65200001 -0.10631512 1.5110591e-38 321 333
0.0022863466 0.65200001 -0.10631512 1.5202432e-38 322 333
0.0034295199 0.65200001 -0.10631512 1.5202432e-38 323 333
0.0045726933 0.65200001 -0.10631512 1.501912e-38 324 333
0.0057158666 0.65200001 -0.10631512 1.501912e-38 325 333
0.0068590399 0.65200001 -0.10631512 1.4652131e-38 326 333
0.0080144862 0.653 -0.10647818 1.4744328e-38 327 333
0.0091453865 0.65200001 -0.10631512 1.4744328e-38 328 333
0.01028856 0.65200001 -0.10631512 1.4744328e-38 329 333
0.011431733 0.65200001 -0.10631512 1.501912e-38 330 333
0.012574906 0.65200001 -0.10631512 1.4926923e-38 331 333
0.01371808 0.65200001 -0.10631512 1.5110238e-38 332 333
0.014861252 0.65200001 -0.10631512 1.5018042e-38 333 333
0.016004426 0.65200001 -0.10631512 1.5018042e-38 334 333
0.017147599 0.65200001 -0.10631512 1.4833652e-38 335 333
0.018290773 0.65200001 -0.10631512 1.4834008e-38 336 333
0.019433947 0.65200001 -0.10631512 1.4741813e-38 337 333
0.02057712 0.65200001 -0.10631512 1.4649983e-38 338 333
0.021720294 0.65200001 -0.10631512 1.4649983e-38 339 333
0.022863466 0.65200001 -0.10631512 1.4648908e-38 340 333
0.024006641 0.65200001 -0.10631512 1.4648908e-38 341 333
0.025149813 0.65200001 -0.10631512 1.4373397e-38 342 333
0.026292987 0.65200001 -0.10631512 1.4373397e-38 343 333
0.02743616 0.65200001 -0.10631512 1.4373397e-38 344 333
0.028579334 0.65200001 -0.10631512 1.42812e-38 345 333
0.029722504 0.65200001 -0.10631512 1.4281203e-38 346 333
0.03091302 0.653 -0.10647818 1.4096812e-38 347 333
0.032057945 0.653 -0.10647818 1.3821311e-38 348 333
0.033202872 0.653 -0.10647818 1.3729115e-38 349 333
0.034347799 0.653 -0.10647818 1.3820595e-38 350 333
0.035492726 0.653 -0.10647818 1.3820595e-38 351 333
0.036637653 0.653 -0.10647818 1.3820595e-38 352 333
0.037840437 0.65399998 -0.10664123 1.3820595e-38 353 333
0.038987119 0.65399998 -0.10664123 1.3911711e-38 354 333
