# .PCD v.7 - Point Cloud Data file format
FIELDS x y z rgb imX imY
SIZE 4 4 4 4 4 4
TYPE F F F F F F
COUNT 1 1 1 1 1 1
WIDTH 831
HEIGHT 1
VIEWPOINT 0 0 0 1 0 0 0
POINTS 831
DATA ascii
-0.026655925 0.66100001 -0.04867604 1.6312043e-38 297 282
-0.025419824 0.65899998 -0.048528757 1.6220575e-38 298 282
-0.024264378 0.65899998 -0.048528757 1.6128378e-38 299 282
-0.023108931 0.65899998 -0.048528757 1.6313139e-38 300 282
-0.021953486 0.65899998 -0.048528757 1.6313139e-38 301 282
-0.020734919 0.65700001 -0.048381478 1.6588284e-38 302 282
-0.019582979 0.65700001 -0.048381478 1.6588284e-38 303 282
-0.01843104 0.65700001 -0.048381478 1.6588634e-38 304 282
-0.017226499 0.65499997 -0.048234195 1.6588634e-38 305 282
-0.016078066 0.65499997 -0.048234195 1.6497155e-38 306 282
-0.014929632 0.65499997 -0.048234195 1.6497155e-38 307 282
-0.013781199 0.65499997 -0.048234195 1.6588987e-38 308 282
-0.012632766 0.65499997 -0.048234195 1.6681183e-38 309 282
-0.011519399 0.65700001 -0.048381478 1.6865564e-38 310 282
-0.01036746 0.65700001 -0.048381478 1.6681533e-38 311 282
-0.0092155198 0.65700001 -0.048381478 1.6865564e-38 312 282
-0.0080635799 0.65700001 -0.048381478 1.695776e-38 313 282
-0.0069116396 0.65700001 -0.048381478 1.6957763e-38 314 282
-0.0057596997 0.65700001 -0.048381478 1.704996e-38 315 282
-0.0046077599 0.65700001 -0.048381478 1.7049242e-38 316 282
-0.0034452998 0.65499997 -0.048234195 1.7233275e-38 317 282
-0.0022968664 0.65499997 -0.048234195 1.6774465e-38 318 282
-0.0011484332 0.65499997 -0.048234195 1.6774465e-38 319 282
0 0.65499997 -0.048234195 1.6866307e-38 320 282
0.0011484332 0.65499997 -0.048234195 1.6958862e-38 321 282
0.0022968664 0.65499997 -0.048234195 1.6957787e-38 322 282
0.0034452998 0.65499997 -0.048234195 1.6865591e-38 323 282
0.0045937328 0.65499997 -0.048234195 1.6590452e-38 324 282
0.0057421662 0.65499997 -0.048234195 1.6590452e-38 325 282
0.0068905996 0.65499997 -0.048234195 1.6590099e-38 326 282
0.0080635799 0.65700001 -0.048381478 1.6590099e-38 327 282
0.0092155198 0.65700001 -0.048381478 1.6682647e-38 328 282
0.01036746 0.65700001 -0.048381478 1.6590452e-38 329 282
0.011519399 0.65700001 -0.048381478 1.6038347e-38 330 282
0.01267134 0.65700001 -0.048381478 1.5669566e-38 331 282
0.013823279 0.65700001 -0.048381478 1.5208214e-38 332 282
0.014998012 0.65799999 -0.048455119 1.4747596e-38 333 282
0.016225345 0.66100001 -0.04867604 1.4284817e-38 334 282
0.017436899 0.66299999 -0.048823316 1.4561044e-38 335 282
0.018599359 0.66299999 -0.048823316 1.4930555e-38 336 282
0.019791625 0.66399997 -0.048896957 1.5391533e-38 337 282
0.020955838 0.66399997 -0.048896957 1.484125e-38 338 282
0.022120051 0.66399997 -0.048896957 1.502564e-38 339 282
0.023284266 0.66399997 -0.048896957 1.5118947e-38 340 282
0.02452212 0.66600001 -0.04904424 1.5948708e-38 341 282
0.02568984 0.66600001 -0.04904424 1.6591954e-38 342 282
0.026857559 0.66600001 -0.04904424 1.7145128e-38 343 282
0.028067358 0.667 -0.049117878 1.7144787e-38 344 282
0.038264744 0.68199998 -0.050222475 1.6128802e-38 352 282
0.039460517 0.68199998 -0.050222475 1.5207205e-38 353 282
0.040715907 0.68300003 -0.05029612 1.4104785e-38 354 282
0.041913435 0.68300003 -0.05029612 1.2721851e-38 355 282
0.043110959 0.68300003 -0.05029612 1.2992674e-38 356 282
0.045705888 0.68599999 -0.050517038 1.2624261e-38 358 282
0.047045439 0.68800002 -0.050664321 1.2347673e-38 359 282
0.048251733 0.68800002 -0.050664321 1.1886342e-38 360 282
0.049458027 0.68800002 -0.050664321 1.1240972e-38 361 282
0.050811596 0.69 -0.050811596 1.050378e-38 362 282
0.052021399 0.69 -0.050811596 1.0227193e-38 363 282
0.053231198 0.69 -0.050811596 1.0132496e-38 364 282
0.054519895 0.69099998 -0.050885238 8.8417575e-39 365 282
0.055731449 0.69099998 -0.050885238 6.5458897e-39 366 282
0.056942999 0.69099998 -0.050885238 9.3117586e-39 367 282
0.058154557 0.69099998 -0.050885238 1.4382183e-38 368 282
-0.080309682 0.69400001 -0.052322973 1.3181785e-38 254 283
-0.079092868 0.69400001 -0.052322973 1.2813004e-38 255 283
-0.077876054 0.69400001 -0.052322973 1.3088125e-38 256 283
-0.07665924 0.69400001 -0.052322973 1.3088125e-38 257 283
-0.075007595 0.69 -0.052021399 1.2905864e-38 258 283
-0.073583893 0.68800002 -0.051870614 1.3090255e-38 259 283
-0.07227239 0.68699998 -0.051795214 1.3733081e-38 260 283
-0.070964411 0.68599999 -0.051719822 1.3733081e-38 261 283
-0.06955824 0.68400002 -0.051569041 1.373414e-38 262 283
-0.068259016 0.68300003 -0.051493648 1.3641586e-38 263 283
-0.0669633 0.68199998 -0.051418249 1.3547951e-38 264 283
-0.065574668 0.68000001 -0.051267464 1.3547951e-38 265 283
-0.064287722 0.67900002 -0.051192071 1.3365012e-38 266 283
-0.063097201 0.67900002 -0.051192071 1.3641238e-38 267 283
-0.061815511 0.67799997 -0.051116679 1.3824911e-38 268 283
-0.06044792 0.676 -0.050965894 1.3824911e-38 269 283
-0.059175 0.67500001 -0.050890498 1.391746e-38 270 283
-0.057991501 0.67500001 -0.050890498 1.391746e-38 271 283
-0.056723841 0.67400002 -0.050815105 1.4101491e-38 272 283
-0.055377278 0.67199999 -0.050664317 1.4101491e-38 273 283
-0.054037735 0.67000002 -0.050513536 1.4194044e-38 274 283
-0.052863002 0.67000002 -0.050513536 1.3917815e-38 275 283
-0.051533967 0.66799998 -0.050362743 1.3917462e-38 276 283
-0.050362743 0.66799998 -0.050362743 1.4285886e-38 277 283
-0.049117878 0.667 -0.050287351 1.4286608e-38 278 283
-0.047948405 0.667 -0.050287351 1.4286608e-38 279 283
-0.046708796 0.66600001 -0.050211959 1.4469552e-38 280 283
-0.045541082 0.66600001 -0.050211959 1.4654301e-38 281 283
-0.04437336 0.66600001 -0.050211959 1.4746866e-38 282 283
-0.043075889 0.66399997 -0.05006117 1.5023454e-38 283 283
-0.041911677 0.66399997 -0.05006117 1.5483356e-38 284 283
-0.040686097 0.66299999 -0.049985778 1.5759943e-38 285 283
-0.039523639 0.66299999 -0.049985778 1.5852492e-38 286 283
-0.038303319 0.662 -0.049910385 1.5759937e-38 287 283
-0.037142612 0.662 -0.049910385 1.5851773e-38 288 283
-0.035981905 0.662 -0.049910385 1.5851773e-38 289 283
-0.0347686 0.66100001 -0.049834993 1.5943615e-38 290 283
-0.033609647 0.66100001 -0.049834993 1.5943615e-38 291 283
-0.032450691 0.66100001 -0.049834993 1.6126927e-38 292 283
-0.031291738 0.66100001 -0.049834993 1.6219123e-38 293 283
-0.030132787 0.66100001 -0.049834993 1.621876e-38 294 283
-0.028886165 0.65899998 -0.049684204 1.6126565e-38 295 283
-0.027730718 0.65899998 -0.049684204 1.585142e-38 296 283
-0.026575271 0.65899998 -0.049684204 1.585142e-38 297 283
-0.025419824 0.65899998 -0.049684204 1.6126574e-38 298 283
-0.024264378 0.65899998 -0.049684204 1.6126574e-38 299 283
-0.023108931 0.65899998 -0.049684204 1.6036182e-38 300 283
-0.021953486 0.65899998 -0.049684204 1.6036182e-38 301 283
-0.020734919 0.65700001 -0.049533416 1.6219494e-38 302 283
-0.019582979 0.65700001 -0.049533416 1.6219494e-38 303 283
-0.018374931 0.65499997 -0.049382631 1.6219845e-38 304 283
-0.017226499 0.65499997 -0.049382631 1.6035814e-38 305 283
-0.016078066 0.65499997 -0.049382631 1.6036164e-38 306 283
-0.014929632 0.65499997 -0.049382631 1.5943968e-38 307 283
-0.013781199 0.65499997 -0.049382631 1.6219476e-38 308 283
-0.012632766 0.65499997 -0.049382631 1.6219476e-38 309 283
-0.011484332 0.65499997 -0.049382631 1.6219476e-38 310 283
-0.010335899 0.65499997 -0.049382631 1.6219476e-38 311 283
-0.0091874655 0.65499997 -0.049382631 1.5852867e-38 312 283
-0.008039033 0.65499997 -0.049382631 1.5852867e-38 313 283
-0.0069116396 0.65700001 -0.049533416 1.6036549e-38 314 283
-0.0057421662 0.65499997 -0.049382631 1.5852517e-38 315 283
-0.0045937328 0.65499997 -0.049382631 1.6036193e-38 316 283
-0.0034452998 0.65499997 -0.049382631 1.6128748e-38 317 283
-0.0022968664 0.65499997 -0.049382631 1.5852531e-38 318 283
-0.0011484332 0.65499997 -0.049382631 1.5944726e-38 319 283
0 0.65499997 -0.049382631 1.5853603e-38 320 283
0.0011484332 0.65499997 -0.049382631 1.5853603e-38 321 283
0.0022968664 0.65499997 -0.049382631 1.6037631e-38 322 283
0.0034452998 0.65499997 -0.049382631 1.6037631e-38 323 283
0.0045937328 0.65499997 -0.049382631 1.6129476e-38 324 283
0.0057421662 0.65499997 -0.049382631 1.6129476e-38 325 283
0.0068905996 0.65499997 -0.049382631 1.6405703e-38 326 283
0.008039033 0.65499997 -0.049382631 1.6405703e-38 327 283
0.0092155198 0.65700001 -0.049533416 1.64057e-38 328 283
0.01036746 0.65700001 -0.049533416 1.6313505e-38 329 283
0.011484332 0.65499997 -0.049382631 1.5853956e-38 330 283
0.012632766 0.65499997 -0.049382631 1.5485173e-38 331 283
0.013823279 0.65700001 -0.049533416 1.493235e-38 332 283
0.014998012 0.65799999 -0.049608808 1.4563567e-38 333 283
0.016176252 0.65899998 -0.049684204 1.4375932e-38 334 283
0.0173843 0.66100001 -0.049834993 1.4375932e-38 335 283
0.018571306 0.662 -0.049910385 1.4100791e-38 336 283
0.019732011 0.662 -0.049910385 1.4377378e-38 337 283
0.020892721 0.662 -0.049910385 1.4378477e-38 338 283
0.02208674 0.66299999 -0.049985778 1.4747258e-38 339 283
0.0232492 0.66299999 -0.049985778 1.4748001e-38 340 283
0.024448479 0.66399997 -0.05006117 1.5577761e-38 341 283
0.02568984 0.66600001 -0.050211959 1.5760726e-38 342 283
0.026857559 0.66600001 -0.050211959 1.566853e-38 343 283
0.028067358 0.667 -0.050287351 1.5207555e-38 344 283
0.029236831 0.667 -0.050287351 1.493061e-38 345 283
0.037068974 0.68199998 -0.051418249 1.4009362e-38 351 283
0.038264744 0.68199998 -0.051418249 1.410011e-38 352 283
0.039460517 0.68199998 -0.051418249 1.3731326e-38 353 283
0.040656291 0.68199998 -0.051418249 1.2816927e-38 354 283
0.041913435 0.68300003 -0.051493648 1.1987167e-38 355 283
0.043110959 0.68300003 -0.051493648 1.2902292e-38 356 283
0.044503104 0.68599999 -0.051719822 1.2256922e-38 357 283
0.046977058 0.68699998 -0.051795214 1.3179604e-38 359 283
0.048251733 0.68800002 -0.051870614 1.2994501e-38 360 283
0.049458027 0.68800002 -0.051870614 1.2810109e-38 361 283
0.050664321 0.68800002 -0.051870614 1.1979276e-38 362 283
0.051870614 0.68800002 -0.051870614 1.1979276e-38 363 283
0.053076908 0.68800002 -0.051870614 1.1423588e-38 364 283
0.054440998 0.69 -0.052021399 8.7499136e-39 365 283
0.055650797 0.69 -0.052021399 4.7055701e-39 366 283
-0.073583893 0.68800002 -0.053076908 1.2078999e-38 259 284
-0.07227239 0.68699998 -0.052999757 1.3181006e-38 260 284
-0.070757523 0.68400002 -0.05276832 1.3181006e-38 261 284
-0.069456547 0.68300003 -0.052691177 1.3457207e-38 262 284
-0.068259016 0.68300003 -0.052691177 1.3641238e-38 263 284
-0.0669633 0.68199998 -0.052614026 1.3457202e-38 264 284
-0.065574668 0.68000001 -0.052459732 1.3365006e-38 265 284
-0.064287722 0.67900002 -0.052382588 1.3457926e-38 266 284
-0.063097201 0.67900002 -0.052382588 1.3550122e-38 267 284
-0.061815511 0.67799997 -0.052305438 1.3733434e-38 268 284
-0.06044792 0.676 -0.052151144 1.3733434e-38 269 284
-0.059175 0.67500001 -0.052074 1.3917462e-38 270 284
-0.057991501 0.67500001 -0.052074 1.3917462e-38 271 284
-0.056723841 0.67400002 -0.051996857 1.3825983e-38 272 284
-0.055377278 0.67199999 -0.051842555 1.3733787e-38 273 284
-0.054037735 0.67000002 -0.051688269 1.391746e-38 274 284
-0.052863002 0.67000002 -0.051688269 1.3825264e-38 275 284
-0.051533967 0.66799998 -0.051533967 1.3824911e-38 276 284
-0.050362743 0.66799998 -0.051533967 1.4101496e-38 277 284
-0.049117878 0.667 -0.051456824 1.4101496e-38 278 284
-0.047948405 0.667 -0.051456824 1.4101496e-38 279 284
-0.046708796 0.66600001 -0.051379681 1.4284087e-38 280 284
-0.045541082 0.66600001 -0.051379681 1.4284087e-38 281 284
-0.04437336 0.66600001 -0.051379681 1.364232e-38 282 284
-0.043075889 0.66399997 -0.051225383 1.410294e-38 283 284
-0.041911677 0.66399997 -0.051225383 1.4655397e-38 284 284
-0.040686097 0.66299999 -0.051148236 1.4655397e-38 285 284
-0.039523639 0.66299999 -0.051148236 1.4930893e-38 286 284
-0.038303319 0.662 -0.051071092 1.4930893e-38 287 284
-0.037142612 0.662 -0.051071092 1.4655745e-38 288 284
-0.035981905 0.662 -0.051071092 1.4840495e-38 289 284
-0.0347686 0.66100001 -0.050993945 1.5483356e-38 290 284
-0.033609647 0.66100001 -0.050993945 1.5759943e-38 291 284
-0.032450691 0.66100001 -0.050993945 1.5758868e-38 292 284
-0.031197058 0.65899998 -0.050839648 1.5851064e-38 293 284
-0.030041611 0.65899998 -0.050839648 1.5574473e-38 294 284
-0.028886165 0.65899998 -0.050839648 1.5113855e-38 295 284
-0.027730718 0.65899998 -0.050839648 1.4470649e-38 296 284
-0.026534945 0.65799999 -0.050762504 1.4839791e-38 297 284
-0.025381252 0.65799999 -0.050762504 1.539118e-38 298 284
-0.02422756 0.65799999 -0.050762504 1.5575571e-38 299 284
-0.023073865 0.65799999 -0.050762504 1.5759237e-38 300 284
-0.021920172 0.65799999 -0.050762504 1.5759237e-38 301 284
-0.020671798 0.65499997 -0.050531063 1.5943262e-38 302 284
-0.019523365 0.65499997 -0.050531063 1.5943262e-38 303 284
-0.018374931 0.65499997 -0.050531063 1.5851064e-38 304 284
-0.017226499 0.65499997 -0.050531063 1.5943618e-38 305 284
-0.016078066 0.65499997 -0.050531063 1.6034729e-38 306 284
-0.014929632 0.65499997 -0.050531063 1.6034729e-38 307 284
-0.013781199 0.65499997 -0.050531063 1.6034732e-38 308 284
-0.012632766 0.65499997 -0.050531063 1.6034732e-38 309 284
-0.011484332 0.65499997 -0.050531063 1.5851066e-38 310 284
-0.010335899 0.65499997 -0.050531063 1.5851066e-38 311 284
-0.0091874655 0.65499997 -0.050531063 1.5575927e-38 312 284
-0.008039033 0.65499997 -0.050531063 1.5575927e-38 313 284
-0.0068905996 0.65499997 -0.050531063 1.5575574e-38 314 284
-0.0057421662 0.65499997 -0.050531063 1.5575574e-38 315 284
-0.0045937328 0.65499997 -0.050531063 1.5575218e-38 316 284
-0.0034452998 0.65499997 -0.050531063 1.5667414e-38 317 284
-0.0022968664 0.65499997 -0.050531063 1.5667419e-38 318 284
-0.0011484332 0.65499997 -0.050531063 1.5667419e-38 319 284
0 0.65499997 -0.050531063 1.5667414e-38 320 284
0.0011484332 0.65499997 -0.050531063 1.5667414e-38 321 284
0.0022968664 0.65499997 -0.050531063 1.5667414e-38 322 284
0.0034452998 0.65499997 -0.050531063 1.5852164e-38 323 284
0.0045937328 0.65499997 -0.050531063 1.5760334e-38 324 284
0.0057421662 0.65499997 -0.050531063 1.5852531e-38 325 284
0.0068905996 0.65499997 -0.050531063 1.5669937e-38 326 284
0.008039033 0.65499997 -0.050531063 1.5669937e-38 327 284
0.0091874655 0.65499997 -0.050531063 1.6129474e-38 328 284
0.010335899 0.65499997 -0.050531063 1.6037278e-38 329 284
0.011484332 0.65499997 -0.050531063 1.5852881e-38 330 284
0.012632766 0.65499997 -0.050531063 1.5760684e-38 331 284
0.013823279 0.65700001 -0.050685361 1.5209663e-38 332 284
0.01497522 0.65700001 -0.050685361 1.4933076e-38 333 284
0.016151706 0.65799999 -0.050762504 1.4839082e-38 334 284
0.0173843 0.66100001 -0.050993945 1.4654691e-38 335 284
0.018543253 0.66100001 -0.050993945 1.4379549e-38 336 284
0.019702207 0.66100001 -0.050993945 1.4379549e-38 337 284
0.02086116 0.66100001 -0.050993945 1.4563943e-38 338 284
0.022053426 0.662 -0.051071092 1.4563943e-38 339 284
0.0232492 0.66299999 -0.051148236 1.5023493e-38 340 284
0.024448479 0.66399997 -0.051225383 1.5576666e-38 341 284
0.025612691 0.66399997 -0.051225383 1.5761783e-38 342 284
0.026776904 0.66399997 -0.051225383 1.5669587e-38 343 284
0.028025279 0.66600001 -0.051379681 1.548412e-38 344 284
0.029236831 0.667 -0.051456824 1.5023143e-38 345 284
0.030543067 0.67000002 -0.051688269 1.4563605e-38 346 284
0.031812478 0.67199999 -0.051842555 1.447141e-38 347 284
0.033137999 0.67500001 -0.052074 1.4195899e-38 348 284
0.034372345 0.676 -0.052151144 1.4288095e-38 349 284
0.035767999 0.68000001 -0.052459732 1.4195533e-38 350 284
0.036960267 0.68000001 -0.052459732 1.4379564e-38 351 284
0.038152531 0.68000001 -0.052459732 1.4378848e-38 352 284
0.039460517 0.68199998 -0.052614026 1.4286653e-38 353 284
0.040656291 0.68199998 -0.052614026 1.3089924e-38 354 284
0.041913435 0.68300003 -0.052691177 1.0785033e-38 355 284
0.043174081 0.68400002 -0.05276832 8.3894043e-39 356 284
0.044503104 0.68599999 -0.05292261 7.0986655e-39 357 284
0.048251733 0.68800002 -0.053076908 1.1707362e-38 360 284
0.049458027 0.68800002 -0.053076908 1.1430774e-38 361 284
0.050664321 0.68800002 -0.053076908 1.0690692e-38 362 284
0.051870614 0.68800002 -0.053076908 1.0505941e-38 363 284
0.053076908 0.68800002 -0.053076908 1.022684e-38 364 284
0.054283202 0.68800002 -0.053076908 8.7517101e-39 365 284
-0.070757523 0.68400002 -0.053967599 1.2537807e-38 261 285
-0.069456547 0.68300003 -0.053888701 1.3365024e-38 262 285
-0.068259016 0.68300003 -0.053888701 1.3365024e-38 263 285
-0.0669633 0.68199998 -0.053809796 1.345757e-38 264 285
-0.065574668 0.68000001 -0.053652 1.345757e-38 265 285
-0.064287722 0.67900002 -0.053573098 1.3733437e-38 266 285
-0.063097201 0.67900002 -0.053573098 1.3733437e-38 267 285
-0.061815511 0.67799997 -0.053494196 1.3824911e-38 268 285
-0.06044792 0.676 -0.053336397 1.3824911e-38 269 285
-0.059175 0.67500001 -0.053257499 1.3917462e-38 270 285
-0.057991501 0.67500001 -0.053257499 1.3825267e-38 271 285
-0.056723841 0.67400002 -0.053178601 1.3825264e-38 272 285
-0.055377278 0.67199999 -0.053020798 1.3825264e-38 273 285
-0.054118387 0.671 -0.052941896 1.3825267e-38 274 285
-0.052863002 0.67000002 -0.052863002 1.3825267e-38 275 285
-0.051688269 0.67000002 -0.052863002 1.3733431e-38 276 285
-0.050362743 0.66799998 -0.052705199 1.3733431e-38 277 285
-0.04919152 0.66799998 -0.052705199 1.3733434e-38 278 285
-0.047948405 0.667 -0.052626297 1.3641238e-38 279 285
-0.046778932 0.667 -0.052626297 1.3915677e-38 280 285
-0.045541082 0.66600001 -0.052547399 1.3915677e-38 281 285
-0.04437336 0.66600001 -0.052547399 1.3457576e-38 282 285
-0.043075889 0.66399997 -0.052389596 1.3641967e-38 283 285
-0.041911677 0.66399997 -0.052389596 1.4009675e-38 284 285
-0.040686097 0.66299999 -0.052310698 1.4285902e-38 285 285
-0.039523639 0.66299999 -0.052310698 1.3919627e-38 286 285
-0.038303319 0.662 -0.0522318 1.3827432e-38 287 285
-0.037086505 0.66100001 -0.052152898 1.410329e-38 288 285
-0.035927553 0.66100001 -0.052152898 1.428804e-38 289 285
-0.0347686 0.66100001 -0.052152898 1.5023457e-38 290 285
-0.033609647 0.66100001 -0.052152898 1.5207848e-38 291 285
-0.032352503 0.65899998 -0.051995095 1.5574478e-38 292 285
-0.031197058 0.65899998 -0.051995095 1.5851066e-38 293 285
-0.030041611 0.65899998 -0.051995095 1.5023101e-38 294 285
-0.028886165 0.65899998 -0.051995095 1.4285536e-38 295 285
-0.027730718 0.65899998 -0.051995095 1.3639816e-38 296 285
-0.026534945 0.65799999 -0.051916201 1.419299e-38 297 285
-0.025381252 0.65799999 -0.051916201 1.4562861e-38 298 285
-0.024190739 0.65700001 -0.051837299 1.4839807e-38 299 285
-0.023038799 0.65700001 -0.051837299 1.5390457e-38 300 285
-0.021886859 0.65700001 -0.051837299 1.5390457e-38 301 285
-0.020671798 0.65499997 -0.051679496 1.5390813e-38 302 285
-0.019523365 0.65499997 -0.051679496 1.548301e-38 303 285
-0.018374931 0.65499997 -0.051679496 1.5391177e-38 304 285
-0.017226499 0.65499997 -0.051679496 1.5391177e-38 305 285
-0.01605352 0.65399998 -0.051600594 1.5391177e-38 306 285
-0.014906839 0.65399998 -0.051600594 1.5391177e-38 307 285
-0.013781199 0.65499997 -0.051679496 1.539118e-38 308 285
-0.012632766 0.65499997 -0.051679496 1.539118e-38 309 285
-0.011484332 0.65499997 -0.051679496 1.5115315e-38 310 285
-0.010335899 0.65499997 -0.051679496 1.5115315e-38 311 285
-0.0091734398 0.65399998 -0.051600594 1.5115317e-38 312 285
-0.0080267601 0.65399998 -0.051600594 1.5022763e-38 313 285
-0.0068800794 0.65399998 -0.051600594 1.5022766e-38 314 285
-0.0057333997 0.65399998 -0.051600594 1.5022766e-38 315 285
-0.0045867199 0.65399998 -0.051600594 1.4839101e-38 316 285
-0.0034452998 0.65499997 -0.051679496 1.4931296e-38 317 285
-0.00229336 0.65399998 -0.051600594 1.4931296e-38 318 285
-0.00114668 0.65399998 -0.051600594 1.4931296e-38 319 285
0 0.65399998 -0.051600594 1.4931296e-38 320 285
0.00114668 0.65399998 -0.051600594 1.5023493e-38 321 285
0.0022968664 0.65499997 -0.051679496 1.5023496e-38 322 285
0.0034452998 0.65499997 -0.051679496 1.5207527e-38 323 285
0.0045937328 0.65499997 -0.051679496 1.5299723e-38 324 285
0.0057421662 0.65499997 -0.051679496 1.5299723e-38 325 285
0.0068905996 0.65499997 -0.051679496 1.5300076e-38 326 285
0.008039033 0.65499997 -0.051679496 1.5392272e-38 327 285
0.0091874655 0.65499997 -0.051679496 1.5485186e-38 328 285
0.010335899 0.65499997 -0.051679496 1.5485186e-38 329 285
0.011484332 0.65499997 -0.051679496 1.548447e-38 330 285
0.012632766 0.65499997 -0.051679496 1.5392274e-38 331 285
0.013781199 0.65499997 -0.051679496 1.5024918e-38 332 285
0.01497522 0.65700001 -0.051837299 1.4840526e-38 333 285
0.016151706 0.65799999 -0.051916201 1.4840873e-38 334 285
0.017331699 0.65899998 -0.051995095 1.4656842e-38 335 285
0.018487146 0.65899998 -0.051995095 1.4657561e-38 336 285
0.019702207 0.66100001 -0.052152898 1.4657561e-38 337 285
0.02086116 0.66100001 -0.052152898 1.4932356e-38 338 285
0.022053426 0.662 -0.0522318 1.5024553e-38 339 285
0.0232492 0.66299999 -0.052310698 1.5024931e-38 340 285
0.024411658 0.66299999 -0.052310698 1.5209681e-38 341 285
0.025612691 0.66399997 -0.052389596 1.5485922e-38 342 285
0.026776904 0.66399997 -0.052389596 1.5485922e-38 343 285
0.028025279 0.66600001 -0.052547399 1.5301891e-38 344 285
0.029236831 0.667 -0.052626297 1.5117858e-38 345 285
0.030451892 0.66799998 -0.052705199 1.5024581e-38 346 285
0.031765141 0.671 -0.052941896 1.4840549e-38 347 285
0.033088908 0.67400002 -0.053178601 1.4563958e-38 348 285
0.034372345 0.676 -0.053336397 1.4563958e-38 349 285
0.0356628 0.67799997 -0.053494196 1.428845e-38 350 285
0.036960267 0.68000001 -0.053652 1.4380646e-38 351 285
0.038152531 0.68000001 -0.053652 1.4471056e-38 352 285
0.039344799 0.68000001 -0.053652 1.4010438e-38 353 285
0.040537067 0.68000001 -0.053652 1.2076508e-38 354 285
0.041852064 0.68199998 -0.053809796 8.2968458e-39 355 285
0.043110959 0.68300003 -0.053888701 5.9937753e-39 356 285
-0.070654072 0.68300003 -0.055086225 1.1157413e-38 261 286
-0.069456547 0.68300003 -0.055086225 1.2721119e-38 262 286
-0.068259016 0.68300003 -0.055086225 1.309026e-38 263 286
-0.0669633 0.68199998 -0.055005573 1.3640538e-38 264 286
-0.065574668 0.68000001 -0.054844268 1.3640538e-38 265 286
-0.064287722 0.67900002 -0.054763615 1.3640888e-38 266 286
-0.063097201 0.67900002 -0.054763615 1.3733084e-38 267 286
-0.061815511 0.67799997 -0.054682959 1.3825632e-38 268 286
-0.06044792 0.676 -0.054521654 1.3825632e-38 269 286
-0.059262663 0.676 -0.054521654 1.3825267e-38 270 286
-0.057991501 0.67500001 -0.054441001 1.3825267e-38 271 286
-0.056723841 0.67400002 -0.054360349 1.3825267e-38 272 286
-0.055377278 0.67199999 -0.054199036 1.3825267e-38 273 286
-0.054118387 0.671 -0.054118387 1.3733431e-38 274 286
-0.052863002 0.67000002 -0.054037735 1.3733431e-38 275 286
-0.051688269 0.67000002 -0.054037735 1.3732712e-38 276 286
-0.050362743 0.66799998 -0.053876422 1.3732712e-38 277 286
-0.04919152 0.66799998 -0.053876422 1.3641236e-38 278 286
-0.047948405 0.667 -0.05379577 1.3457204e-38 279 286
-0.046778932 0.667 -0.05379577 1.364052e-38 280 286
-0.045541082 0.66600001 -0.053715117 1.3548324e-38 281 286
-0.04437336 0.66600001 -0.053715117 1.3456851e-38 282 286
-0.043205637 0.66600001 -0.053715117 1.3456851e-38 283 286
-0.041911677 0.66399997 -0.053553808 1.3640885e-38 284 286
-0.040686097 0.66299999 -0.053473156 1.3733081e-38 285 286
-0.039523639 0.66299999 -0.053473156 1.3641236e-38 286 286
-0.038303319 0.662 -0.053392503 1.3365009e-38 287 286
-0.037086505 0.66100001 -0.053311851 1.3273165e-38 288 286
-0.035927553 0.66100001 -0.053311851 1.3457558e-38 289 286
-0.0347686 0.66100001 -0.053311851 1.3918181e-38 290 286
-0.033609647 0.66100001 -0.053311851 1.4102574e-38 291 286
-0.032352503 0.65899998 -0.053150542 1.4285539e-38 292 286
-0.031197058 0.65899998 -0.053150542 1.4285539e-38 293 286
-0.030041611 0.65899998 -0.053150542 1.4102226e-38 294 286
-0.028886165 0.65899998 -0.053150542 1.3272107e-38 295 286
-0.027688639 0.65799999 -0.05306989 1.3084844e-38 296 286
-0.026534945 0.65799999 -0.05306989 1.3822409e-38 297 286
-0.025381252 0.65799999 -0.05306989 1.4008974e-38 298 286
-0.024190739 0.65700001 -0.052989237 1.4377397e-38 299 286
-0.023038799 0.65700001 -0.052989237 1.5113517e-38 300 286
-0.021886859 0.65700001 -0.052989237 1.5113517e-38 301 286
-0.020671798 0.65499997 -0.052827932 1.5573403e-38 302 286
-0.019523365 0.65499997 -0.052827932 1.5665599e-38 303 286
-0.018374931 0.65499997 -0.052827932 1.5298612e-38 304 286
-0.017226499 0.65499997 -0.052827932 1.5206416e-38 305 286
-0.01605352 0.65399998 -0.052747279 1.5297895e-38 306 286
-0.014906839 0.65399998 -0.052747279 1.52057e-38 307 286
-0.013781199 0.65499997 -0.052827932 1.5113864e-38 308 286
-0.012613479 0.65399998 -0.052747279 1.5113864e-38 309 286
-0.011466799 0.65399998 -0.052747279 1.4930908e-38 310 286
-0.01032012 0.65399998 -0.052747279 1.4930908e-38 311 286
-0.0091734398 0.65399998 -0.052747279 1.4838356e-38 312 286
-0.0080267601 0.65399998 -0.052747279 1.4746161e-38 313 286
-0.0068800794 0.65399998 -0.052747279 1.4652889e-38 314 286
-0.0057333997 0.65399998 -0.052747279 1.4745443e-38 315 286
-0.0045867199 0.65399998 -0.052747279 1.4746164e-38 316 286
-0.0034400397 0.65399998 -0.052747279 1.4746164e-38 317 286
-0.00229336 0.65399998 -0.052747279 1.4747243e-38 318 286
-0.00114668 0.65399998 -0.052747279 1.4747243e-38 319 286
0 0.65399998 -0.052747279 1.4930202e-38 320 286
0.00114668 0.65399998 -0.052747279 1.4930202e-38 321 286
0.0022968664 0.65499997 -0.052827932 1.4838732e-38 322 286
0.0034452998 0.65499997 -0.052827932 1.5022763e-38 323 286
0.0045867199 0.65399998 -0.052747279 1.5022763e-38 324 286
0.0057333997 0.65399998 -0.052747279 1.5115317e-38 325 286
0.0068800794 0.65399998 -0.052747279 1.5115317e-38 326 286
0.0080267601 0.65399998 -0.052747279 1.5207515e-38 327 286
0.0091874655 0.65499997 -0.052827932 1.5207159e-38 328 286
0.010335899 0.65499997 -0.052827932 1.5299713e-38 329 286
0.011484332 0.65499997 -0.052827932 1.5207161e-38 330 286
0.012632766 0.65499997 -0.052827932 1.5207161e-38 331 286
0.013781199 0.65499997 -0.052827932 1.5023846e-38 332 286
0.01497522 0.65700001 -0.052989237 1.5023846e-38 333 286
0.016151706 0.65799999 -0.05306989 1.484017e-38 334 286
0.017331699 0.65899998 -0.053150542 1.4932367e-38 335 286
0.018487146 0.65899998 -0.053150542 1.4841606e-38 336 286
0.019642593 0.65899998 -0.053150542 1.5025637e-38 337 286
0.02086116 0.66100001 -0.053311851 1.5117836e-38 338 286
0.022020113 0.66100001 -0.053311851 1.5117836e-38 339 286
0.023214132 0.662 -0.053392503 1.5209315e-38 340 286
0.024411658 0.66299999 -0.053473156 1.5209315e-38 341 286
0.025612691 0.66399997 -0.053553808 1.5301158e-38 342 286
0.026776904 0.66399997 -0.053553808 1.5301158e-38 343 286
0.028025279 0.66600001 -0.053715117 1.530116e-38 344 286
0.029236831 0.667 -0.05379577 1.5577389e-38 345 286
0.030406304 0.667 -0.05379577 1.5118561e-38 346 286
0.0317178 0.67000002 -0.054037735 1.4841975e-38 347 286
0.03299072 0.67199999 -0.054199036 1.4657225e-38 348 286
0.034372345 0.676 -0.054521654 1.4288801e-38 349 286
0.0356628 0.67799997 -0.054682959 1.4195177e-38 350 286
0.036960267 0.68000001 -0.054844268 1.4010785e-38 351 286
0.038152531 0.68000001 -0.054844268 1.3733494e-38 352 286
0.039344799 0.68000001 -0.054844268 1.2719344e-38 353 286
0.040537067 0.68000001 -0.054844268 1.0603176e-38 354 286
0.041852064 0.68199998 -0.055005573 7.0079048e-39 355 286
0.043110959 0.68300003 -0.055086225 6.7299054e-39 356 286
-0.069456547 0.68300003 -0.056283753 1.1062715e-38 262 287
-0.068259016 0.68300003 -0.056283753 1.1615888e-38 263 287
-0.0669633 0.68199998 -0.056201346 1.2444182e-38 264 287
-0.065574668 0.68000001 -0.056036532 1.290516e-38 265 287
-0.064287722 0.67900002 -0.055954125 1.3180653e-38 266 287
-0.063097201 0.67900002 -0.055954125 1.3273207e-38 267 287
-0.061815511 0.67799997 -0.055871718 1.3732733e-38 268 287
-0.06044792 0.676 -0.055706903 1.3732733e-38 269 287
-0.059262663 0.676 -0.055706903 1.3549766e-38 270 287
-0.057991501 0.67500001 -0.0556245 1.3549766e-38 271 287
-0.056723841 0.67400002 -0.055542093 1.3733434e-38 272 287
-0.055377278 0.67199999 -0.055377278 1.3733434e-38 273 287
-0.054118387 0.671 -0.055294871 1.3641238e-38 274 287
-0.052863002 0.67000002 -0.055212468 1.3641238e-38 275 287
-0.051688269 0.67000002 -0.055212468 1.3641238e-38 276 287
-0.050362743 0.66799998 -0.05504765 1.3641238e-38 277 287
-0.049117878 0.667 -0.054965243 1.3456851e-38 278 287
-0.047948405 0.667 -0.054965243 1.3456851e-38 279 287
-0.046778932 0.667 -0.054965243 1.3457207e-38 280 287
-0.045541082 0.66600001 -0.054882839 1.3457207e-38 281 287
-0.04437336 0.66600001 -0.054882839 1.3364656e-38 282 287
-0.043075889 0.66399997 -0.054718021 1.3456851e-38 283 287
-0.041911677 0.66399997 -0.054718021 1.308916e-38 284 287
-0.040686097 0.66299999 -0.054635618 1.2996965e-38 285 287
-0.039523639 0.66299999 -0.054635618 1.2996968e-38 286 287
-0.038303319 0.662 -0.054553211 1.2904412e-38 287 287
-0.037086505 0.66100001 -0.054470807 1.2996965e-38 288 287
-0.035927553 0.66100001 -0.054470807 1.2904768e-38 289 287
-0.0347686 0.66100001 -0.054470807 1.3272463e-38 290 287
-0.033609647 0.66100001 -0.054470807 1.3456854e-38 291 287
-0.032352503 0.65899998 -0.054305989 1.3456501e-38 292 287
-0.031197058 0.65899998 -0.054305989 1.3456501e-38 293 287
-0.030041611 0.65899998 -0.054305989 1.3272125e-38 294 287
-0.028842334 0.65799999 -0.054223582 1.3088094e-38 295 287
-0.027688639 0.65799999 -0.054223582 1.3178504e-38 296 287
-0.026534945 0.65799999 -0.054223582 1.32707e-38 297 287
-0.025342681 0.65700001 -0.054141179 1.3271066e-38 298 287
-0.024190739 0.65700001 -0.054141179 1.3548011e-38 299 287
-0.023038799 0.65700001 -0.054141179 1.4100819e-38 300 287
-0.021886859 0.65700001 -0.054141179 1.4561439e-38 301 287
-0.020671798 0.65499997 -0.053976361 1.4930558e-38 302 287
-0.019523365 0.65499997 -0.053976361 1.5022753e-38 303 287
-0.018374931 0.65499997 -0.053976361 1.483871e-38 304 287
-0.017226499 0.65499997 -0.053976361 1.4562481e-38 305 287
-0.016078066 0.65499997 -0.053976361 1.4377381e-38 306 287
-0.014929632 0.65499997 -0.053976361 1.4469577e-38 307 287
-0.013760159 0.65399998 -0.053893957 1.4194432e-38 308 287
-0.012613479 0.65399998 -0.053893957 1.4286986e-38 309 287
-0.011466799 0.65399998 -0.053893957 1.4287706e-38 310 287
-0.01032012 0.65399998 -0.053893957 1.4195151e-38 311 287
-0.0091594132 0.653 -0.05381155 1.4194432e-38 312 287
-0.0080144862 0.653 -0.05381155 1.3917845e-38 313 287
-0.0068695596 0.653 -0.05381155 1.3916756e-38 314 287
-0.0057246331 0.653 -0.05381155 1.3916756e-38 315 287
-0.0045797066 0.653 -0.05381155 1.3826728e-38 316 287
-0.0034400397 0.65399998 -0.053893957 1.3918924e-38 317 287
-0.00229336 0.65399998 -0.053893957 1.4285198e-38 318 287
-0.00114668 0.65399998 -0.053893957 1.4377752e-38 319 287
0 0.65399998 -0.053893957 1.437848e-38 320 287
0.00114668 0.65399998 -0.053893957 1.4562511e-38 321 287
0.00229336 0.65399998 -0.053893957 1.4378843e-38 322 287
0.0034400397 0.65399998 -0.053893957 1.4563593e-38 323 287
0.0045867199 0.65399998 -0.053893957 1.4472116e-38 324 287
0.0057333997 0.65399998 -0.053893957 1.4472116e-38 325 287
0.0068800794 0.65399998 -0.053893957 1.4563956e-38 326 287
0.0080267601 0.65399998 -0.053893957 1.4563956e-38 327 287
0.0091734398 0.65399998 -0.053893957 1.4839822e-38 328 287
0.01032012 0.65399998 -0.053893957 1.4839822e-38 329 287
0.011484332 0.65499997 -0.053976361 1.4838747e-38 330 287
0.012632766 0.65499997 -0.053976361 1.4931302e-38 331 287
0.013781199 0.65499997 -0.053976361 1.4655435e-38 332 287
0.014929632 0.65499997 -0.053976361 1.4655435e-38 333 287
0.01612716 0.65700001 -0.054141179 1.465651e-38 334 287
0.017305398 0.65799999 -0.054223582 1.465651e-38 335 287
0.018487146 0.65899998 -0.054305989 1.4657227e-38 336 287
0.019642593 0.65899998 -0.054305989 1.4657227e-38 337 287
0.020798039 0.65899998 -0.054305989 1.4749426e-38 338 287
0.021953486 0.65899998 -0.054305989 1.4749426e-38 339 287
0.023179067 0.66100001 -0.054470807 1.4658309e-38 340 287
0.024374841 0.662 -0.054553211 1.4658309e-38 341 287
0.025574118 0.66299999 -0.054635618 1.46576e-38 342 287
0.026736578 0.66299999 -0.054635618 1.4565405e-38 343 287
0.027941117 0.66399997 -0.054718021 1.4657606e-38 344 287
0.029192999 0.66600001 -0.054882839 1.4749801e-38 345 287
0.030406304 0.667 -0.054965243 1.4934539e-38 346 287
0.031623118 0.66799998 -0.05504765 1.4750149e-38 347 287
0.032941625 0.671 -0.055294871 1.4748704e-38 348 287
0.034321502 0.67500001 -0.0556245 1.4379562e-38 349 287
0.035557602 0.676 -0.055706903 1.336758e-38 350 287
0.036905911 0.67900002 -0.055954125 1.2814765e-38 351 287
0.038152531 0.68000001 -0.056036532 1.2721147e-38 352 287
0.039344799 0.68000001 -0.056036532 1.1798832e-38 353 287
0.040537067 0.68000001 -0.056036532 1.0878323e-38 354 287
0.041852064 0.68199998 -0.056201346 9.1266065e-39 355 287
-0.068259016 0.68300003 -0.057481278 9.5886636e-39 263 288
-0.0669633 0.68199998 -0.05739712 1.0878671e-38 264 288
-0.065574668 0.68000001 -0.057228796 1.1616236e-38 265 288
-0.064287722 0.67900002 -0.057144642 1.317814e-38 266 288
-0.063097201 0.67900002 -0.057144642 1.3638759e-38 267 288
-0.061815511 0.67799997 -0.057060476 1.354762e-38 268 288
-0.06044792 0.676 -0.056892153 1.3639816e-38 269 288
-0.059262663 0.676 -0.056892153 1.3640885e-38 270 288
-0.057991501 0.67500001 -0.056808002 1.3640885e-38 271 288
-0.056808002 0.67500001 -0.056808002 1.3733081e-38 272 288
-0.055542093 0.67400002 -0.056723841 1.3733081e-38 273 288
-0.054118387 0.671 -0.056471359 1.3640882e-38 274 288
-0.052941896 0.671 -0.056471359 1.3640882e-38 275 288
-0.051533967 0.66799998 -0.056218877 1.3641238e-38 276 288
-0.050362743 0.66799998 -0.056218877 1.3641238e-38 277 288
-0.049117878 0.667 -0.056134716 1.3456851e-38 278 288
-0.047948405 0.667 -0.056134716 1.3364656e-38 279 288
-0.046778932 0.667 -0.056134716 1.3456851e-38 280 288
-0.045541082 0.66600001 -0.056050558 1.3364656e-38 281 288
-0.04437336 0.66600001 -0.056050558 1.3364656e-38 282 288
-0.043075889 0.66399997 -0.055882234 1.3272459e-38 283 288
-0.041911677 0.66399997 -0.055882234 1.3088795e-38 284 288
-0.040686097 0.66299999 -0.055798076 1.3088795e-38 285 288
-0.039523639 0.66299999 -0.055798076 1.2996598e-38 286 288
-0.038303319 0.662 -0.055713918 1.2996598e-38 287 288
-0.037086505 0.66100001 -0.05562976 1.3087711e-38 288 288
-0.035927553 0.66100001 -0.05562976 1.3087711e-38 289 288
-0.0347686 0.66100001 -0.05562976 1.3179191e-38 290 288
-0.033609647 0.66100001 -0.05562976 1.3179191e-38 291 288
-0.032450691 0.66100001 -0.05562976 1.2810778e-38 292 288
-0.031197058 0.65899998 -0.055461437 1.2810778e-38 293 288
-0.030041611 0.65899998 -0.055461437 1.2719304e-38 294 288
-0.028842334 0.65799999 -0.055377278 1.28115e-38 295 288
-0.027688639 0.65799999 -0.055377278 1.3086289e-38 296 288
-0.026534945 0.65799999 -0.055377278 1.3086289e-38 297 288
-0.025342681 0.65700001 -0.055293117 1.3087014e-38 298 288
-0.024190739 0.65700001 -0.055293117 1.3179209e-38 299 288
-0.023038799 0.65700001 -0.055293117 1.3180653e-38 300 288
-0.021886859 0.65700001 -0.055293117 1.3365403e-38 301 288
-0.020671798 0.65499997 -0.055124797 1.3641614e-38 302 288
-0.019523365 0.65499997 -0.055124797 1.3733811e-38 303 288
-0.018374931 0.65499997 -0.055124797 1.3824558e-38 304 288
-0.017226499 0.65499997 -0.055124797 1.3640166e-38 305 288
-0.016078066 0.65499997 -0.055124797 1.3547971e-38 306 288
-0.014906839 0.65399998 -0.055040635 1.3547971e-38 307 288
-0.013760159 0.65399998 -0.055040635 1.3640535e-38 308 288
-0.012613479 0.65399998 -0.055040635 1.3917123e-38 309 288
-0.011466799 0.65399998 -0.055040635 1.4285188e-38 310 288
-0.01032012 0.65399998 -0.055040635 1.4285188e-38 311 288
-0.0091594132 0.653 -0.054956477 1.3917126e-38 312 288
-0.0080144862 0.653 -0.054956477 1.3087364e-38 313 288
-0.0068695596 0.653 -0.054956477 1.2993001e-38 314 288
-0.0057246331 0.653 -0.054956477 1.2716415e-38 315 288
-0.0045797066 0.653 -0.054956477 1.2535989e-38 316 288
-0.0034347798 0.653 -0.054956477 1.3273554e-38 317 288
-0.0022898533 0.653 -0.054956477 1.4191212e-38 318 288
-0.00114668 0.65399998 -0.055040635 1.4467797e-38 319 288
0 0.65399998 -0.055040635 1.4284835e-38 320 288
0.00114668 0.65399998 -0.055040635 1.4377031e-38 321 288
0.00229336 0.65399998 -0.055040635 1.437775e-38 322 288
0.0034400397 0.65399998 -0.055040635 1.4562142e-38 323 288
0.0045867199 0.65399998 -0.055040635 1.4379199e-38 324 288
0.0057333997 0.65399998 -0.055040635 1.4379199e-38 325 288
0.0068800794 0.65399998 -0.055040635 1.4379199e-38 326 288
0.0080267601 0.65399998 -0.055040635 1.4379199e-38 327 288
0.0091734398 0.65399998 -0.055040635 1.4562508e-38 328 288
0.01032012 0.65399998 -0.055040635 1.4562508e-38 329 288
0.011466799 0.65399998 -0.055040635 1.48373e-38 330 288
0.012632766 0.65499997 -0.055124797 1.4929854e-38 331 288
0.013781199 0.65499997 -0.055124797 1.465399e-38 332 288
0.014929632 0.65499997 -0.055124797 1.465399e-38 333 288
0.016078066 0.65499997 -0.055124797 1.4471394e-38 334 288
0.0172791 0.65700001 -0.055293117 1.456359e-38 335 288
0.01843104 0.65700001 -0.055293117 1.4563946e-38 336 288
0.019612785 0.65799999 -0.055377278 1.4563946e-38 337 288
0.02076648 0.65799999 -0.055377278 1.4472116e-38 338 288
0.021920172 0.65799999 -0.055377278 1.4472116e-38 339 288
0.023108931 0.65899998 -0.055461437 1.4381718e-38 340 288
0.02433802 0.66100001 -0.05562976 1.4381718e-38 341 288
0.025535546 0.662 -0.055713918 1.4472839e-38 342 288
0.026736578 0.66299999 -0.055798076 1.4472839e-38 343 288
0.027941117 0.66399997 -0.055882234 1.4472845e-38 344 288
0.029192999 0.66600001 -0.056050558 1.4749073e-38 345 288
0.030406304 0.667 -0.056134716 1.4656877e-38 346 288
0.031623118 0.66799998 -0.056218877 1.4749073e-38 347 288
0.032941625 0.671 -0.056471359 1.4749073e-38 348 288
0.034168959 0.67199999 -0.056555521 1.4103703e-38 349 288
0.035505001 0.67500001 -0.056808002 1.2631094e-38 350 288
0.036742851 0.676 -0.056892153 1.1709138e-38 351 288
0.038096428 0.67900002 -0.057144642 1.1523676e-38 352 288
-0.0669633 0.68199998 -0.058592889 1.0049286e-38 264 289
-0.065574668 0.68000001 -0.058421064 1.0417708e-38 265 289
-0.064382397 0.68000001 -0.058421064 1.1521873e-38 266 289
-0.063097201 0.67900002 -0.058335152 1.2167242e-38 267 289
-0.061815511 0.67799997 -0.058249239 1.2811147e-38 268 289
-0.060626756 0.67799997 -0.058249239 1.3088094e-38 269 289
-0.059262663 0.676 -0.058077414 1.3089163e-38 270 289
-0.058077414 0.676 -0.058077414 1.3089163e-38 271 289
-0.056808002 0.67500001 -0.057991501 1.3365027e-38 272 289
-0.055542093 0.67400002 -0.057905588 1.3272473e-38 273 289
-0.054118387 0.671 -0.057647847 1.3273905e-38 274 289
-0.052941896 0.671 -0.057647847 1.3273905e-38 275 289
-0.051533967 0.66799998 -0.057390101 1.3456854e-38 276 289
-0.050362743 0.66799998 -0.057390101 1.3456854e-38 277 289
-0.049117878 0.667 -0.057304189 1.3456851e-38 278 289
-0.047948405 0.667 -0.057304189 1.3456851e-38 279 289
-0.046778932 0.667 -0.057304189 1.3273176e-38 280 289
-0.045541082 0.66600001 -0.057218276 1.3273176e-38 281 289
-0.04437336 0.66600001 -0.057218276 1.3364658e-38 282 289
-0.043205637 0.66600001 -0.057218276 1.3364658e-38 283 289
-0.041911677 0.66399997 -0.057046451 1.2996598e-38 284 289
-0.040686097 0.66299999 -0.056960538 1.2996598e-38 285 289
-0.039523639 0.66299999 -0.056960538 1.2996598e-38 286 289
-0.038303319 0.662 -0.056874625 1.2904402e-38 287 289
-0.037142612 0.662 -0.056874625 1.2812206e-38 288 289
-0.035927553 0.66100001 -0.056788713 1.2812206e-38 289 289
-0.0347686 0.66100001 -0.056788713 1.2811134e-38 290 289
-0.033609647 0.66100001 -0.056788713 1.2811134e-38 291 289
-0.032450691 0.66100001 -0.056788713 1.271823e-38 292 289
-0.031197058 0.65899998 -0.056616884 1.271823e-38 293 289
-0.030041611 0.65899998 -0.056616884 1.2442369e-38 294 289
-0.028886165 0.65899998 -0.056616884 1.2442369e-38 295 289
-0.027688639 0.65799999 -0.056530971 1.2626756e-38 296 289
-0.026534945 0.65799999 -0.056530971 1.2718951e-38 297 289
-0.025342681 0.65700001 -0.056445058 1.2535639e-38 298 289
-0.024190739 0.65700001 -0.056445058 1.2627835e-38 299 289
-0.023038799 0.65700001 -0.056445058 1.2904417e-38 300 289
-0.021886859 0.65700001 -0.056445058 1.308881e-38 301 289
-0.020671798 0.65499997 -0.056273226 1.3363952e-38 302 289
-0.019523365 0.65499997 -0.056273226 1.3363952e-38 303 289
-0.018374931 0.65499997 -0.056273226 1.3455069e-38 304 289
-0.017226499 0.65499997 -0.056273226 1.3271036e-38 305 289
-0.01605352 0.65399998 -0.056187313 1.3087364e-38 306 289
-0.014906839 0.65399998 -0.056187313 1.2810778e-38 307 289
-0.013760159 0.65399998 -0.056187313 1.2627832e-38 308 289
-0.012613479 0.65399998 -0.056187313 1.2904417e-38 309 289
-0.011449266 0.653 -0.056101404 1.3088091e-38 310 289
-0.010304339 0.653 -0.056101404 1.2903699e-38 311 289
-0.0091594132 0.653 -0.056101404 1.2904415e-38 312 289
-0.0080144862 0.653 -0.056101404 1.1890623e-38 313 289
-0.0068695596 0.653 -0.056101404 1.1702992e-38 314 289
-0.0057246331 0.653 -0.056101404 1.0965068e-38 315 289
-0.0045797066 0.653 -0.056101404 1.0694601e-38 316 289
-0.0034347798 0.653 -0.056101404 1.1984981e-38 317 289
-0.0022898533 0.653 -0.056101404 1.3088104e-38 318 289
-0.0011449266 0.653 -0.056101404 1.3365049e-38 319 289
0 0.65399998 -0.056187313 1.364091e-38 320 289
0.0011449266 0.653 -0.056101404 1.3733108e-38 321 289
0.0022898533 0.653 -0.056101404 1.3917139e-38 322 289
0.0034347798 0.653 -0.056101404 1.4009693e-38 323 289
0.0045797066 0.653 -0.056101404 1.3917867e-38 324 289
0.0057333997 0.65399998 -0.056187313 1.4010422e-38 325 289
0.0068800794 0.65399998 -0.056187313 1.3918942e-38 326 289
0.0080267601 0.65399998 -0.056187313 1.3918942e-38 327 289
0.0091734398 0.65399998 -0.056187313 1.4194806e-38 328 289
0.01032012 0.65399998 -0.056187313 1.4194806e-38 329 289
0.011466799 0.65399998 -0.056187313 1.4469239e-38 330 289
0.012632766 0.65499997 -0.056273226 1.4469239e-38 331 289
0.013781199 0.65499997 -0.056273226 1.428593e-38 332 289
0.014929632 0.65499997 -0.056273226 1.428593e-38 333 289
0.016078066 0.65499997 -0.056273226 1.4378124e-38 334 289
0.0172791 0.65700001 -0.056445058 1.4562514e-38 335 289
0.01843104 0.65700001 -0.056445058 1.4379199e-38 336 289
0.019582979 0.65700001 -0.056445058 1.4287003e-38 337 289
0.02076648 0.65799999 -0.056530971 1.419553e-38 338 289
0.021920172 0.65799999 -0.056530971 1.419553e-38 339 289
0.023108931 0.65899998 -0.056616884 1.4288445e-38 340 289
0.024264378 0.65899998 -0.056616884 1.4288445e-38 341 289
0.025496973 0.66100001 -0.056788713 1.428845e-38 342 289
0.026696252 0.662 -0.056874625 1.428845e-38 343 289
0.027899038 0.66299999 -0.056960538 1.4104432e-38 344 289
0.02910533 0.66399997 -0.057046451 1.4104432e-38 345 289
0.030360719 0.66600001 -0.057218276 1.4012955e-38 346 289
0.031623118 0.66799998 -0.057390101 1.392076e-38 347 289
0.032892533 0.67000002 -0.057561934 1.3735647e-38 348 289
0.034168959 0.67199999 -0.057733759 1.3182473e-38 349 289
0.035452399 0.67400002 -0.057905588 1.2077563e-38 350 289
0.036688499 0.67500001 -0.057991501 1.1248163e-38 351 289
-0.064382397 0.68000001 -0.059613332 1.0322994e-38 266 290
-0.063097201 0.67900002 -0.059525665 1.0692137e-38 267 290
-0.061815511 0.67799997 -0.059437994 1.1429324e-38 268 290
-0.060626756 0.67799997 -0.059437994 1.2074693e-38 269 290
-0.059437994 0.67799997 -0.059437994 1.2535283e-38 270 290
-0.058077414 0.676 -0.059262663 1.2627838e-38 271 290
-0.056892153 0.676 -0.059262663 1.3087358e-38 272 290
-0.0556245 0.67500001 -0.059175 1.3087358e-38 273 290
-0.054199036 0.67199999 -0.058911994 1.3272826e-38 274 290
-0.052941896 0.671 -0.058824331 1.3365021e-38 275 290
-0.051533967 0.66799998 -0.058561329 1.3457573e-38 276 290
-0.050362743 0.66799998 -0.058561329 1.3273182e-38 277 290
-0.049117878 0.667 -0.058473662 1.3273176e-38 278 290
-0.047948405 0.667 -0.058473662 1.3273176e-38 279 290
-0.046778932 0.667 -0.058473662 1.336573e-38 280 290
-0.045541082 0.66600001 -0.058385998 1.3273176e-38 281 290
-0.04437336 0.66600001 -0.058385998 1.3364656e-38 282 290
-0.043205637 0.66600001 -0.058385998 1.3364656e-38 283 290
-0.041911677 0.66399997 -0.05821066 1.3088792e-38 284 290
-0.040686097 0.66299999 -0.058122993 1.2996595e-38 285 290
-0.039523639 0.66299999 -0.058122993 1.317991e-38 286 290
-0.038303319 0.662 -0.058035329 1.3087714e-38 287 290
-0.037142612 0.662 -0.058035329 1.2995519e-38 288 290
-0.035981905 0.662 -0.058035329 1.2811488e-38 289 290
-0.0347686 0.66100001 -0.057947662 1.2718936e-38 290 290
-0.033609647 0.66100001 -0.057947662 1.2718936e-38 291 290
-0.032450691 0.66100001 -0.057947662 1.253419e-38 292 290
-0.031197058 0.65899998 -0.057772331 1.2441995e-38 293 290
-0.030041611 0.65899998 -0.057772331 1.2258329e-38 294 290
-0.028886165 0.65899998 -0.057772331 1.2258329e-38 295 290
-0.027730718 0.65899998 -0.057772331 1.2350525e-38 296 290
-0.026534945 0.65799999 -0.057684667 1.2350525e-38 297 290
-0.025342681 0.65700001 -0.057596996 1.2443438e-38 298 290
-0.024190739 0.65700001 -0.057596996 1.2535992e-38 299 290
-0.023038799 0.65700001 -0.057596996 1.2536355e-38 300 290
-0.021886859 0.65700001 -0.057596996 1.2536355e-38 301 290
-0.020671798 0.65499997 -0.057421666 1.281115e-38 302 290
-0.019523365 0.65499997 -0.057421666 1.281115e-38 303 290
-0.018374931 0.65499997 -0.057421666 1.2810078e-38 304 290
-0.017200198 0.65399998 -0.057333998 1.2810078e-38 305 290
-0.01605352 0.65399998 -0.057333998 1.2442734e-38 306 290
-0.014906839 0.65399998 -0.057333998 1.2350539e-38 307 290
-0.013760159 0.65399998 -0.057333998 1.1982478e-38 308 290
-0.012613479 0.65399998 -0.057333998 1.2167229e-38 309 290
-0.011449266 0.653 -0.057246335 1.2166143e-38 310 290
-0.01028856 0.65200001 -0.057158668 1.1889917e-38 311 290
-0.0091453865 0.65200001 -0.057158668 1.1798787e-38 312 290
-0.0080144862 0.653 -0.057246335 1.0877191e-38 313 290
-0.0068695596 0.653 -0.057246335 1.0412263e-38 314 290
-0.0057246331 0.653 -0.057246335 9.6746977e-39 315 290
-0.0045797066 0.653 -0.057246335 9.3109599e-39 316 290
-0.0034347798 0.653 -0.057246335 1.078609e-38 317 290
-0.0022898533 0.653 -0.057246335 1.2075031e-38 318 290
-0.0011449266 0.653 -0.057246335 1.2536008e-38 319 290
0 0.65399998 -0.057333998 1.2995544e-38 320 290
0.0011449266 0.653 -0.057246335 1.3271772e-38 321 290
0.0022898533 0.653 -0.057246335 1.3546914e-38 322 290
0.0034347798 0.653 -0.057246335 1.3731664e-38 323 290
0.0045797066 0.653 -0.057246335 1.3548715e-38 324 290
0.0057333997 0.65399998 -0.057333998 1.364091e-38 325 290
0.0068800794 0.65399998 -0.057333998 1.3641264e-38 326 290
0.0080267601 0.65399998 -0.057333998 1.3733461e-38 327 290
0.0091734398 0.65399998 -0.057333998 1.3917495e-38 328 290
0.01032012 0.65399998 -0.057333998 1.400969e-38 329 290
0.011466799 0.65399998 -0.057333998 1.410117e-38 330 290
0.012613479 0.65399998 -0.057333998 1.4008974e-38 331 290
0.013781199 0.65499997 -0.057421666 1.3917495e-38 332 290
0.014929632 0.65499997 -0.057421666 1.400969e-38 333 290
0.016078066 0.65499997 -0.057421666 1.4102242e-38 334 290
0.017226499 0.65499997 -0.057421666 1.4102242e-38 335 290
0.018374931 0.65499997 -0.057421666 1.3918574e-38 336 290
0.019582979 0.65700001 -0.057596996 1.4010769e-38 337 290
0.020734919 0.65700001 -0.057596996 1.3919295e-38 338 290
0.021920172 0.65799999 -0.057684667 1.3919295e-38 339 290
0.023073865 0.65799999 -0.057684667 1.4287e-38 340 290
0.024264378 0.65899998 -0.057772331 1.4287e-38 341 290
0.025496973 0.66100001 -0.057947662 1.4104056e-38 342 290
0.026655925 0.66100001 -0.057947662 1.4011861e-38 343 290
0.027856959 0.662 -0.058035329 1.3827121e-38 344 290
0.02910533 0.66399997 -0.05821066 1.3827121e-38 345 290
0.030360719 0.66600001 -0.058385998 1.3551981e-38 346 290
0.031528439 0.66600001 -0.058385998 1.3275034e-38 347 290
0.032696161 0.66600001 -0.058385998 1.2630749e-38 348 290
0.034067266 0.67000002 -0.058736663 1.2261608e-38 349 290
0.035452399 0.67400002 -0.059087332 1.115706e-38 350 290
0.036688499 0.67500001 -0.059175 1.0788276e-38 351 290
-0.063097201 0.67900002 -0.060716182 1.0231176e-38 267 291
-0.061815511 0.67799997 -0.060626756 9.8630953e-39 268 291
-0.060626756 0.67799997 -0.060626756 1.0047487e-38 269 291
-0.059437994 0.67799997 -0.060626756 1.0325129e-38 270 291
-0.058249239 0.67799997 -0.060626756 1.0878301e-38 271 291
