# .PCD v.7 - Point Cloud Data file format
FIELDS x y z rgb imX imY
SIZE 4 4 4 4 4 4
TYPE F F F F F F
COUNT 1 1 1 1 1 1
WIDTH 859
HEIGHT 1
VIEWPOINT 0 0 0 1 0 0 0
POINTS 859
DATA ascii
-0.01027278 0.83700001 0.079247162 1.5760276e-38 313 186
-0.0088052405 0.83700001 0.079247162 1.5945388e-38 314 186
-0.0073376996 0.83700001 0.079247162 1.6129779e-38 315 186
-0.0058701597 0.83700001 0.079247162 1.631418e-38 316 186
-0.0044026203 0.83700001 0.079247162 1.6590407e-38 317 186
-0.0029350799 0.83700001 0.079247162 1.6681884e-38 318 186
-0.0014675399 0.83700001 0.079247162 1.6681884e-38 319 186
0 0.83700001 0.079247162 1.6865552e-38 320 186
0.0014675399 0.83700001 0.079247162 1.6957748e-38 321 186
0.0029420932 0.83899999 0.079436518 1.7416568e-38 322 186
0.0044236598 0.84100002 0.079625882 1.7509122e-38 323 186
0.0058841864 0.83899999 0.079436518 1.7233974e-38 324 186
0.0073552327 0.83899999 0.079436518 1.7049943e-38 325 186
0.00882628 0.83899999 0.079436518 1.7049943e-38 326 186
0.010297326 0.83899999 0.079436518 1.6957748e-38 327 186
0.011740319 0.83700001 0.079247162 1.6958116e-38 328 186
0.013207859 0.83700001 0.079247162 1.6958116e-38 329 186
0.014675399 0.83700001 0.079247162 1.6682968e-38 330 186
0.016142938 0.83700001 0.079247162 1.6406742e-38 331 186
0.017610481 0.83700001 0.079247162 1.6221626e-38 332 186
0.01907802 0.83700001 0.079247162 1.6221626e-38 333 186
0.020545561 0.83700001 0.079247162 1.6037952e-38 334 186
0.022065699 0.83899999 0.079436518 1.566953e-38 335 186
0.023480639 0.83700001 0.079247162 1.5759927e-38 336 186
0.02494818 0.83700001 0.079247162 1.5759927e-38 337 186
0.026415719 0.83700001 0.079247162 1.5116356e-38 338 186
0.032285877 0.83700001 0.079247162 1.4656842e-38 342 186
0.033753417 0.83700001 0.079247162 1.511782e-38 343 186
0.035220962 0.83700001 0.079247162 1.5119673e-38 344 186
0.036600832 0.83499998 0.079057798 1.5672846e-38 345 186
0.038064864 0.83499998 0.079057798 1.5949824e-38 346 186
0.039528899 0.83499998 0.079057798 1.6595194e-38 347 186
0.040992931 0.83499998 0.079057798 1.696363e-38 348 186
0.042456966 0.83499998 0.079057798 1.7424248e-38 349 186
-0.023480639 0.83700001 0.077779621 1.6859829e-38 304 187
-0.0220131 0.83700001 0.077779621 1.7320448e-38 305 187
-0.020545561 0.83700001 0.077779621 1.6315993e-38 306 187
-0.019169193 0.84100002 0.07815133 1.6223798e-38 307 187
-0.01765256 0.83899999 0.077965468 1.6588982e-38 308 187
-0.016181514 0.83899999 0.077965468 1.7142156e-38 309 187
-0.014710465 0.83899999 0.077965468 1.7418373e-38 310 187
-0.013239419 0.83899999 0.077965468 1.7326177e-38 311 187
-0.011740319 0.83700001 0.077779621 1.7050647e-38 312 187
-0.01027278 0.83700001 0.077779621 1.7050647e-38 313 187
-0.0088052405 0.83700001 0.077779621 1.686805e-38 314 187
-0.0073376996 0.83700001 0.077779621 1.686805e-38 315 187
-0.0058701597 0.83700001 0.077779621 1.6960253e-38 316 187
-0.0044026203 0.83700001 0.077779621 1.7144284e-38 317 187
-0.0029350799 0.83700001 0.077779621 1.7420518e-38 318 187
-0.0014675399 0.83700001 0.077779621 1.7605269e-38 319 187
0 0.83700001 0.077779621 1.7605985e-38 320 187
0.0014675399 0.83700001 0.077779621 1.7052812e-38 321 187
0.0029420932 0.83899999 0.077965468 1.7144279e-38 322 187
0.0044236598 0.84100002 0.07815133 1.7144279e-38 323 187
0.0058841864 0.83899999 0.077965468 1.6960253e-38 324 187
0.0073552327 0.83899999 0.077965468 1.6960253e-38 325 187
0.00882628 0.83899999 0.077965468 1.7051015e-38 326 187
0.010297326 0.83899999 0.077965468 1.7051015e-38 327 187
0.011740319 0.83700001 0.077779621 1.6959547e-38 328 187
0.013207859 0.83700001 0.077779621 1.6959547e-38 329 187
0.014675399 0.83700001 0.077779621 1.6685477e-38 330 187
0.016142938 0.83700001 0.077779621 1.6592922e-38 331 187
0.017610481 0.83700001 0.077779621 1.6592555e-38 332 187
0.01907802 0.83700001 0.077779621 1.6500359e-38 333 187
0.020545561 0.83700001 0.077779621 1.6683672e-38 334 187
0.0220131 0.83700001 0.077779621 1.6775867e-38 335 187
0.023480639 0.83700001 0.077779621 1.7235055e-38 336 187
0.02494818 0.83700001 0.077779621 1.7142859e-38 337 187
0.026415719 0.83700001 0.077779621 1.7233974e-38 338 187
0.02788326 0.83700001 0.077779621 1.6773356e-38 339 187
0.029350799 0.83700001 0.077779621 1.6588605e-38 340 187
0.030818338 0.83700001 0.077779621 1.6312378e-38 341 187
0.03220873 0.83499998 0.077593759 1.6312038e-38 342 187
0.033672765 0.83499998 0.077593759 1.6312038e-38 343 187
0.035136797 0.83499998 0.077593759 1.5759962e-38 344 187
0.036513168 0.833 0.077407911 1.5483376e-38 345 187
0.037973695 0.833 0.077407911 1.4655791e-38 346 187
0.039434217 0.833 0.077407911 1.4655791e-38 347 187
0.040894743 0.833 0.077407911 1.474765e-38 348 187
0.042355273 0.833 0.077407911 1.539302e-38 349 187
0.043815799 0.833 0.077407911 1.5029663e-38 350 187
-0.029210532 0.833 0.075947389 1.7321899e-38 300 188
-0.027750006 0.833 0.075947389 1.7045313e-38 301 188
-0.02628948 0.833 0.075947389 1.713819e-38 302 188
-0.024828954 0.833 0.075947389 1.7322581e-38 303 188
-0.023424532 0.83499998 0.076129727 1.7049918e-38 304 188
-0.021960499 0.83499998 0.076129727 1.6865887e-38 305 188
-0.020496465 0.83499998 0.076129727 1.6959502e-38 306 188
-0.01907802 0.83700001 0.07631208 1.6959502e-38 307 188
-0.01765256 0.83899999 0.076494418 1.7327225e-38 308 188
-0.016181514 0.83899999 0.076494418 1.7419779e-38 309 188
-0.014710465 0.83899999 0.076494418 1.75109e-38 310 188
-0.013239419 0.83899999 0.076494418 1.75109e-38 311 188
-0.011768373 0.83899999 0.076494418 1.7511607e-38 312 188
-0.01027278 0.83700001 0.07631208 1.7695638e-38 313 188
-0.0088052405 0.83700001 0.07631208 1.7511256e-38 314 188
-0.0073376996 0.83700001 0.07631208 1.7787483e-38 315 188
-0.0058701597 0.83700001 0.07631208 1.7604171e-38 316 188
-0.0044026203 0.83700001 0.07631208 1.7604171e-38 317 188
-0.0029350799 0.83700001 0.07631208 1.7604887e-38 318 188
-0.0014675399 0.83700001 0.07631208 1.7604887e-38 319 188
0 0.83700001 0.07631208 1.7972949e-38 320 188
0.0014675399 0.83700001 0.07631208 1.7696722e-38 321 188
0.0029420932 0.83899999 0.076494418 1.7788562e-38 322 188
0.00441314 0.83899999 0.076494418 1.7696366e-38 323 188
0.0058841864 0.83899999 0.076494418 1.7512344e-38 324 188
0.0073552327 0.83899999 0.076494418 1.7235758e-38 325 188
0.00882628 0.83899999 0.076494418 1.7233974e-38 326 188
0.010297326 0.83899999 0.076494418 1.7326171e-38 327 188
0.011740319 0.83700001 0.07631208 1.7142506e-38 328 188
0.013207859 0.83700001 0.07631208 1.723506e-38 329 188
0.014675399 0.83700001 0.07631208 1.7236129e-38 330 188
0.016142938 0.83700001 0.07631208 1.7236129e-38 331 188
0.017610481 0.83700001 0.07631208 1.723648e-38 332 188
0.01907802 0.83700001 0.07631208 1.7144284e-38 333 188
0.020545561 0.83700001 0.07631208 1.7144279e-38 334 188
0.0220131 0.83700001 0.07631208 1.6960247e-38 335 188
0.023480639 0.83700001 0.07631208 1.7236111e-38 336 188
0.02494818 0.83700001 0.07631208 1.7143916e-38 337 188
0.026415719 0.83700001 0.07631208 1.714356e-38 338 188
0.02788326 0.83700001 0.07631208 1.6866971e-38 339 188
0.029280664 0.83499998 0.076129727 1.6865899e-38 340 188
0.030744698 0.83499998 0.076129727 1.6773704e-38 341 188
0.03220873 0.83499998 0.076129727 1.6497139e-38 342 188
0.033672765 0.83499998 0.076129727 1.6497139e-38 343 188
0.035052639 0.833 0.075947389 1.5944684e-38 344 188
0.036513168 0.833 0.075947389 1.5576262e-38 345 188
0.037973695 0.833 0.075947389 1.5117425e-38 346 188
0.039434217 0.833 0.075947389 1.4841198e-38 347 188
0.040894743 0.833 0.075947389 1.4840489e-38 348 188
0.042253576 0.83099997 0.075765036 1.4840489e-38 349 188
0.043710597 0.83099997 0.075765036 1.4565755e-38 350 188
0.045167617 0.83099997 0.075765036 1.5303679e-38 351 188
0.047073491 0.83899999 0.076494418 1.567144e-38 352 188
0.048544537 0.83899999 0.076494418 1.650156e-38 353 188
-0.032131586 0.833 0.074486859 1.6312789e-38 298 189
-0.030671058 0.833 0.074486859 1.6404984e-38 299 189
-0.029210532 0.833 0.074486859 1.6956694e-38 300 189
-0.027750006 0.833 0.074486859 1.7048889e-38 301 189
-0.026226358 0.83099997 0.074308015 1.7142859e-38 302 189
-0.02476934 0.83099997 0.074308015 1.7603836e-38 303 189
-0.023368426 0.833 0.074486859 1.8064074e-38 304 189
-0.0219079 0.833 0.074486859 1.7787486e-38 305 189
-0.020447372 0.833 0.074486859 1.7329379e-38 306 189
-0.01907802 0.83700001 0.074844539 1.7329379e-38 307 189
-0.017610481 0.83700001 0.074844539 1.7972597e-38 308 189
-0.016142938 0.83700001 0.074844539 1.7972597e-38 309 189
-0.014710465 0.83899999 0.075023375 1.751342e-38 310 189
-0.013239419 0.83899999 0.075023375 1.7421224e-38 311 189
-0.011740319 0.83700001 0.074844539 1.7604183e-38 312 189
-0.01027278 0.83700001 0.074844539 1.7604183e-38 313 189
-0.0088052405 0.83700001 0.074844539 1.7604189e-38 314 189
-0.0073376996 0.83700001 0.074844539 1.7696385e-38 315 189
-0.0058701597 0.83700001 0.074844539 1.7605269e-38 316 189
-0.0044026203 0.83700001 0.074844539 1.7605269e-38 317 189
-0.0029350799 0.83700001 0.074844539 1.7604913e-38 318 189
-0.0014675399 0.83700001 0.074844539 1.7604913e-38 319 189
0 0.83700001 0.074844539 1.7880427e-38 320 189
0.0014675399 0.83700001 0.074844539 1.7880427e-38 321 189
0.0029350799 0.83700001 0.074844539 1.7604563e-38 322 189
0.00441314 0.83899999 0.075023375 1.7512366e-38 323 189
0.0058841864 0.83899999 0.075023375 1.7419814e-38 324 189
0.0073376996 0.83700001 0.074844539 1.7235423e-38 325 189
0.0088052405 0.83700001 0.074844539 1.7142512e-38 326 189
0.01027278 0.83700001 0.074844539 1.7142512e-38 327 189
0.011740319 0.83700001 0.074844539 1.6959559e-38 328 189
0.013207859 0.83700001 0.074844539 1.7052114e-38 329 189
0.014675399 0.83700001 0.074844539 1.7144309e-38 330 189
0.016142938 0.83700001 0.074844539 1.7144309e-38 331 189
0.017610481 0.83700001 0.074844539 1.705283e-38 332 189
0.01907802 0.83700001 0.074844539 1.705283e-38 333 189
0.020545561 0.83700001 0.074844539 1.7053183e-38 334 189
0.0220131 0.83700001 0.074844539 1.7053183e-38 335 189
0.023480639 0.83700001 0.074844539 1.714466e-38 336 189
0.02494818 0.83700001 0.074844539 1.7052464e-38 337 189
0.026415719 0.83700001 0.074844539 1.7143581e-38 338 189
0.02788326 0.83700001 0.074844539 1.7143581e-38 339 189
0.029280664 0.83499998 0.074665695 1.7143212e-38 340 189
0.030744698 0.83499998 0.074665695 1.7143212e-38 341 189
0.03220873 0.83499998 0.074665695 1.6957392e-38 342 189
0.033672765 0.83499998 0.074665695 1.6957392e-38 343 189
0.035052639 0.833 0.074486859 1.6498564e-38 344 189
0.036513168 0.833 0.074486859 1.6221978e-38 345 189
0.037973695 0.833 0.074486859 1.5947889e-38 346 189
0.039434217 0.833 0.074486859 1.5855694e-38 347 189
0.040894743 0.833 0.074486859 1.5854271e-38 348 189
0.042253576 0.83099997 0.074308015 1.5854271e-38 349 189
0.043710597 0.83099997 0.074308015 1.5485874e-38 350 189
0.045493741 0.83700001 0.074844539 1.5209287e-38 351 189
0.046961278 0.83700001 0.074844539 1.4931646e-38 352 189
0.048428819 0.83700001 0.074844539 1.4747255e-38 353 189
0.049896359 0.83700001 0.074844539 1.4199514e-38 354 189
0.051732097 0.84299999 0.075381055 1.5398057e-38 355 189
0.053210158 0.84299999 0.075381055 1.5953068e-38 356 189
-0.039434217 0.833 0.073026337 1.6594475e-38 293 190
-0.037882518 0.83099997 0.072850995 1.6593358e-38 294 190
-0.036425497 0.83099997 0.072850995 1.6040184e-38 295 190
-0.03496848 0.83099997 0.072850995 1.6498602e-38 296 190
-0.033592112 0.833 0.073026337 1.6314211e-38 297 190
-0.032131586 0.833 0.073026337 1.659041e-38 298 190
-0.030597419 0.83099997 0.072850995 1.6774801e-38 299 190
-0.029140398 0.83099997 0.072850995 1.7510918e-38 300 190
-0.027683379 0.83099997 0.072850995 1.7603114e-38 301 190
-0.026226358 0.83099997 0.072850995 1.751199e-38 302 190
-0.02476934 0.83099997 0.072850995 1.7788579e-38 303 190
-0.023368426 0.833 0.073026337 1.8064793e-38 304 190
-0.0219079 0.833 0.073026337 1.7972597e-38 305 190
-0.020447372 0.833 0.073026337 1.7790004e-38 306 190
-0.019032432 0.83499998 0.073201664 1.7605973e-38 307 190
-0.017610481 0.83700001 0.073376998 1.7789285e-38 308 190
-0.016142938 0.83700001 0.073376998 1.7789285e-38 309 190
-0.014675399 0.83700001 0.073376998 1.7696735e-38 310 190
-0.013207859 0.83700001 0.073376998 1.7696735e-38 311 190
-0.011740319 0.83700001 0.073376998 1.7696382e-38 312 190
-0.01027278 0.83700001 0.073376998 1.7696382e-38 313 190
-0.0088052405 0.83700001 0.073376998 1.7696385e-38 314 190
-0.0073376996 0.83700001 0.073376998 1.7696385e-38 315 190
-0.0058561331 0.83499998 0.073201664 1.7788228e-38 316 190
-0.0043920996 0.83499998 0.073201664 1.7788228e-38 317 190
-0.0029280665 0.83499998 0.073201664 1.788043e-38 318 190
-0.0014675399 0.83700001 0.073376998 1.788043e-38 319 190
0 0.83700001 0.073376998 1.7880074e-38 320 190
0.0014675399 0.83700001 0.073376998 1.7787878e-38 321 190
0.0029350799 0.83700001 0.073376998 1.7787881e-38 322 190
0.0044026203 0.83700001 0.073376998 1.7695327e-38 323 190
0.0058701597 0.83700001 0.073376998 1.7326906e-38 324 190
0.0073376996 0.83700001 0.073376998 1.7234351e-38 325 190
0.0087841991 0.83499998 0.073201664 1.6958843e-38 326 190
0.010248233 0.83499998 0.073201664 1.6958843e-38 327 190
0.011712266 0.83499998 0.073201664 1.6776247e-38 328 190
0.0131763 0.83499998 0.073201664 1.6960278e-38 329 190
0.014640332 0.83499998 0.073201664 1.7235426e-38 330 190
0.016104365 0.83499998 0.073201664 1.7235426e-38 331 190
0.017568398 0.83499998 0.073201664 1.7144307e-38 332 190
0.019032432 0.83499998 0.073201664 1.7328338e-38 333 190
0.020496465 0.83499998 0.073201664 1.7328338e-38 334 190
0.021960499 0.83499998 0.073201664 1.7328338e-38 335 190
0.023424532 0.83499998 0.073201664 1.7144307e-38 336 190
0.024888566 0.83499998 0.073201664 1.7144307e-38 337 190
0.026352599 0.83499998 0.073201664 1.7235776e-38 338 190
0.027816633 0.83499998 0.073201664 1.7235776e-38 339 190
0.029280664 0.83499998 0.073201664 1.7327606e-38 340 190
0.030744698 0.83499998 0.073201664 1.7235411e-38 341 190
0.03220873 0.83499998 0.073201664 1.7142862e-38 342 190
0.033592112 0.833 0.073026337 1.7050665e-38 343 190
0.035052639 0.833 0.073026337 1.6775149e-38 344 190
0.036513168 0.833 0.073026337 1.6590757e-38 345 190
0.038064864 0.83499998 0.073201664 1.6407793e-38 346 190
0.039528899 0.83499998 0.073201664 1.6315597e-38 347 190
0.040992931 0.83499998 0.073201664 1.649784e-38 348 190
0.042456966 0.83499998 0.073201664 1.649784e-38 349 190
0.043920998 0.83499998 0.073201664 1.6037952e-38 350 190
0.045493741 0.83700001 0.073376998 1.566953e-38 351 190
0.046961278 0.83700001 0.073376998 1.5299665e-38 352 190
0.048428819 0.83700001 0.073376998 1.520747e-38 353 190
0.049896359 0.83700001 0.073376998 1.4656492e-38 354 190
0.051609367 0.84100002 0.07372766 1.5301861e-38 355 190
0.053083919 0.84100002 0.07372766 1.4844183e-38 356 190
0.054298978 0.83700001 0.073376998 1.5581748e-38 357 190
0.055766519 0.83700001 0.073376998 1.5768327e-38 358 190
-0.042253576 0.83099997 0.071393974 1.6317881e-38 291 191
-0.040796559 0.83099997 0.071393974 1.594688e-38 292 191
-0.039339535 0.83099997 0.071393974 1.5577739e-38 293 191
-0.037882518 0.83099997 0.071393974 1.6131234e-38 294 191
-0.036425497 0.83099997 0.071393974 1.6315265e-38 295 191
-0.03496848 0.83099997 0.071393974 1.6958466e-38 296 191
-0.033511456 0.83099997 0.071393974 1.7235055e-38 297 191
-0.032054439 0.83099997 0.071393974 1.7236114e-38 298 191
-0.030597419 0.83099997 0.071393974 1.7512341e-38 299 191
-0.029140398 0.83099997 0.071393974 1.7881483e-38 300 191
-0.027683379 0.83099997 0.071393974 1.7881483e-38 301 191
-0.026226358 0.83099997 0.071393974 1.7788935e-38 302 191
-0.02476934 0.83099997 0.071393974 1.7973326e-38 303 191
-0.023312319 0.83099997 0.071393974 1.7973694e-38 304 191
-0.021855298 0.83099997 0.071393974 1.7881499e-38 305 191
-0.020447372 0.833 0.071565807 1.769855e-38 306 191
-0.019032432 0.83499998 0.071737625 1.7606354e-38 307 191
-0.017568398 0.83499998 0.071737625 1.7605988e-38 308 191
-0.016104365 0.83499998 0.071737625 1.7513793e-38 309 191
-0.014675399 0.83700001 0.071909457 1.7512716e-38 310 191
-0.013207859 0.83700001 0.071909457 1.7512716e-38 311 191
-0.011740319 0.83700001 0.071909457 1.7696031e-38 312 191
-0.01027278 0.83700001 0.071909457 1.7603836e-38 313 191
-0.0088052405 0.83700001 0.071909457 1.7696034e-38 314 191
-0.0073376996 0.83700001 0.071909457 1.7696034e-38 315 191
-0.0058561331 0.83499998 0.071737625 1.7512733e-38 316 191
-0.0043920996 0.83499998 0.071737625 1.7512733e-38 317 191
-0.0029280665 0.83499998 0.071737625 1.7604216e-38 318 191
-0.0014675399 0.83700001 0.071909457 1.7604216e-38 319 191
0 0.83700001 0.071909457 1.7512383e-38 320 191
0.0014640333 0.83499998 0.071737625 1.7420187e-38 321 191
0.0029280665 0.83499998 0.071737625 1.7511667e-38 322 191
0.0043920996 0.83499998 0.071737625 1.7419111e-38 323 191
0.0058561331 0.83499998 0.071737625 1.7142877e-38 324 191
0.0073201661 0.83499998 0.071737625 1.6958846e-38 325 191
0.0087631596 0.833 0.071565807 1.6958843e-38 326 191
0.010223686 0.833 0.071565807 1.7142874e-38 327 191
0.011712266 0.83499998 0.071737625 1.6684773e-38 328 191
0.0131763 0.83499998 0.071737625 1.6684773e-38 329 191
0.014605266 0.833 0.071565807 1.7052114e-38 330 191
0.016065793 0.833 0.071565807 1.7052114e-38 331 191
0.017526319 0.833 0.071565807 1.6960281e-38 332 191
0.019032432 0.83499998 0.071737625 1.7052477e-38 333 191
0.020496465 0.83499998 0.071737625 1.6868814e-38 334 191
0.021960499 0.83499998 0.071737625 1.6868814e-38 335 191
0.023424532 0.83499998 0.071737625 1.7052124e-38 336 191
0.024888566 0.83499998 0.071737625 1.7052124e-38 337 191
0.026352599 0.83499998 0.071737625 1.7052477e-38 338 191
0.027816633 0.83499998 0.071737625 1.7052477e-38 339 191
0.029280664 0.83499998 0.071737625 1.7052114e-38 340 191
0.030744698 0.83499998 0.071737625 1.7052114e-38 341 191
0.032131586 0.833 0.071565807 1.7327256e-38 342 191
0.033592112 0.833 0.071565807 1.723506e-38 343 191
0.035052639 0.833 0.071565807 1.686735e-38 344 191
0.036513168 0.833 0.071565807 1.66826e-38 345 191
0.037973695 0.833 0.071565807 1.66826e-38 346 191
0.039434217 0.833 0.071565807 1.6590404e-38 347 191
0.040894743 0.833 0.071565807 1.677265e-38 348 191
0.042456966 0.83499998 0.071737625 1.677265e-38 349 191
0.043920998 0.83499998 0.071737625 1.6221278e-38 350 191
0.045493741 0.83700001 0.071909457 1.6036886e-38 351 191
0.046961278 0.83700001 0.071909457 1.5668821e-38 352 191
0.048428819 0.83700001 0.071909457 1.5484429e-38 353 191
0.049896359 0.83700001 0.071909457 1.5391879e-38 354 191
0.051363897 0.83700001 0.071909457 1.5207848e-38 355 191
0.052831437 0.83700001 0.071909457 1.4104407e-38 356 191
0.054298978 0.83700001 0.071909457 1.4196602e-38 357 191
0.055766519 0.83700001 0.071909457 1.420061e-38 358 191
0.057097297 0.83499998 0.071737625 1.5399153e-38 359 191
-0.043605398 0.829 0.069768637 1.6500069e-38 290 192
-0.042151887 0.829 0.069768637 1.6131288e-38 291 192
-0.040698372 0.829 0.069768637 1.631384e-38 292 192
-0.039244857 0.829 0.069768637 1.649859e-38 293 192
-0.037791345 0.829 0.069768637 1.6683319e-38 294 192
-0.036337834 0.829 0.069768637 1.7052461e-38 295 192
-0.034884319 0.829 0.069768637 1.7695663e-38 296 192
-0.033430804 0.829 0.069768637 1.7695663e-38 297 192
-0.032054439 0.83099997 0.069936961 1.7604892e-38 298 192
-0.030597419 0.83099997 0.069936961 1.7789285e-38 299 192
-0.029140398 0.83099997 0.069936961 1.7698534e-38 300 192
-0.027683379 0.83099997 0.069936961 1.7698534e-38 301 192
-0.026226358 0.83099997 0.069936961 1.7972973e-38 302 192
-0.02476934 0.83099997 0.069936961 1.7972973e-38 303 192
-0.023312319 0.83099997 0.069936961 1.797262e-38 304 192
-0.021855298 0.83099997 0.069936961 1.7880424e-38 305 192
-0.02039828 0.83099997 0.069936961 1.778895e-38 306 192
-0.018986847 0.833 0.070105277 1.7604919e-38 307 192
-0.017568398 0.83499998 0.070273593 1.7788228e-38 308 192
-0.016104365 0.83499998 0.070273593 1.7696031e-38 309 192
-0.014640332 0.83499998 0.070273593 1.7695313e-38 310 192
-0.0131763 0.83499998 0.070273593 1.7695313e-38 311 192
-0.011712266 0.83499998 0.070273593 1.7695313e-38 312 192
-0.01027278 0.83700001 0.070441924 1.7603117e-38 313 192
-0.0088052405 0.83700001 0.070441924 1.7420168e-38 314 192
-0.0073201661 0.83499998 0.070273593 1.7420168e-38 315 192
-0.0058561331 0.83499998 0.070273593 1.7603485e-38 316 192
-0.0043920996 0.83499998 0.070273593 1.7603485e-38 317 192
-0.0029280665 0.83499998 0.070273593 1.7603132e-38 318 192
-0.0014640333 0.83499998 0.070273593 1.7510937e-38 319 192
0 0.83499998 0.070273593 1.7510581e-38 320 192
0.0014640333 0.83499998 0.070273593 1.732655e-38 321 192
0.0029210532 0.833 0.070105277 1.732655e-38 322 192
0.0043815798 0.833 0.070105277 1.732655e-38 323 192
0.0058421064 0.833 0.070105277 1.7142521e-38 324 192
0.0073201661 0.83499998 0.070273593 1.695849e-38 325 192
0.0087631596 0.833 0.070105277 1.704996e-38 326 192
0.010223686 0.833 0.070105277 1.704996e-38 327 192
0.011712266 0.83499998 0.070273593 1.6775165e-38 328 192
0.0131763 0.83499998 0.070273593 1.686772e-38 329 192
0.014605266 0.833 0.070105277 1.6959196e-38 330 192
0.016065793 0.833 0.070105277 1.6959196e-38 331 192
0.017526319 0.833 0.070105277 1.7142512e-38 332 192
0.019032432 0.83499998 0.070273593 1.7142512e-38 333 192
0.020496465 0.83499998 0.070273593 1.7142521e-38 334 192
0.021960499 0.83499998 0.070273593 1.7142521e-38 335 192
0.023424532 0.83499998 0.070273593 1.6959565e-38 336 192
0.024888566 0.83499998 0.070273593 1.6959565e-38 337 192
0.026352599 0.83499998 0.070273593 1.7052114e-38 338 192
0.027816633 0.83499998 0.070273593 1.7144309e-38 339 192
0.029210532 0.833 0.070105277 1.7143953e-38 340 192
0.030671058 0.833 0.070105277 1.7143953e-38 341 192
0.032131586 0.833 0.070105277 1.723507e-38 342 192
0.033592112 0.833 0.070105277 1.7142874e-38 343 192
0.035052639 0.833 0.070105277 1.6958841e-38 344 192
0.036513168 0.833 0.070105277 1.6682252e-38 345 192
0.037973695 0.833 0.070105277 1.6404593e-38 346 192
0.039434217 0.833 0.070105277 1.6219842e-38 347 192
0.040894743 0.833 0.070105277 1.6218404e-38 348 192
0.042456966 0.83499998 0.070273593 1.5757425e-38 349 192
0.043920998 0.83499998 0.070273593 1.5115652e-38 350 192
0.045385033 0.83499998 0.070273593 1.5207848e-38 351 192
0.046849065 0.83499998 0.070273593 1.5484079e-38 352 192
0.048313096 0.83499998 0.070273593 1.5391882e-38 353 192
0.049896359 0.83700001 0.070441924 1.5208567e-38 354 192
0.051363897 0.83700001 0.070441924 1.5208567e-38 355 192
0.052831437 0.83700001 0.070441924 1.484051e-38 356 192
0.054298978 0.83700001 0.070441924 1.484051e-38 357 192
0.055633266 0.83499998 0.070273593 1.4655802e-38 358 192
0.057097297 0.83499998 0.070273593 1.5116779e-38 359 192
0.058561329 0.83499998 0.070273593 1.4384666e-38 360 192
0.060025364 0.83499998 0.070273593 1.5675405e-38 361 192
0.061489396 0.83499998 0.070273593 1.6412993e-38 362 192
-0.04505891 0.829 0.068315126 1.5302918e-38 289 193
-0.0435002 0.82700002 0.068150312 1.6129779e-38 290 193
-0.04205019 0.82700002 0.068150312 1.6498562e-38 291 193
-0.040600184 0.82700002 0.068150312 1.6775521e-38 292 193
-0.039244857 0.829 0.068315126 1.6867717e-38 293 193
-0.037791345 0.829 0.068315126 1.7694587e-38 294 193
-0.036337834 0.829 0.068315126 1.7786782e-38 295 193
-0.034884319 0.829 0.068315126 1.7879684e-38 296 193
-0.033430804 0.829 0.068315126 1.8064077e-38 297 193
-0.031977292 0.829 0.068315126 1.7881128e-38 298 193
-0.030597419 0.83099997 0.068479933 1.7973323e-38 299 193
-0.029140398 0.83099997 0.068479933 1.7972973e-38 300 193
-0.027616752 0.829 0.068315126 1.7972973e-38 301 193
-0.026163239 0.829 0.068315126 1.797262e-38 302 193
-0.02476934 0.83099997 0.068479933 1.7880424e-38 303 193
-0.023312319 0.83099997 0.068479933 1.7604566e-38 304 193
-0.021855298 0.83099997 0.068479933 1.7788597e-38 305 193
-0.02039828 0.83099997 0.068479933 1.7420184e-38 306 193
-0.018986847 0.833 0.068644755 1.7420184e-38 307 193
-0.017526319 0.833 0.068644755 1.7327987e-38 308 193
-0.016104365 0.83499998 0.068809561 1.7327987e-38 309 193
-0.014640332 0.83499998 0.068809561 1.7143956e-38 310 193
-0.0131763 0.83499998 0.068809561 1.7051761e-38 311 193
-0.011712266 0.83499998 0.068809561 1.7051758e-38 312 193
-0.010248233 0.83499998 0.068809561 1.7051758e-38 313 193
-0.0087841991 0.83499998 0.068809561 1.7052479e-38 314 193
-0.0073201661 0.83499998 0.068809561 1.6960284e-38 315 193
-0.0058561331 0.83499998 0.068809561 1.668407e-38 316 193
-0.0043920996 0.83499998 0.068809561 1.6776265e-38 317 193
-0.0029280665 0.83499998 0.068809561 1.6775191e-38 318 193
-0.0014640333 0.83499998 0.068809561 1.6775191e-38 319 193
0 0.83499998 0.068809561 1.6590799e-38 320 193
0.0014640333 0.83499998 0.068809561 1.6682995e-38 321 193
0.0029210532 0.833 0.068644755 1.6590802e-38 322 193
0.0043815798 0.833 0.068644755 1.6590802e-38 323 193
0.0058421064 0.833 0.068644755 1.631529e-38 324 193
0.007302633 0.833 0.068644755 1.6223094e-38 325 193
0.0087631596 0.833 0.068644755 1.6223089e-38 326 193
0.010223686 0.833 0.068644755 1.6223089e-38 327 193
0.011712266 0.83499998 0.068809561 1.6223089e-38 328 193
0.0131763 0.83499998 0.068809561 1.6223089e-38 329 193
0.014640332 0.83499998 0.068809561 1.6315287e-38 330 193
0.016065793 0.833 0.068644755 1.6315287e-38 331 193
0.017526319 0.833 0.068644755 1.6681915e-38 332 193
0.018986847 0.833 0.068644755 1.6681915e-38 333 193
0.020447372 0.833 0.068644755 1.6499325e-38 334 193
0.0219079 0.833 0.068644755 1.6499325e-38 335 193
0.023368426 0.833 0.068644755 1.649932e-38 336 193
0.024828954 0.833 0.068644755 1.6591515e-38 337 193
0.02628948 0.833 0.068644755 1.6684064e-38 338 193
0.027750006 0.833 0.068644755 1.6684064e-38 339 193
0.029140398 0.83099997 0.068479933 1.6684064e-38 340 193
0.030597419 0.83099997 0.068479933 1.6684064e-38 341 193
0.032054439 0.83099997 0.068479933 1.6775897e-38 342 193
0.033511456 0.83099997 0.068479933 1.6775897e-38 343 193
0.03496848 0.83099997 0.068479933 1.704996e-38 344 193
0.036425497 0.83099997 0.068479933 1.6681536e-38 345 193
0.037882518 0.83099997 0.068479933 1.6403517e-38 346 193
0.039339535 0.83099997 0.068479933 1.6034735e-38 347 193
0.040894743 0.833 0.068644755 1.45614e-38 348 193
0.042355273 0.833 0.068644755 1.4285173e-38 349 193
0.043920998 0.83499998 0.068809561 1.419262e-38 350 193
0.045385033 0.83499998 0.068809561 1.4284817e-38 351 193
0.046849065 0.83499998 0.068809561 1.4194435e-38 352 193
0.048313096 0.83499998 0.068809561 1.4747608e-38 353 193
0.049777132 0.83499998 0.068809561 1.5207862e-38 354 193
0.051241163 0.83499998 0.068809561 1.5115665e-38 355 193
0.052705199 0.83499998 0.068809561 1.5116371e-38 356 193
0.05416923 0.83499998 0.068809561 1.5024176e-38 357 193
0.055633266 0.83499998 0.068809561 1.465576e-38 358 193
0.057097297 0.83499998 0.068809561 1.4563565e-38 359 193
0.058561329 0.83499998 0.068809561 1.3919332e-38 360 193
0.060025364 0.83499998 0.068809561 1.4933482e-38 361 193
0.061489396 0.83499998 0.068809561 1.5122254e-38 362 193
0.062953427 0.83499998 0.068809561 1.6320438e-38 363 193
-0.046624638 0.83099997 0.067022912 1.6775171e-38 288 194
-0.04505891 0.829 0.066861607 1.6867367e-38 289 194
-0.0435002 0.82700002 0.066700302 1.7143931e-38 290 194
-0.04205019 0.82700002 0.066700302 1.7143931e-38 291 194
-0.040600184 0.82700002 0.066700302 1.760562e-38 292 194
-0.039150178 0.82700002 0.066700302 1.7421227e-38 293 194
-0.037791345 0.829 0.066861607 1.7420518e-38 294 194
-0.036337834 0.829 0.066861607 1.7605269e-38 295 194
-0.034800157 0.82700002 0.066700302 1.7788584e-38 296 194
-0.033350151 0.82700002 0.066700302 1.7972976e-38 297 194
-0.031900145 0.82700002 0.066700302 1.797262e-38 298 194
-0.030523779 0.829 0.066861607 1.7880424e-38 299 194
-0.029070266 0.829 0.066861607 1.7971541e-38 300 194
-0.027616752 0.829 0.066861607 1.8063736e-38 301 194
-0.026163239 0.829 0.066861607 1.7787861e-38 302 194
-0.024709726 0.829 0.066861607 1.7787861e-38 303 194
-0.023256212 0.829 0.066861607 1.7695313e-38 304 194
-0.021802699 0.829 0.066861607 1.7695313e-38 305 194
-0.020349186 0.829 0.066861607 1.7327619e-38 306 194
-0.018941259 0.83099997 0.067022912 1.7327619e-38 307 194
-0.01748424 0.83099997 0.067022912 1.7234704e-38 308 194
-0.016065793 0.833 0.067184225 1.7142509e-38 309 194
-0.014605266 0.833 0.067184225 1.6958843e-38 310 194
-0.01314474 0.833 0.067184225 1.6866648e-38 311 194
-0.011684213 0.833 0.067184225 1.6774095e-38 312 194
-0.010248233 0.83499998 0.06734553 1.6774095e-38 313 194
-0.0087841991 0.83499998 0.06734553 1.6774451e-38 314 194
-0.0073201661 0.83499998 0.06734553 1.6682255e-38 315 194
-0.0058561331 0.83499998 0.06734553 1.6681899e-38 316 194
-0.0043920996 0.83499998 0.06734553 1.6681899e-38 317 194
-0.0029280665 0.83499998 0.06734553 1.658935e-38 318 194
-0.0014605266 0.833 0.067184225 1.658935e-38 319 194
0 0.833 0.067184225 1.6681183e-38 320 194
0.0014605266 0.833 0.067184225 1.6496433e-38 321 194
0.0029210532 0.833 0.067184225 1.6588256e-38 322 194
0.0043815798 0.833 0.067184225 1.6404223e-38 323 194
0.0058421064 0.833 0.067184225 1.5670974e-38 324 194
0.007302633 0.833 0.067184225 1.5670974e-38 325 194
0.0087631596 0.833 0.067184225 1.6129799e-38 326 194
0.010223686 0.833 0.067184225 1.6129799e-38 327 194
0.011712266 0.83499998 0.06734553 1.6221641e-38 328 194
0.0131763 0.83499998 0.06734553 1.6221641e-38 329 194
0.014605266 0.833 0.067184225 1.6313477e-38 330 194
0.016065793 0.833 0.067184225 1.6313477e-38 331 194
0.017526319 0.833 0.067184225 1.6496433e-38 332 194
0.018986847 0.833 0.067184225 1.6496433e-38 333 194
0.020447372 0.833 0.067184225 1.6312768e-38 334 194
0.0219079 0.833 0.067184225 1.6589353e-38 335 194
0.023312319 0.83099997 0.067022912 1.6313842e-38 336 194
0.02476934 0.83099997 0.067022912 1.6498234e-38 337 194
0.026226358 0.83099997 0.067022912 1.6499306e-38 338 194
0.027750006 0.833 0.067184225 1.6499306e-38 339 194
0.029140398 0.83099997 0.067022912 1.6591506e-38 340 194
0.030597419 0.83099997 0.067022912 1.6591506e-38 341 194
0.032054439 0.83099997 0.067022912 1.6682265e-38 342 194
0.033511456 0.83099997 0.067022912 1.6867016e-38 343 194
0.03496848 0.83099997 0.067022912 1.6866297e-38 344 194
0.036425497 0.83099997 0.067022912 1.6497155e-38 345 194
0.037882518 0.83099997 0.067022912 1.6220922e-38 346 194
0.039339535 0.83099997 0.067022912 1.5114573e-38 347 194
0.040796559 0.83099997 0.067022912 1.3638705e-38 348 194
0.042253576 0.83099997 0.067022912 1.2993335e-38 349 194
0.043815799 0.833 0.067184225 1.2713503e-38 350 194
0.045276325 0.833 0.067184225 1.252911e-38 351 194
0.046736851 0.833 0.067184225 1.2166834e-38 352 194
0.048197377 0.833 0.067184225 1.3641964e-38 353 194
0.049777132 0.83499998 0.06734553 1.4838382e-38 354 194
0.051241163 0.83499998 0.06734553 1.5483751e-38 355 194
0.052705199 0.83499998 0.06734553 1.5207868e-38 356 194
0.05416923 0.83499998 0.06734553 1.5207868e-38 357 194
0.055633266 0.83499998 0.06734553 1.493235e-38 358 194
0.057097297 0.83499998 0.06734553 1.493235e-38 359 194
0.058561329 0.83499998 0.06734553 1.5114243e-38 360 194
0.060025364 0.83499998 0.06734553 1.5022047e-38 361 194
0.061489396 0.83499998 0.06734553 1.3461609e-38 362 194
0.062953427 0.83499998 0.06734553 1.4937099e-38 363 194
0.064417459 0.83499998 0.06734553 1.5309529e-38 364 194
0.065881498 0.83499998 0.06734553 1.6047094e-38 365 194
0.067506835 0.83700001 0.067506835 1.641444e-38 366 194
-0.050750233 0.82700002 0.0652503 1.5027082e-38 285 195
-0.049300224 0.82700002 0.0652503 1.5761722e-38 286 195
-0.047850218 0.82700002 0.0652503 1.6407092e-38 287 195
-0.046400212 0.82700002 0.0652503 1.6960619e-38 288 195
-0.044950206 0.82700002 0.0652503 1.714501e-38 289 195
-0.0435002 0.82700002 0.0652503 1.7604536e-38 290 195
-0.04205019 0.82700002 0.0652503 1.7604536e-38 291 195
-0.040600184 0.82700002 0.0652503 1.7789282e-38 292 195
-0.039150178 0.82700002 0.0652503 1.7789282e-38 293 195
-0.037700173 0.82700002 0.0652503 1.7972247e-38 294 195
-0.036250167 0.82700002 0.0652503 1.7972247e-38 295 195
-0.034800157 0.82700002 0.0652503 1.8063736e-38 296 195
-0.033350151 0.82700002 0.0652503 1.7971541e-38 297 195
-0.031900145 0.82700002 0.0652503 1.7695678e-38 298 195
-0.030523779 0.829 0.065408096 1.7695678e-38 299 195
-0.029000133 0.82700002 0.0652503 1.7696034e-38 300 195
-0.027550125 0.82700002 0.0652503 1.760348e-38 301 195
-0.02610012 0.82700002 0.0652503 1.7511284e-38 302 195
-0.024650112 0.82700002 0.0652503 1.7327253e-38 303 195
-0.023200106 0.82700002 0.0652503 1.7234707e-38 304 195
-0.0217501 0.82700002 0.0652503 1.7234707e-38 305 195
-0.020349186 0.829 0.065408096 1.7142158e-38 306 195
-0.018941259 0.83099997 0.065565899 1.6957407e-38 307 195
-0.01748424 0.83099997 0.065565899 1.7048158e-38 308 195
-0.016065793 0.833 0.065723702 1.7140354e-38 309 195
-0.014570199 0.83099997 0.065565899 1.6589706e-38 310 195
-0.013113179 0.83099997 0.065565899 1.6589706e-38 311 195
-0.011684213 0.833 0.065723702 1.6313487e-38 312 195
-0.010223686 0.833 0.065723702 1.6313487e-38 313 195
-0.0087631596 0.833 0.065723702 1.6037979e-38 314 195
-0.0073201661 0.83499998 0.065881498 1.5945783e-38 315 195
-0.0058561331 0.83499998 0.065881498 1.5945786e-38 316 195
-0.0043920996 0.83499998 0.065881498 1.5945786e-38 317 195
-0.0029280665 0.83499998 0.065881498 1.5853234e-38 318 195
-0.0014605266 0.833 0.065723702 1.5853234e-38 319 195
0 0.833 0.065723702 1.5943628e-38 320 195
0.0014605266 0.833 0.065723702 1.5851432e-38 321 195
0.0029210532 0.833 0.065723702 1.5667021e-38 322 195
0.0043815798 0.833 0.065723702 1.5759218e-38 323 195
0.0058421064 0.833 0.065723702 1.5484427e-38 324 195
0.007302633 0.833 0.065723702 1.5576981e-38 325 195
0.0087631596 0.833 0.065723702 1.5485155e-38 326 195
0.010223686 0.833 0.065723702 1.5485155e-38 327 195
0.011712266 0.83499998 0.065881498 1.548588e-38 328 195
0.0131763 0.83499998 0.065881498 1.548588e-38 329 195
0.014605266 0.833 0.065723702 1.5668839e-38 330 195
0.016065793 0.833 0.065723702 1.5668839e-38 331 195
0.017526319 0.833 0.065723702 1.5760318e-38 332 195
0.018986847 0.833 0.065723702 1.5760318e-38 333 195
0.020447372 0.833 0.065723702 1.5761037e-38 334 195
0.021855298 0.83099997 0.065565899 1.5853234e-38 335 195
0.023312319 0.83099997 0.065565899 1.5853234e-38 336 195
0.02476934 0.83099997 0.065565899 1.594543e-38 337 195
0.026226358 0.83099997 0.065565899 1.5946505e-38 338 195
0.027683379 0.83099997 0.065565899 1.60387e-38 339 195
0.029140398 0.83099997 0.065565899 1.5947584e-38 340 195
0.030597419 0.83099997 0.065565899 1.5947584e-38 341 195
0.032054439 0.83099997 0.065565899 1.5763553e-38 342 195
0.033511456 0.83099997 0.065565899 1.5948303e-38 343 195
0.03496848 0.83099997 0.065565899 1.6498234e-38 344 195
0.036425497 0.83099997 0.065565899 1.6313842e-38 345 195
0.037791345 0.829 0.065408096 1.6404593e-38 346 195
0.039244857 0.829 0.065408096 1.585142e-38 347 195
0.040796559 0.83099997 0.065565899 1.5663409e-38 348 195
0.042253576 0.83099997 0.065565899 1.4096443e-38 349 195
0.043710597 0.83099997 0.065565899 1.2988648e-38 350 195
0.045276325 0.833 0.065723702 1.2619505e-38 351 195
0.046736851 0.833 0.065723702 1.2252196e-38 352 195
0.048197377 0.833 0.065723702 1.3358184e-38 353 195
0.049657907 0.833 0.065723702 1.3179949e-38 354 195
0.051118433 0.833 0.065723702 1.4286297e-38 355 195
0.05257896 0.833 0.065723702 1.4748351e-38 356 195
0.05416923 0.83499998 0.065881498 1.5024937e-38 357 195
0.055633266 0.83499998 0.065881498 1.5483729e-38 358 195
0.056960538 0.833 0.065723702 1.5391533e-38 359 195
0.058421064 0.833 0.065723702 1.5207848e-38 360 195
0.05988159 0.833 0.065723702 1.4838707e-38 361 195
0.061489396 0.83499998 0.065881498 1.373563e-38 362 195
0.062953427 0.83499998 0.065881498 1.4473195e-38 363 195
0.064417459 0.83499998 0.065881498 1.3651423e-38 364 195
0.066039301 0.83700001 0.066039301 1.4942162e-38 365 195
0.067506835 0.83700001 0.066039301 1.622969e-38 366 195
0.068974376 0.83700001 0.066039301 1.641444e-38 367 195
-0.055100251 0.82700002 0.06380029 1.5763595e-38 282 196
-0.053650245 0.82700002 0.06380029 1.521078e-38 283 196
-0.052200239 0.82700002 0.06380029 1.5946131e-38 284 196
-0.050750233 0.82700002 0.06380029 1.6038685e-38 285 196
-0.049300224 0.82700002 0.06380029 1.6775858e-38 286 196
-0.047850218 0.82700002 0.06380029 1.696025e-38 287 196
-0.046400212 0.82700002 0.06380029 1.7512344e-38 288 196
-0.044950206 0.82700002 0.06380029 1.7788932e-38 289 196
-0.0435002 0.82700002 0.06380029 1.7788579e-38 290 196
-0.041948497 0.82499999 0.063645996 1.7880774e-38 291 196
-0.040502001 0.82499999 0.063645996 1.7881499e-38 292 196
-0.039150178 0.82700002 0.06380029 1.7881499e-38 293 196
-0.037700173 0.82700002 0.06380029 1.7880427e-38 294 196
-0.036250167 0.82700002 0.06380029 1.7880427e-38 295 196
-0.034800157 0.82700002 0.06380029 1.7788231e-38 296 196
-0.033350151 0.82700002 0.06380029 1.7696034e-38 297 196
-0.031900145 0.82700002 0.06380029 1.760348e-38 298 196
-0.030450139 0.82700002 0.06380029 1.7511284e-38 299 196
-0.029000133 0.82700002 0.06380029 1.7327253e-38 300 196
-0.027550125 0.82700002 0.06380029 1.7327253e-38 301 196
-0.02610012 0.82700002 0.06380029 1.7326177e-38 302 196
-0.024650112 0.82700002 0.06380029 1.7233623e-38 303 196
-0.023200106 0.82700002 0.06380029 1.7049593e-38 304 196
-0.0217501 0.82700002 0.06380029 1.6865202e-38 305 196
-0.020300092 0.82700002 0.06380029 1.6865199e-38 306 196
-0.018895673 0.829 0.063954584 1.6588253e-38 307 196
-0.017442159 0.829 0.063954584 1.640387e-38 308 196
-0.01602722 0.83099997 0.064108878 1.6587903e-38 309 196
-0.014570199 0.83099997 0.064108878 1.6312043e-38 310 196
-0.013113179 0.83099997 0.064108878 1.6312043e-38 311 196
-0.011684213 0.833 0.064263172 1.6219842e-38 312 196
-0.010223686 0.833 0.064263172 1.6035811e-38 313 196
-0.0087631596 0.833 0.064263172 1.5576628e-38 314 196
-0.0073201661 0.83499998 0.064417459 1.5576628e-38 315 196
-0.0058561331 0.83499998 0.064417459 1.5392962e-38 316 196
-0.0043920996 0.83499998 0.064417459 1.5300767e-38 317 196
-0.0029210532 0.833 0.064263172 1.5483362e-38 318 196
-0.0014605266 0.833 0.064263172 1.5483362e-38 319 196
0 0.833 0.064263172 1.5574122e-38 320 196
0.0014605266 0.833 0.064263172 1.5390091e-38 321 196
0.0029140399 0.83099997 0.064108878 1.4838712e-38 322 196
0.0043710601 0.83099997 0.064108878 1.5023104e-38 323 196
0.0058421064 0.833 0.064263172 1.5023457e-38 324 196
0.007302633 0.833 0.064263172 1.5115652e-38 325 196
0.0087631596 0.833 0.064263172 1.5116006e-38 326 196
0.010223686 0.833 0.064263172 1.5208201e-38 327 196
0.011684213 0.833 0.064263172 1.5116724e-38 328 196
0.01314474 0.833 0.064263172 1.520892e-38 329 196
0.014605266 0.833 0.064263172 1.5391879e-38 330 196
0.016065793 0.833 0.064263172 1.5391879e-38 331 196
0.017526319 0.833 0.064263172 1.5574478e-38 332 196
0.018986847 0.833 0.064263172 1.5666674e-38 333 196
0.020447372 0.833 0.064263172 1.5300416e-38 334 196
0.021855298 0.83099997 0.064108878 1.5392612e-38 335 196
0.023312319 0.83099997 0.064108878 1.5392609e-38 336 196
0.02476934 0.83099997 0.064108878 1.5484805e-38 337 196
0.026226358 0.83099997 0.064108878 1.5669189e-38 338 196
0.027683379 0.83099997 0.064108878 1.5761385e-38 339 196
0.029140398 0.83099997 0.064108878 1.5578075e-38 340 196
0.030597419 0.83099997 0.064108878 1.5578075e-38 341 196
0.032054439 0.83099997 0.064108878 1.5210382e-38 342 196
0.033511456 0.83099997 0.064108878 1.5487329e-38 343 196
0.03496848 0.83099997 0.064108878 1.6220941e-38 344 196
0.036425497 0.83099997 0.064108878 1.6220941e-38 345 196
0.037791345 0.829 0.063954584 1.6129821e-38 346 196
0.039244857 0.829 0.063954584 1.6037626e-38 347 196
0.040796559 0.83099997 0.064108878 1.6677217e-38 348 196
0.042253576 0.83099997 0.064108878 1.5201729e-38 349 196
0.043710597 0.83099997 0.064108878 1.4001724e-38 350 196
0.045167617 0.83099997 0.064108878 1.3171963e-38 351 196
0.046624638 0.83099997 0.064108878 1.2617736e-38 352 196
0.048081655 0.83099997 0.064108878 1.2433344e-38 353 196
0.049657907 0.833 0.064263172 1.12442e-38 354 196
0.051118433 0.833 0.064263172 1.2442384e-38 355 196
0.05257896 0.833 0.064263172 1.3274671e-38 356 196
0.054039486 0.833 0.064263172 1.4472856e-38 357 196
0.055500012 0.833 0.064263172 1.5575221e-38 358 196
0.056960538 0.833 0.064263172 1.5575221e-38 359 196
0.058421064 0.833 0.064263172 1.5208564e-38 360 196
0.05988159 0.833 0.064263172 1.5116368e-38 361 196
0.061342116 0.833 0.064263172 1.5023823e-38 362 196
0.062953427 0.83499998 0.064417459 1.4655041e-38 363 196
0.064417459 0.83499998 0.064417459 1.2542881e-38 364 196
0.065881498 0.83499998 0.064417459 1.4202401e-38 365 196
0.06734553 0.83499998 0.064417459 1.5033299e-38 366 196
0.068974376 0.83700001 0.064571753 1.6139646e-38 367 196
0.070441924 0.83700001 0.064571753 1.6322242e-38 368 196
-0.058000267 0.82700002 0.062350284 1.7419538e-38 280 197
-0.056550261 0.82700002 0.062350284 1.6497941e-38 281 197
-0.055100251 0.82700002 0.062350284 1.6037626e-38 282 197
-0.053650245 0.82700002 0.062350284 1.6037626e-38 283 197
-0.052200239 0.82700002 0.062350284 1.659076e-38 284 197
-0.050750233 0.82700002 0.062350284 1.6959544e-38 285 197
-0.049300224 0.82700002 0.062350284 1.7419424e-38 286 197
-0.047850218 0.82700002 0.062350284 1.7604173e-38 287 197
-0.046400212 0.82700002 0.062350284 1.7696732e-38 288 197
-0.044950206 0.82700002 0.062350284 1.7788929e-38 289 197
-0.0435002 0.82700002 0.062350284 1.7881496e-38 290 197
-0.041948497 0.82499999 0.062199496 1.77893e-38 291 197
-0.040502001 0.82499999 0.062199496 1.7880424e-38 292 197
-0.039055496 0.82499999 0.062199496 1.7880424e-38 293 197
-0.037700173 0.82700002 0.062350284 1.7971544e-38 294 197
-0.036250167 0.82700002 0.062350284 1.7787511e-38 295 197
-0.034800157 0.82700002 0.062350284 1.7696034e-38 296 197
-0.033350151 0.82700002 0.062350284 1.7511284e-38 297 197
-0.031900145 0.82700002 0.062350284 1.7235776e-38 298 197
-0.030450139 0.82700002 0.062350284 1.695955e-38 299 197
-0.029000133 0.82700002 0.062350284 1.7050665e-38 300 197
-0.027550125 0.82700002 0.062350284 1.695811e-38 301 197
-0.02610012 0.82700002 0.062350284 1.6589335e-38 302 197
-0.024650112 0.82700002 0.062350284 1.6589335e-38 303 197
-0.023200106 0.82700002 0.062350284 1.6497139e-38 304 197
-0.0217501 0.82700002 0.062350284 1.6220192e-38 305 197
-0.020300092 0.82700002 0.062350284 1.6587536e-38 306 197
-0.018895673 0.829 0.062501073 1.6403144e-38 307 197
-0.017442159 0.829 0.062501073 1.6127283e-38 308 197
-0.01602722 0.83099997 0.062651858 1.6034729e-38 309 197
-0.014570199 0.83099997 0.062651858 1.5758868e-38 310 197
-0.013113179 0.83099997 0.062651858 1.5758868e-38 311 197
-0.011684213 0.833 0.062802643 1.5667021e-38 312 197
-0.010223686 0.833 0.062802643 1.5298599e-38 313 197
-0.0087631596 0.833 0.062802643 1.5116006e-38 314 197
-0.0073201661 0.83499998 0.062953427 1.5116006e-38 315 197
-0.0058561331 0.83499998 0.062953427 1.4839789e-38 316 197
-0.0043815798 0.833 0.062802643 1.4747593e-38 317 197
-0.0029210532 0.833 0.062802643 1.5113499e-38 318 197
-0.0014605266 0.833 0.062802643 1.5113499e-38 319 197
0 0.83099997 0.062651858 1.4929833e-38 320 197
0.0014570199 0.83099997 0.062651858 1.4837638e-38 321 197
0.0029140399 0.83099997 0.062651858 1.4746161e-38 322 197
0.0043710601 0.83099997 0.062651858 1.4746161e-38 323 197
0.0058421064 0.833 0.062802643 1.4745791e-38 324 197
0.007302633 0.833 0.062802643 1.4837987e-38 325 197
0.0087631596 0.833 0.062802643 1.483834e-38 326 197
0.010223686 0.833 0.062802643 1.4930537e-38 327 197
0.011684213 0.833 0.062802643 1.4931258e-38 328 197
0.01314474 0.833 0.062802643 1.4839063e-38 329 197
0.014605266 0.833 0.062802643 1.5114217e-38 330 197
0.01602722 0.83099997 0.062651858 1.4930186e-38 331 197
0.01748424 0.83099997 0.062651858 1.5113504e-38 332 197
0.018941259 0.83099997 0.062651858 1.5113504e-38 333 197
0.02039828 0.83099997 0.062651858 1.511422e-38 334 197
0.021855298 0.83099997 0.062651858 1.4930189e-38 335 197
0.023312319 0.83099997 0.062651858 1.465576e-38 336 197
0.02476934 0.83099997 0.062651858 1.484051e-38 337 197
0.026226358 0.83099997 0.062651858 1.5023467e-38 338 197
0.027683379 0.83099997 0.062651858 1.5208217e-38 339 197
0.029140398 0.83099997 0.062651858 1.5207862e-38 340 197
0.030523779 0.829 0.062501073 1.5300416e-38 341 197
0.031977292 0.829 0.062501073 1.5391177e-38 342 197
0.033430804 0.829 0.062501073 1.5760318e-38 343 197
0.03496848 0.83099997 0.062651858 1.5852514e-38 344 197
0.036337834 0.829 0.062501073 1.6036547e-38 345 197
0.037791345 0.829 0.062501073 1.6128742e-38 346 197
0.039244857 0.829 0.062501073 1.6220938e-38 347 197
0.040698372 0.829 0.062501073 1.6403517e-38 348 197
0.042151887 0.829 0.062501073 1.5758148e-38 349 197
0.043605398 0.829 0.062501073 1.5385027e-38 350 197
0.045167617 0.83099997 0.062651858 1.4094288e-38 351 197
0.046624638 0.83099997 0.062651858 1.2711e-38 352 197
0.048081655 0.83099997 0.062651858 1.1051839e-38 353 197
0.049538679 0.83099997 0.062651858 1.0868207e-38 354 197
0.051118433 0.833 0.062802643 1.1144796e-38 355 197
0.05257896 0.833 0.062802643 1.0879027e-38 356 197
0.054039486 0.833 0.062802643 1.2630744e-38 357 197
0.055500012 0.833 0.062802643 1.4563242e-38 358 197
0.056960538 0.833 0.062802643 1.5116057e-38 359 197
0.058421064 0.833 0.062802643 1.5666318e-38 360 197
0.05988159 0.833 0.062802643 1.5666318e-38 361 197
0.061342116 0.833 0.062802643 1.5299318e-38 362 197
0.062802643 0.833 0.062802643 1.4930537e-38 363 197
0.064417459 0.83499998 0.062953427 1.3735277e-38 364 197
0.065881498 0.83499998 0.062953427 1.4011505e-38 365 197
0.06734553 0.83499998 0.062953427 1.3100411e-38 366 197
0.068809561 0.83499998 0.062953427 1.5313107e-38 367 197
0.070273593 0.83499998 0.062953427 1.6689229e-38 368 197
-0.059450272 0.82700002 0.060900278 1.6317512e-38 279 198
-0.058000267 0.82700002 0.060900278 1.6035107e-38 280 198
-0.056550261 0.82700002 0.060900278 1.6035107e-38 281 198
-0.055100251 0.82700002 0.060900278 1.6866268e-38 282 198
-0.053650245 0.82700002 0.060900278 1.7050659e-38 283 198
-0.052200239 0.82700002 0.060900278 1.741907e-38 284 198
-0.050750233 0.82700002 0.060900278 1.7511625e-38 285 198
-0.049300224 0.82700002 0.060900278 1.7604171e-38 286 198
-0.047850218 0.82700002 0.060900278 1.7696366e-38 287 198
-0.046400212 0.82700002 0.060900278 1.7788579e-38 288 198
-0.044841498 0.82499999 0.060752995 1.7788579e-38 289 198
-0.043394998 0.82499999 0.060752995 1.7880424e-38 290 198
-0.041948497 0.82499999 0.060752995 1.7880424e-38 291 198
-0.040502001 0.82499999 0.060752995 1.7604563e-38 292 198
-0.039055496 0.82499999 0.060752995 1.7604563e-38 293 198
-0.037608996 0.82499999 0.060752995 1.7512014e-38 294 198
-0.036250167 0.82700002 0.060900278 1.7419817e-38 295 198
-0.034800157 0.82700002 0.060900278 1.7052114e-38 296 198
-0.033350151 0.82700002 0.060900278 1.6867364e-38 297 198
-0.031900145 0.82700002 0.060900278 1.6866648e-38 298 198
-0.030450139 0.82700002 0.060900278 1.6682255e-38 299 198
-0.029000133 0.82700002 0.060900278 1.6589701e-38 300 198
-0.027550125 0.82700002 0.060900278 1.6497505e-38 301 198
-0.02610012 0.82700002 0.060900278 1.6128725e-38 302 198
-0.024650112 0.82700002 0.060900278 1.603653e-38 303 198
-0.023200106 0.82700002 0.060900278 1.5760671e-38 304 198
-0.0217501 0.82700002 0.060900278 1.5668117e-38 305 198
-0.020300092 0.82700002 0.060900278 1.5575203e-38 306 198
-0.018895673 0.829 0.061047558 1.5575203e-38 307 198
-0.01748424 0.83099997 0.061194837 1.5298614e-38 308 198
-0.01602722 0.83099997 0.061194837 1.539081e-38 309 198
-0.014570199 0.83099997 0.061194837 1.5298258e-38 310 198
-0.013113179 0.83099997 0.061194837 1.5206063e-38 311 198
-0.011684213 0.833 0.061342116 1.4930908e-38 312 198
-0.010223686 0.833 0.061342116 1.4746157e-38 313 198
-0.0087631596 0.833 0.061342116 1.4655041e-38 314 198
-0.0073201661 0.83499998 0.061489396 1.4470649e-38 315 198
-0.0058561331 0.83499998 0.061489396 1.4470652e-38 316 198
-0.0043815798 0.833 0.061342116 1.4378097e-38 317 198
-0.0029210532 0.833 0.061342116 1.4285904e-38 318 198
-0.0014605266 0.833 0.061342116 1.43781e-38 319 198
0 0.83099997 0.061194837 1.4102239e-38 320 198
0.0014570199 0.83099997 0.061194837 1.4102239e-38 321 198
0.0029140399 0.83099997 0.061194837 1.4010396e-38 322 198
