# .PCD v.7 - Point Cloud Data file format
FIELDS x y z rgb imX imY
SIZE 4 4 4 4 4 4
TYPE F F F F F F
COUNT 1 1 1 1 1 1
WIDTH 856
HEIGHT 1
VIEWPOINT 0 0 0 1 0 0 0
POINTS 856
DATA ascii
0.034631841 0.82300001 0.056276739 1.7143225e-38 344 201
0.036074832 0.82300001 0.056276739 1.7143225e-38 345 201
0.037517827 0.82300001 0.056276739 1.723506e-38 346 201
0.038960818 0.82300001 0.056276739 1.723506e-38 347 201
0.040403813 0.82300001 0.056276739 1.7235055e-38 348 201
0.041846808 0.82300001 0.056276739 1.7142859e-38 349 201
0.043289799 0.82300001 0.056276739 1.7143565e-38 350 201
0.044732794 0.82300001 0.056276739 1.7143565e-38 351 201
0.046175785 0.82300001 0.056276739 1.6958817e-38 352 201
0.04761878 0.82300001 0.056276739 1.6958817e-38 353 201
0.049061771 0.82300001 0.056276739 1.6866974e-38 354 201
0.0506275 0.82499999 0.056413498 1.6590389e-38 355 201
0.052073997 0.82499999 0.056413498 1.6130836e-38 356 201
0.053520497 0.82499999 0.056413498 1.5946444e-38 357 201
0.054833744 0.82300001 0.056276739 1.6128332e-38 358 201
0.05613998 0.82099998 0.05613998 1.5943939e-38 359 201
0.057579465 0.82099998 0.05613998 1.5115296e-38 360 201
0.059018951 0.82099998 0.05613998 1.4930905e-38 361 201
-0.05723406 0.83700001 0.055766519 9.0473812e-39 281 202
-0.055766519 0.83700001 0.055766519 1.005391e-38 282 202
-0.054298978 0.83700001 0.055766519 1.1160258e-38 283 202
-0.052831437 0.83700001 0.055766519 1.2083974e-38 284 202
-0.051241163 0.83499998 0.055633266 1.2821539e-38 285 202
-0.049777132 0.83499998 0.055633266 1.4474577e-38 286 202
-0.048313096 0.83499998 0.055633266 1.4843359e-38 287 202
-0.046849065 0.83499998 0.055633266 1.5027392e-38 288 202
-0.045385033 0.83499998 0.055633266 1.5027392e-38 289 202
-0.043815799 0.833 0.055500012 1.5486215e-38 290 202
-0.042355273 0.833 0.055500012 1.5486215e-38 291 202
-0.040796559 0.83099997 0.055366758 1.5576978e-38 292 202
-0.039339535 0.83099997 0.055366758 1.5669174e-38 293 202
-0.037882518 0.83099997 0.055366758 1.566953e-38 294 202
-0.036425497 0.83099997 0.055366758 1.548478e-38 295 202
-0.03496848 0.83099997 0.055366758 1.5576961e-38 296 202
-0.033430804 0.829 0.055233505 1.5576961e-38 297 202
-0.031977292 0.829 0.055233505 1.5668078e-38 298 202
-0.030523779 0.829 0.055233505 1.5391851e-38 299 202
-0.029070266 0.829 0.055233505 1.5390772e-38 300 202
-0.027616752 0.829 0.055233505 1.4929794e-38 301 202
-0.026163239 0.829 0.055233505 1.474468e-38 302 202
-0.024650112 0.82700002 0.055100251 1.4836877e-38 303 202
-0.023200106 0.82700002 0.055100251 1.5022358e-38 304 202
-0.0217501 0.82700002 0.055100251 1.5206751e-38 305 202
-0.020300092 0.82700002 0.055100251 1.5298949e-38 306 202
-0.018850086 0.82700002 0.055100251 1.5298949e-38 307 202
-0.017442159 0.829 0.055233505 1.5390052e-38 308 202
-0.015988646 0.829 0.055233505 1.5482249e-38 309 202
-0.014535133 0.829 0.055233505 1.52993e-38 310 202
-0.01308162 0.829 0.055233505 1.52993e-38 311 202
-0.011628106 0.829 0.055233505 1.5482612e-38 312 202
-0.010174593 0.829 0.055233505 1.5482612e-38 313 202
-0.0087210797 0.829 0.055233505 1.5116003e-38 314 202
-0.0072675664 0.829 0.055233505 1.5392229e-38 315 202
-0.0058140531 0.829 0.055233505 1.5208917e-38 316 202
-0.0043605398 0.829 0.055233505 1.5208917e-38 317 202
-0.0029070266 0.829 0.055233505 1.5759571e-38 318 202
-0.0014535133 0.829 0.055233505 1.5851767e-38 319 202
0 0.829 0.055233505 1.5576272e-38 320 202
0.0014500066 0.82700002 0.055100251 1.5761022e-38 321 202
0.0029000132 0.82700002 0.055100251 1.6035811e-38 322 202
0.0043500196 0.82700002 0.055100251 1.6035811e-38 323 202
0.0058000265 0.82700002 0.055100251 1.6036886e-38 324 202
0.0072500333 0.82700002 0.055100251 1.6036886e-38 325 202
0.0087000392 0.82700002 0.055100251 1.6129078e-38 326 202
0.010150046 0.82700002 0.055100251 1.6036883e-38 327 202
0.011600053 0.82700002 0.055100251 1.6129081e-38 328 202
0.01305006 0.82700002 0.055100251 1.6129081e-38 329 202
0.014500067 0.82700002 0.055100251 1.6220922e-38 330 202
0.015950073 0.82700002 0.055100251 1.6313477e-38 331 202
0.017400078 0.82700002 0.055100251 1.6496786e-38 332 202
0.018804498 0.82499999 0.054966997 1.6588982e-38 333 202
0.020251 0.82499999 0.054966997 1.6589701e-38 334 202
0.021697499 0.82499999 0.054966997 1.6589701e-38 335 202
0.023143999 0.82499999 0.054966997 1.6589703e-38 336 202
0.024590498 0.82499999 0.054966997 1.6681899e-38 337 202
0.025973879 0.82300001 0.054833744 1.6499309e-38 338 202
0.027416872 0.82300001 0.054833744 1.6591506e-38 339 202
0.028859867 0.82300001 0.054833744 1.6500026e-38 340 202
0.03030286 0.82300001 0.054833744 1.6592222e-38 341 202
0.031668708 0.82099998 0.05470049 1.6867364e-38 342 202
0.03310819 0.82099998 0.05470049 1.6959559e-38 343 202
0.034547675 0.82099998 0.05470049 1.6959194e-38 344 202
0.035987165 0.82099998 0.05470049 1.6959194e-38 345 202
0.037426651 0.82099998 0.05470049 1.7418373e-38 346 202
0.03886614 0.82099998 0.05470049 1.7418373e-38 347 202
0.040305622 0.82099998 0.05470049 1.7235055e-38 348 202
0.041745111 0.82099998 0.05470049 1.7235055e-38 349 202
0.043289799 0.82300001 0.054833744 1.7235405e-38 350 202
0.044732794 0.82300001 0.054833744 1.7235405e-38 351 202
0.046175785 0.82300001 0.054833744 1.741907e-38 352 202
0.04761878 0.82300001 0.054833744 1.7234678e-38 353 202
0.049061771 0.82300001 0.054833744 1.6958801e-38 354 202
0.050504766 0.82300001 0.054833744 1.6958801e-38 355 202
0.051947758 0.82300001 0.054833744 1.686659e-38 356 202
0.053390753 0.82300001 0.054833744 1.6681839e-38 357 202
0.054833744 0.82300001 0.054833744 1.6313429e-38 358 202
0.05613998 0.82099998 0.05470049 1.6221233e-38 359 202
0.057579465 0.82099998 0.05470049 1.566988e-38 360 202
0.059018951 0.82099998 0.05470049 1.5116706e-38 361 202
-0.05723406 0.83700001 0.054298978 3.5264362e-39 281 203
-0.055766519 0.83700001 0.054298978 1.0238674e-38 282 203
-0.054298978 0.83700001 0.054298978 1.134502e-38 283 203
-0.052831437 0.83700001 0.054298978 1.281652e-38 284 203
-0.051241163 0.83499998 0.05416923 1.3554085e-38 285 203
-0.049777132 0.83499998 0.05416923 1.4566069e-38 286 203
-0.048313096 0.83499998 0.05416923 1.4658264e-38 287 203
-0.046849065 0.83499998 0.05416923 1.5025955e-38 288 203
-0.045385033 0.83499998 0.05416923 1.493376e-38 289 203
-0.043815799 0.833 0.054039486 1.5392567e-38 290 203
-0.042355273 0.833 0.054039486 1.5300372e-38 291 203
-0.040796559 0.83099997 0.053909738 1.5390046e-38 292 203
-0.039339535 0.83099997 0.053909738 1.5297851e-38 293 203
-0.037882518 0.83099997 0.053909738 1.4930866e-38 294 203
-0.036425497 0.83099997 0.053909738 1.4746476e-38 295 203
-0.03496848 0.83099997 0.053909738 1.4654283e-38 296 203
-0.033430804 0.829 0.053779993 1.4562088e-38 297 203
-0.031977292 0.829 0.053779993 1.4469535e-38 298 203
-0.030523779 0.829 0.053779993 1.4101112e-38 299 203
-0.029070266 0.829 0.053779993 1.3824167e-38 300 203
-0.027616752 0.829 0.053779993 1.3363547e-38 301 203
-0.026163239 0.829 0.053779993 1.354506e-38 302 203
-0.024650112 0.82700002 0.053650245 1.3637257e-38 303 203
-0.023200106 0.82700002 0.053650245 1.3730898e-38 304 203
-0.0217501 0.82700002 0.053650245 1.4007485e-38 305 203
-0.020300092 0.82700002 0.053650245 1.4007129e-38 306 203
-0.018850086 0.82700002 0.053650245 1.4007129e-38 307 203
-0.017442159 0.829 0.053779993 1.4191157e-38 308 203
-0.015988646 0.829 0.053779993 1.4375188e-38 309 203
-0.014535133 0.829 0.053779993 1.4376267e-38 310 203
-0.01308162 0.829 0.053779993 1.4376267e-38 311 203
-0.011628106 0.829 0.053779993 1.4376986e-38 312 203
-0.010174593 0.829 0.053779993 1.4469183e-38 313 203
-0.0087210797 0.829 0.053779993 1.4286239e-38 314 203
-0.0072675664 0.829 0.053779993 1.4470631e-38 315 203
-0.0058140531 0.829 0.053779993 1.4562832e-38 316 203
-0.0043605398 0.829 0.053779993 1.4746863e-38 317 203
-0.0029070266 0.829 0.053779993 1.529715e-38 318 203
-0.0014535133 0.829 0.053779993 1.5481543e-38 319 203
0 0.829 0.053779993 1.520747e-38 320 203
0.0014500066 0.82700002 0.053650245 1.5299665e-38 321 203
0.0029000132 0.82700002 0.053650245 1.5666656e-38 322 203
0.0043500196 0.82700002 0.053650245 1.5758851e-38 323 203
0.0058000265 0.82700002 0.053650245 1.5942887e-38 324 203
0.0072500333 0.82700002 0.053650245 1.5942887e-38 325 203
0.0087000392 0.82700002 0.053650245 1.5484432e-38 326 203
0.010150046 0.82700002 0.053650245 1.5484432e-38 327 203
0.011600053 0.82700002 0.053650245 1.5576625e-38 328 203
0.01305006 0.82700002 0.053650245 1.5668821e-38 329 203
0.014500067 0.82700002 0.053650245 1.6036167e-38 330 203
0.015950073 0.82700002 0.053650245 1.6220198e-38 331 203
0.017400078 0.82700002 0.053650245 1.6311324e-38 332 203
0.018804498 0.82499999 0.053520497 1.640352e-38 333 203
0.020251 0.82499999 0.053520497 1.6311687e-38 334 203
0.021697499 0.82499999 0.053520497 1.6311687e-38 335 203
0.023143999 0.82499999 0.053520497 1.6312043e-38 336 203
0.024530886 0.82300001 0.053390753 1.6496436e-38 337 203
0.025973879 0.82300001 0.053390753 1.6313487e-38 338 203
0.027350245 0.82099998 0.053261004 1.6498237e-38 339 203
0.028789733 0.82099998 0.053261004 1.6406757e-38 340 203
0.030229218 0.82099998 0.053261004 1.6406757e-38 341 203
0.031668708 0.82099998 0.053261004 1.6682615e-38 342 203
0.03310819 0.82099998 0.053261004 1.6682615e-38 343 203
0.034547675 0.82099998 0.053261004 1.6958116e-38 344 203
0.035987165 0.82099998 0.053261004 1.7050313e-38 345 203
0.037426651 0.82099998 0.053261004 1.7142512e-38 346 203
0.03886614 0.82099998 0.053261004 1.7142512e-38 347 203
0.040305622 0.82099998 0.053261004 1.7234351e-38 348 203
0.041745111 0.82099998 0.053261004 1.7326906e-38 349 203
0.043184597 0.82099998 0.053261004 1.73269e-38 350 203
0.044624086 0.82099998 0.053261004 1.73269e-38 351 203
0.046063572 0.82099998 0.053261004 1.732725e-38 352 203
0.047503054 0.82099998 0.053261004 1.732725e-38 353 203
0.048942544 0.82099998 0.053261004 1.7143565e-38 354 203
0.050382029 0.82099998 0.053261004 1.7143565e-38 355 203
0.051821519 0.82099998 0.053261004 1.7235028e-38 356 203
0.053261004 0.82099998 0.053261004 1.6958801e-38 357 203
0.05470049 0.82099998 0.053261004 1.6591092e-38 358 203
0.05613998 0.82099998 0.053261004 1.6406699e-38 359 203
0.057439201 0.81900001 0.053131256 1.6039712e-38 360 203
0.058875177 0.81900001 0.053131256 1.5670931e-38 361 203
0.060311157 0.81900001 0.053131256 1.5760261e-38 362 203
0.062048711 0.82300001 0.053390753 1.5575511e-38 363 203
0.06349171 0.82300001 0.053390753 1.4746863e-38 364 203
0.064934701 0.82300001 0.053390753 1.419369e-38 365 203
0.066377692 0.82300001 0.053390753 1.3644896e-38 366 203
0.069263682 0.82300001 0.053390753 1.6683449e-38 368 203
0.070706673 0.82300001 0.053390753 1.7605047e-38 369 203
-0.057370819 0.83899999 0.052957676 1.7790395e-39 281 204
-0.055766519 0.83700001 0.052831437 1.0237958e-38 282 204
-0.054298978 0.83700001 0.052831437 1.1159554e-38 283 204
-0.052831437 0.83700001 0.052831437 1.2171872e-38 284 204
-0.051241163 0.83499998 0.052705199 1.244846e-38 285 204
-0.049777132 0.83499998 0.052705199 1.3550122e-38 286 204
-0.048313096 0.83499998 0.052705199 1.3642317e-38 287 204
-0.046849065 0.83499998 0.052705199 1.3641942e-38 288 204
-0.045385033 0.83499998 0.052705199 1.3365356e-38 289 204
-0.043920998 0.83499998 0.052705199 1.3639405e-38 290 204
-0.042355273 0.833 0.05257896 1.354721e-38 291 204
-0.040894743 0.833 0.05257896 1.3546844e-38 292 204
-0.039339535 0.83099997 0.052452717 1.3454647e-38 293 204
-0.037882518 0.83099997 0.052452717 1.3271699e-38 294 204
-0.036425497 0.83099997 0.052452717 1.3271699e-38 295 204
-0.03496848 0.83099997 0.052452717 1.3179153e-38 296 204
-0.033430804 0.829 0.052326478 1.3086597e-38 297 204
-0.031977292 0.829 0.052326478 1.3085881e-38 298 204
-0.030523779 0.829 0.052326478 1.271674e-38 299 204
-0.029070266 0.829 0.052326478 1.2808591e-38 300 204
-0.027616752 0.829 0.052326478 1.2900787e-38 301 204
-0.026163239 0.829 0.052326478 1.3081955e-38 302 204
-0.024709726 0.829 0.052326478 1.335854e-38 303 204
-0.023256212 0.829 0.052326478 1.2808235e-38 304 204
-0.0217501 0.82700002 0.052200239 1.2716039e-38 305 204
-0.020300092 0.82700002 0.052200239 1.253236e-38 306 204
-0.018850086 0.82700002 0.052200239 1.2716393e-38 307 204
-0.017442159 0.829 0.052326478 1.2717474e-38 308 204
-0.015988646 0.829 0.052326478 1.2901506e-38 309 204
-0.014535133 0.829 0.052326478 1.2810389e-38 310 204
-0.01308162 0.829 0.052326478 1.2810389e-38 311 204
-0.011628106 0.829 0.052326478 1.3085534e-38 312 204
-0.010174593 0.829 0.052326478 1.3177729e-38 313 204
-0.0087210797 0.829 0.052326478 1.3270292e-38 314 204
-0.0072675664 0.829 0.052326478 1.3454684e-38 315 204
-0.0058140531 0.829 0.052326478 1.3454684e-38 316 204
-0.0043605398 0.829 0.052326478 1.3639073e-38 317 204
-0.0029070266 0.829 0.052326478 1.3639424e-38 318 204
-0.0014535133 0.829 0.052326478 1.3823816e-38 319 204
0 0.829 0.052326478 1.3640504e-38 320 204
0.0014500066 0.82700002 0.052200239 1.4008926e-38 321 204
0.0029000132 0.82700002 0.052200239 1.3918178e-38 322 204
0.0043500196 0.82700002 0.052200239 1.4102571e-38 323 204
0.0058000265 0.82700002 0.052200239 1.465323e-38 324 204
0.0072500333 0.82700002 0.052200239 1.4929456e-38 325 204
0.0087000392 0.82700002 0.052200239 1.4379882e-38 326 204
0.010150046 0.82700002 0.052200239 1.4656111e-38 327 204
0.011600053 0.82700002 0.052200239 1.4840505e-38 328 204
0.01305006 0.82700002 0.052200239 1.5209287e-38 329 204
0.014500067 0.82700002 0.052200239 1.5758504e-38 330 204
0.015950073 0.82700002 0.052200239 1.5758504e-38 331 204
0.017357999 0.82499999 0.052073997 1.594218e-38 332 204
0.018804498 0.82499999 0.052073997 1.6034735e-38 333 204
0.020251 0.82499999 0.052073997 1.5851064e-38 334 204
0.0216449 0.82300001 0.051947758 1.5851064e-38 335 204
0.023087893 0.82300001 0.051947758 1.5943618e-38 336 204
0.024530886 0.82300001 0.051947758 1.6035814e-38 337 204
0.025973879 0.82300001 0.051947758 1.6128728e-38 338 204
0.027350245 0.82099998 0.051821519 1.6128728e-38 339 204
0.028789733 0.82099998 0.051821519 1.6221641e-38 340 204
0.030229218 0.82099998 0.051821519 1.6221641e-38 341 204
0.031668708 0.82099998 0.051821519 1.6497861e-38 342 204
0.03310819 0.82099998 0.051821519 1.6497861e-38 343 204
0.034547675 0.82099998 0.051821519 1.6772647e-38 344 204
0.035987165 0.82099998 0.051821519 1.6957397e-38 345 204
0.037426651 0.82099998 0.051821519 1.6957041e-38 346 204
0.03886614 0.82099998 0.051821519 1.7049237e-38 347 204
0.040305622 0.82099998 0.051821519 1.7049963e-38 348 204
0.041745111 0.82099998 0.051821519 1.7142158e-38 349 204
0.043184597 0.82099998 0.051821519 1.7142156e-38 350 204
0.044624086 0.82099998 0.051821519 1.7326906e-38 351 204
0.046063572 0.82099998 0.051821519 1.7235779e-38 352 204
0.047503054 0.82099998 0.051821519 1.7235779e-38 353 204
0.048942544 0.82099998 0.051821519 1.7143931e-38 354 204
0.050382029 0.82099998 0.051821519 1.7143931e-38 355 204
0.051821519 0.82099998 0.051821519 1.7236114e-38 356 204
0.053261004 0.82099998 0.051821519 1.714356e-38 357 204
0.05470049 0.82099998 0.051821519 1.6959523e-38 358 204
0.056003217 0.81900001 0.05169528 1.6682937e-38 359 204
0.057439201 0.81900001 0.05169528 1.631595e-38 360 204
0.058875177 0.81900001 0.05169528 1.6039362e-38 361 204
0.060311157 0.81900001 0.05169528 1.5945372e-38 362 204
0.061897919 0.82099998 0.051821519 1.576098e-38 363 204
0.063337415 0.82099998 0.051821519 1.5575517e-38 364 204
0.064776897 0.82099998 0.051821519 1.5114538e-38 365 204
0.066216379 0.82099998 0.051821519 1.4563197e-38 366 204
0.067820683 0.82300001 0.051947758 1.5024176e-38 367 204
0.069263682 0.82300001 0.051947758 1.4749461e-38 368 204
0.070706673 0.82300001 0.051947758 1.5763613e-38 369 204
0.072149664 0.82300001 0.051947758 1.6868558e-38 370 204
-0.057370819 0.83899999 0.05148663 1.7754424e-39 281 205
-0.055766519 0.83700001 0.051363897 9.6837039e-39 282 205
-0.054298978 0.83700001 0.051363897 1.042127e-38 283 205
-0.052831437 0.83700001 0.051363897 1.1249191e-38 284 205
-0.051363897 0.83700001 0.051363897 1.1433582e-38 285 205
-0.049896359 0.83700001 0.051363897 1.2167901e-38 286 205
-0.048313096 0.83499998 0.051241163 1.1891674e-38 287 205
-0.046849065 0.83499998 0.051241163 1.2166819e-38 288 205
-0.045385033 0.83499998 0.051241163 1.2166819e-38 289 205
-0.043920998 0.83499998 0.051241163 1.2440527e-38 290 205
-0.042355273 0.833 0.051118433 1.2348332e-38 291 205
-0.040894743 0.833 0.051118433 1.2256882e-38 292 205
-0.039434217 0.833 0.051118433 1.2441273e-38 293 205
-0.037973695 0.833 0.051118433 1.2256526e-38 294 205
-0.036513168 0.833 0.051118433 1.1980298e-38 295 205
-0.03496848 0.83099997 0.050995696 1.2255433e-38 296 205
-0.033511456 0.83099997 0.050995696 1.2347628e-38 297 205
-0.032054439 0.83099997 0.050995696 1.216361e-38 298 205
-0.030523779 0.829 0.050872963 1.1887023e-38 299 205
-0.029070266 0.829 0.050872963 1.2071061e-38 300 205
-0.027683379 0.83099997 0.050995696 1.188667e-38 301 205
-0.026163239 0.829 0.050872963 1.225366e-38 302 205
-0.024709726 0.829 0.050872963 1.2345856e-38 303 205
-0.023256212 0.829 0.050872963 1.1978515e-38 304 205
-0.021802699 0.829 0.050872963 1.1978515e-38 305 205
-0.020349186 0.829 0.050872963 1.1701932e-38 306 205
-0.018895673 0.829 0.050872963 1.1978518e-38 307 205
-0.017442159 0.829 0.050872963 1.1886667e-38 308 205
-0.015988646 0.829 0.050872963 1.1886667e-38 309 205
-0.014535133 0.829 0.050872963 1.2071399e-38 310 205
-0.01308162 0.829 0.050872963 1.1979203e-38 311 205
-0.011628106 0.829 0.050872963 1.2071399e-38 312 205
-0.010174593 0.829 0.050872963 1.225543e-38 313 205
-0.0087210797 0.829 0.050872963 1.2348008e-38 314 205
-0.0072675664 0.829 0.050872963 1.271643e-38 315 205
-0.0058140531 0.829 0.050872963 1.2532062e-38 316 205
-0.0043605398 0.829 0.050872963 1.2624617e-38 317 205
-0.0029070266 0.829 0.050872963 1.2809335e-38 318 205
-0.0014535133 0.829 0.050872963 1.2716781e-38 319 205
0 0.829 0.050872963 1.2901503e-38 320 205
0.0014500066 0.82700002 0.050750233 1.317845e-38 321 205
0.0029000132 0.82700002 0.050750233 1.3087346e-38 322 205
0.0043500196 0.82700002 0.050750233 1.3271737e-38 323 205
0.0058000265 0.82700002 0.050750233 1.3730919e-38 324 205
0.0072500333 0.82700002 0.050750233 1.3915311e-38 325 205
0.0087000392 0.82700002 0.050750233 1.3550119e-38 326 205
0.010150046 0.82700002 0.050750233 1.3734869e-38 327 205
0.011600053 0.82700002 0.050750233 1.4378806e-38 328 205
0.01305006 0.82700002 0.050750233 1.4563197e-38 329 205
0.014500067 0.82700002 0.050750233 1.4838707e-38 330 205
0.015911499 0.82499999 0.0506275 1.4930902e-38 331 205
0.017357999 0.82499999 0.0506275 1.4931258e-38 332 205
0.018804498 0.82499999 0.0506275 1.511565e-38 333 205
0.020251 0.82499999 0.0506275 1.5300761e-38 334 205
0.0216449 0.82300001 0.050504766 1.5208564e-38 335 205
0.023087893 0.82300001 0.050504766 1.5024899e-38 336 205
0.024530886 0.82300001 0.050504766 1.5301486e-38 337 205
0.025973879 0.82300001 0.050504766 1.5485161e-38 338 205
0.027350245 0.82099998 0.050382029 1.5485161e-38 339 205
0.028789733 0.82099998 0.050382029 1.5761385e-38 340 205
0.030229218 0.82099998 0.050382029 1.5761385e-38 341 205
0.031668708 0.82099998 0.050382029 1.6128731e-38 342 205
0.03310819 0.82099998 0.050382029 1.6128731e-38 343 205
0.034547675 0.82099998 0.050382029 1.6128731e-38 344 205
0.035987165 0.82099998 0.050382029 1.6313124e-38 345 205
0.037426651 0.82099998 0.050382029 1.6221294e-38 346 205
0.03886614 0.82099998 0.050382029 1.6313489e-38 347 205
0.040305622 0.82099998 0.050382029 1.6497883e-38 348 205
0.041745111 0.82099998 0.050382029 1.6681915e-38 349 205
0.043079399 0.81900001 0.0502593 1.6865941e-38 350 205
0.044515379 0.81900001 0.0502593 1.7142527e-38 351 205
0.046063572 0.82099998 0.050382029 1.677625e-38 352 205
0.047387339 0.81900001 0.0502593 1.6960281e-38 353 205
0.048823319 0.81900001 0.0502593 1.7052464e-38 354 205
0.0502593 0.81900001 0.0502593 1.7052464e-38 355 205
0.05169528 0.81900001 0.0502593 1.7143928e-38 356 205
0.053131256 0.81900001 0.0502593 1.6959897e-38 357 205
0.05470049 0.82099998 0.050382029 1.6960247e-38 358 205
0.056003217 0.81900001 0.0502593 1.6775855e-38 359 205
0.057439201 0.81900001 0.0502593 1.6867322e-38 360 205
0.058875177 0.81900001 0.0502593 1.6591095e-38 361 205
0.060311157 0.81900001 0.0502593 1.6589646e-38 362 205
0.061747137 0.81900001 0.0502593 1.6405255e-38 363 205
0.063337415 0.82099998 0.050382029 1.622014e-38 364 205
0.064776897 0.82099998 0.050382029 1.5851359e-38 365 205
0.066216379 0.82099998 0.050382029 1.5851731e-38 366 205
0.067655869 0.82099998 0.050382029 1.5113807e-38 367 205
0.069095351 0.82099998 0.050382029 1.419369e-38 368 205
0.070534848 0.82099998 0.050382029 1.4470636e-38 369 205
0.07197433 0.82099998 0.050382029 1.5120041e-38 370 205
0.073413812 0.82099998 0.050382029 1.6687727e-38 371 205
-0.057507578 0.84100002 0.050134812 2.4153845e-39 281 206
-0.055899773 0.83899999 0.050015584 9.4024268e-39 282 206
-0.054298978 0.83700001 0.049896359 1.0047796e-38 283 206
-0.052831437 0.83700001 0.049896359 9.5896725e-39 284 206
-0.051363897 0.83700001 0.049896359 9.3130856e-39 285 206
-0.049896359 0.83700001 0.049896359 9.5885781e-39 286 206
-0.048428819 0.83700001 0.049896359 9.8655237e-39 287 206
-0.046849065 0.83499998 0.049777132 1.1059039e-38 288 206
-0.045385033 0.83499998 0.049777132 1.1520017e-38 289 206
-0.043920998 0.83499998 0.049777132 1.2529503e-38 290 206
-0.042355273 0.833 0.049657907 1.2437307e-38 291 206
-0.040894743 0.833 0.049657907 1.2438029e-38 292 206
-0.039434217 0.833 0.049657907 1.262242e-38 293 206
-0.037973695 0.833 0.049657907 1.2530224e-38 294 206
-0.036513168 0.833 0.049657907 1.2530224e-38 295 206
-0.035052639 0.833 0.049657907 1.2530224e-38 296 206
-0.033511456 0.83099997 0.049538679 1.2438029e-38 297 206
-0.032054439 0.83099997 0.049538679 1.2253642e-38 298 206
-0.030597419 0.83099997 0.049538679 1.2161446e-38 299 206
-0.029140398 0.83099997 0.049538679 1.2069613e-38 300 206
-0.027683379 0.83099997 0.049538679 1.1793385e-38 301 206
-0.026226358 0.83099997 0.049538679 1.1793032e-38 302 206
-0.02476934 0.83099997 0.049538679 1.1793032e-38 303 206
-0.023312319 0.83099997 0.049538679 1.1884505e-38 304 206
-0.021855298 0.83099997 0.049538679 1.1884505e-38 305 206
-0.020349186 0.829 0.049419452 1.1975982e-38 306 206
-0.018895673 0.829 0.049419452 1.2068177e-38 307 206
-0.01748424 0.83099997 0.049538679 1.1975626e-38 308 206
-0.01602722 0.83099997 0.049538679 1.1975626e-38 309 206
-0.014570199 0.83099997 0.049538679 1.206818e-38 310 206
-0.013113179 0.83099997 0.049538679 1.206818e-38 311 206
-0.01165616 0.83099997 0.049538679 1.2069251e-38 312 206
-0.010174593 0.829 0.049419452 1.2161446e-38 313 206
-0.0087210797 0.829 0.049419452 1.2436954e-38 314 206
-0.0072850995 0.83099997 0.049538679 1.252915e-38 315 206
-0.0058140531 0.829 0.049419452 1.2620995e-38 316 206
-0.0043605398 0.829 0.049419452 1.2713549e-38 317 206
-0.0029070266 0.829 0.049419452 1.2071048e-38 318 206
-0.0014535133 0.829 0.049419452 1.1978853e-38 319 206
0 0.829 0.049419452 1.2254714e-38 320 206
0.0014535133 0.829 0.049419452 1.2531302e-38 321 206
0.0029000132 0.82700002 0.049300224 1.2989775e-38 322 206
0.0043500196 0.82700002 0.049300224 1.2897579e-38 323 206
0.0058000265 0.82700002 0.049300224 1.2255077e-38 324 206
0.0072500333 0.82700002 0.049300224 1.2255077e-38 325 206
0.0087000392 0.82700002 0.049300224 1.1982443e-38 326 206
0.010150046 0.82700002 0.049300224 1.2351225e-38 327 206
0.011600053 0.82700002 0.049300224 1.2902604e-38 328 206
0.01305006 0.82700002 0.049300224 1.3086995e-38 329 206
0.014500067 0.82700002 0.049300224 1.3271737e-38 330 206
0.015911499 0.82499999 0.049180996 1.364052e-38 331 206
0.017357999 0.82499999 0.049180996 1.3642317e-38 332 206
0.018804498 0.82499999 0.049180996 1.40111e-38 333 206
0.020251 0.82499999 0.049180996 1.4195138e-38 334 206
0.0216449 0.82300001 0.049061771 1.4379529e-38 335 206
0.023087893 0.82300001 0.049061771 1.4839063e-38 336 206
0.024530886 0.82300001 0.049061771 1.5023454e-38 337 206
0.025973879 0.82300001 0.049061771 1.557446e-38 338 206
0.027350245 0.82099998 0.048942544 1.5758851e-38 339 206
0.028789733 0.82099998 0.048942544 1.5942884e-38 340 206
0.030229218 0.82099998 0.048942544 1.5942884e-38 341 206
0.031668708 0.82099998 0.048942544 1.6126559e-38 342 206
0.03310819 0.82099998 0.048942544 1.6219113e-38 343 206
0.034547675 0.82099998 0.048942544 1.6218757e-38 344 206
0.035899501 0.81900001 0.048823319 1.6402788e-38 345 206
0.037335481 0.81900001 0.048823319 1.6402791e-38 346 206
0.038771462 0.81900001 0.048823319 1.6587183e-38 347 206
0.040207438 0.81900001 0.048823319 1.6587903e-38 348 206
0.041643418 0.81900001 0.048823319 1.6772653e-38 349 206
0.043079399 0.81900001 0.048823319 1.6957397e-38 350 206
0.044515379 0.81900001 0.048823319 1.7049593e-38 351 206
0.045951359 0.81900001 0.048823319 1.686772e-38 352 206
0.047387339 0.81900001 0.048823319 1.6959915e-38 353 206
0.048823319 0.81900001 0.048823319 1.7235423e-38 354 206
0.0502593 0.81900001 0.048823319 1.7235423e-38 355 206
0.05169528 0.81900001 0.048823319 1.7235776e-38 356 206
0.053131256 0.81900001 0.048823319 1.7235776e-38 357 206
0.054567236 0.81900001 0.048823319 1.7052458e-38 358 206
0.056003217 0.81900001 0.048823319 1.6868067e-38 359 206
0.057439201 0.81900001 0.048823319 1.6868423e-38 360 206
0.058731399 0.81699997 0.048704091 1.6499641e-38 361 206
0.060163878 0.81699997 0.048704091 1.6590392e-38 362 206
0.061747137 0.81900001 0.048823319 1.6498196e-38 363 206
0.063337415 0.82099998 0.048942544 1.6221599e-38 364 206
0.064776897 0.82099998 0.048942544 1.5853177e-38 365 206
0.066216379 0.82099998 0.048942544 1.5943573e-38 366 206
0.067655869 0.82099998 0.048942544 1.5574792e-38 367 206
0.069095351 0.82099998 0.048942544 1.5022355e-38 368 206
0.070534848 0.82099998 0.048942544 1.493016e-38 369 206
0.07197433 0.82099998 0.048942544 1.336757e-38 370 206
0.073413812 0.82099998 0.048942544 1.4105135e-38 371 206
-0.055899773 0.83899999 0.048544537 8.7527638e-39 282 207
-0.054428723 0.83899999 0.048544537 9.85911e-39 283 207
-0.052831437 0.83700001 0.048428819 8.8528712e-39 284 207
-0.051363897 0.83700001 0.048428819 9.0372625e-39 285 207
-0.049896359 0.83700001 0.048428819 9.9566824e-39 286 207
-0.048428819 0.83700001 0.048428819 1.0325105e-38 287 207
-0.046849065 0.83499998 0.048313096 1.1059783e-38 288 207
-0.045385033 0.83499998 0.048313096 1.1059783e-38 289 207
-0.043920998 0.83499998 0.048313096 1.1610437e-38 290 207
-0.042456966 0.83499998 0.048313096 1.1702992e-38 291 207
-0.040894743 0.833 0.048197377 1.1796259e-38 292 207
-0.039434217 0.833 0.048197377 1.1796259e-38 293 207
-0.037973695 0.833 0.048197377 1.1979569e-38 294 207
-0.036513168 0.833 0.048197377 1.1979569e-38 295 207
-0.035052639 0.833 0.048197377 1.197885e-38 296 207
-0.033592112 0.833 0.048197377 1.197885e-38 297 207
-0.032131586 0.833 0.048197377 1.1611509e-38 298 207
-0.030671058 0.833 0.048197377 1.1519314e-38 299 207
-0.029210532 0.833 0.048197377 1.151824e-38 300 207
-0.027750006 0.833 0.048197377 1.1426045e-38 301 207
-0.02628948 0.833 0.048197377 1.1425697e-38 302 207
-0.024828954 0.833 0.048197377 1.1333143e-38 303 207
-0.023368426 0.833 0.048197377 1.1057638e-38 304 207
-0.021855298 0.83099997 0.048081655 1.1149833e-38 305 207
-0.02039828 0.83099997 0.048081655 1.1333143e-38 306 207
-0.018941259 0.83099997 0.048081655 1.1333143e-38 307 207
-0.01748424 0.83099997 0.048081655 1.1332427e-38 308 207
-0.01602722 0.83099997 0.048081655 1.1424622e-38 309 207
-0.014570199 0.83099997 0.048081655 1.1242029e-38 310 207
-0.013113179 0.83099997 0.048081655 1.1242029e-38 311 207
-0.01165616 0.83099997 0.048081655 1.1242379e-38 312 207
-0.010174593 0.829 0.04796594 1.1242379e-38 313 207
-0.0087210797 0.829 0.04796594 1.1426413e-38 314 207
-0.0072850995 0.83099997 0.048081655 1.1426413e-38 315 207
-0.0058280798 0.83099997 0.048081655 1.151826e-38 316 207
-0.0043710601 0.83099997 0.048081655 1.1610456e-38 317 207
-0.0029070266 0.829 0.04796594 1.1610458e-38 318 207
-0.0014535133 0.829 0.04796594 1.1610458e-38 319 207
0 0.829 0.04796594 1.1610458e-38 320 207
0.0014535133 0.829 0.04796594 1.179485e-38 321 207
0.0029000132 0.82700002 0.047850218 1.1794497e-38 322 207
0.0043500196 0.82700002 0.047850218 1.1794497e-38 323 207
0.0058000265 0.82700002 0.047850218 1.17952e-38 324 207
0.0072500333 0.82700002 0.047850218 1.1610809e-38 325 207
0.0087000392 0.82700002 0.047850218 1.1428215e-38 326 207
0.010150046 0.82700002 0.047850218 1.1704802e-38 327 207
0.011600053 0.82700002 0.047850218 1.1797355e-38 328 207
0.01305006 0.82700002 0.047850218 1.1981386e-38 329 207
0.014500067 0.82700002 0.047850218 1.2624935e-38 330 207
0.015950073 0.82700002 0.047850218 1.2809685e-38 331 207
0.017357999 0.82499999 0.047734499 1.2811485e-38 332 207
0.018804498 0.82499999 0.047734499 1.3272463e-38 333 207
0.020251 0.82499999 0.047734499 1.3547618e-38 334 207
0.0216449 0.82300001 0.04761878 1.3824563e-38 335 207
0.023087893 0.82300001 0.04761878 1.3917123e-38 336 207
0.024530886 0.82300001 0.04761878 1.4285904e-38 337 207
0.025973879 0.82300001 0.04761878 1.4746161e-38 338 207
0.027350245 0.82099998 0.047503054 1.5022748e-38 339 207
0.028789733 0.82099998 0.047503054 1.5115302e-38 340 207
0.030229218 0.82099998 0.047503054 1.5115302e-38 341 207
0.031668708 0.82099998 0.047503054 1.5116021e-38 342 207
0.03310819 0.82099998 0.047503054 1.5300414e-38 343 207
0.034547675 0.82099998 0.047503054 1.5483729e-38 344 207
0.035899501 0.81900001 0.047387339 1.5483729e-38 345 207
0.037335481 0.81900001 0.047387339 1.5758883e-38 346 207
0.038771462 0.81900001 0.047387339 1.5943633e-38 347 207
0.040207438 0.81900001 0.047387339 1.5943633e-38 348 207
0.041643418 0.81900001 0.047387339 1.6128026e-38 349 207
0.043079399 0.81900001 0.047387339 1.6313487e-38 350 207
0.044515379 0.81900001 0.047387339 1.6498237e-38 351 207
0.045951359 0.81900001 0.047387339 1.631564e-38 352 207
0.047387339 0.81900001 0.047387339 1.6499673e-38 353 207
0.048823319 0.81900001 0.047387339 1.6774462e-38 354 207
0.0502593 0.81900001 0.047387339 1.6959212e-38 355 207
0.05169528 0.81900001 0.047387339 1.6959562e-38 356 207
0.053131256 0.81900001 0.047387339 1.7051758e-38 357 207
0.054567236 0.81900001 0.047387339 1.7143578e-38 358 207
0.055866458 0.81699997 0.047271617 1.7143578e-38 359 207
0.057298932 0.81699997 0.047271617 1.714356e-38 360 207
0.058731399 0.81699997 0.047271617 1.6959167e-38 361 207
0.060163878 0.81699997 0.047271617 1.7050271e-38 362 207
0.061747137 0.81900001 0.047387339 1.7050271e-38 363 207
0.063183114 0.81900001 0.047387339 1.6682195e-38 364 207
0.064619094 0.81900001 0.047387339 1.6405249e-38 365 207
0.066055074 0.81900001 0.047387339 1.6311968e-38 366 207
0.067655869 0.82099998 0.047503054 1.6127576e-38 367 207
0.069095351 0.82099998 0.047503054 1.5942479e-38 368 207
0.070534848 0.82099998 0.047503054 1.5573696e-38 369 207
0.07197433 0.82099998 0.047503054 1.4377342e-38 370 207
0.073234983 0.81900001 0.047387339 1.3916365e-38 371 207
0.074670963 0.81900001 0.047387339 1.410335e-38 372 207
0.076106943 0.81900001 0.047387339 1.6039458e-38 373 207
-0.054558471 0.84100002 0.047185708 8.5733948e-39 283 208
-0.052957676 0.83899999 0.047073491 9.3131081e-39 284 208
-0.05148663 0.83899999 0.047073491 9.7740862e-39 285 208
-0.050015584 0.83899999 0.047073491 1.0693502e-38 286 208
-0.048428819 0.83700001 0.046961278 1.0693502e-38 287 208
-0.046961278 0.83700001 0.046961278 1.1336705e-38 288 208
-0.045493741 0.83700001 0.046961278 1.1428901e-38 289 208
-0.043920998 0.83499998 0.046849065 1.1704764e-38 290 208
-0.042456966 0.83499998 0.046849065 1.1704764e-38 291 208
-0.040992931 0.83499998 0.046849065 1.1704764e-38 292 208
-0.039434217 0.833 0.046736851 1.179696e-38 293 208
-0.037973695 0.833 0.046736851 1.1980275e-38 294 208
-0.036513168 0.833 0.046736851 1.1980275e-38 295 208
-0.035052639 0.833 0.046736851 1.1887726e-38 296 208
-0.033592112 0.833 0.046736851 1.1703695e-38 297 208
-0.032131586 0.833 0.046736851 1.1519311e-38 298 208
-0.030671058 0.833 0.046736851 1.1243083e-38 299 208
-0.029210532 0.833 0.046736851 1.1425326e-38 300 208
-0.027750006 0.833 0.046736851 1.1425326e-38 301 208
-0.02628948 0.833 0.046736851 1.1150187e-38 302 208
-0.024828954 0.833 0.046736851 1.0965437e-38 303 208
-0.023368426 0.833 0.046736851 1.1056913e-38 304 208
-0.0219079 0.833 0.046736851 1.1056913e-38 305 208
-0.02039828 0.83099997 0.046624638 1.1240581e-38 306 208
-0.018941259 0.83099997 0.046624638 1.1240581e-38 307 208
-0.017526319 0.833 0.046736851 1.1240584e-38 308 208
-0.016065793 0.833 0.046736851 1.133278e-38 309 208
-0.014605266 0.833 0.046736851 1.12413e-38 310 208
-0.01314474 0.833 0.046736851 1.12413e-38 311 208
-0.01165616 0.83099997 0.046624638 1.1150181e-38 312 208
-0.01019914 0.83099997 0.046624638 1.1150181e-38 313 208
-0.0087421201 0.83099997 0.046624638 1.1150181e-38 314 208
-0.0072850995 0.83099997 0.046624638 1.1242735e-38 315 208
-0.0058280798 0.83099997 0.046624638 1.1242382e-38 316 208
-0.0043710601 0.83099997 0.046624638 1.1426413e-38 317 208
-0.0029070266 0.829 0.046512425 1.1517894e-38 318 208
-0.0014535133 0.829 0.046512425 1.1517894e-38 319 208
0 0.829 0.046512425 1.1701202e-38 320 208
0.0014535133 0.829 0.046512425 1.1793399e-38 321 208
0.0029000132 0.82700002 0.046400212 1.161044e-38 322 208
0.0043500196 0.82700002 0.046400212 1.161044e-38 323 208
0.0058000265 0.82700002 0.046400212 1.161044e-38 324 208
0.0072500333 0.82700002 0.046400212 1.161044e-38 325 208
0.0087000392 0.82700002 0.046400212 1.1611159e-38 326 208
0.010150046 0.82700002 0.046400212 1.1703355e-38 327 208
0.011600053 0.82700002 0.046400212 1.1795906e-38 328 208
0.01305006 0.82700002 0.046400212 1.1888102e-38 329 208
0.014500067 0.82700002 0.046400212 1.2529874e-38 330 208
0.015950073 0.82700002 0.046400212 1.2714267e-38 331 208
0.017400078 0.82700002 0.046400212 1.2256531e-38 332 208
0.018804498 0.82499999 0.046287999 1.2533118e-38 333 208
0.020251 0.82499999 0.046287999 1.2532039e-38 334 208
0.0216449 0.82300001 0.046175785 1.2901182e-38 335 208
0.023087893 0.82300001 0.046175785 1.2718583e-38 336 208
0.024530886 0.82300001 0.046175785 1.3087364e-38 337 208
0.025973879 0.82300001 0.046175785 1.3365024e-38 338 208
0.027350245 0.82099998 0.046063572 1.3734167e-38 339 208
0.028789733 0.82099998 0.046063572 1.3918548e-38 340 208
0.030229218 0.82099998 0.046063572 1.4195135e-38 341 208
0.031668708 0.82099998 0.046063572 1.5113849e-38 342 208
0.03310819 0.82099998 0.046063572 1.5298599e-38 343 208
0.034547675 0.82099998 0.046063572 1.5391513e-38 344 208
0.035899501 0.81900001 0.045951359 1.5391513e-38 345 208
0.037335481 0.81900001 0.045951359 1.5574828e-38 346 208
0.038771462 0.81900001 0.045951359 1.5667024e-38 347 208
0.040207438 0.81900001 0.045951359 1.6034732e-38 348 208
0.041643418 0.81900001 0.045951359 1.6126927e-38 349 208
0.043079399 0.81900001 0.045951359 1.6312038e-38 350 208
0.044515379 0.81900001 0.045951359 1.6404593e-38 351 208
0.045951359 0.81900001 0.045951359 1.6497152e-38 352 208
0.047387339 0.81900001 0.045951359 1.6589706e-38 353 208
0.048823319 0.81900001 0.045951359 1.6774098e-38 354 208
0.0502593 0.81900001 0.045951359 1.6866295e-38 355 208
0.05169528 0.81900001 0.045951359 1.6958843e-38 356 208
0.053001508 0.81699997 0.045839142 1.723507e-38 357 208
0.054433983 0.81699997 0.045839142 1.7235423e-38 358 208
0.055866458 0.81699997 0.045839142 1.7235423e-38 359 208
0.057298932 0.81699997 0.045839142 1.7235776e-38 360 208
0.058731399 0.81699997 0.045839142 1.695955e-38 361 208
0.060163878 0.81699997 0.045839142 1.7051368e-38 362 208
0.061747137 0.81900001 0.045951359 1.6958814e-38 363 208
0.063183114 0.81900001 0.045951359 1.6590745e-38 364 208
0.064619094 0.81900001 0.045951359 1.6405993e-38 365 208
0.066055074 0.81900001 0.045951359 1.6495675e-38 366 208
0.067491055 0.81900001 0.045951359 1.6403479e-38 367 208
0.069095351 0.82099998 0.046063572 1.5944292e-38 368 208
0.070534848 0.82099998 0.046063572 1.5575511e-38 369 208
0.071799003 0.81900001 0.045951359 1.5207457e-38 370 208
0.073234983 0.81900001 0.045951359 1.5022706e-38 371 208
0.074670963 0.81900001 0.045951359 1.3916409e-38 372 208
0.075921081 0.81699997 0.045839142 1.4469224e-38 373 208
0.077353559 0.81699997 0.045839142 1.4381404e-38 374 208
-0.053210158 0.84299999 0.045819856 1.0602768e-38 284 209
-0.051732097 0.84299999 0.045819856 1.0787159e-38 285 209
-0.050254039 0.84299999 0.045819856 1.1245248e-38 286 209
-0.04866026 0.84100002 0.045711152 1.1337802e-38 287 209
-0.046961278 0.83700001 0.045493741 1.1337074e-38 288 209
-0.045493741 0.83700001 0.045493741 1.1429269e-38 289 209
-0.043920998 0.83499998 0.045385033 1.1520743e-38 290 209
-0.042456966 0.83499998 0.045385033 1.1520743e-38 291 209
-0.040992931 0.83499998 0.045385033 1.1703695e-38 292 209
-0.039528899 0.83499998 0.045385033 1.1887726e-38 293 209
-0.038064864 0.83499998 0.045385033 1.1979922e-38 294 209
-0.036513168 0.833 0.045276325 1.1703695e-38 295 209
-0.035052639 0.833 0.045276325 1.1611146e-38 296 209
-0.033592112 0.833 0.045276325 1.1518591e-38 297 209
-0.032131586 0.833 0.045276325 1.1242732e-38 298 209
-0.030671058 0.833 0.045276325 1.1058341e-38 299 209
-0.029210532 0.833 0.045276325 1.1056913e-38 300 209
-0.027750006 0.833 0.045276325 1.1056913e-38 301 209
-0.02628948 0.833 0.045276325 1.0873244e-38 302 209
-0.024828954 0.833 0.045276325 1.0781048e-38 303 209
-0.023368426 0.833 0.045276325 1.0872169e-38 304 209
-0.0219079 0.833 0.045276325 1.0872169e-38 305 209
-0.020447372 0.833 0.045276325 1.105584e-38 306 209
-0.018986847 0.833 0.045276325 1.1148036e-38 307 209
-0.017526319 0.833 0.045276325 1.0964723e-38 308 209
-0.016104365 0.83499998 0.045385033 1.0964723e-38 309 209
-0.014640332 0.83499998 0.045385033 1.0964718e-38 310 209
-0.01314474 0.833 0.045276325 1.1056913e-38 311 209
-0.011684213 0.833 0.045276325 1.0874673e-38 312 209
-0.010223686 0.833 0.045276325 1.0874673e-38 313 209
-0.0087631596 0.833 0.045276325 1.1058707e-38 314 209
-0.007302633 0.833 0.045276325 1.1058707e-38 315 209
-0.0058421064 0.833 0.045276325 1.096724e-38 316 209
-0.0043710601 0.83099997 0.045167617 1.096724e-38 317 209
-0.0029140399 0.83099997 0.045167617 1.1242029e-38 318 209
-0.0014570199 0.83099997 0.045167617 1.1242029e-38 319 209
0 0.83099997 0.045167617 1.1425694e-38 320 209
0.0014535133 0.829 0.04505891 1.151789e-38 321 209
0.0029070266 0.829 0.04505891 1.1518243e-38 322 209
0.0043605398 0.829 0.04505891 1.1518243e-38 323 209
0.0058140531 0.829 0.04505891 1.1518246e-38 324 209
0.0072500333 0.82700002 0.044950206 1.1518246e-38 325 209
0.0087000392 0.82700002 0.044950206 1.1427491e-38 326 209
0.010150046 0.82700002 0.044950206 1.1427491e-38 327 209
0.011600053 0.82700002 0.044950206 1.1427491e-38 328 209
0.01305006 0.82700002 0.044950206 1.1427491e-38 329 209
0.014500067 0.82700002 0.044950206 1.1978865e-38 330 209
0.015950073 0.82700002 0.044950206 1.2071061e-38 331 209
0.017400078 0.82700002 0.044950206 1.197995e-38 332 209
0.018804498 0.82499999 0.044841498 1.2256178e-38 333 209
0.020251 0.82499999 0.044841498 1.2072513e-38 334 209
0.0216449 0.82300001 0.044732794 1.234874e-38 335 209
0.023087893 0.82300001 0.044732794 1.2533118e-38 336 209
0.024530886 0.82300001 0.044732794 1.2625314e-38 337 209
0.025973879 0.82300001 0.044732794 1.2901885e-38 338 209
0.027416872 0.82300001 0.044732794 1.3178112e-38 339 209
0.028859867 0.82300001 0.044732794 1.2996951e-38 340 209
0.030229218 0.82099998 0.044624086 1.3365375e-38 341 209
0.031668708 0.82099998 0.044624086 1.3917828e-38 342 209
0.03310819 0.82099998 0.044624086 1.4286252e-38 343 209
0.034547675 0.82099998 0.044624086 1.4471002e-38 344 209
0.035987165 0.82099998 0.044624086 1.4563197e-38 345 209
0.037426651 0.82099998 0.044624086 1.5114217e-38 346 209
0.038771462 0.81900001 0.044515379 1.5206413e-38 347 209
0.040207438 0.81900001 0.044515379 1.539081e-38 348 209
0.041643418 0.81900001 0.044515379 1.5575203e-38 349 209
0.043079399 0.81900001 0.044515379 1.5668117e-38 350 209
0.044515379 0.81900001 0.044515379 1.5852867e-38 351 209
0.045951359 0.81900001 0.044515379 1.5853586e-38 352 209
0.047387339 0.81900001 0.044515379 1.5945783e-38 353 209
0.048823319 0.81900001 0.044515379 1.6313842e-38 354 209
0.050136562 0.81699997 0.044406671 1.6498234e-38 355 209
0.051569037 0.81699997 0.044406671 1.6774818e-38 356 209
0.053001508 0.81699997 0.044406671 1.6867013e-38 357 209
0.054433983 0.81699997 0.044406671 1.7142877e-38 358 209
0.055866458 0.81699997 0.044406671 1.7142877e-38 359 209
0.057298932 0.81699997 0.044406671 1.7234704e-38 360 209
0.058587633 0.815 0.044297963 1.7234704e-38 361 209
0.060016599 0.815 0.044297963 1.7143209e-38 362 209
0.061596353 0.81699997 0.044406671 1.7051012e-38 363 209
0.063183114 0.81900001 0.044515379 1.7234315e-38 364 209
0.064619094 0.81900001 0.044515379 1.7049565e-38 365 209
0.066055074 0.81900001 0.044515379 1.7048483e-38 366 209
0.067491055 0.81900001 0.044515379 1.6863732e-38 367 209
0.068927035 0.81900001 0.044515379 1.6221589e-38 368 209
0.070363015 0.81900001 0.044515379 1.5944642e-38 369 209
0.071799003 0.81900001 0.044515379 1.5943205e-38 370 209
0.073234983 0.81900001 0.044515379 1.5758813e-38 371 209
0.074670963 0.81900001 0.044515379 1.4654296e-38 372 209
0.075921081 0.81699997 0.044406671 1.4285874e-38 373 209
0.077353559 0.81699997 0.044406671 1.3918239e-38 374 209
0.078978904 0.81900001 0.044515379 1.4748001e-38 375 209
-0.045711152 0.84100002 0.0442366 1.0692462e-38 289 210
-0.0440262 0.83700001 0.0440262 1.0784292e-38 290 210
-0.042558659 0.83700001 0.0440262 1.0784292e-38 291 210
-0.041091122 0.83700001 0.0440262 1.1150552e-38 292 210
-0.039528899 0.83499998 0.043920998 1.1242749e-38 293 210
-0.038064864 0.83499998 0.043920998 1.1151633e-38 294 210
-0.036600832 0.83499998 0.043920998 1.096724e-38 295 210
-0.035136797 0.83499998 0.043920998 1.0782493e-38 296 210
-0.033672765 0.83499998 0.043920998 1.0690297e-38 297 210
-0.03220873 0.83499998 0.043920998 1.0506616e-38 298 210
-0.030744698 0.83499998 0.043920998 1.0321865e-38 299 210
-0.029280664 0.83499998 0.043920998 1.0688483e-38 300 210
-0.027816633 0.83499998 0.043920998 1.0595928e-38 301 210
-0.02628948 0.833 0.043815799 1.04119e-38 302 210
-0.024828954 0.833 0.043815799 1.04119e-38 303 210
-0.023368426 0.833 0.043815799 1.0412266e-38 304 210
-0.0219079 0.833 0.043815799 1.032007e-38 305 210
-0.020447372 0.833 0.043815799 1.0411912e-38 306 210
-0.018986847 0.833 0.043815799 1.0780695e-38 307 210
-0.017568398 0.83499998 0.043920998 1.0780692e-38 308 210
-0.016104365 0.83499998 0.043920998 1.059666e-38 309 210
-0.014640332 0.83499998 0.043920998 1.0229672e-38 310 210
-0.0131763 0.83499998 0.043920998 1.0321868e-38 311 210
-0.011712266 0.83499998 0.043920998 1.0322588e-38 312 210
-0.010223686 0.833 0.043815799 1.0506979e-38 313 210
-0.0087631596 0.833 0.043815799 1.0506982e-38 314 210
-0.007302633 0.833 0.043815799 1.0506982e-38 315 210
-0.0058421064 0.833 0.043815799 1.078249e-38 316 210
-0.0043815798 0.833 0.043815799 1.078249e-38 317 210
-0.0029140399 0.83099997 0.043710597 1.1057638e-38 318 210
-0.0014570199 0.83099997 0.043710597 1.1149833e-38 319 210
0 0.83099997 0.043710597 1.1333496e-38 320 210
0.0014570199 0.83099997 0.043710597 1.1333496e-38 321 210
0.0029140399 0.83099997 0.043710597 1.1333849e-38 322 210
0.0043605398 0.829 0.043605398 1.1426045e-38 323 210
0.0058140531 0.829 0.043605398 1.1426045e-38 324 210
0.0072675664 0.829 0.043605398 1.151824e-38 325 210
0.0087210797 0.829 0.043605398 1.1518961e-38 326 210
0.010174593 0.829 0.043605398 1.1518961e-38 327 210
0.011628106 0.829 0.043605398 1.1519317e-38 328 210
0.01305006 0.82700002 0.0435002 1.1611512e-38 329 210
0.014500067 0.82700002 0.0435002 1.1703705e-38 330 210
0.015950073 0.82700002 0.0435002 1.1703705e-38 331 210
0.017400078 0.82700002 0.0435002 1.1888452e-38 332 210
0.018850086 0.82700002 0.0435002 1.1980648e-38 333 210
0.020251 0.82499999 0.043394998 1.1980651e-38 334 210
0.021697499 0.82499999 0.043394998 1.1980651e-38 335 210
0.023143999 0.82499999 0.043394998 1.216433e-38 336 210
0.024590498 0.82499999 0.043394998 1.2256526e-38 337 210
0.026036998 0.82499999 0.043394998 1.234908e-38 338 210
0.027416872 0.82300001 0.043289799 1.2441276e-38 339 210
0.028859867 0.82300001 0.043289799 1.2167203e-38 340 210
0.030229218 0.82099998 0.043184597 1.2351595e-38 341 210
0.031668708 0.82099998 0.043184597 1.3086995e-38 342 210
0.03310819 0.82099998 0.043184597 1.3547974e-38 343 210
0.034547675 0.82099998 0.043184597 1.3640522e-38 344 210
0.035987165 0.82099998 0.043184597 1.410114e-38 345 210
0.037426651 0.82099998 0.043184597 1.4560678e-38 346 210
0.038771462 0.81900001 0.043079399 1.4929459e-38 347 210
0.040207438 0.81900001 0.043079399 1.5114573e-38 348 210
0.041643418 0.81900001 0.043079399 1.539116e-38 349 210
0.043079399 0.81900001 0.043079399 1.5208214e-38 350 210
0.044515379 0.81900001 0.043079399 1.5392606e-38 351 210
0.045951359 0.81900001 0.043079399 1.5669192e-38 352 210
0.047271617 0.81699997 0.042974196 1.5669192e-38 353 210
0.048704091 0.81699997 0.042974196 1.6037251e-38 354 210
0.050136562 0.81699997 0.042974196 1.631384e-38 355 210
0.051569037 0.81699997 0.042974196 1.6589706e-38 356 210
0.053001508 0.81699997 0.042974196 1.6866295e-38 357 210
0.054433983 0.81699997 0.042974196 1.6958137e-38 358 210
0.055866458 0.81699997 0.042974196 1.6958137e-38 359 210
0.057158664 0.815 0.042869002 1.6959212e-38 360 210
0.058587633 0.815 0.042869002 1.7051407e-38 361 210
0.060016599 0.815 0.042869002 1.7052114e-38 362 210
0.06144556 0.815 0.042869002 1.6959559e-38 363 210
0.062874533 0.815 0.042869002 1.7142859e-38 364 210
0.064303495 0.815 0.042869002 1.7050662e-38 365 210
0.065732464 0.815 0.042869002 1.7051e-38 366 210
0.067161433 0.815 0.042869002 1.686625e-38 367 210
0.068758719 0.81699997 0.042974196 1.686551e-38 368 210
0.07019119 0.81699997 0.042974196 1.6588924e-38 369 210
0.071623661 0.81699997 0.042974196 1.6311631e-38 370 210
0.073234983 0.81900001 0.043079399 1.6127239e-38 371 210
0.074670963 0.81900001 0.043079399 1.5300021e-38 372 210
0.075921081 0.81699997 0.042974196 1.493124e-38 373 210
0.077353559 0.81699997 0.042974196 1.446993e-38 374 210
0.078786023 0.81699997 0.042974196 1.4193343e-38 375 210
0.080218501 0.81699997 0.042974196 1.3459798e-38 376 210
-0.039812941 0.84100002 0.042762045 1.0409414e-38 293 211
-0.038338386 0.84100002 0.042762045 9.5835993e-39 294 211
-0.036688499 0.83700001 0.042558659 9.6757949e-39 295 211
-0.035220962 0.83700001 0.042558659 9.3088103e-39 296 211
-0.033753417 0.83700001 0.042558659 9.3088103e-39 297 211
-0.032285877 0.83700001 0.042558659 9.3995584e-39 298 211
-0.030891977 0.83899999 0.042660352 9.0307759e-39 299 211
-0.029350799 0.83700001 0.042558659 9.0293311e-39 300 211
-0.027816633 0.83499998 0.042456966 8.568353e-39 301 211
-0.026352599 0.83499998 0.042456966 8.016268e-39 302 211
-0.024888566 0.83499998 0.042456966 8.2932136e-39 303 211
-0.023424532 0.83499998 0.042456966 8.2003117e-39 304 211
-0.021960499 0.83499998 0.042456966 8.2003117e-39 305 211
-0.020496465 0.83499998 0.042456966 8.2943122e-39 306 211
-0.019032432 0.83499998 0.042456966 8.8471273e-39 307 211
-0.017610481 0.83700001 0.042558659 9.3077383e-39 308 211
-0.016142938 0.83700001 0.042558659 9.3999339e-39 309 211
-0.014675399 0.83700001 0.042558659 1.0134249e-38 310 211
-0.0131763 0.83499998 0.042456966 1.0319001e-38 311 211
-0.011712266 0.83499998 0.042456966 1.0044928e-38 312 211
-0.010223686 0.833 0.042355273 1.0229319e-38 313 211
-0.0087631596 0.833 0.042355273 1.0504464e-38 314 211
-0.0073201661 0.83499998 0.042456966 1.0780692e-38 315 211
-0.0058561331 0.83499998 0.042456966 1.0872888e-38 316 211
-0.0043920996 0.83499998 0.042456966 1.0872888e-38 317 211
-0.0029210532 0.833 0.042355273 1.1240228e-38 318 211
-0.0014605266 0.833 0.042355273 1.1332424e-38 319 211
0 0.833 0.042355273 1.1333133e-38 320 211
0.0014605266 0.833 0.042355273 1.1333133e-38 321 211
0.0029140399 0.83099997 0.042253576 1.1333849e-38 322 211
0.0043710601 0.83099997 0.042253576 1.1426045e-38 323 211
0.0058140531 0.829 0.042151887 1.1426045e-38 324 211
0.0072675664 0.829 0.042151887 1.1426045e-38 325 211
