# .PCD v.7 - Point Cloud Data file format
FIELDS x y z rgb imX imY
SIZE 4 4 4 4 4 4
TYPE F F F F F F
COUNT 1 1 1 1 1 1
WIDTH 855
HEIGHT 1
VIEWPOINT 0 0 0 1 0 0 0
POINTS 855
DATA ascii
0.10065536 0.736 -0.041294504 1.8249205e-38 398 272
0.10194581 0.736 -0.041294504 1.7880424e-38 399 272
0.10295573 0.73400003 -0.041182294 1.788078e-38 400 272
0.10424268 0.73400003 -0.041182294 1.7696029e-38 401 272
0.10552963 0.73400003 -0.041182294 1.7603833e-38 402 272
0.10681657 0.73400003 -0.041182294 1.7511637e-38 403 272
0.10810352 0.73400003 -0.041182294 1.7326171e-38 404 272
0.10939047 0.73400003 -0.041182294 1.7049943e-38 405 272
0.11067741 0.73400003 -0.041182294 1.6588982e-38 406 272
0.11196436 0.73400003 -0.041182294 1.6496786e-38 407 272
0.11325131 0.73400003 -0.041182294 1.5667063e-38 408 272
0.069382899 0.76099998 -0.044031456 1.2900491e-38 372 273
0.070531338 0.759 -0.043915741 1.3453665e-38 373 273
0.071862116 0.759 -0.043915741 1.3915356e-38 374 273
0.073000036 0.75700003 -0.043800019 1.4283779e-38 375 273
0.07413093 0.755 -0.043684296 1.4285904e-38 376 273
0.075454697 0.755 -0.043684296 1.4470296e-38 377 273
0.076676771 0.75400001 -0.043626439 1.4562844e-38 378 273
0.077791892 0.75199997 -0.04351072 1.4562844e-38 379 273
0.078899994 0.75 -0.043394998 1.4838356e-38 380 273
0.080108039 0.74900001 -0.04333714 1.4838356e-38 381 273
0.081421293 0.74900001 -0.04333714 1.4746892e-38 382 273
0.082513615 0.74699998 -0.043221418 1.5023119e-38 383 273
0.08371114 0.74599999 -0.04316356 1.4932353e-38 384 273
0.084791198 0.74400002 -0.043047838 1.5301135e-38 385 273
0.085864238 0.74199998 -0.042932119 1.6221647e-38 386 273
0.087165214 0.74199998 -0.042932119 1.6867016e-38 387 273
0.088346958 0.741 -0.042874258 1.6958859e-38 388 273
0.089646183 0.741 -0.042874258 1.714325e-38 389 273
0.0905772 0.73799998 -0.042700678 1.7419831e-38 390 273
0.091871157 0.73799998 -0.042700678 1.7512386e-38 391 273
0.092912637 0.736 -0.042584959 1.7879723e-38 392 273
0.094203092 0.736 -0.042584959 1.815595e-38 393 273
0.095493548 0.736 -0.042584959 1.7973357e-38 394 273
0.096783996 0.736 -0.042584959 1.8065554e-38 395 273
0.098074451 0.736 -0.042584959 1.8157738e-38 396 273
0.09909489 0.73400003 -0.042469237 1.8065184e-38 397 273
0.10038184 0.73400003 -0.042469237 1.8341035e-38 398 273
0.10166879 0.73400003 -0.042469237 1.8156285e-38 399 273
0.10295573 0.73400003 -0.042469237 1.8340306e-38 400 273
0.10410065 0.73299998 -0.042411376 1.8063721e-38 401 273
0.10538585 0.73299998 -0.042411376 1.7971524e-38 402 273
0.10667104 0.73299998 -0.042411376 1.7879328e-38 403 273
0.10795623 0.73299998 -0.042411376 1.7786061e-38 404 273
0.10924143 0.73299998 -0.042411376 1.7509472e-38 405 273
0.11052662 0.73299998 -0.042411376 1.7415849e-38 406 273
0.11181182 0.73299998 -0.042411376 1.7047426e-38 407 273
0.113097 0.73299998 -0.042411376 1.649499e-38 408 273
0.11360197 0.72799999 -0.042122077 1.6034013e-38 409 273
0.073000036 0.75700003 -0.045127295 1.3824223e-38 375 274
0.07413093 0.755 -0.045008067 1.4559974e-38 376 274
0.075454697 0.755 -0.045008067 1.4744724e-38 377 274
0.076473378 0.75199997 -0.044829223 1.4562481e-38 378 274
0.077584997 0.75 -0.044709999 1.4746513e-38 379 274
0.078899994 0.75 -0.044709999 1.4838356e-38 380 274
0.080108039 0.74900001 -0.044650383 1.4838356e-38 381 274
0.081203878 0.74699998 -0.044531155 1.511387e-38 382 274
0.082403161 0.74599999 -0.044471547 1.5206066e-38 383 274
0.083486721 0.74400002 -0.044352323 1.5022751e-38 384 274
0.084563263 0.74199998 -0.044233091 1.5483729e-38 385 274
0.085864238 0.74199998 -0.044233091 1.6036898e-38 386 274
0.087047733 0.741 -0.044173479 1.6406041e-38 387 274
0.088346958 0.741 -0.044173479 1.6958493e-38 388 274
0.089404218 0.73900002 -0.044054255 1.7142524e-38 389 274
0.0905772 0.73799998 -0.043994635 1.7602776e-38 390 274
0.091622181 0.736 -0.043875411 1.7695332e-38 391 274
0.092912637 0.736 -0.043875411 1.7880077e-38 392 274
0.094203092 0.736 -0.043875411 1.7880077e-38 393 274
0.095493548 0.736 -0.043875411 1.7972991e-38 394 274
0.096521005 0.73400003 -0.043756187 1.7972991e-38 395 274
0.097807944 0.73400003 -0.043756187 1.8248502e-38 396 274
0.09909489 0.73400003 -0.043756187 1.8340699e-38 397 274
0.10038184 0.73400003 -0.043756187 1.8432176e-38 398 274
0.10153027 0.73299998 -0.043696571 1.8339979e-38 399 274
0.10281546 0.73299998 -0.043696571 1.8065187e-38 400 274
0.10410065 0.73299998 -0.043696571 1.7880795e-38 401 274
0.10538585 0.73299998 -0.043696571 1.788043e-38 402 274
0.10637999 0.73100001 -0.043577347 1.7695678e-38 403 274
0.1075144 0.73000002 -0.043517731 1.7602764e-38 404 274
0.10879433 0.73000002 -0.043517731 1.7418373e-38 405 274
0.11007427 0.73000002 -0.043517731 1.7232908e-38 406 274
0.11104912 0.72799999 -0.043398503 1.7140354e-38 407 274
0.11232553 0.72799999 -0.043398503 1.6496789e-38 408 274
0.11360197 0.72799999 -0.043398503 1.6312038e-38 409 274
0.07413093 0.755 -0.04633183 1.4101523e-38 376 275
0.075154878 0.75199997 -0.04614773 1.4469945e-38 377 275
0.076473378 0.75199997 -0.04614773 1.4286981e-38 378 275
0.077584997 0.75 -0.046024997 1.4563567e-38 379 275
0.0787948 0.74900001 -0.045963634 1.4655041e-38 380 275
0.080108039 0.74900001 -0.045963634 1.4655041e-38 381 275
0.081203878 0.74699998 -0.045840897 1.4747243e-38 382 275
0.082403161 0.74599999 -0.045779534 1.4839438e-38 383 275
0.083486721 0.74400002 -0.0456568 1.5114593e-38 384 275
0.084563263 0.74199998 -0.045534063 1.539118e-38 385 275
0.085864238 0.74199998 -0.045534063 1.5759237e-38 386 275
0.087047733 0.741 -0.045472696 1.6036182e-38 387 275
0.088346958 0.741 -0.045472696 1.6681899e-38 388 275
0.089404218 0.73900002 -0.045349967 1.6866292e-38 389 275
0.090331733 0.736 -0.045165867 1.723507e-38 390 275
0.091622181 0.736 -0.045165867 1.741982e-38 391 275
0.092912637 0.736 -0.045165867 1.7787525e-38 392 275
0.093947105 0.73400003 -0.045043133 1.7879721e-38 393 275
0.095234051 0.73400003 -0.045043133 1.7697127e-38 394 275
0.096521005 0.73400003 -0.045043133 1.7789323e-38 395 275
0.097807944 0.73400003 -0.045043133 1.8065189e-38 396 275
0.098959878 0.73299998 -0.044981763 1.8157387e-38 397 275
0.10024507 0.73299998 -0.044981763 1.8340699e-38 398 275
0.10125324 0.73100001 -0.044859033 1.8340699e-38 399 275
0.10253493 0.73100001 -0.044859033 1.8248855e-38 400 275
0.1036746 0.73000002 -0.044797666 1.8156301e-38 401 275
0.10495453 0.73000002 -0.044797666 1.8063739e-38 402 275
0.10623446 0.73000002 -0.044797666 1.7971544e-38 403 275
0.1075144 0.73000002 -0.044797666 1.7786429e-38 404 275
0.10849626 0.72799999 -0.044674929 1.7694234e-38 405 275
0.10977269 0.72799999 -0.044674929 1.7509122e-38 406 275
0.11104912 0.72799999 -0.044674929 1.7416568e-38 407 275
0.11232553 0.72799999 -0.044674929 1.6773003e-38 408 275
0.1147206 0.727 -0.044613566 1.5482659e-38 410 275
0.075154878 0.75199997 -0.047466237 1.4194453e-38 377 276
0.076473378 0.75199997 -0.047466237 1.437883e-38 378 276
0.077584997 0.75 -0.047339998 1.437883e-38 379 276
0.0787948 0.74900001 -0.047276881 1.4563565e-38 380 276
0.080108039 0.74900001 -0.047276881 1.465576e-38 381 276
0.081203878 0.74699998 -0.047150634 1.4747596e-38 382 276
0.082513615 0.74699998 -0.047150634 1.4839791e-38 383 276
0.083486721 0.74400002 -0.046961278 1.5115302e-38 384 276
0.084563263 0.74199998 -0.046835039 1.5207498e-38 385 276
0.085748516 0.741 -0.046771921 1.5666318e-38 386 276
0.087047733 0.741 -0.046771921 1.5851069e-38 387 276
0.08810851 0.73900002 -0.046645679 1.6221644e-38 388 276
0.089404218 0.73900002 -0.046645679 1.6682621e-38 389 276
0.090331733 0.736 -0.046456318 1.7142874e-38 390 276
0.091622181 0.736 -0.046456318 1.7327266e-38 391 276
0.092660166 0.73400003 -0.046330083 1.7603132e-38 392 276
0.093947105 0.73400003 -0.046330083 1.7787525e-38 393 276
0.095104299 0.73299998 -0.046266954 1.7604929e-38 394 276
0.096389495 0.73299998 -0.046266954 1.7697483e-38 395 276
0.09767469 0.73299998 -0.046266954 1.7972991e-38 396 276
0.098554872 0.73000002 -0.046077598 1.8065187e-38 397 276
0.0998348 0.73000002 -0.046077598 1.8340702e-38 398 276
0.10111474 0.73000002 -0.046077598 1.8432897e-38 399 276
0.10239466 0.73000002 -0.046077598 1.8157387e-38 400 276
0.10339055 0.72799999 -0.045951359 1.8065189e-38 401 276
0.10466698 0.72799999 -0.045951359 1.8155582e-38 402 276
0.10594341 0.72799999 -0.045951359 1.8063386e-38 403 276
0.10721984 0.72799999 -0.045951359 1.7878628e-38 404 276
0.10849626 0.72799999 -0.045951359 1.7786432e-38 405 276
0.1096219 0.727 -0.045888241 1.7418367e-38 406 276
0.11089658 0.727 -0.045888241 1.7233974e-38 407 276
0.11217125 0.727 -0.045888241 1.6865199e-38 408 276
0.11344593 0.727 -0.045888241 1.6588253e-38 409 276
0.1147206 0.727 -0.045888241 1.5943618e-38 410 276
0.11535706 0.72299999 -0.04563576 1.5758868e-38 411 276
0.11662471 0.72299999 -0.04563576 1.5027477e-38 412 276
0.076473378 0.75199997 -0.048784744 1.428665e-38 378 277
0.077481553 0.74900001 -0.048590127 1.4194453e-38 379 277
0.0787948 0.74900001 -0.048590127 1.4287704e-38 380 277
0.080108039 0.74900001 -0.048590127 1.4472095e-38 381 277
0.081095167 0.74599999 -0.048395503 1.4747596e-38 382 277
0.082403161 0.74599999 -0.048395503 1.4747596e-38 383 277
0.083262287 0.74199998 -0.048136011 1.4839791e-38 384 277
0.084563263 0.74199998 -0.048136011 1.5023823e-38 385 277
0.085748516 0.741 -0.048071139 1.5207498e-38 386 277
0.087047733 0.741 -0.048071139 1.5391529e-38 387 277
0.08810851 0.73900002 -0.047941394 1.576139e-38 388 277
0.089283235 0.73799998 -0.047876518 1.6314205e-38 389 277
0.090331733 0.736 -0.047746774 1.67759e-38 390 277
0.091373213 0.73400003 -0.047617026 1.6959931e-38 391 277
0.092660166 0.73400003 -0.047617026 1.7510937e-38 392 277
0.093819112 0.73299998 -0.04755215 1.7695329e-38 393 277
0.094844811 0.73100001 -0.047422405 1.7512736e-38 394 277
0.096126497 0.73100001 -0.047422405 1.7604932e-38 395 277
0.097274937 0.73000002 -0.047357533 1.7880442e-38 396 277
0.098554872 0.73000002 -0.047357533 1.8064834e-38 397 277
0.0998348 0.73000002 -0.047357533 1.8248146e-38 398 277
0.10111474 0.73000002 -0.047357533 1.8340702e-38 399 277
0.10211413 0.72799999 -0.047227785 1.843325e-38 400 277
0.10339055 0.72799999 -0.047227785 1.8248499e-38 401 277
0.1045232 0.727 -0.047162913 1.8248136e-38 402 277
0.10579788 0.727 -0.047162913 1.8063386e-38 403 277
0.10707255 0.727 -0.047162913 1.7970823e-38 404 277
0.10804917 0.72500002 -0.047033165 1.7878628e-38 405 277
0.10932034 0.72500002 -0.047033165 1.741837e-38 406 277
0.1105915 0.72500002 -0.047033165 1.7326174e-38 407 277
0.11186267 0.72500002 -0.047033165 1.6957392e-38 408 277
0.11313383 0.72500002 -0.047033165 1.6773e-38 409 277
0.11408939 0.72299999 -0.046903417 1.6220195e-38 410 277
0.11535706 0.72299999 -0.046903417 1.5851773e-38 411 277
0.07727465 0.74699998 -0.049770117 1.3459075e-38 379 278
0.078584395 0.74699998 -0.049770117 1.4378124e-38 380 278
0.079894133 0.74699998 -0.049770117 1.4378124e-38 381 278
0.081095167 0.74599999 -0.04970349 1.4563211e-38 382 278
0.082182243 0.74400002 -0.04957024 1.4563211e-38 383 278
0.083262287 0.74199998 -0.049436983 1.474724e-38 384 278
0.084563263 0.74199998 -0.049436983 1.4839435e-38 385 278
0.085748516 0.741 -0.049370356 1.5022751e-38 386 278
0.087047733 0.741 -0.049370356 1.5207142e-38 387 278
0.08810851 0.73900002 -0.049237106 1.5299707e-38 388 278
0.089283235 0.73799998 -0.049170475 1.5852881e-38 389 278
0.090086266 0.73400003 -0.048903972 1.6774112e-38 390 278
0.091373213 0.73400003 -0.048903972 1.6958862e-38 391 278
0.092533909 0.73299998 -0.048837345 1.6959931e-38 392 278
0.093563125 0.73100001 -0.048704091 1.7144322e-38 393 278
0.094715066 0.73000002 -0.048637468 1.7420187e-38 394 278
0.095994994 0.73000002 -0.048637468 1.7512383e-38 395 278
0.097274937 0.73000002 -0.048637468 1.7880445e-38 396 278
0.098554872 0.73000002 -0.048637468 1.7972641e-38 397 278
0.099561274 0.72799999 -0.048504211 1.8064834e-38 398 278
0.1008377 0.72799999 -0.048504211 1.8157031e-38 399 278
0.10211413 0.72799999 -0.048504211 1.8157384e-38 400 278
0.1029645 0.72500002 -0.048304334 1.8065187e-38 401 278
0.10423566 0.72500002 -0.048304334 1.8431445e-38 402 278
0.10550684 0.72500002 -0.048304334 1.833925e-38 403 278
0.106778 0.72500002 -0.048304334 1.8246688e-38 404 278
0.10775109 0.72299999 -0.048171077 1.8061937e-38 405 278
0.10901875 0.72299999 -0.048171077 1.7785708e-38 406 278
0.11028641 0.72299999 -0.048171077 1.7601316e-38 407 278
0.11155408 0.72299999 -0.048171077 1.7141413e-38 408 278
0.11282174 0.72299999 -0.048171077 1.6864827e-38 409 278
0.11408939 0.72299999 -0.048171077 1.6313097e-38 410 278
0.11535706 0.72299999 -0.048171077 1.6313097e-38 411 278
0.11694734 0.72500002 -0.048304334 1.5114245e-38 412 278
0.1182185 0.72500002 -0.048304334 1.5575224e-38 413 278
0.11981928 0.727 -0.048437584 1.5767958e-38 414 278
0.076757424 0.74199998 -0.050737958 1.1254299e-38 379 279
0.078058399 0.74199998 -0.050737958 1.4193748e-38 380 279
0.079787187 0.74599999 -0.051011477 1.4470694e-38 381 279
0.080877759 0.74400002 -0.050874721 1.4562498e-38 382 279
0.081961311 0.74199998 -0.050737958 1.4654694e-38 383 279
0.083262287 0.74199998 -0.050737958 1.4930908e-38 384 279
0.084449299 0.741 -0.050669577 1.4930908e-38 385 279
0.085748516 0.741 -0.050669577 1.4930555e-38 386 279
0.086812794 0.73900002 -0.050532822 1.5022751e-38 387 279
0.087989271 0.73799998 -0.050464436 1.50224e-38 388 279
0.089041278 0.736 -0.050327681 1.5575574e-38 389 279
0.090086266 0.73400003 -0.050190922 1.5853953e-38 390 279
0.091248721 0.73299998 -0.050122537 1.6223094e-38 391 279
0.092281438 0.73100001 -0.049985781 1.6774818e-38 392 279
0.093435131 0.73000002 -0.0499174 1.7051405e-38 393 279
0.094715066 0.73000002 -0.0499174 1.7603132e-38 394 279
0.095731996 0.72799999 -0.049780637 1.7695329e-38 395 279
0.097008422 0.72799999 -0.049780637 1.7879721e-38 396 279
0.098284848 0.72799999 -0.049780637 1.7972275e-38 397 279
0.099151 0.72500002 -0.0495755 1.824778e-38 398 279
0.10014514 0.72299999 -0.049438741 1.8432531e-38 399 279
0.1014128 0.72299999 -0.049438741 1.834105e-38 400 279
0.10268046 0.72299999 -0.049438741 1.834105e-38 401 279
0.10394812 0.72299999 -0.049438741 1.8248855e-38 402 279
0.10521577 0.72299999 -0.049438741 1.8156301e-38 403 279
0.10648344 0.72299999 -0.049438741 1.8155584e-38 404 279
0.10760206 0.722 -0.04937036 1.7971193e-38 405 279
0.10886797 0.722 -0.04937036 1.7786079e-38 406 279
0.11028641 0.72299999 -0.049438741 1.7509852e-38 407 279
0.11155408 0.72299999 -0.049438741 1.7049946e-38 408 279
0.11282174 0.72299999 -0.049438741 1.6865196e-38 409 279
0.11408939 0.72299999 -0.049438741 1.6497139e-38 410 279
0.11535706 0.72299999 -0.049438741 1.6404944e-38 411 279
0.11694734 0.72500002 -0.0495755 1.5391906e-38 412 279
0.1182185 0.72500002 -0.0495755 1.5391906e-38 413 279
0.11981928 0.727 -0.049712259 1.4845629e-38 414 279
0.12109397 0.727 -0.049712259 1.6136368e-38 415 279
0.078058399 0.74199998 -0.05203893 1.2078293e-38 380 280
0.079787187 0.74599999 -0.052319467 1.3092444e-38 381 280
0.080660343 0.74199998 -0.05203893 1.4378845e-38 382 280
0.081961311 0.74199998 -0.05203893 1.4378845e-38 383 280
0.083150074 0.741 -0.051968798 1.4471745e-38 384 280
0.084449299 0.741 -0.051968798 1.4379549e-38 385 280
0.085748516 0.741 -0.051968798 1.4563214e-38 386 280
0.086695313 0.73799998 -0.051758397 1.465541e-38 387 280
0.087989271 0.73799998 -0.051758397 1.5023119e-38 388 280
0.08879932 0.73400003 -0.051477864 1.5207512e-38 389 280
0.089963526 0.73299998 -0.051407732 1.5485171e-38 390 280
0.090999752 0.73100001 -0.051267464 1.5853953e-38 391 280
0.092155196 0.73000002 -0.051197331 1.6589353e-38 392 280
0.093435131 0.73000002 -0.051197331 1.6958137e-38 393 280
0.09445557 0.72799999 -0.051057063 1.6776618e-38 394 280
0.095731996 0.72799999 -0.051057063 1.7053207e-38 395 280
0.096608669 0.72500002 -0.050846666 1.7512736e-38 396 280
0.097879834 0.72500002 -0.050846666 1.7697127e-38 397 280
0.098877482 0.72299999 -0.050706398 1.8156306e-38 398 280
0.10000663 0.722 -0.050636265 1.8248502e-38 399 280
0.10127253 0.722 -0.050636265 1.8340696e-38 400 280
0.10253844 0.722 -0.050636265 1.8340696e-38 401 280
0.10380434 0.722 -0.050636265 1.8432524e-38 402 280
0.10521577 0.72299999 -0.050706398 1.8340329e-38 403 280
0.10648344 0.72299999 -0.050706398 1.8431083e-38 404 280
0.10760206 0.722 -0.050636265 1.8246333e-38 405 280
0.10886797 0.722 -0.050636265 1.7695313e-38 406 280
0.11013387 0.722 -0.050636265 1.7418367e-38 407 280
0.11139978 0.722 -0.050636265 1.7415852e-38 408 280
0.11282174 0.72299999 -0.050706398 1.7323656e-38 409 280
0.1139316 0.722 -0.050636265 1.6773003e-38 410 280
0.11519751 0.722 -0.050636265 1.6588253e-38 411 280
0.11662471 0.72299999 -0.050706398 1.6128731e-38 412 280
0.11789237 0.72299999 -0.050706398 1.5851785e-38 413 280
0.11948966 0.72500002 -0.050846666 1.4473953e-38 414 280
0.12076083 0.72500002 -0.050846666 1.5856887e-38 415 280
0.12203201 0.72500002 -0.050846666 1.6412271e-38 416 280
0.079787187 0.74599999 -0.053627454 1.0885509e-38 381 281
0.080660343 0.74199998 -0.053339902 1.3733842e-38 382 281
0.081850857 0.741 -0.053268019 1.4102984e-38 383 281
0.083150074 0.741 -0.053268019 1.4287353e-38 384 281
0.084221363 0.73900002 -0.053124249 1.4379549e-38 385 281
0.085517079 0.73900002 -0.053124249 1.4655047e-38 386 281
0.086460374 0.736 -0.052908584 1.4655047e-38 387 281
0.087750822 0.736 -0.052908584 1.5206063e-38 388 281
0.08879932 0.73400003 -0.052764814 1.5390813e-38 389 281
0.089963526 0.73299998 -0.052692924 1.530113e-38 390 281
0.090999752 0.73100001 -0.052549154 1.548588e-38 391 281
0.092155196 0.73000002 -0.052477267 1.6129446e-38 392 281
0.093435131 0.73000002 -0.052477267 1.6774815e-38 393 281
0.09445557 0.72799999 -0.052333489 1.6959562e-38 394 281
0.095600501 0.727 -0.052261602 1.7143953e-38 395 281
0.096608669 0.72500002 -0.052117832 1.7695678e-38 396 281
0.097609811 0.72299999 -0.051974058 1.788043e-38 397 281
0.098877482 0.72299999 -0.051974058 1.8155582e-38 398 281
0.10000663 0.722 -0.051902171 1.8432527e-38 399 281
0.10127253 0.722 -0.051902171 1.8432176e-38 400 281
0.10225441 0.72000003 -0.051758397 1.8616207e-38 401 281
0.10351679 0.72000003 -0.051758397 1.8616209e-38 402 281
0.10507025 0.722 -0.051902171 1.8432178e-38 403 281
0.10633615 0.722 -0.051902171 1.8247427e-38 404 281
0.107304 0.72000003 -0.051758397 1.8155231e-38 405 281
0.1085664 0.72000003 -0.051758397 1.7877921e-38 406 281
0.1098288 0.72000003 -0.051758397 1.769353e-38 407 281
0.11139978 0.722 -0.051902171 1.7415864e-38 408 281
0.1126657 0.722 -0.051902171 1.7231833e-38 409 281
0.113616 0.72000003 -0.051758397 1.6589335e-38 410 281
0.1148784 0.72000003 -0.051758397 1.6497139e-38 411 281
0.11646342 0.722 -0.051902171 1.6037249e-38 412 281
0.11789237 0.72299999 -0.051974058 1.5761022e-38 413 281
0.11916003 0.72299999 -0.051974058 1.4563255e-38 414 281
0.12026113 0.722 -0.051902171 1.5853994e-38 415 281
0.12152703 0.722 -0.051902171 1.6410819e-38 416 281
0.081850857 0.741 -0.054567236 1.2816927e-38 383 282
0.082925655 0.73900002 -0.054419957 1.4287003e-38 384 282
0.084221363 0.73900002 -0.054419957 1.4287003e-38 385 282
0.085401356 0.73799998 -0.054346316 1.4378827e-38 386 282
0.086460374 0.736 -0.05419904 1.4378827e-38 387 282
0.087750822 0.736 -0.05419904 1.4746887e-38 388 282
0.08879932 0.73400003 -0.054051761 1.4839082e-38 389 282
0.089963526 0.73299998 -0.053978115 1.5024902e-38 390 282
0.090999752 0.73100001 -0.053830836 1.530113e-38 391 282
0.092155196 0.73000002 -0.053757198 1.6036886e-38 392 282
0.093179137 0.72799999 -0.053609919 1.6682255e-38 393 282
0.09445557 0.72799999 -0.053609919 1.6592222e-38 394 282
0.095337495 0.72500002 -0.053388998 1.6869167e-38 395 282
0.096342154 0.72299999 -0.053241719 1.7512017e-38 396 282
0.097609811 0.72299999 -0.053241719 1.7788244e-38 397 282
0.098740719 0.722 -0.053168077 1.7972272e-38 398 282
0.099729598 0.72000003 -0.053020801 1.8248499e-38 399 282
0.100992 0.72000003 -0.053020801 1.8432178e-38 400 282
0.10211238 0.71899998 -0.05294716 1.8432178e-38 401 282
0.10337302 0.71899998 -0.05294716 1.8431822e-38 402 282
0.1047792 0.72000003 -0.053020801 1.8431822e-38 403 282
0.1060416 0.72000003 -0.053020801 1.8431095e-38 404 282
0.10715496 0.71899998 -0.05294716 1.83389e-38 405 282
0.10841561 0.71899998 -0.05294716 1.8153787e-38 406 282
0.10967625 0.71899998 -0.05294716 1.7785004e-38 407 282
0.1109369 0.71899998 -0.05294716 1.741622e-38 408 282
0.1123536 0.72000003 -0.053020801 1.7139635e-38 409 282
0.11345819 0.71899998 -0.05294716 1.6773003e-38 410 282
0.11471885 0.71899998 -0.05294716 1.6588253e-38 411 282
0.11614081 0.72000003 -0.053020801 1.6220548e-38 412 282
0.11740319 0.72000003 -0.053020801 1.5944321e-38 413 282
0.11899523 0.722 -0.053168077 1.4746905e-38 414 282
0.12026113 0.722 -0.053168077 1.5576666e-38 415 282
0.12152703 0.722 -0.053168077 1.5673961e-38 416 282
0.081850857 0.741 -0.055866458 1.1803867e-38 383 283
0.082925655 0.73900002 -0.055715673 1.3918223e-38 384 283
0.084107392 0.73799998 -0.055640277 1.419445e-38 385 283
0.085169919 0.736 -0.055489492 1.4562493e-38 386 283
0.086460374 0.736 -0.055489492 1.4562493e-38 387 283
0.087750822 0.736 -0.055489492 1.4838356e-38 388 283
0.08879932 0.73400003 -0.055338707 1.4930552e-38 389 283
0.089718066 0.73100001 -0.055112526 1.5115302e-38 390 283
0.090999752 0.73100001 -0.055112526 1.5483726e-38 391 283
0.092155196 0.73000002 -0.055037133 1.5669545e-38 392 283
0.093179137 0.72799999 -0.054886345 1.6130525e-38 393 283
0.094325826 0.727 -0.054810952 1.704996e-38 394 283
0.095074497 0.72299999 -0.054509375 1.7326906e-38 395 283
0.096342154 0.72299999 -0.054509375 1.7419464e-38 396 283
0.097474813 0.722 -0.054433983 1.7788247e-38 397 283
0.098467201 0.72000003 -0.054283202 1.8155231e-38 398 283
0.099591084 0.71899998 -0.054207806 1.8339981e-38 399 283
0.1005712 0.71700001 -0.054057021 1.8339628e-38 400 283
0.10182834 0.71700001 -0.054057021 1.8431825e-38 401 283
0.10308547 0.71700001 -0.054057021 1.8339628e-38 402 283
0.10434262 0.71700001 -0.054057021 1.8339628e-38 403 283
0.10559976 0.71700001 -0.054057021 1.8338546e-38 404 283
0.1068569 0.71700001 -0.054057021 1.806232e-38 405 283
0.10811404 0.71700001 -0.054057021 1.7877921e-38 406 283
0.10937118 0.71700001 -0.054057021 1.7509499e-38 407 283
0.11062831 0.71700001 -0.054057021 1.7416573e-38 408 283
0.11188546 0.71700001 -0.054057021 1.7232183e-38 409 283
0.11345819 0.71899998 -0.054207806 1.6773356e-38 410 283
0.11471885 0.71899998 -0.054207806 1.6588605e-38 411 283
0.11597948 0.71899998 -0.054207806 1.6220896e-38 412 283
0.11724013 0.71899998 -0.054207806 1.5852473e-38 413 283
0.1186656 0.72000003 -0.054283202 1.5115665e-38 414 283
0.119928 0.72000003 -0.054283202 1.5484808e-38 415 283
0.12102208 0.71899998 -0.054207806 1.5211535e-38 416 283
0.12228271 0.71899998 -0.054207806 1.6502274e-38 417 283
0.082925655 0.73900002 -0.057011388 1.2630371e-38 384 284
0.084107392 0.73799998 -0.056934237 1.3552329e-38 385 284
0.085169919 0.736 -0.056779943 1.4745808e-38 386 284
0.086460374 0.736 -0.056779943 1.4838003e-38 387 284
0.087512374 0.73400003 -0.056625653 1.4655044e-38 388 284
0.088678338 0.73299998 -0.056548502 1.474724e-38 389 284
0.089718066 0.73100001 -0.056394216 1.5298612e-38 390 284
0.090875268 0.73000002 -0.056317069 1.5483362e-38 391 284
0.091902718 0.72799999 -0.056162767 1.5851064e-38 392 284
0.09305115 0.727 -0.056085624 1.695741e-38 393 284
0.094066329 0.72500002 -0.055931333 1.7049607e-38 394 284
0.095074497 0.72299999 -0.055777039 1.7326552e-38 395 284
0.096208908 0.722 -0.055699892 1.7510586e-38 396 284
0.097204804 0.72000003 -0.055545598 1.7787175e-38 397 284
0.098330431 0.71899998 -0.055468451 1.7971566e-38 398 284
0.099314056 0.71700001 -0.055314157 1.8155597e-38 399 284
0.1005712 0.71700001 -0.055314157 1.8247077e-38 400 284
0.10168632 0.71600002 -0.055237014 1.8339272e-38 401 284
0.10294171 0.71600002 -0.055237014 1.8247079e-38 402 284
0.10419709 0.71600002 -0.055237014 1.8154884e-38 403 284
0.10545248 0.71600002 -0.055237014 1.8245279e-38 404 284
0.10670786 0.71600002 -0.055237014 1.8153083e-38 405 284
0.10796325 0.71600002 -0.055237014 1.7877921e-38 406 284
0.10937118 0.71700001 -0.055314157 1.769353e-38 407 284
0.11062831 0.71700001 -0.055314157 1.7326177e-38 408 284
0.11188546 0.71700001 -0.055314157 1.704959e-38 409 284
0.11314259 0.71700001 -0.055314157 1.6865196e-38 410 284
0.11439974 0.71700001 -0.055314157 1.6680805e-38 411 284
0.11565688 0.71700001 -0.055314157 1.6313094e-38 412 284
0.11691402 0.71700001 -0.055314157 1.6036867e-38 413 284
0.11850078 0.71899998 -0.055468451 1.5392606e-38 414 284
0.11976143 0.71899998 -0.055468451 1.5300411e-38 415 284
0.12102208 0.71899998 -0.055468451 1.4750187e-38 416 284
0.12228271 0.71899998 -0.055468451 1.6409708e-38 417 284
0.084107392 0.73799998 -0.058228195 1.2999892e-38 385 285
0.085169919 0.736 -0.058070395 1.4010772e-38 386 285
0.086225428 0.73400003 -0.057912603 1.4287e-38 387 285
0.087512374 0.73400003 -0.057912603 1.4563214e-38 388 285
0.088678338 0.73299998 -0.057833698 1.465541e-38 389 285
0.089595333 0.73000002 -0.057597004 1.5114949e-38 390 285
0.090875268 0.73000002 -0.057597004 1.5207145e-38 391 285
0.091902718 0.72799999 -0.057439197 1.5757799e-38 392 285
0.092795171 0.72500002 -0.057202499 1.6956341e-38 393 285
0.093806833 0.72299999 -0.057044696 1.7049256e-38 394 285
0.094680004 0.72000003 -0.056808002 1.7233648e-38 395 285
0.095809139 0.71899998 -0.056729097 1.7326565e-38 396 285
0.096799776 0.71700001 -0.056571297 1.7603512e-38 397 285
0.09805692 0.71700001 -0.056571297 1.778754e-38 398 285
0.09917555 0.71600002 -0.056492399 1.7879736e-38 399 285
0.10015039 0.71399999 -0.0563346 1.8155603e-38 400 285
0.10140228 0.71399999 -0.0563346 1.8155603e-38 401 285
0.10265416 0.71399999 -0.0563346 1.8154165e-38 402 285
0.10419709 0.71600002 -0.056492399 1.7877218e-38 403 285
0.10545248 0.71600002 -0.056492399 1.7417316e-38 404 285
0.10670786 0.71600002 -0.056492399 1.7417316e-38 405 285
0.10796325 0.71600002 -0.056492399 1.7602058e-38 406 285
0.10921864 0.71600002 -0.056492399 1.7509862e-38 407 285
0.11047403 0.71600002 -0.056492399 1.7326177e-38 408 285
0.11172941 0.71600002 -0.056492399 1.704959e-38 409 285
0.1129848 0.71600002 -0.056492399 1.6865552e-38 410 285
0.11424018 0.71600002 -0.056492399 1.6680802e-38 411 285
0.11549557 0.71600002 -0.056492399 1.6313097e-38 412 285
0.11675096 0.71600002 -0.056492399 1.603687e-38 413 285
0.11817116 0.71700001 -0.056571297 1.5576272e-38 414 285
0.11942829 0.71700001 -0.056571297 1.5115652e-38 415 285
0.12102208 0.71899998 -0.056729097 1.4840212e-38 416 285
0.12228271 0.71899998 -0.056729097 1.6407898e-38 417 285
0.084107392 0.73799998 -0.059522156 1.2078296e-38 385 286
0.084938474 0.73400003 -0.059199546 1.3827825e-38 386 286
0.086225428 0.73400003 -0.059199546 1.3827825e-38 387 286
0.087512374 0.73400003 -0.059199546 1.4654691e-38 388 286
0.088678338 0.73299998 -0.059118889 1.4746887e-38 389 286
0.089595333 0.73000002 -0.058876935 1.5298612e-38 390 286
0.090626292 0.72799999 -0.058715623 1.5206416e-38 391 286
0.091776483 0.727 -0.058634974 1.5390444e-38 392 286
0.092795171 0.72500002 -0.058473669 1.6681183e-38 393 286
0.093677096 0.722 -0.058231708 1.704961e-38 394 286
0.094680004 0.72000003 -0.058070403 1.7141805e-38 395 286
0.095542639 0.71700001 -0.057828441 1.7326197e-38 396 286
0.096664771 0.71600002 -0.057747785 1.7602782e-38 397 286
0.097646631 0.71399999 -0.057586476 1.7787172e-38 398 286
0.098760001 0.713 -0.057505824 1.7879726e-38 399 286
0.10001013 0.713 -0.057505824 1.8154884e-38 400 286
0.10126025 0.713 -0.057505824 1.8062688e-38 401 286
0.10251039 0.713 -0.057505824 1.7233648e-38 402 286
0.10376051 0.713 -0.057505824 1.631169e-38 403 286
0.10515791 0.71399999 -0.057586476 1.5758153e-38 404 286
0.1064098 0.71399999 -0.057586476 1.6403523e-38 405 286
0.10766167 0.71399999 -0.057586476 1.6956338e-38 406 286
0.10876101 0.713 -0.057505824 1.732512e-38 407 286
0.11001115 0.713 -0.057505824 1.7325471e-38 408 286
0.11141731 0.71399999 -0.057586476 1.7233275e-38 409 286
0.1126692 0.71399999 -0.057586476 1.6865562e-38 410 286
0.11392108 0.71399999 -0.057586476 1.6589335e-38 411 286
0.11517295 0.71399999 -0.057586476 1.6222347e-38 412 286
0.11675096 0.71600002 -0.057747785 1.5761369e-38 413 286
0.11800634 0.71600002 -0.057747785 1.5669545e-38 414 286
0.11942829 0.71700001 -0.057828441 1.5300764e-38 415 286
0.12068544 0.71700001 -0.057828441 1.4655452e-38 416 286
0.12228271 0.71899998 -0.057989739 1.6038386e-38 417 286
0.12371521 0.72000003 -0.058070403 1.6501942e-38 418 286
0.084938474 0.73400003 -0.060486492 1.3089201e-38 386 287
0.086225428 0.73400003 -0.060486492 1.373457e-38 387 287
0.087512374 0.73400003 -0.060486492 1.4103332e-38 388 287
0.088436373 0.73100001 -0.06023927 1.4379917e-38 389 287
0.089595333 0.73000002 -0.060156867 1.4839807e-38 390 287
0.090626292 0.72799999 -0.059992049 1.4932002e-38 391 287
0.091776483 0.727 -0.059909642 1.5025269e-38 392 287
0.092539176 0.72299999 -0.059580017 1.5855029e-38 393 287
0.0934176 0.72000003 -0.059332799 1.6957413e-38 394 287
0.093890995 0.71399999 -0.058838356 1.7141805e-38 395 287
0.095142879 0.71399999 -0.058838356 1.6959575e-38 396 287
0.09625975 0.713 -0.058755953 1.7236522e-38 397 287
0.097236358 0.71100003 -0.058591139 1.751203e-38 398 287
0.098482981 0.71100003 -0.058591139 1.7604225e-38 399 287
0.099729598 0.71100003 -0.058591139 1.8247082e-38 400 287
0.10097622 0.71100003 -0.058591139 1.7786105e-38 401 287
0.10222284 0.71100003 -0.058591139 1.6586486e-38 402 287
0.10346945 0.71100003 -0.058591139 1.5572334e-38 403 287
0.10471608 0.71100003 -0.058591139 1.456034e-38 404 287
0.1059627 0.71100003 -0.058591139 1.5298264e-38 405 287
0.10720932 0.71100003 -0.058591139 1.6035826e-38 406 287
0.10845594 0.71100003 -0.058591139 1.6681196e-38 407 287
0.10970256 0.71100003 -0.058591139 1.7232919e-38 408 287
0.11094918 0.71100003 -0.058591139 1.7048887e-38 409 287
0.1125114 0.713 -0.058755953 1.6681884e-38 410 287
0.11376153 0.713 -0.058755953 1.6589688e-38 411 287
0.11501165 0.713 -0.058755953 1.622198e-38 412 287
0.11642484 0.71399999 -0.058838356 1.603723e-38 413 287
0.11800634 0.71600002 -0.059003171 1.5669176e-38 414 287
0.11926173 0.71600002 -0.059003171 1.5484427e-38 415 287
0.12051712 0.71600002 -0.059003171 1.4563242e-38 416 287
0.12194258 0.71700001 -0.059085581 1.5761427e-38 417 287
0.12371521 0.72000003 -0.059332799 1.6226062e-38 418 287
0.086225428 0.73400003 -0.061773442 1.3182123e-38 387 288
0.087035462 0.73000002 -0.061436798 1.4469595e-38 388 288
0.088315405 0.73000002 -0.061436798 1.4653988e-38 389 288
0.089349858 0.72799999 -0.061268479 1.5023116e-38 390 288
0.090501808 0.727 -0.061184317 1.5115312e-38 391 288
0.09127152 0.72299999 -0.060847677 1.5392256e-38 392 288
0.092411183 0.722 -0.060763516 1.6129821e-38 393 288
0.092639111 0.71399999 -0.060090236 1.6498234e-38 394 288
0.093759492 0.713 -0.060006075 1.6774462e-38 395 288
0.095009625 0.713 -0.060006075 1.7051407e-38 396 288
0.095989741 0.71100003 -0.059837762 1.7143603e-38 397 288
0.097236358 0.71100003 -0.059837762 1.7511667e-38 398 288
0.098482981 0.71100003 -0.059837762 1.7603862e-38 399 288
0.099729598 0.71100003 -0.059837762 1.7970134e-38 400 288
0.10083419 0.70999998 -0.059753593 1.7048536e-38 401 288
0.10207906 0.70999998 -0.059753593 1.547906e-38 402 288
0.10332392 0.70999998 -0.059753593 1.4557103e-38 403 288
0.10456879 0.70999998 -0.059753593 1.3454349e-38 404 288
0.10581366 0.70999998 -0.059753593 1.4191915e-38 405 288
0.10720932 0.71100003 -0.059837762 1.5114949e-38 406 288
0.10845594 0.71100003 -0.059837762 1.6313492e-38 407 288
0.10970256 0.71100003 -0.059837762 1.658935e-38 408 288
0.11094918 0.71100003 -0.059837762 1.6681546e-38 409 288
0.1121958 0.71100003 -0.059837762 1.6682255e-38 410 288
0.11376153 0.713 -0.060006075 1.6497505e-38 411 288
0.11501165 0.713 -0.060006075 1.5947205e-38 412 288
0.11626177 0.713 -0.060006075 1.5578423e-38 413 288
0.11767671 0.71399999 -0.060090236 1.548623e-38 414 288
0.11926173 0.71600002 -0.06025856 1.5025252e-38 415 288
0.12051712 0.71600002 -0.06025856 1.4838747e-38 416 288
0.12177251 0.71600002 -0.06025856 1.5668868e-38 417 288
0.12319972 0.71700001 -0.060342718 1.5581409e-38 418 288
0.086225428 0.73400003 -0.063060381 1.2628593e-38 387 289
0.086797006 0.72799999 -0.062544905 1.4287003e-38 388 289
0.087952457 0.727 -0.062458992 1.4471394e-38 389 289
0.088981666 0.72500002 -0.062287167 1.4839451e-38 390 289
0.090003856 0.72299999 -0.062115334 1.5024202e-38 391 289
0.090892807 0.72000003 -0.061857603 1.5392978e-38 392 289
0.092027202 0.71899998 -0.061771683 1.5853956e-38 393 289
0.092639111 0.71399999 -0.061342116 1.640676e-38 394 289
0.093759492 0.713 -0.061256204 1.6683348e-38 395 289
0.094743125 0.71100003 -0.061084379 1.6959575e-38 396 289
0.095989741 0.71100003 -0.061084379 1.7144325e-38 397 289
0.097099595 0.70999998 -0.060998458 1.7419837e-38 398 289
0.09834446 0.70999998 -0.060998458 1.7512033e-38 399 289
0.099589325 0.70999998 -0.060998458 1.6864514e-38 400 289
0.10083419 0.70999998 -0.060998458 1.5942559e-38 401 289
0.10207906 0.70999998 -0.060998458 1.4647872e-38 402 289
0.10332392 0.70999998 -0.060998458 1.4186894e-38 403 289
0.10456879 0.70999998 -0.060998458 1.354368e-38 404 289
0.10581366 0.70999998 -0.060998458 1.4373081e-38 405 289
0.10705853 0.70999998 -0.060998458 1.4745087e-38 406 289
0.10830339 0.70999998 -0.060998458 1.6220578e-38 407 289
0.10954826 0.70999998 -0.060998458 1.6313124e-38 408 289
0.11094918 0.71100003 -0.061084379 1.658935e-38 409 289
0.1121958 0.71100003 -0.061084379 1.6406391e-38 410 289
0.11344242 0.71100003 -0.061084379 1.6314196e-38 411 289
0.11468904 0.71100003 -0.061084379 1.5854654e-38 412 289
0.11593566 0.71100003 -0.061084379 1.5670621e-38 413 289
0.11751191 0.713 -0.061256204 1.5394034e-38 414 289
0.11876203 0.713 -0.061256204 1.5209284e-38 415 289
0.12001215 0.713 -0.061256204 1.4931296e-38 416 289
0.12177251 0.71600002 -0.061513945 1.548447e-38 417 289
0.12319972 0.71700001 -0.061599858 1.5029307e-38 418 289
0.08552058 0.72799999 -0.063821331 1.225909e-38 387 290
0.086797006 0.72799999 -0.063821331 1.4286647e-38 388 290
0.0877105 0.72500002 -0.063558333 1.4471397e-38 389 290
0.088736199 0.72299999 -0.063382991 1.4656141e-38 390 290
0.089879371 0.722 -0.063295327 1.493237e-38 391 290
0.090766557 0.71899998 -0.063032329 1.5392981e-38 392 290
0.091387235 0.71399999 -0.062593997 1.58536e-38 393 290
0.092509374 0.713 -0.062506333 1.6223092e-38 394 290
0.093496501 0.71100003 -0.062331002 1.649932e-38 395 290
0.094743125 0.71100003 -0.062331002 1.6959578e-38 396 290
0.095989741 0.71100003 -0.062331002 1.7143969e-38 397 290
0.097099595 0.70999998 -0.062243331 1.7511682e-38 398 290
0.09834446 0.70999998 -0.062243331 1.7511682e-38 399 290
0.099308796 0.708 -0.062068 1.5757814e-38 400 290
0.10055015 0.708 -0.062068 1.4651825e-38 401 290
0.10179152 0.708 -0.062068 1.3358217e-38 402 290
0.10303288 0.708 -0.062068 1.3358217e-38 403 290
0.10427424 0.708 -0.062068 1.3543677e-38 404 290
0.1055156 0.708 -0.062068 1.4373078e-38 405 290
0.10675696 0.708 -0.062068 1.5203182e-38 406 290
0.10799832 0.708 -0.062068 1.6770147e-38 407 290
0.10923968 0.708 -0.062068 1.640424e-38 408 290
0.11079313 0.70999998 -0.062243331 1.6496436e-38 409 290
0.11203799 0.70999998 -0.062243331 1.613053e-38 410 290
0.11328287 0.70999998 -0.062243331 1.6037976e-38 411 290
0.11452773 0.70999998 -0.062243331 1.5945783e-38 412 290
0.1157726 0.70999998 -0.062243331 1.576139e-38 413 290
0.11718228 0.71100003 -0.062331002 1.5669192e-38 414 290
0.11842891 0.71100003 -0.062331002 1.5392606e-38 415 290
0.11967552 0.71100003 -0.062331002 1.520788e-38 416 290
0.12092214 0.71100003 -0.062331002 1.520788e-38 417 290
0.12216876 0.71100003 -0.062331002 1.4568682e-38 418 290
0.086439334 0.72500002 -0.064829499 1.3918589e-38 388 291
0.0877105 0.72500002 -0.064829499 1.4379567e-38 389 291
0.088245258 0.71899998 -0.064292975 1.4747258e-38 390 291
0.089505911 0.71899998 -0.064292975 1.4931649e-38 391 291
0.090514079 0.71700001 -0.064114138 1.5209666e-38 392 291
0.091259241 0.713 -0.063756458 1.5670285e-38 393 291
0.092249878 0.71100003 -0.063577622 1.6223089e-38 394 291
0.093496501 0.71100003 -0.063577622 1.6499676e-38 395 291
0.094609864 0.70999998 -0.063488193 1.7142524e-38 396 291
0.095854729 0.70999998 -0.063488193 1.7326915e-38 397 291
0.096826077 0.708 -0.063309364 1.7603159e-38 398 291
0.097928926 0.70700002 -0.063219935 1.7510963e-38 399 291
0.099168532 0.70700002 -0.063219935 1.4836581e-38 400 291
0.10026611 0.70599997 -0.063130513 1.336145e-38 401 291
0.10150397 0.70599997 -0.063130513 1.2618496e-38 402 291
0.10274182 0.70599997 -0.063130513 1.317167e-38 403 291
0.10397967 0.70599997 -0.063130513 1.3541875e-38 404 291
0.10521752 0.70599997 -0.063130513 1.4832614e-38 405 291
0.10645538 0.70599997 -0.063130513 1.5663438e-38 406 291
0.10769323 0.70599997 -0.063130513 1.7230404e-38 407 291
0.10908539 0.70700002 -0.063219935 1.6221294e-38 408 291
0.11032499 0.70700002 -0.063219935 1.6221294e-38 409 291
0.11172239 0.708 -0.063309364 1.6220572e-38 410 291
0.11296376 0.708 -0.063309364 1.6220572e-38 411 291
0.11452773 0.70999998 -0.063488193 1.6036895e-38 412 291
0.1157726 0.70999998 -0.063488193 1.5852864e-38 413 291
0.11701746 0.70999998 -0.063488193 1.5485158e-38 414 291
0.11826232 0.70999998 -0.063488193 1.5300767e-38 415 291
0.11950719 0.70999998 -0.063488193 1.529971e-38 416 291
0.12041192 0.708 -0.063309364 1.5022763e-38 417 291
0.12165328 0.708 -0.063309364 1.4291374e-38 418 291
0.086742654 0.71700001 -0.065371275 1.4011155e-38 389 292
0.087999798 0.71700001 -0.065371275 1.4196602e-38 390 292
0.089132458 0.71600002 -0.06528011 1.4657581e-38 391 292
0.090135351 0.71399999 -0.065097757 1.5117833e-38 392 292
0.091259241 0.713 -0.065006584 1.5579171e-38 393 292
0.092249878 0.71100003 -0.064824238 1.5947584e-38 394 292
0.093364999 0.70999998 -0.064733058 1.622381e-38 395 292
0.094609864 0.70999998 -0.064733058 1.6866663e-38 396 292
0.095584713 0.708 -0.06455072 1.7051054e-38 397 292
0.096689314 0.70700002 -0.064459547 1.7326938e-38 398 292
0.097790405 0.70599997 -0.064368367 1.7142547e-38 399 292
0.09902826 0.70599997 -0.064368367 1.391427e-38 400 292
0.10026611 0.70599997 -0.064368367 1.2070358e-38 401 292
0.10150397 0.70599997 -0.064368367 1.1513577e-38 402 292
0.10274182 0.70599997 -0.064368367 1.2251143e-38 403 292
0.10397967 0.70599997 -0.064368367 1.3449667e-38 404 292
0.10521752 0.70599997 -0.064368367 1.5293579e-38 405 292
0.10645538 0.70599997 -0.064368367 1.603401e-38 406 292
0.10769323 0.70599997 -0.064368367 1.686413e-38 407 292
0.10893109 0.70599997 -0.064368367 1.6313121e-38 408 292
0.11016893 0.70599997 -0.064368367 1.6313121e-38 409 292
0.11140679 0.70599997 -0.064368367 1.6128731e-38 410 292
0.11264464 0.70599997 -0.064368367 1.6128731e-38 411 292
0.11420512 0.708 -0.06455072 1.6036895e-38 412 292
0.11544648 0.708 -0.06455072 1.5852864e-38 413 292
0.11668784 0.708 -0.06455072 1.566847e-38 414 292
0.11826232 0.70999998 -0.064733058 1.5484079e-38 415 292
0.11950719 0.70999998 -0.064733058 1.5207865e-38 416 292
0.12041192 0.708 -0.06455072 1.4654691e-38 417 292
0.12165328 0.708 -0.06455072 1.4013698e-38 418 292
0.087999798 0.71700001 -0.066628419 1.4471745e-38 390 293
0.089132458 0.71600002 -0.066535495 1.4840526e-38 391 293
0.090135351 0.71399999 -0.066349633 1.5486243e-38 392 293
0.091259241 0.713 -0.066256717 1.5670994e-38 393 293
0.092249878 0.71100003 -0.066070862 1.6498237e-38 394 293
0.093364999 0.70999998 -0.065977924 1.6682268e-38 395 293
0.094343357 0.708 -0.065792084 1.6865944e-38 396 293
0.095449716 0.70700002 -0.065699153 1.7142171e-38 397 293
0.096552551 0.70599997 -0.065606222 1.6958155e-38 398 293
0.097790405 0.70599997 -0.065606222 1.6312786e-38 399 293
0.09902826 0.70599997 -0.065606222 1.2529545e-38 400 293
0.10026611 0.70599997 -0.065606222 1.1238806e-38 401 293
0.10150397 0.70599997 -0.065606222 1.10526e-38 402 293
0.10274182 0.70599997 -0.065606222 1.2066392e-38 403 293
0.10397967 0.70599997 -0.065606222 1.3358187e-38 404 293
0.10491946 0.704 -0.065420374 1.5847469e-38 405 293
0.10615381 0.704 -0.065420374 1.6587906e-38 406 293
0.10738816 0.704 -0.065420374 1.6680101e-38 407 293
0.1086225 0.704 -0.065420374 1.631384e-38 408 293
0.11016893 0.70599997 -0.065606222 1.6129448e-38 409 293
0.11140679 0.70599997 -0.065606222 1.6128728e-38 410 293
0.11264464 0.70599997 -0.065606222 1.6036532e-38 411 293
0.1138825 0.70599997 -0.065606222 1.5853217e-38 412 293
0.11512035 0.70599997 -0.065606222 1.5761022e-38 413 293
0.11652302 0.70700002 -0.065699153 1.5485158e-38 414 293
0.1179292 0.708 -0.065792084 1.5300767e-38 415 293
0.11917056 0.708 -0.065792084 1.5115668e-38 416 293
0.12041192 0.708 -0.065792084 1.4562495e-38 417 293
0.12165328 0.708 -0.065792084 1.3920056e-38 418 293
0.087999798 0.71700001 -0.067885563 1.4839807e-38 390 294
0.089132458 0.71600002 -0.067790881 1.5208231e-38 391 294
0.090135351 0.71399999 -0.067601517 1.5761034e-38 392 294
0.091003262 0.71100003 -0.067317478 1.6130177e-38 393 294
0.092120126 0.70999998 -0.067222796 1.6130896e-38 394 294
0.092970498 0.70700002 -0.066938758 1.6315287e-38 395 294
0.094210111 0.70700002 -0.066938758 1.6683348e-38 396 294
0.095314704 0.70599997 -0.066844068 1.6959575e-38 397 294
0.096552551 0.70599997 -0.066844068 1.6496451e-38 398 294
0.097513385 0.704 -0.066654719 1.5390104e-38 399 294
0.09874773 0.704 -0.066654719 1.1606512e-38 400 294
0.099982075 0.704 -0.066654719 1.0868947e-38 401 294
0.10121643 0.704 -0.066654719 1.1603619e-38 402 294
0.10245077 0.704 -0.066654719 1.2618131e-38 403 294
0.10368512 0.704 -0.066654719 1.4187585e-38 404 294
0.10491946 0.704 -0.066654719 1.6584313e-38 405 294
0.10615381 0.704 -0.066654719 1.7140359e-38 406 294
0.10738816 0.704 -0.066654719 1.7048163e-38 407 294
0.1086225 0.704 -0.066654719 1.6588987e-38 408 294
0.10985684 0.704 -0.066654719 1.6496433e-38 409 294
0.1110912 0.704 -0.066654719 1.6128728e-38 410 294
0.11232555 0.704 -0.066654719 1.6036532e-38 411 294
0.11355989 0.704 -0.066654719 1.5761022e-38 412 294
0.11479424 0.704 -0.066654719 1.5761022e-38 413 294
0.11635821 0.70599997 -0.066844068 1.5392962e-38 414 294
0.11759606 0.70599997 -0.066844068 1.520857e-38 415 294
0.11883391 0.70599997 -0.066844068 1.5207147e-38 416 294
0.12007176 0.70599997 -0.066844068 1.4469224e-38 417 294
0.12148146 0.70700002 -0.066938758 1.3183937e-38 418 294
0.088883474 0.71399999 -0.068853401 1.5484101e-38 391 295
0.090135351 0.71399999 -0.068853401 1.5487323e-38 392 295
0.091003262 0.71100003 -0.068564095 1.5763908e-38 393 295
0.091730893 0.70700002 -0.068178371 1.640676e-38 394 295
0.092838995 0.70599997 -0.06808193 1.6591152e-38 395 295
0.09407685 0.70599997 -0.06808193 1.6958506e-38 396 295
0.095314704 0.70599997 -0.06808193 1.7143256e-38 397 295
0.096279033 0.704 -0.067889065 1.6127325e-38 398 295
0.097513385 0.704 -0.067889065 1.4836587e-38 399 295
0.09874773 0.704 -0.067889065 1.1051899e-38 400 295
0.099982075 0.704 -0.067889065 1.0959345e-38 401 295
0.10107265 0.70300001 -0.067792632 1.1511773e-38 402 295
0.10230524 0.70300001 -0.067792632 1.326385e-38 403 295
0.10353784 0.70300001 -0.067792632 1.5293577e-38 404 295
0.10477043 0.70300001 -0.067792632 1.7137489e-38 405 295
0.10600302 0.70300001 -0.067792632 1.7324401e-38 406 295
0.10723562 0.70300001 -0.067792632 1.7047454e-38 407 295
0.10846821 0.70300001 -0.067792632 1.6496439e-38 408 295
0.10970081 0.70300001 -0.067792632 1.6403884e-38 409 295
0.1109334 0.70300001 -0.067792632 1.6036177e-38 410 295
0.11216599 0.70300001 -0.067792632 1.5943981e-38 411 295
0.11355989 0.704 -0.067889065 1.5760669e-38 412 295
0.11479424 0.704 -0.067889065 1.5668473e-38 413 295
0.11602858 0.704 -0.067889065 1.5392606e-38 414 295
0.11726292 0.704 -0.067889065 1.5208214e-38 415 295
0.11883391 0.70599997 -0.06808193 1.5023472e-38 416 295
0.12007176 0.70599997 -0.06808193 1.3917126e-38 417 295
0.12130962 0.70599997 -0.06808193 1.2631117e-38 418 295
0.08875899 0.713 -0.070007093 1.5484826e-38 391 296
0.090009116 0.713 -0.070007093 1.5487326e-38 392 296
0.090875261 0.70999998 -0.069712527 1.5763553e-38 393 296
0.091601141 0.70599997 -0.069319785 1.6405685e-38 394 296
0.092838995 0.70599997 -0.069319785 1.668227e-38 395 296
0.093810342 0.704 -0.06912341 1.6865957e-38 396 296
0.095044687 0.704 -0.06912341 1.7050707e-38 397 296
0.096142277 0.70300001 -0.069025226 1.5481953e-38 398 296
0.097374871 0.70300001 -0.069025226 1.3914626e-38 399 296
0.098607466 0.70300001 -0.069025226 1.0407231e-38 400 296
0.09984006 0.70300001 -0.069025226 1.0868207e-38 401 296
0.10107265 0.70300001 -0.069025226 1.2525553e-38 402 296
0.10230524 0.70300001 -0.069025226 1.4461661e-38 403 296
0.10353784 0.70300001 -0.069025226 1.5665955e-38 404 296
0.10477043 0.70300001 -0.069025226 1.6771944e-38 405 296
0.10600302 0.70300001 -0.069025226 1.6865588e-38 406 296
0.10693054 0.70099998 -0.068828844 1.6589e-38 407 296
0.10815962 0.70099998 -0.068828844 1.6403887e-38 408 296
0.10970081 0.70300001 -0.069025226 1.631169e-38 409 296
0.1109334 0.70300001 -0.069025226 1.6036179e-38 410 296
0.11216599 0.70300001 -0.069025226 1.5943984e-38 411 296
0.11339859 0.70300001 -0.069025226 1.5668117e-38 412 296
0.11463118 0.70300001 -0.069025226 1.5668117e-38 413 296
0.11602858 0.704 -0.06912341 1.5300414e-38 414 296
0.11726292 0.704 -0.06912341 1.5116021e-38 415 296
0.11849727 0.704 -0.06912341 1.4747243e-38 416 296
0.11973163 0.704 -0.06912341 1.3824926e-38 417 296
0.12096597 0.704 -0.06912341 1.2446002e-38 418 296
0.08875899 0.713 -0.071257219 1.5484823e-38 391 297
0.090009116 0.713 -0.071257219 1.6037628e-38 392 297
0.090875261 0.70999998 -0.070957392 1.6129824e-38 393 297
0.091341652 0.704 -0.070357755 1.6405332e-38 394 297
0.092575997 0.704 -0.070357755 1.6681919e-38 395 297
0.093810342 0.704 -0.070357755 1.6866313e-38 396 297
0.094909683 0.70300001 -0.070257813 1.6958508e-38 397 297
0.095868751 0.70099998 -0.070057929 1.5573769e-38 398 297
0.097097836 0.70099998 -0.070057929 1.3269238e-38 399 297
0.098326929 0.70099998 -0.070057929 1.068346e-38 400 297
0.099556014 0.70099998 -0.070057929 1.0960049e-38 401 297
0.1007851 0.70099998 -0.070057929 1.3172023e-38 402 297
0.10201418 0.70099998 -0.070057929 1.5292523e-38 403 297
0.10324328 0.70099998 -0.070057929 1.6035463e-38 404 297
0.10447236 0.70099998 -0.070057929 1.6680833e-38 405 297
0.10570145 0.70099998 -0.070057929 1.6406051e-38 406 297
0.10693054 0.70099998 -0.070057929 1.6129824e-38 407 297
0.10815962 0.70099998 -0.070057929 1.6587202e-38 408 297
0.1093887 0.70099998 -0.070057929 1.6310974e-38 409 297
0.11061779 0.70099998 -0.070057929 1.5943628e-38 410 297
0.11184688 0.70099998 -0.070057929 1.5943628e-38 411 297
0.11307596 0.70099998 -0.070057929 1.5392612e-38 412 297
0.11463118 0.70300001 -0.070257813 1.5300416e-38 413 297
0.11602858 0.704 -0.070357755 1.4932353e-38 414 297
0.11726292 0.704 -0.070357755 1.4747961e-38 415 297
0.11849727 0.704 -0.070357755 1.4195153e-38 416 297
0.11973163 0.704 -0.070357755 1.3181362e-38 417 297
0.12096597 0.704 -0.070357755 1.2261252e-38 418 297
0.088872954 0.704 -0.071592107 1.594543e-38 392 298
0.090107299 0.704 -0.071592107 1.6037626e-38 393 298
0.091341652 0.704 -0.071592107 1.6589003e-38 394 298
0.092181489 0.70099998 -0.071287021 1.6773395e-38 395 298
0.093410581 0.70099998 -0.071287021 1.6774114e-38 396 298
0.094639666 0.70099998 -0.071287021 1.686631e-38 397 298
0.095868751 0.70099998 -0.071287021 1.6219848e-38 398 298
0.097097836 0.70099998 -0.071287021 1.4560328e-38 399 298
0.098326929 0.70099998 -0.071287021 1.3634425e-38 400 298
0.099556014 0.70099998 -0.071287021 1.4003206e-38 401 298
0.10064133 0.69999999 -0.071185328 1.4374883e-38 402 298
0.10186866 0.69999999 -0.071185328 1.5573066e-38 403 298
0.10309599 0.69999999 -0.071185328 1.6036549e-38 404 298
0.10432333 0.69999999 -0.071185328 1.6220941e-38 405 298
0.10555066 0.69999999 -0.071185328 1.6406051e-38 406 298
0.106778 0.69999999 -0.071185328 1.6313855e-38 407 298
0.10800533 0.69999999 -0.071185328 1.6403534e-38 408 298
0.10923266 0.69999999 -0.071185328 1.6311338e-38 409 298
0.11046 0.69999999 -0.071185328 1.5760318e-38 410 298
