# .PCD v.7 - Point Cloud Data file format
FIELDS x y z rgb imX imY
SIZE 4 4 4 4 4 4
TYPE F F F F F F
COUNT 1 1 1 1 1 1
WIDTH 834
HEIGHT 1
VIEWPOINT 0 0 0 1 0 0 0
POINTS 834
DATA ascii
0.0045095733 0.64300001 -0.050732698 1.7326157e-38 324 285
0.0056369668 0.64300001 -0.050732698 1.7326157e-38 325 285
0.0067643598 0.64300001 -0.050732698 1.7233609e-38 326 285
0.0078917528 0.64300001 -0.050732698 1.7049217e-38 327 285
0.0090331733 0.64399999 -0.050811596 1.6590041e-38 328 285
0.01016232 0.64399999 -0.050811596 1.6497846e-38 329 285
0.011291467 0.64399999 -0.050811596 1.6129076e-38 330 285
0.012420613 0.64399999 -0.050811596 1.6129076e-38 331 285
0.013549759 0.64399999 -0.050811596 1.5944331e-38 332 285
0.014724494 0.64600003 -0.0509694 1.5944331e-38 333 285
0.015857147 0.64600003 -0.0509694 1.5852486e-38 334 285
0.0170161 0.64700001 -0.051048297 1.5852486e-38 335 285
0.018150507 0.64700001 -0.051048297 1.5760643e-38 336 285
0.019314719 0.648 -0.051127199 1.5576612e-38 337 285
0.02048244 0.64899999 -0.051206097 1.5484782e-38 338 285
0.021620352 0.64899999 -0.051206097 1.5208554e-38 339 285
0.022793332 0.64999998 -0.051284995 1.5116003e-38 340 285
0.023932999 0.64999998 -0.051284995 1.4931611e-38 341 285
0.025149813 0.65200001 -0.051442798 1.4747213e-38 342 285
0.026333313 0.653 -0.0515217 1.4563182e-38 343 285
0.027478239 0.653 -0.0515217 1.4286236e-38 344 285
0.028666999 0.65399998 -0.051600594 1.4101844e-38 345 285
0.029813679 0.65399998 -0.051600594 1.336573e-38 346 285
0.031007698 0.65499997 -0.051679496 1.3273176e-38 347 285
0.032156132 0.65499997 -0.051679496 1.2904765e-38 348 285
0.033406258 0.65700001 -0.051837299 1.2904765e-38 349 285
0.034610797 0.65799999 -0.051916201 1.2628904e-38 350 285
0.035764489 0.65799999 -0.051916201 1.2628904e-38 351 285
0.037086505 0.66100001 -0.052152898 1.2446308e-38 352 285
0.038303319 0.662 -0.0522318 1.2446308e-38 353 285
0.039523639 0.66299999 -0.052310698 1.2538143e-38 354 285
0.040747464 0.66399997 -0.052389596 1.2722176e-38 355 285
0.042037919 0.66600001 -0.052547399 1.2814015e-38 356 285
0.04327051 0.667 -0.052626297 1.2998765e-38 357 285
0.044639867 0.67000002 -0.052863002 1.2999131e-38 358 285
0.045882981 0.671 -0.052941896 1.2999131e-38 359 285
0.047129598 0.67199999 -0.053020798 1.2998428e-38 360 285
0.048451614 0.67400002 -0.053178601 1.2906232e-38 361 285
0.049633358 0.67400002 -0.053178601 1.1617684e-38 362 285
0.050664317 0.67199999 -0.053020798 1.1341097e-38 363 285
0.051842555 0.67199999 -0.053020798 1.088123e-38 364 285
-0.017982185 0.64099997 -0.051698782 1.7603527e-38 304 286
-0.016858298 0.64099997 -0.051698782 1.7603527e-38 305 286
-0.015734414 0.64099997 -0.051698782 1.7787528e-38 306 286
-0.014587732 0.63999999 -0.051618129 1.7787528e-38 307 286
-0.013465599 0.63999999 -0.051618129 1.8063371e-38 308 286
-0.012343466 0.63999999 -0.051618129 1.8063371e-38 309 286
-0.011221332 0.63999999 -0.051618129 1.8063724e-38 310 286
-0.0100992 0.63999999 -0.051618129 1.8155919e-38 311 286
-0.0089910924 0.64099997 -0.051698782 1.8155919e-38 312 286
-0.0078672068 0.64099997 -0.051698782 1.8155919e-38 313 286
-0.0067433193 0.64099997 -0.051698782 1.8063724e-38 314 286
-0.0056194332 0.64099997 -0.051698782 1.7971527e-38 315 286
-0.0044955462 0.64099997 -0.051698782 1.8062641e-38 316 286
-0.0033716597 0.64099997 -0.051698782 1.7878609e-38 317 286
-0.0022477731 0.64099997 -0.051698782 1.8154476e-38 318 286
-0.0011238866 0.64099997 -0.051698782 1.7969726e-38 319 286
0 0.64099997 -0.051698782 1.7969726e-38 320 286
0.0011238866 0.64099997 -0.051698782 1.7601302e-38 321 286
0.0022477731 0.64099997 -0.051698782 1.7141397e-38 322 286
0.00337692 0.64200002 -0.051779442 1.686445e-38 323 286
0.00450256 0.64200002 -0.051779442 1.6588224e-38 324 286
0.0056281998 0.64200002 -0.051779442 1.6772255e-38 325 286
0.00675384 0.64200002 -0.051779442 1.6496394e-38 326 286
0.0078794798 0.64200002 -0.051779442 1.6496394e-38 327 286
0.0090191467 0.64300001 -0.051860094 1.6496394e-38 328 286
0.01016232 0.64399999 -0.051940747 1.6220167e-38 329 286
0.011291467 0.64399999 -0.051940747 1.6310933e-38 330 286
0.012420613 0.64399999 -0.051940747 1.6310933e-38 331 286
0.013549759 0.64399999 -0.051940747 1.6035435e-38 332 286
0.014678906 0.64399999 -0.051940747 1.6035435e-38 333 286
0.015857147 0.64600003 -0.052102055 1.575992e-38 334 286
0.016989801 0.64600003 -0.052102055 1.5667725e-38 335 286
0.018150507 0.64700001 -0.052182708 1.5668081e-38 336 286
0.019284913 0.64700001 -0.052182708 1.5391495e-38 337 286
0.020450879 0.648 -0.05226336 1.5391498e-38 338 286
0.021620352 0.64899999 -0.052344013 1.5299302e-38 339 286
0.022793332 0.64999998 -0.052424666 1.4839043e-38 340 286
0.023932999 0.64999998 -0.052424666 1.4654652e-38 341 286
0.025149813 0.65200001 -0.052585974 1.4469186e-38 342 286
0.026333313 0.653 -0.052666627 1.4100762e-38 343 286
0.027478239 0.653 -0.052666627 1.3640867e-38 344 286
0.028666999 0.65399998 -0.052747279 1.3640867e-38 345 286
0.029813679 0.65399998 -0.052747279 1.3272812e-38 346 286
0.031007698 0.65499997 -0.052827932 1.3088062e-38 347 286
0.032156132 0.65499997 -0.052827932 1.2629254e-38 348 286
0.033406258 0.65700001 -0.052989237 1.2629254e-38 349 286
0.034610797 0.65799999 -0.05306989 1.2353749e-38 350 286
0.035764489 0.65799999 -0.05306989 1.2353749e-38 351 286
0.037086505 0.66100001 -0.053311851 1.2629257e-38 352 286
0.038303319 0.662 -0.053392503 1.2721453e-38 353 286
0.039523639 0.66299999 -0.053473156 1.253814e-38 354 286
0.040747464 0.66399997 -0.053553808 1.253814e-38 355 286
0.042037919 0.66600001 -0.053715117 1.2813653e-38 356 286
0.04327051 0.667 -0.05379577 1.3089879e-38 357 286
0.044639867 0.67000002 -0.054037735 1.299841e-38 358 286
0.045882981 0.671 -0.054118387 1.3090964e-38 359 286
0.047129598 0.67199999 -0.054199036 1.2353788e-38 360 286
0.048451614 0.67400002 -0.054360349 1.20772e-38 361 286
0.049633358 0.67400002 -0.054360349 1.0789019e-38 362 286
0.050815105 0.67400002 -0.054360349 1.0881214e-38 363 286
-0.019076265 0.63999999 -0.052740265 1.7142512e-38 303 287
-0.017954132 0.63999999 -0.052740265 1.7879331e-38 304 287
-0.016831998 0.63999999 -0.052740265 1.7971527e-38 305 287
-0.015709866 0.63999999 -0.052740265 1.8064089e-38 306 287
-0.014587732 0.63999999 -0.052740265 1.8064089e-38 307 287
-0.01342352 0.63800001 -0.05257545 1.8247392e-38 308 287
-0.012304893 0.63800001 -0.05257545 1.8247392e-38 309 287
-0.011186266 0.63800001 -0.05257545 1.8156275e-38 310 287
-0.0100992 0.63999999 -0.052740265 1.8063721e-38 311 287
-0.0089770658 0.63999999 -0.052740265 1.7971897e-38 312 287
-0.0078549329 0.63999999 -0.052740265 1.7787864e-38 313 287
-0.0067327996 0.63999999 -0.052740265 1.7696019e-38 314 287
-0.0056106662 0.63999999 -0.052740265 1.7511269e-38 315 287
-0.0044885329 0.63999999 -0.052740265 1.7694199e-38 316 287
-0.0033663998 0.63999999 -0.052740265 1.7694199e-38 317 287
-0.0022442664 0.63999999 -0.052740265 1.7602006e-38 318 287
-0.0011221332 0.63999999 -0.052740265 1.7417256e-38 319 287
0 0.63999999 -0.052740265 1.7049202e-38 320 287
0.0011221332 0.63999999 -0.052740265 1.6956647e-38 321 287
0.0022442664 0.63999999 -0.052740265 1.6772255e-38 322 287
0.0033716597 0.64099997 -0.052822668 1.6588224e-38 323 287
0.0044955462 0.64099997 -0.052822668 1.6403845e-38 324 287
0.0056194332 0.64099997 -0.052822668 1.6403845e-38 325 287
0.00675384 0.64200002 -0.052905083 1.6036514e-38 326 287
0.0078794798 0.64200002 -0.052905083 1.5944319e-38 327 287
0.00900512 0.64200002 -0.052905083 1.5759925e-38 328 287
0.01014654 0.64300001 -0.052987486 1.5667728e-38 329 287
0.011273934 0.64300001 -0.052987486 1.5484062e-38 330 287
0.012401327 0.64300001 -0.052987486 1.5484062e-38 331 287
0.013549759 0.64399999 -0.05306989 1.5392235e-38 332 287
0.014678906 0.64399999 -0.05306989 1.5207845e-38 333 287
0.015808053 0.64399999 -0.05306989 1.5207848e-38 334 287
0.016989801 0.64600003 -0.053234708 1.5023457e-38 335 287
0.018122453 0.64600003 -0.053234708 1.474794e-38 336 287
0.019284913 0.64700001 -0.053317111 1.4655745e-38 337 287
0.020450879 0.648 -0.053399518 1.4747195e-38 338 287
0.021620352 0.64899999 -0.053481925 1.4470608e-38 339 287
0.022758266 0.64899999 -0.053481925 1.4194727e-38 340 287
0.023932999 0.64999998 -0.053564329 1.4102532e-38 341 287
0.025149813 0.65200001 -0.053729147 1.3734125e-38 342 287
0.026292987 0.65200001 -0.053729147 1.3549373e-38 343 287
0.027478239 0.653 -0.05381155 1.3089144e-38 344 287
0.028666999 0.65399998 -0.053893957 1.2996948e-38 345 287
0.029859263 0.65499997 -0.053976361 1.2353393e-38 346 287
0.031007698 0.65499997 -0.053976361 1.2353393e-38 347 287
0.032156132 0.65499997 -0.053976361 1.2353393e-38 348 287
0.033406258 0.65700001 -0.054141179 1.2353393e-38 349 287
0.034610797 0.65799999 -0.054223582 1.2353393e-38 350 287
0.035818845 0.65899998 -0.054305989 1.2353393e-38 351 287
0.037086505 0.66100001 -0.054470807 1.2354112e-38 352 287
0.038303319 0.662 -0.054553211 1.2354112e-38 353 287
0.039464023 0.662 -0.054553211 1.2446311e-38 354 287
0.040686097 0.66299999 -0.054635618 1.2538508e-38 355 287
0.041911677 0.66399997 -0.054718021 1.2630706e-38 356 287
0.043205637 0.66600001 -0.054882839 1.2722902e-38 357 287
0.044639867 0.67000002 -0.055212468 1.2355211e-38 358 287
0.045882981 0.671 -0.055294871 1.2355211e-38 359 287
0.047129598 0.67199999 -0.055377278 1.1524766e-38 360 287
0.048451614 0.67400002 -0.055542093 1.1340375e-38 361 287
0.049706999 0.67500001 -0.0556245 1.0880867e-38 362 287
-0.023417519 0.63599998 -0.053525757 1.6958898e-38 299 288
-0.022337466 0.63700002 -0.053609919 1.7602429e-38 300 288
-0.021220595 0.63700002 -0.053609919 1.7510233e-38 301 288
-0.020103721 0.63700002 -0.053609919 1.7970823e-38 302 288
-0.019076265 0.63999999 -0.053862397 1.806302e-38 303 288
-0.017954132 0.63999999 -0.053862397 1.8063724e-38 304 288
-0.016831998 0.63999999 -0.053862397 1.8155919e-38 305 288
-0.015709866 0.63999999 -0.053862397 1.8064443e-38 306 288
-0.014587732 0.63999999 -0.053862397 1.8064443e-38 307 288
-0.01342352 0.63800001 -0.053694081 1.8155922e-38 308 288
-0.012304893 0.63800001 -0.053694081 1.8063727e-38 309 288
-0.011186266 0.63800001 -0.053694081 1.8063727e-38 310 288
-0.01006764 0.63800001 -0.053694081 1.7971529e-38 311 288
-0.0089490134 0.63800001 -0.053694081 1.732725e-38 312 288
-0.007830387 0.63800001 -0.053694081 1.732725e-38 313 288
-0.0067117601 0.63800001 -0.053694081 1.7418004e-38 314 288
-0.0055931332 0.63800001 -0.053694081 1.7141057e-38 315 288
-0.0044745067 0.63800001 -0.053694081 1.7232158e-38 316 288
-0.00335588 0.63800001 -0.053694081 1.695593e-38 317 288
-0.0022442664 0.63999999 -0.053862397 1.6771892e-38 318 288
-0.0011221332 0.63999999 -0.053862397 1.6587142e-38 319 288
0 0.63999999 -0.053862397 1.6127966e-38 320 288
0.0011221332 0.63999999 -0.053862397 1.6127966e-38 321 288
0.0022442664 0.63999999 -0.053862397 1.6036136e-38 322 288
0.0033663998 0.63999999 -0.053862397 1.6036136e-38 323 288
0.0044885329 0.63999999 -0.053862397 1.5760276e-38 324 288
0.0056194332 0.64099997 -0.053946555 1.5760276e-38 325 288
0.0067433193 0.64099997 -0.053946555 1.5759202e-38 326 288
0.0078672068 0.64099997 -0.053946555 1.5667006e-38 327 288
0.00900512 0.64200002 -0.05403072 1.5575882e-38 328 288
0.01013076 0.64200002 -0.05403072 1.5391851e-38 329 288
0.0112564 0.64200002 -0.05403072 1.5391498e-38 330 288
0.012401327 0.64300001 -0.054114878 1.5299302e-38 331 288
0.01352872 0.64300001 -0.054114878 1.5206398e-38 332 288
0.014678906 0.64399999 -0.054199036 1.5114202e-38 333 288
0.015808053 0.64399999 -0.054199036 1.5113832e-38 334 288
0.016989801 0.64600003 -0.05436736 1.5021636e-38 335 288
0.018122453 0.64600003 -0.05436736 1.465428e-38 336 288
0.019255107 0.64600003 -0.05436736 1.4285497e-38 337 288
0.02041932 0.64700001 -0.054451518 1.3825241e-38 338 288
0.021553727 0.64700001 -0.054451518 1.3364263e-38 339 288
0.0227232 0.648 -0.05453568 1.3180595e-38 340 288
0.023896178 0.64899999 -0.054619838 1.3180595e-38 341 288
0.025072664 0.64999998 -0.054703996 1.2812541e-38 342 288
0.026292987 0.65200001 -0.054872319 1.2812541e-38 343 288
0.027478239 0.653 -0.054956477 1.2995869e-38 344 288
0.028666999 0.65399998 -0.055040635 1.2811838e-38 345 288
0.029813679 0.65399998 -0.055040635 1.2535987e-38 346 288
0.031007698 0.65499997 -0.055124797 1.2535987e-38 347 288
0.032156132 0.65499997 -0.055124797 1.2444513e-38 348 288
0.033406258 0.65700001 -0.055293117 1.2536708e-38 349 288
0.034610797 0.65799999 -0.055377278 1.2536706e-38 350 288
0.035818845 0.65899998 -0.055461437 1.2536706e-38 351 288
0.037086505 0.66100001 -0.05562976 1.2628904e-38 352 288
0.038303319 0.662 -0.055713918 1.2628904e-38 353 288
0.039464023 0.662 -0.055713918 1.2445239e-38 354 288
0.04062473 0.662 -0.055713918 1.2537434e-38 355 288
0.041848559 0.66299999 -0.055798076 1.2721472e-38 356 288
0.043075889 0.66399997 -0.055882234 1.2813668e-38 357 288
0.044639867 0.67000002 -0.056387197 1.2353786e-38 358 288
0.045951359 0.67199999 -0.056555521 1.1985002e-38 359 288
0.047269866 0.67400002 -0.056723841 1.041951e-38 360 288
0.048523501 0.67500001 -0.056808002 1.060426e-38 361 288
-0.026804959 0.63700002 -0.054726794 1.8340758e-38 296 289
-0.025688088 0.63700002 -0.054726794 1.7787585e-38 297 289
-0.024532638 0.63599998 -0.054640878 1.7419467e-38 298 289
-0.023417519 0.63599998 -0.054640878 1.7235076e-38 299 289
-0.022337466 0.63700002 -0.054726794 1.7786779e-38 300 289
-0.021220595 0.63700002 -0.054726794 1.7878975e-38 301 289
-0.020103721 0.63700002 -0.054726794 1.8154839e-38 302 289
-0.018986847 0.63700002 -0.054726794 1.8339232e-38 303 289
-0.017869974 0.63700002 -0.054726794 1.8339588e-38 304 289
-0.016779399 0.63800001 -0.054812707 1.8339588e-38 305 289
-0.015660774 0.63800001 -0.054812707 1.8155922e-38 306 289
-0.014542148 0.63800001 -0.054812707 1.8063727e-38 307 289
-0.013381439 0.63599998 -0.054640878 1.8064089e-38 308 289
-0.012266319 0.63599998 -0.054640878 1.7787861e-38 309 289
-0.011151199 0.63599998 -0.054640878 1.7786426e-38 310 289
-0.01005186 0.63700002 -0.054726794 1.75102e-38 311 289
-0.0089349868 0.63700002 -0.054726794 1.7233255e-38 312 289
-0.0078181131 0.63700002 -0.054726794 1.714106e-38 313 289
-0.0067012399 0.63700002 -0.054726794 1.7048864e-38 314 289
-0.0055843666 0.63700002 -0.054726794 1.6772637e-38 315 289
-0.0044674934 0.63700002 -0.054726794 1.6680791e-38 316 289
-0.0033506199 0.63700002 -0.054726794 1.6403845e-38 317 289
-0.0022372534 0.63800001 -0.054812707 1.6402405e-38 318 289
-0.0011186267 0.63800001 -0.054812707 1.6310207e-38 319 289
0 0.63800001 -0.054812707 1.5943591e-38 320 289
0.0011186267 0.63800001 -0.054812707 1.5943591e-38 321 289
0.0022442664 0.63999999 -0.054984529 1.5759925e-38 322 289
0.0033663998 0.63999999 -0.054984529 1.5759925e-38 323 289
0.0044885329 0.63999999 -0.054984529 1.5484415e-38 324 289
0.0056106662 0.63999999 -0.054984529 1.5299665e-38 325 289
0.0067327996 0.63999999 -0.054984529 1.5299665e-38 326 289
0.0078672068 0.64099997 -0.055070441 1.520747e-38 327 289
0.0089910924 0.64099997 -0.055070441 1.5207823e-38 328 289
0.010114979 0.64099997 -0.055070441 1.5115627e-38 329 289
0.011238866 0.64099997 -0.055070441 1.4931962e-38 330 289
0.012362752 0.64099997 -0.055070441 1.474721e-38 331 289
0.01352872 0.64300001 -0.05524227 1.4654301e-38 332 289
0.014656113 0.64300001 -0.05524227 1.4654301e-38 333 289
0.015808053 0.64399999 -0.055328183 1.4653203e-38 334 289
0.0169372 0.64399999 -0.055328183 1.4376617e-38 335 289
0.018066347 0.64399999 -0.055328183 1.3641559e-38 336 289
0.019255107 0.64600003 -0.055500012 1.3549005e-38 337 289
0.020387759 0.64600003 -0.055500012 1.327209e-38 338 289
0.021553727 0.64700001 -0.055585928 1.3179894e-38 339 289
0.0227232 0.648 -0.055671841 1.2812206e-38 340 289
0.023896178 0.64899999 -0.05575775 1.2719652e-38 341 289
0.025072664 0.64999998 -0.055843662 1.2719652e-38 342 289
0.026292987 0.65200001 -0.056015491 1.2627456e-38 343 289
0.027478239 0.653 -0.056101404 1.2351593e-38 344 289
0.028666999 0.65399998 -0.056187313 1.2444147e-38 345 289
0.029813679 0.65399998 -0.056187313 1.2260482e-38 346 289
0.031007698 0.65499997 -0.056273226 1.2260482e-38 347 289
0.032156132 0.65499997 -0.056273226 1.2444157e-38 348 289
0.033406258 0.65700001 -0.056445058 1.2444157e-38 349 289
0.034610797 0.65799999 -0.056530971 1.2536708e-38 350 289
0.035818845 0.65899998 -0.056616884 1.2536708e-38 351 289
0.037086505 0.66100001 -0.056788713 1.2536711e-38 352 289
0.038303319 0.662 -0.056874625 1.2628907e-38 353 289
0.039464023 0.662 -0.056874625 1.2445241e-38 354 289
0.04062473 0.662 -0.056874625 1.2445241e-38 355 289
0.041785441 0.662 -0.056874625 1.2445255e-38 356 289
0.043011017 0.66299999 -0.056960538 1.2353058e-38 357 289
0.044173479 0.66299999 -0.056960538 1.1340731e-38 358 289
-0.029038707 0.63700002 -0.055843666 1.760427e-38 294 290
-0.027921833 0.63700002 -0.055843666 1.6958901e-38 295 290
-0.026804959 0.63700002 -0.055843666 1.7692458e-38 296 290
-0.025688088 0.63700002 -0.055843666 1.7876849e-38 297 290
-0.024532638 0.63599998 -0.055755995 1.7787508e-38 298 290
-0.023417519 0.63599998 -0.055755995 1.7971541e-38 299 290
-0.022232266 0.634 -0.055580664 1.8155919e-38 300 290
-0.021054026 0.63200003 -0.055405337 1.8155919e-38 301 290
-0.019914359 0.63099998 -0.055317663 1.8339588e-38 302 290
-0.018808005 0.63099998 -0.055317663 1.8339588e-38 303 290
-0.017785814 0.634 -0.055580664 1.8063727e-38 304 290
-0.0166742 0.634 -0.055580664 1.8063727e-38 305 290
-0.015587131 0.63499999 -0.055668332 1.7971176e-38 306 290
-0.014496559 0.63599998 -0.055755995 1.7878981e-38 307 290
-0.013381439 0.63599998 -0.055755995 1.760347e-38 308 290
-0.012247032 0.63499999 -0.055668332 1.741872e-38 309 290
-0.011133666 0.63499999 -0.055668332 1.7233606e-38 310 290
-0.010036079 0.63599998 -0.055755995 1.714141e-38 311 290
-0.0089209592 0.63599998 -0.055755995 1.6772982e-38 312 290
-0.0078058392 0.63599998 -0.055755995 1.6588589e-38 313 290
-0.0066907196 0.63599998 -0.055755995 1.6496391e-38 314 290
-0.0055755996 0.63599998 -0.055755995 1.6127969e-38 315 290
-0.0044604796 0.63599998 -0.055755995 1.6035418e-38 316 290
-0.0033453598 0.63599998 -0.055755995 1.5758473e-38 317 290
-0.0022337467 0.63700002 -0.055843666 1.5482617e-38 318 290
-0.0011168733 0.63700002 -0.055843666 1.5574813e-38 319 290
0 0.63700002 -0.055843666 1.5298596e-38 320 290
0.0011168733 0.63700002 -0.055843666 1.5390792e-38 321 290
0.0022372534 0.63800001 -0.055931333 1.5299668e-38 322 290
0.00335588 0.63800001 -0.055931333 1.5299668e-38 323 290
0.0044885329 0.63999999 -0.056106664 1.5207472e-38 324 290
0.0056106662 0.63999999 -0.056106664 1.5115277e-38 325 290
0.0067327996 0.63999999 -0.056106664 1.5115624e-38 326 290
0.0078549329 0.63999999 -0.056106664 1.4839396e-38 327 290
0.0089910924 0.64099997 -0.056194331 1.5022708e-38 328 290
0.010114979 0.64099997 -0.056194331 1.5022708e-38 329 290
0.011238866 0.64099997 -0.056194331 1.4746482e-38 330 290
0.012362752 0.64099997 -0.056194331 1.4469535e-38 331 290
0.01350768 0.64200002 -0.056282002 1.4284772e-38 332 290
0.014656113 0.64300001 -0.056369666 1.4284772e-38 333 290
0.015783506 0.64300001 -0.056369666 1.4007479e-38 334 290
0.0169372 0.64399999 -0.056457333 1.3731251e-38 335 290
0.018066347 0.64399999 -0.056457333 1.2903305e-38 336 290
0.019255107 0.64600003 -0.056632672 1.2903305e-38 337 290
0.020387759 0.64600003 -0.056632672 1.2811485e-38 338 290
0.021553727 0.64700001 -0.056720335 1.2627093e-38 339 290
0.0227232 0.648 -0.056808002 1.2443425e-38 340 290
0.023896178 0.64899999 -0.056895666 1.2351228e-38 341 290
0.025072664 0.64999998 -0.056983333 1.2259751e-38 342 290
0.026212333 0.64999998 -0.056983333 1.2351949e-38 343 290
0.027478239 0.653 -0.057246335 1.2351593e-38 344 290
0.028666999 0.65399998 -0.057333998 1.2351593e-38 345 290
0.029813679 0.65399998 -0.057333998 1.2260482e-38 346 290
0.031007698 0.65499997 -0.057421666 1.2444513e-38 347 290
0.032156132 0.65499997 -0.057421666 1.2444513e-38 348 290
0.033406258 0.65700001 -0.057596996 1.2444513e-38 349 290
0.034610797 0.65799999 -0.057684667 1.2444513e-38 350 290
0.035818845 0.65899998 -0.057772331 1.2444513e-38 351 290
0.037086505 0.66100001 -0.057947662 1.22612e-38 352 290
0.038303319 0.662 -0.058035329 1.2353396e-38 353 290
0.039464023 0.662 -0.058035329 1.226121e-38 354 290
0.04062473 0.662 -0.058035329 1.2353765e-38 355 290
0.041785441 0.662 -0.058035329 1.1984646e-38 356 290
0.043011017 0.66299999 -0.058122993 1.1616223e-38 357 290
-0.031321548 0.63800001 -0.05704996 1.8248939e-38 292 291
-0.03020292 0.63800001 -0.05704996 1.7879796e-38 293 291
-0.029038707 0.63700002 -0.056960538 1.7603159e-38 294 291
-0.027921833 0.63700002 -0.056960538 1.7326212e-38 295 291
-0.026804959 0.63700002 -0.056960538 1.7877906e-38 296 291
-0.025688088 0.63700002 -0.056960538 1.8154491e-38 297 291
-0.024532638 0.63599998 -0.056871112 1.8247036e-38 298 291
-0.023417519 0.63599998 -0.056871112 1.8339232e-38 299 291
-0.022162134 0.63200003 -0.056513444 1.8339585e-38 300 291
-0.021054026 0.63200003 -0.056513444 1.8339585e-38 301 291
-0.019914359 0.63099998 -0.056424018 1.8339588e-38 302 291
-0.018808005 0.63099998 -0.056424018 1.8339588e-38 303 291
-0.017729707 0.63200003 -0.056513444 1.7878256e-38 304 291
-0.016621601 0.63200003 -0.056513444 1.7878256e-38 305 291
-0.015562586 0.634 -0.056692276 1.7419073e-38 306 291
-0.014450972 0.634 -0.056692276 1.7050649e-38 307 291
-0.0133604 0.63499999 -0.056781694 1.6865536e-38 308 291
-0.012227747 0.634 -0.056692276 1.6680785e-38 309 291
-0.011116133 0.634 -0.056692276 1.6496028e-38 310 291
-0.0100203 0.63499999 -0.056781694 1.6311278e-38 311 291
-0.0089069325 0.63499999 -0.056781694 1.5851378e-38 312 291
-0.0077935657 0.63499999 -0.056781694 1.5759182e-38 313 291
-0.0066801999 0.63499999 -0.056781694 1.5300006e-38 314 291
-0.0055668331 0.63499999 -0.056781694 1.520781e-38 315 291
-0.0044604796 0.63599998 -0.056871112 1.5023062e-38 316 291
-0.0033453598 0.63599998 -0.056871112 1.5023062e-38 317 291
-0.0022302398 0.63599998 -0.056871112 1.5113832e-38 318 291
-0.0011151199 0.63599998 -0.056871112 1.5113832e-38 319 291
0 0.63599998 -0.056871112 1.5021286e-38 320 291
0.0011168733 0.63700002 -0.056960538 1.5113482e-38 321 291
0.0022337467 0.63700002 -0.056960538 1.5113832e-38 322 291
0.00335588 0.63800001 -0.05704996 1.4929441e-38 323 291
0.0044745067 0.63800001 -0.05704996 1.4746482e-38 324 291
0.0056106662 0.63999999 -0.057228796 1.4746482e-38 325 291
0.0067327996 0.63999999 -0.057228796 1.4653556e-38 326 291
0.0078549329 0.63999999 -0.057228796 1.4376971e-38 327 291
0.0089910924 0.64099997 -0.057318214 1.4285497e-38 328 291
0.010114979 0.64099997 -0.057318214 1.4285497e-38 329 291
0.011238866 0.64099997 -0.057318214 1.3824516e-38 330 291
0.012362752 0.64099997 -0.057318214 1.3456093e-38 331 291
0.013486639 0.64099997 -0.057318214 1.3455367e-38 332 291
0.01463332 0.64200002 -0.05740764 1.3455367e-38 333 291
0.015783506 0.64300001 -0.057497058 1.2995132e-38 334 291
0.0169372 0.64399999 -0.057586476 1.3179163e-38 335 291
0.018066347 0.64399999 -0.057586476 1.2627086e-38 336 291
0.019255107 0.64600003 -0.057765324 1.2534891e-38 337 291
0.02041932 0.64700001 -0.057854742 1.2351225e-38 338 291
0.021553727 0.64700001 -0.057854742 1.225903e-38 339 291
0.0227232 0.648 -0.05794416 1.1984241e-38 340 291
0.023896178 0.64899999 -0.058033578 1.1984241e-38 341 291
0.025072664 0.64999998 -0.058122993 1.2076436e-38 342 291
0.026212333 0.64999998 -0.058122993 1.2168633e-38 343 291
0.027478239 0.653 -0.058391262 1.2169355e-38 344 291
0.028666999 0.65399998 -0.05848068 1.2169355e-38 345 291
0.029813679 0.65399998 -0.05848068 1.2169002e-38 346 291
0.030960357 0.65399998 -0.05848068 1.2261198e-38 347 291
0.032156132 0.65499997 -0.058570094 1.22612e-38 348 291
0.033457108 0.65799999 -0.058838356 1.2168646e-38 349 291
0.034663398 0.65899998 -0.058927774 1.2260126e-38 350 291
0.035818845 0.65899998 -0.058927774 1.2260126e-38 351 291
0.037086505 0.66100001 -0.059106622 1.2168652e-38 352 291
0.038303319 0.662 -0.05919604 1.2353043e-38 353 291
0.039464023 0.662 -0.05919604 1.180204e-38 354 291
0.04062473 0.662 -0.05919604 1.1432897e-38 355 291
0.041785441 0.662 -0.05919604 1.0787923e-38 356 291
-0.036798958 0.63599998 -0.057986237 1.8162915e-38 287 292
-0.035683837 0.63599998 -0.057986237 1.8347652e-38 288 292
-0.03456872 0.63599998 -0.057986237 1.8163262e-38 289 292
-0.032338478 0.63599998 -0.057986237 1.7238027e-38 291 292
-0.031223357 0.63599998 -0.057986237 1.7233648e-38 292 292
-0.030108238 0.63599998 -0.057986237 1.7233648e-38 293 292
-0.028993119 0.63599998 -0.057986237 1.7786429e-38 294 292
-0.027877998 0.63599998 -0.057986237 1.7878625e-38 295 292
-0.026762879 0.63599998 -0.057986237 1.8154489e-38 296 292
-0.025607431 0.63499999 -0.057895064 1.8246686e-38 297 292
-0.024455493 0.634 -0.057803888 1.8063727e-38 298 292
-0.02327024 0.63200003 -0.05762155 1.8063727e-38 299 292
-0.022162134 0.63200003 -0.05762155 1.8063727e-38 300 292
-0.021054026 0.63200003 -0.05762155 1.7971529e-38 301 292
-0.019914359 0.63099998 -0.057530373 1.7971527e-38 302 292
-0.018808005 0.63099998 -0.057530373 1.7971527e-38 303 292
-0.017701652 0.63099998 -0.057530373 1.760202e-38 304 292
-0.0165953 0.63099998 -0.057530373 1.7417627e-38 305 292
-0.015513494 0.63200003 -0.05762155 1.7142467e-38 306 292
-0.014405387 0.63200003 -0.05762155 1.6773686e-38 307 292
-0.013339359 0.634 -0.057803888 1.6404902e-38 308 292
-0.012227747 0.634 -0.057803888 1.6128316e-38 309 292
-0.011116133 0.634 -0.057803888 1.5668062e-38 310 292
-0.010004519 0.634 -0.057803888 1.5391476e-38 311 292
-0.0088929068 0.634 -0.057803888 1.5022706e-38 312 292
-0.0077935657 0.63499999 -0.057895064 1.5022706e-38 313 292
-0.0066801999 0.63499999 -0.057895064 1.4654652e-38 314 292
-0.0055668331 0.63499999 -0.057895064 1.4562456e-38 315 292
-0.0044534663 0.63499999 -0.057895064 1.4286958e-38 316 292
-0.0033400999 0.63499999 -0.057895064 1.4286958e-38 317 292
-0.0022302398 0.63599998 -0.057986237 1.4286252e-38 318 292
-0.0011151199 0.63599998 -0.057986237 1.4102221e-38 319 292
0 0.63599998 -0.057986237 1.4285536e-38 320 292
0.0011151199 0.63599998 -0.057986237 1.4285536e-38 321 292
0.0022337467 0.63700002 -0.058077414 1.4469905e-38 322 292
0.00335588 0.63800001 -0.05816859 1.4193676e-38 323 292
0.0044745067 0.63800001 -0.05816859 1.4377677e-38 324 292
0.0055931332 0.63800001 -0.05816859 1.4285481e-38 325 292
0.0067327996 0.63999999 -0.058350928 1.400962e-38 326 292
0.0078549329 0.63999999 -0.058350928 1.3824869e-38 327 292
0.0089770658 0.63999999 -0.058350928 1.3731967e-38 328 292
0.010114979 0.64099997 -0.058442101 1.345574e-38 329 292
0.011238866 0.64099997 -0.058442101 1.3179153e-38 330 292
0.012362752 0.64099997 -0.058442101 1.2994402e-38 331 292
0.013486639 0.64099997 -0.058442101 1.2902585e-38 332 292
0.01463332 0.64200002 -0.058533281 1.2902585e-38 333 292
0.015783506 0.64300001 -0.058624454 1.2626738e-38 334 292
0.0169372 0.64399999 -0.058715623 1.2626738e-38 335 292
0.018066347 0.64399999 -0.058715623 1.2259749e-38 336 292
0.019255107 0.64600003 -0.058897976 1.2167553e-38 337 292
0.02041932 0.64700001 -0.058989145 1.1983522e-38 338 292
0.021553727 0.64700001 -0.058989145 1.2167553e-38 339 292
0.0227232 0.648 -0.059080318 1.1800923e-38 340 292
0.023896178 0.64899999 -0.059171494 1.1800923e-38 341 292
0.025034092 0.64899999 -0.059171494 1.1893121e-38 342 292
0.026212333 0.64999998 -0.059262663 1.2077154e-38 343 292
0.027478239 0.653 -0.059536185 1.2169355e-38 344 292
0.028666999 0.65399998 -0.059627358 1.2261551e-38 345 292
0.029813679 0.65399998 -0.059627358 1.2261195e-38 346 292
0.030960357 0.65399998 -0.059627358 1.2261195e-38 347 292
0.032156132 0.65499997 -0.059718527 1.2168646e-38 348 292
0.033406258 0.65700001 -0.05990088 1.2168646e-38 349 292
0.034610797 0.65799999 -0.059992049 1.2076456e-38 350 292
0.035818845 0.65899998 -0.060083222 1.2076456e-38 351 292
0.037086505 0.66100001 -0.060265575 1.1709125e-38 352 292
0.038303319 0.662 -0.060356744 1.1709125e-38 353 292
0.039464023 0.662 -0.060356744 1.152404e-38 354 292
0.04062473 0.662 -0.060356744 1.1155617e-38 355 292
-0.037973695 0.63700002 -0.059194289 1.8163265e-38 286 293
-0.036798958 0.63599998 -0.059101358 1.8071069e-38 287 293
-0.035683837 0.63599998 -0.059101358 1.7793012e-38 288 293
-0.03456872 0.63599998 -0.059101358 1.696325e-38 289 293
-0.033453599 0.63599998 -0.059101358 1.7604246e-38 290 293
-0.032338478 0.63599998 -0.059101358 1.714327e-38 291 293
-0.031174263 0.63499999 -0.059008431 1.7694959e-38 292 293
-0.0300609 0.63499999 -0.059008431 1.7602764e-38 293 293
-0.028993119 0.63599998 -0.059101358 1.8062646e-38 294 293
-0.027834166 0.63499999 -0.059008431 1.8154842e-38 295 293
-0.0267208 0.63499999 -0.059008431 1.8154842e-38 296 293
-0.025567105 0.634 -0.058915507 1.8062646e-38 297 293
-0.024455493 0.634 -0.058915507 1.7971527e-38 298 293
-0.02327024 0.63200003 -0.058729656 1.7879331e-38 299 293
-0.022162134 0.63200003 -0.058729656 1.778713e-38 300 293
-0.021054026 0.63200003 -0.058729656 1.7694934e-38 301 293
-0.019914359 0.63099998 -0.058636725 1.7509457e-38 302 293
-0.018808005 0.63099998 -0.058636725 1.704848e-38 303 293
-0.017701652 0.63099998 -0.058636725 1.6404183e-38 304 293
-0.0165953 0.63099998 -0.058636725 1.6219431e-38 305 293
-0.015513494 0.63200003 -0.058729656 1.5759164e-38 306 293
-0.014405387 0.63200003 -0.058729656 1.5298186e-38 307 293
-0.01329728 0.63200003 -0.058729656 1.5204544e-38 308 293
-0.012227747 0.634 -0.058915507 1.5204544e-38 309 293
-0.011116133 0.634 -0.058915507 1.4195083e-38 310 293
-0.010004519 0.634 -0.058915507 1.4010333e-38 311 293
-0.0088929068 0.634 -0.058915507 1.3643374e-38 312 293
-0.0077812932 0.634 -0.058915507 1.3551178e-38 313 293
-0.0066696797 0.634 -0.058915507 1.4284793e-38 314 293
-0.0055668331 0.63499999 -0.059008431 1.4100762e-38 315 293
-0.0044534663 0.63499999 -0.059008431 1.4008564e-38 316 293
-0.0033400999 0.63499999 -0.059008431 1.4008564e-38 317 293
-0.0022267331 0.63499999 -0.059008431 1.4191876e-38 318 293
-0.0011133666 0.63499999 -0.059008431 1.4191876e-38 319 293
0 0.63499999 -0.059008431 1.4374835e-38 320 293
0.0011151199 0.63599998 -0.059101358 1.4190804e-38 321 293
0.0022302398 0.63599998 -0.059101358 1.4191157e-38 322 293
0.0033506199 0.63700002 -0.059194289 1.4006764e-38 323 293
0.0044745067 0.63800001 -0.059287209 1.3272418e-38 324 293
0.0055931332 0.63800001 -0.059287209 1.2903636e-38 325 293
0.0067327996 0.63999999 -0.05947306 1.2903638e-38 326 293
0.0078549329 0.63999999 -0.05947306 1.2719247e-38 327 293
0.0089770658 0.63999999 -0.05947306 1.2994407e-38 328 293
0.010114979 0.64099997 -0.059565991 1.2717822e-38 329 293
0.011238866 0.64099997 -0.059565991 1.2258289e-38 330 293
0.012362752 0.64099997 -0.059565991 1.244268e-38 331 293
0.013486639 0.64099997 -0.059565991 1.2717118e-38 332 293
0.01463332 0.64200002 -0.059658919 1.290115e-38 333 293
0.015783506 0.64300001 -0.059751842 1.2626368e-38 334 293
0.0169372 0.64399999 -0.05984477 1.2534172e-38 335 293
0.018066347 0.64399999 -0.05984477 1.2259383e-38 336 293
0.019255107 0.64600003 -0.060030628 1.2167187e-38 337 293
0.02041932 0.64700001 -0.060123552 1.1984594e-38 338 293
0.021553727 0.64700001 -0.060123552 1.1984594e-38 339 293
0.0227232 0.648 -0.060216483 1.1800923e-38 340 293
0.023896178 0.64899999 -0.060309403 1.1893119e-38 341 293
0.025034092 0.64899999 -0.060309403 1.207679e-38 342 293
0.026212333 0.64999998 -0.060402326 1.2168985e-38 343 293
0.027478239 0.653 -0.060681112 1.2168633e-38 344 293
0.028666999 0.65399998 -0.060774036 1.2260829e-38 345 293
0.029813679 0.65399998 -0.060774036 1.2260479e-38 346 293
0.030960357 0.65399998 -0.060774036 1.2168283e-38 347 293
0.032156132 0.65499997 -0.060866963 1.2167927e-38 348 293
0.033406258 0.65700001 -0.061052818 1.2167927e-38 349 293
0.034610797 0.65799999 -0.061145745 1.1800588e-38 350 293
0.035818845 0.65899998 -0.061238669 1.1800588e-38 351 293
0.036974292 0.65899998 -0.061238669 1.1432181e-38 352 293
-0.039090566 0.63700002 -0.060311161 1.8162912e-38 285 294
-0.037973695 0.63700002 -0.060311161 1.8805385e-38 286 294
-0.036798958 0.63599998 -0.060216475 1.806782e-38 287 294
-0.035683837 0.63599998 -0.060216475 1.7881206e-38 288 294
-0.03456872 0.63599998 -0.060216475 1.6959251e-38 289 294
-0.033400998 0.63499999 -0.060121801 1.7418367e-38 290 294
-0.032287631 0.63499999 -0.060121801 1.7418367e-38 291 294
-0.031174263 0.63499999 -0.060121801 1.7603464e-38 292 294
-0.0300609 0.63499999 -0.060121801 1.7696019e-38 293 294
-0.028947532 0.63499999 -0.060121801 1.7878259e-38 294 294
-0.027790332 0.634 -0.060027119 1.806229e-38 295 294
-0.026678719 0.634 -0.060027119 1.7878978e-38 296 294
-0.025486453 0.63200003 -0.059837762 1.7786782e-38 297 294
-0.024378346 0.63200003 -0.059837762 1.7418723e-38 298 294
-0.02327024 0.63200003 -0.059837762 1.7418723e-38 299 294
-0.022162134 0.63200003 -0.059837762 1.7051365e-38 300 294
-0.021020712 0.63099998 -0.059743073 1.6682584e-38 301 294
-0.019914359 0.63099998 -0.059743073 1.6590012e-38 302 294
-0.018808005 0.63099998 -0.059743073 1.6221589e-38 303 294
-0.017701652 0.63099998 -0.059743073 1.5851728e-38 304 294
-0.0165953 0.63099998 -0.059743073 1.5482947e-38 305 294
-0.015488946 0.63099998 -0.059743073 1.5206005e-38 306 294
-0.014382593 0.63099998 -0.059743073 1.4837583e-38 307 294
-0.013276239 0.63099998 -0.059743073 1.4285847e-38 308 294
-0.012169886 0.63099998 -0.059743073 1.400962e-38 309 294
-0.011063533 0.63099998 -0.059743073 1.364085e-38 310 294
-0.0099729598 0.63200003 -0.059837762 1.3825241e-38 311 294
-0.0088648535 0.63200003 -0.059837762 1.3365006e-38 312 294
-0.0077812932 0.634 -0.060027119 1.3272809e-38 313 294
-0.0066696797 0.634 -0.060027119 1.3273179e-38 314 294
-0.0055580665 0.634 -0.060027119 1.2996951e-38 315 294
-0.0044464534 0.634 -0.060027119 1.3088792e-38 316 294
-0.0033400999 0.63499999 -0.060121801 1.3088792e-38 317 294
-0.0022267331 0.63499999 -0.060121801 1.3271743e-38 318 294
-0.0011133666 0.63499999 -0.060121801 1.3455775e-38 319 294
0 0.63499999 -0.060121801 1.3178838e-38 320 294
0.0011133666 0.63499999 -0.060121801 1.3271034e-38 321 294
0.0022302398 0.63599998 -0.060216475 1.3179191e-38 322 294
0.0033506199 0.63700002 -0.060311161 1.29948e-38 323 294
0.0044745067 0.63800001 -0.060405839 1.2810757e-38 324 294
0.0055931332 0.63800001 -0.060405839 1.2626368e-38 325 294
0.0067117601 0.63800001 -0.060405839 1.2351225e-38 326 294
0.0078549329 0.63999999 -0.060595192 1.225903e-38 327 294
0.0089770658 0.63999999 -0.060595192 1.2442345e-38 328 294
0.010114979 0.64099997 -0.060689874 1.2350149e-38 329 294
0.011238866 0.64099997 -0.060689874 1.2166831e-38 330 294
0.012362752 0.64099997 -0.060689874 1.2166831e-38 331 294
0.013486639 0.64099997 -0.060689874 1.2167187e-38 332 294
0.01463332 0.64200002 -0.060784556 1.2259383e-38 333 294
0.015808053 0.64399999 -0.06097392 1.2167906e-38 334 294
0.0169372 0.64399999 -0.06097392 1.2167906e-38 335 294
0.018122453 0.64600003 -0.061163284 1.1983875e-38 336 294
0.019255107 0.64600003 -0.061163284 1.1983875e-38 337 294
0.02041932 0.64700001 -0.061257958 1.1984594e-38 338 294
0.021553727 0.64700001 -0.061257958 1.1984594e-38 339 294
0.0227232 0.648 -0.06135264 1.1893121e-38 340 294
0.023896178 0.64899999 -0.061447315 1.1893121e-38 341 294
0.025072664 0.64999998 -0.061541997 1.2076436e-38 342 294
0.026212333 0.64999998 -0.061541997 1.2168633e-38 343 294
0.02743616 0.65200001 -0.061731357 1.216828e-38 344 294
0.028623167 0.653 -0.061826039 1.216828e-38 345 294
0.029768093 0.653 -0.061826039 1.216793e-38 346 294
0.030960357 0.65399998 -0.061920714 1.216793e-38 347 294
0.03210704 0.65399998 -0.061920714 1.189207e-38 348 294
0.033406258 0.65700001 -0.06220476 1.189207e-38 349 294
0.034558199 0.65700001 -0.06220476 1.14329e-38 350 294
-0.040207442 0.63700002 -0.061428033 1.8346928e-38 284 295
-0.039090566 0.63700002 -0.061428033 1.7794112e-38 285 295
-0.037914075 0.63599998 -0.061331596 1.806669e-38 286 295
-0.036798958 0.63599998 -0.061331596 1.6683756e-38 287 295
-0.03562773 0.63499999 -0.061235163 1.7509512e-38 288 295
-0.034514364 0.63499999 -0.061235163 1.7509512e-38 289 295
-0.0333484 0.634 -0.06113873 1.7694962e-38 290 295
-0.032236785 0.634 -0.06113873 1.7602767e-38 291 295
-0.031125173 0.634 -0.06113873 1.760347e-38 292 295
-0.030013559 0.634 -0.06113873 1.760347e-38 293 295
-0.028901944 0.634 -0.06113873 1.7786061e-38 294 295
-0.027702669 0.63200003 -0.060945868 1.7786061e-38 295 295
-0.026594561 0.63200003 -0.060945868 1.7693862e-38 296 295
-0.025486453 0.63200003 -0.060945868 1.750947e-38 297 295
-0.024339773 0.63099998 -0.060849428 1.7141763e-38 298 295
-0.023233417 0.63099998 -0.060849428 1.7141763e-38 299 295
-0.022127066 0.63099998 -0.060849428 1.6496747e-38 300 295
-0.021020712 0.63099998 -0.060849428 1.5943573e-38 301 295
-0.0198828 0.63 -0.060752999 1.5391473e-38 302 295
-0.018778199 0.63 -0.060752999 1.4930495e-38 303 295
-0.017701652 0.63099998 -0.060849428 1.4653904e-38 304 295
-0.0165953 0.63099998 -0.060849428 1.4377677e-38 305 295
-0.015488946 0.63099998 -0.060849428 1.3917422e-38 306 295
-0.014382593 0.63099998 -0.060849428 1.373267e-38 307 295
-0.013276239 0.63099998 -0.060849428 1.3640122e-38 308 295
-0.012169886 0.63099998 -0.060849428 1.345609e-38 309 295
-0.011063533 0.63099998 -0.060849428 1.3179163e-38 310 295
-0.0099571794 0.63099998 -0.060849428 1.3271717e-38 311 295
-0.008850826 0.63099998 -0.060849428 1.2994797e-38 312 295
-0.0077812932 0.634 -0.06113873 1.2902601e-38 313 295
-0.0066696797 0.634 -0.06113873 1.2810406e-38 314 295
-0.0055580665 0.634 -0.06113873 1.2810406e-38 315 295
-0.0044464534 0.634 -0.06113873 1.2810755e-38 316 295
-0.0033400999 0.63499999 -0.061235163 1.2810755e-38 317 295
-0.0022267331 0.63499999 -0.061235163 1.3085544e-38 318 295
-0.0011133666 0.63499999 -0.061235163 1.2993348e-38 319 295
0 0.63499999 -0.061235163 1.2993351e-38 320 295
0.0011133666 0.63499999 -0.061235163 1.2901155e-38 321 295
0.0022267331 0.63499999 -0.061235163 1.2992629e-38 322 295
0.0033453598 0.63599998 -0.061331596 1.2716042e-38 323 295
0.0044674934 0.63700002 -0.061428033 1.2257582e-38 324 295
0.0055931332 0.63800001 -0.061524466 1.2349778e-38 325 295
0.0067117601 0.63800001 -0.061524466 1.2166466e-38 326 295
0.0078549329 0.63999999 -0.061717331 1.2166466e-38 327 295
0.0089770658 0.63999999 -0.061717331 1.2257938e-38 328 295
0.010114979 0.64099997 -0.061813761 1.2257938e-38 329 295
0.011238866 0.64099997 -0.061813761 1.2166822e-38 330 295
0.012362752 0.64099997 -0.061813761 1.2350853e-38 331 295
0.01350768 0.64200002 -0.061910201 1.2167184e-38 332 295
0.01463332 0.64200002 -0.061910201 1.2167184e-38 333 295
0.015808053 0.64399999 -0.062103063 1.2166831e-38 334 295
0.0169372 0.64399999 -0.062103063 1.2166831e-38 335 295
0.018122453 0.64600003 -0.062295936 1.2166831e-38 336 295
0.019255107 0.64600003 -0.062295936 1.2259027e-38 337 295
0.02041932 0.64700001 -0.062392361 1.1984241e-38 338 295
0.021553727 0.64700001 -0.062392361 1.1984241e-38 339 295
0.0227232 0.648 -0.062488798 1.2076083e-38 340 295
0.023896178 0.64899999 -0.062585227 1.2076083e-38 341 295
0.025072664 0.64999998 -0.062681668 1.2076083e-38 342 295
0.026212333 0.64999998 -0.062681668 1.216828e-38 343 295
0.02743616 0.65200001 -0.062874533 1.216828e-38 344 295
0.028623167 0.653 -0.062970966 1.216828e-38 345 295
0.029768093 0.653 -0.062970966 1.2075733e-38 346 295
0.030960357 0.65399998 -0.063067392 1.2075733e-38 347 295
0.03210704 0.65399998 -0.063067392 1.161549e-38 348 295
0.033253718 0.65399998 -0.063067392 1.1431459e-38 349 295
-0.041259438 0.63599998 -0.062446713 1.7886675e-38 283 296
-0.040144317 0.63599998 -0.062446713 1.8160706e-38 284 296
-0.038967833 0.63499999 -0.062348526 1.7146194e-38 285 296
-0.037854467 0.63499999 -0.062348526 1.7789328e-38 286 296
-0.0367411 0.63499999 -0.062348526 1.6406035e-38 287 296
-0.03562773 0.63499999 -0.062348526 1.7416921e-38 288 296
-0.034514364 0.63499999 -0.062348526 1.7693868e-38 289 296
-0.033243202 0.63200003 -0.062053975 1.7694234e-38 290 296
-0.032135095 0.63200003 -0.062053975 1.7694234e-38 291 296
-0.031026987 0.63200003 -0.062053975 1.7511269e-38 292 296
-0.029918881 0.63200003 -0.062053975 1.7419073e-38 293 296
-0.028810775 0.63200003 -0.062053975 1.7601667e-38 294 296
-0.027658831 0.63099998 -0.061955784 1.750947e-38 295 296
-0.026552478 0.63099998 -0.061955784 1.7141763e-38 296 296
-0.025446124 0.63099998 -0.061955784 1.6865536e-38 297 296
-0.024301199 0.63 -0.061857596 1.6589664e-38 298 296
-0.023196599 0.63 -0.061857596 1.6128687e-38 299 296
-0.022092 0.63 -0.061857596 1.5668431e-38 300 296
-0.020987399 0.63 -0.061857596 1.5115257e-38 301 296
-0.0198828 0.63 -0.061857596 1.4746832e-38 302 296
-0.018778199 0.63 -0.061857596 1.4377689e-38 303 296
-0.017673599 0.63 -0.061857596 1.4009267e-38 304 296
-0.016569 0.63 -0.061857596 1.3824516e-38 305 296
-0.015464399 0.63 -0.061857596 1.345574e-38 306 296
-0.014382593 0.63099998 -0.061955784 1.3363544e-38 307 296
-0.013276239 0.63099998 -0.061955784 1.2903285e-38 308 296
-0.012169886 0.63099998 -0.061955784 1.2903285e-38 309 296
-0.011063533 0.63099998 -0.061955784 1.2627071e-38 310 296
-0.0099571794 0.63099998 -0.061955784 1.2534875e-38 311 296
-0.008850826 0.63099998 -0.061955784 1.2258677e-38 312 296
-0.0077444729 0.63099998 -0.061955784 1.2166481e-38 313 296
-0.0066486401 0.63200003 -0.062053975 1.2074288e-38 314 296
-0.0055405335 0.63200003 -0.062053975 1.1981734e-38 315 296
-0.0044324268 0.63200003 -0.062053975 1.2166118e-38 316 296
-0.0033348398 0.634 -0.062250346 1.2350149e-38 317 296
-0.0022232267 0.634 -0.062250346 1.2349428e-38 318 296
-0.0011116134 0.634 -0.062250346 1.2349428e-38 319 296
0 0.63499999 -0.062348526 1.2349428e-38 320 296
0.0011133666 0.63499999 -0.062348526 1.2257232e-38 321 296
0.0022267331 0.63499999 -0.062348526 1.2257229e-38 322 296
0.0033453598 0.63599998 -0.062446713 1.2349783e-38 323 296
0.0044604796 0.63599998 -0.062446713 1.2166466e-38 324 296
0.0055755996 0.63599998 -0.062446713 1.207427e-38 325 296
0.0067117601 0.63800001 -0.062643096 1.2074623e-38 326 296
0.007830387 0.63800001 -0.062643096 1.2074623e-38 327 296
0.0089770658 0.63999999 -0.062839463 1.198207e-38 328 296
0.010114979 0.64099997 -0.062937655 1.198207e-38 329 296
0.011238866 0.64099997 -0.062937655 1.1982793e-38 330 296
0.012362752 0.64099997 -0.062937655 1.1982793e-38 331 296
0.01350768 0.64200002 -0.063035838 1.1982443e-38 332 296
0.01463332 0.64200002 -0.063035838 1.2074639e-38 333 296
0.015808053 0.64399999 -0.063232213 1.2074283e-38 334 296
0.016989801 0.64600003 -0.063428588 1.2166837e-38 335 296
0.018122453 0.64600003 -0.063428588 1.189097e-38 336 296
0.019255107 0.64600003 -0.063428588 1.1983166e-38 337 296
0.02041932 0.64700001 -0.063526772 1.1983885e-38 338 296
0.02158704 0.648 -0.063624963 1.1983885e-38 339 296
0.0227232 0.648 -0.063624963 1.1983888e-38 340 296
0.023896178 0.64899999 -0.063723139 1.1983888e-38 341 296
0.025072664 0.64999998 -0.063821331 1.1891692e-38 342 296
0.026212333 0.64999998 -0.063821331 1.1983888e-38 343 296
0.02743616 0.65200001 -0.064017706 1.198389e-38 344 296
0.028623167 0.653 -0.064115889 1.198389e-38 345 296
0.029768093 0.653 -0.064115889 1.1707676e-38 346 296
0.030960357 0.65399998 -0.064214081 1.1615122e-38 347 296
0.03210704 0.65399998 -0.064214081 1.1062696e-38 348 296
-0.043352917 0.634 -0.063361958 1.8163268e-38 281 297
-0.042241305 0.634 -0.063361958 1.8622047e-38 282 297
-0.041194562 0.63499999 -0.0634619 1.7608254e-38 283 297
-0.040018078 0.634 -0.063361958 1.7329439e-38 284 297
-0.038906466 0.634 -0.063361958 1.6315287e-38 285 297
-0.037794851 0.634 -0.063361958 1.7143209e-38 286 297
-0.0367411 0.63499999 -0.0634619 1.7051012e-38 287 297
-0.03562773 0.63499999 -0.0634619 1.7234325e-38 288 297
-0.034460012 0.634 -0.063361958 1.7234325e-38 289 297
-0.033243202 0.63200003 -0.063162081 1.7234325e-38 290 297
-0.032135095 0.63200003 -0.063162081 1.732688e-38 291 297
-0.031026987 0.63200003 -0.063162081 1.7326157e-38 292 297
-0.029776858 0.62900001 -0.062862262 1.7326157e-38 293 297
-0.028674012 0.62900001 -0.062862262 1.7233593e-38 294 297
-0.027571166 0.62900001 -0.062862262 1.7049202e-38 295 297
-0.02646832 0.62900001 -0.062862262 1.6864801e-38 296 297
-0.025365472 0.62900001 -0.062862262 1.6496378e-38 297 297
-0.024262626 0.62900001 -0.062862262 1.6036489e-38 298 297
-0.02315978 0.62900001 -0.062862262 1.5575511e-38 299 297
-0.022056932 0.62900001 -0.062862262 1.4931589e-38 300 297
-0.020954086 0.62900001 -0.062862262 1.428622e-38 301 297
-0.019851239 0.62900001 -0.062862262 1.4285497e-38 302 297
-0.018778199 0.63 -0.062962197 1.3824518e-38 303 297
-0.017673599 0.63 -0.062962197 1.3455743e-38 304 297
-0.016569 0.63 -0.062962197 1.3363547e-38 305 297
-0.015464399 0.63 -0.062962197 1.2811108e-38 306 297
-0.014359799 0.63 -0.062962197 1.2811108e-38 307 297
-0.013255199 0.63 -0.062962197 1.2441974e-38 308 297
-0.0121506 0.63 -0.062962197 1.2349778e-38 309 297
-0.011046 0.63 -0.062962197 1.198244e-38 310 297
-0.0099414 0.63 -0.062962197 1.1798409e-38 311 297
-0.0088367993 0.63 -0.062962197 1.1797703e-38 312 297
-0.0077444729 0.63099998 -0.063062139 1.1705506e-38 313 297
-0.0066381195 0.63099998 -0.063062139 1.1796978e-38 314 297
-0.0055405335 0.63200003 -0.063162081 1.1796978e-38 315 297
-0.0044324268 0.63200003 -0.063162081 1.1889524e-38 316 297
-0.0033348398 0.634 -0.063361958 1.1889524e-38 317 297
-0.0022232267 0.634 -0.063361958 1.1980998e-38 318 297
-0.0011116134 0.634 -0.063361958 1.1980998e-38 319 297
0 0.63499999 -0.0634619 1.1981351e-38 320 297
0.0011133666 0.63499999 -0.0634619 1.1981351e-38 321 297
0.0022267331 0.63499999 -0.0634619 1.1889872e-38 322 297
0.0033453598 0.63599998 -0.063561834 1.1982426e-38 323 297
0.0044604796 0.63599998 -0.063561834 1.1982423e-38 324 297
0.0055755996 0.63599998 -0.063561834 1.1982423e-38 325 297
0.0067012399 0.63700002 -0.063661784 1.2166091e-38 326 297
0.007830387 0.63800001 -0.063761719 1.2166091e-38 327 297
0.0089770658 0.63999999 -0.063961595 1.1889872e-38 328 297
0.010114979 0.64099997 -0.064061537 1.1889872e-38 329 297
0.011238866 0.64099997 -0.064061537 1.1614732e-38 330 297
0.012362752 0.64099997 -0.064061537 1.1614732e-38 331 297
0.01350768 0.64200002 -0.064161479 1.1798056e-38 332 297
0.014656113 0.64300001 -0.064261422 1.2074283e-38 333 297
0.015808053 0.64399999 -0.064361356 1.198209e-38 334 297
0.016989801 0.64600003 -0.06456124 1.2074285e-38 335 297
0.018122453 0.64600003 -0.06456124 1.1890973e-38 336 297
0.019284913 0.64700001 -0.064661182 1.1890973e-38 337 297
0.02041932 0.64700001 -0.064661182 1.1799496e-38 338 297
0.02158704 0.648 -0.064761117 1.1799496e-38 339 297
0.022758266 0.64899999 -0.064861059 1.1799496e-38 340 297
0.023896178 0.64899999 -0.064861059 1.1799496e-38 341 297
0.025072664 0.64999998 -0.064960994 1.1615828e-38 342 297
0.026212333 0.64999998 -0.064960994 1.1615828e-38 343 297
0.027478239 0.653 -0.06526082 1.1614756e-38 344 297
0.028623167 0.653 -0.06526082 1.1614756e-38 345 297
0.029768093 0.653 -0.06526082 1.1246715e-38 346 297
-0.044324268 0.63200003 -0.064270191 1.8253283e-38 280 298
-0.043216161 0.63200003 -0.064270191 1.7331687e-38 281 298
-0.042108051 0.63200003 -0.064270191 1.7237634e-38 282 298
-0.040999945 0.63200003 -0.064270191 1.6407515e-38 283 298
-0.039891839 0.63200003 -0.064270191 1.6866271e-38 284 298
-0.038783733 0.63200003 -0.064270191 1.6589685e-38 285 298
-0.037675627 0.63200003 -0.064270191 1.6866974e-38 286 298
-0.03656752 0.63200003 -0.064270191 1.695917e-38 287 298
-0.035459414 0.63200003 -0.064270191 1.7233962e-38 288 298
-0.034351308 0.63200003 -0.064270191 1.7233962e-38 289 298
-0.033243202 0.63200003 -0.064270191 1.7233959e-38 290 298
-0.032084245 0.63099998 -0.06416849 1.7141763e-38 291 298
-0.030879704 0.62900001 -0.063965112 1.7049565e-38 292 298
-0.029729521 0.62800002 -0.063863412 1.7049565e-38 293 298
-0.028628428 0.62800002 -0.063863412 1.6588221e-38 294 298
-0.027527334 0.62800002 -0.063863412 1.6496025e-38 295 298
-0.026426241 0.62800002 -0.063863412 1.6219068e-38 296 298
-0.025325146 0.62800002 -0.063863412 1.5942123e-38 297 298
-0.024224052 0.62800002 -0.063863412 1.548295e-38 298 298
