# .PCD v.7 - Point Cloud Data file format
FIELDS x y z rgb imX imY
SIZE 4 4 4 4 4 4
TYPE F F F F F F
COUNT 1 1 1 1 1 1
WIDTH 837
HEIGHT 1
VIEWPOINT 0 0 0 1 0 0 0
POINTS 837
DATA ascii
0.054521654 0.676 -0.047410134 1.3276119e-38 366 280
0.055706903 0.676 -0.047410134 1.2906978e-38 367 280
0.056892153 0.676 -0.047410134 1.1989375e-38 368 280
0.0045516533 0.64899999 -0.046654444 1.806596e-38 324 281
0.0056895665 0.64899999 -0.046654444 1.6959973e-38 325 281
0.0068169599 0.648 -0.046582561 1.7694609e-38 326 281
0.0079531204 0.648 -0.046582561 1.7694609e-38 327 281
0.0090892799 0.648 -0.046582561 1.7971541e-38 328 281
0.010225439 0.648 -0.046582561 1.7971541e-38 329 281
0.011344067 0.64700001 -0.046510674 1.8064089e-38 330 281
0.012478473 0.64700001 -0.046510674 1.8156285e-38 331 281
0.013612879 0.64700001 -0.046510674 1.8248837e-38 332 281
0.014747286 0.64700001 -0.046510674 1.8248837e-38 333 281
0.015906241 0.648 -0.046582561 1.8432152e-38 334 281
0.0170424 0.648 -0.046582561 1.8432152e-38 335 281
0.018206613 0.64899999 -0.046654444 1.8339953e-38 336 281
0.019344525 0.64899999 -0.046654444 1.7971529e-38 337 281
0.02048244 0.64899999 -0.046654444 1.7878609e-38 338 281
0.021620352 0.64899999 -0.046654444 1.7694218e-38 339 281
0.022758266 0.64899999 -0.046654444 1.760202e-38 340 281
0.023932999 0.64999998 -0.046726331 1.7509823e-38 341 281
0.025072664 0.64999998 -0.046726331 1.7233959e-38 342 281
0.026212333 0.64999998 -0.046726331 1.7049568e-38 343 281
0.027351998 0.64999998 -0.046726331 1.6590038e-38 344 281
0.028579334 0.65200001 -0.046870105 1.6497843e-38 345 281
0.029768093 0.653 -0.046941992 1.6680435e-38 346 281
0.030960357 0.65399998 -0.047013879 1.6588239e-38 347 281
0.03210704 0.65399998 -0.047013879 1.631345e-38 348 281
0.033253718 0.65399998 -0.047013879 1.6220896e-38 349 281
0.034452997 0.65499997 -0.047085766 1.594504e-38 350 281
0.03560143 0.65499997 -0.047085766 1.5852486e-38 351 281
0.036862079 0.65700001 -0.04722954 1.5576625e-38 352 281
0.038129739 0.65899998 -0.04737331 1.5484429e-38 353 281
0.039285187 0.65899998 -0.04737331 1.5116003e-38 354 281
0.040563367 0.66100001 -0.047517084 1.4931611e-38 355 281
0.04172232 0.66100001 -0.047517084 1.4103296e-38 356 281
0.042881273 0.66100001 -0.047517084 1.3734513e-38 357 281
0.044240102 0.66399997 -0.047732744 1.3550137e-38 358 281
0.045404319 0.66399997 -0.047732744 1.3366106e-38 359 281
0.046708796 0.66600001 -0.047876518 1.3274276e-38 360 281
0.047948405 0.667 -0.047948405 1.3274276e-38 361 281
0.049486078 0.67199999 -0.04830784 1.2999134e-38 362 281
0.050815105 0.67400002 -0.048451614 1.309133e-38 363 281
0.052074 0.67500001 -0.048523501 1.2999861e-38 364 281
0.053257499 0.67500001 -0.048523501 1.3276088e-38 365 281
0.054521654 0.676 -0.048595384 1.3184283e-38 366 281
0.055706903 0.676 -0.048595384 1.2078296e-38 367 281
0.0022547867 0.64300001 -0.047350518 1.8526965e-38 322 282
0.0045376266 0.64700001 -0.047645077 1.7696424e-38 324 282
0.0056720334 0.64700001 -0.047645077 1.6958859e-38 325 282
0.00679592 0.64600003 -0.047571443 1.7878625e-38 326 282
0.0079285735 0.64600003 -0.047571443 1.797082e-38 327 282
0.0090612266 0.64600003 -0.047571443 1.7971897e-38 328 282
0.01019388 0.64600003 -0.047571443 1.7971897e-38 329 282
0.011326533 0.64600003 -0.047571443 1.8156641e-38 330 282
0.012459187 0.64600003 -0.047571443 1.8248837e-38 331 282
0.01359184 0.64600003 -0.047571443 1.8248837e-38 332 282
0.014724494 0.64600003 -0.047571443 1.8248837e-38 333 282
0.015881693 0.64700001 -0.047645077 1.8432149e-38 334 282
0.0170161 0.64700001 -0.047645077 1.8155922e-38 335 282
0.018150507 0.64700001 -0.047645077 1.8063727e-38 336 282
0.019314719 0.648 -0.047718719 1.7786779e-38 337 282
0.020450879 0.648 -0.047718719 1.7510553e-38 338 282
0.02158704 0.648 -0.047718719 1.732616e-38 339 282
0.022758266 0.64899999 -0.047792356 1.7050649e-38 340 282
0.023896178 0.64899999 -0.047792356 1.6958095e-38 341 282
0.025034092 0.64899999 -0.047792356 1.6773704e-38 342 282
0.026212333 0.64999998 -0.047865998 1.6589311e-38 343 282
0.027351998 0.64999998 -0.047865998 1.6313094e-38 344 282
0.028579334 0.65200001 -0.048013281 1.6220899e-38 345 282
0.029722504 0.65200001 -0.048013281 1.5945038e-38 346 282
0.03091302 0.653 -0.048086919 1.5945038e-38 347 282
0.03210704 0.65399998 -0.048160557 1.5852842e-38 348 282
0.033253718 0.65399998 -0.048160557 1.5852842e-38 349 282
0.034400396 0.65399998 -0.048160557 1.5576981e-38 350 282
0.03560143 0.65499997 -0.048234195 1.5484427e-38 351 282
0.036749862 0.65499997 -0.048234195 1.5208564e-38 352 282
0.038071878 0.65799999 -0.048455119 1.5024173e-38 353 282
0.039225571 0.65799999 -0.048455119 1.4655748e-38 354 282
0.04044063 0.65899998 -0.048528757 1.4378801e-38 355 282
0.04172232 0.66100001 -0.04867604 1.373488e-38 356 282
0.042881273 0.66100001 -0.04867604 1.3366456e-38 357 282
0.044173479 0.66299999 -0.048823316 1.3274276e-38 358 282
0.045404319 0.66399997 -0.048896957 1.3182081e-38 359 282
0.046708796 0.66600001 -0.04904424 1.2998415e-38 360 282
0.047948405 0.667 -0.049117878 1.2998415e-38 361 282
0.049412437 0.671 -0.049412437 1.2998778e-38 362 282
0.050815105 0.67400002 -0.049633358 1.3090974e-38 363 282
0.051996857 0.67400002 -0.049633358 1.3183545e-38 364 282
0.053178601 0.67400002 -0.049633358 1.2999155e-38 365 282
0.054521654 0.676 -0.049780637 1.2355974e-38 366 282
0.0011273933 0.64300001 -0.04847791 1.751461e-38 321 283
0.0022547867 0.64300001 -0.04847791 1.7510963e-38 322 283
0.0033821799 0.64300001 -0.04847791 1.7326212e-38 323 283
0.0045165867 0.64399999 -0.048553303 1.7695315e-38 324 283
0.0056457333 0.64399999 -0.048553303 1.7695315e-38 325 283
0.0067748795 0.64399999 -0.048553303 1.7971897e-38 326 283
0.0079040267 0.64399999 -0.048553303 1.7971897e-38 327 283
0.0090331733 0.64399999 -0.048553303 1.8063371e-38 328 283
0.01016232 0.64399999 -0.048553303 1.8063371e-38 329 283
0.011273934 0.64300001 -0.04847791 1.8155566e-38 330 283
0.012401327 0.64300001 -0.04847791 1.8155566e-38 331 283
0.01352872 0.64300001 -0.04847791 1.8155569e-38 332 283
0.014656113 0.64300001 -0.04847791 1.8155569e-38 333 283
0.015808053 0.64399999 -0.048553303 1.8247389e-38 334 283
0.016989801 0.64600003 -0.048704095 1.8062996e-38 335 283
0.018122453 0.64600003 -0.048704095 1.7786764e-38 336 283
0.019255107 0.64600003 -0.048704095 1.7602373e-38 337 283
0.02041932 0.64700001 -0.048779488 1.7232887e-38 338 283
0.021553727 0.64700001 -0.048779488 1.7140691e-38 339 283
0.0227232 0.648 -0.04885488 1.6680791e-38 340 283
0.023896178 0.64899999 -0.048930272 1.6680791e-38 341 283
0.025034092 0.64899999 -0.048930272 1.6220899e-38 342 283
0.026172007 0.64899999 -0.048930272 1.6036867e-38 343 283
0.027309919 0.64899999 -0.048930272 1.5944316e-38 344 283
0.028491667 0.64999998 -0.049005665 1.5944316e-38 345 283
0.029722504 0.65200001 -0.049156453 1.5760643e-38 346 283
0.030865679 0.65200001 -0.049156453 1.5760643e-38 347 283
0.032057945 0.653 -0.049231846 1.5576612e-38 348 283
0.033202872 0.653 -0.049231846 1.5484415e-38 349 283
0.034400396 0.65399998 -0.049307238 1.520927e-38 350 283
0.035547078 0.65399998 -0.049307238 1.5117075e-38 351 283
0.036693759 0.65399998 -0.049307238 1.4840495e-38 352 283
0.037898298 0.65499997 -0.049382631 1.4655745e-38 353 283
0.039165959 0.65700001 -0.049533416 1.410294e-38 354 283
0.040379263 0.65799999 -0.049608808 1.3734516e-38 355 283
0.041596077 0.65899998 -0.049684204 1.3366822e-38 356 283
0.042881273 0.66100001 -0.049834993 1.3182431e-38 357 283
0.044173479 0.66299999 -0.049985778 1.2998412e-38 358 283
0.045404319 0.66399997 -0.05006117 1.2998412e-38 359 283
0.046708796 0.66600001 -0.050211959 1.2998415e-38 360 283
0.047948405 0.667 -0.050287351 1.2998415e-38 361 283
0.049338799 0.67000002 -0.050513536 1.2998778e-38 362 283
0.050664317 0.67199999 -0.050664317 1.3090974e-38 363 283
0.051842555 0.67199999 -0.050664317 1.318247e-38 364 283
0.053178601 0.67400002 -0.050815105 1.2905882e-38 365 283
-0.0011238866 0.64099997 -0.049451008 1.7791213e-38 319 284
0 0.64099997 -0.049451008 1.7697172e-38 320 284
0.0022547867 0.64300001 -0.049605306 1.7602411e-38 322 284
0.0033821799 0.64300001 -0.049605306 1.7694606e-38 323 284
0.00450256 0.64200002 -0.049528159 1.7788582e-38 324 284
0.0056281998 0.64200002 -0.049528159 1.7788582e-38 325 284
0.00675384 0.64200002 -0.049528159 1.8064089e-38 326 284
0.0078672068 0.64099997 -0.049451008 1.8064089e-38 327 284
0.0089910924 0.64099997 -0.049451008 1.8063373e-38 328 284
0.01014654 0.64300001 -0.049605306 1.8063373e-38 329 284
0.0112564 0.64200002 -0.049528159 1.8063373e-38 330 284
0.01238204 0.64200002 -0.049528159 1.7971176e-38 331 284
0.01350768 0.64200002 -0.049528159 1.7971174e-38 332 284
0.01463332 0.64200002 -0.049528159 1.7786782e-38 333 284
0.01575896 0.64200002 -0.049528159 1.7602373e-38 334 284
0.016910899 0.64300001 -0.049605306 1.741798e-38 335 284
0.018038293 0.64300001 -0.049605306 1.7141395e-38 336 284
0.019195493 0.64399999 -0.049682453 1.7049199e-38 337 284
0.02032464 0.64399999 -0.049682453 1.6588589e-38 338 284
0.021520413 0.64600003 -0.049836747 1.6496394e-38 339 284
0.022688134 0.64700001 -0.049913891 1.6403845e-38 340 284
0.023822539 0.64700001 -0.049913891 1.6403845e-38 341 284
0.024995521 0.648 -0.049991041 1.6127987e-38 342 284
0.02613168 0.648 -0.049991041 1.6035432e-38 343 284
0.027309919 0.64899999 -0.050068185 1.585212e-38 344 284
0.028491667 0.64999998 -0.050145328 1.5759925e-38 345 284
0.029631332 0.64999998 -0.050145328 1.5576608e-38 346 284
0.030770998 0.64999998 -0.050145328 1.5484412e-38 347 284
0.032008853 0.65200001 -0.050299626 1.5208549e-38 348 284
0.033152029 0.65200001 -0.050299626 1.5116353e-38 349 284
0.034347799 0.653 -0.050376773 1.4840845e-38 350 284
0.035547078 0.65399998 -0.050453916 1.4471702e-38 351 284
0.036693759 0.65399998 -0.050453916 1.4011447e-38 352 284
0.037898298 0.65499997 -0.050531063 1.3735219e-38 353 284
0.039046731 0.65499997 -0.050531063 1.3643036e-38 354 284
0.0403179 0.65700001 -0.050685361 1.3182059e-38 355 284
0.041596077 0.65899998 -0.050839648 1.3089879e-38 356 284
0.042881273 0.66100001 -0.050993945 1.3089879e-38 357 284
0.044106852 0.662 -0.051071092 1.2814021e-38 358 284
0.045404319 0.66399997 -0.051225383 1.2906217e-38 359 284
0.046708796 0.66600001 -0.051379681 1.2722904e-38 360 284
0.047948405 0.667 -0.051456824 1.2906936e-38 361 284
0.049338799 0.67000002 -0.051688269 1.290658e-38 362 284
0.050588924 0.671 -0.051765412 1.2999134e-38 363 284
0.051765412 0.671 -0.051765412 1.2814409e-38 364 284
0.053020798 0.67199999 -0.051842555 1.216904e-38 365 284
-0.0022477731 0.64099997 -0.050574899 1.7789733e-38 318 285
-0.0011238866 0.64099997 -0.050574899 1.6867777e-38 319 285
0 0.64099997 -0.050574899 1.7234707e-38 320 285
0.0011238866 0.64099997 -0.050574899 1.7326903e-38 321 285
0.0022477731 0.64099997 -0.050574899 1.7787861e-38 322 285
0.00337692 0.64200002 -0.0506538 1.7971894e-38 323 285
0.00450256 0.64200002 -0.0506538 1.7971894e-38 324 285
0.0056194332 0.64099997 -0.050574899 1.8064089e-38 325 285
0.0067433193 0.64099997 -0.050574899 1.8155566e-38 326 285
0.0078672068 0.64099997 -0.050574899 1.8155566e-38 327 285
0.0089910924 0.64099997 -0.050574899 1.8063376e-38 328 285
0.01013076 0.64200002 -0.0506538 1.797082e-38 329 285
0.011238866 0.64099997 -0.050574899 1.7695313e-38 330 285
0.012362752 0.64099997 -0.050574899 1.7510921e-38 331 285
0.013486639 0.64099997 -0.050574899 1.7601667e-38 332 285
0.014610525 0.64099997 -0.050574899 1.750947e-38 333 285
0.015734414 0.64099997 -0.050574899 1.6958451e-38 334 285
0.016884599 0.64200002 -0.0506538 1.6773701e-38 335 285
0.01801024 0.64200002 -0.0506538 1.6588955e-38 336 285
0.019165685 0.64300001 -0.050732698 1.6220533e-38 337 285
0.020293079 0.64300001 -0.050732698 1.6220177e-38 338 285
0.021453787 0.64399999 -0.050811596 1.6127981e-38 339 285
0.022653066 0.64600003 -0.0509694 1.6127987e-38 340 285
0.023785722 0.64600003 -0.0509694 1.5943237e-38 341 285
0.024918374 0.64600003 -0.0509694 1.5576256e-38 342 285
0.026091354 0.64700001 -0.051048297 1.5484059e-38 343 285
0.027225759 0.64700001 -0.051048297 1.5208551e-38 344 285
0.028447833 0.64899999 -0.051206097 1.5392583e-38 345 285
0.029631332 0.64999998 -0.051284995 1.5024879e-38 346 285
0.030770998 0.64999998 -0.051284995 1.5024879e-38 347 285
0.031910665 0.64999998 -0.051284995 1.4748294e-38 348 285
0.033050328 0.64999998 -0.051284995 1.4656098e-38 349 285
0.034347799 0.653 -0.0515217 1.4379504e-38 350 285
0.035492726 0.653 -0.0515217 1.4011082e-38 351 285
0.036693759 0.65399998 -0.051600594 1.3550475e-38 352 285
0.037898298 0.65499997 -0.051679496 1.3457921e-38 353 285
0.039046731 0.65499997 -0.051679496 1.3182075e-38 354 285
0.040195163 0.65499997 -0.051679496 1.2905848e-38 355 285
0.04153296 0.65799999 -0.051916201 1.272182e-38 356 285
0.042751525 0.65899998 -0.051995095 1.272182e-38 357 285
0.043906972 0.65899998 -0.051995095 1.2721823e-38 358 285
0.045404319 0.66399997 -0.052389596 1.2906214e-38 359 285
0.046708796 0.66600001 -0.052547399 1.2722904e-38 360 285
0.047948405 0.667 -0.052626297 1.2722904e-38 361 285
0.049338799 0.67000002 -0.052863002 1.2631075e-38 362 285
0.050588924 0.671 -0.052941896 1.272327e-38 363 285
0.051765412 0.671 -0.052941896 1.2353801e-38 364 285
0.052941896 0.671 -0.052941896 1.1708432e-38 365 285
-0.0044674934 0.63700002 -0.051376175 1.7422045e-38 316 286
-0.0033506199 0.63700002 -0.051376175 1.6684122e-38 317 286
-0.0022477731 0.64099997 -0.051698782 1.7694629e-38 318 286
-0.0011238866 0.64099997 -0.051698782 1.7786824e-38 319 286
0 0.64099997 -0.051698782 1.7787155e-38 320 286
0.0011238866 0.64099997 -0.051698782 1.7787155e-38 321 286
0.0022477731 0.64099997 -0.051698782 1.7971894e-38 322 286
0.0033716597 0.64099997 -0.051698782 1.8064089e-38 323 286
0.0044955462 0.64099997 -0.051698782 1.8064445e-38 324 286
0.0056194332 0.64099997 -0.051698782 1.8064445e-38 325 286
0.0067433193 0.64099997 -0.051698782 1.8064445e-38 326 286
0.0078549329 0.63999999 -0.051618129 1.8064445e-38 327 286
0.0089770658 0.63999999 -0.051618129 1.7878981e-38 328 286
0.010114979 0.64099997 -0.051698782 1.7786426e-38 329 286
0.011238866 0.64099997 -0.051698782 1.7510197e-38 330 286
0.012362752 0.64099997 -0.051698782 1.7233609e-38 331 286
0.013486639 0.64099997 -0.051698782 1.7049214e-38 332 286
0.014610525 0.64099997 -0.051698782 1.6865183e-38 333 286
0.015734414 0.64099997 -0.051698782 1.6404571e-38 334 286
0.016858298 0.64099997 -0.051698782 1.6312375e-38 335 286
0.01801024 0.64200002 -0.051779442 1.6494969e-38 336 286
0.019135879 0.64200002 -0.051779442 1.6310577e-38 337 286
0.020261521 0.64200002 -0.051779442 1.6035786e-38 338 286
0.021420473 0.64300001 -0.051860094 1.5943589e-38 339 286
0.022582933 0.64399999 -0.051940747 1.5668078e-38 340 286
0.023785722 0.64600003 -0.052102055 1.5668078e-38 341 286
0.024918374 0.64600003 -0.052102055 1.5391851e-38 342 286
0.026051028 0.64600003 -0.052102055 1.5391851e-38 343 286
0.027225759 0.64700001 -0.052182708 1.52993e-38 344 286
0.028404001 0.648 -0.05226336 1.52993e-38 345 286
0.029585747 0.64899999 -0.052344013 1.5207826e-38 346 286
0.030723657 0.64899999 -0.052344013 1.4839043e-38 347 286
0.031910665 0.64999998 -0.052424666 1.4654652e-38 348 286
0.033050328 0.64999998 -0.052424666 1.4193674e-38 349 286
0.034295198 0.65200001 -0.052585974 1.3734137e-38 350 286
0.035438374 0.65200001 -0.052585974 1.3365356e-38 351 286
0.036693759 0.65399998 -0.052747279 1.3089144e-38 352 286
0.037898298 0.65499997 -0.052827932 1.3089144e-38 353 286
0.039046731 0.65499997 -0.052827932 1.2996965e-38 354 286
0.040195163 0.65499997 -0.052827932 1.2904768e-38 355 286
0.041469838 0.65700001 -0.052989237 1.2538143e-38 356 286
0.042751525 0.65899998 -0.053150542 1.2722176e-38 357 286
0.043906972 0.65899998 -0.053150542 1.2630703e-38 358 286
0.045541082 0.66600001 -0.053715117 1.2630703e-38 359 286
0.046708796 0.66600001 -0.053715117 1.2814018e-38 360 286
0.048020288 0.66799998 -0.053876422 1.2814018e-38 361 286
0.049338799 0.67000002 -0.054037735 1.263e-38 362 286
0.050588924 0.671 -0.054118387 1.263e-38 363 286
0.051765412 0.671 -0.054118387 1.1893547e-38 364 286
0.052941896 0.671 -0.054118387 1.1340375e-38 365 286
-0.0055755996 0.63599998 -0.052410636 1.75139e-38 315 287
-0.0044674934 0.63700002 -0.052493047 1.7419834e-38 316 287
-0.0033506199 0.63700002 -0.052493047 1.6774465e-38 317 287
-0.0022337467 0.63700002 -0.052493047 1.7603114e-38 318 287
-0.0011168733 0.63700002 -0.052493047 1.7971897e-38 319 287
0 0.63999999 -0.052740265 1.8063376e-38 320 287
0.0011186267 0.63800001 -0.05257545 1.8063376e-38 321 287
0.0022372534 0.63800001 -0.05257545 1.8156275e-38 322 287
0.00335588 0.63800001 -0.05257545 1.8340306e-38 323 287
0.0044745067 0.63800001 -0.05257545 1.8155922e-38 324 287
0.0056106662 0.63999999 -0.052740265 1.8155922e-38 325 287
0.0067117601 0.63800001 -0.05257545 1.8064092e-38 326 287
0.007830387 0.63800001 -0.05257545 1.7787864e-38 327 287
0.0089490134 0.63800001 -0.05257545 1.7603114e-38 328 287
0.0100992 0.63999999 -0.052740265 1.723433e-38 329 287
0.011221332 0.63999999 -0.052740265 1.7141413e-38 330 287
0.012343466 0.63999999 -0.052740265 1.6864827e-38 331 287
0.013465599 0.63999999 -0.052740265 1.6497492e-38 332 287
0.014587732 0.63999999 -0.052740265 1.6312741e-38 333 287
0.015734414 0.64099997 -0.052822668 1.5852489e-38 334 287
0.016858298 0.64099997 -0.052822668 1.5576262e-38 335 287
0.017982185 0.64099997 -0.052822668 1.5576256e-38 336 287
0.019106071 0.64099997 -0.052822668 1.5484059e-38 337 287
0.020261521 0.64200002 -0.052905083 1.5484415e-38 338 287
0.021420473 0.64300001 -0.052987486 1.5391861e-38 339 287
0.022547867 0.64300001 -0.052987486 1.5392214e-38 340 287
0.02371208 0.64399999 -0.05306989 1.5300018e-38 341 287
0.024841227 0.64399999 -0.05306989 1.5024155e-38 342 287
0.026051028 0.64600003 -0.053234708 1.4931959e-38 343 287
0.02718368 0.64600003 -0.053234708 1.4656101e-38 344 287
0.028316336 0.64600003 -0.053234708 1.4563904e-38 345 287
0.029540159 0.648 -0.053399518 1.4562476e-38 346 287
0.030723657 0.64899999 -0.053481925 1.4378085e-38 347 287
0.03186157 0.64899999 -0.053481925 1.3917109e-38 348 287
0.033050328 0.64999998 -0.053564329 1.3732718e-38 349 287
0.034189999 0.64999998 -0.053564329 1.3181709e-38 350 287
0.035438374 0.65200001 -0.053729147 1.2997318e-38 351 287
0.036693759 0.65399998 -0.053893957 1.2996247e-38 352 287
0.037898298 0.65499997 -0.053976361 1.2904052e-38 353 287
0.039046731 0.65499997 -0.053976361 1.2628904e-38 354 287
0.040195163 0.65499997 -0.053976361 1.27211e-38 355 287
0.041469838 0.65700001 -0.054141179 1.2446308e-38 356 287
0.042686652 0.65799999 -0.054223582 1.2538505e-38 357 287
0.044040225 0.66100001 -0.054470807 1.2814371e-38 358 287
0.045404319 0.66399997 -0.054718021 1.2814371e-38 359 287
0.046778932 0.667 -0.054965243 1.2538154e-38 360 287
0.048020288 0.66799998 -0.05504765 1.2538154e-38 361 287
0.049338799 0.67000002 -0.055212468 1.2262312e-38 362 287
0.050588924 0.671 -0.055294871 1.1893529e-38 363 287
0.051688269 0.67000002 -0.055212468 1.0881933e-38 364 287
0.052863002 0.67000002 -0.055212468 1.0881933e-38 365 287
-0.0078181131 0.63700002 -0.053609919 1.7145844e-38 313 288
-0.0066907196 0.63599998 -0.053525757 1.7327664e-38 314 288
-0.0055755996 0.63599998 -0.053525757 1.7050717e-38 315 288
-0.0044604796 0.63599998 -0.053525757 1.7694959e-38 316 288
-0.0033453598 0.63599998 -0.053525757 1.7694959e-38 317 288
-0.0022302398 0.63599998 -0.053525757 1.7787858e-38 318 288
-0.0011151199 0.63599998 -0.053525757 1.7971891e-38 319 288
0 0.63599998 -0.053525757 1.8063724e-38 320 288
0.0011168733 0.63700002 -0.053609919 1.8155919e-38 321 288
0.0022337467 0.63700002 -0.053609919 1.8155919e-38 322 288
0.0033506199 0.63700002 -0.053609919 1.8155919e-38 323 288
0.0044674934 0.63700002 -0.053609919 1.8063724e-38 324 288
0.0055843666 0.63700002 -0.053609919 1.7971527e-38 325 288
0.0067012399 0.63700002 -0.053609919 1.7695663e-38 326 288
0.0078181131 0.63700002 -0.053609919 1.7511272e-38 327 288
0.0089349868 0.63700002 -0.053609919 1.7234325e-38 328 288
0.01006764 0.63800001 -0.053694081 1.6865902e-38 329 288
0.011186266 0.63800001 -0.053694081 1.6588958e-38 330 288
0.012304893 0.63800001 -0.053694081 1.6312731e-38 331 288
0.01342352 0.63800001 -0.053694081 1.6403845e-38 332 288
0.014587732 0.63999999 -0.053862397 1.5942867e-38 333 288
0.015709866 0.63999999 -0.053862397 1.5482965e-38 334 288
0.016831998 0.63999999 -0.053862397 1.5482965e-38 335 288
0.017982185 0.64099997 -0.053946555 1.5207823e-38 336 288
0.019106071 0.64099997 -0.053946555 1.5207823e-38 337 288
0.020229958 0.64099997 -0.053946555 1.520747e-38 338 288
0.021353846 0.64099997 -0.053946555 1.520747e-38 339 288
0.022512799 0.64200002 -0.05403072 1.4931589e-38 340 288
0.02363844 0.64200002 -0.05403072 1.4931589e-38 341 288
0.024802653 0.64300001 -0.054114878 1.493086e-38 342 288
0.025970373 0.64399999 -0.054199036 1.4654634e-38 343 288
0.027099518 0.64399999 -0.054199036 1.4377692e-38 344 288
0.028316336 0.64600003 -0.05436736 1.4469888e-38 345 288
0.029540159 0.648 -0.05453568 1.4284793e-38 346 288
0.030723657 0.64899999 -0.054619838 1.3916012e-38 347 288
0.03186157 0.64899999 -0.054619838 1.3180616e-38 348 288
0.033050328 0.64999998 -0.054703996 1.3180616e-38 349 288
0.034189999 0.64999998 -0.054703996 1.2905118e-38 350 288
0.035438374 0.65200001 -0.054872319 1.2812922e-38 351 288
0.036693759 0.65399998 -0.055040635 1.2628541e-38 352 288
0.037898298 0.65499997 -0.055124797 1.2628541e-38 353 288
0.039046731 0.65499997 -0.055124797 1.2445592e-38 354 288
0.040195163 0.65499997 -0.055124797 1.2537787e-38 355 288
0.041469838 0.65700001 -0.055293117 1.253851e-38 356 288
0.04262178 0.65700001 -0.055293117 1.2630706e-38 357 288
0.043906972 0.65899998 -0.055461437 1.2814021e-38 358 288
0.045404319 0.66399997 -0.055882234 1.2721825e-38 359 288
0.046849065 0.66799998 -0.056218877 1.2354492e-38 360 288
0.048020288 0.66799998 -0.056218877 1.2170099e-38 361 288
0.049338799 0.67000002 -0.056387197 1.1892826e-38 362 288
0.050513536 0.67000002 -0.056387197 1.1616239e-38 363 288
0.051688269 0.67000002 -0.056387197 1.0788668e-38 364 288
0.052863002 0.67000002 -0.056387197 1.0696471e-38 365 288
-0.0089349868 0.63700002 -0.054726794 1.7881579e-38 312 289
-0.0078181131 0.63700002 -0.054726794 1.6959622e-38 313 289
-0.0066907196 0.63599998 -0.054640878 1.7602058e-38 314 289
-0.0055755996 0.63599998 -0.054640878 1.7417666e-38 315 289
-0.0044604796 0.63599998 -0.054640878 1.7786779e-38 316 289
-0.0033400999 0.63499999 -0.054554965 1.7971529e-38 317 289
-0.0022267331 0.63499999 -0.054554965 1.8063724e-38 318 289
-0.0011133666 0.63499999 -0.054554965 1.8063724e-38 319 289
0 0.63499999 -0.054554965 1.8339588e-38 320 289
0.0011151199 0.63599998 -0.054640878 1.8339588e-38 321 289
0.0022302398 0.63599998 -0.054640878 1.8247036e-38 322 289
0.0033453598 0.63599998 -0.054640878 1.8154839e-38 323 289
0.0044604796 0.63599998 -0.054640878 1.7879331e-38 324 289
0.0055755996 0.63599998 -0.054640878 1.751055e-38 325 289
0.0066907196 0.63599998 -0.054640878 1.7326154e-38 326 289
0.0078058392 0.63599998 -0.054640878 1.7049568e-38 327 289
0.0089209592 0.63599998 -0.054640878 1.6590389e-38 328 289
0.01005186 0.63700002 -0.054726794 1.6221605e-38 329 289
0.011168733 0.63700002 -0.054726794 1.6035786e-38 330 289
0.012285607 0.63700002 -0.054726794 1.5759557e-38 331 289
0.01342352 0.63800001 -0.054812707 1.5391495e-38 332 289
0.014542148 0.63800001 -0.054812707 1.52993e-38 333 289
0.015709866 0.63999999 -0.054984529 1.4931592e-38 334 289
0.016831998 0.63999999 -0.054984529 1.4931592e-38 335 289
0.017954132 0.63999999 -0.054984529 1.5022358e-38 336 289
0.019076265 0.63999999 -0.054984529 1.5022358e-38 337 289
0.020229958 0.64099997 -0.055070441 1.4838693e-38 338 289
0.021353846 0.64099997 -0.055070441 1.4838693e-38 339 289
0.022477733 0.64099997 -0.055070441 1.4655005e-38 340 289
0.02363844 0.64200002 -0.055156358 1.4470255e-38 341 289
0.02476408 0.64200002 -0.055156358 1.4378043e-38 342 289
0.025930047 0.64300001 -0.05524227 1.400962e-38 343 289
0.027057439 0.64300001 -0.05524227 1.3824516e-38 344 289
0.028316336 0.64600003 -0.055500012 1.373232e-38 345 289
0.029540159 0.648 -0.055671841 1.336356e-38 346 289
0.03067632 0.648 -0.055671841 1.336356e-38 347 289
0.03186157 0.64899999 -0.05575775 1.3088067e-38 348 289
0.032999486 0.64899999 -0.05575775 1.3180263e-38 349 289
0.034189999 0.64999998 -0.055843662 1.2812569e-38 350 289
0.035438374 0.65200001 -0.056015491 1.2628538e-38 351 289
0.036693759 0.65399998 -0.056187313 1.2536706e-38 352 289
0.037898298 0.65499997 -0.056273226 1.2536706e-38 353 289
0.039046731 0.65499997 -0.056273226 1.2628904e-38 354 289
0.040195163 0.65499997 -0.056273226 1.2628904e-38 355 289
0.041469838 0.65700001 -0.056445058 1.253779e-38 356 289
0.04262178 0.65700001 -0.056445058 1.2721823e-38 357 289
0.043906972 0.65899998 -0.056616884 1.2538157e-38 358 289
0.045404319 0.66399997 -0.057046451 1.244596e-38 359 289
0.046778932 0.667 -0.057304189 1.2169393e-38 360 289
0.048020288 0.66799998 -0.057390101 1.1985002e-38 361 289
0.04919152 0.66799998 -0.057390101 1.1156356e-38 362 289
0.050362743 0.66799998 -0.057390101 1.1156356e-38 363 289
0.051533967 0.66799998 -0.057390101 1.0788681e-38 364 289
0.052863002 0.67000002 -0.057561934 1.0788681e-38 365 289
-0.010036079 0.63599998 -0.055755995 1.7144382e-38 311 290
-0.0089209592 0.63599998 -0.055755995 1.7326568e-38 312 290
-0.0078058392 0.63599998 -0.055755995 1.7418763e-38 313 290
-0.0066801999 0.63499999 -0.055668332 1.7970837e-38 314 290
-0.0055668331 0.63499999 -0.055668332 1.7786806e-38 315 290
-0.0044464534 0.634 -0.055580664 1.7971176e-38 316 290
-0.0033348398 0.634 -0.055580664 1.8063373e-38 317 290
-0.0022232267 0.634 -0.055580664 1.8063727e-38 318 290
-0.0011116134 0.634 -0.055580664 1.8155922e-38 319 290
0 0.63499999 -0.055668332 1.8155922e-38 320 290
0.0011133666 0.63499999 -0.055668332 1.8063727e-38 321 290
0.0022267331 0.63499999 -0.055668332 1.7787133e-38 322 290
0.0033453598 0.63599998 -0.055755995 1.7510906e-38 323 290
0.0044604796 0.63599998 -0.055755995 1.7602022e-38 324 290
0.0055668331 0.63499999 -0.055668332 1.723324e-38 325 290
0.0066801999 0.63499999 -0.055668332 1.6773338e-38 326 290
0.0078058392 0.63599998 -0.055755995 1.6496391e-38 327 290
0.0089209592 0.63599998 -0.055755995 1.5945375e-38 328 290
0.010036079 0.63599998 -0.055755995 1.5576233e-38 329 290
0.011151199 0.63599998 -0.055755995 1.5390416e-38 330 290
0.012266319 0.63599998 -0.055755995 1.5114188e-38 331 290
0.01340248 0.63700002 -0.055843666 1.4839046e-38 332 290
0.014542148 0.63800001 -0.055931333 1.4839046e-38 333 290
0.015660774 0.63800001 -0.055931333 1.4470631e-38 334 290
0.016831998 0.63999999 -0.056106664 1.4470631e-38 335 290
0.017954132 0.63999999 -0.056106664 1.4561397e-38 336 290
0.019076265 0.63999999 -0.056106664 1.4561397e-38 337 290
0.020229958 0.64099997 -0.056194331 1.4561747e-38 338 290
0.021353846 0.64099997 -0.056194331 1.4469552e-38 339 290
0.022477733 0.64099997 -0.056194331 1.4377339e-38 340 290
0.02363844 0.64200002 -0.056282002 1.4008917e-38 341 290
0.02476408 0.64200002 -0.056282002 1.364122e-38 342 290
0.025930047 0.64300001 -0.056369666 1.3272796e-38 343 290
0.027057439 0.64300001 -0.056369666 1.317846e-38 344 290
0.028228667 0.64399999 -0.056457333 1.2994428e-38 345 290
0.029357811 0.64399999 -0.056457333 1.2626738e-38 346 290
0.030581642 0.64600003 -0.056632672 1.2811488e-38 347 290
0.03186157 0.64899999 -0.056895666 1.2719655e-38 348 290
0.032999486 0.64899999 -0.056895666 1.281185e-38 349 290
0.034189999 0.64999998 -0.056983333 1.2536343e-38 350 290
0.035438374 0.65200001 -0.057158668 1.2628538e-38 351 290
0.036693759 0.65399998 -0.057333998 1.2628541e-38 352 290
0.037898298 0.65499997 -0.057421666 1.2628541e-38 353 290
0.039046731 0.65499997 -0.057421666 1.2628904e-38 354 290
0.040195163 0.65499997 -0.057421666 1.2628904e-38 355 290
0.041469838 0.65700001 -0.057596996 1.2537434e-38 356 290
0.042686652 0.65799999 -0.057684667 1.2721825e-38 357 290
0.044040225 0.66100001 -0.057947662 1.2445607e-38 358 290
0.045404319 0.66399997 -0.05821066 1.2261216e-38 359 290
0.046708796 0.66600001 -0.058385998 1.1707713e-38 360 290
0.047948405 0.667 -0.058473662 1.1431124e-38 361 290
0.04919152 0.66799998 -0.058561329 1.0879784e-38 362 290
0.050362743 0.66799998 -0.058561329 1.0971981e-38 363 290
0.051533967 0.66799998 -0.058561329 1.0605369e-38 364 290
-0.011133666 0.63499999 -0.056781694 1.7604244e-38 310 291
-0.0100203 0.63499999 -0.056781694 1.705107e-38 311 291
-0.0089069325 0.63499999 -0.056781694 1.7693883e-38 312 291
-0.0077935657 0.63499999 -0.056781694 1.7878274e-38 313 291
-0.0066696797 0.634 -0.056692276 1.797082e-38 314 291
-0.0055405335 0.63200003 -0.056513444 1.8063376e-38 315 291
-0.0044324268 0.63200003 -0.056513444 1.8247039e-38 316 291
-0.0033243201 0.63200003 -0.056513444 1.8247039e-38 317 291
-0.0022162134 0.63200003 -0.056513444 1.8339237e-38 318 291
-0.0011081067 0.63200003 -0.056513444 1.8246683e-38 319 291
0 0.63200003 -0.056513444 1.8154486e-38 320 291
0.0011081067 0.63200003 -0.056513444 1.7878259e-38 321 291
0.0022232267 0.634 -0.056692276 1.7326154e-38 322 291
0.0033348398 0.634 -0.056692276 1.6865536e-38 323 291
0.0044534663 0.63499999 -0.056781694 1.686445e-38 324 291
0.0055668331 0.63499999 -0.056781694 1.6403832e-38 325 291
0.0066801999 0.63499999 -0.056781694 1.5943207e-38 326 291
0.0077935657 0.63499999 -0.056781694 1.5666262e-38 327 291
0.0089069325 0.63499999 -0.056781694 1.5114889e-38 328 291
0.0100203 0.63499999 -0.056781694 1.5022693e-38 329 291
0.011151199 0.63599998 -0.056871112 1.4562807e-38 330 291
0.012266319 0.63599998 -0.056871112 1.4470611e-38 331 291
0.01340248 0.63700002 -0.056960538 1.4376986e-38 332 291
0.014519353 0.63700002 -0.056960538 1.4561737e-38 333 291
0.015660774 0.63800001 -0.05704996 1.4652151e-38 334 291
0.016831998 0.63999999 -0.057228796 1.4468118e-38 335 291
0.017954132 0.63999999 -0.057228796 1.428409e-38 336 291
0.019076265 0.63999999 -0.057228796 1.428409e-38 337 291
0.020229958 0.64099997 -0.057318214 1.4008929e-38 338 291
0.021353846 0.64099997 -0.057318214 1.3640148e-38 339 291
0.022477733 0.64099997 -0.057318214 1.3639774e-38 340 291
0.02363844 0.64200002 -0.05740764 1.3363547e-38 341 291
0.02476408 0.64200002 -0.05740764 1.3363207e-38 342 291
0.025930047 0.64300001 -0.057497058 1.3271011e-38 343 291
0.027057439 0.64300001 -0.057497058 1.2994444e-38 344 291
0.028228667 0.64399999 -0.057586476 1.2902248e-38 345 291
0.029357811 0.64399999 -0.057586476 1.2718936e-38 346 291
0.030581642 0.64600003 -0.057765324 1.2718936e-38 347 291
0.03186157 0.64899999 -0.058033578 1.2627459e-38 348 291
0.032999486 0.64899999 -0.058033578 1.2719655e-38 349 291
0.034189999 0.64999998 -0.058122993 1.2535989e-38 350 291
0.035438374 0.65200001 -0.058301836 1.2628185e-38 351 291
0.036693759 0.65399998 -0.05848068 1.2536711e-38 352 291
0.037898298 0.65499997 -0.058570094 1.2628907e-38 353 291
0.039046731 0.65499997 -0.058570094 1.2353396e-38 354 291
0.040195163 0.65499997 -0.058570094 1.2445592e-38 355 291
0.041469838 0.65700001 -0.058748938 1.2445239e-38 356 291
0.042686652 0.65799999 -0.058838356 1.2445239e-38 357 291
0.044040225 0.66100001 -0.059106622 1.226051e-38 358 291
0.045404319 0.66399997 -0.059374876 1.1892087e-38 359 291
0.046708796 0.66600001 -0.059553716 1.0512062e-38 360 291
0.047948405 0.667 -0.059643134 1.0604257e-38 361 291
0.04919152 0.66799998 -0.05973256 1.0879432e-38 362 291
0.050362743 0.66799998 -0.05973256 1.0971627e-38 363 291
-0.012227747 0.634 -0.057803888 1.6959973e-38 309 292
-0.011116133 0.634 -0.057803888 1.7326177e-38 310 292
-0.010004519 0.634 -0.057803888 1.7602764e-38 311 292
-0.0088929068 0.634 -0.057803888 1.7695666e-38 312 292
-0.0077444729 0.63099998 -0.057530373 1.7787861e-38 313 292
-0.0066381195 0.63099998 -0.057530373 1.7787861e-38 314 292
-0.0055317665 0.63099998 -0.057530373 1.7787861e-38 315 292
-0.004425413 0.63099998 -0.057530373 1.8063373e-38 316 292
-0.0033190597 0.63099998 -0.057530373 1.7971176e-38 317 292
-0.0022127065 0.63099998 -0.057530373 1.8063023e-38 318 292
-0.0011063532 0.63099998 -0.057530373 1.8063023e-38 319 292
0 0.63099998 -0.057530373 1.7786429e-38 320 292
0.0011063532 0.63099998 -0.057530373 1.7418007e-38 321 292
0.0022162134 0.63200003 -0.05762155 1.6866253e-38 322 292
0.0033348398 0.634 -0.057803888 1.6589664e-38 323 292
0.0044464534 0.634 -0.057803888 1.6220517e-38 324 292
0.0055580665 0.634 -0.057803888 1.5851375e-38 325 292
0.0066696797 0.634 -0.057803888 1.5483318e-38 326 292
0.0077812932 0.634 -0.057803888 1.4930144e-38 327 292
0.0089069325 0.63499999 -0.057895064 1.4562085e-38 328 292
0.0100203 0.63499999 -0.057895064 1.4469888e-38 329 292
0.011133666 0.63499999 -0.057895064 1.382598e-38 330 292
0.012266319 0.63599998 -0.057986237 1.382598e-38 331 292
0.013381439 0.63599998 -0.057986237 1.3824563e-38 332 292
0.014519353 0.63700002 -0.058077414 1.3824563e-38 333 292
0.015660774 0.63800001 -0.05816859 1.3457223e-38 334 292
0.016831998 0.63999999 -0.058350928 1.3457223e-38 335 292
0.017954132 0.63999999 -0.058350928 1.3456504e-38 336 292
0.019076265 0.63999999 -0.058350928 1.3364308e-38 337 292
0.020198399 0.63999999 -0.058350928 1.3456127e-38 338 292
0.021353846 0.64099997 -0.058442101 1.3087346e-38 339 292
0.022477733 0.64099997 -0.058442101 1.2902952e-38 340 292
0.023601618 0.64099997 -0.058442101 1.2810755e-38 341 292
0.02476408 0.64200002 -0.058533281 1.2810053e-38 342 292
0.025889721 0.64200002 -0.058533281 1.2810053e-38 343 292
0.027057439 0.64300001 -0.058624454 1.2443425e-38 344 292
0.028316336 0.64600003 -0.058897976 1.2443425e-38 345 292
0.029448988 0.64600003 -0.058897976 1.2351946e-38 346 292
0.030581642 0.64600003 -0.058897976 1.2444141e-38 347 292
0.03186157 0.64899999 -0.059171494 1.2260476e-38 348 292
0.032999486 0.64899999 -0.059171494 1.2260476e-38 349 292
0.034189999 0.64999998 -0.059262663 1.2260847e-38 350 292
0.035438374 0.65200001 -0.059445009 1.2260847e-38 351 292
0.036693759 0.65399998 -0.059627358 1.2353043e-38 352 292
0.037898298 0.65499997 -0.059718527 1.2445239e-38 353 292
0.039046731 0.65499997 -0.059718527 1.235304e-38 354 292
0.040195163 0.65499997 -0.059718527 1.235304e-38 355 292
0.041469838 0.65700001 -0.05990088 1.2077545e-38 356 292
0.042686652 0.65799999 -0.059992049 1.1985349e-38 357 292
0.044040225 0.66100001 -0.060265575 1.1616592e-38 358 292
0.045199182 0.66100001 -0.060265575 1.1155614e-38 359 292
-0.014382593 0.63099998 -0.058636725 1.7146197e-38 307 293
-0.013339359 0.634 -0.058915507 1.7601713e-38 308 293
-0.012227747 0.634 -0.058915507 1.7693908e-38 309 293
-0.011116133 0.634 -0.058915507 1.7786779e-38 310 293
-0.0099571794 0.63099998 -0.058636725 1.7786779e-38 311 293
-0.008850826 0.63099998 -0.058636725 1.7879328e-38 312 293
-0.0077444729 0.63099998 -0.058636725 1.7879328e-38 313 293
-0.0066381195 0.63099998 -0.058636725 1.7878609e-38 314 293
-0.0055317665 0.63099998 -0.058636725 1.7878609e-38 315 293
-0.004425413 0.63099998 -0.058636725 1.806229e-38 316 293
-0.0033190597 0.63099998 -0.058636725 1.7878259e-38 317 293
-0.0022127065 0.63099998 -0.058636725 1.7510918e-38 318 293
-0.0011063532 0.63099998 -0.058636725 1.723433e-38 319 293
0 0.63099998 -0.058636725 1.7048496e-38 320 293
0.0011063532 0.63099998 -0.058636725 1.6587517e-38 321 293
0.0022127065 0.63099998 -0.058636725 1.5668065e-38 322 293
0.0033243201 0.63200003 -0.058729656 1.5483315e-38 323 293
0.0044324268 0.63200003 -0.058729656 1.5022693e-38 324 293
0.0055580665 0.634 -0.058915507 1.4746106e-38 325 293
0.0066486401 0.63200003 -0.058729656 1.4285494e-38 326 293
0.0077567468 0.63200003 -0.058729656 1.3917071e-38 327 293
0.0088929068 0.634 -0.058915507 1.3916718e-38 328 293
0.010004519 0.634 -0.058915507 1.3639771e-38 329 293
0.011116133 0.634 -0.058915507 1.3731619e-38 330 293
0.012247032 0.63499999 -0.059008431 1.3731619e-38 331 293
0.013381439 0.63599998 -0.059101358 1.373055e-38 332 293
0.014496559 0.63599998 -0.059101358 1.35458e-38 333 293
0.015660774 0.63800001 -0.059287209 1.3454684e-38 334 293
0.016779399 0.63800001 -0.059287209 1.3362488e-38 335 293
0.017954132 0.63999999 -0.05947306 1.317846e-38 336 293
0.019076265 0.63999999 -0.05947306 1.2994428e-38 337 293
0.020198399 0.63999999 -0.05947306 1.30859e-38 338 293
0.021353846 0.64099997 -0.059565991 1.290115e-38 339 293
0.022477733 0.64099997 -0.059565991 1.2626721e-38 340 293
0.023601618 0.64099997 -0.059565991 1.2534525e-38 341 293
0.02476408 0.64200002 -0.059658919 1.2351581e-38 342 293
0.025889721 0.64200002 -0.059658919 1.2351581e-38 343 293
0.027099518 0.64399999 -0.05984477 1.2260102e-38 344 293
0.028316336 0.64600003 -0.060030628 1.2260102e-38 345 293
0.029448988 0.64600003 -0.060030628 1.2351581e-38 346 293
0.030628979 0.64700001 -0.060123552 1.2351581e-38 347 293
0.03186157 0.64899999 -0.060309403 1.216828e-38 348 293
0.032999486 0.64899999 -0.060309403 1.216828e-38 349 293
0.034189999 0.64999998 -0.060402326 1.2260126e-38 350 293
0.035547078 0.65399998 -0.060774036 1.2444157e-38 351 293
0.036693759 0.65399998 -0.060774036 1.2260844e-38 352 293
0.037898298 0.65499997 -0.060866963 1.2260844e-38 353 293
0.039046731 0.65499997 -0.060866963 1.244416e-38 354 293
0.040195163 0.65499997 -0.060866963 1.2260128e-38 355 293
0.041469838 0.65700001 -0.061052818 1.1616221e-38 356 293
0.04262178 0.65700001 -0.061052818 1.1431828e-38 357 293
-0.015488946 0.63099998 -0.059743073 1.7880853e-38 306 294
-0.014382593 0.63099998 -0.059743073 1.7235483e-38 307 294
-0.013276239 0.63099998 -0.059743073 1.7232539e-38 308 294
-0.012169886 0.63099998 -0.059743073 1.7693159e-38 309 294
-0.011081067 0.63200003 -0.059837762 1.7879684e-38 310 294
-0.0099571794 0.63099998 -0.059743073 1.7879684e-38 311 294
-0.008850826 0.63099998 -0.059743073 1.7878975e-38 312 294
-0.0077444729 0.63099998 -0.059743073 1.7786779e-38 313 294
-0.0066275997 0.63 -0.059648398 1.7786426e-38 314 294
-0.0055229999 0.63 -0.059648398 1.7786426e-38 315 294
-0.0044183997 0.63 -0.059648398 1.7510565e-38 316 294
-0.0033137999 0.63 -0.059648398 1.7510565e-38 317 294
-0.0022091998 0.63 -0.059648398 1.7233611e-38 318 294
-0.0011045999 0.63 -0.059648398 1.686483e-38 319 294
0 0.63 -0.059648398 1.6312728e-38 320 294
0.0011045999 0.63 -0.059648398 1.5943586e-38 321 294
0.0022091998 0.63 -0.059648398 1.5207101e-38 322 294
0.0033190597 0.63099998 -0.059743073 1.4746482e-38 323 294
0.0044324268 0.63200003 -0.059837762 1.4286222e-38 324 294
0.0055405335 0.63200003 -0.059837762 1.4009636e-38 325 294
0.0066486401 0.63200003 -0.059837762 1.364087e-38 326 294
0.0077567468 0.63200003 -0.059837762 1.3548674e-38 327 294
0.0088648535 0.63200003 -0.059837762 1.3272456e-38 328 294
0.0099729598 0.63200003 -0.059837762 1.2995869e-38 329 294
0.011081067 0.63200003 -0.059837762 1.2719993e-38 330 294
0.012227747 0.634 -0.060027119 1.2627796e-38 331 294
0.0133604 0.63499999 -0.060121801 1.2810742e-38 332 294
0.014496559 0.63599998 -0.060216475 1.2810742e-38 333 294
0.015636226 0.63700002 -0.060311161 1.2351579e-38 334 294
0.0167531 0.63700002 -0.060311161 1.2351579e-38 335 294
0.017898027 0.63800001 -0.060405839 1.2350872e-38 336 294
0.019016653 0.63800001 -0.060405839 1.2350872e-38 337 294
0.020198399 0.63999999 -0.060595192 1.2350872e-38 338 294
0.021320533 0.63999999 -0.060595192 1.2350872e-38 339 294
0.022477733 0.64099997 -0.060689874 1.216755e-38 340 294
0.023601618 0.64099997 -0.060689874 1.216755e-38 341 294
0.02476408 0.64200002 -0.060784556 1.2259746e-38 342 294
0.025889721 0.64200002 -0.060784556 1.2352302e-38 343 294
0.027057439 0.64300001 -0.060879238 1.2076436e-38 344 294
0.028228667 0.64399999 -0.06097392 1.1984241e-38 345 294
0.029448988 0.64600003 -0.061163284 1.21672e-38 346 294
0.030581642 0.64600003 -0.061163284 1.21672e-38 347 294
0.03186157 0.64899999 -0.061447315 1.1892421e-38 348 294
0.033050328 0.64999998 -0.061541997 1.2076453e-38 349 294
0.034347799 0.653 -0.061826039 1.1984983e-38 350 294
0.035547078 0.65399998 -0.061920714 1.1892788e-38 351 294
0.036693759 0.65399998 -0.061920714 1.2075747e-38 352 294
0.037898298 0.65499997 -0.062015396 1.2075747e-38 353 294
0.039046731 0.65499997 -0.062015396 1.1799889e-38 354 294
0.040195163 0.65499997 -0.062015396 1.1707692e-38 355 294
0.041343596 0.65499997 -0.062015396 1.1063431e-38 356 294
-0.0165953 0.63099998 -0.060849428 1.7330591e-38 305 295
-0.015488946 0.63099998 -0.060849428 1.7325849e-38 306 295
-0.014382593 0.63099998 -0.060849428 1.750988e-38 307 295
-0.013276239 0.63099998 -0.060849428 1.7693868e-38 308 295
-0.012169886 0.63099998 -0.060849428 1.7786063e-38 309 295
-0.011063533 0.63099998 -0.060849428 1.7787133e-38 310 295
-0.0099571794 0.63099998 -0.060849428 1.7694937e-38 311 295
-0.008850826 0.63099998 -0.060849428 1.7786417e-38 312 295
-0.0077444729 0.63099998 -0.060849428 1.7693862e-38 313 295
-0.0066275997 0.63 -0.060752999 1.7510197e-38 314 295
-0.0055229999 0.63 -0.060752999 1.7418001e-38 315 295
-0.0044183997 0.63 -0.060752999 1.7325804e-38 316 295
-0.0033137999 0.63 -0.060752999 1.7049217e-38 317 295
-0.0022091998 0.63 -0.060752999 1.6587873e-38 318 295
-0.0011045999 0.63 -0.060752999 1.6310928e-38 319 295
0 0.62900001 -0.060656566 1.5482965e-38 320 295
0.0011028467 0.62900001 -0.060656566 1.5114541e-38 321 295
0.0022091998 0.63 -0.060752999 1.4469535e-38 322 295
0.0033137999 0.63 -0.060752999 1.4101112e-38 323 295
0.004425413 0.63099998 -0.060849428 1.3824888e-38 324 295
0.0055317665 0.63099998 -0.060849428 1.3456106e-38 325 295
0.0066381195 0.63099998 -0.060849428 1.3179892e-38 326 295
0.0077444729 0.63099998 -0.060849428 1.3179892e-38 327 295
0.008850826 0.63099998 -0.060849428 1.2719286e-38 328 295
0.0099729598 0.63200003 -0.060945868 1.2534894e-38 329 295
0.011081067 0.63200003 -0.060945868 1.2259027e-38 330 295
0.012227747 0.634 -0.06113873 1.2074636e-38 331 295
0.0133604 0.63499999 -0.061235163 1.1981721e-38 332 295
0.014496559 0.63599998 -0.061331596 1.2166113e-38 333 295
0.015611678 0.63599998 -0.061331596 1.2349428e-38 334 295
0.0167531 0.63700002 -0.061428033 1.2441623e-38 335 295
0.017869974 0.63700002 -0.061428033 1.23505e-38 336 295
0.019016653 0.63800001 -0.061524466 1.23505e-38 337 295
0.020198399 0.63999999 -0.061717331 1.2259736e-38 338 295
0.021320533 0.63999999 -0.061717331 1.2259736e-38 339 295
0.022477733 0.64099997 -0.061813761 1.2167901e-38 340 295
0.023601618 0.64099997 -0.061813761 1.2260455e-38 341 295
0.02476408 0.64200002 -0.061910201 1.2351579e-38 342 295
0.025889721 0.64200002 -0.061910201 1.2351579e-38 343 295
0.027057439 0.64300001 -0.062006634 1.2167556e-38 344 295
0.028228667 0.64399999 -0.062103063 1.1983166e-38 345 295
0.029357811 0.64399999 -0.062103063 1.1983535e-38 346 295
0.030581642 0.64600003 -0.062295936 1.1983535e-38 347 295
0.03186157 0.64899999 -0.062585227 1.1799869e-38 348 295
0.033050328 0.64999998 -0.062681668 1.1892065e-38 349 295
0.034347799 0.653 -0.062970966 1.189207e-38 350 295
0.035492726 0.653 -0.062970966 1.1799516e-38 351 295
0.036693759 0.65399998 -0.063067392 1.1890635e-38 352 295
0.037840437 0.65399998 -0.063067392 1.1890635e-38 353 295
0.039046731 0.65499997 -0.063163824 1.1339279e-38 354 295
0.040195163 0.65499997 -0.063163824 1.1063052e-38 355 295
-0.0165953 0.63099998 -0.061955784 1.6868503e-38 305 296
-0.015488946 0.63099998 -0.061955784 1.7325821e-38 306 296
-0.014359799 0.63 -0.061857596 1.7510212e-38 307 296
-0.013255199 0.63 -0.061857596 1.7786414e-38 308 296
-0.0121506 0.63 -0.061857596 1.7786414e-38 309 296
-0.011046 0.63 -0.061857596 1.7694937e-38 310 296
-0.0099414 0.63 -0.061857596 1.7510906e-38 311 296
-0.0088227736 0.62900001 -0.061759409 1.7601667e-38 312 296
-0.0077199261 0.62900001 -0.061759409 1.750947e-38 313 296
-0.00661708 0.62900001 -0.061759409 1.7325807e-38 314 296
-0.0055142329 0.62900001 -0.061759409 1.7141057e-38 315 296
-0.0044113868 0.62900001 -0.061759409 1.6864833e-38 316 296
-0.00330854 0.62900001 -0.061759409 1.6587886e-38 317 296
-0.0022056934 0.62900001 -0.061759409 1.5943589e-38 318 296
-0.0011028467 0.62900001 -0.061759409 1.5574807e-38 319 296
0 0.62900001 -0.061759409 1.4654649e-38 320 296
0.0011028467 0.62900001 -0.061759409 1.4562453e-38 321 296
0.0022056934 0.62900001 -0.061759409 1.3916731e-38 322 296
0.00330854 0.62900001 -0.061759409 1.3640504e-38 323 296
0.0044183997 0.63 -0.061857596 1.327244e-38 324 296
0.0055229999 0.63 -0.061857596 1.2995854e-38 325 296
0.0066275997 0.63 -0.061857596 1.2903308e-38 326 296
0.0077321995 0.63 -0.061857596 1.2810752e-38 327 296
0.008850826 0.63099998 -0.061955784 1.2442342e-38 328 296
0.0099571794 0.63099998 -0.061955784 1.2350146e-38 329 296
0.011081067 0.63200003 -0.062053975 1.2074285e-38 330 296
0.012189173 0.63200003 -0.062053975 1.1798059e-38 331 296
0.013339359 0.634 -0.062250346 1.2164686e-38 332 296
0.014473766 0.63499999 -0.062348526 1.2256882e-38 333 296
0.015611678 0.63599998 -0.062446713 1.2073564e-38 334 296
0.0167531 0.63700002 -0.062544905 1.2166118e-38 335 296
0.017869974 0.63700002 -0.062544905 1.2074992e-38 336 296
0.019016653 0.63800001 -0.062643096 1.2167187e-38 337 296
0.020198399 0.63999999 -0.062839463 1.1983869e-38 338 296
0.021320533 0.63999999 -0.062839463 1.1983869e-38 339 296
0.022477733 0.64099997 -0.062937655 1.2167901e-38 340 296
0.023601618 0.64099997 -0.062937655 1.2167901e-38 341 296
0.02476408 0.64200002 -0.063035838 1.2351225e-38 342 296
0.025889721 0.64200002 -0.063035838 1.225903e-38 343 296
0.027057439 0.64300001 -0.063134022 1.21672e-38 344 296
0.028228667 0.64399999 -0.063232213 1.21672e-38 345 296
0.029357811 0.64399999 -0.063232213 1.189062e-38 346 296
0.030581642 0.64600003 -0.063428588 1.1982816e-38 347 296
0.031812482 0.648 -0.063624963 1.1707676e-38 348 296
0.032999486 0.64899999 -0.063723139 1.1615122e-38 349 296
0.034347799 0.653 -0.064115889 1.1614056e-38 350 296
0.035492726 0.653 -0.064115889 1.1614056e-38 351 296
0.036693759 0.65399998 -0.064214081 1.1246365e-38 352 296
0.037840437 0.65399998 -0.064214081 1.1154169e-38 353 296
0.038987119 0.65399998 -0.064214081 1.0877605e-38 354 296
-0.0198828 0.63 -0.062962197 1.8345469e-38 302 297
-0.018778199 0.63 -0.062962197 1.7146926e-38 303 297
-0.017673599 0.63 -0.062962197 1.7050701e-38 304 297
-0.016569 0.63 -0.062962197 1.6774114e-38 305 297
-0.015464399 0.63 -0.062962197 1.7326524e-38 306 297
-0.014359799 0.63 -0.062962197 1.741872e-38 307 297
-0.013255199 0.63 -0.062962197 1.7418357e-38 308 297
-0.0121506 0.63 -0.062962197 1.7418357e-38 309 297
-0.011028466 0.62900001 -0.062862262 1.7418354e-38 310 297
-0.0099256197 0.62900001 -0.062862262 1.7326157e-38 311 297
-0.0088087469 0.62800002 -0.06276232 1.7234315e-38 312 297
-0.0077076531 0.62800002 -0.06276232 1.7049565e-38 313 297
-0.0066065602 0.62800002 -0.06276232 1.7049214e-38 314 297
-0.0055054668 0.62800002 -0.06276232 1.6772988e-38 315 297
-0.0044043735 0.62800002 -0.06276232 1.6404571e-38 316 297
-0.0033032801 0.62800002 -0.06276232 1.5943591e-38 317 297
-0.0022021867 0.62800002 -0.06276232 1.5207107e-38 318 297
-0.0011010934 0.62800002 -0.06276232 1.493016e-38 319 297
0 0.62800002 -0.06276232 1.41022e-38 320 297
0.0011010934 0.62800002 -0.06276232 1.3825614e-38 321 297
0.0022021867 0.62800002 -0.06276232 1.3456474e-38 322 297
0.00330854 0.62900001 -0.062862262 1.3180248e-38 323 297
0.0044183997 0.63 -0.062962197 1.2902585e-38 324 297
0.0055229999 0.63 -0.062962197 1.2625639e-38 325 297
0.0066275997 0.63 -0.062962197 1.2442692e-38 326 297
0.0077321995 0.63 -0.062962197 1.2350497e-38 327 297
0.0088367993 0.63 -0.062962197 1.1982443e-38 328 297
0.0099571794 0.63099998 -0.063062139 1.1798053e-38 329 297
0.011063533 0.63099998 -0.063062139 1.1889171e-38 330 297
0.012189173 0.63200003 -0.063162081 1.1889171e-38 331 297
0.01329728 0.63200003 -0.063162081 1.1889168e-38 332 297
0.014473766 0.63499999 -0.0634619 1.1981724e-38 333 297
0.015587131 0.63499999 -0.0634619 1.1799125e-38 334 297
0.016726799 0.63599998 -0.063561834 1.1891321e-38 335 297
0.017869974 0.63700002 -0.063661784 1.1983875e-38 336 297
0.019016653 0.63800001 -0.063761719 1.1983875e-38 337 297
0.02013528 0.63800001 -0.063761719 1.1983875e-38 338 297
