# .PCD v.7 - Point Cloud Data file format
FIELDS x y z rgb imX imY
SIZE 4 4 4 4 4 4
TYPE F F F F F F
COUNT 1 1 1 1 1 1
WIDTH 833
HEIGHT 1
VIEWPOINT 0 0 0 1 0 0 0
POINTS 833
DATA ascii
0.01497522 0.65700001 -0.05990088 1.2352285e-38 333 292
0.01612716 0.65700001 -0.05990088 1.2352651e-38 334 292
0.017305398 0.65799999 -0.059992049 1.2352651e-38 335 292
0.018459093 0.65799999 -0.059992049 1.2261185e-38 336 292
0.019642593 0.65899998 -0.060083222 1.2168631e-38 337 292
0.020798039 0.65899998 -0.060083222 1.2168636e-38 338 292
0.021953486 0.65899998 -0.060083222 1.2168636e-38 339 292
0.023179067 0.66100001 -0.060265575 1.2076801e-38 340 292
0.02433802 0.66100001 -0.060265575 1.2076801e-38 341 292
0.025535546 0.662 -0.060356744 1.216828e-38 342 292
0.026696252 0.662 -0.060356744 1.216828e-38 343 292
0.027941117 0.66399997 -0.060539093 1.2168283e-38 344 292
0.029280664 0.66799998 -0.060903784 1.198389e-38 345 292
0.030543067 0.67000002 -0.061086133 1.1522926e-38 346 292
0.031623118 0.66799998 -0.060903784 1.1338534e-38 347 292
0.032794341 0.66799998 -0.060903784 9.9577936e-39 348 292
0.033965573 0.66799998 -0.060903784 9.9577936e-39 349 292
-0.10345893 0.66299999 -0.061610378 1.5208664e-38 231 293
-0.10229647 0.66299999 -0.061610378 9.9566824e-39 232 293
-0.10113402 0.66299999 -0.061610378 7.0982578e-39 233 293
-0.10012234 0.66399997 -0.061703302 6.6469752e-39 234 293
-0.098958127 0.66399997 -0.061703302 8.0299096e-39 235 293
-0.097793914 0.66399997 -0.061703302 9.314543e-39 236 293
-0.096484177 0.66299999 -0.061610378 9.4992944e-39 237 293
-0.095177941 0.662 -0.061517447 1.0325805e-38 238 293
-0.094017237 0.662 -0.061517447 1.041836e-38 239 293
-0.092716269 0.66100001 -0.061424527 1.0969013e-38 240 293
-0.091557316 0.66100001 -0.061424527 1.0969013e-38 241 293
-0.090124831 0.65899998 -0.061238669 1.1060843e-38 242 293
-0.088834383 0.65799999 -0.061145745 1.1060843e-38 243 293
-0.08768069 0.65799999 -0.061145745 1.1336349e-38 244 293
-0.086526997 0.65799999 -0.061145745 1.1336349e-38 245 293
-0.08524356 0.65700001 -0.061052818 1.1338506e-38 246 293
-0.084091611 0.65700001 -0.061052818 1.1338506e-38 247 293
-0.082939677 0.65700001 -0.061052818 1.1705127e-38 248 293
-0.081538759 0.65499997 -0.060866963 1.1705127e-38 249 293
-0.080390327 0.65499997 -0.060866963 1.179696e-38 250 293
-0.079120919 0.65399998 -0.060774036 1.1704764e-38 251 293
-0.077855013 0.653 -0.060681112 1.1521099e-38 252 293
-0.076710083 0.653 -0.060681112 1.1521099e-38 253 293
-0.075565159 0.653 -0.060681112 1.1520746e-38 254 293
-0.074306265 0.65200001 -0.060588185 1.1520746e-38 255 293
-0.073163092 0.65200001 -0.060588185 1.1429266e-38 256 293
-0.07201992 0.65200001 -0.060588185 1.1429266e-38 257 293
-0.070876747 0.65200001 -0.060588185 1.1429619e-38 258 293
-0.069733568 0.65200001 -0.060588185 1.1521815e-38 259 293
-0.068590395 0.65200001 -0.060588185 1.13385e-38 260 293
-0.06744723 0.65200001 -0.060588185 1.1522531e-38 261 293
-0.066304058 0.65200001 -0.060588185 1.1614361e-38 262 293
-0.065160878 0.65200001 -0.060588185 1.1706915e-38 263 293
-0.063821331 0.64999998 -0.060402326 1.1615436e-38 264 293
-0.062681668 0.64999998 -0.060402326 1.1707631e-38 265 293
-0.061541997 0.64999998 -0.060402326 1.1799464e-38 266 293
-0.060402326 0.64999998 -0.060402326 1.1799464e-38 267 293
-0.059171494 0.64899999 -0.060309403 1.198242e-38 268 293
-0.058033578 0.64899999 -0.060309403 1.2074976e-38 269 293
-0.056808002 0.648 -0.060216483 1.2074267e-38 270 293
-0.055671841 0.648 -0.060216483 1.2166822e-38 271 293
-0.05453568 0.648 -0.060216483 1.2257582e-38 272 293
-0.053399518 0.648 -0.060216483 1.2257582e-38 273 293
-0.05226336 0.648 -0.060216483 1.2257938e-38 274 293
-0.051127199 0.648 -0.060216483 1.2257938e-38 275 293
-0.049991041 0.648 -0.060216483 1.2074267e-38 276 293
-0.04885488 0.648 -0.060216483 1.198207e-38 277 293
-0.047718719 0.648 -0.060216483 1.2257215e-38 278 293
-0.046510674 0.64700001 -0.060123552 1.2257215e-38 279 293
-0.045376267 0.64700001 -0.060123552 1.2165738e-38 280 293
-0.044241857 0.64700001 -0.060123552 1.2257935e-38 281 293
-0.043107454 0.64700001 -0.060123552 1.2349059e-38 282 293
-0.041973047 0.64700001 -0.060123552 1.2533449e-38 283 293
-0.04083864 0.64700001 -0.060123552 1.2442329e-38 284 293
-0.039704233 0.64700001 -0.060123552 1.2442329e-38 285 293
-0.038569827 0.64700001 -0.060123552 1.2166819e-38 286 293
-0.03743542 0.64700001 -0.060123552 1.2166819e-38 287 293
-0.036301013 0.64700001 -0.060123552 1.198279e-38 288 293
-0.035166606 0.64700001 -0.060123552 1.198279e-38 289 293
-0.0340322 0.64700001 -0.060123552 1.198207e-38 290 293
-0.032897793 0.64700001 -0.060123552 1.1889875e-38 291 293
-0.031763386 0.64700001 -0.060123552 1.1981354e-38 292 293
-0.030628979 0.64700001 -0.060123552 1.1981354e-38 293 293
-0.029494572 0.64700001 -0.060123552 1.1981001e-38 294 293
-0.028360168 0.64700001 -0.060123552 1.2165034e-38 295 293
-0.027225759 0.64700001 -0.060123552 1.207392e-38 296 293
-0.02613168 0.648 -0.060216483 1.207392e-38 297 293
-0.024995521 0.648 -0.060216483 1.2166113e-38 298 293
-0.023822539 0.64700001 -0.060123552 1.2073917e-38 299 293
-0.022688134 0.64700001 -0.060123552 1.1982437e-38 300 293
-0.021553727 0.64700001 -0.060123552 1.1982437e-38 301 293
-0.02041932 0.64700001 -0.060123552 1.1798758e-38 302 293
-0.019284913 0.64700001 -0.060123552 1.198279e-38 303 293
-0.01817856 0.648 -0.060216483 1.198207e-38 304 293
-0.0170424 0.648 -0.060216483 1.2074267e-38 305 293
-0.015906241 0.648 -0.060216483 1.1983146e-38 306 293
-0.014770079 0.648 -0.060216483 1.1983146e-38 307 293
-0.01363392 0.648 -0.060216483 1.1982423e-38 308 293
-0.01249776 0.648 -0.060216483 1.1982423e-38 309 293
-0.0113616 0.648 -0.060216483 1.1798761e-38 310 293
-0.01024122 0.64899999 -0.060309403 1.1798761e-38 311 293
-0.0091033066 0.64899999 -0.060309403 1.1799478e-38 312 293
-0.0079653924 0.64899999 -0.060309403 1.1707281e-38 313 293
-0.0068274797 0.64899999 -0.060309403 1.1983141e-38 314 293
-0.0056895665 0.64899999 -0.060309403 1.1983141e-38 315 293
-0.0045516533 0.64899999 -0.060309403 1.2075339e-38 316 293
-0.0034189997 0.64999998 -0.060402326 1.2075339e-38 317 293
-0.0022793331 0.64999998 -0.060402326 1.1891674e-38 318 293
-0.0011396665 0.64999998 -0.060402326 1.1891674e-38 319 293
0 0.65200001 -0.060588185 1.2074986e-38 320 293
0.0011431733 0.65200001 -0.060588185 1.2167182e-38 321 293
0.0022898533 0.653 -0.060681112 1.2350853e-38 322 293
0.0034347798 0.653 -0.060681112 1.2443048e-38 323 293
0.0045797066 0.653 -0.060681112 1.2167903e-38 324 293
0.0057246331 0.653 -0.060681112 1.2167903e-38 325 293
0.0068800794 0.65399998 -0.060774036 1.2260102e-38 326 293
0.0080267601 0.65399998 -0.060774036 1.2260102e-38 327 293
0.0091734398 0.65399998 -0.060774036 1.2352297e-38 328 293
0.010335899 0.65499997 -0.060866963 1.2260102e-38 329 293
0.011484332 0.65499997 -0.060866963 1.2260099e-38 330 293
0.012632766 0.65499997 -0.060866963 1.2260099e-38 331 293
0.013823279 0.65700001 -0.061052818 1.2351576e-38 332 293
0.01497522 0.65700001 -0.061052818 1.2351576e-38 333 293
0.01612716 0.65700001 -0.061052818 1.2351581e-38 334 293
0.017331699 0.65899998 -0.061238669 1.2351581e-38 335 293
0.018487146 0.65899998 -0.061238669 1.2351593e-38 336 293
0.019642593 0.65899998 -0.061238669 1.2259396e-38 337 293
0.02086116 0.66100001 -0.061424527 1.2351595e-38 338 293
0.022020113 0.66100001 -0.061424527 1.2259398e-38 339 293
0.023179067 0.66100001 -0.061424527 1.2167556e-38 340 293
0.024374841 0.662 -0.061517447 1.2351949e-38 341 293
0.025535546 0.662 -0.061517447 1.2259751e-38 342 293
0.026696252 0.662 -0.061517447 1.1983166e-38 343 293
0.027941117 0.66399997 -0.061703302 1.1245263e-38 344 293
0.029280664 0.66799998 -0.062075011 1.0692448e-38 345 293
-0.10345893 0.66299999 -0.062772833 1.7424251e-38 231 294
-0.10229647 0.66299999 -0.062772833 1.4839819e-38 232 294
-0.10113402 0.66299999 -0.062772833 9.5846685e-39 233 294
-0.10012234 0.66399997 -0.062867515 6.4607706e-39 234 294
-0.098958127 0.66399997 -0.062867515 8.1202836e-39 235 294
-0.097793914 0.66399997 -0.062867515 9.0386666e-39 236 294
-0.096484177 0.66299999 -0.062772833 9.4074491e-39 237 294
-0.095321715 0.66299999 -0.062772833 9.5918431e-39 238 294
-0.094017237 0.662 -0.062678158 9.6840388e-39 239 294
-0.092856526 0.662 -0.062678158 1.0510553e-38 240 294
-0.091557316 0.66100001 -0.062583476 1.0510553e-38 241 294
-0.090124831 0.65899998 -0.062394116 1.0969363e-38 242 294
-0.088834383 0.65799999 -0.062299434 1.106156e-38 243 294
-0.08768069 0.65799999 -0.062299434 1.1153388e-38 244 294
-0.086526997 0.65799999 -0.062299434 1.1429617e-38 245 294
-0.08524356 0.65700001 -0.06220476 1.13385e-38 246 294
-0.084091611 0.65700001 -0.06220476 1.13385e-38 247 294
-0.082939677 0.65700001 -0.06220476 1.1521815e-38 248 294
-0.081538759 0.65499997 -0.062015396 1.1429619e-38 249 294
-0.080390327 0.65499997 -0.062015396 1.1429266e-38 250 294
-0.079120919 0.65399998 -0.061920714 1.1429266e-38 251 294
-0.077974238 0.65399998 -0.061920714 1.1429269e-38 252 294
-0.076710083 0.653 -0.061826039 1.1337074e-38 253 294
-0.075565159 0.653 -0.061826039 1.1336718e-38 254 294
-0.074420229 0.653 -0.061826039 1.1336718e-38 255 294
-0.073163092 0.65200001 -0.061731357 1.1336718e-38 256 294
-0.07201992 0.65200001 -0.061731357 1.1336718e-38 257 294
-0.070876747 0.65200001 -0.061731357 1.1245957e-38 258 294
-0.069733568 0.65200001 -0.061731357 1.1338153e-38 259 294
-0.068590395 0.65200001 -0.061731357 1.124667e-38 260 294
-0.06744723 0.65200001 -0.061731357 1.1339224e-38 261 294
-0.066304058 0.65200001 -0.061731357 1.1339224e-38 262 294
-0.065160878 0.65200001 -0.061731357 1.143142e-38 263 294
-0.064017706 0.65200001 -0.061731357 1.1707281e-38 264 294
-0.062681668 0.64999998 -0.061541997 1.1707281e-38 265 294
-0.061541997 0.64999998 -0.061541997 1.1798755e-38 266 294
-0.060402326 0.64999998 -0.061541997 1.1706559e-38 267 294
-0.059262663 0.64999998 -0.061541997 1.1798758e-38 268 294
-0.058033578 0.64899999 -0.061447315 1.1798758e-38 269 294
-0.056808002 0.648 -0.06135264 1.1982437e-38 270 294
-0.055671841 0.648 -0.06135264 1.2074992e-38 271 294
-0.05453568 0.648 -0.06135264 1.2074992e-38 272 294
-0.053399518 0.648 -0.06135264 1.1982437e-38 273 294
-0.05226336 0.648 -0.06135264 1.207427e-38 274 294
-0.051127199 0.648 -0.06135264 1.207427e-38 275 294
-0.049991041 0.648 -0.06135264 1.207427e-38 276 294
-0.04885488 0.648 -0.06135264 1.1982073e-38 277 294
-0.047718719 0.648 -0.06135264 1.1798758e-38 278 294
-0.046510674 0.64700001 -0.061257958 1.1798758e-38 279 294
-0.045376267 0.64700001 -0.061257958 1.1706925e-38 280 294
-0.044241857 0.64700001 -0.061257958 1.1706925e-38 281 294
-0.043107454 0.64700001 -0.061257958 1.1799125e-38 282 294
-0.041973047 0.64700001 -0.061257958 1.1891321e-38 283 294
-0.04083864 0.64700001 -0.061257958 1.2074992e-38 284 294
-0.039704233 0.64700001 -0.061257958 1.2074992e-38 285 294
-0.038569827 0.64700001 -0.061257958 1.2074992e-38 286 294
-0.03743542 0.64700001 -0.061257958 1.1982437e-38 287 294
-0.036301013 0.64700001 -0.061257958 1.1981718e-38 288 294
-0.035166606 0.64700001 -0.061257958 1.1981718e-38 289 294
-0.0340322 0.64700001 -0.061257958 1.161473e-38 290 294
-0.032897793 0.64700001 -0.061257958 1.161473e-38 291 294
-0.031763386 0.64700001 -0.061257958 1.1706209e-38 292 294
-0.030628979 0.64700001 -0.061257958 1.1706209e-38 293 294
-0.029494572 0.64700001 -0.061257958 1.1889168e-38 294 294
-0.028360168 0.64700001 -0.061257958 1.1981724e-38 295 294
-0.027225759 0.64700001 -0.061257958 1.1981368e-38 296 294
-0.02613168 0.648 -0.06135264 1.1981368e-38 297 294
-0.024995521 0.648 -0.06135264 1.1982443e-38 298 294
-0.023859359 0.648 -0.06135264 1.1982443e-38 299 294
-0.0227232 0.648 -0.06135264 1.1982793e-38 300 294
-0.021553727 0.64700001 -0.061257958 1.1982793e-38 301 294
-0.02041932 0.64700001 -0.061257958 1.1983146e-38 302 294
-0.019314719 0.648 -0.06135264 1.1983146e-38 303 294
-0.01817856 0.648 -0.06135264 1.1983146e-38 304 294
-0.0170424 0.648 -0.06135264 1.1983146e-38 305 294
-0.015906241 0.648 -0.06135264 1.1982426e-38 306 294
-0.014792874 0.64899999 -0.061447315 1.1982426e-38 307 294
-0.013654959 0.64899999 -0.061447315 1.1798755e-38 308 294
-0.012517046 0.64899999 -0.061447315 1.1798755e-38 309 294
-0.011379133 0.64899999 -0.061447315 1.1706925e-38 310 294
-0.01024122 0.64899999 -0.061447315 1.1706925e-38 311 294
-0.0091033066 0.64899999 -0.061447315 1.1798758e-38 312 294
-0.0079653924 0.64899999 -0.061447315 1.1798758e-38 313 294
-0.0068274797 0.64899999 -0.061447315 1.1799831e-38 314 294
-0.0056895665 0.64899999 -0.061447315 1.1799831e-38 315 294
-0.0045586661 0.64999998 -0.061541997 1.2075695e-38 316 294
-0.0034189997 0.64999998 -0.061541997 1.2075695e-38 317 294
-0.0022793331 0.64999998 -0.061541997 1.2167535e-38 318 294
-0.0011431733 0.65200001 -0.061731357 1.2075339e-38 319 294
0 0.65200001 -0.061731357 1.2167538e-38 320 294
0.0011449266 0.653 -0.061826039 1.2167538e-38 321 294
0.00229336 0.65399998 -0.061920714 1.2259736e-38 322 294
0.0034400397 0.65399998 -0.061920714 1.2259736e-38 323 294
0.0045867199 0.65399998 -0.061920714 1.216755e-38 324 294
0.0057333997 0.65399998 -0.061920714 1.2259746e-38 325 294
0.0068800794 0.65399998 -0.061920714 1.2259749e-38 326 294
0.0080267601 0.65399998 -0.061920714 1.2351946e-38 327 294
0.0091874655 0.65499997 -0.062015396 1.2259746e-38 328 294
0.010335899 0.65499997 -0.062015396 1.2259746e-38 329 294
0.011484332 0.65499997 -0.062015396 1.207679e-38 330 294
0.01267134 0.65700001 -0.06220476 1.207679e-38 331 294
0.013823279 0.65700001 -0.06220476 1.2260102e-38 332 294
0.01497522 0.65700001 -0.06220476 1.2260102e-38 333 294
0.01612716 0.65700001 -0.06220476 1.2259751e-38 334 294
0.0173843 0.66100001 -0.062583476 1.2259751e-38 335 294
0.018543253 0.66100001 -0.062583476 1.1800225e-38 336 294
0.019702207 0.66100001 -0.062583476 1.1800225e-38 337 294
0.02086116 0.66100001 -0.062583476 1.1799869e-38 338 294
0.022020113 0.66100001 -0.062583476 1.1707674e-38 339 294
0.023214132 0.662 -0.062678158 1.134032e-38 340 294
-0.10245077 0.66399997 -0.064031735 1.7881951e-38 232 295
-0.10128655 0.66399997 -0.064031735 1.2903387e-38 233 295
-0.10012234 0.66399997 -0.064031735 8.6698644e-39 234 295
-0.098809093 0.66299999 -0.063935295 7.8401038e-39 235 295
-0.097646631 0.66299999 -0.063935295 8.1188458e-39 236 295
-0.096484177 0.66299999 -0.063935295 8.6720196e-39 237 295
-0.095177941 0.662 -0.063838862 9.4999978e-39 238 295
-0.094017237 0.662 -0.063838862 9.7765847e-39 239 295
-0.092856526 0.662 -0.063838862 1.0603456e-38 240 295
-0.091695823 0.662 -0.063838862 1.0695652e-38 241 295
-0.090398364 0.66100001 -0.063742429 1.0788553e-38 242 295
-0.088969387 0.65899998 -0.063549563 1.0788553e-38 243 295
-0.087813944 0.65899998 -0.063549563 1.1338853e-38 244 295
-0.086526997 0.65799999 -0.06345313 1.1338853e-38 245 295
-0.085373305 0.65799999 -0.06345313 1.1522531e-38 246 295
-0.084091611 0.65700001 -0.063356705 1.1522531e-38 247 295
-0.082939677 0.65700001 -0.063356705 1.1705483e-38 248 295
-0.081787735 0.65700001 -0.063356705 1.1705483e-38 249 295
-0.080390327 0.65499997 -0.063163824 1.1429619e-38 250 295
-0.079241894 0.65499997 -0.063163824 1.1429619e-38 251 295
-0.077974238 0.65399998 -0.063067392 1.1429266e-38 252 295
-0.076710083 0.653 -0.062970966 1.1429266e-38 253 295
-0.075565159 0.653 -0.062970966 1.1245601e-38 254 295
-0.074420229 0.653 -0.062970966 1.1245601e-38 255 295
-0.073275305 0.653 -0.062970966 1.1337797e-38 256 295
-0.072130375 0.653 -0.062970966 1.1245601e-38 257 295
-0.070876747 0.65200001 -0.062874533 1.1337074e-38 258 295
-0.069733568 0.65200001 -0.062874533 1.1429269e-38 259 295
-0.068590395 0.65200001 -0.062874533 1.1246673e-38 260 295
-0.06744723 0.65200001 -0.062874533 1.1246673e-38 261 295
-0.066304058 0.65200001 -0.062874533 1.1522181e-38 262 295
-0.065160878 0.65200001 -0.062874533 1.1522181e-38 263 295
-0.064017706 0.65200001 -0.062874533 1.1706212e-38 264 295
-0.062874533 0.65200001 -0.062874533 1.1706212e-38 265 295
-0.061731357 0.65200001 -0.062874533 1.1706209e-38 266 295
-0.060402326 0.64999998 -0.062681668 1.1706209e-38 267 295
-0.059262663 0.64999998 -0.062681668 1.1889524e-38 268 295
-0.058033578 0.64899999 -0.062585227 1.1889524e-38 269 295
-0.056895666 0.64899999 -0.062585227 1.1798056e-38 270 295
-0.05575775 0.64899999 -0.062585227 1.1982087e-38 271 295
-0.054619838 0.64899999 -0.062585227 1.1982443e-38 272 295
-0.053399518 0.648 -0.062488798 1.1982443e-38 273 295
-0.05226336 0.648 -0.062488798 1.198244e-38 274 295
-0.051206097 0.64899999 -0.062585227 1.198244e-38 275 295
-0.049991041 0.648 -0.062488798 1.1799125e-38 276 295
-0.04885488 0.648 -0.062488798 1.1706929e-38 277 295
-0.047718719 0.648 -0.062488798 1.1798406e-38 278 295
-0.046582561 0.648 -0.062488798 1.1706209e-38 279 295
-0.045376267 0.64700001 -0.062392361 1.1706212e-38 280 295
-0.044241857 0.64700001 -0.062392361 1.1798409e-38 281 295
-0.043107454 0.64700001 -0.062392361 1.1798056e-38 282 295
-0.041973047 0.64700001 -0.062392361 1.1982087e-38 283 295
-0.04083864 0.64700001 -0.062392361 1.1982443e-38 284 295
-0.039704233 0.64700001 -0.062392361 1.1982443e-38 285 295
-0.038569827 0.64700001 -0.062392361 1.2074639e-38 286 295
-0.03743542 0.64700001 -0.062392361 1.1982443e-38 287 295
-0.036301013 0.64700001 -0.062392361 1.1798053e-38 288 295
-0.035166606 0.64700001 -0.062392361 1.1798053e-38 289 295
-0.0340322 0.64700001 -0.062392361 1.1706929e-38 290 295
-0.032897793 0.64700001 -0.062392361 1.1706929e-38 291 295
-0.031763386 0.64700001 -0.062392361 1.1523617e-38 292 295
-0.030628979 0.64700001 -0.062392361 1.1523617e-38 293 295
-0.029494572 0.64700001 -0.062392361 1.1706929e-38 294 295
-0.028360168 0.64700001 -0.062392361 1.1706929e-38 295 295
-0.027225759 0.64700001 -0.062392361 1.1798406e-38 296 295
-0.02613168 0.648 -0.062488798 1.1798406e-38 297 295
-0.024995521 0.648 -0.062488798 1.1982437e-38 298 295
-0.023859359 0.648 -0.062488798 1.1982437e-38 299 295
-0.0227232 0.648 -0.062488798 1.1798758e-38 300 295
-0.02158704 0.648 -0.062488798 1.1798758e-38 301 295
-0.020450879 0.648 -0.062488798 1.1983146e-38 302 295
-0.019314719 0.648 -0.062488798 1.1983146e-38 303 295
-0.018206613 0.64899999 -0.062585227 1.1798755e-38 304 295
-0.017068699 0.64899999 -0.062585227 1.1798755e-38 305 295
-0.015930785 0.64899999 -0.062585227 1.1982423e-38 306 295
-0.014792874 0.64899999 -0.062585227 1.1982423e-38 307 295
-0.013654959 0.64899999 -0.062585227 1.1798755e-38 308 295
-0.012517046 0.64899999 -0.062585227 1.1798755e-38 309 295
-0.011379133 0.64899999 -0.062585227 1.1799125e-38 310 295
-0.01024122 0.64899999 -0.062585227 1.1799125e-38 311 295
-0.0091033066 0.64899999 -0.062585227 1.1799125e-38 312 295
-0.0079653924 0.64899999 -0.062585227 1.1799125e-38 313 295
-0.0068274797 0.64899999 -0.062585227 1.1799478e-38 314 295
-0.005698333 0.64999998 -0.062681668 1.1891674e-38 315 295
-0.0045586661 0.64999998 -0.062681668 1.2074986e-38 316 295
-0.0034189997 0.64999998 -0.062681668 1.2074986e-38 317 295
-0.0022793331 0.64999998 -0.062681668 1.2074986e-38 318 295
-0.0011396665 0.64999998 -0.062681668 1.2167182e-38 319 295
0 0.65200001 -0.062874533 1.1984223e-38 320 295
0.0011449266 0.653 -0.062970966 1.1984223e-38 321 295
0.00229336 0.65399998 -0.063067392 1.2167538e-38 322 295
0.0034400397 0.65399998 -0.063067392 1.2259733e-38 323 295
0.0045867199 0.65399998 -0.063067392 1.2260102e-38 324 295
0.0057333997 0.65399998 -0.063067392 1.2352297e-38 325 295
0.0068800794 0.65399998 -0.063067392 1.2351946e-38 326 295
0.008039033 0.65499997 -0.063163824 1.2351946e-38 327 295
0.0091874655 0.65499997 -0.063163824 1.2259746e-38 328 295
0.010335899 0.65499997 -0.063163824 1.2259746e-38 329 295
0.011484332 0.65499997 -0.063163824 1.1984594e-38 330 295
0.01267134 0.65700001 -0.063356705 1.1984594e-38 331 295
0.013823279 0.65700001 -0.063356705 1.1983875e-38 332 295
0.014998012 0.65799999 -0.06345313 1.2167906e-38 333 295
0.016151706 0.65799999 -0.06345313 1.1983169e-38 334 295
0.0173843 0.66100001 -0.063742429 1.1890973e-38 335 295
0.018543253 0.66100001 -0.063742429 1.1890623e-38 336 295
0.019761819 0.66299999 -0.063935295 1.1890623e-38 337 295
0.020892721 0.662 -0.063838862 1.1430731e-38 338 295
0.022053426 0.662 -0.063838862 1.1338534e-38 339 295
-0.10128655 0.66399997 -0.06519594 1.6777437e-38 233 296
-0.10012234 0.66399997 -0.06519594 1.4380296e-38 234 296
-0.098809093 0.66299999 -0.065097757 1.2444188e-38 235 296
-0.097646631 0.66299999 -0.065097757 1.1340333e-38 236 296
-0.096484177 0.66299999 -0.065097757 1.0787159e-38 237 296
-0.095177941 0.662 -0.064999565 9.7751554e-39 238 296
-0.094017237 0.662 -0.064999565 9.5911243e-39 239 296
-0.092856526 0.662 -0.064999565 1.0693852e-38 240 296
-0.091695823 0.662 -0.064999565 1.115483e-38 241 296
-0.090398364 0.66100001 -0.064901382 1.1064064e-38 242 296
-0.089239404 0.66100001 -0.064901382 1.1064064e-38 243 296
-0.088080451 0.66100001 -0.064901382 1.1522887e-38 244 296
-0.086658493 0.65899998 -0.064705007 1.1615083e-38 245 296
-0.085503049 0.65899998 -0.064705007 1.1889875e-38 246 296
-0.084219612 0.65799999 -0.064606823 1.1889875e-38 247 296
-0.082939677 0.65700001 -0.064508639 1.170548e-38 248 296
-0.081787735 0.65700001 -0.064508639 1.170548e-38 249 296
-0.080390327 0.65499997 -0.064312264 1.1429973e-38 250 296
-0.079241894 0.65499997 -0.064312264 1.1522168e-38 251 296
-0.077974238 0.65399998 -0.064214081 1.1521815e-38 252 296
-0.076710083 0.653 -0.064115889 1.1429619e-38 253 296
-0.075565159 0.653 -0.064115889 1.1246673e-38 254 296
-0.074306265 0.65200001 -0.064017706 1.1246673e-38 255 296
-0.073163092 0.65200001 -0.064017706 1.1246676e-38 256 296
-0.072130375 0.653 -0.064115889 1.1154121e-38 257 296
-0.070985451 0.653 -0.064115889 1.1245957e-38 258 296
-0.069733568 0.65200001 -0.064017706 1.1245957e-38 259 296
-0.068590395 0.65200001 -0.064017706 1.1245601e-38 260 296
-0.06744723 0.65200001 -0.064017706 1.1245601e-38 261 296
-0.066304058 0.65200001 -0.064017706 1.1337797e-38 262 296
-0.065160878 0.65200001 -0.064017706 1.1522186e-38 263 296
-0.064017706 0.65200001 -0.064017706 1.1522186e-38 264 296
-0.062874533 0.65200001 -0.064017706 1.1522186e-38 265 296
-0.061731357 0.65200001 -0.064017706 1.1522184e-38 266 296
-0.060402326 0.64999998 -0.063821331 1.1338153e-38 267 296
-0.059262663 0.64999998 -0.063821331 1.1796975e-38 268 296
-0.058122993 0.64999998 -0.063821331 1.1796975e-38 269 296
-0.056895666 0.64899999 -0.063723139 1.1614026e-38 270 296
-0.05575775 0.64899999 -0.063723139 1.1706223e-38 271 296
-0.054619838 0.64899999 -0.063723139 1.1706579e-38 272 296
-0.053399518 0.648 -0.063624963 1.1798775e-38 273 296
-0.05226336 0.648 -0.063624963 1.1706579e-38 274 296
-0.051206097 0.64899999 -0.063723139 1.1706579e-38 275 296
-0.050068185 0.64899999 -0.063723139 1.1614382e-38 276 296
-0.04885488 0.648 -0.063624963 1.1614382e-38 277 296
-0.047718719 0.648 -0.063624963 1.1614379e-38 278 296
-0.046582561 0.648 -0.063624963 1.1614379e-38 279 296
-0.0454464 0.648 -0.063624963 1.1522186e-38 280 296
-0.044310238 0.648 -0.063624963 1.1614382e-38 281 296
-0.043174081 0.648 -0.063624963 1.1614026e-38 282 296
-0.041973047 0.64700001 -0.063526772 1.1614026e-38 283 296
-0.04083864 0.64700001 -0.063526772 1.1706576e-38 284 296
-0.039704233 0.64700001 -0.063526772 1.1798772e-38 285 296
-0.038569827 0.64700001 -0.063526772 1.1799128e-38 286 296
-0.03743542 0.64700001 -0.063526772 1.1706932e-38 287 296
-0.036301013 0.64700001 -0.063526772 1.1981724e-38 288 296
-0.035166606 0.64700001 -0.063526772 1.1981724e-38 289 296
-0.0340322 0.64700001 -0.063526772 1.1706929e-38 290 296
-0.032897793 0.64700001 -0.063526772 1.1799125e-38 291 296
-0.031763386 0.64700001 -0.063526772 1.1799478e-38 292 296
-0.030628979 0.64700001 -0.063526772 1.1799478e-38 293 296
-0.029494572 0.64700001 -0.063526772 1.1982793e-38 294 296
-0.028360168 0.64700001 -0.063526772 1.1982793e-38 295 296
-0.027225759 0.64700001 -0.063526772 1.1982793e-38 296 296
-0.02613168 0.648 -0.063624963 1.1982793e-38 297 296
-0.024995521 0.648 -0.063624963 1.198279e-38 298 296
-0.023859359 0.648 -0.063624963 1.198279e-38 299 296
-0.0227232 0.648 -0.063624963 1.1983146e-38 300 296
-0.02158704 0.648 -0.063624963 1.1983146e-38 301 296
-0.020450879 0.648 -0.063624963 1.1983146e-38 302 296
-0.019344525 0.64899999 -0.063723139 1.1983146e-38 303 296
-0.018206613 0.64899999 -0.063723139 1.2074623e-38 304 296
-0.017068699 0.64899999 -0.063723139 1.2074623e-38 305 296
-0.015930785 0.64899999 -0.063723139 1.1983144e-38 306 296
-0.014792874 0.64899999 -0.063723139 1.1799111e-38 307 296
-0.013654959 0.64899999 -0.063723139 1.1798758e-38 308 296
-0.012536332 0.64999998 -0.063821331 1.1798758e-38 309 296
-0.011396666 0.64999998 -0.063821331 1.1799128e-38 310 296
-0.01024122 0.64899999 -0.063723139 1.1706932e-38 311 296
-0.0091033066 0.64899999 -0.063723139 1.1799125e-38 312 296
-0.0079776663 0.64999998 -0.063821331 1.1799125e-38 313 296
-0.0068379994 0.64999998 -0.063821331 1.1799125e-38 314 296
-0.005698333 0.64999998 -0.063821331 1.1799125e-38 315 296
-0.0045586661 0.64999998 -0.063821331 1.1799125e-38 316 296
-0.0034189997 0.64999998 -0.063821331 1.1891321e-38 317 296
-0.0022793331 0.64999998 -0.063821331 1.1891674e-38 318 296
-0.0011396665 0.64999998 -0.063821331 1.1891674e-38 319 296
0 0.65200001 -0.064017706 1.2166819e-38 320 296
0.0011449266 0.653 -0.064115889 1.2166819e-38 321 296
0.00229336 0.65399998 -0.064214081 1.1983869e-38 322 296
0.0034400397 0.65399998 -0.064214081 1.2260455e-38 323 296
0.0045867199 0.65399998 -0.064214081 1.2259746e-38 324 296
0.0057333997 0.65399998 -0.064214081 1.2259746e-38 325 296
0.0068800794 0.65399998 -0.064214081 1.216755e-38 326 296
0.008039033 0.65499997 -0.064312264 1.216755e-38 327 296
0.0091874655 0.65499997 -0.064312264 1.1984238e-38 328 296
0.010335899 0.65499997 -0.064312264 1.1892042e-38 329 296
0.011484332 0.65499997 -0.064312264 1.1799491e-38 330 296
0.01267134 0.65700001 -0.064508639 1.1799491e-38 331 296
0.013823279 0.65700001 -0.064508639 1.1615107e-38 332 296
0.014998012 0.65799999 -0.064606823 1.1615107e-38 333 296
0.016151706 0.65799999 -0.064606823 1.143001e-38 334 296
0.017410601 0.662 -0.064999565 1.1245619e-38 335 296
0.018571306 0.662 -0.064999565 1.0785011e-38 336 296
0.019761819 0.66299999 -0.065097757 1.0324033e-38 337 296
-0.098958127 0.66399997 -0.066360161 1.7329892e-38 235 297
-0.097793914 0.66399997 -0.066360161 1.5947657e-38 236 297
-0.096484177 0.66299999 -0.066260219 1.4195941e-38 237 297
-0.095321715 0.66299999 -0.066260219 1.253817e-38 238 297
-0.094017237 0.662 -0.066160277 1.0971204e-38 239 297
-0.092856526 0.662 -0.066160277 1.0876802e-38 240 297
-0.091695823 0.662 -0.066160277 1.1061193e-38 241 297
-0.090398364 0.66100001 -0.066060342 1.0971868e-38 242 297
-0.089239404 0.66100001 -0.066060342 1.115626e-38 243 297
-0.088080451 0.66100001 -0.066060342 1.1706562e-38 244 297
-0.086921498 0.66100001 -0.066060342 1.1798758e-38 245 297
-0.085503049 0.65899998 -0.065860458 1.1981707e-38 246 297
-0.084347598 0.65899998 -0.065860458 1.1981707e-38 247 297
-0.08306592 0.65799999 -0.065760516 1.1798032e-38 248 297
-0.081787735 0.65700001 -0.065660581 1.1798032e-38 249 297
-0.080390327 0.65499997 -0.065460697 1.1522168e-38 250 297
-0.079241894 0.65499997 -0.065460697 1.1614364e-38 251 297
-0.077974238 0.65399998 -0.065360755 1.1522531e-38 252 297
-0.076710083 0.653 -0.06526082 1.13385e-38 253 297
-0.075565159 0.653 -0.06526082 1.1338503e-38 254 297
-0.074306265 0.65200001 -0.065160878 1.1338503e-38 255 297
-0.073163092 0.65200001 -0.065160878 1.1338506e-38 256 297
-0.072130375 0.653 -0.06526082 1.1338506e-38 257 297
-0.070985451 0.653 -0.06526082 1.1245951e-38 258 297
-0.069733568 0.65200001 -0.065160878 1.1245951e-38 259 297
-0.068590395 0.65200001 -0.065160878 1.1245601e-38 260 297
-0.06744723 0.65200001 -0.065160878 1.1337797e-38 261 297
-0.066304058 0.65200001 -0.065160878 1.1337799e-38 262 297
-0.065160878 0.65200001 -0.065160878 1.1521831e-38 263 297
-0.064017706 0.65200001 -0.065160878 1.1337797e-38 264 297
-0.062874533 0.65200001 -0.065160878 1.1337797e-38 265 297
-0.061731357 0.65200001 -0.065160878 1.1521465e-38 266 297
-0.060402326 0.64999998 -0.064960994 1.1429269e-38 267 297
-0.059262663 0.64999998 -0.064960994 1.1520749e-38 268 297
-0.058122993 0.64999998 -0.064960994 1.170478e-38 269 297
-0.056895666 0.64899999 -0.064861059 1.1521833e-38 270 297
-0.05575775 0.64899999 -0.064861059 1.1614029e-38 271 297
-0.054619838 0.64899999 -0.064861059 1.1521833e-38 272 297
-0.053481925 0.64899999 -0.064861059 1.1614029e-38 273 297
-0.052344013 0.64899999 -0.064861059 1.1338521e-38 274 297
-0.051206097 0.64899999 -0.064861059 1.1338521e-38 275 297
-0.050068185 0.64899999 -0.064861059 1.1521833e-38 276 297
-0.048930272 0.64899999 -0.064861059 1.1337802e-38 277 297
-0.047792356 0.64899999 -0.064861059 1.1521468e-38 278 297
-0.046582561 0.648 -0.064761117 1.1521468e-38 279 297
-0.0454464 0.648 -0.064761117 1.1522184e-38 280 297
-0.044310238 0.648 -0.064761117 1.1522184e-38 281 297
-0.043174081 0.648 -0.064761117 1.1522186e-38 282 297
-0.042037919 0.648 -0.064761117 1.1522186e-38 283 297
-0.040901758 0.648 -0.064761117 1.1522181e-38 284 297
-0.0397656 0.648 -0.064761117 1.1614376e-38 285 297
-0.038629439 0.648 -0.064761117 1.1706929e-38 286 297
-0.037493281 0.648 -0.064761117 1.1614732e-38 287 297
-0.03635712 0.648 -0.064761117 1.1889524e-38 288 297
-0.035166606 0.64700001 -0.064661182 1.1981721e-38 289 297
-0.0340322 0.64700001 -0.064661182 1.1706932e-38 290 297
-0.032897793 0.64700001 -0.064661182 1.1799128e-38 291 297
-0.031763386 0.64700001 -0.064661182 1.1706929e-38 292 297
-0.030628979 0.64700001 -0.064661182 1.1706929e-38 293 297
-0.029494572 0.64700001 -0.064661182 1.1799481e-38 294 297
-0.028404001 0.648 -0.064761117 1.1799481e-38 295 297
-0.02726784 0.648 -0.064761117 1.198279e-38 296 297
-0.026172007 0.64899999 -0.064861059 1.2074986e-38 297 297
-0.025034092 0.64899999 -0.064861059 1.2074986e-38 298 297
-0.023896178 0.64899999 -0.064861059 1.2074986e-38 299 297
-0.022758266 0.64899999 -0.064861059 1.1983146e-38 300 297
-0.021620352 0.64899999 -0.064861059 1.1983146e-38 301 297
-0.02048244 0.64899999 -0.064861059 1.198207e-38 302 297
-0.019344525 0.64899999 -0.064861059 1.2074267e-38 303 297
-0.018206613 0.64899999 -0.064861059 1.1982073e-38 304 297
-0.017068699 0.64899999 -0.064861059 1.1982073e-38 305 297
-0.015930785 0.64899999 -0.064861059 1.1798758e-38 306 297
-0.014792874 0.64899999 -0.064861059 1.1798758e-38 307 297
-0.013654959 0.64899999 -0.064861059 1.1706206e-38 308 297
-0.012536332 0.64999998 -0.064960994 1.1706206e-38 309 297
-0.011396666 0.64999998 -0.064960994 1.1614376e-38 310 297
-0.010256999 0.64999998 -0.064960994 1.1706932e-38 311 297
-0.0091173323 0.64999998 -0.064960994 1.1523261e-38 312 297
-0.0079776663 0.64999998 -0.064960994 1.1523261e-38 313 297
-0.0068379994 0.64999998 -0.064960994 1.1799128e-38 314 297
-0.005698333 0.64999998 -0.064960994 1.1799128e-38 315 297
-0.0045586661 0.64999998 -0.064960994 1.198244e-38 316 297
-0.0034189997 0.64999998 -0.064960994 1.2074636e-38 317 297
-0.0022793331 0.64999998 -0.064960994 1.1891321e-38 318 297
-0.0011431733 0.65200001 -0.065160878 1.1891321e-38 319 297
0 0.65200001 -0.065160878 1.2166822e-38 320 297
0.0011449266 0.653 -0.06526082 1.2166822e-38 321 297
0.00229336 0.65399998 -0.065360755 1.1891674e-38 322 297
0.0034400397 0.65399998 -0.065360755 1.1983869e-38 323 297
0.0045867199 0.65399998 -0.065360755 1.1983519e-38 324 297
0.0057333997 0.65399998 -0.065360755 1.1983519e-38 325 297
0.0068800794 0.65399998 -0.065360755 1.1799491e-38 326 297
0.008039033 0.65499997 -0.065460697 1.1799491e-38 327 297
0.0091874655 0.65499997 -0.065460697 1.1799494e-38 328 297
0.010335899 0.65499997 -0.065460697 1.1615462e-38 329 297
0.011484332 0.65499997 -0.065460697 1.1706226e-38 330 297
0.01267134 0.65700001 -0.065660581 1.1706226e-38 331 297
0.01384432 0.65799999 -0.065760516 1.152148e-38 332 297
0.014998012 0.65799999 -0.065760516 1.1245253e-38 333 297
-0.088080451 0.66100001 -0.067219295 1.1798406e-38 244 298
-0.086921498 0.66100001 -0.067219295 1.1982437e-38 245 298
-0.085762545 0.66100001 -0.067219295 1.198207e-38 246 298
-0.084603593 0.66100001 -0.067219295 1.198207e-38 247 298
-0.08306592 0.65799999 -0.066914216 1.1982426e-38 248 298
-0.081787735 0.65700001 -0.066812515 1.1889872e-38 249 298
-0.080390327 0.65499997 -0.066609129 1.1614011e-38 250 298
-0.079241894 0.65499997 -0.066609129 1.1706206e-38 251 298
-0.077974238 0.65399998 -0.066507436 1.1522534e-38 252 298
-0.076827556 0.65399998 -0.066507436 1.1522534e-38 253 298
-0.075565159 0.653 -0.066405743 1.1338506e-38 254 298
-0.074420229 0.653 -0.066405743 1.1338506e-38 255 298
-0.073275305 0.653 -0.066405743 1.1339224e-38 256 298
-0.072130375 0.653 -0.066405743 1.124667e-38 257 298
-0.070985451 0.653 -0.066405743 1.1338506e-38 258 298
-0.069840528 0.653 -0.066405743 1.1338506e-38 259 298
-0.068695597 0.653 -0.066405743 1.1338153e-38 260 298
-0.06744723 0.65200001 -0.066304058 1.1338153e-38 261 298
-0.066304058 0.65200001 -0.066304058 1.1337797e-38 262 298
-0.06526082 0.653 -0.066405743 1.1522186e-38 263 298
-0.064115889 0.653 -0.066405743 1.1338153e-38 264 298
-0.062970966 0.653 -0.066405743 1.1338153e-38 265 298
-0.061731357 0.65200001 -0.066304058 1.1521462e-38 266 298
-0.060588185 0.65200001 -0.066304058 1.1429266e-38 267 298
-0.059445009 0.65200001 -0.066304058 1.1520749e-38 268 298
-0.058122993 0.64999998 -0.066100657 1.1520749e-38 269 298
-0.056983333 0.64999998 -0.066100657 1.1337446e-38 270 298
-0.055843662 0.64999998 -0.066100657 1.1337446e-38 271 298
-0.054703996 0.64999998 -0.066100657 1.1337446e-38 272 298
-0.053564329 0.64999998 -0.066100657 1.1337446e-38 273 298
-0.052424666 0.64999998 -0.066100657 1.1337802e-38 274 298
-0.051284995 0.64999998 -0.066100657 1.1245248e-38 275 298
-0.050068185 0.64899999 -0.065998971 1.1428563e-38 276 298
-0.048930272 0.64899999 -0.065998971 1.1428563e-38 277 298
-0.047792356 0.64899999 -0.065998971 1.1703705e-38 278 298
-0.046654444 0.64899999 -0.065998971 1.1703705e-38 279 298
-0.045516532 0.64899999 -0.065998971 1.1520746e-38 280 298
-0.044378616 0.64899999 -0.065998971 1.1704777e-38 281 298
-0.043240704 0.64899999 -0.065998971 1.1521465e-38 282 298
-0.042037919 0.648 -0.065897278 1.161366e-38 283 298
-0.040901758 0.648 -0.065897278 1.1614014e-38 284 298
-0.0397656 0.648 -0.065897278 1.1614014e-38 285 298
-0.038629439 0.648 -0.065897278 1.1706209e-38 286 298
-0.037493281 0.648 -0.065897278 1.1706209e-38 287 298
-0.03635712 0.648 -0.065897278 1.1706212e-38 288 298
-0.035220958 0.648 -0.065897278 1.1706212e-38 289 298
-0.0340322 0.64700001 -0.065795586 1.1798409e-38 290 298
-0.032897793 0.64700001 -0.065795586 1.1798409e-38 291 298
-0.031763386 0.64700001 -0.065795586 1.1798406e-38 292 298
-0.030628979 0.64700001 -0.065795586 1.1798406e-38 293 298
-0.029540159 0.648 -0.065897278 1.1798761e-38 294 298
-0.028404001 0.648 -0.065897278 1.1798761e-38 295 298
-0.02726784 0.648 -0.065897278 1.198207e-38 296 298
-0.026172007 0.64899999 -0.065998971 1.2074267e-38 297 298
-0.025034092 0.64899999 -0.065998971 1.1982793e-38 298 298
-0.023932999 0.64999998 -0.066100657 1.1982793e-38 299 298
-0.022793332 0.64999998 -0.066100657 1.198207e-38 300 298
-0.021620352 0.64899999 -0.065998971 1.198207e-38 301 298
-0.02048244 0.64899999 -0.065998971 1.1982073e-38 302 298
-0.019344525 0.64899999 -0.065998971 1.1982073e-38 303 298
-0.018206613 0.64899999 -0.065998971 1.1798409e-38 304 298
-0.017068699 0.64899999 -0.065998971 1.1706212e-38 305 298
-0.015930785 0.64899999 -0.065998971 1.1889524e-38 306 298
-0.014815666 0.64999998 -0.066100657 1.1889524e-38 307 298
-0.013675999 0.64999998 -0.066100657 1.1889521e-38 308 298
-0.012536332 0.64999998 -0.066100657 1.1797326e-38 309 298
-0.011396666 0.64999998 -0.066100657 1.1522537e-38 310 298
-0.01028856 0.65200001 -0.066304058 1.1614732e-38 311 298
-0.0091453865 0.65200001 -0.066304058 1.1706925e-38 312 298
-0.0080022132 0.65200001 -0.066304058 1.161473e-38 313 298
-0.0068590399 0.65200001 -0.066304058 1.1798761e-38 314 298
-0.0057158666 0.65200001 -0.066304058 1.1798761e-38 315 298
-0.0045726933 0.65200001 -0.066304058 1.1706925e-38 316 298
-0.0034295199 0.65200001 -0.066304058 1.1799481e-38 317 298
-0.0022863466 0.65200001 -0.066304058 1.1982793e-38 318 298
-0.0011431733 0.65200001 -0.066304058 1.1982793e-38 319 298
0 0.653 -0.066405743 1.1982793e-38 320 298
0.0011449266 0.653 -0.066405743 1.2074989e-38 321 298
0.00229336 0.65399998 -0.066507436 1.2074992e-38 322 298
0.0034400397 0.65399998 -0.066507436 1.2074992e-38 323 298
0.0045867199 0.65399998 -0.066507436 1.1799128e-38 324 298
0.0057333997 0.65399998 -0.066507436 1.1799128e-38 325 298
0.0068800794 0.65399998 -0.066507436 1.1523264e-38 326 298
0.008039033 0.65499997 -0.066609129 1.1523264e-38 327 298
0.0091874655 0.65499997 -0.066609129 1.1520759e-38 328 298
0.010335899 0.65499997 -0.066609129 1.1336367e-38 329 298
0.011519399 0.65700001 -0.066812515 1.0967957e-38 330 298
0.01267134 0.65700001 -0.066812515 1.0599175e-38 331 298
-0.086921498 0.66100001 -0.068378247 1.2074636e-38 245 299
-0.085762545 0.66100001 -0.068378247 1.2257935e-38 246 299
-0.084603593 0.66100001 -0.068378247 1.2165738e-38 247 299
-0.083192155 0.65899998 -0.068171352 1.2165382e-38 248 299
-0.08191222 0.65799999 -0.068067901 1.1981351e-38 249 299
-0.080390327 0.65499997 -0.067757562 1.1889877e-38 250 299
-0.079241894 0.65499997 -0.067757562 1.1889877e-38 251 299
-0.077974238 0.65399998 -0.067654118 1.1614367e-38 252 299
-0.076827556 0.65399998 -0.067654118 1.1614367e-38 253 299
-0.075680874 0.65399998 -0.067654118 1.1522531e-38 254 299
-0.074420229 0.653 -0.067550674 1.1522531e-38 255 299
-0.073275305 0.653 -0.067550674 1.1522537e-38 256 299
-0.072130375 0.653 -0.067550674 1.1338506e-38 257 299
-0.070985451 0.653 -0.067550674 1.133815e-38 258 299
-0.069840528 0.653 -0.067550674 1.133815e-38 259 299
-0.068695597 0.653 -0.067550674 1.1246676e-38 260 299
-0.067550674 0.653 -0.067550674 1.1246676e-38 261 299
-0.066405743 0.653 -0.067550674 1.1246676e-38 262 299
-0.06526082 0.653 -0.067550674 1.1246676e-38 263 299
-0.064115889 0.653 -0.067550674 1.124632e-38 264 299
-0.062970966 0.653 -0.067550674 1.1338515e-38 265 299
-0.061826039 0.653 -0.067550674 1.133815e-38 266 299
-0.060681112 0.653 -0.067550674 1.1245954e-38 267 299
-0.059445009 0.65200001 -0.06744723 1.1245957e-38 268 299
-0.058301836 0.65200001 -0.06744723 1.1245957e-38 269 299
-0.056983333 0.64999998 -0.067240328 1.1153774e-38 270 299
-0.055843662 0.64999998 -0.067240328 1.1153774e-38 271 299
-0.054703996 0.64999998 -0.067240328 1.1245253e-38 272 299
-0.053564329 0.64999998 -0.067240328 1.1152699e-38 273 299
-0.052424666 0.64999998 -0.067240328 1.1245253e-38 274 299
-0.051284995 0.64999998 -0.067240328 1.1060503e-38 275 299
-0.050068185 0.64899999 -0.067136884 1.1059437e-38 276 299
-0.048930272 0.64899999 -0.067136884 1.096724e-38 277 299
-0.047792356 0.64899999 -0.067136884 1.096724e-38 278 299
-0.046654444 0.64899999 -0.067136884 1.1059437e-38 279 299
-0.045516532 0.64899999 -0.067136884 1.1336014e-38 280 299
-0.044378616 0.64899999 -0.067136884 1.1336014e-38 281 299
-0.043240704 0.64899999 -0.067136884 1.1153421e-38 282 299
-0.042102791 0.64899999 -0.067136884 1.1153421e-38 283 299
-0.040901758 0.648 -0.067033432 1.1153418e-38 284 299
-0.0397656 0.648 -0.067033432 1.1245972e-38 285 299
-0.038629439 0.648 -0.067033432 1.1245969e-38 286 299
-0.037493281 0.648 -0.067033432 1.1338165e-38 287 299
-0.03635712 0.648 -0.067033432 1.1338165e-38 288 299
-0.035220958 0.648 -0.067033432 1.1338165e-38 289 299
-0.034084801 0.648 -0.067033432 1.1430361e-38 290 299
-0.032948639 0.648 -0.067033432 1.1430361e-38 291 299
-0.031812482 0.648 -0.067033432 1.1430714e-38 292 299
-0.03067632 0.648 -0.067033432 1.1430714e-38 293 299
-0.029540159 0.648 -0.067033432 1.1614382e-38 294 299
-0.028404001 0.648 -0.067033432 1.1614382e-38 295 299
-0.027309919 0.64899999 -0.067136884 1.1706932e-38 296 299
-0.026172007 0.64899999 -0.067136884 1.1706932e-38 297 299
-0.025072664 0.64999998 -0.067240328 1.1799128e-38 298 299
-0.023932999 0.64999998 -0.067240328 1.1706932e-38 299 299
-0.022793332 0.64999998 -0.067240328 1.1706576e-38 300 299
-0.021653665 0.64999998 -0.067240328 1.1614379e-38 301 299
-0.020513998 0.64999998 -0.067240328 1.1614382e-38 302 299
-0.019374331 0.64999998 -0.067240328 1.1706579e-38 303 299
-0.018234665 0.64999998 -0.067240328 1.1614382e-38 304 299
-0.017095 0.64999998 -0.067240328 1.1614382e-38 305 299
-0.015955333 0.64999998 -0.067240328 1.1522186e-38 306 299
-0.014815666 0.64999998 -0.067240328 1.1522186e-38 307 299
-0.013675999 0.64999998 -0.067240328 1.1338153e-38 308 299
-0.012536332 0.64999998 -0.067240328 1.1338153e-38 309 299
-0.011396666 0.64999998 -0.067240328 1.1338869e-38 310 299
-0.01028856 0.65200001 -0.06744723 1.1338869e-38 311 299
-0.0091453865 0.65200001 -0.06744723 1.143142e-38 312 299
-0.0080022132 0.65200001 -0.06744723 1.143142e-38 313 299
-0.0068590399 0.65200001 -0.06744723 1.1523617e-38 314 299
-0.005698333 0.64999998 -0.067240328 1.1523617e-38 315 299
-0.0045586661 0.64999998 -0.067240328 1.1523261e-38 316 299
-0.0034189997 0.64999998 -0.067240328 1.1523261e-38 317 299
-0.0022793331 0.64999998 -0.067240328 1.1523264e-38 318 299
-0.0011431733 0.65200001 -0.06744723 1.1523264e-38 319 299
0 0.65399998 -0.067654118 1.1430714e-38 320 299
0.00114668 0.65399998 -0.067654118 1.1522911e-38 321 299
0.00229336 0.65399998 -0.067654118 1.1522917e-38 322 299
0.0034400397 0.65399998 -0.067654118 1.1522917e-38 323 299
0.0045867199 0.65399998 -0.067654118 1.1521831e-38 324 299
0.0057333997 0.65399998 -0.067654118 1.1521831e-38 325 299
0.0068800794 0.65399998 -0.067654118 1.0971178e-38 326 299
0.008039033 0.65499997 -0.067757562 1.0694951e-38 327 299
0.0091874655 0.65499997 -0.067757562 1.0508427e-38 328 299
0.010335899 0.65499997 -0.067757562 1.0324036e-38 329 299
-0.083192155 0.65899998 -0.069326796 1.1981371e-38 248 300
-0.08191222 0.65799999 -0.069221593 1.1981371e-38 249 300
-0.080635801 0.65700001 -0.069116399 1.1706209e-38 250 300
-0.079241894 0.65499997 -0.068905994 1.1706209e-38 251 300
-0.077974238 0.65399998 -0.068800792 1.161473e-38 252 300
-0.076827556 0.65399998 -0.068800792 1.1522534e-38 253 300
-0.075680874 0.65399998 -0.068800792 1.1522537e-38 254 300
-0.074534193 0.65399998 -0.068800792 1.1522537e-38 255 300
-0.073275305 0.653 -0.068695597 1.1338869e-38 256 300
-0.072130375 0.653 -0.068695597 1.1338869e-38 257 300
-0.071094155 0.65399998 -0.068800792 1.1338153e-38 258 300
-0.069947474 0.65399998 -0.068800792 1.1245957e-38 259 300
-0.068800792 0.65399998 -0.068800792 1.1245954e-38 260 300
-0.067550674 0.653 -0.068695597 1.1245954e-38 261 300
-0.066405743 0.653 -0.068695597 1.1246673e-38 262 300
-0.06526082 0.653 -0.068695597 1.1246673e-38 263 300
-0.064115889 0.653 -0.068695597 1.124632e-38 264 300
-0.062970966 0.653 -0.068695597 1.124632e-38 265 300
-0.061826039 0.653 -0.068695597 1.1337799e-38 266 300
-0.060681112 0.653 -0.068695597 1.1245604e-38 267 300
-0.059445009 0.65200001 -0.068590395 1.1245604e-38 268 300
-0.058301836 0.65200001 -0.068590395 1.1153408e-38 269 300
-0.057158668 0.65200001 -0.068590395 1.1153052e-38 270 300
-0.056015491 0.65200001 -0.068590395 1.1153052e-38 271 300
-0.054703996 0.64999998 -0.068379998 1.1152339e-38 272 300
-0.053564329 0.64999998 -0.068379998 1.133637e-38 273 300
-0.052424666 0.64999998 -0.068379998 1.1059789e-38 274 300
-0.051284995 0.64999998 -0.068379998 1.0967234e-38 275 300
-0.050145328 0.64999998 -0.068379998 1.1057638e-38 276 300
-0.049005665 0.64999998 -0.068379998 1.059666e-38 277 300
-0.047865998 0.64999998 -0.068379998 1.0046007e-38 278 300
-0.046726331 0.64999998 -0.068379998 1.0414431e-38 279 300
-0.045586664 0.64999998 -0.068379998 1.1240584e-38 280 300
-0.044446997 0.64999998 -0.068379998 1.1424976e-38 281 300
-0.043240704 0.64899999 -0.068274796 1.1150181e-38 282 300
-0.042102791 0.64899999 -0.068274796 1.1242735e-38 283 300
-0.040964879 0.64899999 -0.068274796 1.1241298e-38 284 300
-0.039826967 0.64899999 -0.068274796 1.1241298e-38 285 300
-0.038689051 0.64899999 -0.068274796 1.1243451e-38 286 300
-0.037551139 0.64899999 -0.068274796 1.1243451e-38 287 300
-0.036413226 0.64899999 -0.068274796 1.1427844e-38 288 300
-0.035220958 0.648 -0.068169601 1.1427844e-38 289 300
-0.034084801 0.648 -0.068169601 1.1611512e-38 290 300
-0.032948639 0.648 -0.068169601 1.1611512e-38 291 300
-0.031812482 0.648 -0.068169601 1.1702986e-38 292 300
-0.030723657 0.64899999 -0.068274796 1.1887376e-38 293 300
-0.029585747 0.64899999 -0.068274796 1.1704061e-38 294 300
-0.028491667 0.64999998 -0.068379998 1.1796257e-38 295 300
-0.027309919 0.64899999 -0.068274796 1.1705133e-38 296 300
-0.026172007 0.64899999 -0.068274796 1.1889524e-38 297 300
-0.025072664 0.64999998 -0.068379998 1.1706209e-38 298 300
-0.023932999 0.64999998 -0.068379998 1.1706209e-38 299 300
-0.022793332 0.64999998 -0.068379998 1.1614379e-38 300 300
-0.021653665 0.64999998 -0.068379998 1.1614379e-38 301 300
-0.020513998 0.64999998 -0.068379998 1.1705856e-38 302 300
-0.019374331 0.64999998 -0.068379998 1.1705856e-38 303 300
-0.018234665 0.64999998 -0.068379998 1.161366e-38 304 300
-0.017095 0.64999998 -0.068379998 1.161366e-38 305 300
-0.015955333 0.64999998 -0.068379998 1.1522181e-38 306 300
-0.014815666 0.64999998 -0.068379998 1.133815e-38 307 300
-0.01371808 0.65200001 -0.068590395 1.133815e-38 308 300
-0.012574906 0.65200001 -0.068590395 1.133815e-38 309 300
-0.011431733 0.65200001 -0.068590395 1.133815e-38 310 300
-0.01028856 0.65200001 -0.068590395 1.1522181e-38 311 300
-0.0091594132 0.653 -0.068695597 1.1338503e-38 312 300
-0.0080022132 0.65200001 -0.068590395 1.1338503e-38 313 300
-0.0068590399 0.65200001 -0.068590395 1.1614011e-38 314 300
-0.005698333 0.64999998 -0.068379998 1.1614011e-38 315 300
-0.0045586661 0.64999998 -0.068379998 1.1614379e-38 316 300
-0.0034189997 0.64999998 -0.068379998 1.1522184e-38 317 300
-0.0022793331 0.64999998 -0.068379998 1.1521468e-38 318 300
-0.0011431733 0.65200001 -0.068590395 1.1613663e-38 319 300
0 0.65200001 -0.068590395 1.1428563e-38 320 300
0.00114668 0.65399998 -0.068800792 1.1336367e-38 321 300
0.00229336 0.65399998 -0.068800792 1.1334948e-38 322 300
0.0034452998 0.65499997 -0.068905994 1.087397e-38 323 300
0.0080267601 0.65399998 -0.068800792 8.3904581e-39 327 300
0.0091734398 0.65399998 -0.068800792 8.9411432e-39 328 300
-0.079241894 0.65499997 -0.070054427 1.1338521e-38 251 301
-0.077855013 0.653 -0.069840528 1.1706212e-38 252 301
-0.076710083 0.653 -0.069840528 1.1614016e-38 253 301
-0.075565159 0.653 -0.069840528 1.1614011e-38 254 301
-0.074420229 0.653 -0.069840528 1.1706206e-38 255 301
-0.073275305 0.653 -0.069840528 1.1522181e-38 256 301
-0.072130375 0.653 -0.069840528 1.133815e-38 257 301
-0.071094155 0.65399998 -0.069947474 1.1245601e-38 258 301
-0.069947474 0.65399998 -0.069947474 1.1245601e-38 259 301
-0.068800792 0.65399998 -0.069947474 1.1245604e-38 260 301
-0.067550674 0.653 -0.069840528 1.1245604e-38 261 301
-0.066405743 0.653 -0.069840528 1.1153771e-38 262 301
-0.065360755 0.65399998 -0.069947474 1.1153771e-38 263 301
-0.064214081 0.65399998 -0.069947474 1.1153774e-38 264 301
-0.063067392 0.65399998 -0.069947474 1.1245969e-38 265 301
-0.061826039 0.653 -0.069840528 1.1153771e-38 266 301
-0.060681112 0.653 -0.069840528 1.1153771e-38 267 301
-0.059445009 0.65200001 -0.069733568 1.1336364e-38 268 301
-0.058301836 0.65200001 -0.069733568 1.1152333e-38 269 301
-0.057158668 0.65200001 -0.069733568 1.1153052e-38 270 301
-0.056015491 0.65200001 -0.069733568 1.1153052e-38 271 301
-0.054872319 0.65200001 -0.069733568 1.1151983e-38 272 301
-0.053729147 0.65200001 -0.069733568 1.1059786e-38 273 301
-0.052585974 0.65200001 -0.069733568 1.0874686e-38 274 301
-0.051442798 0.65200001 -0.069733568 1.0690294e-38 275 301
-0.050145328 0.64999998 -0.069519661 1.0504477e-38 276 301
-0.049005665 0.64999998 -0.069519661 1.022825e-38 277 301
-0.047865998 0.64999998 -0.069519661 1.0043152e-38 278 301
