# .PCD v.7 - Point Cloud Data file format
FIELDS x y z rgb imX imY
SIZE 4 4 4 4 4 4
TYPE F F F F F F
COUNT 1 1 1 1 1 1
WIDTH 839
HEIGHT 1
VIEWPOINT 0 0 0 1 0 0 0
POINTS 839
DATA ascii
-0.067580476 0.80299997 0.0056317062 1.2163977e-38 272 236
-0.066337362 0.80500001 0.0056457333 1.1611162e-38 273 236
-0.10213868 0.79799998 0.0041974802 1.1990413e-38 247 237
-0.10073951 0.79799998 0.0041974802 1.4746141e-38 248 237
-0.099589325 0.80000001 0.0042079999 1.5483706e-38 249 237
-0.09794119 0.79799998 0.0041974802 1.5944316e-38 250 237
-0.096542038 0.79799998 0.0041974802 1.6313097e-38 251 237
-0.095142879 0.79799998 0.0041974802 1.6590041e-38 252 237
-0.093743719 0.79799998 0.0041974802 1.7050659e-38 253 237
-0.092113115 0.796 0.0041869599 1.723433e-38 254 237
-0.090717465 0.796 0.0041869599 1.7326527e-38 255 237
-0.089321814 0.796 0.0041869599 1.741872e-38 256 237
-0.087926157 0.796 0.0041869599 1.7510916e-38 257 237
-0.086530507 0.796 0.0041869599 1.7235405e-38 258 237
-0.08492095 0.79400003 0.0041764397 1.7235405e-38 259 237
-0.083528802 0.79400003 0.0041764397 1.7325804e-38 260 237
-0.082136653 0.79400003 0.0041764397 1.7141413e-38 261 237
-0.080744505 0.79400003 0.0041764397 1.6681511e-38 262 237
-0.079352364 0.79400003 0.0041764397 1.6312728e-38 263 237
-0.077960216 0.79400003 0.0041764397 1.5852824e-38 264 237
-0.076568067 0.79400003 0.0041764397 1.5668431e-38 265 237
-0.075365283 0.796 0.0041869599 1.5207826e-38 266 237
-0.073969625 0.796 0.0041869599 1.493124e-38 267 237
-0.072756313 0.79799998 0.0041974802 1.4284087e-38 268 237
-0.071535997 0.80000001 0.0042079999 1.3730913e-38 269 237
-0.070308663 0.80199999 0.0042185197 1.317739e-38 270 237
-0.068988405 0.80299997 0.0042237798 1.2900802e-38 271 237
-0.0677488 0.80500001 0.0042343 1.2532042e-38 272 237
-0.066337362 0.80500001 0.0042343 1.151789e-38 273 237
-0.064925931 0.80500001 0.0042343 9.5861202e-39 274 237
-0.10353784 0.79799998 0.0027983198 1.6137775e-38 246 238
-0.10213868 0.79799998 0.0027983198 1.244959e-38 247 238
-0.10073951 0.79799998 0.0027983198 1.4838696e-38 248 238
-0.099340349 0.79799998 0.0027983198 1.5483706e-38 249 238
-0.097695731 0.796 0.0027913067 1.5944321e-38 250 238
-0.096300073 0.796 0.0027913067 1.6312744e-38 251 238
-0.094904423 0.796 0.0027913067 1.6589691e-38 252 238
-0.093508773 0.796 0.0027913067 1.6958113e-38 253 238
-0.092113115 0.796 0.0027913067 1.7142506e-38 254 238
-0.090717465 0.796 0.0027913067 1.7142506e-38 255 238
-0.089097388 0.79400003 0.0027842934 1.7142859e-38 256 238
-0.08770524 0.79400003 0.0027842934 1.7235055e-38 257 238
-0.086313091 0.79400003 0.0027842934 1.741872e-38 258 238
-0.08492095 0.79400003 0.0027842934 1.7326524e-38 259 238
-0.083528802 0.79400003 0.0027842934 1.7234327e-38 260 238
-0.082136653 0.79400003 0.0027842934 1.6958101e-38 261 238
-0.080744505 0.79400003 0.0027842934 1.6772988e-38 262 238
-0.079352364 0.79400003 0.0027842934 1.6403845e-38 263 238
-0.077960216 0.79400003 0.0027842934 1.6036136e-38 264 238
-0.076568067 0.79400003 0.0027842934 1.5759908e-38 265 238
-0.075175926 0.79400003 0.0027842934 1.5207823e-38 266 238
-0.07378377 0.79400003 0.0027842934 1.483904e-38 267 238
-0.072573967 0.796 0.0027913067 1.4100777e-38 268 238
-0.071178317 0.796 0.0027913067 1.3547604e-38 269 238
-0.069957994 0.79799998 0.0027983198 1.317739e-38 270 238
-0.068730667 0.80000001 0.0028053334 1.2900802e-38 271 238
-0.067496315 0.80199999 0.0028123464 1.2532039e-38 272 238
-0.066337362 0.80500001 0.0028228667 1.1425692e-38 273 238
-0.10353784 0.79799998 0.0013991599 1.5953026e-38 246 239
-0.10213868 0.79799998 0.0013991599 1.2541788e-38 247 239
-0.10073951 0.79799998 0.0013991599 1.566486e-38 248 239
-0.099340349 0.79799998 0.0013991599 1.6125479e-38 249 239
-0.097695731 0.796 0.0013956534 1.6127265e-38 250 239
-0.096300073 0.796 0.0013956534 1.6495688e-38 251 239
-0.094904423 0.796 0.0013956534 1.6680438e-38 252 239
-0.093508773 0.796 0.0013956534 1.7141057e-38 253 239
-0.092113115 0.796 0.0013956534 1.7233258e-38 254 239
-0.090489529 0.79400003 0.0013921467 1.7417651e-38 255 239
-0.089097388 0.79400003 0.0013921467 1.7418007e-38 256 239
-0.08770524 0.79400003 0.0013921467 1.7418007e-38 257 239
-0.086313091 0.79400003 0.0013921467 1.7235411e-38 258 239
-0.08492095 0.79400003 0.0013921467 1.7235411e-38 259 239
-0.083528802 0.79400003 0.0013921467 1.6958466e-38 260 239
-0.082136653 0.79400003 0.0013921467 1.6681881e-38 261 239
-0.080744505 0.79400003 0.0013921467 1.6497846e-38 262 239
-0.079352364 0.79400003 0.0013921467 1.6220899e-38 263 239
-0.077960216 0.79400003 0.0013921467 1.5853192e-38 264 239
-0.076568067 0.79400003 0.0013921467 1.548441e-38 265 239
-0.075175926 0.79400003 0.0013921467 1.5299665e-38 266 239
-0.07378377 0.79400003 0.0013921467 1.4839046e-38 267 239
-0.072391629 0.79400003 0.0013921467 1.3916027e-38 268 239
-0.070999481 0.79400003 0.0013921467 1.3547604e-38 269 239
-0.069782659 0.796 0.0013956534 1.2902248e-38 270 239
-0.068558834 0.79799998 0.0013991599 1.2533824e-38 271 239
-0.067159683 0.79799998 0.0013991599 1.2532768e-38 272 239
-0.065760516 0.79799998 0.0013991599 1.1242029e-38 273 239
-0.10327834 0.796 -0 1.5953379e-38 246 240
-0.1018827 0.796 -0 1.2449587e-38 247 240
-0.10048704 0.796 -0 1.5022008e-38 248 240
-0.099091381 0.796 -0 1.5667377e-38 249 240
-0.097695731 0.796 -0 1.585177e-38 250 240
-0.096058123 0.79400003 -0 1.6036161e-38 251 240
-0.094665974 0.79400003 -0 1.6497139e-38 252 240
-0.093273826 0.79400003 -0 1.6865562e-38 253 240
-0.091881685 0.79400003 -0 1.7233625e-38 254 240
-0.090489529 0.79400003 -0 1.7233625e-38 255 240
-0.088872954 0.792 -0 1.7326174e-38 256 240
-0.087484315 0.792 -0 1.741837e-38 257 240
-0.086313091 0.79400003 -0 1.7235055e-38 258 240
-0.08492095 0.79400003 -0 1.7142859e-38 259 240
-0.083528802 0.79400003 -0 1.704994e-38 260 240
-0.082136653 0.79400003 -0 1.6865549e-38 261 240
-0.080744505 0.79400003 -0 1.6772988e-38 262 240
-0.079352364 0.79400003 -0 1.6496041e-38 263 240
-0.077960216 0.79400003 -0 1.6127971e-38 264 240
-0.076568067 0.79400003 -0 1.5851024e-38 265 240
-0.075175926 0.79400003 -0 1.5390416e-38 266 240
-0.07378377 0.79400003 -0 1.5298219e-38 267 240
-0.072391629 0.79400003 -0 1.4376273e-38 268 240
-0.070999481 0.79400003 -0 1.3823099e-38 269 240
-0.069782659 0.796 -0 1.3178097e-38 270 240
-0.068558834 0.79799998 -0 1.290115e-38 271 240
-0.067159683 0.79799998 -0 1.2714635e-38 272 240
-0.065760516 0.79799998 -0 1.1608288e-38 273 240
-0.10327834 0.796 -0.0013956534 1.6136692e-38 246 241
-0.1018827 0.796 -0.0013956534 1.2541422e-38 247 241
-0.10048704 0.796 -0.0013956534 1.5757409e-38 248 241
-0.099091381 0.796 -0.0013956534 1.5941801e-38 249 241
-0.097450264 0.79400003 -0.0013921467 1.6035788e-38 250 241
-0.096058123 0.79400003 -0.0013921467 1.6312375e-38 251 241
-0.094665974 0.79400003 -0.0013921467 1.6588958e-38 252 241
-0.093273826 0.79400003 -0.0013921467 1.6865546e-38 253 241
-0.091650233 0.792 -0.0013886399 1.714106e-38 254 241
-0.090033665 0.79000002 -0.0013851334 1.7325451e-38 255 241
-0.088648535 0.79000002 -0.0013851334 1.723433e-38 256 241
-0.087263398 0.79000002 -0.0013851334 1.7326527e-38 257 241
-0.086095676 0.792 -0.0013886399 1.7235411e-38 258 241
-0.084707037 0.792 -0.0013886399 1.7143215e-38 259 241
-0.083528802 0.79400003 -0.0013921467 1.6866271e-38 260 241
-0.082136653 0.79400003 -0.0013921467 1.6681881e-38 261 241
-0.080337733 0.79000002 -0.0013851334 1.6405646e-38 262 241
-0.078952603 0.79000002 -0.0013851334 1.6220896e-38 263 241
-0.077960216 0.79400003 -0.0013921467 1.5852826e-38 264 241
-0.076568067 0.79400003 -0.0013921467 1.5668075e-38 265 241
-0.075175926 0.79400003 -0.0013921467 1.5116709e-38 266 241
-0.073597915 0.792 -0.0013886399 1.4839763e-38 267 241
-0.072209276 0.792 -0.0013886399 1.4008223e-38 268 241
-0.070820637 0.792 -0.0013886399 1.3547604e-38 269 241
-0.069607332 0.79400003 -0.0013921467 1.2994444e-38 270 241
-0.068387017 0.796 -0.0013956534 1.262602e-38 271 241
-0.066991359 0.796 -0.0013956534 1.234874e-38 272 241
-0.1018827 0.796 -0.0027913067 1.2724735e-38 247 242
-0.10048704 0.796 -0.0027913067 1.5114202e-38 248 242
-0.099091381 0.796 -0.0027913067 1.5575179e-38 249 242
-0.097450264 0.79400003 -0.0027842934 1.5852123e-38 250 242
-0.096058123 0.79400003 -0.0027842934 1.6036514e-38 251 242
-0.094427519 0.792 -0.0027772798 1.6588253e-38 252 242
-0.093038872 0.792 -0.0027772798 1.6865199e-38 253 242
-0.091418803 0.79000002 -0.0027702667 1.7140707e-38 254 242
-0.090033665 0.79000002 -0.0027702667 1.7325458e-38 255 242
-0.088536315 0.78899997 -0.0027667598 1.7143215e-38 256 242
-0.087152928 0.78899997 -0.0027667598 1.7143215e-38 257 242
-0.085769556 0.78899997 -0.0027667598 1.7326524e-38 258 242
-0.084493138 0.79000002 -0.0027702667 1.7234327e-38 259 242
-0.083108 0.79000002 -0.0027702667 1.7050296e-38 260 242
-0.081722863 0.79000002 -0.0027702667 1.6773351e-38 261 242
-0.080337733 0.79000002 -0.0027702667 1.6589311e-38 262 242
-0.078952603 0.79000002 -0.0027702667 1.6312726e-38 263 242
-0.077567466 0.79000002 -0.0027702667 1.6036489e-38 264 242
-0.076182336 0.79000002 -0.0027702667 1.5760261e-38 265 242
-0.074797198 0.79000002 -0.0027702667 1.52993e-38 266 242
-0.073412068 0.79000002 -0.0027702667 1.5114907e-38 267 242
-0.072026931 0.79000002 -0.0027702667 1.4099703e-38 268 242
-0.070820637 0.792 -0.0027772798 1.3730919e-38 269 242
-0.069607332 0.79400003 -0.0027842934 1.3269592e-38 270 242
-0.068387017 0.796 -0.0027913067 1.3084842e-38 271 242
-0.066991359 0.796 -0.0027913067 1.2440572e-38 272 242
-0.065595701 0.796 -0.0027913067 1.1242029e-38 273 242
-0.10301885 0.79400003 -0.0041764397 1.5952307e-38 246 243
-0.10162671 0.79400003 -0.0041764397 1.2541069e-38 247 243
-0.10048704 0.796 -0.0041869599 1.4930539e-38 248 243
-0.098842412 0.79400003 -0.0041764397 1.5391516e-38 249 243
-0.097450264 0.79400003 -0.0041764397 1.5942887e-38 250 243
-0.095816158 0.792 -0.00416592 1.6219832e-38 251 243
-0.094427519 0.792 -0.00416592 1.6679733e-38 252 243
-0.092803933 0.79000002 -0.0041554002 1.7048514e-38 253 243
-0.091303073 0.78899997 -0.0041501396 1.7140707e-38 254 243
-0.089919694 0.78899997 -0.0041501396 1.7232902e-38 255 243
-0.088536315 0.78899997 -0.0041501396 1.7051015e-38 256 243
-0.086932018 0.787 -0.0041396199 1.7143212e-38 257 243
-0.085552141 0.787 -0.0041396199 1.7326527e-38 258 243
-0.084172271 0.787 -0.0041396199 1.723433e-38 259 243
-0.083002798 0.78899997 -0.0041501396 1.7049946e-38 260 243
-0.081619412 0.78899997 -0.0041501396 1.6865196e-38 261 243
-0.080236033 0.78899997 -0.0041501396 1.6772632e-38 262 243
-0.078852654 0.78899997 -0.0041501396 1.6496043e-38 263 243
-0.077469274 0.78899997 -0.0041501396 1.6220167e-38 264 243
-0.076085895 0.78899997 -0.0041501396 1.594322e-38 265 243
-0.074702516 0.78899997 -0.0041501396 1.557481e-38 266 243
-0.073412068 0.79000002 -0.0041554002 1.5390419e-38 267 243
-0.072026931 0.79000002 -0.0041554002 1.4467762e-38 268 243
-0.070820637 0.792 -0.00416592 1.4006425e-38 269 243
-0.069607332 0.79400003 -0.0041764397 1.3269592e-38 270 243
-0.068387017 0.796 -0.0041869599 1.3084842e-38 271 243
-0.066991359 0.796 -0.0041869599 1.2440572e-38 272 243
-0.065595701 0.796 -0.0041869599 1.1610453e-38 273 243
-0.10301885 0.79400003 -0.0055685868 1.5585323e-38 246 244
-0.10162671 0.79400003 -0.0055685868 1.2173726e-38 247 244
-0.10023456 0.79400003 -0.0055685868 1.5021652e-38 248 244
-0.098842412 0.79400003 -0.0055685868 1.5390795e-38 249 244
-0.097450264 0.79400003 -0.0055685868 1.5942163e-38 250 244
-0.095816158 0.792 -0.0055545596 1.621911e-38 251 244
-0.094189063 0.79000002 -0.0055405335 1.6587533e-38 252 244
-0.092803933 0.79000002 -0.0055405335 1.7048511e-38 253 244
-0.091303073 0.78899997 -0.0055335197 1.6865199e-38 254 244
-0.089919694 0.78899997 -0.0055335197 1.704959e-38 255 244
-0.088311888 0.787 -0.005519493 1.7233974e-38 256 244
-0.086932018 0.787 -0.005519493 1.7326171e-38 257 244
-0.085552141 0.787 -0.005519493 1.7326171e-38 258 244
-0.084172271 0.787 -0.005519493 1.7233974e-38 259 244
-0.082792401 0.787 -0.005519493 1.7233258e-38 260 244
-0.081619412 0.78899997 -0.0055335197 1.7048508e-38 261 244
-0.080236033 0.78899997 -0.0055335197 1.6772635e-38 262 244
-0.078852654 0.78899997 -0.0055335197 1.6588242e-38 263 244
-0.077469274 0.78899997 -0.0055335197 1.6219811e-38 264 244
-0.076085895 0.78899997 -0.0055335197 1.6035418e-38 265 244
-0.074702516 0.78899997 -0.0055335197 1.5575526e-38 266 244
-0.07331913 0.78899997 -0.0055335197 1.5207104e-38 267 244
-0.072026931 0.79000002 -0.0055405335 1.446848e-38 268 244
-0.070641801 0.79000002 -0.0055405335 1.3730913e-38 269 244
-0.069431998 0.792 -0.0055545596 1.3452907e-38 270 244
-0.068215191 0.79400003 -0.0055685868 1.3176321e-38 271 244
-0.066991359 0.796 -0.0055826134 1.2257979e-38 272 244
-0.065595701 0.796 -0.0055826134 1.1520055e-38 273 244
-0.10275935 0.792 -0.0069431998 1.5860112e-38 246 245
-0.10137071 0.792 -0.0069431998 1.2264122e-38 247 245
-0.10023456 0.79400003 -0.0069607338 1.4746144e-38 248 245
-0.098842412 0.79400003 -0.0069607338 1.5207122e-38 249 245
-0.097204797 0.792 -0.0069431998 1.5483709e-38 250 245
-0.0955742 0.79000002 -0.0069256667 1.5759937e-38 251 245
-0.094069831 0.78899997 -0.0069168997 1.6129078e-38 252 245
-0.092686452 0.78899997 -0.0069168997 1.6497861e-38 253 245
-0.091303073 0.78899997 -0.0069168997 1.6682249e-38 254 245
-0.089691758 0.787 -0.0068993662 1.6774445e-38 255 245
-0.088311888 0.787 -0.0068993662 1.6866994e-38 256 245
-0.086932018 0.787 -0.0068993662 1.695955e-38 257 245
-0.085552141 0.787 -0.0068993662 1.7326171e-38 258 245
-0.084172271 0.787 -0.0068993662 1.7233974e-38 259 245
-0.082792401 0.787 -0.0068993662 1.7049943e-38 260 245
-0.081412524 0.787 -0.0068993662 1.6865552e-38 261 245
-0.080032654 0.787 -0.0068993662 1.6772632e-38 262 245
-0.078652777 0.787 -0.0068993662 1.6496043e-38 263 245
-0.077469274 0.78899997 -0.0069168997 1.6220164e-38 264 245
-0.076085895 0.78899997 -0.0069168997 1.6035772e-38 265 245
-0.074702516 0.78899997 -0.0069168997 1.5668062e-38 266 245
-0.07331913 0.78899997 -0.0069168997 1.529892e-38 267 245
-0.072026931 0.79000002 -0.0069256667 1.4468819e-38 268 245
-0.070641801 0.79000002 -0.0069256667 1.3823449e-38 269 245
-0.069431998 0.792 -0.0069431998 1.3177759e-38 270 245
-0.068215191 0.79400003 -0.0069607338 1.2993728e-38 271 245
-0.066823035 0.79400003 -0.0069607338 1.2625333e-38 272 245
-0.065595701 0.796 -0.0069782664 1.1979964e-38 273 245
-0.10275935 0.792 -0.0083318399 1.5860478e-38 246 246
-0.10137071 0.792 -0.0083318399 1.2080457e-38 247 246
-0.099982075 0.792 -0.0083318399 1.4470283e-38 248 246
-0.098593436 0.792 -0.0083318399 1.4930902e-38 249 246
-0.096959338 0.79000002 -0.0083108004 1.5574813e-38 250 246
-0.09545321 0.78899997 -0.0083002793 1.6035432e-38 251 246
-0.094069831 0.78899997 -0.0083002793 1.6403495e-38 252 246
-0.092686452 0.78899997 -0.0083002793 1.6864833e-38 253 246
-0.091071643 0.787 -0.0082792398 1.6865196e-38 254 246
-0.089691758 0.787 -0.0082792398 1.7049946e-38 255 246
-0.088311888 0.787 -0.0082792398 1.705031e-38 256 246
-0.086932018 0.787 -0.0082792398 1.7142506e-38 257 246
-0.085552141 0.787 -0.0082792398 1.705031e-38 258 246
-0.084172271 0.787 -0.0082792398 1.7142506e-38 259 246
-0.082792401 0.787 -0.0082792398 1.6957392e-38 260 246
-0.081412524 0.787 -0.0082792398 1.6865196e-38 261 246
-0.080032654 0.787 -0.0082792398 1.6772635e-38 262 246
-0.078652777 0.787 -0.0082792398 1.6588242e-38 263 246
-0.077272899 0.787 -0.0082792398 1.6037221e-38 264 246
-0.07589303 0.787 -0.0082792398 1.5852471e-38 265 246
-0.074702516 0.78899997 -0.0083002793 1.5485113e-38 266 246
-0.07331913 0.78899997 -0.0083002793 1.4839744e-38 267 246
-0.072026931 0.79000002 -0.0083108004 1.4376267e-38 268 246
-0.070641801 0.79000002 -0.0083108004 1.409968e-38 269 246
-0.069431998 0.792 -0.0083318399 1.3086289e-38 270 246
-0.068215191 0.79400003 -0.0083528794 1.2994094e-38 271 246
-0.066823035 0.79400003 -0.0083528794 1.2442021e-38 272 246
-0.065430894 0.79400003 -0.0083528794 1.1980683e-38 273 246
-0.10275935 0.792 -0.0097204801 1.5952323e-38 246 247
-0.10137071 0.792 -0.0097204801 1.1987911e-38 247 247
-0.099982075 0.792 -0.0097204801 1.4101517e-38 248 247
-0.09834446 0.79000002 -0.0096959332 1.4746887e-38 249 247
-0.096959338 0.79000002 -0.0096959332 1.5298962e-38 250 247
-0.09545321 0.78899997 -0.0096836593 1.5575909e-38 251 247
-0.094069831 0.78899997 -0.0096836593 1.6035811e-38 252 247
-0.092451513 0.787 -0.0096591124 1.6496789e-38 253 247
-0.091071643 0.787 -0.0096591124 1.668118e-38 254 247
-0.089691758 0.787 -0.0096591124 1.6957407e-38 255 247
-0.088311888 0.787 -0.0096591124 1.7050313e-38 256 247
-0.086932018 0.787 -0.0096591124 1.7142509e-38 257 247
-0.085552141 0.787 -0.0096591124 1.7050662e-38 258 247
-0.084172271 0.787 -0.0096591124 1.6958466e-38 259 247
-0.082792401 0.787 -0.0096591124 1.6958101e-38 260 247
-0.081412524 0.787 -0.0096591124 1.6865546e-38 261 247
-0.080032654 0.787 -0.0096591124 1.6956303e-38 262 247
-0.078652777 0.787 -0.0096591124 1.6771551e-38 263 247
-0.077272899 0.787 -0.0096591124 1.6404198e-38 264 247
-0.07589303 0.787 -0.0096591124 1.6127971e-38 265 247
-0.07451316 0.787 -0.0096591124 1.5668413e-38 266 247
-0.07331913 0.78899997 -0.0096836593 1.5299629e-38 267 247
-0.071935758 0.78899997 -0.0096836593 1.4469535e-38 268 247
-0.070641801 0.79000002 -0.0096959332 1.4008917e-38 269 247
-0.069431998 0.792 -0.0097204801 1.3086289e-38 270 247
-0.068043359 0.792 -0.0097204801 1.2901898e-38 271 247
-0.066823035 0.79400003 -0.0097450269 1.2992318e-38 272 247
-0.065430894 0.79400003 -0.0097450269 1.2346949e-38 273 247
-0.10137071 0.792 -0.011109119 1.1436539e-38 247 248
-0.099729598 0.79000002 -0.011081067 1.4100441e-38 248 248
-0.09834446 0.79000002 -0.011081067 1.4838006e-38 249 248
-0.096836597 0.78899997 -0.011067039 1.5481908e-38 250 248
-0.09545321 0.78899997 -0.011067039 1.5758854e-38 251 248
-0.094069831 0.78899997 -0.011067039 1.6126912e-38 252 248
-0.092451513 0.787 -0.011038986 1.6680086e-38 253 248
-0.091071643 0.787 -0.011038986 1.6773003e-38 254 248
-0.089691758 0.787 -0.011038986 1.6957394e-38 255 248
-0.088311888 0.787 -0.011038986 1.704959e-38 256 248
-0.086932018 0.787 -0.011038986 1.7233623e-38 257 248
-0.085552141 0.787 -0.011038986 1.7142862e-38 258 248
-0.084172271 0.787 -0.011038986 1.7050665e-38 259 248
-0.082792401 0.787 -0.011038986 1.6865915e-38 260 248
-0.081205636 0.78500003 -0.011010934 1.6681884e-38 261 248
-0.079829268 0.78500003 -0.011010934 1.6772637e-38 262 248
-0.0784529 0.78500003 -0.011010934 1.6680082e-38 263 248
-0.077076539 0.78500003 -0.011010934 1.6312728e-38 264 248
-0.075700171 0.78500003 -0.011010934 1.6128337e-38 265 248
-0.07451316 0.787 -0.011038986 1.5577668e-38 266 248
-0.073133282 0.787 -0.011038986 1.4932298e-38 267 248
-0.071753412 0.787 -0.011038986 1.4653933e-38 268 248
-0.070552371 0.78899997 -0.011067039 1.4100759e-38 269 248
-0.069256663 0.79000002 -0.011081067 1.3087008e-38 270 248
-0.067871533 0.79000002 -0.011081067 1.2994812e-38 271 248
-0.066654719 0.792 -0.011109119 1.2718248e-38 272 248
-0.065266073 0.792 -0.011109119 1.225727e-38 273 248
-0.10111474 0.79000002 -0.0124662 1.1712047e-38 247 249
-0.099603355 0.78899997 -0.012450419 1.3824576e-38 248 249
-0.098219968 0.78899997 -0.012450419 1.4562142e-38 249 249
-0.096836597 0.78899997 -0.012450419 1.5207122e-38 250 249
-0.09545321 0.78899997 -0.012450419 1.5483709e-38 251 249
-0.093831383 0.787 -0.01241886 1.585177e-38 252 249
-0.092451513 0.787 -0.01241886 1.6312747e-38 253 249
-0.091071643 0.787 -0.01241886 1.6497139e-38 254 249
-0.089691758 0.787 -0.01241886 1.6589335e-38 255 249
-0.088311888 0.787 -0.01241886 1.6681886e-38 256 249
-0.086711101 0.78500003 -0.0123873 1.6958113e-38 257 249
-0.085334733 0.78500003 -0.0123873 1.695811e-38 258 249
-0.083958365 0.78500003 -0.0123873 1.695811e-38 259 249
-0.082582004 0.78500003 -0.0123873 1.6957748e-38 260 249
-0.081205636 0.78500003 -0.0123873 1.6865552e-38 261 249
-0.079829268 0.78500003 -0.0123873 1.6772635e-38 262 249
-0.0784529 0.78500003 -0.0123873 1.6588242e-38 263 249
-0.077076539 0.78500003 -0.0123873 1.6403842e-38 264 249
-0.075700171 0.78500003 -0.0123873 1.6127615e-38 265 249
-0.074323803 0.78500003 -0.0123873 1.5760614e-38 266 249
-0.073133282 0.787 -0.01241886 1.5299276e-38 267 249
-0.071753412 0.787 -0.01241886 1.4746479e-38 268 249
-0.070552371 0.78899997 -0.012450419 1.4285141e-38 269 249
-0.069168992 0.78899997 -0.012450419 1.3271034e-38 270 249
-0.067871533 0.79000002 -0.0124662 1.3178838e-38 271 249
-0.066654719 0.792 -0.012497759 1.2994112e-38 272 249
-0.065266073 0.792 -0.012497759 1.2625331e-38 273 249
-0.10211062 0.787 -0.013798732 1.6227838e-38 246 250
-0.10073075 0.787 -0.013798732 1.1894643e-38 247 250
-0.099603355 0.78899997 -0.013833799 1.3640908e-38 248 250
-0.098219968 0.78899997 -0.013833799 1.4286277e-38 249 250
-0.096836597 0.78899997 -0.013833799 1.5114568e-38 250 250
-0.09521126 0.787 -0.013798732 1.5299318e-38 251 250
-0.093831383 0.787 -0.013798732 1.5759571e-38 252 250
-0.092451513 0.787 -0.013798732 1.6036517e-38 253 250
-0.091071643 0.787 -0.013798732 1.6220548e-38 254 250
-0.08946383 0.78500003 -0.013763667 1.6497136e-38 255 250
-0.088087469 0.78500003 -0.013763667 1.649749e-38 256 250
-0.086711101 0.78500003 -0.013763667 1.6681881e-38 257 250
-0.085334733 0.78500003 -0.013763667 1.6774798e-38 258 250
-0.083958365 0.78500003 -0.013763667 1.6774798e-38 259 250
-0.082582004 0.78500003 -0.013763667 1.704959e-38 260 250
-0.081205636 0.78500003 -0.013763667 1.6773003e-38 261 250
-0.079829268 0.78500003 -0.013763667 1.6772635e-38 262 250
-0.078253016 0.78299999 -0.013728599 1.6588242e-38 263 250
-0.076880157 0.78299999 -0.013728599 1.6220886e-38 264 250
-0.075507298 0.78299999 -0.013728599 1.6036136e-38 265 250
-0.074134432 0.78299999 -0.013728599 1.5760614e-38 266 250
-0.072947428 0.78500003 -0.013763667 1.5391473e-38 267 250
-0.071753412 0.787 -0.013798732 1.511381e-38 268 250
-0.070373543 0.787 -0.013798732 1.446844e-38 269 250
-0.069168992 0.78899997 -0.013833799 1.3455408e-38 270 250
-0.067871533 0.79000002 -0.013851333 1.3362854e-38 271 250
-0.066486403 0.79000002 -0.013851333 1.2994109e-38 272 250
-0.065101266 0.79000002 -0.013851333 1.2625687e-38 273 250
-0.10211062 0.787 -0.015178605 1.631968e-38 246 251
-0.10073075 0.787 -0.015178605 1.1802094e-38 247 251
-0.099350877 0.787 -0.015178605 1.3088826e-38 248 251
-0.097971 0.787 -0.015178605 1.3918586e-38 249 251
-0.09659113 0.787 -0.015178605 1.4838342e-38 250 251
-0.09521126 0.787 -0.015178605 1.5206766e-38 251 251
-0.093831383 0.787 -0.015178605 1.5667009e-38 252 251
-0.092216566 0.78500003 -0.015140033 1.6035432e-38 253 251
-0.090840198 0.78500003 -0.015140033 1.6403495e-38 254 251
-0.08946383 0.78500003 -0.015140033 1.6587886e-38 255 251
-0.088087469 0.78500003 -0.015140033 1.6588605e-38 256 251
-0.086711101 0.78500003 -0.015140033 1.6773356e-38 257 251
-0.08511731 0.78299999 -0.01510146 1.6681886e-38 258 251
-0.083744459 0.78299999 -0.01510146 1.6865918e-38 259 251
-0.0823716 0.78299999 -0.01510146 1.6957394e-38 260 251
-0.080998734 0.78299999 -0.01510146 1.6773003e-38 261 251
-0.079625882 0.78299999 -0.01510146 1.6588958e-38 262 251
-0.078253016 0.78299999 -0.01510146 1.6312731e-38 263 251
-0.076880157 0.78299999 -0.01510146 1.6128332e-38 264 251
-0.075507298 0.78299999 -0.01510146 1.6036136e-38 265 251
-0.074134432 0.78299999 -0.01510146 1.5760977e-38 266 251
-0.072947428 0.78500003 -0.015140033 1.53e-38 267 251
-0.071571067 0.78500003 -0.015140033 1.5022696e-38 268 251
-0.070373543 0.787 -0.015178605 1.4377326e-38 269 251
-0.068993665 0.787 -0.015178605 1.3547248e-38 270 251
-0.067785613 0.78899997 -0.015217179 1.3455052e-38 271 251
-0.066402234 0.78899997 -0.015217179 1.3086305e-38 272 251
-0.065018855 0.78899997 -0.015217179 1.2717882e-38 273 251
-0.10098673 0.78899997 -0.016600559 1.1802463e-38 247 252
-0.099350877 0.787 -0.01655848 1.2351633e-38 248 252
-0.097971 0.787 -0.01655848 1.3642372e-38 249 252
-0.09659113 0.787 -0.01655848 1.4562128e-38 250 252
-0.09521126 0.787 -0.01655848 1.4930552e-38 251 252
-0.093592934 0.78500003 -0.016516401 1.5666658e-38 252 252
-0.092216566 0.78500003 -0.016516401 1.5942887e-38 253 252
-0.090840198 0.78500003 -0.016516401 1.6035082e-38 254 252
-0.089235894 0.78299999 -0.01647432 1.6219832e-38 255 252
-0.087863036 0.78299999 -0.01647432 1.6311672e-38 256 252
-0.086490177 0.78299999 -0.01647432 1.6588259e-38 257 252
-0.08511731 0.78299999 -0.01647432 1.6588982e-38 258 252
-0.083744459 0.78299999 -0.01647432 1.6588982e-38 259 252
-0.0823716 0.78299999 -0.01647432 1.6773003e-38 260 252
-0.080998734 0.78299999 -0.01647432 1.6588253e-38 261 252
-0.079625882 0.78299999 -0.01647432 1.6588955e-38 262 252
-0.078253016 0.78299999 -0.01647432 1.6312728e-38 263 252
-0.076880157 0.78299999 -0.01647432 1.6128687e-38 264 252
-0.075507298 0.78299999 -0.01647432 1.6036492e-38 265 252
-0.074134432 0.78299999 -0.01647432 1.5760614e-38 266 252
-0.072947428 0.78500003 -0.016516401 1.5483668e-38 267 252
-0.071571067 0.78500003 -0.016516401 1.5206358e-38 268 252
-0.070373543 0.787 -0.01655848 1.4653185e-38 269 252
-0.068993665 0.787 -0.01655848 1.4190807e-38 270 252
-0.067785613 0.78899997 -0.016600559 1.391386e-38 271 252
-0.066402234 0.78899997 -0.016600559 1.317814e-38 272 252
-0.065101266 0.79000002 -0.016621601 1.2901194e-38 273 252
-0.10073075 0.787 -0.017938353 1.1987577e-38 247 253
-0.099350877 0.787 -0.017938353 1.2811162e-38 248 253
-0.097971 0.787 -0.017938353 1.3733479e-38 249 253
-0.09659113 0.787 -0.017938353 1.5112403e-38 250 253
-0.094969295 0.78500003 -0.017892767 1.538935e-38 251 253
-0.093592934 0.78500003 -0.017892767 1.5665561e-38 252 253
-0.092216566 0.78500003 -0.017892767 1.5942148e-38 253 253
-0.090608761 0.78299999 -0.017847179 1.6217659e-38 254 253
-0.089007966 0.78100002 -0.017801592 1.640241e-38 255 253
-0.087638609 0.78100002 -0.017801592 1.6402423e-38 256 253
-0.086269259 0.78100002 -0.017801592 1.6771204e-38 257 253
-0.084899902 0.78100002 -0.017801592 1.6680089e-38 258 253
-0.083530553 0.78100002 -0.017801592 1.6772284e-38 259 253
-0.082161196 0.78100002 -0.017801592 1.6772281e-38 260 253
-0.080998734 0.78299999 -0.017847179 1.6772281e-38 261 253
-0.079625882 0.78299999 -0.017847179 1.6404574e-38 262 253
-0.078253016 0.78299999 -0.017847179 1.6312378e-38 263 253
-0.076880157 0.78299999 -0.017847179 1.5944669e-38 264 253
-0.075507298 0.78299999 -0.017847179 1.5852473e-38 265 253
-0.074134432 0.78299999 -0.017847179 1.5760629e-38 266 253
-0.07276158 0.78299999 -0.017847179 1.5391848e-38 267 253
-0.071571067 0.78500003 -0.017892767 1.5114904e-38 268 253
-0.070194699 0.78500003 -0.017892767 1.4561732e-38 269 253
-0.068993665 0.787 -0.017938353 1.4099703e-38 270 253
-0.067785613 0.78899997 -0.017983939 1.3730919e-38 271 253
-0.066402234 0.78899997 -0.017983939 1.317849e-38 272 253
-0.065018855 0.78899997 -0.017983939 1.2901545e-38 273 253
-0.10073075 0.787 -0.019318225 1.2081571e-38 247 254
-0.099098399 0.78500003 -0.019269135 1.2535299e-38 248 254
-0.097722031 0.78500003 -0.019269135 1.3365419e-38 249 254
-0.09659113 0.787 -0.019318225 1.4561397e-38 250 254
-0.094969295 0.78500003 -0.019269135 1.4746147e-38 251 254
-0.093592934 0.78500003 -0.019269135 1.5390066e-38 252 254
-0.091981612 0.78299999 -0.019220039 1.5574457e-38 253 254
-0.090608761 0.78299999 -0.019220039 1.5575182e-38 254 254
-0.089007966 0.78100002 -0.019170946 1.585177e-38 255 254
-0.087638609 0.78100002 -0.019170946 1.5852136e-38 256 254
-0.086158797 0.77999997 -0.0191464 1.6036886e-38 257 254
-0.084791191 0.77999997 -0.0191464 1.6221278e-38 258 254
-0.083423592 0.77999997 -0.0191464 1.6221278e-38 259 254
-0.082055993 0.77999997 -0.0191464 1.6588259e-38 260 254
-0.080791846 0.78100002 -0.019170946 1.6403867e-38 261 254
-0.079422489 0.78100002 -0.019170946 1.6312025e-38 262 254
-0.078053139 0.78100002 -0.019170946 1.6219829e-38 263 254
-0.076683782 0.78100002 -0.019170946 1.6035788e-38 264 254
-0.075314432 0.78100002 -0.019170946 1.6035788e-38 265 254
-0.073945075 0.78100002 -0.019170946 1.5668075e-38 266 254
-0.07276158 0.78299999 -0.019220039 1.5299653e-38 267 254
-0.071388714 0.78299999 -0.019220039 1.5298204e-38 268 254
-0.070015855 0.78299999 -0.019220039 1.474503e-38 269 254
-0.068818331 0.78500003 -0.019269135 1.446667e-38 270 254
-0.067613788 0.787 -0.019318225 1.4189723e-38 271 254
-0.066233918 0.787 -0.019318225 1.3270683e-38 272 254
-0.065018855 0.78899997 -0.019367319 1.2809346e-38 273 254
-0.099098399 0.78500003 -0.020645501 1.2537084e-38 248 255
-0.097722031 0.78500003 -0.020645501 1.2998062e-38 249 255
-0.096345663 0.78500003 -0.020645501 1.4561737e-38 250 255
-0.094969295 0.78500003 -0.020645501 1.4746129e-38 251 255
-0.093354478 0.78299999 -0.0205929 1.5297147e-38 252 255
-0.091981612 0.78299999 -0.0205929 1.5574094e-38 253 255
-0.090377316 0.78100002 -0.020540299 1.5666653e-38 254 255
-0.088893995 0.77999997 -0.020513998 1.594324e-38 255 255
-0.087526396 0.77999997 -0.020513998 1.5851767e-38 256 255
-0.086158797 0.77999997 -0.020513998 1.6036517e-38 257 255
-0.084791191 0.77999997 -0.020513998 1.6220548e-38 258 255
-0.083423592 0.77999997 -0.020513998 1.6312744e-38 259 255
-0.082055993 0.77999997 -0.020513998 1.6312025e-38 260 255
-0.080791846 0.78100002 -0.020540299 1.6219829e-38 261 255
-0.079422489 0.78100002 -0.020540299 1.6219108e-38 262 255
-0.078053139 0.78100002 -0.020540299 1.6219108e-38 263 255
-0.076683782 0.78100002 -0.020540299 1.6035435e-38 264 255
-0.075314432 0.78100002 -0.020540299 1.6035435e-38 265 255
-0.073945075 0.78100002 -0.020540299 1.575992e-38 266 255
-0.072575726 0.78100002 -0.020540299 1.5575529e-38 267 255
-0.071388714 0.78299999 -0.0205929 1.5207107e-38 268 255
-0.070015855 0.78299999 -0.0205929 1.4746129e-38 269 255
-0.068643004 0.78299999 -0.0205929 1.4008226e-38 270 255
-0.067441963 0.78500003 -0.020645501 1.3639803e-38 271 255
-0.066065602 0.78500003 -0.020645501 1.3270686e-38 272 255
-0.064689234 0.78500003 -0.020645501 1.2901545e-38 273 255
-0.063312866 0.78500003 -0.020645501 1.2720438e-38 274 255
-0.099098399 0.78500003 -0.022021867 1.2628556e-38 248 256
-0.097722031 0.78500003 -0.022021867 1.2536002e-38 249 256
-0.096345663 0.78500003 -0.022021867 1.4286227e-38 250 256
-0.094727337 0.78299999 -0.021965759 1.4654649e-38 251 256
-0.093354478 0.78299999 -0.021965759 1.5021286e-38 252 256
-0.091746673 0.78100002 -0.021909652 1.5297514e-38 253 256
-0.090377316 0.78100002 -0.021909652 1.5481911e-38 254 256
-0.088893995 0.77999997 -0.021881599 1.5666302e-38 255 256
-0.087526396 0.77999997 -0.021881599 1.5851773e-38 256 256
-0.086158797 0.77999997 -0.021881599 1.6036164e-38 257 256
-0.084791191 0.77999997 -0.021881599 1.6220195e-38 258 256
-0.083423592 0.77999997 -0.021881599 1.6220195e-38 259 256
-0.082055993 0.77999997 -0.021881599 1.5944321e-38 260 256
-0.080688395 0.77999997 -0.021881599 1.5298952e-38 261 256
-0.079320796 0.77999997 -0.021881599 1.5574457e-38 262 256
-0.077953197 0.77999997 -0.021881599 1.5666653e-38 263 256
-0.076683782 0.78100002 -0.021909652 1.5942166e-38 264 256
-0.075314432 0.78100002 -0.021909652 1.5942166e-38 265 256
-0.073945075 0.78100002 -0.021909652 1.5759204e-38 266 256
-0.072575726 0.78100002 -0.021909652 1.5667009e-38 267 256
-0.071206369 0.78100002 -0.021909652 1.5391145e-38 268 256
-0.070015855 0.78299999 -0.021965759 1.4929807e-38 269 256
-0.068643004 0.78299999 -0.021965759 1.3732009e-38 270 256
-0.067270137 0.78299999 -0.021965759 1.3455422e-38 271 256
-0.065897278 0.78299999 -0.021965759 1.3361805e-38 272 256
-0.064524412 0.78299999 -0.021965759 1.2900829e-38 273 256
-0.063151553 0.78299999 -0.021965759 1.2811558e-38 274 256
-0.099098399 0.78500003 -0.023398234 1.2812243e-38 248 257
-0.097722031 0.78500003 -0.023398234 1.2443459e-38 249 257
-0.096345663 0.78500003 -0.023398234 1.4101847e-38 250 257
-0.094727337 0.78299999 -0.02333862 1.4378435e-38 251 257
-0.09311603 0.78100002 -0.023279008 1.4929091e-38 252 257
-0.091746673 0.78100002 -0.023279008 1.5021286e-38 253 257
-0.090377316 0.78100002 -0.023279008 1.5388994e-38 254 257
-0.088893995 0.77999997 -0.023249198 1.5757775e-38 255 257
-0.087526396 0.77999997 -0.023249198 1.5942887e-38 256 257
-0.086158797 0.77999997 -0.023249198 1.6127278e-38 257 257
-0.084791191 0.77999997 -0.023249198 1.6127634e-38 258 257
-0.083423592 0.77999997 -0.023249198 1.6035438e-38 259 257
-0.082055993 0.77999997 -0.023249198 1.5575176e-38 260 257
-0.080688395 0.77999997 -0.023249198 1.4561384e-38 261 257
-0.079320796 0.77999997 -0.023249198 1.4836539e-38 262 257
-0.077953197 0.77999997 -0.023249198 1.5113485e-38 263 257
-0.076683782 0.78100002 -0.023279008 1.5481192e-38 264 257
-0.075314432 0.78100002 -0.023279008 1.5757419e-38 265 257
-0.073945075 0.78100002 -0.023279008 1.5666653e-38 266 257
-0.072575726 0.78100002 -0.023279008 1.5574457e-38 267 257
-0.071206369 0.78100002 -0.023279008 1.5481896e-38 268 257
-0.069837019 0.78100002 -0.023279008 1.5112753e-38 269 257
-0.068643004 0.78299999 -0.02333862 1.4008223e-38 270 257
-0.067270137 0.78299999 -0.02333862 1.3547604e-38 271 257
-0.065728955 0.78100002 -0.023279008 1.3362156e-38 272 257
-0.064359605 0.78100002 -0.023279008 1.2808982e-38 273 257
-0.062990256 0.78100002 -0.023279008 1.2811192e-38 274 257
-0.099098399 0.78500003 -0.0247746 1.3181751e-38 248 258
-0.097473055 0.78299999 -0.024711479 1.2259794e-38 249 258
-0.096100196 0.78299999 -0.024711479 1.4008576e-38 250 258
-0.09448538 0.78100002 -0.024648361 1.4469554e-38 251 258
-0.09311603 0.78100002 -0.024648361 1.4928725e-38 252 258
-0.091746673 0.78100002 -0.024648361 1.5112756e-38 253 258
-0.090261593 0.77999997 -0.024616797 1.5480459e-38 254 258
-0.088893995 0.77999997 -0.024616797 1.5849602e-38 255 258
-0.087526396 0.77999997 -0.024616797 1.5942519e-38 256 258
-0.086158797 0.77999997 -0.024616797 1.6126912e-38 257 258
-0.084791191 0.77999997 -0.024616797 1.6126559e-38 258 258
-0.083423592 0.77999997 -0.024616797 1.6034363e-38 259 258
-0.082055993 0.77999997 -0.024616797 1.5299315e-38 260 258
-0.080688395 0.77999997 -0.024616797 1.3916381e-38 261 258
-0.079320796 0.77999997 -0.024616797 1.4190456e-38 262 258
-0.077953197 0.77999997 -0.024616797 1.4558879e-38 263 258
-0.076585598 0.77999997 -0.024616797 1.4468848e-38 264 258
-0.075217992 0.77999997 -0.024616797 1.4837989e-38 265 258
-0.073850393 0.77999997 -0.024616797 1.5390792e-38 266 258
-0.072482795 0.77999997 -0.024616797 1.5390792e-38 267 258
-0.071206369 0.78100002 -0.024648361 1.5574094e-38 268 258
-0.069837019 0.78100002 -0.024648361 1.5297147e-38 269 258
-0.068467662 0.78100002 -0.024648361 1.428409e-38 270 258
-0.067098312 0.78100002 -0.024648361 1.3823113e-38 271 258
-0.065728955 0.78100002 -0.024648361 1.336215e-38 272 258
-0.064359605 0.78100002 -0.024648361 1.2809335e-38 273 258
-0.063151553 0.78299999 -0.024711479 1.2535681e-38 274 258
-0.061778698 0.78299999 -0.024711479 1.4655821e-38 275 258
-0.098845914 0.78299999 -0.026084339 1.336758e-38 248 259
-0.097473055 0.78299999 -0.026084339 1.189245e-38 249 259
-0.096100196 0.78299999 -0.026084339 1.3732715e-38 250 259
-0.09448538 0.78100002 -0.026017714 1.4101496e-38 251 259
-0.09311603 0.78100002 -0.026017714 1.4469198e-38 252 259
-0.091746673 0.78100002 -0.026017714 1.4653948e-38 253 259
-0.090261593 0.77999997 -0.025984399 1.529787e-38 254 259
-0.088893995 0.77999997 -0.025984399 1.5574457e-38 255 259
-0.087526396 0.77999997 -0.025984399 1.5484062e-38 256 259
-0.08593788 0.778 -0.025917772 1.5576259e-38 257 259
-0.084573783 0.778 -0.025917772 1.6126912e-38 258 259
-0.083209693 0.778 -0.025917772 1.5942519e-38 259 259
-0.081845596 0.778 -0.025917772 1.5942887e-38 260 259
-0.080481507 0.778 -0.025917772 1.4468115e-38 261 259
-0.07911741 0.778 -0.025917772 1.4097204e-38 262 259
-0.07775332 0.778 -0.025917772 1.4465626e-38 263 259
-0.076585598 0.77999997 -0.025984399 1.4467075e-38 264 259
-0.075217992 0.77999997 -0.025984399 1.4744021e-38 265 259
-0.073850393 0.77999997 -0.025984399 1.4930908e-38 266 259
-0.072482795 0.77999997 -0.025984399 1.4930908e-38 267 259
-0.071115196 0.77999997 -0.025984399 1.5665211e-38 268 259
-0.069837019 0.78100002 -0.026017714 1.5296428e-38 269 259
-0.068467662 0.78100002 -0.026017714 1.4284437e-38 270 259
-0.067098312 0.78100002 -0.026017714 1.3823819e-38 271 259
-0.065644793 0.77999997 -0.025984399 1.382061e-38 272 259
-0.063947573 0.77600002 -0.025851147 1.3359633e-38 273 259
-0.062586986 0.77600002 -0.025851147 1.2444204e-38 274 259
-0.061226401 0.77600002 -0.025851147 1.4287757e-38 275 259
-0.097473055 0.78299999 -0.027457198 1.1616239e-38 249 260
-0.096100196 0.78299999 -0.027457198 1.3822765e-38 250 260
-0.09448538 0.78100002 -0.027387068 1.437558e-38 251 260
-0.09311603 0.78100002 -0.027387068 1.4468833e-38 252 260
-0.091746673 0.78100002 -0.027387068 1.4745778e-38 253 260
-0.090261593 0.77999997 -0.027351998 1.52975e-38 254 260
-0.088893995 0.77999997 -0.027351998 1.5758478e-38 255 260
-0.087526396 0.77999997 -0.027351998 1.5667359e-38 256 260
-0.08593788 0.778 -0.027281865 1.5943586e-38 257 260
-0.084573783 0.778 -0.027281865 1.6035788e-38 258 260
-0.083209693 0.778 -0.027281865 1.6035788e-38 259 260
-0.081845596 0.778 -0.027281865 1.6126559e-38 260 260
-0.080481507 0.778 -0.027281865 1.483582e-38 261 260
-0.07911741 0.778 -0.027281865 1.4097552e-38 262 260
-0.07775332 0.778 -0.027281865 1.4005356e-38 263 260
-0.076389223 0.778 -0.027281865 1.474005e-38 264 260
-0.075025134 0.778 -0.027281865 1.5293224e-38 265 260
-0.073850393 0.77999997 -0.027351998 1.5390792e-38 266 260
-0.072482795 0.77999997 -0.027351998 1.5298596e-38 267 260
-0.071115196 0.77999997 -0.027351998 1.5574091e-38 268 260
-0.069747597 0.77999997 -0.027351998 1.5297503e-38 269 260
-0.068379998 0.77999997 -0.027351998 1.437592e-38 270 260
-0.067012392 0.77999997 -0.027351998 1.419117e-38 271 260
-0.065644793 0.77999997 -0.027351998 1.3362506e-38 272 260
-0.063947573 0.77600002 -0.027211733 1.2993725e-38 273 260
-0.062586986 0.77600002 -0.027211733 1.2536397e-38 274 260
-0.061226401 0.77600002 -0.027211733 1.4011886e-38 275 260
-0.097473055 0.78299999 -0.028830061 1.1432576e-38 249 261
-0.096100196 0.78299999 -0.028830061 1.2904417e-38 250 261
-0.09448538 0.78100002 -0.028756421 1.3549787e-38 251 261
-0.09311603 0.78100002 -0.028756421 1.4285173e-38 252 261
-0.091629192 0.77999997 -0.028719598 1.4653595e-38 253 261
-0.090261593 0.77999997 -0.028719598 1.5114202e-38 254 261
-0.088893995 0.77999997 -0.028719598 1.5391148e-38 255 261
-0.08730197 0.778 -0.028645959 1.5575176e-38 256 261
-0.08593788 0.778 -0.028645959 1.5759927e-38 257 261
-0.084573783 0.778 -0.028645959 1.6035786e-38 258 261
-0.083209693 0.778 -0.028645959 1.5943589e-38 259 261
-0.081635199 0.77600002 -0.028572321 1.6400977e-38 260 261
-0.080274612 0.77600002 -0.028572321 1.5479022e-38 261 261
-0.078914031 0.77600002 -0.028572321 1.4373415e-38 262 261
-0.077553444 0.77600002 -0.028572321 1.4189024e-38 263 261
-0.075996473 0.77399999 -0.028498679 1.418975e-38 264 261
-0.074639395 0.77399999 -0.028498679 1.4465977e-38 265 261
-0.073282316 0.77399999 -0.028498679 1.5113852e-38 266 261
-0.071925238 0.77399999 -0.028498679 1.5298243e-38 267 261
-0.070568159 0.77399999 -0.028498679 1.5389344e-38 268 261
-0.069747597 0.77999997 -0.028719598 1.5204952e-38 269 261
-0.068379998 0.77999997 -0.028719598 1.4652145e-38 270 261
-0.067012392 0.77999997 -0.028719598 1.409933e-38 271 261
-0.065644793 0.77999997 -0.028719598 1.3912806e-38 272 261
-0.063947573 0.77600002 -0.028572321 1.3544383e-38 273 261
-0.062586986 0.77600002 -0.028572321 1.2536397e-38 274 261
-0.061226401 0.77600002 -0.028572321 1.373494e-38 275 261
-0.097224087 0.78100002 -0.030125774 1.1800648e-38 249 262
-0.095854737 0.78100002 -0.030125774 1.3087738e-38 250 262
-0.09448538 0.78100002 -0.030125774 1.3548715e-38 251 262
-0.092996791 0.77999997 -0.030087199 1.4376288e-38 252 262
-0.091629192 0.77999997 -0.030087199 1.4652876e-38 253 262
-0.090261593 0.77999997 -0.030087199 1.5204954e-38 254 262
-0.088666067 0.778 -0.03001005 1.5573738e-38 255 262
-0.08730197 0.778 -0.03001005 1.5574813e-38 256 262
-0.08593788 0.778 -0.03001005 1.5759204e-38 257 262
-0.084573783 0.778 -0.03001005 1.5943237e-38 258 262
-0.082995787 0.77600002 -0.029932907 1.6035432e-38 259 262
-0.081635199 0.77600002 -0.029932907 1.621911e-38 260 262
-0.080067717 0.77399999 -0.029855758 1.5296794e-38 261 262
-0.078710638 0.77399999 -0.029855758 1.4374122e-38 262 262
-0.077353559 0.77399999 -0.029855758 1.3728752e-38 263 262
-0.075996473 0.77399999 -0.029855758 1.4096459e-38 264 262
-0.074639395 0.77399999 -0.029855758 1.428085e-38 265 262
-0.073282316 0.77399999 -0.029855758 1.4561044e-38 266 262
-0.071925238 0.77399999 -0.029855758 1.4745794e-38 267 262
-0.070568159 0.77399999 -0.029855758 1.529752e-38 268 262
-0.069211073 0.77399999 -0.029855758 1.5020933e-38 269 262
-0.067854002 0.77399999 -0.029855758 1.4560678e-38 270 262
-0.066668749 0.77600002 -0.029932907 1.3823113e-38 271 262
-0.065476485 0.778 -0.03001005 1.382026e-38 272 262
-0.06411238 0.778 -0.03001005 1.3728064e-38 273 262
-0.062748291 0.778 -0.03001005 1.2443481e-38 274 262
-0.061384194 0.778 -0.03001005 1.3365079e-38 275 262
-0.097224087 0.78100002 -0.031495128 1.2077961e-38 249 263
-0.095731996 0.77999997 -0.031454798 1.2812599e-38 250 263
-0.094364397 0.77999997 -0.031454798 1.3181021e-38 251 263
-0.092996791 0.77999997 -0.031454798 1.4375213e-38 252 263
-0.091629192 0.77999997 -0.031454798 1.4743996e-38 253 263
-0.090030156 0.778 -0.031374145 1.5112759e-38 254 263
-0.088666067 0.778 -0.031374145 1.5389347e-38 255 263
-0.087077543 0.77600002 -0.031293493 1.5482617e-38 256 263
-0.085716955 0.77600002 -0.031293493 1.5759204e-38 257 263
-0.084356368 0.77600002 -0.031293493 1.5943237e-38 258 263
-0.082995787 0.77600002 -0.031293493 1.6035432e-38 259 263
-0.081424795 0.77399999 -0.031212838 1.6310224e-38 260 263
-0.080067717 0.77399999 -0.031212838 1.6218029e-38 261 263
-0.078710638 0.77399999 -0.031212838 1.5387182e-38 262 263
-0.077353559 0.77399999 -0.031212838 1.437267e-38 263 263
-0.075898297 0.773 -0.03117251 1.382202e-38 264 263
-0.074542962 0.773 -0.03117251 1.3914216e-38 265 263
-0.073187642 0.773 -0.03117251 1.4283383e-38 266 263
-0.071925238 0.77399999 -0.031212838 1.4652526e-38 267 263
-0.070568159 0.77399999 -0.031212838 1.5020939e-38 268 263
-0.069211073 0.77399999 -0.031212838 1.4928384e-38 269 263
-0.067854002 0.77399999 -0.031212838 1.4560678e-38 270 263
-0.066496916 0.77399999 -0.031212838 1.3823113e-38 271 263
-0.065308161 0.77600002 -0.031293493 1.382026e-38 272 263
-0.063947573 0.77600002 -0.031293493 1.382026e-38 273 263
-0.062586986 0.77600002 -0.031293493 1.2902289e-38 274 263
-0.095731996 0.77999997 -0.032822397 1.2812246e-38 250 264
-0.094364397 0.77999997 -0.032822397 1.3180668e-38 251 264
-0.092996791 0.77999997 -0.032822397 1.4008229e-38 252 264
-0.091394253 0.778 -0.032738242 1.419262e-38 253 264
-0.090030156 0.778 -0.032738242 1.4836892e-38 254 264
-0.088666067 0.778 -0.032738242 1.5021283e-38 255 264
-0.087077543 0.77600002 -0.032654081 1.5390066e-38 256 264
-0.085496038 0.77399999 -0.032569919 1.5574457e-38 257 264
-0.084138952 0.77399999 -0.032569919 1.5758851e-38 258 264
-0.082781881 0.77399999 -0.032569919 1.5942884e-38 259 264
-0.081424795 0.77399999 -0.032569919 1.5759925e-38 260 264
-0.080067717 0.77399999 -0.032569919 1.5944316e-38 261 264
-0.078608945 0.773 -0.032527838 1.6125463e-38 262 264
-0.077253617 0.773 -0.032527838 1.492692e-38 263 264
-0.075898297 0.773 -0.032527838 1.4281906e-38 264 264
-0.074542962 0.773 -0.032527838 1.3728734e-38 265 264
-0.073187642 0.773 -0.032527838 1.4008213e-38 266 264
-0.071832314 0.773 -0.032527838 1.4468833e-38 267 264
-0.070476986 0.773 -0.032527838 1.4652874e-38 268 264
-0.069121659 0.773 -0.032527838 1.4652874e-38 269 264
-0.067766331 0.773 -0.032527838 1.4651427e-38 270 264
-0.066411003 0.773 -0.032527838 1.3913862e-38 271 264
-0.065139838 0.77399999 -0.032569919 1.3177762e-38 272 264
-0.063782752 0.77399999 -0.032569919 1.3269957e-38 273 264
-0.062425677 0.77399999 -0.032569919 1.2993759e-38 274 264
-0.095731996 0.77999997 -0.034189999 1.2444185e-38 250 265
-0.094364397 0.77999997 -0.034189999 1.2720413e-38 251 265
-0.092996791 0.77999997 -0.034189999 1.4098624e-38 252 265
-0.091394253 0.778 -0.034102332 1.4375569e-38 253 265
-0.090030156 0.778 -0.034102332 1.4743978e-38 254 265
-0.088438138 0.77600002 -0.034014668 1.5112759e-38 255 265
-0.086853117 0.77399999 -0.033927001 1.5389347e-38 256 265
-0.085496038 0.77399999 -0.033927001 1.5573738e-38 257 265
-0.084138952 0.77399999 -0.033927001 1.5574457e-38 258 265
-0.082674921 0.773 -0.033883166 1.5666653e-38 259 265
-0.0813196 0.773 -0.033883166 1.5759202e-38 260 265
-0.079964265 0.773 -0.033883166 1.5759202e-38 261 265
-0.078405559 0.77100003 -0.033795502 1.6035065e-38 262 265
-0.077053741 0.77100003 -0.033795502 1.5389696e-38 263 265
-0.075898297 0.773 -0.033883166 1.4834359e-38 264 265
-0.074542962 0.773 -0.033883166 1.437302e-38 265 265
-0.073187642 0.773 -0.033883166 1.4009282e-38 266 265
-0.071832314 0.773 -0.033883166 1.4193674e-38 267 265
-0.070476986 0.773 -0.033883166 1.4744699e-38 268 265
-0.069121659 0.773 -0.033883166 1.4652145e-38 269 265
-0.067766331 0.773 -0.033883166 1.4468115e-38 270 265
-0.066411003 0.773 -0.033883166 1.35458e-38 271 265
-0.065139838 0.77399999 -0.033927001 1.2902248e-38 272 265
-0.063700356 0.773 -0.033883166 1.2994444e-38 273 265
-0.06234502 0.773 -0.033883166 1.2810078e-38 274 265
-0.095486529 0.778 -0.035466425 1.226124e-38 250 266
-0.094122432 0.778 -0.035466425 1.2169043e-38 251 266
-0.092758343 0.778 -0.035466425 1.3640166e-38 252 266
-0.091394253 0.778 -0.035466425 1.3824558e-38 253 266
-0.089798726 0.77600002 -0.035375252 1.4468482e-38 254 266
-0.088210195 0.77399999 -0.03528408 1.4652874e-38 255 266
-0.086740904 0.773 -0.035238493 1.5021657e-38 256 266
-0.085385576 0.773 -0.035238493 1.520605e-38 257 266
-0.084030248 0.773 -0.035238493 1.5298243e-38 258 266
-0.082461022 0.77100003 -0.03514732 1.5390797e-38 259 266
-0.081109203 0.77100003 -0.03514732 1.5391861e-38 260 266
-0.079757385 0.77100003 -0.03514732 1.5484415e-38 261 266
-0.078405559 0.77100003 -0.03514732 1.5851024e-38 262 266
-0.077053741 0.77100003 -0.03514732 1.5851024e-38 263 266
-0.075898297 0.773 -0.035238493 1.5664115e-38 264 266
-0.074542962 0.773 -0.035238493 1.5110941e-38 265 266
-0.073187642 0.773 -0.035238493 1.4835443e-38 266 266
-0.071832314 0.773 -0.035238493 1.4835443e-38 267 266
-0.070476986 0.773 -0.035238493 1.492764e-38 268 266
-0.069121659 0.773 -0.035238493 1.4835443e-38 269 266
-0.067766331 0.773 -0.035238493 1.4651778e-38 270 266
-0.066411003 0.773 -0.035238493 1.3914213e-38 271 266
-0.065055676 0.773 -0.035238493 1.2901529e-38 272 266
-0.063700356 0.773 -0.035238493 1.2993725e-38 273 266
-0.06234502 0.773 -0.035238493 1.2717529e-38 274 266
-0.060989697 0.773 -0.035238493 1.2348386e-38 275 266
-0.094122432 0.778 -0.036830518 1.1800986e-38 251 267
-0.092758343 0.778 -0.036830518 1.3272463e-38 252 267
-0.091394253 0.778 -0.036830518 1.3640885e-38 253 267
-0.089798726 0.77600002 -0.036735836 1.4467033e-38 254 267
-0.088210195 0.77399999 -0.036641158 1.474398e-38 255 267
-0.086740904 0.773 -0.036593821 1.4836892e-38 256 267
-0.085385576 0.773 -0.036593821 1.5113838e-38 257 267
-0.08381284 0.77100003 -0.036499143 1.5298223e-38 258 267
-0.082461022 0.77100003 -0.036499143 1.5390419e-38 259 267
-0.081109203 0.77100003 -0.036499143 1.5575161e-38 260 267
-0.079757385 0.77100003 -0.036499143 1.5667356e-38 261 267
-0.078405559 0.77100003 -0.036499143 1.5943939e-38 262 267
-0.077053741 0.77100003 -0.036499143 1.5759908e-38 263 267
-0.075701922 0.77100003 -0.036499143 1.5757754e-38 264 267
-0.074350104 0.77100003 -0.036499143 1.5481166e-38 265 267
-0.073187642 0.773 -0.036593821 1.4746482e-38 266 267
-0.071832314 0.773 -0.036593821 1.4654286e-38 267 267
-0.070476986 0.773 -0.036593821 1.4837596e-38 268 267
-0.068942823 0.77100003 -0.036499143 1.47454e-38 269 267
-0.067591004 0.77100003 -0.036499143 1.474468e-38 270 267
