# .PCD v.7 - Point Cloud Data file format
FIELDS x y z rgb imX imY
SIZE 4 4 4 4 4 4
TYPE F F F F F F
COUNT 1 1 1 1 1 1
WIDTH 847
HEIGHT 1
VIEWPOINT 0 0 0 1 0 0 0
POINTS 847
DATA ascii
0.042295661 0.73100001 -0.012816866 1.7788209e-38 353 250
0.043577347 0.73100001 -0.012816866 1.7696732e-38 354 250
0.044797666 0.73000002 -0.012799333 1.7788929e-38 355 250
0.046077598 0.73000002 -0.012799333 1.8155919e-38 356 250
0.047357533 0.73000002 -0.012799333 1.833995e-38 357 250
0.048637468 0.73000002 -0.012799333 1.8340679e-38 358 250
0.049780637 0.72799999 -0.012764266 1.8340679e-38 359 250
0.051057063 0.72799999 -0.012764266 1.852435e-38 360 250
0.052333489 0.72799999 -0.012764266 1.8616546e-38 361 250
0.053609919 0.72799999 -0.012764266 1.8616543e-38 362 250
0.054886345 0.72799999 -0.012764266 1.8616543e-38 363 250
0.056085624 0.727 -0.012746733 1.8433231e-38 364 250
0.057360299 0.727 -0.012746733 1.8433231e-38 365 250
0.058634974 0.727 -0.012746733 1.8524698e-38 366 250
0.059909642 0.727 -0.012746733 1.8524698e-38 367 250
0.061184317 0.727 -0.012746733 1.8615799e-38 368 250
0.062287167 0.72500002 -0.012711667 1.8615799e-38 369 250
0.063382991 0.72299999 -0.012676599 1.8339941e-38 370 250
0.064561233 0.722 -0.012659066 1.8247386e-38 371 250
0.065827139 0.722 -0.012659066 1.7696029e-38 372 250
0.067371838 0.72500002 -0.012711667 1.7603833e-38 373 250
0.06883236 0.727 -0.012746733 1.6956691e-38 374 250
-0.068835862 0.755 -0.014561433 1.5580285e-38 268 251
-0.067512102 0.755 -0.014561433 1.5764316e-38 269 251
-0.066188328 0.755 -0.014561433 1.6959578e-38 270 251
-0.064864561 0.755 -0.014561433 1.7051773e-38 271 251
-0.063540794 0.755 -0.014561433 1.7143603e-38 272 251
-0.062134624 0.75400001 -0.014542146 1.7327634e-38 273 251
-0.060812615 0.75400001 -0.014542146 1.7051407e-38 274 251
-0.059490599 0.75400001 -0.014542146 1.6867016e-38 275 251
-0.058168583 0.75400001 -0.014542146 1.6774462e-38 276 251
-0.056846574 0.75400001 -0.014542146 1.6498234e-38 277 251
-0.055524562 0.75400001 -0.014542146 1.6865217e-38 278 251
-0.054058768 0.75199997 -0.014503572 1.6588631e-38 279 251
-0.052740261 0.75199997 -0.014503572 1.6037249e-38 280 251
-0.051421758 0.75199997 -0.014503572 1.5761022e-38 281 251
-0.050103247 0.75199997 -0.014503572 1.5300767e-38 282 251
-0.048784744 0.75199997 -0.014503572 1.4839789e-38 283 251
-0.04759248 0.75400001 -0.014542146 1.4195504e-38 284 251
-0.046270464 0.75400001 -0.014542146 1.3550134e-38 285 251
-0.044948451 0.75400001 -0.014542146 1.3455072e-38 286 251
-0.043626439 0.75400001 -0.014542146 1.3639463e-38 287 251
-0.04219221 0.75199997 -0.014503572 1.3181006e-38 288 251
-0.040873703 0.75199997 -0.014503572 1.3273201e-38 289 251
-0.039660402 0.75400001 -0.014542146 1.318316e-38 290 251
-0.038338386 0.75400001 -0.014542146 1.3367192e-38 291 251
-0.037016369 0.75400001 -0.014542146 1.3735251e-38 292 251
-0.035694357 0.75400001 -0.014542146 1.3735251e-38 293 251
-0.034372345 0.75400001 -0.014542146 1.3734898e-38 294 251
-0.033050332 0.75400001 -0.014542146 1.3734898e-38 295 251
-0.03172832 0.75400001 -0.014542146 1.3734898e-38 296 251
-0.030446632 0.755 -0.014561433 1.3550867e-38 297 251
-0.029122867 0.755 -0.014561433 1.3275722e-38 298 251
-0.027799098 0.755 -0.014561433 1.3275722e-38 299 251
-0.026475333 0.755 -0.014561433 1.3459035e-38 300 251
-0.025151566 0.755 -0.014561433 1.3459035e-38 301 251
-0.023827799 0.755 -0.014561433 1.3550867e-38 302 251
-0.022504034 0.755 -0.014561433 1.3550867e-38 303 251
-0.021180267 0.755 -0.014561433 1.3458316e-38 304 251
-0.019830201 0.75400001 -0.014542146 1.3550511e-38 305 251
-0.018508185 0.75400001 -0.014542146 1.3550514e-38 306 251
-0.017140586 0.75199997 -0.014503572 1.3734545e-38 307 251
-0.015822079 0.75199997 -0.014503572 1.3734898e-38 308 251
-0.014503572 0.75199997 -0.014503572 1.3734898e-38 309 251
-0.013185065 0.75199997 -0.014503572 1.382745e-38 310 251
-0.011866559 0.75199997 -0.014503572 1.3919646e-38 311 251
-0.010548052 0.75199997 -0.014503572 1.4011841e-38 312 251
-0.0092295464 0.75199997 -0.014503572 1.4011841e-38 313 251
-0.0079110395 0.75199997 -0.014503572 1.4011841e-38 314 251
-0.0065925326 0.75199997 -0.014503572 1.4011841e-38 315 251
-0.0052740262 0.75199997 -0.014503572 1.4195153e-38 316 251
-0.0039555198 0.75199997 -0.014503572 1.4195153e-38 317 251
-0.0026370131 0.75199997 -0.014503572 1.4286983e-38 318 251
-0.0013185065 0.75199997 -0.014503572 1.4286983e-38 319 251
0 0.75 -0.014465 1.4470652e-38 320 251
0.0013132467 0.74900001 -0.014445714 1.4470652e-38 321 251
0.0026264933 0.74900001 -0.014445714 1.4379183e-38 322 251
0.0039292197 0.74699998 -0.014407139 1.4379183e-38 323 251
0.0052389596 0.74699998 -0.014407139 1.4287706e-38 324 251
0.0065486995 0.74699998 -0.014407139 1.4287706e-38 325 251
0.0078479191 0.74599999 -0.014387853 1.4379536e-38 326 251
0.0091559067 0.74599999 -0.014387853 1.4379536e-38 327 251
0.010463892 0.74599999 -0.014387853 1.4379529e-38 328 251
0.011771879 0.74599999 -0.014387853 1.4563921e-38 329 251
0.013079867 0.74599999 -0.014387853 1.4563918e-38 330 251
0.014387853 0.74599999 -0.014387853 1.4656113e-38 331 251
0.015653761 0.74400002 -0.01434928 1.474759e-38 332 251
0.016958239 0.74400002 -0.01434928 1.4839786e-38 333 251
0.01826272 0.74400002 -0.01434928 1.4748665e-38 334 251
0.019567199 0.74400002 -0.01434928 1.4748665e-38 335 251
0.020815572 0.74199998 -0.014310705 1.4840139e-38 336 251
0.02208674 0.741 -0.01429142 1.4840139e-38 337 251
0.023385961 0.741 -0.01429142 1.4840139e-38 338 251
0.024685178 0.741 -0.01429142 1.4840139e-38 339 251
0.025984399 0.741 -0.01429142 1.4840139e-38 340 251
0.027209979 0.73900002 -0.014252847 1.502417e-38 341 251
0.028505694 0.73900002 -0.014252847 1.5208554e-38 342 251
0.029801406 0.73900002 -0.014252847 1.5392585e-38 343 251
0.031055039 0.73799998 -0.014233559 1.5484062e-38 344 251
0.032348998 0.73799998 -0.014233559 1.5576259e-38 345 251
0.033551786 0.736 -0.014194986 1.539258e-38 346 251
0.03474756 0.73400003 -0.014156413 1.5485136e-38 347 251
0.036034506 0.73400003 -0.014156413 1.5945741e-38 348 251
0.037270606 0.73299998 -0.014137126 1.6130132e-38 349 251
0.038555797 0.73299998 -0.014137126 1.6590754e-38 350 251
0.039840993 0.73299998 -0.014137126 1.68677e-38 351 251
0.041013971 0.73100001 -0.014098554 1.7143928e-38 352 251
0.0422378 0.73000002 -0.014079267 1.7328678e-38 353 251
0.043517731 0.73000002 -0.014079267 1.7696016e-38 354 251
0.044674929 0.72799999 -0.014040692 1.7788212e-38 355 251
0.045951359 0.72799999 -0.014040692 1.8063724e-38 356 251
0.047227785 0.72799999 -0.014040692 1.8063724e-38 357 251
0.048504211 0.72799999 -0.014040692 1.8155566e-38 358 251
0.049712259 0.727 -0.014021406 1.8339956e-38 359 251
0.050986931 0.727 -0.014021406 1.8432149e-38 360 251
0.052117832 0.72500002 -0.013982833 1.8432149e-38 361 251
0.053388998 0.72500002 -0.013982833 1.8432505e-38 362 251
0.054660168 0.72500002 -0.013982833 1.85247e-38 363 251
0.055777039 0.72299999 -0.01394426 1.8524345e-38 364 251
0.057044696 0.72299999 -0.01394426 1.8524345e-38 365 251
0.058312356 0.72299999 -0.01394426 1.85247e-38 366 251
0.059580017 0.72299999 -0.01394426 1.8432505e-38 367 251
0.061016005 0.72500002 -0.013982833 1.8432852e-38 368 251
0.062115334 0.72299999 -0.01394426 1.8432852e-38 369 251
0.063295327 0.722 -0.013924973 1.8340654e-38 370 251
0.064382397 0.72000003 -0.0138864 1.8340654e-38 371 251
0.065644801 0.72000003 -0.0138864 1.7972594e-38 372 251
0.067093052 0.722 -0.013924973 1.7788562e-38 373 251
0.06883236 0.727 -0.014021406 1.7694937e-38 374 251
0.070107035 0.727 -0.014021406 1.7510906e-38 375 251
-0.070159629 0.755 -0.015885198 1.6411879e-38 267 252
-0.068835862 0.755 -0.015885198 1.5394076e-38 268 252
-0.067512102 0.755 -0.015885198 1.6223837e-38 269 252
-0.066188328 0.755 -0.015885198 1.6500399e-38 270 252
-0.064778648 0.75400001 -0.01586416 1.6592953e-38 271 252
-0.06345664 0.75400001 -0.01586416 1.6958856e-38 272 252
-0.061969809 0.75199997 -0.015822079 1.6958856e-38 273 252
-0.060651302 0.75199997 -0.015822079 1.6774818e-38 274 252
-0.059490599 0.75400001 -0.01586416 1.649859e-38 275 252
-0.058014289 0.75199997 -0.015822079 1.6314561e-38 276 252
-0.056695782 0.75199997 -0.015822079 1.613053e-38 277 252
-0.055377278 0.75199997 -0.015822079 1.5946152e-38 278 252
-0.054058768 0.75199997 -0.015822079 1.5577369e-38 279 252
-0.052740261 0.75199997 -0.015822079 1.5484452e-38 280 252
-0.051421758 0.75199997 -0.015822079 1.5207865e-38 281 252
-0.050103247 0.75199997 -0.015822079 1.4655766e-38 282 252
-0.048784744 0.75199997 -0.015822079 1.4286983e-38 283 252
-0.047466237 0.75199997 -0.015822079 1.3643782e-38 284 252
-0.04614773 0.75199997 -0.015822079 1.345939e-38 285 252
-0.044948451 0.75400001 -0.01586416 1.3641261e-38 286 252
-0.043626439 0.75400001 -0.01586416 1.3549065e-38 287 252
-0.04219221 0.75199997 -0.015822079 1.3274276e-38 288 252
-0.040873703 0.75199997 -0.015822079 1.3366472e-38 289 252
-0.039660402 0.75400001 -0.01586416 1.3366839e-38 290 252
-0.038338386 0.75400001 -0.01586416 1.3366839e-38 291 252
-0.037016369 0.75400001 -0.01586416 1.3458681e-38 292 252
-0.035694357 0.75400001 -0.01586416 1.3458681e-38 293 252
-0.034372345 0.75400001 -0.01586416 1.3458681e-38 294 252
-0.033050332 0.75400001 -0.01586416 1.3458681e-38 295 252
-0.03172832 0.75400001 -0.01586416 1.3183176e-38 296 252
-0.030446632 0.755 -0.015885198 1.3183176e-38 297 252
-0.029122867 0.755 -0.015885198 1.2999864e-38 298 252
-0.027799098 0.755 -0.015885198 1.2999864e-38 299 252
-0.026475333 0.755 -0.015885198 1.3183174e-38 300 252
-0.025151566 0.755 -0.015885198 1.3090976e-38 301 252
-0.023827799 0.755 -0.015885198 1.2998781e-38 302 252
-0.022504034 0.755 -0.015885198 1.2998781e-38 303 252
-0.021180267 0.755 -0.015885198 1.309026e-38 304 252
-0.019830201 0.75400001 -0.01586416 1.309026e-38 305 252
-0.018508185 0.75400001 -0.01586416 1.31821e-38 306 252
-0.017140586 0.75199997 -0.015822079 1.3366491e-38 307 252
-0.015822079 0.75199997 -0.015822079 1.3366489e-38 308 252
-0.014503572 0.75199997 -0.015822079 1.3458684e-38 309 252
-0.013185065 0.75199997 -0.015822079 1.3551236e-38 310 252
-0.011866559 0.75199997 -0.015822079 1.3551236e-38 311 252
-0.010548052 0.75199997 -0.015822079 1.3551236e-38 312 252
-0.0092295464 0.75199997 -0.015822079 1.3643431e-38 313 252
-0.0079110395 0.75199997 -0.015822079 1.3643429e-38 314 252
-0.0065925326 0.75199997 -0.015822079 1.3643429e-38 315 252
-0.0052740262 0.75199997 -0.015822079 1.3919292e-38 316 252
-0.0039555198 0.75199997 -0.015822079 1.3919292e-38 317 252
-0.0026370131 0.75199997 -0.015822079 1.3918571e-38 318 252
-0.0013185065 0.75199997 -0.015822079 1.4011125e-38 319 252
0 0.75 -0.01578 1.3918927e-38 320 252
0.0013132467 0.74900001 -0.01575896 1.4011122e-38 321 252
0.0026264933 0.74900001 -0.01575896 1.4011125e-38 322 252
0.0039292197 0.74699998 -0.015716879 1.4195156e-38 323 252
0.0052389596 0.74699998 -0.015716879 1.4012206e-38 324 252
0.0065486995 0.74699998 -0.015716879 1.3828173e-38 325 252
0.0078479191 0.74599999 -0.015695838 1.4011838e-38 326 252
0.0091559067 0.74599999 -0.015695838 1.4011838e-38 327 252
0.010463892 0.74599999 -0.015695838 1.4287701e-38 328 252
0.011771879 0.74599999 -0.015695838 1.4287701e-38 329 252
0.013079867 0.74599999 -0.015695838 1.4380255e-38 330 252
0.014387853 0.74599999 -0.015695838 1.4380255e-38 331 252
0.015695838 0.74599999 -0.015695838 1.4472451e-38 332 252
0.016958239 0.74400002 -0.015653761 1.4564646e-38 333 252
0.01826272 0.74400002 -0.015653761 1.4748312e-38 334 252
0.019567199 0.74400002 -0.015653761 1.4748312e-38 335 252
0.020815572 0.74199998 -0.015611678 1.4748309e-38 336 252
0.02208674 0.741 -0.01559064 1.4748309e-38 337 252
0.023385961 0.741 -0.01559064 1.4840139e-38 338 252
0.024685178 0.741 -0.01559064 1.4840139e-38 339 252
0.025914267 0.73900002 -0.01554856 1.4749012e-38 340 252
0.027209979 0.73900002 -0.01554856 1.4841208e-38 341 252
0.028467119 0.73799998 -0.015527519 1.5117072e-38 342 252
0.029761078 0.73799998 -0.015527519 1.5117072e-38 343 252
0.030970879 0.736 -0.015485439 1.5392229e-38 344 252
0.032261331 0.736 -0.015485439 1.5484427e-38 345 252
0.033460613 0.73400003 -0.01544336 1.5208567e-38 346 252
0.03474756 0.73400003 -0.01544336 1.5208567e-38 347 252
0.036034506 0.73400003 -0.01544336 1.5208917e-38 348 252
0.037270606 0.73299998 -0.015422319 1.5208917e-38 349 252
0.038450599 0.73100001 -0.01538024 1.5761722e-38 350 252
0.039732285 0.73100001 -0.01538024 1.6130504e-38 351 252
0.040957868 0.73000002 -0.0153592 1.6407092e-38 352 252
0.0422378 0.73000002 -0.0153592 1.686807e-38 353 252
0.043398503 0.72799999 -0.01531712 1.7236127e-38 354 252
0.044674929 0.72799999 -0.01531712 1.7328322e-38 355 252
0.045888241 0.727 -0.015296079 1.7696016e-38 356 252
0.047162913 0.727 -0.015296079 1.7696016e-38 357 252
0.048437584 0.727 -0.015296079 1.7787861e-38 358 252
0.0495755 0.72500002 -0.015254001 1.7971894e-38 359 252
0.050846666 0.72500002 -0.015254001 1.8063736e-38 360 252
0.051974058 0.72299999 -0.015211919 1.8156291e-38 361 252
0.053168077 0.722 -0.015190879 1.8064089e-38 362 252
0.054433983 0.722 -0.015190879 1.8156285e-38 363 252
0.055699892 0.722 -0.015190879 1.8248839e-38 364 252
0.056808002 0.72000003 -0.0151488 1.8248839e-38 365 252
0.058070403 0.72000003 -0.0151488 1.8248837e-38 366 252
0.059332799 0.72000003 -0.0151488 1.8341032e-38 367 252
0.060763516 0.722 -0.015190879 1.8341739e-38 368 252
0.062029421 0.722 -0.015190879 1.8249543e-38 369 252
0.06312 0.72000003 -0.0151488 1.8432489e-38 370 252
0.064382397 0.72000003 -0.0151488 1.8339935e-38 371 252
0.065644801 0.72000003 -0.0151488 1.8248091e-38 372 252
0.066907197 0.72000003 -0.0151488 1.8248091e-38 373 252
0.068074919 0.71899998 -0.01512776 1.8155896e-38 374 252
0.069335558 0.71899998 -0.01512776 1.787931e-38 375 252
0.070596211 0.71899998 -0.01512776 1.7419054e-38 376 252
0.071257219 0.713 -0.015001519 1.7050271e-38 377 252
0.072202265 0.70999998 -0.014938398 1.695488e-38 378 252
0.073240235 0.708 -0.01489632 1.7047076e-38 379 252
0.074481599 0.708 -0.01489632 1.6401414e-38 380 252
-0.071483396 0.755 -0.017208965 1.7147273e-38 266 253
-0.070159629 0.755 -0.017208965 1.6225317e-38 267 253
-0.068835862 0.755 -0.017208965 1.6498616e-38 268 253
-0.067512102 0.755 -0.017208965 1.6591171e-38 269 253
-0.066100664 0.75400001 -0.017186172 1.6774467e-38 270 253
-0.064778648 0.75400001 -0.017186172 1.668227e-38 271 253
-0.06345664 0.75400001 -0.017186172 1.6314205e-38 272 253
-0.061969809 0.75199997 -0.017140586 1.6037979e-38 273 253
-0.060651302 0.75199997 -0.017140586 1.5946133e-38 274 253
-0.059332799 0.75199997 -0.017140586 1.5853936e-38 275 253
-0.058014289 0.75199997 -0.017140586 1.5853583e-38 276 253
-0.056544997 0.75 -0.017095 1.5669192e-38 277 253
-0.055229999 0.75 -0.017095 1.5668839e-38 278 253
-0.054058768 0.75199997 -0.017140586 1.5023469e-38 279 253
-0.052740261 0.75199997 -0.017140586 1.4379183e-38 280 253
-0.051421758 0.75199997 -0.017140586 1.4194432e-38 281 253
-0.050103247 0.75199997 -0.017140586 1.3550514e-38 282 253
-0.048784744 0.75199997 -0.017140586 1.3734545e-38 283 253
-0.047466237 0.75199997 -0.017140586 1.3550517e-38 284 253
-0.04614773 0.75199997 -0.017140586 1.3458321e-38 285 253
-0.044829223 0.75199997 -0.017140586 1.3366842e-38 286 253
-0.04351072 0.75199997 -0.017140586 1.3182809e-38 287 253
-0.04219221 0.75199997 -0.017140586 1.3366842e-38 288 253
-0.040873703 0.75199997 -0.017140586 1.3366842e-38 289 253
-0.039660402 0.75400001 -0.017186172 1.3457965e-38 290 253
-0.038338386 0.75400001 -0.017186172 1.3457965e-38 291 253
-0.037016369 0.75400001 -0.017186172 1.3457965e-38 292 253
-0.035694357 0.75400001 -0.017186172 1.3365768e-38 293 253
-0.034372345 0.75400001 -0.017186172 1.3457965e-38 294 253
-0.033050332 0.75400001 -0.017186172 1.3365768e-38 295 253
-0.03172832 0.75400001 -0.017186172 1.3365771e-38 296 253
-0.030406307 0.75400001 -0.017186172 1.3365771e-38 297 253
-0.029084291 0.75400001 -0.017186172 1.3366491e-38 298 253
-0.027762281 0.75400001 -0.017186172 1.3089905e-38 299 253
-0.026440267 0.75400001 -0.017186172 1.3180653e-38 300 253
-0.025151566 0.755 -0.017208965 1.3088457e-38 301 253
-0.023827799 0.755 -0.017208965 1.3179204e-38 302 253
-0.022504034 0.755 -0.017208965 1.3179204e-38 303 253
-0.021180267 0.755 -0.017208965 1.2995891e-38 304 253
-0.0198565 0.755 -0.017208965 1.3272478e-38 305 253
-0.018508185 0.75400001 -0.017186172 1.3181009e-38 306 253
-0.017140586 0.75199997 -0.017140586 1.33654e-38 307 253
-0.015822079 0.75199997 -0.017140586 1.33654e-38 308 253
-0.014503572 0.75199997 -0.017140586 1.3549431e-38 309 253
-0.013185065 0.75199997 -0.017140586 1.3549787e-38 310 253
-0.011866559 0.75199997 -0.017140586 1.3641984e-38 311 253
-0.010548052 0.75199997 -0.017140586 1.3734177e-38 312 253
-0.0092295464 0.75199997 -0.017140586 1.3641981e-38 313 253
-0.0079110395 0.75199997 -0.017140586 1.373453e-38 314 253
-0.0065925326 0.75199997 -0.017140586 1.373453e-38 315 253
-0.0052740262 0.75199997 -0.017140586 1.3918198e-38 316 253
-0.0039555198 0.75199997 -0.017140586 1.3918198e-38 317 253
-0.0026370131 0.75199997 -0.017140586 1.4010394e-38 318 253
-0.0013185065 0.75199997 -0.017140586 1.4010394e-38 319 253
0 0.75 -0.017095 1.410187e-38 320 253
0.0013132467 0.74900001 -0.017072206 1.410187e-38 321 253
0.0026264933 0.74900001 -0.017072206 1.4102589e-38 322 253
0.0039292197 0.74699998 -0.017026618 1.4194785e-38 323 253
0.0052389596 0.74699998 -0.017026618 1.391928e-38 324 253
0.0065486995 0.74699998 -0.017026618 1.4011475e-38 325 253
0.0078479191 0.74599999 -0.017003827 1.4194785e-38 326 253
0.0091559067 0.74599999 -0.017003827 1.4194785e-38 327 253
0.010463892 0.74599999 -0.017003827 1.4286981e-38 328 253
0.011771879 0.74599999 -0.017003827 1.4194785e-38 329 253
0.013079867 0.74599999 -0.017003827 1.4287336e-38 330 253
0.014387853 0.74599999 -0.017003827 1.4379532e-38 331 253
0.015653761 0.74400002 -0.016958239 1.45632e-38 332 253
0.016958239 0.74400002 -0.016958239 1.4655397e-38 333 253
0.01826272 0.74400002 -0.016958239 1.4838707e-38 334 253
0.0195146 0.74199998 -0.016912652 1.4930902e-38 335 253
0.020787518 0.741 -0.016889861 1.4747946e-38 336 253
0.02208674 0.741 -0.016889861 1.4840142e-38 337 253
0.023385961 0.741 -0.016889861 1.502417e-38 338 253
0.024618553 0.73900002 -0.016844273 1.502417e-38 339 253
0.025914267 0.73900002 -0.016844273 1.4933407e-38 340 253
0.027209979 0.73900002 -0.016844273 1.4933407e-38 341 253
0.028467119 0.73799998 -0.016821479 1.5116719e-38 342 253
0.029680425 0.736 -0.016775893 1.5209273e-38 343 253
0.030970879 0.736 -0.016775893 1.520927e-38 344 253
0.032261331 0.736 -0.016775893 1.520927e-38 345 253
0.033460613 0.73400003 -0.016730307 1.5392583e-38 346 253
0.03474756 0.73400003 -0.016730307 1.5392583e-38 347 253
0.035985414 0.73299998 -0.016707512 1.5484059e-38 348 253
0.037270606 0.73299998 -0.016707512 1.5576256e-38 349 253
0.038450599 0.73100001 -0.016661927 1.5576259e-38 350 253
0.039732285 0.73100001 -0.016661927 1.5484062e-38 351 253
0.040957868 0.73000002 -0.016639132 1.530147e-38 352 253
0.042122077 0.72799999 -0.016593546 1.5485861e-38 353 253
0.043398503 0.72799999 -0.016593546 1.5855356e-38 354 253
0.044613566 0.727 -0.016570752 1.6316694e-38 355 253
0.045888241 0.727 -0.016570752 1.6959544e-38 356 253
0.047033165 0.72500002 -0.016525166 1.7143934e-38 357 253
0.048304334 0.72500002 -0.016525166 1.7877533e-38 358 253
0.049438741 0.72299999 -0.01647958 1.815412e-38 359 253
0.050706398 0.72299999 -0.01647958 1.8246672e-38 360 253
0.051902171 0.722 -0.016456785 1.8338869e-38 361 253
0.053168077 0.722 -0.016456785 1.8247392e-38 362 253
0.054433983 0.722 -0.016456785 1.8247392e-38 363 253
0.055545598 0.72000003 -0.0164112 1.8064074e-38 364 253
0.056808002 0.72000003 -0.0164112 1.8064074e-38 365 253
0.058070403 0.72000003 -0.0164112 1.8156623e-38 366 253
0.059332799 0.72000003 -0.0164112 1.8156623e-38 367 253
0.060595199 0.72000003 -0.0164112 1.834101e-38 368 253
0.061857603 0.72000003 -0.0164112 1.834101e-38 369 253
0.063032329 0.71899998 -0.016388407 1.8339938e-38 370 253
0.064114138 0.71700001 -0.016342819 1.8339938e-38 371 253
0.06528011 0.71600002 -0.016320027 1.852325e-38 372 253
0.066535495 0.71600002 -0.016320027 1.8339219e-38 373 253
0.067790881 0.71600002 -0.016320027 1.7972594e-38 374 253
0.069046266 0.71600002 -0.016320027 1.7696366e-38 375 253
0.070105277 0.71399999 -0.016274439 1.7511972e-38 376 253
0.071257219 0.713 -0.016251646 1.7235384e-38 377 253
0.072202265 0.70999998 -0.016183265 1.7417277e-38 378 253
0.073240235 0.708 -0.01613768 1.7140691e-38 379 253
0.074481599 0.708 -0.01613768 1.6129837e-38 380 253
0.075722955 0.708 -0.01613768 1.6498619e-38 381 253
0.076964319 0.708 -0.01613768 1.6866014e-38 382 253
-0.071388714 0.75400001 -0.018508185 1.6040909e-38 266 254
-0.070066705 0.75400001 -0.018508185 1.5763963e-38 267 254
-0.068835862 0.755 -0.018532733 1.6499325e-38 268 254
-0.067512102 0.755 -0.018532733 1.6222738e-38 269 254
-0.066100664 0.75400001 -0.018508185 1.60387e-38 270 254
-0.064606823 0.75199997 -0.018459093 1.5946505e-38 271 254
-0.063288316 0.75199997 -0.018459093 1.5946149e-38 272 254
-0.061969809 0.75199997 -0.018459093 1.5853953e-38 273 254
-0.060651302 0.75199997 -0.018459093 1.5670285e-38 274 254
-0.059332799 0.75199997 -0.018459093 1.5578089e-38 275 254
-0.058014289 0.75199997 -0.018459093 1.5301858e-38 276 254
-0.056544997 0.75 -0.018409999 1.5117467e-38 277 254
-0.055229999 0.75 -0.018409999 1.4656492e-38 278 254
-0.053914998 0.75 -0.018409999 1.428735e-38 279 254
-0.0526 0.75 -0.018409999 1.3918574e-38 280 254
-0.051421758 0.75199997 -0.018459093 1.3918574e-38 281 254
-0.050103247 0.75199997 -0.018459093 1.3367568e-38 282 254
-0.048784744 0.75199997 -0.018459093 1.3275372e-38 283 254
-0.047466237 0.75199997 -0.018459093 1.3183176e-38 284 254
-0.04614773 0.75199997 -0.018459093 1.3090979e-38 285 254
-0.044829223 0.75199997 -0.018459093 1.2907308e-38 286 254
-0.04351072 0.75199997 -0.018459093 1.2907308e-38 287 254
-0.04219221 0.75199997 -0.018459093 1.3090628e-38 288 254
-0.040873703 0.75199997 -0.018459093 1.3090628e-38 289 254
-0.039660402 0.75400001 -0.018508185 1.3182823e-38 290 254
-0.038338386 0.75400001 -0.018508185 1.3090628e-38 291 254
-0.037016369 0.75400001 -0.018508185 1.3089551e-38 292 254
-0.035694357 0.75400001 -0.018508185 1.3089551e-38 293 254
-0.034372345 0.75400001 -0.018508185 1.2997709e-38 294 254
-0.033050332 0.75400001 -0.018508185 1.2536732e-38 295 254
-0.03172832 0.75400001 -0.018508185 1.2627484e-38 296 254
-0.030406307 0.75400001 -0.018508185 1.2627484e-38 297 254
-0.029084291 0.75400001 -0.018508185 1.2536008e-38 298 254
-0.027762281 0.75400001 -0.018508185 1.2443453e-38 299 254
-0.026440267 0.75400001 -0.018508185 1.2443441e-38 300 254
-0.025151566 0.755 -0.018532733 1.1982463e-38 301 254
-0.023827799 0.755 -0.018532733 1.1982818e-38 302 254
-0.022504034 0.755 -0.018532733 1.1982818e-38 303 254
-0.021180267 0.755 -0.018532733 1.1707676e-38 304 254
-0.0198565 0.755 -0.018532733 1.20761e-38 305 254
-0.018508185 0.75400001 -0.018508185 1.2537807e-38 306 254
-0.017186172 0.75400001 -0.018508185 1.2630003e-38 307 254
-0.015822079 0.75199997 -0.018459093 1.3088823e-38 308 254
-0.014503572 0.75199997 -0.018459093 1.3273573e-38 309 254
-0.013185065 0.75199997 -0.018459093 1.3182806e-38 310 254
-0.011866559 0.75199997 -0.018459093 1.3182806e-38 311 254
-0.010548052 0.75199997 -0.018459093 1.3367192e-38 312 254
-0.0092295464 0.75199997 -0.018459093 1.318316e-38 313 254
-0.0079110395 0.75199997 -0.018459093 1.3458666e-38 314 254
-0.0065925326 0.75199997 -0.018459093 1.3458666e-38 315 254
-0.0052740262 0.75199997 -0.018459093 1.3551218e-38 316 254
-0.0039555198 0.75199997 -0.018459093 1.3551218e-38 317 254
-0.0026370131 0.75199997 -0.018459093 1.3734533e-38 318 254
-0.0013185065 0.75199997 -0.018459093 1.3734533e-38 319 254
0 0.75 -0.018409999 1.3734533e-38 320 254
0.001315 0.75 -0.018409999 1.3826728e-38 321 254
0.0026264933 0.74900001 -0.018385453 1.3826725e-38 322 254
0.0039292197 0.74699998 -0.018336359 1.391928e-38 323 254
0.0052389596 0.74699998 -0.018336359 1.3918924e-38 324 254
0.0065486995 0.74699998 -0.018336359 1.3918924e-38 325 254
0.0078479191 0.74599999 -0.018311813 1.3918924e-38 326 254
0.0091559067 0.74599999 -0.018311813 1.3918924e-38 327 254
0.010463892 0.74599999 -0.018311813 1.3918927e-38 328 254
0.011771879 0.74599999 -0.018311813 1.4011122e-38 329 254
0.013079867 0.74599999 -0.018311813 1.4194435e-38 330 254
0.014387853 0.74599999 -0.018311813 1.428663e-38 331 254
0.015653761 0.74400002 -0.01826272 1.4286986e-38 332 254
0.016958239 0.74400002 -0.01826272 1.4379183e-38 333 254
0.01826272 0.74400002 -0.01826272 1.437918e-38 334 254
0.0195146 0.74199998 -0.018213626 1.4563211e-38 335 254
0.020787518 0.741 -0.018189078 1.4563565e-38 336 254
0.02208674 0.741 -0.018189078 1.4747956e-38 337 254
0.023385961 0.741 -0.018189078 1.4748312e-38 338 254
0.024618553 0.73900002 -0.018139986 1.4840507e-38 339 254
0.025914267 0.73900002 -0.018139986 1.4840861e-38 340 254
0.027173158 0.73799998 -0.018115439 1.4933056e-38 341 254
0.028389972 0.736 -0.018066347 1.4933053e-38 342 254
0.029680425 0.736 -0.018066347 1.5025608e-38 343 254
0.030970879 0.736 -0.018066347 1.5209273e-38 344 254
0.032173667 0.73400003 -0.018017253 1.5209273e-38 345 254
0.033460613 0.73400003 -0.018017253 1.520927e-38 346 254
0.034700219 0.73299998 -0.017992707 1.520927e-38 347 254
0.035985414 0.73299998 -0.017992707 1.5208917e-38 348 254
0.037270606 0.73299998 -0.017992707 1.5208917e-38 349 254
0.038450599 0.73100001 -0.017943613 1.5300761e-38 350 254
0.039677933 0.73000002 -0.017919067 1.5300761e-38 351 254
0.040845651 0.72799999 -0.017869972 1.5300411e-38 352 254
0.042122077 0.72799999 -0.017869972 1.5300411e-38 353 254
0.043398503 0.72799999 -0.017869972 1.5391882e-38 354 254
0.044613566 0.727 -0.017845426 1.585322e-38 355 254
0.045888241 0.727 -0.017845426 1.6129796e-38 356 254
0.047033165 0.72500002 -0.017796334 1.6314546e-38 357 254
0.048304334 0.72500002 -0.017796334 1.6682956e-38 358 254
0.049438741 0.72299999 -0.017747238 1.7236129e-38 359 254
0.050706398 0.72299999 -0.017747238 1.7511637e-38 360 254
0.051902171 0.722 -0.017722692 1.7788584e-38 361 254
0.053168077 0.722 -0.017722692 1.769531e-38 362 254
0.054283202 0.72000003 -0.017673599 1.7971897e-38 363 254
0.055545598 0.72000003 -0.017673599 1.7972247e-38 364 254
0.056729097 0.71899998 -0.017649053 1.7972247e-38 365 254
0.057989739 0.71899998 -0.017649053 1.7972597e-38 366 254
0.059250388 0.71899998 -0.017649053 1.7972597e-38 367 254
0.060342718 0.71700001 -0.017599959 1.8064793e-38 368 254
0.061599858 0.71700001 -0.017599959 1.8064793e-38 369 254
0.062769331 0.71600002 -0.017575413 1.8339588e-38 370 254
0.064024724 0.71600002 -0.017575413 1.8247392e-38 371 254
0.06528011 0.71600002 -0.017575413 1.815627e-38 372 254
0.066349633 0.71399999 -0.017526319 1.8064074e-38 373 254
0.067601517 0.71399999 -0.017526319 1.8248094e-38 374 254
0.068853401 0.71399999 -0.017526319 1.8063344e-38 375 254
0.070007093 0.713 -0.017501773 1.8062975e-38 376 254
0.071257219 0.713 -0.017501773 1.797078e-38 377 254
0.072202265 0.70999998 -0.017428132 1.7694552e-38 378 254
0.073240235 0.708 -0.017379038 1.751016e-38 379 254
0.074481599 0.708 -0.017379038 1.6590404e-38 380 254
0.075722955 0.708 -0.017379038 1.686735e-38 381 254
0.076964319 0.708 -0.017379038 1.723513e-38 382 254
0.0784266 0.70999998 -0.017428132 1.7972695e-38 383 254
-0.07271073 0.75400001 -0.019830201 1.7701558e-38 265 255
-0.071388714 0.75400001 -0.019830201 1.5762879e-38 266 255
-0.070066705 0.75400001 -0.019830201 1.594691e-38 267 255
-0.068744689 0.75400001 -0.019830201 1.6220938e-38 268 255
-0.067422673 0.75400001 -0.019830201 1.6128742e-38 269 255
-0.06592533 0.75199997 -0.0197776 1.5485171e-38 270 255
-0.064434998 0.75 -0.019724999 1.5485171e-38 271 255
-0.06312 0.75 -0.019724999 1.5485173e-38 272 255
-0.061804999 0.75 -0.019724999 1.5485173e-38 273 255
-0.060489997 0.75 -0.019724999 1.5302214e-38 274 255
-0.059175 0.75 -0.019724999 1.5302214e-38 275 255
-0.057859998 0.75 -0.019724999 1.4749757e-38 276 255
-0.056544997 0.75 -0.019724999 1.4104389e-38 277 255
-0.055229999 0.75 -0.019724999 1.373453e-38 278 255
-0.053914998 0.75 -0.019724999 1.3550137e-38 279 255
-0.0526 0.75 -0.019724999 1.2999858e-38 280 255
-0.051421758 0.75199997 -0.0197776 1.318389e-38 281 255
-0.050103247 0.75199997 -0.0197776 1.318282e-38 282 255
-0.048784744 0.75199997 -0.0197776 1.318282e-38 283 255
-0.047466237 0.75199997 -0.0197776 1.2907311e-38 284 255
-0.04614773 0.75199997 -0.0197776 1.2907311e-38 285 255
-0.044829223 0.75199997 -0.0197776 1.2998428e-38 286 255
-0.04351072 0.75199997 -0.0197776 1.2998428e-38 287 255
-0.04219221 0.75199997 -0.0197776 1.3089905e-38 288 255
-0.040873703 0.75199997 -0.0197776 1.3089905e-38 289 255
-0.039555199 0.75199997 -0.0197776 1.3089905e-38 290 255
-0.038338386 0.75400001 -0.019830201 1.2997709e-38 291 255
-0.037016369 0.75400001 -0.019830201 1.2905157e-38 292 255
-0.035694357 0.75400001 -0.019830201 1.2812962e-38 293 255
-0.034372345 0.75400001 -0.019830201 1.2443809e-38 294 255
-0.033050332 0.75400001 -0.019830201 1.1614409e-38 295 255
-0.03172832 0.75400001 -0.019830201 1.161044e-38 296 255
-0.030406307 0.75400001 -0.019830201 1.1702636e-38 297 255
-0.029084291 0.75400001 -0.019830201 1.142821e-38 298 255
-0.027799098 0.755 -0.0198565 1.1705155e-38 299 255
-0.026475333 0.755 -0.0198565 1.1705873e-38 300 255
-0.025151566 0.755 -0.0198565 1.0876111e-38 301 255
-0.023827799 0.755 -0.0198565 1.0692077e-38 302 255
-0.022504034 0.755 -0.0198565 1.0968662e-38 303 255
-0.021180267 0.755 -0.0198565 1.0785361e-38 304 255
-0.0198565 0.755 -0.0198565 1.1522926e-38 305 255
-0.018508185 0.75400001 -0.019830201 1.2261213e-38 306 255
-0.017186172 0.75400001 -0.019830201 1.2445604e-38 307 255
-0.01586416 0.75400001 -0.019830201 1.2905498e-38 308 255
-0.014503572 0.75199997 -0.0197776 1.3089529e-38 309 255
-0.013185065 0.75199997 -0.0197776 1.2998765e-38 310 255
-0.011866559 0.75199997 -0.0197776 1.2998765e-38 311 255
-0.010548052 0.75199997 -0.0197776 1.3182078e-38 312 255
-0.0092295464 0.75199997 -0.0197776 1.3182078e-38 313 255
-0.0079110395 0.75199997 -0.0197776 1.3366103e-38 314 255
-0.0065925326 0.75199997 -0.0197776 1.3366103e-38 315 255
-0.0052740262 0.75199997 -0.0197776 1.3274624e-38 316 255
-0.0039555198 0.75199997 -0.0197776 1.3366819e-38 317 255
-0.0026370131 0.75199997 -0.0197776 1.3550134e-38 318 255
-0.0013185065 0.75199997 -0.0197776 1.3550134e-38 319 255
0 0.75199997 -0.0197776 1.3641611e-38 320 255
0.001315 0.75 -0.019724999 1.3734167e-38 321 255
0.00263 0.75 -0.019724999 1.3734167e-38 322 255
0.0039397399 0.74900001 -0.0196987 1.3918198e-38 323 255
0.0052389596 0.74699998 -0.019646099 1.3734883e-38 324 255
0.0065486995 0.74699998 -0.019646099 1.3734883e-38 325 255
0.0078479191 0.74599999 -0.019619798 1.3827079e-38 326 255
0.0091559067 0.74599999 -0.019619798 1.3734883e-38 327 255
0.010463892 0.74599999 -0.019619798 1.3917842e-38 328 255
0.011771879 0.74599999 -0.019619798 1.3917842e-38 329 255
0.013079867 0.74599999 -0.019619798 1.4009322e-38 330 255
0.014387853 0.74599999 -0.019619798 1.4101517e-38 331 255
0.015653761 0.74400002 -0.019567199 1.410187e-38 332 255
0.016958239 0.74400002 -0.019567199 1.4285902e-38 333 255
0.01826272 0.74400002 -0.019567199 1.4378087e-38 334 255
0.0195146 0.74199998 -0.0195146 1.4470283e-38 335 255
0.020787518 0.741 -0.019488299 1.4471002e-38 336 255
0.02208674 0.741 -0.019488299 1.4655395e-38 337 255
0.023385961 0.741 -0.019488299 1.4656116e-38 338 255
0.024618553 0.73900002 -0.0194357 1.4748312e-38 339 255
0.025914267 0.73900002 -0.0194357 1.484051e-38 340 255
0.027173158 0.73799998 -0.019409399 1.484051e-38 341 255
0.028389972 0.736 -0.019356798 1.4840507e-38 342 255
0.029680425 0.736 -0.019356798 1.4932703e-38 343 255
0.030970879 0.736 -0.019356798 1.5208564e-38 344 255
0.032173667 0.73400003 -0.019304199 1.5116368e-38 345 255
0.033415023 0.73299998 -0.019277899 1.520892e-38 346 255
0.034700219 0.73299998 -0.019277899 1.520892e-38 347 255
0.035985414 0.73299998 -0.019277899 1.520892e-38 348 255
0.037270606 0.73299998 -0.019277899 1.520892e-38 349 255
0.038450599 0.73100001 -0.019225299 1.5392232e-38 350 255
0.039677933 0.73000002 -0.019199001 1.5392232e-38 351 255
0.040845651 0.72799999 -0.0191464 1.5483706e-38 352 255
0.042122077 0.72799999 -0.0191464 1.5576262e-38 353 255
0.043398503 0.72799999 -0.0191464 1.5576262e-38 354 255
0.044613566 0.727 -0.019120099 1.5760293e-38 355 255
0.045761999 0.72500002 -0.0190675 1.5301833e-38 356 255
0.047033165 0.72500002 -0.0190675 1.5486583e-38 357 255
0.048171077 0.72299999 -0.019014901 1.5854637e-38 358 255
0.04937036 0.722 -0.0189886 1.6315615e-38 359 255
0.050636265 0.722 -0.0189886 1.677587e-38 360 255
0.051758397 0.72000003 -0.018935999 1.7052458e-38 361 255
0.053020801 0.72000003 -0.018935999 1.7511272e-38 362 255
0.054283202 0.72000003 -0.018935999 1.7603467e-38 363 255
0.055468451 0.71899998 -0.018909698 1.7879684e-38 364 255
0.056492399 0.71600002 -0.0188308 1.797188e-38 365 255
0.057747785 0.71600002 -0.0188308 1.7788918e-38 366 255
0.059003171 0.71600002 -0.0188308 1.7788918e-38 367 255
0.060090236 0.71399999 -0.018778199 1.806443e-38 368 255
0.061342116 0.71399999 -0.018778199 1.7971874e-38 369 255
0.062593997 0.71399999 -0.018778199 1.8154836e-38 370 255
0.063845873 0.71399999 -0.018778199 1.8247392e-38 371 255
0.065097757 0.71399999 -0.018778199 1.8064077e-38 372 255
0.066349633 0.71399999 -0.018778199 1.8064077e-38 373 255
0.067506835 0.713 -0.018751899 1.8156623e-38 374 255
0.068756968 0.713 -0.018751899 1.8064426e-38 375 255
0.070007093 0.713 -0.018751899 1.7788915e-38 376 255
0.071057342 0.71100003 -0.0186993 1.7696719e-38 377 255
0.072202265 0.70999998 -0.018672999 1.7788189e-38 378 255
0.073447131 0.70999998 -0.018672999 1.7695994e-38 379 255
0.074481599 0.708 -0.0186204 1.7694568e-38 380 255
0.075722955 0.708 -0.0186204 1.7694568e-38 381 255
0.076964319 0.708 -0.0186204 1.6865944e-38 382 255
0.0784266 0.70999998 -0.018672999 1.7142171e-38 383 255
0.079671465 0.70999998 -0.018672999 1.6961081e-38 384 255
-0.072517857 0.75199997 -0.021096105 1.7056542e-38 265 256
-0.071199358 0.75199997 -0.021096105 1.5485566e-38 266 256
-0.070066705 0.75400001 -0.021152213 1.5577761e-38 267 256
-0.068744689 0.75400001 -0.021152213 1.5852511e-38 268 256
-0.067422673 0.75400001 -0.021152213 1.5852511e-38 269 256
-0.065749995 0.75 -0.02104 1.5392978e-38 270 256
-0.064434998 0.75 -0.02104 1.5392978e-38 271 256
-0.06312 0.75 -0.02104 1.5208231e-38 272 256
-0.061722592 0.74900001 -0.021011947 1.5208231e-38 273 256
-0.060409348 0.74900001 -0.021011947 1.4840876e-38 274 256
-0.059175 0.75 -0.02104 1.4564649e-38 275 256
-0.057859998 0.75 -0.02104 1.3828879e-38 276 256
-0.056469604 0.74900001 -0.021011947 1.3367542e-38 277 256
-0.055156358 0.74900001 -0.021011947 1.3274273e-38 278 256
-0.053843111 0.74900001 -0.021011947 1.3274273e-38 279 256
-0.052529868 0.74900001 -0.021011947 1.2907308e-38 280 256
-0.051284999 0.75 -0.02104 1.2907308e-38 281 256
-0.049969997 0.75 -0.02104 1.2907315e-38 282 256
-0.048655 0.75 -0.02104 1.2907315e-38 283 256
-0.047339998 0.75 -0.02104 1.2998428e-38 284 256
-0.04614773 0.75199997 -0.021096105 1.2998428e-38 285 256
-0.044829223 0.75199997 -0.021096105 1.2998431e-38 286 256
-0.04351072 0.75199997 -0.021096105 1.2998431e-38 287 256
-0.04219221 0.75199997 -0.021096105 1.2997709e-38 288 256
-0.040873703 0.75199997 -0.021096105 1.2997709e-38 289 256
-0.039555199 0.75199997 -0.021096105 1.2997709e-38 290 256
-0.038338386 0.75400001 -0.021152213 1.2905513e-38 291 256
-0.037016369 0.75400001 -0.021152213 1.2812243e-38 292 256
-0.035694357 0.75400001 -0.021152213 1.2720047e-38 293 256
-0.034372345 0.75400001 -0.021152213 1.2443809e-38 294 256
-0.033050332 0.75400001 -0.021152213 1.1982831e-38 295 256
-0.031770397 0.755 -0.021180267 1.1890623e-38 296 256
-0.030446632 0.755 -0.021180267 1.1798068e-38 297 256
-0.029122867 0.755 -0.021180267 1.1615478e-38 298 256
-0.027799098 0.755 -0.021180267 1.1799869e-38 299 256
-0.026475333 0.755 -0.021180267 1.2351248e-38 300 256
-0.025151566 0.755 -0.021180267 1.2166496e-38 301 256
-0.023827799 0.755 -0.021180267 1.1707323e-38 302 256
-0.022504034 0.755 -0.021180267 1.1707323e-38 303 256
-0.021180267 0.755 -0.021180267 1.1431815e-38 304 256
-0.0198565 0.755 -0.021180267 1.1708042e-38 305 256
-0.018508185 0.75400001 -0.021152213 1.2260494e-38 306 256
-0.017186172 0.75400001 -0.021152213 1.2444885e-38 307 256
-0.01586416 0.75400001 -0.021152213 1.2720752e-38 308 256
-0.014542146 0.75400001 -0.021152213 1.2812949e-38 309 256
-0.013220133 0.75400001 -0.021152213 1.2814021e-38 310 256
-0.011866559 0.75199997 -0.021096105 1.2814021e-38 311 256
-0.010548052 0.75199997 -0.021096105 1.2814018e-38 312 256
-0.0092295464 0.75199997 -0.021096105 1.2814018e-38 313 256
-0.0079110395 0.75199997 -0.021096105 1.2814015e-38 314 256
-0.0066100666 0.75400001 -0.021152213 1.290657e-38 315 256
-0.0052880533 0.75400001 -0.021152213 1.2906567e-38 316 256
-0.00396604 0.75400001 -0.021152213 1.2998763e-38 317 256
-0.0026440267 0.75400001 -0.021152213 1.3273554e-38 318 256
-0.0013185065 0.75199997 -0.021096105 1.3273554e-38 319 256
0 0.75199997 -0.021096105 1.3549421e-38 320 256
0.0013185065 0.75199997 -0.021096105 1.3549421e-38 321 256
0.00263 0.75 -0.02104 1.336575e-38 322 256
0.003945 0.75 -0.02104 1.3642337e-38 323 256
0.0052529867 0.74900001 -0.021011947 1.3550134e-38 324 256
0.0065486995 0.74699998 -0.020955838 1.3550134e-38 325 256
0.0078584393 0.74699998 -0.020955838 1.3642331e-38 326 256
0.0091559067 0.74599999 -0.020927785 1.3550134e-38 327 256
0.010463892 0.74599999 -0.020927785 1.3641617e-38 328 256
0.011771879 0.74599999 -0.020927785 1.3549421e-38 329 256
0.013079867 0.74599999 -0.020927785 1.3548712e-38 330 256
0.014387853 0.74599999 -0.020927785 1.3548712e-38 331 256
0.015695838 0.74599999 -0.020927785 1.3364308e-38 332 256
0.016958239 0.74400002 -0.02087168 1.3179557e-38 333 256
0.01826272 0.74400002 -0.02087168 1.3272456e-38 334 256
0.0195146 0.74199998 -0.020815572 1.3733434e-38 335 256
0.020787518 0.741 -0.020787518 1.3827079e-38 336 256
0.02208674 0.741 -0.020787518 1.401147e-38 337 256
0.023385961 0.741 -0.020787518 1.4287704e-38 338 256
0.024618553 0.73900002 -0.020731414 1.4379899e-38 339 256
0.025914267 0.73900002 -0.020731414 1.4655766e-38 340 256
0.027173158 0.73799998 -0.020703359 1.4655766e-38 341 256
0.028389972 0.736 -0.020647252 1.465576e-38 342 256
0.029680425 0.736 -0.020647252 1.4747956e-38 343 256
0.030970879 0.736 -0.020647252 1.502382e-38 344 256
0.032173667 0.73400003 -0.020591147 1.502382e-38 345 256
0.033415023 0.73299998 -0.020563092 1.5116371e-38 346 256
0.034700219 0.73299998 -0.020563092 1.5116371e-38 347 256
0.035985414 0.73299998 -0.020563092 1.4933059e-38 348 256
0.037168913 0.73100001 -0.020506985 1.4933059e-38 349 256
0.038450599 0.73100001 -0.020506985 1.5392235e-38 350 256
0.039677933 0.73000002 -0.020478934 1.5392235e-38 351 256
0.040845651 0.72799999 -0.020422826 1.5392229e-38 352 256
0.042122077 0.72799999 -0.020422826 1.5392229e-38 353 256
0.043338891 0.727 -0.020394772 1.5575906e-38 354 256
0.044613566 0.727 -0.020394772 1.5575906e-38 355 256
0.045761999 0.72500002 -0.020338668 1.5484432e-38 356 256
0.047033165 0.72500002 -0.020338668 1.5576628e-38 357 256
0.048171077 0.72299999 -0.020282559 1.5576256e-38 358 256
0.04937036 0.722 -0.020254506 1.5760646e-38 359 256
0.050636265 0.722 -0.020254506 1.5761722e-38 360 256
0.051758397 0.72000003 -0.020198401 1.6407092e-38 361 256
0.05294716 0.71899998 -0.020170346 1.686807e-38 362 256
0.054207806 0.71899998 -0.020170346 1.7052461e-38 363 256
0.055314157 0.71700001 -0.020114239 1.7512344e-38 364 256
0.056492399 0.71600002 -0.020086186 1.7512344e-38 365 256
0.057747785 0.71600002 -0.020086186 1.7696366e-38 366 256
0.058755953 0.713 -0.020002026 1.7696366e-38 367 256
0.060006075 0.713 -0.020002026 1.7696013e-38 368 256
0.061256204 0.713 -0.020002026 1.7696013e-38 369 256
0.062593997 0.71399999 -0.020030079 1.7971527e-38 370 256
0.063756458 0.713 -0.020002026 1.8063724e-38 371 256
0.065006584 0.713 -0.020002026 1.8063721e-38 372 256
0.066256717 0.713 -0.020002026 1.8063721e-38 373 256
0.067317478 0.71100003 -0.01994592 1.8156626e-38 374 256
0.068564095 0.71100003 -0.01994592 1.8156626e-38 375 256
0.069810718 0.71100003 -0.01994592 1.8064776e-38 376 256
0.070957392 0.70999998 -0.019917866 1.797258e-38 377 256
0.072202265 0.70999998 -0.019917866 1.806405e-38 378 256
0.073240235 0.708 -0.01986176 1.7880019e-38 379 256
0.074481599 0.708 -0.01986176 1.7970783e-38 380 256
0.075722955 0.708 -0.01986176 1.7878587e-38 381 256
0.076964319 0.708 -0.01986176 1.7050296e-38 382 256
0.078205675 0.708 -0.01986176 1.7050296e-38 383 256
0.079447038 0.708 -0.01986176 1.6499713e-38 384 256
-0.072517857 0.75199997 -0.022414612 1.6134936e-38 265 257
-0.071199358 0.75199997 -0.022414612 1.5116776e-38 266 257
-0.069880851 0.75199997 -0.022414612 1.5024581e-38 267 257
-0.068744689 0.75400001 -0.022474226 1.5300414e-38 268 257
-0.067422673 0.75400001 -0.022474226 1.5300414e-38 269 257
-0.065749995 0.75 -0.022355 1.5207868e-38 270 257
-0.064434998 0.75 -0.022355 1.5115312e-38 271 257
-0.06312 0.75 -0.022355 1.502455e-38 272 257
-0.061722592 0.74900001 -0.022325192 1.4747961e-38 273 257
-0.060409348 0.74900001 -0.022325192 1.4287334e-38 274 257
-0.059175 0.75 -0.022355 1.373416e-38 275 257
-0.057782855 0.74900001 -0.022325192 1.2999119e-38 276 257
-0.056469604 0.74900001 -0.022325192 1.2999119e-38 277 257
-0.055156358 0.74900001 -0.022325192 1.2906936e-38 278 257
-0.053843111 0.74900001 -0.022325192 1.2999131e-38 279 257
-0.052529868 0.74900001 -0.022325192 1.2815469e-38 280 257
-0.051284999 0.75 -0.022355 1.2815469e-38 281 257
-0.049969997 0.75 -0.022355 1.2815115e-38 282 257
-0.048655 0.75 -0.022355 1.2815115e-38 283 257
-0.047339998 0.75 -0.022355 1.2815115e-38 284 257
-0.04614773 0.75199997 -0.022414612 1.272292e-38 285 257
-0.044829223 0.75199997 -0.022414612 1.2722917e-38 286 257
-0.04351072 0.75199997 -0.022414612 1.2722917e-38 287 257
-0.04219221 0.75199997 -0.022414612 1.2906582e-38 288 257
-0.040873703 0.75199997 -0.022414612 1.2906582e-38 289 257
-0.039660402 0.75400001 -0.022474226 1.2813312e-38 290 257
-0.038338386 0.75400001 -0.022474226 1.2721116e-38 291 257
-0.037016369 0.75400001 -0.022474226 1.2444891e-38 292 257
-0.035694357 0.75400001 -0.022474226 1.2352337e-38 293 257
-0.034372345 0.75400001 -0.022474226 1.2353046e-38 294 257
-0.033094164 0.755 -0.022504034 1.2260491e-38 295 257
-0.031770397 0.755 -0.022504034 1.1985334e-38 296 257
-0.030446632 0.755 -0.022504034 1.1800941e-38 297 257
-0.029122867 0.755 -0.022504034 1.1893138e-38 298 257
-0.027872739 0.75700003 -0.022563647 1.2077529e-38 299 257
-0.026545467 0.75700003 -0.022563647 1.2261919e-38 300 257
-0.025218192 0.75700003 -0.022563647 1.2446311e-38 301 257
-0.02389092 0.75700003 -0.022563647 1.2445589e-38 302 257
-0.022563647 0.75700003 -0.022563647 1.2445589e-38 303 257
-0.021236373 0.75700003 -0.022563647 1.189421e-38 304 257
-0.019909101 0.75700003 -0.022563647 1.189421e-38 305 257
-0.018532733 0.755 -0.022504034 1.1985334e-38 306 257
-0.017208965 0.755 -0.022504034 1.2077529e-38 307 257
-0.015885198 0.755 -0.022504034 1.2260491e-38 308 257
-0.014542146 0.75400001 -0.022474226 1.2353046e-38 309 257
-0.013220133 0.75400001 -0.022474226 1.2353765e-38 310 257
-0.01189812 0.75400001 -0.022474226 1.226121e-38 311 257
-0.010576107 0.75400001 -0.022474226 1.2353765e-38 312 257
-0.0092540924 0.75400001 -0.022474226 1.226121e-38 313 257
-0.00793208 0.75400001 -0.022474226 1.2353762e-38 314 257
-0.0066100666 0.75400001 -0.022474226 1.2353762e-38 315 257
-0.0052880533 0.75400001 -0.022474226 1.2445957e-38 316 257
-0.00396604 0.75400001 -0.022474226 1.2538154e-38 317 257
-0.0026440267 0.75400001 -0.022474226 1.2812946e-38 318 257
-0.0013220133 0.75400001 -0.022474226 1.2905142e-38 319 257
0 0.75199997 -0.022414612 1.3088457e-38 320 257
0.0013185065 0.75199997 -0.022414612 1.3180653e-38 321 257
0.00263 0.75 -0.022355 1.3181006e-38 322 257
0.003945 0.75 -0.022355 1.3273201e-38 323 257
0.0052529867 0.74900001 -0.022325192 1.3182078e-38 324 257
0.0065662335 0.74900001 -0.022325192 1.3274273e-38 325 257
0.0078584393 0.74699998 -0.022265578 1.3182078e-38 326 257
0.0091681797 0.74699998 -0.022265578 1.3182078e-38 327 257
0.010477919 0.74699998 -0.022265578 1.345687e-38 328 257
0.011787659 0.74699998 -0.022265578 1.3364674e-38 329 257
0.013097399 0.74699998 -0.022265578 1.3272122e-38 330 257
0.014387853 0.74599999 -0.022235774 1.3272122e-38 331 257
0.015695838 0.74599999 -0.022235774 1.3086289e-38 332 257
0.017003827 0.74599999 -0.022235774 1.2901898e-38 333 257
0.01826272 0.74400002 -0.022176161 1.2533834e-38 334 257
0.0195146 0.74199998 -0.022116546 1.2994812e-38 335 257
0.020787518 0.741 -0.02208674 1.3363955e-38 336 257
0.02208674 0.741 -0.02208674 1.3824573e-38 337 257
0.023385961 0.741 -0.02208674 1.4010396e-38 338 257
0.024618553 0.73900002 -0.022027127 1.4194788e-38 339 257
0.025914267 0.73900002 -0.022027127 1.437918e-38 340 257
0.027173158 0.73799998 -0.021997318 1.4286983e-38 341 257
0.028389972 0.736 -0.021937706 1.437918e-38 342 257
0.029680425 0.736 -0.021937706 1.4563211e-38 343 257
0.030970879 0.736 -0.021937706 1.4655766e-38 344 257
0.032173667 0.73400003 -0.021878093 1.4747961e-38 345 257
0.033415023 0.73299998 -0.021848286 1.4839082e-38 346 257
0.034700219 0.73299998 -0.021848286 1.5115668e-38 347 257
0.035985414 0.73299998 -0.021848286 1.4932353e-38 348 257
0.037168913 0.73100001 -0.021788673 1.4932353e-38 349 257
0.038398001 0.73000002 -0.021758866 1.4932703e-38 350 257
0.039569225 0.72799999 -0.021699252 1.5024899e-38 351 257
0.040845651 0.72799999 -0.021699252 1.5025608e-38 352 257
0.042122077 0.72799999 -0.021699252 1.5025608e-38 353 257
0.043338891 0.727 -0.021669446 1.5392232e-38 354 257
0.044613566 0.727 -0.021669446 1.5392232e-38 355 257
0.045761999 0.72500002 -0.021609833 1.5392232e-38 356 257
0.046903417 0.72299999 -0.021550218 1.5392232e-38 357 257
0.048171077 0.72299999 -0.021550218 1.5392229e-38 358 257
0.04937036 0.722 -0.021520413 1.5392229e-38 359 257
0.050496001 0.72000003 -0.021460801 1.5208554e-38 360 257
0.05168651 0.71899998 -0.021430992 1.5392585e-38 361 257
0.052799881 0.71700001 -0.021371379 1.5855356e-38 362 257
0.054057021 0.71700001 -0.021371379 1.6132303e-38 363 257
0.055237014 0.71600002 -0.021341572 1.686842e-38 364 257
0.0563346 0.71399999 -0.021281958 1.686842e-38 365 257
0.057586476 0.71399999 -0.021281958 1.7511619e-38 366 257
0.058755953 0.713 -0.021252153 1.7511619e-38 367 257
0.059837762 0.71100003 -0.021192541 1.7787486e-38 368 257
0.061084379 0.71100003 -0.021192541 1.7787486e-38 369 257
0.062331002 0.71100003 -0.021192541 1.7879328e-38 370 257
0.063577622 0.71100003 -0.021192541 1.7971524e-38 371 257
0.064824238 0.71100003 -0.021192541 1.7971524e-38 372 257
0.066070862 0.71100003 -0.021192541 1.7971524e-38 373 257
0.067317478 0.71100003 -0.021192541 1.8064077e-38 374 257
0.068467662 0.70999998 -0.021162732 1.8064077e-38 375 257
0.069712527 0.70999998 -0.021162732 1.806443e-38 376 257
0.070957392 0.70999998 -0.021162732 1.7971874e-38 377 257
0.071998879 0.708 -0.021103119 1.8063344e-38 378 257
0.073240235 0.708 -0.021103119 1.8063344e-38 379 257
0.074376404 0.70700002 -0.021073313 1.787931e-38 380 257
0.07561601 0.70700002 -0.021073313 1.7787114e-38 381 257
0.076855607 0.70700002 -0.021073313 1.7511256e-38 382 257
0.078205675 0.708 -0.021103119 1.7419061e-38 383 257
0.079671465 0.70999998 -0.021162732 1.6681899e-38 384 257
0.08091633 0.70999998 -0.021162732 1.6681899e-38 385 257
-0.072324999 0.75 -0.023669999 1.5028588e-38 265 258
-0.071010001 0.75 -0.023669999 1.4103335e-38 266 258
-0.069694996 0.75 -0.023669999 1.419553e-38 267 258
-0.068379998 0.75 -0.023669999 1.4655763e-38 268 258
-0.067243837 0.75199997 -0.023733119 1.4840154e-38 269 258
-0.065749995 0.75 -0.023669999 1.4839085e-38 270 258
-0.064434998 0.75 -0.023669999 1.4839085e-38 271 258
