# .PCD v.7 - Point Cloud Data file format
FIELDS x y z rgb imX imY
SIZE 4 4 4 4 4 4
TYPE F F F F F F
COUNT 1 1 1 1 1 1
WIDTH 843
HEIGHT 1
VIEWPOINT 0 0 0 1 0 0 0
POINTS 843
DATA ascii
0.037398599 0.79000002 0.0041554002 1.4287334e-38 347 237
0.03888192 0.792 0.00416592 1.4011823e-38 348 237
0.040270559 0.792 0.00416592 1.3827432e-38 349 237
0.041659199 0.792 0.00416592 1.3367523e-38 350 237
0.043156546 0.79400003 0.0041764397 1.3275327e-38 351 237
0.044548694 0.79400003 0.0041764397 1.2817223e-38 352 237
0.046056557 0.796 0.0041869599 1.0881115e-38 353 237
0.047452211 0.796 0.0041869599 8.8485496e-39 354 237
0.048970595 0.79799998 0.0041974802 7.5578108e-39 355 237
-0.042584959 0.759 0.00266156 1.9261579e-38 288 238
-0.041254178 0.759 0.00266156 1.9077548e-38 289 238
-0.0399234 0.759 0.00266156 1.926228e-38 290 238
-0.038592618 0.759 0.00266156 1.926228e-38 291 238
-0.037360024 0.76099998 0.0026685731 1.926191e-38 292 238
-0.036025736 0.76099998 0.0026685731 1.926191e-38 293 238
-0.034691449 0.76099998 0.0026685731 1.907895e-38 294 238
-0.033401001 0.76200002 0.00267208 1.907895e-38 295 238
-0.032064959 0.76200002 0.00267208 1.9078597e-38 296 238
-0.030728921 0.76200002 0.00267208 1.9078597e-38 297 238
-0.029392879 0.76200002 0.00267208 1.917007e-38 298 238
-0.028204117 0.76599997 0.0026861064 1.9077874e-38 299 238
-0.026861066 0.76599997 0.0026861064 1.880201e-38 300 238
-0.025551327 0.76700002 0.0026896133 1.880201e-38 301 238
-0.024206521 0.76700002 0.0026896133 1.8525796e-38 302 238
-0.022861714 0.76700002 0.0026896133 1.8525796e-38 303 238
-0.021516906 0.76700002 0.0026896133 1.8432524e-38 304 238
-0.020172099 0.76700002 0.0026896133 1.8340329e-38 305 238
-0.018827293 0.76700002 0.0026896133 1.8340679e-38 306 238
-0.017482487 0.76700002 0.0026896133 1.8248484e-38 307 238
-0.01613768 0.76700002 0.0026896133 1.7881493e-38 308 238
-0.014792874 0.76700002 0.0026896133 1.7789298e-38 309 238
-0.013483133 0.76899999 0.0026966266 1.7696382e-38 310 238
-0.012134819 0.76899999 0.0026966266 1.7696382e-38 311 238
-0.01081456 0.77100003 0.0027036399 1.7512691e-38 312 238
-0.0094872871 0.773 0.0027106532 1.7236464e-38 313 238
-0.0081319595 0.773 0.0027106532 1.7236817e-38 314 238
-0.0067766332 0.773 0.0027106532 1.7144262e-38 315 238
-0.0054213065 0.773 0.0027106532 1.7051716e-38 316 238
-0.0040659797 0.773 0.0027106532 1.6867325e-38 317 238
-0.0027106532 0.773 0.0027106532 1.6316672e-38 318 238
-0.0013570799 0.77399999 0.0027141599 1.6040086e-38 319 238
0 0.77399999 0.0027141599 1.6038643e-38 320 238
0.0013570799 0.77399999 0.0027141599 1.6038643e-38 321 238
0.0027141599 0.77399999 0.0027141599 1.5670227e-38 322 238
0.0040817601 0.77600002 0.0027211732 1.5670227e-38 323 238
0.0054423464 0.77600002 0.0027211732 1.4933407e-38 324 238
0.0068029333 0.77600002 0.0027211732 1.4933407e-38 325 238
0.0081845606 0.778 0.0027281865 1.4932703e-38 326 238
0.0095486529 0.778 0.0027281865 1.4748312e-38 327 238
0.010940799 0.77999997 0.0027351999 1.4472448e-38 328 238
0.012308398 0.77999997 0.0027351999 1.4380252e-38 329 238
0.013693534 0.78100002 0.0027387065 1.4012545e-38 330 238
0.015062887 0.78100002 0.0027387065 1.3828153e-38 331 238
0.016432239 0.78100002 0.0027387065 1.3549769e-38 332 238
0.017801592 0.78100002 0.0027387065 1.3273182e-38 333 238
0.019170946 0.78100002 0.0027387065 1.2812925e-38 334 238
0.020540299 0.78100002 0.0027387065 1.3181709e-38 335 238
0.021909652 0.78100002 0.0027387065 1.3551939e-38 336 238
0.02333862 0.78299999 0.0027457199 1.4012559e-38 337 238
0.024711479 0.78299999 0.0027457199 1.3921092e-38 338 238
0.026150968 0.78500003 0.0027527334 1.4105483e-38 339 238
0.027527334 0.78500003 0.0027527334 1.4105483e-38 340 238
0.0289037 0.78500003 0.0027527334 1.4105483e-38 341 238
0.03035721 0.787 0.0027597465 1.4565015e-38 342 238
0.031737085 0.787 0.0027597465 1.4565015e-38 343 238
0.033116959 0.787 0.0027597465 1.447317e-38 344 238
0.034584496 0.78899997 0.0027667598 1.4380974e-38 345 238
0.035967879 0.78899997 0.0027667598 1.4288403e-38 346 238
0.037398599 0.79000002 0.0027702667 1.4196207e-38 347 238
0.03888192 0.792 0.0027772798 1.4012526e-38 348 238
0.040270559 0.792 0.0027772798 1.3920331e-38 349 238
0.041659199 0.792 0.0027772798 1.3736286e-38 350 238
0.043156546 0.79400003 0.0027842934 1.3551894e-38 351 238
0.044548694 0.79400003 0.0027842934 1.318528e-38 352 238
0.045940842 0.79400003 0.0027842934 1.1617954e-38 353 238
0.047452211 0.796 0.0027913067 8.3003981e-39 354 238
0.048970595 0.79799998 0.0027983198 5.9036704e-39 355 238
0.050369754 0.79799998 0.0027983198 7.0975963e-39 356 238
-0.046270464 0.75400001 0.0013220133 1.8526207e-38 285 239
-0.044948451 0.75400001 0.0013220133 1.8894954e-38 286 239
-0.043684296 0.755 0.0013237667 1.8894954e-38 287 239
-0.042472746 0.75700003 0.0013272733 1.9446661e-38 288 239
-0.041145474 0.75700003 0.0013272733 1.926191e-38 289 239
-0.0399234 0.759 0.00133078 1.9170064e-38 290 239
-0.038592618 0.759 0.00133078 1.9170064e-38 291 239
-0.03726184 0.759 0.00133078 1.9262263e-38 292 239
-0.036025736 0.76099998 0.0013342865 1.9170067e-38 293 239
-0.034691449 0.76099998 0.0013342865 1.9169714e-38 294 239
-0.033401001 0.76200002 0.00133604 1.9077518e-38 295 239
-0.032064959 0.76200002 0.00133604 1.9169717e-38 296 239
-0.030728921 0.76200002 0.00133604 1.8985325e-38 297 239
-0.029392879 0.76200002 0.00133604 1.8801289e-38 298 239
-0.028130481 0.764 0.0013395466 1.8616896e-38 299 239
-0.026861066 0.76599997 0.0013430532 1.8616893e-38 300 239
-0.025518013 0.76599997 0.0013430532 1.8616893e-38 301 239
-0.024206521 0.76700002 0.0013448066 1.870766e-38 302 239
-0.022861714 0.76700002 0.0013448066 1.870766e-38 303 239
-0.021516906 0.76700002 0.0013448066 1.83396e-38 304 239
-0.020172099 0.76700002 0.0013448066 1.8155569e-38 305 239
-0.018827293 0.76700002 0.0013448066 1.7788582e-38 306 239
-0.017482487 0.76700002 0.0013448066 1.7696385e-38 307 239
-0.01613768 0.76700002 0.0013448066 1.7788212e-38 308 239
-0.014792874 0.76700002 0.0013448066 1.741907e-38 309 239
-0.013448066 0.76700002 0.0013448066 1.7235028e-38 310 239
-0.01210326 0.76700002 0.0013448066 1.6958801e-38 311 239
-0.010786506 0.76899999 0.0013483133 1.6499615e-38 312 239
-0.0094627403 0.77100003 0.00135182 1.6315584e-38 313 239
-0.0081109209 0.77100003 0.00135182 1.6131192e-38 314 239
-0.0067590997 0.77100003 0.00135182 1.6038637e-38 315 239
-0.0054072798 0.77100003 0.00135182 1.5761697e-38 316 239
-0.0040554604 0.77100003 0.00135182 1.5393273e-38 317 239
-0.0027106532 0.773 0.0013553266 1.5025211e-38 318 239
-0.0013570799 0.77399999 0.0013570799 1.5025211e-38 319 239
0 0.77399999 0.0013570799 1.4750069e-38 320 239
0.0013570799 0.77399999 0.0013570799 1.4750069e-38 321 239
0.0027141599 0.77399999 0.0013570799 1.4749366e-38 322 239
0.0040712398 0.77399999 0.0013570799 1.4841561e-38 323 239
0.0054423464 0.77600002 0.0013605866 1.4564994e-38 324 239
0.0068029333 0.77600002 0.0013605866 1.4564994e-38 325 239
0.0081635201 0.77600002 0.0013605866 1.4747959e-38 326 239
0.0095486529 0.778 0.0013640933 1.4563567e-38 327 239
0.010940799 0.77999997 0.0013675999 1.437918e-38 328 239
0.012308398 0.77999997 0.0013675999 1.4286983e-38 329 239
0.013693534 0.78100002 0.0013693533 1.4011475e-38 330 239
0.015062887 0.78100002 0.0013693533 1.391928e-38 331 239
0.016432239 0.78100002 0.0013693533 1.3459022e-38 332 239
0.017801592 0.78100002 0.0013693533 1.2813653e-38 333 239
0.019170946 0.78100002 0.0013693533 1.2535992e-38 334 239
0.020540299 0.78100002 0.0013693533 1.3088807e-38 335 239
0.021909652 0.78100002 0.0013693533 1.3644501e-38 336 239
0.02333862 0.78299999 0.0013728599 1.3736696e-38 337 239
0.024711479 0.78299999 0.0013728599 1.410476e-38 338 239
0.026084339 0.78299999 0.0013728599 1.4196956e-38 339 239
0.027527334 0.78500003 0.0013763667 1.4196953e-38 340 239
0.0289037 0.78500003 0.0013763667 1.4196953e-38 341 239
0.03035721 0.787 0.0013798733 1.4565009e-38 342 239
0.031737085 0.787 0.0013798733 1.4565009e-38 343 239
0.033116959 0.787 0.0013798733 1.4565362e-38 344 239
0.034584496 0.78899997 0.0013833799 1.4473167e-38 345 239
0.035967879 0.78899997 0.0013833799 1.4381322e-38 346 239
0.037398599 0.79000002 0.0013851334 1.4105093e-38 347 239
0.038783733 0.79000002 0.0013851334 1.4105447e-38 348 239
0.040270559 0.792 0.0013886399 1.4012892e-38 349 239
0.041659199 0.792 0.0013886399 1.3737737e-38 350 239
0.043156546 0.79400003 0.0013921467 1.3553346e-38 351 239
0.044548694 0.79400003 0.0013921467 1.3644838e-38 352 239
0.045940842 0.79400003 0.0013921467 1.2722522e-38 353 239
0.047452211 0.796 0.0013956534 1.0790791e-38 354 239
0.048970595 0.79799998 0.0013991599 1.1528356e-38 355 239
0.050369754 0.79799998 0.0013991599 1.2263451e-38 356 239
-0.052389596 0.74699998 -0 1.750666e-38 280 240
-0.051079858 0.74699998 -0 1.8336421e-38 281 240
-0.049770117 0.74699998 -0 1.8708037e-38 282 240
-0.048590127 0.74900001 -0 1.9076818e-38 283 240
-0.047339998 0.75 -0 1.8894209e-38 284 240
-0.04614773 0.75199997 -0 1.9262633e-38 285 240
-0.044829223 0.75199997 -0 1.9448083e-38 286 240
-0.043626439 0.75400001 -0 1.8987105e-38 287 240
-0.042360533 0.755 -0 1.9078928e-38 288 240
-0.041145474 0.75700003 -0 1.9171124e-38 289 240
-0.039818201 0.75700003 -0 1.8987105e-38 290 240
-0.038490929 0.75700003 -0 1.8987105e-38 291 240
-0.037163652 0.75700003 -0 1.8986402e-38 292 240
-0.035931058 0.759 -0 1.8894206e-38 293 240
-0.034691449 0.76099998 -0 1.8893856e-38 294 240
-0.033357166 0.76099998 -0 1.8893856e-38 295 240
-0.032022879 0.76099998 -0 1.8801304e-38 296 240
-0.030728921 0.76200002 -0 1.8709109e-38 297 240
-0.029392879 0.76200002 -0 1.8616913e-38 298 240
-0.028056841 0.76200002 -0 1.8340685e-38 299 240
-0.026790932 0.764 -0 1.8341398e-38 300 240
-0.025518013 0.76599997 -0 1.8157007e-38 301 240
-0.024174958 0.76599997 -0 1.7972976e-38 302 240
-0.022831906 0.76599997 -0 1.7972976e-38 303 240
-0.021488851 0.76599997 -0 1.7971897e-38 304 240
-0.020172099 0.76700002 -0 1.769531e-38 305 240
-0.018827293 0.76700002 -0 1.714501e-38 306 240
-0.017459691 0.76599997 -0 1.6960619e-38 307 240
-0.016116638 0.76599997 -0 1.695917e-38 308 240
-0.014792874 0.76700002 -0 1.6682584e-38 309 240
-0.013448066 0.76700002 -0 1.6315234e-38 310 240
-0.01210326 0.76700002 -0 1.6223037e-38 311 240
-0.010758453 0.76700002 -0 1.6038653e-38 312 240
-0.0094136465 0.76700002 -0 1.5762426e-38 313 240
-0.00806884 0.76700002 -0 1.5486212e-38 314 240
-0.0067415666 0.76899999 -0 1.5301819e-38 315 240
-0.0053932532 0.76899999 -0 1.5025958e-38 316 240
-0.0040554604 0.77100003 -0 1.4841208e-38 317 240
-0.0027106532 0.773 -0 1.4657192e-38 318 240
-0.0013553266 0.773 -0 1.4841224e-38 319 240
0 0.77399999 -0 1.4656845e-38 320 240
0.0013570799 0.77399999 -0 1.4656845e-38 321 240
0.0027141599 0.77399999 -0 1.4472814e-38 322 240
0.0040712398 0.77399999 -0 1.4565009e-38 323 240
0.0054283198 0.77399999 -0 1.4472814e-38 324 240
0.0068029333 0.77600002 -0 1.4196587e-38 325 240
0.0081635201 0.77600002 -0 1.4196587e-38 326 240
0.0095486529 0.778 -0 1.4104391e-38 327 240
0.010940799 0.77999997 -0 1.4011485e-38 328 240
0.012308398 0.77999997 -0 1.391929e-38 329 240
0.013675999 0.77999997 -0 1.3367921e-38 330 240
0.0150436 0.77999997 -0 1.3183529e-38 331 240
0.016411198 0.77999997 -0 1.2998415e-38 332 240
0.017778799 0.77999997 -0 1.272147e-38 333 240
0.019170946 0.78100002 -0 1.2536002e-38 334 240
0.020540299 0.78100002 -0 1.2720752e-38 335 240
0.021909652 0.78100002 -0 1.3183545e-38 336 240
0.023279008 0.78100002 -0 1.3644524e-38 337 240
0.024711479 0.78299999 -0 1.382819e-38 338 240
0.026084339 0.78299999 -0 1.382819e-38 339 240
0.027527334 0.78500003 -0 1.4104404e-38 340 240
0.0289037 0.78500003 -0 1.4012208e-38 341 240
0.03035721 0.787 -0 1.3646303e-38 342 240
0.031737085 0.787 -0 1.3646303e-38 343 240
0.033201117 0.78899997 -0 1.4012206e-38 344 240
0.034584496 0.78899997 -0 1.410476e-38 345 240
0.035967879 0.78899997 -0 1.4104035e-38 346 240
0.037398599 0.79000002 -0 1.4011838e-38 347 240
0.038783733 0.79000002 -0 1.3736678e-38 348 240
0.040168867 0.79000002 -0 1.3644482e-38 349 240
0.041659199 0.792 -0 1.391998e-38 350 240
0.043156546 0.79400003 -0 1.3550838e-38 351 240
0.044548694 0.79400003 -0 1.2907273e-38 352 240
0.045940842 0.79400003 -0 1.1431784e-38 353 240
0.047452211 0.796 -0 9.7823973e-39 354 240
0.048847865 0.796 -0 1.4023755e-38 355 240
-0.056318816 0.74699998 -0.0013097399 1.8426118e-38 277 241
-0.055009075 0.74699998 -0.0013097399 1.843149e-38 278 241
-0.053699337 0.74699998 -0.0013097399 1.8615882e-38 279 241
-0.052389596 0.74699998 -0.0013097399 1.8800606e-38 280 241
-0.051079858 0.74699998 -0.0013097399 1.8984998e-38 281 241
-0.049770117 0.74699998 -0.0013097399 1.9171163e-38 282 241
-0.048590127 0.74900001 -0.0013132467 1.9171163e-38 283 241
-0.047276881 0.74900001 -0.0013132467 1.9078948e-38 284 241
-0.04614773 0.75199997 -0.0013185065 1.9078948e-38 285 241
-0.044829223 0.75199997 -0.0013185065 1.9079301e-38 286 241
-0.043626439 0.75400001 -0.0013220133 1.8987105e-38 287 241
-0.042304426 0.75400001 -0.0013220133 1.917042e-38 288 241
-0.041036766 0.755 -0.0013237667 1.917042e-38 289 241
-0.039712999 0.755 -0.0013237667 1.8894559e-38 290 241
-0.038389232 0.755 -0.0013237667 1.8894559e-38 291 241
-0.037163652 0.75700003 -0.0013272733 1.8894203e-38 292 241
-0.03583638 0.75700003 -0.0013272733 1.8802008e-38 293 241
-0.034600276 0.759 -0.00133078 1.8618342e-38 294 241
-0.033357166 0.76099998 -0.0013342865 1.8526147e-38 295 241
-0.032022879 0.76099998 -0.0013342865 1.8709462e-38 296 241
-0.030728921 0.76200002 -0.00133604 1.8433234e-38 297 241
-0.029392879 0.76200002 -0.00133604 1.8249558e-38 298 241
-0.028056841 0.76200002 -0.00133604 1.8157004e-38 299 241
-0.026790932 0.764 -0.0013395466 1.7974042e-38 300 241
-0.025451386 0.764 -0.0013395466 1.760562e-38 301 241
-0.024111839 0.764 -0.0013395466 1.7696016e-38 302 241
-0.022772292 0.764 -0.0013395466 1.7696016e-38 303 241
-0.021488851 0.76599997 -0.0013430532 1.6960253e-38 304 241
-0.020172099 0.76700002 -0.0013448066 1.6683306e-38 305 241
-0.018827293 0.76700002 -0.0013448066 1.6407798e-38 306 241
-0.017459691 0.76599997 -0.0013430532 1.6130851e-38 307 241
-0.016116638 0.76599997 -0.0013430532 1.5670233e-38 308 241
-0.014773586 0.76599997 -0.0013430532 1.5393286e-38 309 241
-0.013430533 0.76599997 -0.0013430532 1.5026306e-38 310 241
-0.012087479 0.76599997 -0.0013430532 1.5026306e-38 311 241
-0.010758453 0.76700002 -0.0013448066 1.4934479e-38 312 241
-0.0094136465 0.76700002 -0.0013448066 1.4658252e-38 313 241
-0.00806884 0.76700002 -0.0013448066 1.520964e-38 314 241
-0.0067415666 0.76899999 -0.0013483133 1.5025608e-38 315 241
-0.0053932532 0.76899999 -0.0013483133 1.4658633e-38 316 241
-0.0040554604 0.77100003 -0.00135182 1.4474602e-38 317 241
-0.0027106532 0.773 -0.0013553266 1.4656839e-38 318 241
-0.0013553266 0.773 -0.0013553266 1.4564644e-38 319 241
0 0.77399999 -0.0013570799 1.4564644e-38 320 241
0.0013570799 0.77399999 -0.0013570799 1.4564644e-38 321 241
0.0027141599 0.77399999 -0.0013570799 1.4564644e-38 322 241
0.0040712398 0.77399999 -0.0013570799 1.4472448e-38 323 241
0.0054283198 0.77399999 -0.0013570799 1.4196587e-38 324 241
0.0068029333 0.77600002 -0.0013605866 1.4196587e-38 325 241
0.0081635201 0.77600002 -0.0013605866 1.4011841e-38 326 241
0.0095486529 0.778 -0.0013640933 1.4104038e-38 327 241
0.010912746 0.778 -0.0013640933 1.382745e-38 328 241
0.012308398 0.77999997 -0.0013675999 1.3458669e-38 329 241
0.013675999 0.77999997 -0.0013675999 1.3549787e-38 330 241
0.0150436 0.77999997 -0.0013675999 1.308881e-38 331 241
0.016411198 0.77999997 -0.0013675999 1.2627832e-38 332 241
0.017778799 0.77999997 -0.0013675999 1.2535636e-38 333 241
0.0191464 0.77999997 -0.0013675999 1.2166143e-38 334 241
0.020513998 0.77999997 -0.0013675999 1.1982112e-38 335 241
0.021909652 0.78100002 -0.0013693533 1.1892803e-38 336 241
0.023279008 0.78100002 -0.0013693533 1.2077195e-38 337 241
0.024711479 0.78299999 -0.0013728599 1.2445607e-38 338 241
0.026150968 0.78500003 -0.0013763667 1.2722195e-38 339 241
0.027527334 0.78500003 -0.0013763667 1.3274276e-38 340 241
0.0289037 0.78500003 -0.0013763667 1.3366472e-38 341 241
0.03035721 0.787 -0.0013798733 1.3367545e-38 342 241
0.031737085 0.787 -0.0013798733 1.3367545e-38 343 241
0.033201117 0.78899997 -0.0013833799 1.3641967e-38 344 241
0.034584496 0.78899997 -0.0013833799 1.3918195e-38 345 241
0.035967879 0.78899997 -0.0013833799 1.4009675e-38 346 241
0.037398599 0.79000002 -0.0013851334 1.410187e-38 347 241
0.038783733 0.79000002 -0.0013851334 1.3551218e-38 348 241
0.040168867 0.79000002 -0.0013851334 1.3366825e-38 349 241
0.041659199 0.792 -0.0013886399 1.3090235e-38 350 241
0.043156546 0.79400003 -0.0013921467 1.2537061e-38 351 241
0.044548694 0.79400003 -0.0013921467 1.097444e-38 352 241
0.045940842 0.79400003 -0.0013921467 9.5915054e-39 353 241
0.047452211 0.796 -0.0013956534 1.0612906e-38 354 241
0.048847865 0.796 -0.0013956534 1.6052807e-38 355 241
-0.060006075 0.74400002 -0.00260896 1.796227e-38 274 242
-0.058701597 0.74400002 -0.00260896 1.8423246e-38 275 242
-0.05739712 0.74400002 -0.00260896 1.8152377e-38 276 242
-0.056092639 0.74400002 -0.00260896 1.8797746e-38 277 242
-0.054935437 0.74599999 -0.0026159731 1.8893505e-38 278 242
-0.053627454 0.74599999 -0.0026159731 1.8985701e-38 279 242
-0.052389596 0.74699998 -0.0026194798 1.9169717e-38 280 242
-0.051079858 0.74699998 -0.0026194798 1.9169717e-38 281 242
-0.049770117 0.74699998 -0.0026194798 1.9354816e-38 282 242
-0.048590127 0.74900001 -0.0026264933 1.9262619e-38 283 242
-0.047276881 0.74900001 -0.0026264933 1.917042e-38 284 242
-0.046024997 0.75 -0.00263 1.917042e-38 285 242
-0.044709999 0.75 -0.00263 1.8986752e-38 286 242
-0.04351072 0.75199997 -0.0026370131 1.8986752e-38 287 242
-0.04219221 0.75199997 -0.0026370131 1.8986758e-38 288 242
-0.040982414 0.75400001 -0.0026440267 1.8894203e-38 289 242
-0.039712999 0.755 -0.0026475333 1.8618698e-38 290 242
-0.038389232 0.755 -0.0026475333 1.8526144e-38 291 242
-0.037065465 0.755 -0.0026475333 1.8434667e-38 292 242
-0.035741698 0.755 -0.0026475333 1.8434667e-38 293 242
-0.034509107 0.75700003 -0.0026545466 1.8433951e-38 294 242
-0.033269498 0.759 -0.00266156 1.8341754e-38 295 242
-0.031938717 0.759 -0.00266156 1.8341401e-38 296 242
-0.030688593 0.76099998 -0.0026685731 1.8249205e-38 297 242
-0.029392879 0.76200002 -0.00267208 1.7881493e-38 298 242
-0.028056841 0.76200002 -0.00267208 1.7513069e-38 299 242
-0.0267208 0.76200002 -0.00267208 1.7421946e-38 300 242
-0.025451386 0.764 -0.0026790933 1.6960969e-38 301 242
-0.024111839 0.764 -0.0026790933 1.6959897e-38 302 242
-0.022772292 0.764 -0.0026790933 1.6683309e-38 303 242
-0.021432746 0.764 -0.0026790933 1.6131934e-38 304 242
-0.020145798 0.76599997 -0.0026861064 1.5947542e-38 305 242
-0.018802745 0.76599997 -0.0026861064 1.5762439e-38 306 242
-0.017459691 0.76599997 -0.0026861064 1.5762439e-38 307 242
-0.016116638 0.76599997 -0.0026861064 1.539331e-38 308 242
-0.014773586 0.76599997 -0.0026861064 1.5301114e-38 309 242
-0.013430533 0.76599997 -0.0026861064 1.5118171e-38 310 242
-0.012087479 0.76599997 -0.0026861064 1.5118171e-38 311 242
-0.010758453 0.76700002 -0.0026896133 1.484231e-38 312 242
-0.0094136465 0.76700002 -0.0026896133 1.484231e-38 313 242
-0.00806884 0.76700002 -0.0026896133 1.5025269e-38 314 242
-0.0067415666 0.76899999 -0.0026966266 1.4933073e-38 315 242
-0.0053932532 0.76899999 -0.0026966266 1.4658284e-38 316 242
-0.0040554604 0.77100003 -0.0027036399 1.4473893e-38 317 242
-0.0027106532 0.773 -0.0027106532 1.4565365e-38 318 242
-0.0013553266 0.773 -0.0027106532 1.447317e-38 319 242
0 0.77399999 -0.0027141599 1.447317e-38 320 242
0.0013570799 0.77399999 -0.0027141599 1.447317e-38 321 242
0.0027141599 0.77399999 -0.0027141599 1.447317e-38 322 242
0.0040712398 0.77399999 -0.0027141599 1.4380974e-38 323 242
0.0054283198 0.77399999 -0.0027141599 1.4104035e-38 324 242
0.0068029333 0.77600002 -0.0027211732 1.4104035e-38 325 242
0.0081635201 0.77600002 -0.0027211732 1.3828176e-38 326 242
0.009524107 0.77600002 -0.0027211732 1.3643785e-38 327 242
0.010884693 0.77600002 -0.0027211732 1.3366839e-38 328 242
0.012276839 0.778 -0.0027281865 1.2445241e-38 329 242
0.013640933 0.778 -0.0027281865 1.1890623e-38 330 242
0.0150436 0.77999997 -0.0027351999 1.0599884e-38 331 242
0.016411198 0.77999997 -0.0027351999 1.0320773e-38 332 242
0.017778799 0.77999997 -0.0027351999 1.0228578e-38 333 242
0.0191464 0.77999997 -0.0027351999 9.3095109e-39 334 242
0.020513998 0.77999997 -0.0027351999 9.3095109e-39 335 242
0.021909652 0.78100002 -0.0027387065 9.4031527e-39 336 242
0.023279008 0.78100002 -0.0027387065 9.6797382e-39 337 242
0.024711479 0.78299999 -0.0027457199 1.0049947e-38 338 242
0.026150968 0.78500003 -0.0027527334 1.0879708e-38 339 242
0.027527334 0.78500003 -0.0027527334 1.1800225e-38 340 242
0.02897734 0.787 -0.0027597465 1.235304e-38 341 242
0.03035721 0.787 -0.0027597465 1.3089526e-38 342 242
0.031817738 0.78899997 -0.0027667598 1.3182081e-38 343 242
0.033201117 0.78899997 -0.0027667598 1.345687e-38 344 242
0.034584496 0.78899997 -0.0027667598 1.3549065e-38 345 242
0.035967879 0.78899997 -0.0027667598 1.327392e-38 346 242
0.037398599 0.79000002 -0.0027702667 1.327392e-38 347 242
0.03888192 0.792 -0.0027772798 1.2905861e-38 348 242
0.040168867 0.79000002 -0.0027702667 1.272147e-38 349 242
0.041554 0.79000002 -0.0027702667 1.1894235e-38 350 242
0.043156546 0.79400003 -0.0027842934 1.2355214e-38 351 242
0.044548694 0.79400003 -0.0027842934 1.1532691e-38 352 242
0.045940842 0.79400003 -0.0027842934 1.2915625e-38 353 242
-0.061145745 0.74199998 -0.0039029196 1.8972805e-38 273 243
-0.05984477 0.74199998 -0.0039029196 1.8520436e-38 274 243
-0.058543798 0.74199998 -0.0039029196 1.8981775e-38 275 243
-0.057242822 0.74199998 -0.0039029196 1.8893152e-38 276 243
-0.05594185 0.74199998 -0.0039029196 1.9353772e-38 277 243
-0.054788161 0.74400002 -0.0039134403 1.9354828e-38 278 243
-0.05348368 0.74400002 -0.0039134403 1.90786e-38 279 243
-0.052319467 0.74599999 -0.0039239596 1.935446e-38 280 243
-0.051079858 0.74699998 -0.0039292197 1.9262263e-38 281 243
-0.049770117 0.74699998 -0.0039292197 1.907895e-38 282 243
-0.048460379 0.74699998 -0.0039292197 1.907895e-38 283 243
-0.047150634 0.74699998 -0.0039292197 1.8894559e-38 284 243
-0.045963634 0.74900001 -0.0039397399 1.8894559e-38 285 243
-0.044650383 0.74900001 -0.0039397399 1.8802008e-38 286 243
-0.043394998 0.75 -0.003945 1.8802008e-38 287 243
-0.04208 0.75 -0.003945 1.8801654e-38 288 243
-0.040873703 0.75199997 -0.0039555198 1.8709459e-38 289 243
-0.039660402 0.75400001 -0.00396604 1.8433948e-38 290 243
-0.038338386 0.75400001 -0.00396604 1.8433948e-38 291 243
-0.037016369 0.75400001 -0.00396604 1.8342104e-38 292 243
-0.035741698 0.755 -0.0039712996 1.8249909e-38 293 243
-0.034417931 0.755 -0.0039712996 1.824919e-38 294 243
-0.033181835 0.75700003 -0.0039818203 1.824919e-38 295 243
-0.031938717 0.759 -0.0039923396 1.7973329e-38 296 243
-0.030688593 0.76099998 -0.0040028598 1.7880774e-38 297 243
-0.029354304 0.76099998 -0.0040028598 1.7329397e-38 298 243
-0.028056841 0.76200002 -0.0040081199 1.686842e-38 299 243
-0.0267208 0.76200002 -0.0040081199 1.6500357e-38 300 243
-0.02538476 0.76200002 -0.0040081199 1.6315965e-38 301 243
-0.02404872 0.76200002 -0.0040081199 1.6314896e-38 302 243
-0.02271268 0.76200002 -0.0040081199 1.5853918e-38 303 243
-0.021432746 0.764 -0.0040186401 1.5394385e-38 304 243
-0.020145798 0.76599997 -0.0040291594 1.548658e-38 305 243
-0.018802745 0.76599997 -0.0040291594 1.5210366e-38 306 243
-0.017459691 0.76599997 -0.0040291594 1.5302562e-38 307 243
-0.016116638 0.76599997 -0.0040291594 1.5393325e-38 308 243
-0.014773586 0.76599997 -0.0040291594 1.530113e-38 309 243
-0.013430533 0.76599997 -0.0040291594 1.4842307e-38 310 243
-0.012087479 0.76599997 -0.0040291594 1.4842307e-38 311 243
-0.010744425 0.76599997 -0.0040291594 1.4933425e-38 312 243
-0.0094136465 0.76700002 -0.00403442 1.5025622e-38 313 243
-0.00806884 0.76700002 -0.00403442 1.4841956e-38 314 243
-0.0067415666 0.76899999 -0.0040449398 1.4841956e-38 315 243
-0.0053932532 0.76899999 -0.0040449398 1.4657931e-38 316 243
-0.0040554604 0.77100003 -0.0040554604 1.4473898e-38 317 243
-0.0027106532 0.773 -0.0040659797 1.4473898e-38 318 243
-0.0013553266 0.773 -0.0040659797 1.4289148e-38 319 243
0 0.77399999 -0.0040712398 1.4472817e-38 320 243
0.0013570799 0.77399999 -0.0040712398 1.4380621e-38 321 243
0.0027141599 0.77399999 -0.0040712398 1.419659e-38 322 243
0.0040712398 0.77399999 -0.0040712398 1.4380621e-38 323 243
0.0054283198 0.77399999 -0.0040712398 1.4104038e-38 324 243
0.0068029333 0.77600002 -0.0040817601 1.4104038e-38 325 243
0.0081635201 0.77600002 -0.0040817601 1.3460482e-38 326 243
0.009524107 0.77600002 -0.0040817601 1.2815113e-38 327 243
0.010884693 0.77600002 -0.0040817601 1.2995914e-38 328 243
0.012276839 0.778 -0.0040922803 1.1244197e-38 329 243
0.013640933 0.778 -0.0040922803 9.4009905e-39 330 243
0.0150436 0.77999997 -0.0041027996 7.2801323e-39 331 243
0.016411198 0.77999997 -0.0041027996 6.4485751e-39 332 243
0.017778799 0.77999997 -0.0041027996 5.8954084e-39 333 243
0.0191464 0.77999997 -0.0041027996 4.7026231e-39 334 243
0.020540299 0.78100002 -0.0041080597 5.0714056e-39 335 243
0.021909652 0.78100002 -0.0041080597 5.8997174e-39 336 243
0.023279008 0.78100002 -0.0041080597 5.9919144e-39 337 243
0.024711479 0.78299999 -0.0041185799 7.0993382e-39 338 243
0.026150968 0.78500003 -0.0041291001 8.9432493e-39 339 243
0.027597465 0.787 -0.0041396199 1.087576e-38 340 243
0.02897734 0.787 -0.0041396199 1.1889914e-38 341 243
0.030434359 0.78899997 -0.0041501396 1.2628188e-38 342 243
0.031817738 0.78899997 -0.0041501396 1.3088807e-38 343 243
0.033201117 0.78899997 -0.0041501396 1.3364671e-38 344 243
0.034628332 0.79000002 -0.0041554002 1.3456867e-38 345 243
0.036013465 0.79000002 -0.0041554002 1.3181356e-38 346 243
0.037398599 0.79000002 -0.0041554002 1.2812572e-38 347 243
0.03888192 0.792 -0.00416592 1.198463e-38 348 243
0.040168867 0.79000002 -0.0041554002 1.2353411e-38 349 243
0.041554 0.79000002 -0.0041554002 1.2264858e-38 350 243
-0.062362559 0.741 -0.0051968796 1.8792713e-38 272 244
-0.061063338 0.741 -0.0051968796 1.9714671e-38 273 244
-0.059764117 0.741 -0.0051968796 1.9076462e-38 274 244
-0.0584649 0.741 -0.0051968796 1.9076462e-38 275 244
-0.057165679 0.741 -0.0051968796 1.9078953e-38 276 244
-0.05594185 0.74199998 -0.0052038929 1.9262986e-38 277 244
-0.054640878 0.74199998 -0.0052038929 1.9355535e-38 278 244
-0.05348368 0.74400002 -0.0052179201 1.9078948e-38 279 244
-0.052179199 0.74400002 -0.0052179201 1.9263339e-38 280 244
-0.051011477 0.74599999 -0.0052319462 1.9263339e-38 281 244
-0.04970349 0.74599999 -0.0052319462 1.9078953e-38 282 244
-0.048460379 0.74699998 -0.0052389596 1.8986758e-38 283 244
-0.047150634 0.74699998 -0.0052389596 1.8801654e-38 284 244
-0.045963634 0.74900001 -0.0052529867 1.8801654e-38 285 244
-0.044650383 0.74900001 -0.0052529867 1.8709462e-38 286 244
-0.04333714 0.74900001 -0.0052529867 1.8709462e-38 287 244
-0.042023893 0.74900001 -0.0052529867 1.8709462e-38 288 244
-0.040764999 0.75 -0.00526 1.8617266e-38 289 244
-0.039555199 0.75199997 -0.0052740262 1.8158442e-38 290 244
-0.038236689 0.75199997 -0.0052740262 1.8158442e-38 291 244
-0.036918186 0.75199997 -0.0052740262 1.7881846e-38 292 244
-0.035694357 0.75400001 -0.0052880533 1.760562e-38 293 244
-0.034372345 0.75400001 -0.0052880533 1.7696016e-38 294 244
-0.033094164 0.755 -0.0052950666 1.7696016e-38 295 244
-0.031854562 0.75700003 -0.0053090933 1.7235761e-38 296 244
-0.030527288 0.75700003 -0.0053090933 1.7143565e-38 297 244
-0.029277159 0.759 -0.0053231199 1.6499638e-38 298 244
-0.028020019 0.76099998 -0.0053371461 1.6223051e-38 299 244
-0.0267208 0.76200002 -0.0053441599 1.5947556e-38 300 244
-0.02538476 0.76200002 -0.0053441599 1.5579132e-38 301 244
-0.02404872 0.76200002 -0.0053441599 1.5579144e-38 302 244
-0.02271268 0.76200002 -0.0053441599 1.5486949e-38 303 244
-0.02137664 0.76200002 -0.0053441599 1.5302928e-38 304 244
-0.020093199 0.764 -0.0053581866 1.5210732e-38 305 244
-0.018802745 0.76599997 -0.0053722127 1.5210382e-38 306 244
-0.017414106 0.764 -0.0053581866 1.5118186e-38 307 244
-0.016074561 0.764 -0.0053581866 1.4934871e-38 308 244
-0.014773586 0.76599997 -0.0053722127 1.4934871e-38 309 244
-0.013430533 0.76599997 -0.0053722127 1.465936e-38 310 244
-0.012087479 0.76599997 -0.0053722127 1.4567165e-38 311 244
-0.010744425 0.76599997 -0.0053722127 1.4658284e-38 312 244
-0.0094013726 0.76599997 -0.0053722127 1.475048e-38 313 244
-0.00806884 0.76700002 -0.0053792265 1.4657931e-38 314 244
-0.006724033 0.76700002 -0.0053792265 1.4657931e-38 315 244
-0.0053932532 0.76899999 -0.0053932532 1.4473542e-38 316 244
-0.0040554604 0.77100003 -0.0054072798 1.4381347e-38 317 244
-0.0027106532 0.773 -0.0054213065 1.4289148e-38 318 244
-0.0013553266 0.773 -0.0054213065 1.4196953e-38 319 244
0 0.77399999 -0.0054283198 1.419659e-38 320 244
0.0013570799 0.77399999 -0.0054283198 1.4104035e-38 321 244
0.0027141599 0.77399999 -0.0054283198 1.4011841e-38 322 244
0.0040712398 0.77399999 -0.0054283198 1.3734896e-38 323 244
0.0054283198 0.77399999 -0.0054283198 1.3365753e-38 324 244
0.0068029333 0.77600002 -0.0054423464 1.3088807e-38 325 244
0.0081635201 0.77600002 -0.0054423464 1.2260126e-38 326 244
0.009524107 0.77600002 -0.0054423464 1.1338168e-38 327 244
0.010912746 0.778 -0.0054563731 1.0234341e-38 328 244
0.012276839 0.778 -0.0054563731 6.9152986e-39 329 244
0.013675999 0.77999997 -0.0054703997 4.5160823e-39 330 244
0.0150436 0.77999997 -0.0054703997 3.8707227e-39 331 244
0.016411198 0.77999997 -0.0054703997 4.7862316e-39 332 244
0.017778799 0.77999997 -0.0054703997 4.4170889e-39 333 244
0.0191464 0.77999997 -0.0054703997 4.051549e-39 334 244
0.020540299 0.78100002 -0.0054774131 4.9735067e-39 335 244
0.021909652 0.78100002 -0.0054774131 5.7146465e-39 336 244
0.023279008 0.78100002 -0.0054774131 7.2816121e-39 337 244
0.024711479 0.78299999 -0.0054914397 8.9400292e-39 338 244
0.026150968 0.78500003 -0.0055054668 1.0783942e-38 339 244
0.027597465 0.787 -0.005519493 1.1890989e-38 340 244
0.02897734 0.787 -0.005519493 1.2259772e-38 341 244
0.030434359 0.78899997 -0.0055335197 1.281365e-38 342 244
0.031817738 0.78899997 -0.0055335197 1.2905845e-38 343 244
0.033201117 0.78899997 -0.0055335197 1.3089882e-38 344 244
0.034628332 0.79000002 -0.0055405335 1.2905851e-38 345 244
0.036013465 0.79000002 -0.0055405335 1.2630724e-38 346 244
0.037493281 0.792 -0.0055545596 1.3275735e-38 347 244
0.03888192 0.792 -0.0055545596 1.3004938e-38 348 244
0.040270559 0.792 -0.0055545596 1.4664458e-38 349 244
-0.063404039 0.73799998 -0.0064697997 1.8336423e-38 271 245
-0.062110078 0.73799998 -0.0064697997 1.8615491e-38 272 245
-0.060898528 0.73900002 -0.0064785667 1.926086e-38 273 245
-0.059764117 0.741 -0.0064960998 1.8986402e-38 274 245
-0.0584649 0.741 -0.0064960998 1.9078597e-38 275 245
-0.057165679 0.741 -0.0064960998 1.9263688e-38 276 245
-0.055866458 0.741 -0.0064960998 1.9355885e-38 277 245
-0.054640878 0.74199998 -0.0065048663 1.9079668e-38 278 245
-0.053339902 0.74199998 -0.0065048663 1.9079668e-38 279 245
-0.05203893 0.74199998 -0.0065048663 1.907932e-38 280 245
-0.050737958 0.74199998 -0.0065048663 1.8987123e-38 281 245
-0.04957024 0.74400002 -0.0065223998 1.8894572e-38 282 245
-0.048395503 0.74599999 -0.0065399334 1.8894572e-38 283 245
-0.047087517 0.74599999 -0.0065399334 1.8618342e-38 284 245
-0.045779534 0.74599999 -0.0065399334 1.8526147e-38 285 245
-0.044471547 0.74599999 -0.0065399334 1.8525793e-38 286 245
-0.043221418 0.74699998 -0.0065486995 1.8433598e-38 287 245
-0.041911677 0.74699998 -0.0065486995 1.8250283e-38 288 245
-0.040710647 0.74900001 -0.0065662335 1.8158086e-38 289 245
-0.039555199 0.75199997 -0.0065925326 1.7791101e-38 290 245
-0.038236689 0.75199997 -0.0065925326 1.7606351e-38 291 245
-0.036918186 0.75199997 -0.0065925326 1.7330127e-38 292 245
-0.035694357 0.75400001 -0.0066100666 1.7145376e-38 293 245
-0.034372345 0.75400001 -0.0066100666 1.7236127e-38 294 245
-0.033094164 0.755 -0.0066188332 1.69599e-38 295 245
-0.031770397 0.755 -0.0066188332 1.6499638e-38 296 245
-0.030527288 0.75700003 -0.0066363667 1.6223051e-38 297 245
-0.029277159 0.759 -0.0066538998 1.5670972e-38 298 245
-0.028020019 0.76099998 -0.0066714329 1.5670972e-38 299 245
-0.026685731 0.76099998 -0.0066714329 1.5578441e-38 300 245
-0.02538476 0.76200002 -0.0066801999 1.5486245e-38 301 245
-0.02404872 0.76200002 -0.0066801999 1.5395129e-38 302 245
-0.02271268 0.76200002 -0.0066801999 1.5302933e-38 303 245
-0.02137664 0.76200002 -0.0066801999 1.5119618e-38 304 245
-0.020093199 0.764 -0.006697733 1.5027422e-38 305 245
-0.018753653 0.764 -0.006697733 1.5027067e-38 306 245
-0.017414106 0.764 -0.006697733 1.4934871e-38 307 245
-0.016074561 0.764 -0.006697733 1.4842678e-38 308 245
-0.014735013 0.764 -0.006697733 1.4842678e-38 309 245
-0.013430533 0.76599997 -0.0067152665 1.4750124e-38 310 245
-0.012087479 0.76599997 -0.0067152665 1.4750124e-38 311 245
-0.010744425 0.76599997 -0.0067152665 1.4657575e-38 312 245
-0.0094013726 0.76599997 -0.0067152665 1.4657575e-38 313 245
-0.00806884 0.76700002 -0.006724033 1.4473545e-38 314 245
-0.006724033 0.76700002 -0.006724033 1.4473545e-38 315 245
-0.0053932532 0.76899999 -0.0067415666 1.4380994e-38 316 245
-0.0040554604 0.77100003 -0.0067590997 1.4288798e-38 317 245
-0.0027106532 0.773 -0.0067766332 1.4196605e-38 318 245
-0.0013553266 0.773 -0.0067766332 1.4011855e-38 319 245
0 0.773 -0.0067766332 1.41948e-38 320 245
0.0013570799 0.77399999 -0.0067853997 1.3918574e-38 321 245
0.0027141599 0.77399999 -0.0067853997 1.3734179e-38 322 245
0.0040712398 0.77399999 -0.0067853997 1.3273201e-38 323 245
0.0054283198 0.77399999 -0.0067853997 1.2536358e-38 324 245
0.0067853997 0.77399999 -0.0067853997 1.1798793e-38 325 245
0.0081424797 0.77399999 -0.0067853997 1.1152333e-38 326 245
0.009524107 0.77600002 -0.0068029333 9.95343e-39 327 245
0.010912746 0.778 -0.0068204664 8.2931926e-39 328 245
0.012276839 0.778 -0.0068204664 6.0805143e-39 329 245
0.013675999 0.77999997 -0.0068379994 3.226798e-39 330 245
0.0150436 0.77999997 -0.0068379994 3.3189922e-39 331 245
0.016411198 0.77999997 -0.0068379994 3.7774817e-39 332 245
0.017778799 0.77999997 -0.0068379994 4.1462628e-39 333 245
0.019170946 0.78100002 -0.0068467669 4.792728e-39 334 245
0.020540299 0.78100002 -0.0068467669 6.1756625e-39 335 245
0.021965759 0.78299999 -0.0068642995 8.0195568e-39 336 245
0.02333862 0.78299999 -0.0068642995 9.4943268e-39 337 245
0.0247746 0.78500003 -0.0068818335 1.096798e-38 338 245
0.026217593 0.787 -0.0068993662 1.2258719e-38 339 245
0.027597465 0.787 -0.0068993662 1.2998765e-38 340 245
0.02905098 0.78899997 -0.0069168997 1.272182e-38 341 245
0.030434359 0.78899997 -0.0069168997 1.2722173e-38 342 245
0.031817738 0.78899997 -0.0069168997 1.2814369e-38 343 245
0.033243202 0.79000002 -0.0069256667 1.2905861e-38 344 245
-0.063232213 0.736 -0.0077427197 1.8617307e-38 271 246
-0.061941758 0.736 -0.0077427197 1.9077894e-38 272 246
-0.060816113 0.73799998 -0.0077637597 1.9262285e-38 273 246
-0.059602812 0.73900002 -0.0077742799 1.9079674e-38 274 246
-0.058228195 0.73799998 -0.0077637597 1.9079674e-38 275 246
-0.056934237 0.73799998 -0.0077637597 1.9172222e-38 276 246
-0.055715673 0.73900002 -0.0077742799 1.9264418e-38 277 246
-0.054567236 0.741 -0.0077953199 1.9171513e-38 278 246
-0.053268019 0.741 -0.0077953199 1.9079318e-38 279 246
-0.051968798 0.741 -0.0077953199 1.9079318e-38 280 246
-0.050669577 0.741 -0.0077953199 1.8894925e-38 281 246
-0.049436983 0.74199998 -0.0078058392 1.8802729e-38 282 246
-0.048265759 0.74400002 -0.0078268806 1.8802729e-38 283 246
-0.046961278 0.74400002 -0.0078268806 1.8526863e-38 284 246
-0.0456568 0.74400002 -0.0078268806 1.8526863e-38 285 246
-0.044352323 0.74400002 -0.0078268806 1.8250639e-38 286 246
-0.04316356 0.74599999 -0.0078479191 1.8250639e-38 287 246
-0.04185557 0.74599999 -0.0078479191 1.8065887e-38 288 246
-0.040547583 0.74599999 -0.0078479191 1.7973692e-38 289 246
-0.0393974 0.74900001 -0.0078794798 1.7788945e-38 290 246
-0.038084153 0.74900001 -0.0078794798 1.7604913e-38 291 246
-0.036819998 0.75 -0.00789 1.6869512e-38 292 246
-0.035599679 0.75199997 -0.0079110395 1.6685121e-38 293 246
-0.034281172 0.75199997 -0.0079110395 1.6224145e-38 294 246
-0.033050332 0.75400001 -0.00793208 1.5855004e-38 295 246
-0.031770397 0.755 -0.0079425992 1.5394385e-38 296 246
-0.030446632 0.755 -0.0079425992 1.5394385e-38 297 246
-0.029200014 0.75700003 -0.0079636406 1.5302562e-38 298 246
-0.027946379 0.759 -0.0079846792 1.5486593e-38 299 246
-0.026685731 0.76099998 -0.0080057196 1.5119265e-38 300 246
-0.025351444 0.76099998 -0.0080057196 1.5119265e-38 301 246
-0.024017159 0.76099998 -0.0080057196 1.5119268e-38 302 246
-0.022682872 0.76099998 -0.0080057196 1.53033e-38 303 246
-0.02137664 0.76200002 -0.0080162399 1.5119265e-38 304 246
-0.0200406 0.76200002 -0.0080162399 1.5027069e-38 305 246
-0.01870456 0.76200002 -0.0080162399 1.475228e-38 306 246
-0.01736852 0.76200002 -0.0080162399 1.4659726e-38 307 246
-0.01603248 0.76200002 -0.0080162399 1.4751561e-38 308 246
-0.014735013 0.764 -0.0080372803 1.4659007e-38 309 246
-0.013395466 0.764 -0.0080372803 1.4750124e-38 310 246
-0.012087479 0.76599997 -0.0080583189 1.4657928e-38 311 246
-0.010744425 0.76599997 -0.0080583189 1.4657211e-38 312 246
-0.0094013726 0.76599997 -0.0080583189 1.4657211e-38 313 246
-0.00806884 0.76700002 -0.00806884 1.4381703e-38 314 246
-0.006724033 0.76700002 -0.00806884 1.4289148e-38 315 246
-0.0053932532 0.76899999 -0.0080898795 1.4379549e-38 316 246
-0.0040554604 0.77100003 -0.0081109209 1.4195156e-38 317 246
-0.0027106532 0.773 -0.0081319595 1.4011125e-38 318 246
-0.0013553266 0.773 -0.0081319595 1.3641984e-38 319 246
0 0.773 -0.0081319595 1.3087361e-38 320 246
0.0013570799 0.77399999 -0.0081424797 1.2718939e-38 321 246
0.0027141599 0.77399999 -0.0081424797 1.2533824e-38 322 246
0.0040712398 0.77399999 -0.0081424797 1.1427117e-38 323 246
0.0054283198 0.77399999 -0.0081424797 1.0596281e-38 324 246
0.0067853997 0.77399999 -0.0081424797 1.0135662e-38 325 246
0.0081424797 0.77399999 -0.0081424797 1.02286e-38 326 246
0.009524107 0.77600002 -0.0081635201 1.0412631e-38 327 246
0.010912746 0.778 -0.0081845606 9.6757977e-39 328 246
0.012276839 0.778 -0.0081845606 9.7679948e-39 329 246
0.013675999 0.77999997 -0.0082055992 9.4960854e-39 330 246
0.0150436 0.77999997 -0.0082055992 9.8652281e-39 331 246
0.016432239 0.78100002 -0.0082161194 1.0415545e-38 332 246
0.017801592 0.78100002 -0.0082161194 1.133786e-38 333 246
0.019170946 0.78100002 -0.0082161194 1.1524772e-38 334 246
0.0205929 0.78299999 -0.0082371598 1.1985391e-38 335 246
0.022021867 0.78500003 -0.0082582003 1.272151e-38 336 246
0.023398234 0.78500003 -0.0082582003 1.2813706e-38 337 246
0.024837719 0.787 -0.0082792398 1.3089551e-38 338 246
0.026217593 0.787 -0.0082792398 1.290516e-38 339 246
0.027667599 0.78899997 -0.0083002793 1.2813665e-38 340 246
0.02905098 0.78899997 -0.0083002793 1.272147e-38 341 246
-0.06563428 0.73400003 -0.0090086265 1.8064497e-38 269 247
-0.064347334 0.73400003 -0.0090086265 1.8525793e-38 270 247
-0.063232213 0.736 -0.0090331733 1.8802379e-38 271 247
-0.061941758 0.736 -0.0090331733 1.8894922e-38 272 247
-0.060651302 0.736 -0.0090331733 1.8987118e-38 273 247
-0.059522156 0.73799998 -0.0090577193 1.9262983e-38 274 247
-0.058228195 0.73799998 -0.0090577193 1.9262983e-38 275 247
-0.056934237 0.73799998 -0.0090577193 1.9171513e-38 276 247
-0.055640277 0.73799998 -0.0090577193 1.9079318e-38 277 247
-0.054346316 0.73799998 -0.0090577193 1.9078964e-38 278 247
-0.053052358 0.73799998 -0.0090577193 1.8986767e-38 279 247
-0.051758397 0.73799998 -0.0090577193 1.8894928e-38 280 247
-0.050532822 0.73900002 -0.0090699932 1.8894928e-38 281 247
-0.049237106 0.73900002 -0.0090699932 1.8618342e-38 282 247
-0.048071139 0.741 -0.0090945391 1.8802373e-38 283 247
-0.046771921 0.741 -0.0090945391 1.8251002e-38 284 247
-0.045534063 0.74199998 -0.009106813 1.8158806e-38 285 247
-0.044233091 0.74199998 -0.009106813 1.8157733e-38 286 247
-0.042932119 0.74199998 -0.009106813 1.8065537e-38 287 247
-0.041631144 0.74199998 -0.009106813 1.7697831e-38 288 247
-0.040438879 0.74400002 -0.0091313599 1.7513439e-38 289 247
-0.039292198 0.74699998 -0.0091681797 1.7145729e-38 290 247
-0.03798246 0.74699998 -0.0091681797 1.7053533e-38 291 247
-0.036770906 0.74900001 -0.0091927266 1.6501808e-38 292 247
-0.035505001 0.75 -0.0092049995 1.6224861e-38 293 247
-0.034281172 0.75199997 -0.0092295464 1.5856101e-38 294 247
-0.033050332 0.75400001 -0.0092540924 1.5579875e-38 295 247
-0.03172832 0.75400001 -0.0092540924 1.5487329e-38 296 247
-0.030446632 0.755 -0.0092663663 1.5394774e-38 297 247
-0.029200014 0.75700003 -0.0092909131 1.530258e-38 298 247
-0.027946379 0.759 -0.00931546 1.530258e-38 299 247
-0.026615599 0.759 -0.00931546 1.5027432e-38 300 247
-0.025351444 0.76099998 -0.0093400059 1.5027432e-38 301 247
-0.024017159 0.76099998 -0.0093400059 1.5302944e-38 302 247
-0.022682872 0.76099998 -0.0093400059 1.5118912e-38 303 247
-0.02137664 0.76200002 -0.0093522798 1.4935239e-38 304 247
-0.0200406 0.76200002 -0.0093522798 1.4935239e-38 305 247
-0.018680012 0.76099998 -0.0093400059 1.4751205e-38 306 247
-0.017345725 0.76099998 -0.0093400059 1.465901e-38 307 247
-0.01603248 0.76200002 -0.0093522798 1.4750126e-38 308 247
-0.01469644 0.76200002 -0.0093522798 1.4750126e-38 309 247
-0.0133604 0.76200002 -0.0093522798 1.474941e-38 310 247
-0.01205592 0.764 -0.0093768267 1.4656855e-38 311 247
-0.010744425 0.76599997 -0.0094013726 1.4380994e-38 312 247
-0.0094013726 0.76599997 -0.0094013726 1.4288798e-38 313 247
-0.00806884 0.76700002 -0.0094136465 1.4196605e-38 314 247
-0.006724033 0.76700002 -0.0094136465 1.4011855e-38 315 247
-0.0053932532 0.76899999 -0.0094381925 1.3918939e-38 316 247
-0.0040554604 0.77100003 -0.0094627403 1.3734548e-38 317 247
-0.0027106532 0.773 -0.0094872871 1.33654e-38 318 247
-0.0013553266 0.773 -0.0094872871 1.2996259e-38 319 247
0 0.773 -0.0094872871 1.2259045e-38 320 247
0.0013570799 0.77399999 -0.0094995592 1.1982818e-38 321 247
0.0027141599 0.77399999 -0.0094995592 1.1888821e-38 322 247
0.0040712398 0.77399999 -0.0094995592 1.1243451e-38 323 247
0.0054423464 0.77600002 -0.009524107 1.0876841e-38 324 247
0.0068029333 0.77600002 -0.009524107 1.0969036e-38 325 247
0.0081635201 0.77600002 -0.009524107 1.1153443e-38 326 247
0.009524107 0.77600002 -0.009524107 1.1522226e-38 327 247
0.010912746 0.778 -0.0095486529 1.1981409e-38 328 247
0.012276839 0.778 -0.0095486529 1.2350191e-38 329 247
0.013693534 0.78100002 -0.0095854728 1.2352708e-38 330 247
0.015062887 0.78100002 -0.0095854728 1.2444905e-38 331 247
0.016432239 0.78100002 -0.0095854728 1.262785e-38 332 247
0.017847179 0.78299999 -0.0096100196 1.2904797e-38 333 247
0.019220039 0.78299999 -0.0096100196 1.2905866e-38 334 247
0.020645501 0.78500003 -0.0096345674 1.2813312e-38 335 247
-0.065544859 0.73299998 -0.010281546 1.8433966e-38 269 248
-0.064259663 0.73299998 -0.010281546 1.8802379e-38 270 248
-0.063060381 0.73400003 -0.010295574 1.8894575e-38 271 248
-0.061773442 0.73400003 -0.010295574 1.907932e-38 272 248
-0.060651302 0.736 -0.010323626 1.907932e-38 273 248
-0.059360851 0.736 -0.010323626 1.926263e-38 274 248
-0.058070395 0.736 -0.010323626 1.926263e-38 275 248
-0.056779943 0.736 -0.010323626 1.90786e-38 276 248
-0.055489492 0.736 -0.010323626 1.90786e-38 277 248
-0.05419904 0.736 -0.010323626 1.8986049e-38 278 248
-0.052908584 0.736 -0.010323626 1.8893853e-38 279 248
-0.051618133 0.736 -0.010323626 1.8802376e-38 280 248
-0.050327681 0.736 -0.010323626 1.8618345e-38 281 248
-0.049170475 0.73799998 -0.010351679 1.8434314e-38 282 248
-0.047941394 0.73900002 -0.010365707 1.8434314e-38 283 248
-0.046645679 0.73900002 -0.010365707 1.8157733e-38 284 248
-0.045534063 0.74199998 -0.010407786 1.8157733e-38 285 248
-0.044233091 0.74199998 -0.010407786 1.806554e-38 286 248
-0.042932119 0.74199998 -0.010407786 1.788079e-38 287 248
-0.041631144 0.74199998 -0.010407786 1.7237571e-38 288 248
-0.040438879 0.74400002 -0.01043584 1.6960985e-38 289 248
-0.039239597 0.74599999 -0.010463892 1.6500725e-38 290 248
-0.03798246 0.74699998 -0.010477919 1.6132303e-38 291 248
-0.036770906 0.74900001 -0.010505973 1.5764259e-38 292 248
-0.03545766 0.74900001 -0.010505973 1.5764259e-38 293 248
-0.034189999 0.75 -0.01052 1.5762834e-38 294 248
-0.033050332 0.75400001 -0.010576107 1.5670638e-38 295 248
-0.03172832 0.75400001 -0.010576107 1.5487329e-38 296 248
-0.030446632 0.755 -0.010590133 1.5302577e-38 297 248
-0.029122867 0.755 -0.010590133 1.5119265e-38 298 248
-0.027872739 0.75700003 -0.010618187 1.5119265e-38 299 248
-0.026615599 0.759 -0.01064624 1.5119265e-38 300 248
-0.025284819 0.759 -0.01064624 1.5119265e-38 301 248
-0.023954039 0.759 -0.01064624 1.5118915e-38 302 248
-0.022682872 0.76099998 -0.010674292 1.5118915e-38 303 248
-0.021348584 0.76099998 -0.010674292 1.4934886e-38 304 248
-0.020014299 0.76099998 -0.010674292 1.4750855e-38 305 248
-0.018680012 0.76099998 -0.010674292 1.5025284e-38 306 248
-0.017345725 0.76099998 -0.010674292 1.4841253e-38 307 248
-0.016011439 0.76099998 -0.010674292 1.4749054e-38 308 248
-0.01469644 0.76200002 -0.01068832 1.4656857e-38 309 248
-0.0133604 0.76200002 -0.01068832 1.4656495e-38 310 248
-0.01205592 0.764 -0.010716373 1.456394e-38 311 248
-0.010744425 0.76599997 -0.010744425 1.4379546e-38 312 248
-0.0094013726 0.76599997 -0.010744425 1.428735e-38 313 248
-0.00806884 0.76700002 -0.010758453 1.4011122e-38 314 248
-0.006724033 0.76700002 -0.010758453 1.3826731e-38 315 248
-0.0053932532 0.76899999 -0.010786506 1.3549065e-38 316 248
-0.0040554604 0.77100003 -0.01081456 1.3088088e-38 317 248
-0.0027106532 0.773 -0.010842613 1.3086295e-38 318 248
-0.0013553266 0.773 -0.010842613 1.2809349e-38 319 248
0 0.77399999 -0.01085664 1.2257973e-38 320 248
0.0013570799 0.77399999 -0.01085664 1.2626756e-38 321 248
0.0027141599 0.77399999 -0.01085664 1.2444157e-38 322 248
0.0040817601 0.77600002 -0.010884693 1.2721102e-38 323 248
0.0054423464 0.77600002 -0.010884693 1.290658e-38 324 248
0.0068029333 0.77600002 -0.010884693 1.2999134e-38 325 248
0.0081635201 0.77600002 -0.010884693 1.3181374e-38 326 248
0.009524107 0.77600002 -0.010884693 1.3181374e-38 327 248
0.010940799 0.77999997 -0.010940799 1.3181377e-38 328 248
0.012308398 0.77999997 -0.010940799 1.3088823e-38 329 248
0.013693534 0.78100002 -0.010954826 1.3181377e-38 330 248
0.015062887 0.78100002 -0.010954826 1.2812596e-38 331 248
0.01647432 0.78299999 -0.010982879 1.2904061e-38 332 248
-0.065544859 0.73299998 -0.011566739 1.8526497e-38 269 249
-0.064259663 0.73299998 -0.011566739 1.8894209e-38 270 249
-0.062974468 0.73299998 -0.011566739 1.90786e-38 271 249
-0.061689276 0.73299998 -0.011566739 1.9262633e-38 272 249
-0.060486492 0.73400003 -0.011582521 1.9262633e-38 273 249
-0.059199546 0.73400003 -0.011582521 1.9354109e-38 274 249
-0.057912603 0.73400003 -0.011582521 1.9354109e-38 275 249
-0.056625653 0.73400003 -0.011582521 1.8986404e-38 276 249
-0.055338707 0.73400003 -0.011582521 1.8986404e-38 277 249
-0.054051761 0.73400003 -0.011582521 1.8893853e-38 278 249
-0.052764814 0.73400003 -0.011582521 1.8801657e-38 279 249
-0.051618133 0.736 -0.01161408 1.8434317e-38 280 249
-0.050327681 0.736 -0.01161408 1.8434317e-38 281 249
-0.049037226 0.736 -0.01161408 1.8250286e-38 282 249
-0.047876518 0.73799998 -0.011645639 1.8158089e-38 283 249
-0.046582557 0.73799998 -0.011645639 1.806554e-38 284 249
-0.045472696 0.741 -0.01169298 1.7973344e-38 285 249
-0.044173479 0.741 -0.01169298 1.7605282e-38 286 249
-0.042932119 0.74199998 -0.01170876 1.7328694e-38 287 249
-0.041631144 0.74199998 -0.01170876 1.67766e-38 288 249
-0.040330172 0.74199998 -0.01170876 1.6499653e-38 289 249
-0.039134398 0.74400002 -0.011740319 1.6223795e-38 290 249
-0.03793161 0.74599999 -0.011771879 1.6131599e-38 291 249
-0.036672719 0.74699998 -0.011787659 1.5579524e-38 292 249
-0.03545766 0.74900001 -0.01181922 1.5579524e-38 293 249
-0.034189999 0.75 -0.011835 1.5395496e-38 294 249
