# .PCD v.7 - Point Cloud Data file format
FIELDS x y z rgb imX imY
SIZE 4 4 4 4 4 4
TYPE F F F F F F
COUNT 1 1 1 1 1 1
WIDTH 842
HEIGHT 1
VIEWPOINT 0 0 0 1 0 0 0
POINTS 842
DATA ascii
0.022176161 0.74400002 -0.071746401 1.4468115e-38 337 295
0.023543758 0.74599999 -0.07193926 1.4375566e-38 338 295
0.024851745 0.74599999 -0.07193926 1.4191175e-38 339 295
0.026159734 0.74599999 -0.07193926 1.4006061e-38 340 295
0.027504537 0.74699998 -0.072035693 1.3821311e-38 341 295
0.028814279 0.74699998 -0.072035693 1.3361042e-38 342 295
0.030124018 0.74699998 -0.072035693 1.317665e-38 343 295
0.031433757 0.74699998 -0.072035693 1.2807872e-38 344 295
0.032831166 0.74900001 -0.072228566 1.2530925e-38 345 295
0.034144413 0.74900001 -0.072228566 1.1794086e-38 346 295
0.03545766 0.74900001 -0.072228566 1.170189e-38 347 295
0.036770906 0.74900001 -0.072228566 1.1793007e-38 348 295
0.038084153 0.74900001 -0.072228566 1.1424585e-38 349 295
0.039449997 0.75 -0.072324999 1.1056173e-38 350 295
0.040764999 0.75 -0.072324999 1.0871423e-38 351 295
0.04219221 0.75199997 -0.072517857 1.0778159e-38 352 295
0.04351072 0.75199997 -0.072517857 1.050157e-38 353 295
0.044829223 0.75199997 -0.072517857 9.8572967e-39 354 295
0.046270464 0.75400001 -0.07271073 9.6725453e-39 355 295
0.04759248 0.75400001 -0.07271073 9.2130189e-39 356 295
0.048914492 0.75400001 -0.07271073 9.1208233e-39 357 295
0.050236505 0.75400001 -0.07271073 8.6623689e-39 358 295
-0.086044833 0.755 -0.07413093 1.1064164e-38 255 296
-0.084721066 0.755 -0.07413093 1.05095e-38 256 296
-0.083286837 0.75400001 -0.074032739 1.115487e-38 257 296
-0.081964828 0.75400001 -0.074032739 1.1893504e-38 258 296
-0.080642812 0.75400001 -0.074032739 1.2538873e-38 259 296
-0.079320803 0.75400001 -0.074032739 1.3733463e-38 260 296
-0.077998787 0.75400001 -0.074032739 1.400969e-38 261 296
-0.076473378 0.75199997 -0.073836371 1.4011122e-38 262 296
-0.074954994 0.75 -0.073639996 1.4195153e-38 263 296
-0.073639996 0.75 -0.073639996 1.4654694e-38 264 296
-0.072324999 0.75 -0.073639996 1.4746889e-38 265 296
-0.070915319 0.74900001 -0.073541813 1.4930558e-38 266 296
-0.069416218 0.74699998 -0.073345438 1.4930558e-38 267 296
-0.068106472 0.74699998 -0.073345438 1.5298258e-38 268 296
-0.066796735 0.74699998 -0.073345438 1.5298258e-38 269 296
-0.065486997 0.74699998 -0.073345438 1.5207495e-38 270 296
-0.06417726 0.74699998 -0.073345438 1.5484082e-38 271 296
-0.062867515 0.74699998 -0.073345438 1.5576628e-38 272 296
-0.06147537 0.74599999 -0.073247254 1.5761019e-38 273 296
-0.06016738 0.74599999 -0.073247254 1.5944687e-38 274 296
-0.058859397 0.74599999 -0.073247254 1.6129078e-38 275 296
-0.057551414 0.74599999 -0.073247254 1.6037249e-38 276 296
-0.056243423 0.74599999 -0.073247254 1.6221641e-38 277 296
-0.054935437 0.74599999 -0.073247254 1.6497155e-38 278 296
-0.053627454 0.74599999 -0.073247254 1.658935e-38 279 296
-0.052319467 0.74599999 -0.073247254 1.6681549e-38 280 296
-0.051011477 0.74599999 -0.073247254 1.6773744e-38 281 296
-0.04970349 0.74599999 -0.073247254 1.6682268e-38 282 296
-0.048395503 0.74599999 -0.073247254 1.6774465e-38 283 296
-0.047087517 0.74599999 -0.073247254 1.659115e-38 284 296
-0.045779534 0.74599999 -0.073247254 1.659115e-38 285 296
-0.044471547 0.74599999 -0.073247254 1.6682621e-38 286 296
-0.043047838 0.74400002 -0.073050879 1.6682621e-38 287 296
-0.04174336 0.74400002 -0.073050879 1.6682618e-38 288 296
-0.040438879 0.74400002 -0.073050879 1.6682618e-38 289 296
-0.0390292 0.74199998 -0.072854504 1.6682971e-38 290 296
-0.037728224 0.74199998 -0.072854504 1.6682971e-38 291 296
-0.036427252 0.74199998 -0.072854504 1.6775165e-38 292 296
-0.035220962 0.74400002 -0.073050879 1.6682968e-38 293 296
-0.033916477 0.74400002 -0.073050879 1.6683324e-38 294 296
-0.032612 0.74400002 -0.073050879 1.6683324e-38 295 296
-0.031307522 0.74400002 -0.073050879 1.6683324e-38 296 296
-0.030003037 0.74400002 -0.073050879 1.6683324e-38 297 296
-0.02869856 0.74400002 -0.073050879 1.6682971e-38 298 296
-0.027320439 0.74199998 -0.072854504 1.649894e-38 299 296
-0.026019465 0.74199998 -0.072854504 1.6682252e-38 300 296
-0.024685178 0.741 -0.072756313 1.6682252e-38 301 296
-0.023385961 0.741 -0.072756313 1.6682968e-38 302 296
-0.02208674 0.741 -0.072756313 1.6775165e-38 303 296
-0.020787518 0.741 -0.072756313 1.686772e-38 304 296
-0.0195146 0.74199998 -0.072854504 1.6959915e-38 305 296
-0.01826272 0.74400002 -0.073050879 1.6959194e-38 306 296
-0.016958239 0.74400002 -0.073050879 1.6959194e-38 307 296
-0.015695838 0.74599999 -0.073247254 1.6959194e-38 308 296
-0.014387853 0.74599999 -0.073247254 1.6959194e-38 309 296
-0.013079867 0.74599999 -0.073247254 1.6958841e-38 310 296
-0.011771879 0.74599999 -0.073247254 1.714323e-38 311 296
-0.010463892 0.74599999 -0.073247254 1.6958843e-38 312 296
-0.0091313599 0.74400002 -0.073050879 1.6958843e-38 313 296
-0.0078268806 0.74400002 -0.073050879 1.704996e-38 314 296
-0.0065223998 0.74400002 -0.073050879 1.704996e-38 315 296
-0.0052179201 0.74400002 -0.073050879 1.704996e-38 316 296
-0.0039134403 0.74400002 -0.073050879 1.6957763e-38 317 296
-0.0026019465 0.74199998 -0.072854504 1.6774451e-38 318 296
-0.0013009732 0.74199998 -0.072854504 1.6774451e-38 319 296
0 0.74199998 -0.072854504 1.6957407e-38 320 296
0.0013009732 0.74199998 -0.072854504 1.6957407e-38 321 296
0.0026019465 0.74199998 -0.072854504 1.6865567e-38 322 296
0.0039029196 0.74199998 -0.072854504 1.6865567e-38 323 296
0.0052038929 0.74199998 -0.072854504 1.6497858e-38 324 296
0.0065048663 0.74199998 -0.072854504 1.6313827e-38 325 296
0.0078268806 0.74400002 -0.073050879 1.6497142e-38 326 296
0.0091313599 0.74400002 -0.073050879 1.6220195e-38 327 296
0.010407786 0.74199998 -0.072854504 1.5667024e-38 328 296
0.01170876 0.74199998 -0.072854504 1.5574828e-38 329 296
0.013009733 0.74199998 -0.072854504 1.5666656e-38 330 296
0.014310705 0.74199998 -0.072854504 1.5390069e-38 331 296
0.015611678 0.74199998 -0.072854504 1.5113838e-38 332 296
0.016958239 0.74400002 -0.073050879 1.4836892e-38 333 296
0.01826272 0.74400002 -0.073050879 1.4469189e-38 334 296
0.019567199 0.74400002 -0.073050879 1.4284437e-38 335 296
0.02087168 0.74400002 -0.073050879 1.4100053e-38 336 296
0.022176161 0.74400002 -0.073050879 1.3915662e-38 337 296
0.023480639 0.74400002 -0.073050879 1.4097905e-38 338 296
0.024851745 0.74599999 -0.073247254 1.3913512e-38 339 296
0.026159734 0.74599999 -0.073247254 1.3453257e-38 340 296
0.027467718 0.74599999 -0.073247254 1.3084474e-38 341 296
0.028814279 0.74699998 -0.073345438 1.2807516e-38 342 296
0.030124018 0.74699998 -0.073345438 1.2530928e-38 343 296
0.031433757 0.74699998 -0.073345438 1.2254342e-38 344 296
0.032831166 0.74900001 -0.073541813 1.206995e-38 345 296
0.034144413 0.74900001 -0.073541813 1.1792659e-38 346 296
0.03545766 0.74900001 -0.073541813 1.1516074e-38 347 296
0.036770906 0.74900001 -0.073541813 1.0964697e-38 348 296
0.038084153 0.74900001 -0.073541813 1.0688111e-38 349 296
0.039449997 0.75 -0.073639996 1.059449e-38 350 296
0.040873703 0.75199997 -0.073836371 1.0317902e-38 351 296
0.04219221 0.75199997 -0.073836371 1.0132805e-38 352 296
0.04351072 0.75199997 -0.073836371 9.8565779e-39 353 296
0.044948451 0.75400001 -0.074032739 9.4888827e-39 354 296
0.046270464 0.75400001 -0.074032739 9.3966871e-39 355 296
0.04759248 0.75400001 -0.074032739 9.1215422e-39 356 296
0.048914492 0.75400001 -0.074032739 8.8453154e-39 357 296
0.050236505 0.75400001 -0.074032739 8.3854289e-39 358 296
-0.086272769 0.75700003 -0.075654581 1.1526231e-38 255 297
-0.084721066 0.755 -0.075454697 1.0141092e-38 256 297
-0.083286837 0.75400001 -0.075354755 1.041768e-38 257 297
-0.081964828 0.75400001 -0.075354755 1.1247784e-38 258 297
-0.080642812 0.75400001 -0.075354755 1.1893154e-38 259 297
-0.079320803 0.75400001 -0.075354755 1.3180653e-38 260 297
-0.077998787 0.75400001 -0.075354755 1.3273207e-38 261 297
-0.076473378 0.75199997 -0.075154878 1.3641981e-38 262 297
-0.074954994 0.75 -0.074954994 1.3826731e-38 263 297
-0.073639996 0.75 -0.074954994 1.4285907e-38 264 297
-0.072324999 0.75 -0.074954994 1.4470298e-38 265 297
-0.070915319 0.74900001 -0.074855059 1.4745443e-38 266 297
-0.069416218 0.74699998 -0.074655175 1.4745443e-38 267 297
-0.068106472 0.74699998 -0.074655175 1.4929839e-38 268 297
-0.066796735 0.74699998 -0.074655175 1.511387e-38 269 297
-0.065486997 0.74699998 -0.074655175 1.5114946e-38 270 297
-0.064091347 0.74599999 -0.074555233 1.5207142e-38 271 297
-0.062783353 0.74599999 -0.074555233 1.5300414e-38 272 297
-0.06147537 0.74599999 -0.074555233 1.5392609e-38 273 297
-0.06016738 0.74599999 -0.074555233 1.5484452e-38 274 297
-0.058859397 0.74599999 -0.074555233 1.5668842e-38 275 297
-0.057551414 0.74599999 -0.074555233 1.5760684e-38 276 297
-0.056243423 0.74599999 -0.074555233 1.5852881e-38 277 297
-0.054788161 0.74400002 -0.074355356 1.6128748e-38 278 297
-0.05348368 0.74400002 -0.074355356 1.6220943e-38 279 297
-0.052179199 0.74400002 -0.074355356 1.6313139e-38 280 297
-0.050874721 0.74400002 -0.074355356 1.6405335e-38 281 297
-0.04957024 0.74400002 -0.074355356 1.6130546e-38 282 297
-0.048265759 0.74400002 -0.074355356 1.6222741e-38 283 297
-0.046961278 0.74400002 -0.074355356 1.6223092e-38 284 297
-0.0456568 0.74400002 -0.074355356 1.6223092e-38 285 297
-0.044233091 0.74199998 -0.074155472 1.640676e-38 286 297
-0.042932119 0.74199998 -0.074155472 1.640676e-38 287 297
-0.041631144 0.74199998 -0.074155472 1.6498234e-38 288 297
-0.04027582 0.741 -0.074055538 1.6498234e-38 289 297
-0.038976599 0.741 -0.074055538 1.6682618e-38 290 297
-0.037677377 0.741 -0.074055538 1.6682618e-38 291 297
-0.036378156 0.741 -0.074055538 1.6499306e-38 292 297
-0.03512628 0.74199998 -0.074155472 1.6499306e-38 293 297
-0.033825304 0.74199998 -0.074155472 1.6407463e-38 294 297
-0.032524332 0.74199998 -0.074155472 1.6407463e-38 295 297
-0.031223357 0.74199998 -0.074155472 1.6682252e-38 296 297
-0.029922385 0.74199998 -0.074155472 1.6590057e-38 297 297
-0.028621411 0.74199998 -0.074155472 1.6589703e-38 298 297
-0.027320439 0.74199998 -0.074155472 1.6589703e-38 299 297
-0.025984399 0.741 -0.074055538 1.6497505e-38 300 297
-0.024685178 0.741 -0.074055538 1.6589701e-38 301 297
-0.023385961 0.741 -0.074055538 1.6682971e-38 302 297
-0.02208674 0.741 -0.074055538 1.6775168e-38 303 297
-0.020787518 0.741 -0.074055538 1.6867367e-38 304 297
-0.019488299 0.741 -0.074055538 1.6867367e-38 305 297
-0.018213626 0.74199998 -0.074155472 1.6867367e-38 306 297
-0.016912652 0.74199998 -0.074155472 1.6867367e-38 307 297
-0.015611678 0.74199998 -0.074155472 1.6958843e-38 308 297
-0.014310705 0.74199998 -0.074155472 1.6958843e-38 309 297
-0.0130448 0.74400002 -0.074355356 1.6867011e-38 310 297
-0.011740319 0.74400002 -0.074355356 1.6867011e-38 311 297
-0.01043584 0.74400002 -0.074355356 1.6774818e-38 312 297
-0.009106813 0.74199998 -0.074155472 1.6774818e-38 313 297
-0.0078058392 0.74199998 -0.074155472 1.6774098e-38 314 297
-0.0065048663 0.74199998 -0.074155472 1.6774098e-38 315 297
-0.0052038929 0.74199998 -0.074155472 1.6865214e-38 316 297
-0.0039029196 0.74199998 -0.074155472 1.6865214e-38 317 297
-0.0026019465 0.74199998 -0.074155472 1.6589706e-38 318 297
-0.0013009732 0.74199998 -0.074155472 1.6589706e-38 319 297
0 0.74199998 -0.074155472 1.6588634e-38 320 297
0.0013009732 0.74199998 -0.074155472 1.6588634e-38 321 297
0.0026019465 0.74199998 -0.074155472 1.6588256e-38 322 297
0.0039029196 0.74199998 -0.074155472 1.6588256e-38 323 297
0.0052038929 0.74199998 -0.074155472 1.6220883e-38 324 297
0.0065048663 0.74199998 -0.074155472 1.5944295e-38 325 297
0.0078058392 0.74199998 -0.074155472 1.6127262e-38 326 297
0.009106813 0.74199998 -0.074155472 1.594287e-38 327 297
0.010407786 0.74199998 -0.074155472 1.5206754e-38 328 297
0.01170876 0.74199998 -0.074155472 1.5114558e-38 329 297
0.013009733 0.74199998 -0.074155472 1.5205658e-38 330 297
0.014310705 0.74199998 -0.074155472 1.4929072e-38 331 297
0.015611678 0.74199998 -0.074155472 1.4652854e-38 332 297
0.016912652 0.74199998 -0.074155472 1.4376267e-38 333 297
0.01826272 0.74400002 -0.074355356 1.4099324e-38 334 297
0.019567199 0.74400002 -0.074355356 1.4007129e-38 335 297
0.02087168 0.74400002 -0.074355356 1.3731619e-38 336 297
0.022176161 0.74400002 -0.074355356 1.3362838e-38 337 297
0.023480639 0.74400002 -0.074355356 1.3728762e-38 338 297
0.02478512 0.74400002 -0.074355356 1.3452535e-38 339 297
0.026089599 0.74400002 -0.074355356 1.2992276e-38 340 297
0.027467718 0.74599999 -0.074555233 1.2715689e-38 341 297
0.028775707 0.74599999 -0.074555233 1.2438379e-38 342 297
0.030124018 0.74699998 -0.074655175 1.2069598e-38 343 297
0.031433757 0.74699998 -0.074655175 1.1885208e-38 344 297
0.032831166 0.74900001 -0.074855059 1.1608623e-38 345 297
0.034144413 0.74900001 -0.074855059 1.1331684e-38 346 297
0.03545766 0.74900001 -0.074855059 1.0962903e-38 347 297
0.036770906 0.74900001 -0.074855059 1.050337e-38 348 297
0.038135 0.75 -0.074954994 1.0318618e-38 349 297
0.039449997 0.75 -0.074954994 1.0042041e-38 350 297
0.040873703 0.75199997 -0.075154878 9.8576498e-39 351 297
0.04219221 0.75199997 -0.075154878 9.6725481e-39 352 297
0.043626439 0.75400001 -0.075354755 9.488517e-39 353 297
0.044948451 0.75400001 -0.075354755 9.1218981e-39 354 297
0.046270464 0.75400001 -0.075354755 8.9375082e-39 355 297
0.04759248 0.75400001 -0.075354755 8.7534855e-39 356 297
0.048914492 0.75400001 -0.075354755 8.4769e-39 357 297
-0.084721066 0.755 -0.076778464 1.0695356e-38 256 298
-0.083286837 0.75400001 -0.076676771 9.9577894e-39 257 298
-0.081964828 0.75400001 -0.076676771 1.10598e-38 258 298
-0.080642812 0.75400001 -0.076676771 1.1705169e-38 259 298
-0.079320803 0.75400001 -0.076676771 1.1984986e-38 260 298
-0.077998787 0.75400001 -0.076676771 1.253816e-38 261 298
-0.076473378 0.75199997 -0.076473378 1.327391e-38 262 298
-0.074954994 0.75 -0.076269999 1.3550137e-38 263 298
-0.073639996 0.75 -0.076269999 1.4101143e-38 264 298
-0.072228566 0.74900001 -0.076168306 1.419334e-38 265 298
-0.070725955 0.74699998 -0.07596492 1.4651444e-38 266 298
-0.069416218 0.74699998 -0.07596492 1.4835836e-38 267 298
-0.068015307 0.74599999 -0.07586322 1.4836191e-38 268 298
-0.066707321 0.74599999 -0.07586322 1.4928387e-38 269 298
-0.065399326 0.74599999 -0.07586322 1.5021302e-38 270 298
-0.064091347 0.74599999 -0.07586322 1.5113499e-38 271 298
-0.062783353 0.74599999 -0.07586322 1.5023104e-38 272 298
-0.06147537 0.74599999 -0.07586322 1.5115299e-38 273 298
-0.06016738 0.74599999 -0.07586322 1.5207495e-38 274 298
-0.058859397 0.74599999 -0.07586322 1.5391526e-38 275 298
-0.05739712 0.74400002 -0.075659841 1.5758515e-38 276 298
-0.056092639 0.74400002 -0.075659841 1.5851069e-38 277 298
-0.054788161 0.74400002 -0.075659841 1.6126577e-38 278 298
-0.05348368 0.74400002 -0.075659841 1.6126577e-38 279 298
-0.052179199 0.74400002 -0.075659841 1.6035458e-38 280 298
-0.050737958 0.74199998 -0.075456448 1.6035458e-38 281 298
-0.049436983 0.74199998 -0.075456448 1.576139e-38 282 298
-0.048136011 0.74199998 -0.075456448 1.6037979e-38 283 298
-0.046835039 0.74199998 -0.075456448 1.6313842e-38 284 298
-0.045534063 0.74199998 -0.075456448 1.6313842e-38 285 298
-0.044173479 0.741 -0.075354755 1.631384e-38 286 298
-0.042874258 0.741 -0.075354755 1.631384e-38 287 298
-0.041575037 0.741 -0.075354755 1.6589703e-38 288 298
-0.04027582 0.741 -0.075354755 1.6589703e-38 289 298
-0.038976599 0.741 -0.075354755 1.6589701e-38 290 298
-0.037677377 0.741 -0.075354755 1.6589701e-38 291 298
-0.036378156 0.741 -0.075354755 1.6406744e-38 292 298
-0.035078939 0.741 -0.075354755 1.6406744e-38 293 298
-0.033779722 0.741 -0.075354755 1.6406742e-38 294 298
-0.032524332 0.74199998 -0.075456448 1.6406742e-38 295 298
-0.03118128 0.741 -0.075354755 1.6681533e-38 296 298
-0.029882059 0.741 -0.075354755 1.6589338e-38 297 298
-0.028582839 0.741 -0.075354755 1.6772297e-38 298 298
-0.027283618 0.741 -0.075354755 1.6680101e-38 299 298
-0.025984399 0.741 -0.075354755 1.6313471e-38 300 298
-0.024685178 0.741 -0.075354755 1.6590057e-38 301 298
-0.023385961 0.741 -0.075354755 1.6682968e-38 302 298
-0.02208674 0.741 -0.075354755 1.6775165e-38 303 298
-0.020787518 0.741 -0.075354755 1.6866645e-38 304 298
-0.019488299 0.741 -0.075354755 1.6866645e-38 305 298
-0.018213626 0.74199998 -0.075456448 1.7049957e-38 306 298
-0.016912652 0.74199998 -0.075456448 1.7049957e-38 307 298
-0.015611678 0.74199998 -0.075456448 1.6866645e-38 308 298
-0.014310705 0.74199998 -0.075456448 1.6774448e-38 309 298
-0.013009733 0.74199998 -0.075456448 1.6774451e-38 310 298
-0.01170876 0.74199998 -0.075456448 1.6774451e-38 311 298
-0.010407786 0.74199998 -0.075456448 1.6589703e-38 312 298
-0.009106813 0.74199998 -0.075456448 1.6589703e-38 313 298
-0.0078058392 0.74199998 -0.075456448 1.6588985e-38 314 298
-0.0065048663 0.74199998 -0.075456448 1.6496789e-38 315 298
-0.0052038929 0.74199998 -0.075456448 1.6588259e-38 316 298
-0.0039029196 0.74199998 -0.075456448 1.6588259e-38 317 298
-0.0026019465 0.74199998 -0.075456448 1.6403867e-38 318 298
-0.0013009732 0.74199998 -0.075456448 1.6311672e-38 319 298
0 0.74199998 -0.075456448 1.6311672e-38 320 298
0.0013009732 0.74199998 -0.075456448 1.6219476e-38 321 298
0.0025984398 0.741 -0.075354755 1.6127987e-38 322 298
0.0038976599 0.741 -0.075354755 1.5943237e-38 323 298
0.0051968796 0.741 -0.075354755 1.594322e-38 324 298
0.0064960998 0.741 -0.075354755 1.5482602e-38 325 298
0.0077953199 0.741 -0.075354755 1.5390416e-38 326 298
0.009106813 0.74199998 -0.075456448 1.5298219e-38 327 298
0.010407786 0.74199998 -0.075456448 1.4928725e-38 328 298
0.01170876 0.74199998 -0.075456448 1.4651778e-38 329 298
0.013009733 0.74199998 -0.075456448 1.4375538e-38 330 298
0.014310705 0.74199998 -0.075456448 1.4375538e-38 331 298
0.015611678 0.74199998 -0.075456448 1.4374469e-38 332 298
0.016912652 0.74199998 -0.075456448 1.4190077e-38 333 298
0.018213626 0.74199998 -0.075456448 1.3362465e-38 334 298
0.0195146 0.74199998 -0.075456448 1.2993683e-38 335 298
0.020815572 0.74199998 -0.075456448 1.2994039e-38 336 298
0.022116546 0.74199998 -0.075456448 1.2994039e-38 337 298
0.023480639 0.74400002 -0.075659841 1.3267774e-38 338 298
0.02478512 0.74400002 -0.075659841 1.3083383e-38 339 298
0.026089599 0.74400002 -0.075659841 1.2623126e-38 340 298
0.027467718 0.74599999 -0.07586322 1.2438376e-38 341 298
0.028775707 0.74599999 -0.07586322 1.206995e-38 342 298
0.030124018 0.74699998 -0.07596492 1.1608973e-38 343 298
0.031433757 0.74699998 -0.07596492 1.1424229e-38 344 298
0.032831166 0.74900001 -0.076168306 1.1239836e-38 345 298
0.034144413 0.74900001 -0.076168306 1.0962903e-38 346 298
0.03545766 0.74900001 -0.076168306 1.0686315e-38 347 298
0.036770906 0.74900001 -0.076168306 1.0042394e-38 348 298
0.038135 0.75 -0.076269999 9.8576442e-39 349 298
0.039449997 0.75 -0.076269999 9.4895862e-39 350 298
0.040710647 0.74900001 -0.076168306 9.3973906e-39 351 298
0.042023893 0.74900001 -0.076168306 8.9385802e-39 352 298
0.04351072 0.75199997 -0.076473378 8.9385802e-39 353 298
0.044948451 0.75400001 -0.076676771 8.6627192e-39 354 298
0.046270464 0.75400001 -0.076676771 8.5705236e-39 355 298
-0.083286837 0.75400001 -0.077998787 1.0049283e-38 257 299
-0.081964828 0.75400001 -0.077998787 1.0691745e-38 258 299
-0.080642812 0.75400001 -0.077998787 1.0968333e-38 259 299
-0.079320803 0.75400001 -0.077998787 1.0787528e-38 260 299
-0.077998787 0.75400001 -0.077998787 1.161729e-38 261 299
-0.076473378 0.75199997 -0.077791892 1.2904768e-38 262 299
-0.074954994 0.75 -0.077584997 1.308916e-38 263 299
-0.073541813 0.74900001 -0.077481553 1.3640535e-38 264 299
-0.072035693 0.74699998 -0.07727465 1.3732731e-38 265 299
-0.070725955 0.74699998 -0.07727465 1.3824576e-38 266 299
-0.069323286 0.74599999 -0.077171214 1.3916773e-38 267 299
-0.068015307 0.74599999 -0.077171214 1.4100085e-38 268 299
-0.066707321 0.74599999 -0.077171214 1.419264e-38 269 299
-0.065399326 0.74599999 -0.077171214 1.4285554e-38 270 299
-0.064091347 0.74599999 -0.077171214 1.437775e-38 271 299
-0.062783353 0.74599999 -0.077171214 1.4286997e-38 272 299
-0.06147537 0.74599999 -0.077171214 1.4379552e-38 273 299
-0.06016738 0.74599999 -0.077171214 1.4471391e-38 274 299
-0.058859397 0.74599999 -0.077171214 1.4471391e-38 275 299
-0.05739712 0.74400002 -0.076964319 1.4839456e-38 276 299
-0.056092639 0.74400002 -0.076964319 1.4839456e-38 277 299
-0.054788161 0.74400002 -0.076964319 1.5206794e-38 278 299
-0.05348368 0.74400002 -0.076964319 1.5390827e-38 279 299
-0.05203893 0.74199998 -0.076757424 1.5483022e-38 280 299
-0.050737958 0.74199998 -0.076757424 1.5483022e-38 281 299
-0.049436983 0.74199998 -0.076757424 1.5299713e-38 282 299
-0.048136011 0.74199998 -0.076757424 1.5484104e-38 283 299
-0.046835039 0.74199998 -0.076757424 1.6035829e-38 284 299
-0.045472696 0.741 -0.076653972 1.6128026e-38 285 299
-0.044173479 0.741 -0.076653972 1.5669918e-38 286 299
-0.042874258 0.741 -0.076653972 1.5669918e-38 287 299
-0.041575037 0.741 -0.076653972 1.585323e-38 288 299
-0.04027582 0.741 -0.076653972 1.5945786e-38 289 299
-0.038976599 0.741 -0.076653972 1.6037626e-38 290 299
-0.037677377 0.741 -0.076653972 1.6037626e-38 291 299
-0.036378156 0.741 -0.076653972 1.5946149e-38 292 299
-0.035078939 0.741 -0.076653972 1.5946149e-38 293 299
-0.033779722 0.741 -0.076653972 1.5946502e-38 294 299
-0.032480497 0.741 -0.076653972 1.6038697e-38 295 299
-0.03118128 0.741 -0.076653972 1.6221291e-38 296 299
-0.029882059 0.741 -0.076653972 1.6129095e-38 297 299
-0.028582839 0.741 -0.076653972 1.6128731e-38 298 299
-0.027283618 0.741 -0.076653972 1.6220928e-38 299 299
-0.025984399 0.741 -0.076653972 1.6038329e-38 300 299
-0.024618553 0.73900002 -0.076447085 1.6130525e-38 301 299
-0.023322839 0.73900002 -0.076447085 1.6314559e-38 302 299
-0.02208674 0.741 -0.076653972 1.6406754e-38 303 299
-0.020787518 0.741 -0.076653972 1.6498234e-38 304 299
-0.019488299 0.741 -0.076653972 1.6682265e-38 305 299
-0.018213626 0.74199998 -0.076757424 1.6681549e-38 306 299
-0.016912652 0.74199998 -0.076757424 1.6589353e-38 307 299
-0.015611678 0.74199998 -0.076757424 1.6314208e-38 308 299
-0.014310705 0.74199998 -0.076757424 1.6130177e-38 309 299
-0.013009733 0.74199998 -0.076757424 1.6130174e-38 310 299
-0.01170876 0.74199998 -0.076757424 1.6037979e-38 311 299
-0.010407786 0.74199998 -0.076757424 1.6037976e-38 312 299
-0.0090945391 0.741 -0.076653972 1.594578e-38 313 299
-0.0077953199 0.741 -0.076653972 1.6220925e-38 314 299
-0.0064960998 0.741 -0.076653972 1.6036532e-38 315 299
-0.0052038929 0.74199998 -0.076757424 1.6036532e-38 316 299
-0.0039029196 0.74199998 -0.076757424 1.5944337e-38 317 299
-0.0026019465 0.74199998 -0.076757424 1.5944321e-38 318 299
-0.0013009732 0.74199998 -0.076757424 1.5759571e-38 319 299
0 0.741 -0.076653972 1.548478e-38 320 299
0.0012992199 0.741 -0.076653972 1.5392583e-38 321 299
0.0025984398 0.741 -0.076653972 1.5299318e-38 322 299
0.0038976599 0.741 -0.076653972 1.5207122e-38 323 299
0.0051968796 0.741 -0.076653972 1.5114921e-38 324 299
0.0064960998 0.741 -0.076653972 1.4838693e-38 325 299
0.0077953199 0.741 -0.076653972 1.5112052e-38 326 299
0.0090945391 0.741 -0.076653972 1.4835826e-38 327 299
0.010407786 0.74199998 -0.076757424 1.419262e-38 328 299
0.01170876 0.74199998 -0.076757424 1.3915674e-38 329 299
0.013009733 0.74199998 -0.076757424 1.3639448e-38 330 299
0.014310705 0.74199998 -0.076757424 1.3547252e-38 331 299
0.015611678 0.74199998 -0.076757424 1.3637648e-38 332 299
0.016912652 0.74199998 -0.076757424 1.3453257e-38 333 299
0.018213626 0.74199998 -0.076757424 1.2810386e-38 334 299
0.0195146 0.74199998 -0.076757424 1.2625995e-38 335 299
0.020815572 0.74199998 -0.076757424 1.2533796e-38 336 299
0.022116546 0.74199998 -0.076757424 1.2257568e-38 337 299
0.023417519 0.74199998 -0.076757424 1.2531655e-38 338 299
0.024718491 0.74199998 -0.076757424 1.2347263e-38 339 299
0.026089599 0.74400002 -0.076964319 1.2162152e-38 340 299
0.027467718 0.74599999 -0.077171214 1.1885205e-38 341 299
0.028775707 0.74599999 -0.077171214 1.1517146e-38 342 299
0.030124018 0.74699998 -0.07727465 1.1148722e-38 343 299
0.031433757 0.74699998 -0.07727465 1.0963978e-38 344 299
0.032743499 0.74699998 -0.07727465 1.0595197e-38 345 299
0.034144413 0.74900001 -0.077481553 9.860161e-39 346 299
0.03545766 0.74900001 -0.077481553 9.4917386e-39 347 299
0.036819998 0.75 -0.077584997 9.581786e-39 348 299
0.038135 0.75 -0.077584997 9.3970346e-39 349 299
0.039449997 0.75 -0.077584997 8.9378614e-39 350 299
0.040710647 0.74900001 -0.077481553 8.9378614e-39 351 299
0.042023893 0.74900001 -0.077481553 8.7552708e-39 352 299
0.04351072 0.75199997 -0.077791892 8.6627164e-39 353 299
0.044829223 0.75199997 -0.077791892 8.660934e-39 354 299
-0.083286837 0.75400001 -0.079320803 1.0602475e-38 257 300
-0.081964828 0.75400001 -0.079320803 1.1241693e-38 258 300
-0.080642812 0.75400001 -0.079320803 1.1241693e-38 259 300
-0.079110399 0.75199997 -0.079110399 1.1150199e-38 260 300
-0.077791892 0.75199997 -0.079110399 1.1519342e-38 261 300
-0.076473378 0.75199997 -0.079110399 1.1432884e-38 262 300
-0.074954994 0.75 -0.078899994 1.19857e-38 263 300
-0.073541813 0.74900001 -0.0787948 1.3454336e-38 264 300
-0.072035693 0.74699998 -0.078584395 1.3730564e-38 265 300
-0.070725955 0.74699998 -0.078584395 1.3823113e-38 266 300
-0.069323286 0.74599999 -0.078479193 1.3915309e-38 267 300
-0.068015307 0.74599999 -0.078479193 1.3915311e-38 268 300
-0.066707321 0.74599999 -0.078479193 1.4007507e-38 269 300
-0.065399326 0.74599999 -0.078479193 1.4283018e-38 270 300
-0.064091347 0.74599999 -0.078479193 1.4467409e-38 271 300
-0.062783353 0.74599999 -0.078479193 1.4284817e-38 272 300
-0.06147537 0.74599999 -0.078479193 1.4468848e-38 273 300
-0.06016738 0.74599999 -0.078479193 1.4469204e-38 274 300
-0.058859397 0.74599999 -0.078479193 1.45614e-38 275 300
-0.05739712 0.74400002 -0.078268796 1.4378085e-38 276 300
-0.056092639 0.74400002 -0.078268796 1.4378085e-38 277 300
-0.054788161 0.74400002 -0.078268796 1.4653946e-38 278 300
-0.05348368 0.74400002 -0.078268796 1.4838696e-38 279 300
-0.05203893 0.74199998 -0.078058399 1.5296794e-38 280 300
-0.050737958 0.74199998 -0.078058399 1.538935e-38 281 300
-0.049436983 0.74199998 -0.078058399 1.5297517e-38 282 300
-0.048071139 0.741 -0.077953197 1.5297517e-38 283 300
-0.046771921 0.741 -0.077953197 1.5299315e-38 284 300
-0.045472696 0.741 -0.077953197 1.5299315e-38 285 300
-0.044173479 0.741 -0.077953197 1.5299671e-38 286 300
-0.042758539 0.73900002 -0.0777428 1.5484062e-38 287 300
-0.041462827 0.73900002 -0.0777428 1.585177e-38 288 300
-0.04027582 0.741 -0.077953197 1.5943966e-38 289 300
-0.038976599 0.741 -0.077953197 1.6036167e-38 290 300
-0.037677377 0.741 -0.077953197 1.6036167e-38 291 300
-0.036378156 0.741 -0.077953197 1.6036167e-38 292 300
-0.035078939 0.741 -0.077953197 1.6036167e-38 293 300
-0.033779722 0.741 -0.077953197 1.6219123e-38 294 300
-0.032480497 0.741 -0.077953197 1.6311677e-38 295 300
-0.03118128 0.741 -0.077953197 1.6311677e-38 296 300
-0.029882059 0.741 -0.077953197 1.6219123e-38 297 300
-0.028582839 0.741 -0.077953197 1.6220198e-38 298 300
-0.027283618 0.741 -0.077953197 1.6220198e-38 299 300
-0.025914267 0.73900002 -0.0777428 1.6221275e-38 300 300
-0.024618553 0.73900002 -0.0777428 1.6221275e-38 301 300
-0.023322839 0.73900002 -0.0777428 1.6404223e-38 302 300
-0.022027127 0.73900002 -0.0777428 1.6588256e-38 303 300
-0.020731414 0.73900002 -0.0777428 1.6679735e-38 304 300
-0.0194357 0.73900002 -0.0777428 1.6587538e-38 305 300
-0.018189078 0.741 -0.077953197 1.6863051e-38 306 300
-0.016889861 0.741 -0.077953197 1.6586464e-38 307 300
-0.01559064 0.741 -0.077953197 1.640387e-38 308 300
-0.01429142 0.741 -0.077953197 1.6311675e-38 309 300
-0.0129922 0.741 -0.077953197 1.6219832e-38 310 300
-0.01169298 0.741 -0.077953197 1.6127278e-38 311 300
-0.010393759 0.741 -0.077953197 1.6035435e-38 312 300
-0.0090945391 0.741 -0.077953197 1.6035435e-38 313 300
-0.0077953199 0.741 -0.077953197 1.6035435e-38 314 300
-0.0064960998 0.741 -0.077953197 1.594324e-38 315 300
-0.0051968796 0.741 -0.077953197 1.5942163e-38 316 300
-0.0039029196 0.74199998 -0.078058399 1.5849968e-38 317 300
-0.0026019465 0.74199998 -0.078058399 1.5297867e-38 318 300
-0.0012992199 0.741 -0.077953197 1.5390063e-38 319 300
0 0.741 -0.077953197 1.5482612e-38 320 300
0.0012992199 0.741 -0.077953197 1.5114188e-38 321 300
0.0025984398 0.741 -0.077953197 1.5296784e-38 322 300
0.0038976599 0.741 -0.077953197 1.520423e-38 323 300
0.0051968796 0.741 -0.077953197 1.4744328e-38 324 300
0.0064960998 0.741 -0.077953197 1.4191154e-38 325 300
0.0077953199 0.741 -0.077953197 1.4558866e-38 326 300
0.0090945391 0.741 -0.077953197 1.446667e-38 327 300
0.010407786 0.74199998 -0.078058399 1.4006061e-38 328 300
0.01170876 0.74199998 -0.078058399 1.3821311e-38 329 300
0.013009733 0.74199998 -0.078058399 1.3728747e-38 330 300
0.014310705 0.74199998 -0.078058399 1.3544354e-38 331 300
0.015611678 0.74199998 -0.078058399 1.336032e-38 332 300
0.016912652 0.74199998 -0.078058399 1.3083733e-38 333 300
0.018213626 0.74199998 -0.078058399 1.3083733e-38 334 300
0.0195146 0.74199998 -0.078058399 1.2898982e-38 335 300
0.020815572 0.74199998 -0.078058399 1.2623111e-38 336 300
0.022116546 0.74199998 -0.078058399 1.2438361e-38 337 300
0.023417519 0.74199998 -0.078058399 1.2253615e-38 338 300
0.024718491 0.74199998 -0.078058399 1.2069584e-38 339 300
0.026089599 0.74400002 -0.078268796 1.1608979e-38 340 300
0.027467718 0.74599999 -0.078479193 1.1424229e-38 341 300
0.028775707 0.74599999 -0.078479193 1.1239117e-38 342 300
0.030124018 0.74699998 -0.078584395 1.1146922e-38 343 300
0.031433757 0.74699998 -0.078584395 1.0595197e-38 344 300
0.032743499 0.74699998 -0.078584395 1.0318608e-38 345 300
0.034144413 0.74900001 -0.0787948 9.7665304e-39 346 300
0.03545766 0.74900001 -0.0787948 9.3973878e-39 347 300
0.036819998 0.75 -0.078899994 9.3048418e-39 348 300
0.038135 0.75 -0.078899994 9.1208107e-39 349 300
0.039449997 0.75 -0.078899994 8.754189e-39 350 300
0.040710647 0.74900001 -0.0787948 8.8463846e-39 351 300
0.042023893 0.74900001 -0.0787948 8.4790468e-39 352 300
0.04333714 0.74900001 -0.0787948 8.4790468e-39 353 300
-0.081964828 0.75400001 -0.080642812 1.1334986e-38 258 301
-0.080642812 0.75400001 -0.080642812 1.0505225e-38 259 301
-0.079110399 0.75199997 -0.080428898 1.0598121e-38 260 301
-0.077584997 0.75 -0.080215 1.0690676e-38 261 301
-0.076269999 0.75 -0.080215 1.0968689e-38 262 301
-0.075154878 0.75199997 -0.080428898 1.1798089e-38 263 301
-0.073541813 0.74900001 -0.080108039 1.2534187e-38 264 301
-0.072035693 0.74699998 -0.079894133 1.2811134e-38 265 301
-0.070725955 0.74699998 -0.079894133 1.2812569e-38 266 301
-0.069323286 0.74599999 -0.079787187 1.2904765e-38 267 301
-0.068015307 0.74599999 -0.079787187 1.3271757e-38 268 301
-0.066707321 0.74599999 -0.079787187 1.3271757e-38 269 301
-0.065399326 0.74599999 -0.079787187 1.3639819e-38 270 301
-0.064091347 0.74599999 -0.079787187 1.3639819e-38 271 301
-0.062783353 0.74599999 -0.079787187 1.3732377e-38 272 301
-0.06147537 0.74599999 -0.079787187 1.3732377e-38 273 301
-0.060006075 0.74400002 -0.079573281 1.3824929e-38 274 301
-0.058701597 0.74400002 -0.079573281 1.3917126e-38 275 301
-0.05739712 0.74400002 -0.079573281 1.4009324e-38 276 301
-0.056092639 0.74400002 -0.079573281 1.4009324e-38 277 301
-0.054788161 0.74400002 -0.079573281 1.4285188e-38 278 301
-0.053339902 0.74199998 -0.079359367 1.4377384e-38 279 301
-0.05203893 0.74199998 -0.079359367 1.4561046e-38 280 301
-0.050737958 0.74199998 -0.079359367 1.4653242e-38 281 301
-0.049436983 0.74199998 -0.079359367 1.4653592e-38 282 301
-0.048071139 0.741 -0.079252414 1.4746147e-38 283 301
-0.046771921 0.741 -0.079252414 1.4563918e-38 284 301
-0.045472696 0.741 -0.079252414 1.4656113e-38 285 301
-0.044054255 0.73900002 -0.079038516 1.4747959e-38 286 301
-0.042758539 0.73900002 -0.079038516 1.4655763e-38 287 301
-0.041462827 0.73900002 -0.079038516 1.5116021e-38 288 301
-0.040167112 0.73900002 -0.079038516 1.5116021e-38 289 301
-0.0388714 0.73900002 -0.079038516 1.5024553e-38 290 301
-0.037575684 0.73900002 -0.079038516 1.5208584e-38 291 301
-0.036378156 0.741 -0.079252414 1.5207868e-38 292 301
-0.035078939 0.741 -0.079252414 1.5300063e-38 293 301
-0.033779722 0.741 -0.079252414 1.5482659e-38 294 301
-0.032480497 0.741 -0.079252414 1.5574855e-38 295 301
-0.03118128 0.741 -0.079252414 1.5574852e-38 296 301
-0.029882059 0.741 -0.079252414 1.5574852e-38 297 301
-0.028582839 0.741 -0.079252414 1.5392256e-38 298 301
-0.027283618 0.741 -0.079252414 1.5484452e-38 299 301
-0.025914267 0.73900002 -0.079038516 1.6035458e-38 300 301
-0.024618553 0.73900002 -0.079038516 1.5943262e-38 301 301
-0.023322839 0.73900002 -0.079038516 1.5760669e-38 302 301
-0.022027127 0.73900002 -0.079038516 1.5668473e-38 303 301
-0.020731414 0.73900002 -0.079038516 1.5850716e-38 304 301
-0.0194357 0.73900002 -0.079038516 1.5942912e-38 305 301
-0.018189078 0.741 -0.079252414 1.585036e-38 306 301
-0.016889861 0.741 -0.079252414 1.585036e-38 307 301
-0.01559064 0.741 -0.079252414 1.5575208e-38 308 301
-0.01429142 0.741 -0.079252414 1.5575208e-38 309 301
-0.0129922 0.741 -0.079252414 1.5391529e-38 310 301
-0.01169298 0.741 -0.079252414 1.5207498e-38 311 301
-0.010393759 0.741 -0.079252414 1.5391163e-38 312 301
-0.0090945391 0.741 -0.079252414 1.5298967e-38 313 301
-0.0077953199 0.741 -0.079252414 1.5115296e-38 314 301
-0.0064960998 0.741 -0.079252414 1.5023101e-38 315 301
-0.0051968796 0.741 -0.079252414 1.5206047e-38 316 301
-0.0038976599 0.741 -0.079252414 1.5113852e-38 317 301
-0.0025984398 0.741 -0.079252414 1.4837987e-38 318 301
-0.0012992199 0.741 -0.079252414 1.4745791e-38 319 301
0 0.741 -0.079252414 1.4561044e-38 320 301
0.0012992199 0.741 -0.079252414 1.4561044e-38 321 301
0.0025984398 0.741 -0.079252414 1.4651441e-38 322 301
0.0039029196 0.74199998 -0.079359367 1.4467409e-38 323 301
0.0051968796 0.741 -0.079252414 1.4375191e-38 324 301
0.0064960998 0.741 -0.079252414 1.3914213e-38 325 301
0.0077953199 0.741 -0.079252414 1.3914213e-38 326 301
0.0090945391 0.741 -0.079252414 1.3822017e-38 327 301
0.010407786 0.74199998 -0.079359367 1.3453257e-38 328 301
0.01170876 0.74199998 -0.079359367 1.3176672e-38 329 301
0.013009733 0.74199998 -0.079359367 1.2900802e-38 330 301
0.014310705 0.74199998 -0.079359367 1.2624575e-38 331 301
0.015611678 0.74199998 -0.079359367 1.2439825e-38 332 301
0.016912652 0.74199998 -0.079359367 1.2439825e-38 333 301
0.018213626 0.74199998 -0.079359367 1.2071399e-38 334 301
0.0195146 0.74199998 -0.079359367 1.1979203e-38 335 301
0.020815572 0.74199998 -0.079359367 1.1794809e-38 336 301
0.022116546 0.74199998 -0.079359367 1.1610416e-38 337 301
0.023480639 0.74400002 -0.079573281 1.1517146e-38 338 301
0.02478512 0.74400002 -0.079573281 1.1240919e-38 339 301
0.026089599 0.74400002 -0.079573281 1.1056892e-38 340 301
0.027467718 0.74599999 -0.079787187 1.0595916e-38 341 301
0.028775707 0.74599999 -0.079787187 1.0503367e-38 342 301
0.030124018 0.74699998 -0.079894133 1.0134943e-38 343 301
0.031433757 0.74699998 -0.079894133 9.5825021e-39 344 301
0.032743499 0.74699998 -0.079894133 9.4903065e-39 345 301
0.034144413 0.74900001 -0.080108039 9.2133692e-39 346 301
0.035505001 0.75 -0.080215 9.028978e-39 347 301
0.036819998 0.75 -0.080215 8.8456657e-39 348 301
0.038135 0.75 -0.080215 8.8456657e-39 349 301
-0.080642812 0.75400001 -0.081964828 1.0507027e-38 259 302
-0.079110399 0.75199997 -0.081747405 1.0873266e-38 260 302
-0.077584997 0.75 -0.081529997 1.0688875e-38 261 302
-0.076269999 0.75 -0.081529997 1.0689222e-38 262 302
-0.075154878 0.75199997 -0.081747405 1.1150199e-38 263 302
-0.073541813 0.74900001 -0.081421293 1.1704074e-38 264 302
-0.072035693 0.74699998 -0.081203878 1.2073216e-38 265 302
-0.070725955 0.74699998 -0.081203878 1.2259749e-38 266 302
-0.069323286 0.74599999 -0.081095167 1.2351946e-38 267 302
-0.068015307 0.74599999 -0.081095167 1.3178815e-38 268 302
-0.066707321 0.74599999 -0.081095167 1.3271011e-38 269 302
-0.065399326 0.74599999 -0.081095167 1.3363207e-38 270 302
-0.064091347 0.74599999 -0.081095167 1.3455402e-38 271 302
-0.062783353 0.74599999 -0.081095167 1.3547252e-38 272 302
-0.06147537 0.74599999 -0.081095167 1.3547252e-38 273 302
-0.060006075 0.74400002 -0.080877759 1.3547252e-38 274 302
-0.058701597 0.74400002 -0.080877759 1.3547252e-38 275 302
-0.05739712 0.74400002 -0.080877759 1.4006431e-38 276 302
-0.056092639 0.74400002 -0.080877759 1.4098626e-38 277 302
-0.054788161 0.74400002 -0.080877759 1.4190819e-38 278 302
-0.053339902 0.74199998 -0.080660343 1.4375569e-38 279 302
-0.05203893 0.74199998 -0.080660343 1.4468115e-38 280 302
-0.050737958 0.74199998 -0.080660343 1.4468115e-38 281 302
-0.049436983 0.74199998 -0.080660343 1.4285518e-38 282 302
-0.048071139 0.741 -0.080551639 1.4469907e-38 283 302
-0.046771921 0.741 -0.080551639 1.4469907e-38 284 302
-0.045472696 0.741 -0.080551639 1.4654299e-38 285 302
-0.044054255 0.73900002 -0.080334224 1.4745425e-38 286 302
-0.042758539 0.73900002 -0.080334224 1.465323e-38 287 302
-0.041462827 0.73900002 -0.080334224 1.4745791e-38 288 302
-0.040167112 0.73900002 -0.080334224 1.4837987e-38 289 302
-0.0388714 0.73900002 -0.080334224 1.4837987e-38 290 302
-0.037575684 0.73900002 -0.080334224 1.4930184e-38 291 302
-0.036378156 0.741 -0.080551639 1.5113501e-38 292 302
-0.035078939 0.741 -0.080551639 1.5113501e-38 293 302
-0.033779722 0.741 -0.080551639 1.5205697e-38 294 302
-0.032480497 0.741 -0.080551639 1.5205697e-38 295 302
-0.03118128 0.741 -0.080551639 1.5389365e-38 296 302
-0.029882059 0.741 -0.080551639 1.5481561e-38 297 302
-0.028582839 0.741 -0.080551639 1.5298967e-38 298 302
-0.027209979 0.73900002 -0.080334224 1.5298967e-38 299 302
-0.025914267 0.73900002 -0.080334224 1.5390807e-38 300 302
-0.024618553 0.73900002 -0.080334224 1.5298612e-38 301 302
-0.023322839 0.73900002 -0.080334224 1.5390444e-38 302 302
-0.022027127 0.73900002 -0.080334224 1.5390444e-38 303 302
-0.020731414 0.73900002 -0.080334224 1.5573038e-38 304 302
-0.0194357 0.73900002 -0.080334224 1.5757069e-38 305 302
-0.018189078 0.741 -0.080551639 1.5573759e-38 306 302
-0.016889861 0.741 -0.080551639 1.5481205e-38 307 302
-0.01559064 0.741 -0.080551639 1.5481914e-38 308 302
-0.01429142 0.741 -0.080551639 1.538936e-38 309 302
-0.0129922 0.741 -0.080551639 1.5113482e-38 310 302
-0.01169298 0.741 -0.080551639 1.5113482e-38 311 302
-0.010393759 0.741 -0.080551639 1.5021283e-38 312 302
-0.0090945391 0.741 -0.080551639 1.4929088e-38 313 302
-0.0077953199 0.741 -0.080551639 1.4929091e-38 314 302
-0.0064960998 0.741 -0.080551639 1.4836895e-38 315 302
-0.0051968796 0.741 -0.080551639 1.4744343e-38 316 302
-0.0038976599 0.741 -0.080551639 1.4744343e-38 317 302
-0.0025984398 0.741 -0.080551639 1.4467762e-38 318 302
-0.0012992199 0.741 -0.080551639 1.4375566e-38 319 302
0 0.741 -0.080551639 1.4283015e-38 320 302
0.0012992199 0.741 -0.080551639 1.4190819e-38 321 302
0.0025984398 0.741 -0.080551639 1.4374122e-38 322 302
0.0039029196 0.74199998 -0.080660343 1.418937e-38 323 302
0.0051968796 0.741 -0.080551639 1.3821298e-38 324 302
0.0064960998 0.741 -0.080551639 1.336032e-38 325 302
0.0077953199 0.741 -0.080551639 1.3177374e-38 326 302
0.0090945391 0.741 -0.080551639 1.3085178e-38 327 302
0.010393759 0.741 -0.080551639 1.2900436e-38 328 302
0.01170876 0.74199998 -0.080660343 1.2715686e-38 329 302
0.013009733 0.74199998 -0.080660343 1.262277e-38 330 302
0.014310705 0.74199998 -0.080660343 1.2438379e-38 331 302
0.015611678 0.74199998 -0.080660343 1.2438379e-38 332 302
0.016912652 0.74199998 -0.080660343 1.2069598e-38 333 302
0.018213626 0.74199998 -0.080660343 1.1794089e-38 334 302
0.0195146 0.74199998 -0.080660343 1.1609698e-38 335 302
0.020815572 0.74199998 -0.080660343 1.1517146e-38 336 302
0.022116546 0.74199998 -0.080660343 1.1240919e-38 337 302
0.023480639 0.74400002 -0.080877759 1.1056171e-38 338 302
0.02478512 0.74400002 -0.080877759 1.0871779e-38 339 302
0.026089599 0.74400002 -0.080877759 1.050372e-38 340 302
0.027467718 0.74599999 -0.081095167 1.0319327e-38 341 302
0.028775707 0.74599999 -0.081095167 1.0041312e-38 342 302
0.030124018 0.74699998 -0.081203878 9.7650843e-39 343 302
0.031433757 0.74699998 -0.081203878 9.5799868e-39 344 302
0.032743499 0.74699998 -0.081203878 9.4874324e-39 345 302
0.034053236 0.74699998 -0.081203878 9.1208107e-39 346 302
0.035505001 0.75 -0.081529997 9.1208107e-39 347 302
0.036819998 0.75 -0.081529997 8.5708767e-39 348 302
-0.079320803 0.75400001 -0.083286837 1.0965481e-38 260 303
-0.077998787 0.75400001 -0.083286837 1.0320112e-38 261 303
-0.076676771 0.75400001 -0.083286837 1.0504479e-38 262 303
-0.075154878 0.75199997 -0.08306592 1.0596676e-38 263 303
-0.073639996 0.75 -0.082844995 1.0597383e-38 264 303
-0.072035693 0.74699998 -0.082513615 1.1334948e-38 265 303
-0.070725955 0.74699998 -0.082513615 1.1521477e-38 266 303
-0.069323286 0.74599999 -0.082403161 1.1706229e-38 267 303
-0.068015307 0.74599999 -0.082403161 1.2442695e-38 268 303
-0.066707321 0.74599999 -0.082403161 1.2534891e-38 269 303
-0.065399326 0.74599999 -0.082403161 1.2994428e-38 270 303
-0.064091347 0.74599999 -0.082403161 1.2994428e-38 271 303
-0.062783353 0.74599999 -0.082403161 1.3270305e-38 272 303
-0.06147537 0.74599999 -0.082403161 1.3178109e-38 273 303
-0.060006075 0.74400002 -0.082182243 1.3086995e-38 274 303
-0.058701597 0.74400002 -0.082182243 1.3086995e-38 275 303
-0.05739712 0.74400002 -0.082182243 1.3361784e-38 276 303
-0.056092639 0.74400002 -0.082182243 1.345398e-38 277 303
-0.054788161 0.74400002 -0.082182243 1.3730564e-38 278 303
-0.05348368 0.74400002 -0.082182243 1.3914955e-38 279 303
-0.05203893 0.74199998 -0.081961311 1.3915311e-38 280 303
-0.050737958 0.74199998 -0.081961311 1.3915311e-38 281 303
-0.049436983 0.74199998 -0.081961311 1.3916383e-38 282 303
-0.048071139 0.741 -0.081850857 1.4008579e-38 283 303
-0.046771921 0.741 -0.081850857 1.428409e-38 284 303
-0.045472696 0.741 -0.081850857 1.428409e-38 285 303
-0.044054255 0.73900002 -0.081629939 1.4375932e-38 286 303
-0.042758539 0.73900002 -0.081629939 1.4375932e-38 287 303
-0.041462827 0.73900002 -0.081629939 1.428482e-38 288 303
-0.040167112 0.73900002 -0.081629939 1.428482e-38 289 303
-0.0388714 0.73900002 -0.081629939 1.4468851e-38 290 303
-0.037575684 0.73900002 -0.081629939 1.4468851e-38 291 303
-0.036279973 0.73900002 -0.081629939 1.456033e-38 292 303
-0.035078939 0.741 -0.081850857 1.4652526e-38 293 303
-0.033779722 0.741 -0.081850857 1.4561046e-38 294 303
-0.032480497 0.741 -0.081850857 1.4561046e-38 295 303
-0.03118128 0.741 -0.081850857 1.4652876e-38 296 303
-0.029882059 0.741 -0.081850857 1.4929103e-38 297 303
-0.028582839 0.741 -0.081850857 1.4745794e-38 298 303
-0.027209979 0.73900002 -0.081629939 1.4745794e-38 299 303
-0.025914267 0.73900002 -0.081629939 1.4837992e-38 300 303
-0.024618553 0.73900002 -0.081629939 1.4745438e-38 301 303
-0.023322839 0.73900002 -0.081629939 1.4929109e-38 302 303
-0.022027127 0.73900002 -0.081629939 1.4929109e-38 303 303
-0.020731414 0.73900002 -0.081629939 1.4929109e-38 304 303
-0.0194357 0.73900002 -0.081629939 1.5021304e-38 305 303
-0.018189078 0.741 -0.081850857 1.4929109e-38 306 303
-0.016889861 0.741 -0.081850857 1.4929109e-38 307 303
-0.01559064 0.741 -0.081850857 1.492874e-38 308 303
-0.01429142 0.741 -0.081850857 1.474399e-38 309 303
-0.0129922 0.741 -0.081850857 1.4652501e-38 310 303
-0.01169298 0.741 -0.081850857 1.4652501e-38 311 303
-0.010393759 0.741 -0.081850857 1.4652145e-38 312 303
-0.0090945391 0.741 -0.081850857 1.4468112e-38 313 303
-0.0077953199 0.741 -0.081850857 1.437592e-38 314 303
-0.0064960998 0.741 -0.081850857 1.4283724e-38 315 303
-0.0051968796 0.741 -0.081850857 1.4191175e-38 316 303
-0.0038976599 0.741 -0.081850857 1.4191175e-38 317 303
-0.0025984398 0.741 -0.081850857 1.4098626e-38 318 303
-0.0012992199 0.741 -0.081850857 1.4006431e-38 319 303
0 0.73900002 -0.081629939 1.3913156e-38 320 303
0.0012957134 0.73900002 -0.081629939 1.3820961e-38 321 303
0.0025984398 0.741 -0.081850857 1.3545084e-38 322 303
0.0038976599 0.741 -0.081850857 1.3360691e-38 323 303
0.0051968796 0.741 -0.081850857 1.3175941e-38 324 303
0.0064960998 0.741 -0.081850857 1.2899715e-38 325 303
0.0077953199 0.741 -0.081850857 1.2715689e-38 326 303
0.0090945391 0.741 -0.081850857 1.2439461e-38 327 303
0.010393759 0.741 -0.081850857 1.2346907e-38 328 303
0.01170876 0.74199998 -0.081961311 1.2162515e-38 329 303
0.013009733 0.74199998 -0.081961311 1.2069604e-38 330 303
0.014310705 0.74199998 -0.081961311 1.1977048e-38 331 303
0.015611678 0.74199998 -0.081961311 1.170154e-38 332 303
0.016912652 0.74199998 -0.081961311 1.1517149e-38 333 303
0.018213626 0.74199998 -0.081961311 1.1424953e-38 334 303
0.0195146 0.74199998 -0.081961311 1.1148366e-38 335 303
0.020815572 0.74199998 -0.081961311 1.0964697e-38 336 303
0.022116546 0.74199998 -0.081961311 1.0688111e-38 337 303
0.023480639 0.74400002 -0.082182243 1.0320055e-38 338 303
0.02478512 0.74400002 -0.082182243 1.0135662e-38 339 303
0.026089599 0.74400002 -0.082182243 9.7665304e-39 340 303
0.027467718 0.74599999 -0.082403161 9.5821392e-39 341 303
0.028775707 0.74599999 -0.082403161 9.3963186e-39 342 303
0.030124018 0.74699998 -0.082513615 9.3041229e-39 343 303
0.031433757 0.74699998 -0.082513615 8.9367824e-39 344 303
0.032743499 0.74699998 -0.082513615 8.9367824e-39 345 303
0.034053236 0.74699998 -0.082513615 8.753833e-39 346 303
0.035362978 0.74699998 -0.082513615 8.6616374e-39 347 303
-0.076676771 0.75400001 -0.084608853 1.0504833e-38 262 304
-0.075154878 0.75199997 -0.084384419 1.0228247e-38 263 304
-0.073639996 0.75 -0.08416 1.0136417e-38 264 304
-0.072035693 0.74699998 -0.083823353 1.0413364e-38 265 304
-0.070725955 0.74699998 -0.083823353 1.0598825e-38 266 304
-0.069323286 0.74599999 -0.08371114 1.1059803e-38 267 304
-0.068015307 0.74599999 -0.08371114 1.1613307e-38 268 304
-0.066707321 0.74599999 -0.08371114 1.198209e-38 269 304
-0.065399326 0.74599999 -0.08371114 1.2074639e-38 270 304
-0.064091347 0.74599999 -0.08371114 1.225903e-38 271 304
-0.062783353 0.74599999 -0.08371114 1.253454e-38 272 304
-0.06147537 0.74599999 -0.08371114 1.2626738e-38 273 304
-0.060006075 0.74400002 -0.083486721 1.2626738e-38 274 304
-0.058701597 0.74400002 -0.083486721 1.2626738e-38 275 304
-0.05739712 0.74400002 -0.083486721 1.2994078e-38 276 304
-0.056092639 0.74400002 -0.083486721 1.3178109e-38 277 304
-0.054788161 0.74400002 -0.083486721 1.3270308e-38 278 304
-0.05348368 0.74400002 -0.083486721 1.3362503e-38 279 304
-0.05203893 0.74199998 -0.083262287 1.363837e-38 280 304
-0.050737958 0.74199998 -0.083262287 1.363837e-38 281 304
-0.049370356 0.741 -0.083150074 1.3455055e-38 282 304
-0.048071139 0.741 -0.083150074 1.3639448e-38 283 304
-0.046771921 0.741 -0.083150074 1.3823835e-38 284 304
-0.045472696 0.741 -0.083150074 1.3639803e-38 285 304
-0.044054255 0.73900002 -0.082925655 1.3915674e-38 286 304
-0.042758539 0.73900002 -0.082925655 1.3915674e-38 287 304
-0.041462827 0.73900002 -0.082925655 1.3732365e-38 288 304
-0.040167112 0.73900002 -0.082925655 1.3732365e-38 289 304
-0.0388714 0.73900002 -0.082925655 1.4007876e-38 290 304
-0.037575684 0.73900002 -0.082925655 1.4100071e-38 291 304
-0.036279973 0.73900002 -0.082925655 1.4007876e-38 292 304
-0.035078939 0.741 -0.083150074 1.4192268e-38 293 304
-0.033779722 0.741 -0.083150074 1.4100071e-38 294 304
-0.032480497 0.741 -0.083150074 1.4100071e-38 295 304
-0.03118128 0.741 -0.083150074 1.4100791e-38 296 304
-0.029882059 0.741 -0.083150074 1.4192987e-38 297 304
-0.028582839 0.741 -0.083150074 1.4284817e-38 298 304
-0.027209979 0.73900002 -0.082925655 1.4284817e-38 299 304
-0.025914267 0.73900002 -0.082925655 1.4192617e-38 300 304
-0.024618553 0.73900002 -0.082925655 1.4285173e-38 301 304
-0.023322839 0.73900002 -0.082925655 1.4285536e-38 302 304
-0.022027127 0.73900002 -0.082925655 1.4285536e-38 303 304
-0.020731414 0.73900002 -0.082925655 1.428482e-38 304 304
-0.0194357 0.73900002 -0.082925655 1.4468851e-38 305 304
-0.018189078 0.741 -0.083150074 1.428482e-38 306 304
-0.016889861 0.741 -0.083150074 1.428482e-38 307 304
-0.01559064 0.741 -0.083150074 1.437592e-38 308 304
-0.01429142 0.741 -0.083150074 1.419117e-38 309 304
