# .PCD v.7 - Point Cloud Data file format
FIELDS x y z rgb imX imY
SIZE 4 4 4 4 4 4
TYPE F F F F F F
COUNT 1 1 1 1 1 1
WIDTH 831
HEIGHT 1
VIEWPOINT 0 0 0 1 0 0 0
POINTS 831
DATA ascii
-0.083523542 0.71100003 -0.029918881 1.4656842e-38 253 264
-0.082276918 0.71100003 -0.029918881 1.6499638e-38 254 264
-0.08091633 0.70999998 -0.029876797 1.6684028e-38 255 264
-0.079447038 0.708 -0.02979264 1.6959544e-38 256 264
-0.07809522 0.70700002 -0.029750559 1.7328325e-38 257 264
-0.076746903 0.70599997 -0.029708479 1.7603836e-38 258 264
-0.075295143 0.704 -0.029624319 1.7788228e-38 259 264
-0.07406079 0.704 -0.029624319 1.7881143e-38 260 264
-0.072723009 0.70300001 -0.029582238 1.8065893e-38 261 264
-0.071490414 0.70300001 -0.029582238 1.8250286e-38 262 264
-0.070057929 0.70099998 -0.029498078 1.8434317e-38 263 264
-0.068730667 0.69999999 -0.029455997 1.8617992e-38 264 264
-0.06731046 0.69800001 -0.029371841 1.8617992e-38 265 264
-0.065897278 0.69599998 -0.029287677 1.8893505e-38 266 264
-0.064398177 0.69300002 -0.029161438 1.8985701e-38 267 264
-0.063183114 0.69300002 -0.029161438 1.898642e-38 268 264
-0.061968062 0.69300002 -0.029161438 1.9078617e-38 269 264
-0.060840666 0.69400001 -0.029203519 1.9078614e-38 270 264
-0.05953794 0.69300002 -0.029161438 1.9078614e-38 271 264
-0.058322877 0.69300002 -0.029161438 1.907825e-38 272 264
-0.057107817 0.69300002 -0.029161438 1.8986054e-38 273 264
-0.055973411 0.69400001 -0.029203519 1.9169714e-38 274 264
-0.054756597 0.69400001 -0.029203519 1.9077518e-38 275 264
-0.053848371 0.69800001 -0.029371841 1.8801289e-38 276 264
-0.052624546 0.69800001 -0.029371841 1.8709093e-38 277 264
-0.051547997 0.69999999 -0.029455997 1.8433231e-38 278 264
-0.050176892 0.69800001 -0.029371841 1.8341035e-38 279 264
-0.048602402 0.69300002 -0.029161438 1.8156656e-38 280 264
-0.047250576 0.69099998 -0.029077278 1.8156656e-38 281 264
-0.046039023 0.69099998 -0.029077278 1.7696086e-38 282 264
-0.044827472 0.69099998 -0.029077278 1.8065229e-38 283 264
-0.085653841 0.708 -0.031034 1.4566884e-38 251 265
-0.083406061 0.70999998 -0.031121666 1.44721e-38 253 265
-0.082161188 0.70999998 -0.031121666 1.6130504e-38 254 265
-0.080688395 0.708 -0.031034 1.6499287e-38 255 265
-0.079222605 0.70599997 -0.030946331 1.7143931e-38 256 265
-0.07798475 0.70599997 -0.030946331 1.7143931e-38 257 265
-0.076529488 0.704 -0.030858666 1.7327957e-38 258 265
-0.07518819 0.70300001 -0.030814834 1.7604183e-38 259 265
-0.073745191 0.70099998 -0.030727165 1.7605269e-38 260 265
-0.072516106 0.70099998 -0.030727165 1.7881496e-38 261 265
-0.071185328 0.69999999 -0.030683333 1.8340682e-38 262 265
-0.069957994 0.69999999 -0.030683333 1.8432878e-38 263 265
-0.068534292 0.69800001 -0.030595668 1.8616913e-38 264 265
-0.066924736 0.69400001 -0.030420333 1.8709109e-38 265 265
-0.065707922 0.69400001 -0.030420333 1.8800951e-38 266 265
-0.064398177 0.69300002 -0.0303765 1.8893505e-38 267 265
-0.063183114 0.69300002 -0.0303765 1.8985701e-38 268 265
-0.061789215 0.69099998 -0.030288832 1.8985701e-38 269 265
-0.060577665 0.69099998 -0.030288832 1.8986417e-38 270 265
-0.059366114 0.69099998 -0.030288832 1.8986417e-38 271 265
-0.058154557 0.69099998 -0.030288832 1.9077894e-38 272 265
-0.0568606 0.69 -0.030244999 1.9077894e-38 273 265
-0.055489492 0.68800002 -0.030157333 1.8986051e-38 274 265
-0.054283202 0.68800002 -0.030157333 1.8986051e-38 275 265
-0.053539783 0.69400001 -0.030420333 1.8893853e-38 276 265
-0.052322973 0.69400001 -0.030420333 1.8801657e-38 277 265
-0.051106159 0.69400001 -0.030420333 1.8617266e-38 278 265
-0.049817458 0.69300002 -0.0303765 1.8433234e-38 279 265
-0.048602402 0.69300002 -0.0303765 1.8066612e-38 280 265
-0.047182199 0.69 -0.030244999 1.7974057e-38 281 265
-0.045972396 0.69 -0.030244999 1.7697499e-38 282 265
-0.0447626 0.69 -0.030244999 1.7974087e-38 283 265
-0.043552797 0.69 -0.030244999 1.7606437e-38 284 265
-0.042342998 0.69 -0.030244999 1.797486e-38 285 265
-0.085653841 0.708 -0.03227536 1.4936027e-38 251 266
-0.084412478 0.708 -0.03227536 1.4194803e-38 252 266
-0.083053641 0.70700002 -0.032229774 1.4840173e-38 253 266
-0.081698313 0.70599997 -0.032184184 1.5394029e-38 254 266
-0.080460466 0.70599997 -0.032184184 1.5855007e-38 255 266
-0.078998186 0.704 -0.032093015 1.649929e-38 256 266
-0.077763841 0.704 -0.032093015 1.6960268e-38 257 266
-0.076420791 0.70300001 -0.032047424 1.7052461e-38 258 266
-0.074974284 0.70099998 -0.031956252 1.7144657e-38 259 266
-0.073639996 0.69999999 -0.031910665 1.7420886e-38 260 266
-0.072205767 0.69800001 -0.031819493 1.7513083e-38 261 266
-0.07098195 0.69800001 -0.031819493 1.788079e-38 262 266
-0.069658175 0.69700003 -0.03177391 1.806554e-38 263 266
-0.068141542 0.69400001 -0.031637147 1.8340696e-38 264 266
-0.066828303 0.69300002 -0.031591557 1.8525446e-38 265 266
-0.06561324 0.69300002 -0.031591557 1.8617291e-38 266 266
-0.06421233 0.69099998 -0.031500384 1.8801322e-38 267 266
-0.063000768 0.69099998 -0.031500384 1.8618007e-38 268 266
-0.061699796 0.69 -0.031454802 1.8618007e-38 269 266
-0.060489997 0.69 -0.031454802 1.8986068e-38 270 266
-0.059280202 0.69 -0.031454802 1.8986068e-38 271 266
-0.057902083 0.68800002 -0.031363625 1.8894224e-38 272 266
-0.056695789 0.68800002 -0.031363625 1.898642e-38 273 266
-0.055408835 0.68699998 -0.031318039 1.8986767e-38 274 266
-0.053967599 0.68400002 -0.03118128 1.8894572e-38 275 266
-0.05276832 0.68400002 -0.03118128 1.9169351e-38 276 266
-0.051569041 0.68400002 -0.03118128 1.9077155e-38 277 266
-0.050369758 0.68400002 -0.03118128 1.8984957e-38 278 266
-0.049170479 0.68400002 -0.03118128 1.8892761e-38 279 266
-0.048391998 0.69 -0.031454802 1.861726e-38 280 266
-0.047045439 0.68800002 -0.031363625 1.8433228e-38 281 266
-0.045839146 0.68800002 -0.031363625 1.8248849e-38 282 266
-0.0447626 0.69 -0.031454802 1.8156654e-38 283 266
-0.043426562 0.68800002 -0.031363625 1.7788619e-38 284 266
-0.042220265 0.68800002 -0.031363625 1.8065206e-38 285 266
-0.041013971 0.68800002 -0.031363625 1.7699005e-38 286 266
-0.084412478 0.708 -0.033516716 1.4286653e-38 252 267
-0.083053641 0.70700002 -0.033469379 1.4194097e-38 253 267
-0.081698313 0.70599997 -0.033422034 1.4933422e-38 254 267
-0.080460466 0.70599997 -0.033422034 1.5210369e-38 255 267
-0.078998186 0.704 -0.03332736 1.5946133e-38 256 267
-0.077653378 0.70300001 -0.033280019 1.640711e-38 257 267
-0.076203369 0.70099998 -0.03318534 1.695955e-38 258 267
-0.07486733 0.69999999 -0.033137999 1.7143581e-38 259 267
-0.073429599 0.69800001 -0.033043321 1.751199e-38 260 267
-0.072102323 0.69700003 -0.03299598 1.751199e-38 261 267
-0.07057517 0.69400001 -0.032853961 1.7971174e-38 262 267
-0.069258414 0.69300002 -0.03280662 1.8155566e-38 263 267
-0.068043359 0.69300002 -0.03280662 1.824813e-38 264 267
-0.06663543 0.69099998 -0.032711938 1.843288e-38 265 267
-0.065423876 0.69099998 -0.032711938 1.8433248e-38 266 267
-0.064119399 0.69 -0.032664597 1.8617639e-38 267 267
-0.062909603 0.69 -0.032664597 1.8984619e-38 268 267
-0.06152096 0.68800002 -0.032569919 1.8984619e-38 269 267
-0.060314666 0.68800002 -0.032569919 1.8894219e-38 270 267
-0.059022456 0.68699998 -0.032522578 1.8802023e-38 271 267
-0.057817914 0.68699998 -0.032522578 1.8894219e-38 272 267
-0.056613375 0.68699998 -0.032522578 1.8894219e-38 273 267
-0.055328183 0.68599999 -0.032475237 1.898677e-38 274 267
-0.053888701 0.68300003 -0.032333218 1.898677e-38 275 267
-0.052691177 0.68300003 -0.032333218 1.9078247e-38 276 267
-0.051493648 0.68300003 -0.032333218 1.8893856e-38 277 267
-0.05029612 0.68300003 -0.032333218 1.8802379e-38 278 267
-0.049098592 0.68300003 -0.032333218 1.8617989e-38 279 267
-0.047901068 0.68300003 -0.032333218 1.83432e-38 280 267
-0.046771921 0.68400002 -0.032380559 1.8251004e-38 281 267
-0.045572639 0.68400002 -0.032380559 1.8250288e-38 282 267
-0.04437336 0.68400002 -0.032380559 1.8157733e-38 283 267
-0.043300316 0.68599999 -0.032475237 1.797371e-38 284 267
-0.041974798 0.68400002 -0.032380559 1.797371e-38 285 267
-0.040775519 0.68400002 -0.032380559 1.7606046e-38 286 267
-0.085532859 0.70700002 -0.034708988 1.594875e-38 251 268
-0.084293254 0.70700002 -0.034708988 1.4656157e-38 252 268
-0.082936168 0.70599997 -0.034659892 1.4010789e-38 253 268
-0.081698313 0.70599997 -0.034659892 1.4747959e-38 254 268
-0.080232531 0.704 -0.034561705 1.4747959e-38 255 268
-0.078885972 0.70300001 -0.034512613 1.5024902e-38 256 268
-0.077432454 0.70099998 -0.034414422 1.5670271e-38 257 268
-0.076094657 0.69999999 -0.034365334 1.6499659e-38 258 268
-0.074653424 0.69800001 -0.034267146 1.6776247e-38 259 268
-0.073429599 0.69800001 -0.034267146 1.7052461e-38 260 268
-0.071791984 0.69400001 -0.034070771 1.7144657e-38 261 268
-0.070473477 0.69300002 -0.034021679 1.7604919e-38 262 268
-0.069058537 0.69099998 -0.033923492 1.778895e-38 263 268
-0.067846984 0.69099998 -0.033923492 1.7789679e-38 264 268
-0.066538997 0.69 -0.0338744 1.8065907e-38 265 268
-0.065329194 0.69 -0.0338744 1.8157387e-38 266 268
-0.064119399 0.69 -0.0338744 1.8433613e-38 267 268
-0.06272725 0.68800002 -0.033776212 1.8433969e-38 268 268
-0.061431535 0.68699998 -0.033727121 1.8526165e-38 269 268
-0.060226995 0.68699998 -0.033727121 1.8618714e-38 270 268
-0.058936544 0.68599999 -0.033678025 1.8618714e-38 271 268
-0.057733759 0.68599999 -0.033678025 1.8618711e-38 272 268
-0.056530971 0.68599999 -0.033678025 1.8618711e-38 273 268
-0.055086225 0.68300003 -0.033530746 1.8710906e-38 274 268
-0.053809796 0.68199998 -0.03348165 1.8710906e-38 275 268
-0.052614026 0.68199998 -0.03348165 1.8986051e-38 276 268
-0.051418249 0.68199998 -0.03348165 1.8986051e-38 277 268
-0.050222475 0.68199998 -0.03348165 1.8894928e-38 278 268
-0.048882935 0.68000001 -0.033383466 1.8894928e-38 279 268
-0.047690667 0.68000001 -0.033383466 1.8619064e-38 280 268
-0.046635158 0.68199998 -0.03348165 1.8619064e-38 281 268
-0.045439381 0.68199998 -0.03348165 1.8801657e-38 282 268
-0.044243611 0.68199998 -0.03348165 1.8709462e-38 283 268
-0.043110959 0.68300003 -0.033530746 1.8433245e-38 284 268
-0.041913435 0.68300003 -0.033530746 1.8341048e-38 285 268
-0.040715907 0.68300003 -0.033530746 1.7697127e-38 286 268
-0.039518382 0.68300003 -0.033530746 1.7604932e-38 287 268
-0.085411869 0.70599997 -0.035897743 1.6133862e-38 251 269
-0.084174022 0.70599997 -0.035897743 1.5024583e-38 252 269
-0.082936168 0.70599997 -0.035897743 1.4102987e-38 253 269
-0.081466876 0.704 -0.035796054 1.474724e-38 254 269
-0.080118567 0.70300001 -0.035745207 1.4378097e-38 255 269
-0.078661539 0.70099998 -0.035643511 1.373488e-38 256 269
-0.077321991 0.69999999 -0.035592664 1.4841226e-38 257 269
-0.076094657 0.69999999 -0.035592664 1.5947558e-38 258 269
-0.074653424 0.69800001 -0.035490975 1.6592928e-38 259 269
-0.073324397 0.69700003 -0.035440128 1.7143934e-38 260 269
-0.071791984 0.69400001 -0.035287585 1.7328325e-38 261 269
-0.070473477 0.69300002 -0.035236739 1.7603833e-38 262 269
-0.069058537 0.69099998 -0.035135046 1.7788584e-38 263 269
-0.067846984 0.69099998 -0.035135046 1.7788597e-38 264 269
-0.066538997 0.69 -0.035084199 1.7972988e-38 265 269
-0.065139838 0.68800002 -0.03498251 1.8248502e-38 266 269
-0.063933544 0.68800002 -0.03498251 1.8340699e-38 267 269
-0.06272725 0.68800002 -0.03498251 1.8157387e-38 268 269
-0.061342116 0.68599999 -0.034880809 1.8433613e-38 269 269
-0.060139328 0.68599999 -0.034880809 1.8433964e-38 270 269
-0.058764715 0.68400002 -0.03477912 1.8433964e-38 271 269
-0.057565439 0.68400002 -0.03477912 1.8526149e-38 272 269
-0.056283753 0.68300003 -0.034728274 1.8526149e-38 273 269
-0.055086225 0.68300003 -0.034728274 1.8618708e-38 274 269
-0.053809796 0.68199998 -0.034677424 1.8618708e-38 275 269
-0.052614026 0.68199998 -0.034677424 1.88935e-38 276 269
-0.051418249 0.68199998 -0.034677424 1.8986054e-38 277 269
-0.050075196 0.68000001 -0.034575731 1.8802026e-38 278 269
-0.048882935 0.68000001 -0.034575731 1.8986417e-38 279 269
-0.047690667 0.68000001 -0.034575731 1.8527597e-38 280 269
-0.046430022 0.67900002 -0.034524884 1.8527597e-38 281 269
-0.045239504 0.67900002 -0.034524884 1.8894219e-38 282 269
-0.044048995 0.67900002 -0.034524884 1.8802023e-38 283 269
-0.042858478 0.67900002 -0.034524884 1.8525796e-38 284 269
-0.041729335 0.68000001 -0.034575731 1.8525796e-38 285 269
-0.040656291 0.68199998 -0.034677424 1.8249932e-38 286 269
-0.039460517 0.68199998 -0.034677424 1.8157735e-38 287 269
-0.085411869 0.70599997 -0.037135597 1.5950917e-38 251 270
-0.084174022 0.70599997 -0.037135597 1.5025309e-38 252 270
-0.082701221 0.704 -0.037030395 1.4195549e-38 253 270
-0.081351154 0.70300001 -0.036977798 1.4470298e-38 254 270
-0.079890631 0.70099998 -0.036872596 1.4101517e-38 255 270
-0.078549333 0.69999999 -0.036819998 1.3365377e-38 256 270
-0.077321991 0.69999999 -0.036819998 1.4287334e-38 257 270
-0.075768545 0.69700003 -0.036662199 1.5302915e-38 258 270
-0.074439511 0.69599998 -0.036609598 1.6224511e-38 259 270
-0.073008798 0.69400001 -0.036504399 1.7235057e-38 260 270
-0.071481638 0.69099998 -0.036346599 1.7235057e-38 261 270
-0.070168398 0.69 -0.036293998 1.7328325e-38 262 270
-0.068958595 0.69 -0.036293998 1.7420521e-38 263 270
-0.067552425 0.68800002 -0.0361888 1.7512366e-38 264 270
-0.066249698 0.68699998 -0.036136195 1.7788594e-38 265 270
-0.065045156 0.68699998 -0.036136195 1.7972275e-38 266 270
-0.063747689 0.68599999 -0.036083598 1.8156306e-38 267 270
-0.062544905 0.68599999 -0.036083598 1.8248502e-38 268 270
-0.061163284 0.68400002 -0.035978399 1.8340699e-38 269 270
-0.059876334 0.68300003 -0.035925802 1.8249932e-38 270 270
-0.05867881 0.68300003 -0.035925802 1.8249932e-38 271 270
-0.057481278 0.68300003 -0.035925802 1.8250283e-38 272 270
-0.056201346 0.68199998 -0.035873197 1.8250283e-38 273 270
-0.055005573 0.68199998 -0.035873197 1.8526512e-38 274 270
-0.053652 0.68000001 -0.035767999 1.8526512e-38 275 270
-0.052382588 0.67900002 -0.035715401 1.8617995e-38 276 270
-0.051192071 0.67900002 -0.035715401 1.8802026e-38 277 270
-0.050001562 0.67900002 -0.035715401 1.8893503e-38 278 270
-0.048739154 0.67799997 -0.0356628 1.9077894e-38 279 270
-0.047550395 0.67799997 -0.0356628 1.8986417e-38 280 270
-0.046361636 0.67799997 -0.0356628 1.8986417e-38 281 270
-0.045172878 0.67799997 -0.0356628 1.898677e-38 282 270
-0.043984115 0.67799997 -0.0356628 1.898677e-38 283 270
-0.042795356 0.67799997 -0.0356628 1.88935e-38 284 270
-0.041667968 0.67900002 -0.035715401 1.8986054e-38 285 270
-0.040477451 0.67900002 -0.035715401 1.8618714e-38 286 270
-0.039286941 0.67900002 -0.035715401 1.8433964e-38 287 270
-0.085411869 0.70599997 -0.038373452 1.6134232e-38 251 271
-0.084174022 0.70599997 -0.038373452 1.4842367e-38 252 271
-0.082701221 0.704 -0.038264744 1.4104801e-38 253 271
-0.081351154 0.70300001 -0.038210396 1.437775e-38 254 271
-0.079890631 0.70099998 -0.038101684 1.4008969e-38 255 271
-0.078549333 0.69999999 -0.038047329 1.327211e-38 256 271
-0.077101074 0.69800001 -0.037938625 1.4009675e-38 257 271
-0.075768545 0.69700003 -0.037884273 1.520929e-38 258 271
-0.074225612 0.69400001 -0.037721213 1.5946855e-38 259 271
-0.072693199 0.69099998 -0.03755815 1.6867717e-38 260 271
-0.071378194 0.69 -0.037503798 1.6867717e-38 261 271
-0.06996502 0.68800002 -0.037395094 1.7236127e-38 262 271
-0.068658777 0.68699998 -0.037340738 1.7420518e-38 263 271
-0.067454241 0.68699998 -0.037340738 1.7512366e-38 264 271
-0.066153266 0.68599999 -0.037286382 1.7604563e-38 265 271
-0.064950474 0.68599999 -0.037286382 1.7879721e-38 266 271
-0.063561834 0.68400002 -0.037177678 1.7879721e-38 267 271
-0.06227139 0.68300003 -0.037123326 1.7880442e-38 268 271
-0.061073858 0.68300003 -0.037123326 1.7972638e-38 269 271
-0.059788663 0.68199998 -0.037068974 1.7973707e-38 270 271
-0.058592889 0.68199998 -0.037068974 1.8065903e-38 271 271
-0.057228796 0.68000001 -0.036960267 1.8066256e-38 272 271
-0.056036532 0.68000001 -0.036960267 1.8066256e-38 273 271
-0.054844268 0.68000001 -0.036960267 1.8158456e-38 274 271
-0.053573098 0.67900002 -0.036905911 1.8158456e-38 275 271
-0.052305438 0.67799997 -0.036851559 1.8433969e-38 276 271
-0.051116679 0.67799997 -0.036851559 1.8526165e-38 277 271
-0.049927916 0.67799997 -0.036851559 1.8801676e-38 278 271
-0.048739154 0.67799997 -0.036851559 1.8893871e-38 279 271
-0.047550395 0.67799997 -0.036851559 1.8710559e-38 280 271
-0.046224877 0.676 -0.036742851 1.8710559e-38 281 271
-0.045039624 0.676 -0.036742851 1.8803108e-38 282 271
-0.043854371 0.676 -0.036742851 1.8803108e-38 283 271
-0.042669121 0.676 -0.036742851 1.8894221e-38 284 271
-0.041483864 0.676 -0.036742851 1.8894221e-38 285 271
-0.040298611 0.676 -0.036742851 1.8894219e-38 286 271
-0.039055496 0.67500001 -0.036688499 1.8802023e-38 287 271
-0.037815895 0.67400002 -0.036634147 1.8709459e-38 288 271
-0.036634147 0.67400002 -0.036634147 1.8709459e-38 289 271
-0.035452399 0.67400002 -0.036634147 1.8341401e-38 290 271
-0.034270655 0.67400002 -0.036634147 1.815701e-38 291 271
-0.033088908 0.67400002 -0.036634147 1.7696777e-38 292 271
-0.03190716 0.67400002 -0.036634147 1.7788973e-38 293 271
-0.084174022 0.70599997 -0.039611302 1.4567225e-38 252 272
-0.082701221 0.704 -0.039499093 1.4106247e-38 253 272
-0.081351154 0.70300001 -0.039442986 1.4562508e-38 254 272
-0.079890631 0.70099998 -0.039330769 1.3733108e-38 255 272
-0.078549333 0.69999999 -0.039274666 1.3087714e-38 256 272
-0.077101074 0.69800001 -0.039162453 1.3825279e-38 257 272
-0.075768545 0.69700003 -0.039106347 1.5023454e-38 258 272
-0.074225612 0.69400001 -0.038938027 1.5484432e-38 259 272
-0.072693199 0.69099998 -0.038769703 1.5856442e-38 260 272
-0.071171306 0.68800002 -0.038601387 1.6317061e-38 261 272
-0.06996502 0.68800002 -0.038601387 1.7143209e-38 262 272
-0.068658777 0.68699998 -0.038545277 1.7327959e-38 263 272
-0.06735605 0.68599999 -0.03848917 1.760347e-38 264 272
-0.0659604 0.68400002 -0.038376961 1.7787861e-38 265 272
-0.064761117 0.68400002 -0.038376961 1.7970823e-38 266 272
-0.063468911 0.68300003 -0.038320854 1.806302e-38 267 272
-0.06227139 0.68300003 -0.038320854 1.7971546e-38 268 272
-0.060984433 0.68199998 -0.038264744 1.8155938e-38 269 272
-0.059788663 0.68199998 -0.038264744 1.788079e-38 270 272
-0.058421064 0.68000001 -0.038152531 1.7973344e-38 271 272
-0.057228796 0.68000001 -0.038152531 1.7973344e-38 272 272
-0.055954125 0.67900002 -0.038096428 1.7973344e-38 273 272
-0.054763615 0.67900002 -0.038096428 1.8248852e-38 274 272
-0.053494196 0.67799997 -0.038040318 1.8341048e-38 275 272
-0.052305438 0.67799997 -0.038040318 1.843325e-38 276 272
-0.051116679 0.67799997 -0.038040318 1.8525446e-38 277 272
-0.049927916 0.67799997 -0.038040318 1.8708761e-38 278 272
-0.048595384 0.676 -0.037928104 1.8800957e-38 279 272
-0.047410134 0.676 -0.037928104 1.8800954e-38 280 272
-0.046224877 0.676 -0.037928104 1.8893149e-38 281 272
-0.045039624 0.676 -0.037928104 1.8893503e-38 282 272
-0.043789499 0.67500001 -0.037871998 1.8985698e-38 283 272
-0.042606 0.67500001 -0.037871998 1.8894219e-38 284 272
-0.041422497 0.67500001 -0.037871998 1.8986773e-38 285 272
-0.040179387 0.67400002 -0.037815895 1.9078614e-38 286 272
-0.038997639 0.67400002 -0.037815895 1.8986417e-38 287 272
-0.037703678 0.67199999 -0.037703678 1.8894219e-38 288 272
-0.036525436 0.67199999 -0.037703678 1.8894219e-38 289 272
-0.0352946 0.671 -0.037647571 1.8986051e-38 290 272
-0.034118112 0.671 -0.037647571 1.880166e-38 291 272
-0.03299072 0.67199999 -0.037703678 1.7974788e-38 292 272
-0.031812478 0.67199999 -0.037703678 1.788259e-38 293 272
-0.030588651 0.671 -0.037647571 1.7697145e-38 294 272
-0.029412165 0.671 -0.037647571 1.7697145e-38 295 272
-0.082583755 0.70300001 -0.040675577 1.4474319e-38 253 273
-0.081119716 0.70099998 -0.040559858 1.4838382e-38 254 273
-0.079776667 0.69999999 -0.040502001 1.4377043e-38 255 273
-0.078324907 0.69800001 -0.040386278 1.4100424e-38 256 273
-0.076990619 0.69700003 -0.040328421 1.4468848e-38 257 273
-0.075659841 0.69599998 -0.040270556 1.4562829e-38 258 273
-0.074225612 0.69400001 -0.040154841 1.4931611e-38 259 273
-0.072693199 0.69099998 -0.039981257 1.5302186e-38 260 273
-0.071171306 0.68800002 -0.039807681 1.585536e-38 261 273
-0.069863312 0.68699998 -0.039749816 1.6592205e-38 262 273
-0.068658777 0.68699998 -0.039749816 1.7053183e-38 263 273
-0.06735605 0.68599999 -0.039691959 1.7695315e-38 264 273
-0.0659604 0.68400002 -0.03957624 1.7787511e-38 265 273
-0.064666435 0.68300003 -0.039518382 1.7420524e-38 266 273
-0.063468911 0.68300003 -0.039518382 1.7512719e-38 267 273
-0.06227139 0.68300003 -0.039518382 1.751237e-38 268 273
-0.060984433 0.68199998 -0.039460517 1.7604566e-38 269 273
-0.059613332 0.68000001 -0.039344799 1.7604932e-38 270 273
-0.058335152 0.67900002 -0.039286941 1.7697127e-38 271 273
-0.057060476 0.67799997 -0.039229076 1.760565e-38 272 273
-0.055706903 0.676 -0.039113361 1.760565e-38 273 273
-0.054521654 0.676 -0.039113361 1.7972991e-38 274 273
-0.053336397 0.676 -0.039113361 1.8065187e-38 275 273
-0.052151144 0.676 -0.039113361 1.806591e-38 276 273
-0.050965894 0.676 -0.039113361 1.8158105e-38 277 273
-0.049706999 0.67500001 -0.039055496 1.8249229e-38 278 273
-0.048523501 0.67500001 -0.039055496 1.843326e-38 279 273
-0.047410134 0.676 -0.039113361 1.8525096e-38 280 273
-0.0461565 0.67500001 -0.039055496 1.8617291e-38 281 273
-0.044972997 0.67500001 -0.039055496 1.8525809e-38 282 273
-0.043594878 0.67199999 -0.03888192 1.8618005e-38 283 273
-0.042416636 0.67199999 -0.03888192 1.8435048e-38 284 273
-0.041238401 0.67199999 -0.03888192 1.8527244e-38 285 273
-0.040060159 0.67199999 -0.03888192 1.8986064e-38 286 273
-0.038824059 0.671 -0.038824059 1.8986064e-38 287 273
-0.037647571 0.671 -0.038824059 1.8894221e-38 288 273
-0.036471087 0.671 -0.038824059 1.8986417e-38 289 273
-0.035241999 0.67000002 -0.038766202 1.8894928e-38 290 273
-0.034067266 0.67000002 -0.038766202 1.8802373e-38 291 273
-0.032892533 0.67000002 -0.038766202 1.8801654e-38 292 273
-0.031765141 0.671 -0.038824059 1.8709459e-38 293 273
-0.030588651 0.671 -0.038824059 1.8433601e-38 294 273
-0.029412165 0.671 -0.038824059 1.8248849e-38 295 273
-0.028235679 0.671 -0.038824059 1.769748e-38 296 273
-0.082583755 0.70300001 -0.041908171 1.4198458e-38 253 274
-0.081119716 0.70099998 -0.041788943 1.4839103e-38 254 274
-0.079776667 0.69999999 -0.041729331 1.4193734e-38 255 274
-0.078324907 0.69800001 -0.041610107 1.4193337e-38 256 274
-0.076990619 0.69700003 -0.041550495 1.4285533e-38 257 274
-0.075659841 0.69599998 -0.041490879 1.4562832e-38 258 274
-0.074225612 0.69400001 -0.041371655 1.4746863e-38 259 274
-0.072693199 0.69099998 -0.041192811 1.4840858e-38 260 274
-0.071171306 0.68800002 -0.041013971 1.5301836e-38 261 274
-0.069863312 0.68699998 -0.040954359 1.585501e-38 262 274
-0.068558842 0.68599999 -0.040894743 1.6500379e-38 263 274
-0.067159683 0.68400002 -0.040775519 1.7143225e-38 264 274
-0.065863967 0.68300003 -0.040715907 1.7235779e-38 265 274
-0.064666435 0.68300003 -0.040715907 1.732725e-38 266 274
-0.063375987 0.68199998 -0.040656291 1.751164e-38 267 274
-0.062180214 0.68199998 -0.040656291 1.7511284e-38 268 274
-0.060626756 0.67799997 -0.040417835 1.760348e-38 269 274
-0.059437994 0.67799997 -0.040417835 1.751237e-38 270 274
-0.058249239 0.67799997 -0.040417835 1.751237e-38 271 274
-0.056892153 0.676 -0.040298611 1.7787878e-38 272 274
-0.055706903 0.676 -0.040298611 1.7787878e-38 273 274
-0.054521654 0.676 -0.040298611 1.788079e-38 274 274
-0.053336397 0.676 -0.040298611 1.7973344e-38 275 274
-0.052151144 0.676 -0.040298611 1.8065184e-38 276 274
-0.050965894 0.676 -0.040298611 1.8157738e-38 277 274
-0.049706999 0.67500001 -0.040238999 1.8340696e-38 278 274
-0.048523501 0.67500001 -0.040238999 1.843325e-38 279 274
-0.047339998 0.67500001 -0.040238999 1.834105e-38 280 274
-0.0461565 0.67500001 -0.040238999 1.8525443e-38 281 274
-0.044906374 0.67400002 -0.040179387 1.852544e-38 282 274
-0.043594878 0.67199999 -0.040060159 1.8617995e-38 283 274
-0.042353518 0.671 -0.040000543 1.8617992e-38 284 274
-0.041177034 0.671 -0.040000543 1.8617992e-38 285 274
-0.039940935 0.67000002 -0.039940935 1.8893503e-38 286 274
-0.038650475 0.66799998 -0.039821707 1.8985698e-38 287 274
-0.037479252 0.66799998 -0.039821707 1.8893868e-38 288 274
-0.036253672 0.667 -0.039762091 1.8893868e-38 289 274
-0.035084199 0.667 -0.039762091 1.8893871e-38 290 274
-0.033914726 0.667 -0.039762091 1.8986068e-38 291 274
-0.032745253 0.667 -0.039762091 1.8711275e-38 292 274
-0.03157578 0.667 -0.039762091 1.8527244e-38 293 274
-0.030543067 0.67000002 -0.039940935 1.8985345e-38 294 274
-0.029368332 0.67000002 -0.039940935 1.8893149e-38 295 274
-0.028193599 0.67000002 -0.039940935 1.825102e-38 296 274
-0.080772556 0.69800001 -0.042833932 1.4563961e-38 254 275
-0.079548739 0.69800001 -0.042833932 1.419518e-38 255 275
-0.078212693 0.69700003 -0.042772565 1.4470646e-38 256 275
-0.076990619 0.69700003 -0.042772565 1.4470646e-38 257 275
-0.075768545 0.69700003 -0.042772565 1.4287687e-38 258 275
-0.074225612 0.69400001 -0.042588469 1.4563915e-38 259 275
-0.072587997 0.69 -0.042342998 1.4930902e-38 260 275
-0.071171306 0.68800002 -0.042220265 1.5115652e-38 261 275
-0.069761619 0.68599999 -0.042097531 1.5209284e-38 262 275
-0.068358958 0.68400002 -0.041974798 1.5854654e-38 263 275
-0.067159683 0.68400002 -0.041974798 1.6498584e-38 264 275
-0.065863967 0.68300003 -0.041913435 1.6867367e-38 265 275
-0.064666435 0.68300003 -0.041913435 1.6959559e-38 266 275
-0.063375987 0.68199998 -0.041852064 1.6959559e-38 267 275
-0.061997864 0.68000001 -0.041729335 1.7235426e-38 268 275
-0.060626756 0.67799997 -0.041606598 1.7327622e-38 269 275
-0.059437994 0.67799997 -0.041606598 1.7327985e-38 270 275
-0.058077414 0.676 -0.041483864 1.7143953e-38 271 275
-0.056892153 0.676 -0.041483864 1.7327622e-38 272 275
-0.0556245 0.67500001 -0.041422497 1.7419817e-38 273 275
-0.054441001 0.67500001 -0.041422497 1.7420538e-38 274 275
-0.053257499 0.67500001 -0.041422497 1.7512733e-38 275 275
-0.052074 0.67500001 -0.041422497 1.7604934e-38 276 275
-0.050890498 0.67500001 -0.041422497 1.769713e-38 277 275
-0.049633358 0.67400002 -0.041361131 1.7972641e-38 278 275
-0.04830784 0.67199999 -0.041238401 1.8064836e-38 279 275
-0.047129598 0.67199999 -0.041238401 1.8064834e-38 280 275
-0.045951359 0.67199999 -0.041238401 1.8064834e-38 281 275
-0.044773117 0.67199999 -0.041238401 1.806591e-38 282 275
-0.043530006 0.671 -0.041177034 1.806591e-38 283 275
-0.042290401 0.67000002 -0.041115668 1.8249582e-38 284 275
-0.040992931 0.66799998 -0.040992931 1.8433613e-38 285 275
-0.039762091 0.667 -0.040931564 1.8525809e-38 286 275
-0.038592618 0.667 -0.040931564 1.8525809e-38 287 275
-0.037423145 0.667 -0.040931564 1.8618005e-38 288 275
-0.036253672 0.667 -0.040931564 1.8618005e-38 289 275
-0.035084199 0.667 -0.040931564 1.8710923e-38 290 275
-0.033914726 0.667 -0.040931564 1.8710923e-38 291 275
-0.032745253 0.667 -0.040931564 1.8802756e-38 292 275
-0.03157578 0.667 -0.040931564 1.8710559e-38 293 275
-0.030406304 0.667 -0.040931564 1.8893868e-38 294 275
-0.029236831 0.667 -0.040931564 1.8801673e-38 295 275
-0.028109439 0.66799998 -0.040992931 1.8618358e-38 296 275
-0.024264378 0.65899998 -0.04044063 1.8249932e-38 299 275
-0.023108931 0.65899998 -0.04044063 1.8157384e-38 300 275
-0.021953486 0.65899998 -0.04044063 1.7972991e-38 301 275
-0.020734919 0.65700001 -0.0403179 1.760495e-38 302 275
-0.019582979 0.65700001 -0.0403179 1.7697145e-38 303 275
-0.018487146 0.65899998 -0.04044063 1.7329844e-38 304 275
-0.017331699 0.65899998 -0.04044063 1.7883018e-38 305 275
-0.080772556 0.69800001 -0.04405776 1.4288466e-38 254 276
-0.079548739 0.69800001 -0.04405776 1.4104076e-38 255 276
-0.078212693 0.69700003 -0.043994639 1.419659e-38 256 276
-0.076880157 0.69599998 -0.043931518 1.4104035e-38 257 276
-0.075659841 0.69599998 -0.043931518 1.4563195e-38 258 276
-0.073904753 0.69099998 -0.043615919 1.4563195e-38 259 276
-0.072587997 0.69 -0.043552797 1.483834e-38 260 276
-0.071067855 0.68699998 -0.043363437 1.4930537e-38 261 276
-0.069761619 0.68599999 -0.043300316 1.4472798e-38 262 276
-0.068358958 0.68400002 -0.043174081 1.4933775e-38 263 276
-0.067061491 0.68300003 -0.043110959 1.5485511e-38 264 276
-0.065863967 0.68300003 -0.043110959 1.5853933e-38 265 276
-0.064571753 0.68199998 -0.043047838 1.6314909e-38 266 276
-0.063375987 0.68199998 -0.043047838 1.6407463e-38 267 276
-0.061997864 0.68000001 -0.042921599 1.695776e-38 268 276
-0.060626756 0.67799997 -0.042795356 1.7142512e-38 269 276
-0.059262663 0.676 -0.042669121 1.7143228e-38 270 276
-0.058077414 0.676 -0.042669121 1.7235423e-38 271 276
-0.056892153 0.676 -0.042669121 1.7235423e-38 272 276
-0.0556245 0.67500001 -0.042606 1.7327619e-38 273 276
-0.054360349 0.67400002 -0.042542879 1.7144309e-38 274 276
-0.053178601 0.67400002 -0.042542879 1.7328341e-38 275 276
-0.051842555 0.67199999 -0.042416636 1.7512017e-38 276 276
-0.050664317 0.67199999 -0.042416636 1.7604213e-38 277 276
-0.049486078 0.67199999 -0.042416636 1.7787881e-38 278 276
-0.048235953 0.671 -0.042353518 1.7880077e-38 279 276
-0.046989333 0.67000002 -0.042290401 1.7880077e-38 280 276
-0.0458146 0.67000002 -0.042290401 1.7972272e-38 281 276
-0.044706494 0.671 -0.042353518 1.7972991e-38 282 276
-0.043335386 0.66799998 -0.042164158 1.7972991e-38 283 276
-0.042101037 0.667 -0.042101037 1.8248499e-38 284 276
-0.040931564 0.667 -0.042101037 1.8340696e-38 285 276
-0.039762091 0.667 -0.042101037 1.8525446e-38 286 276
-0.038592618 0.667 -0.042101037 1.843325e-38 287 276
-0.037423145 0.667 -0.042101037 1.8433616e-38 288 276
-0.03619932 0.66600001 -0.042037919 1.8525812e-38 289 276
-0.035031598 0.66600001 -0.042037919 1.8434342e-38 290 276
-0.03386388 0.66600001 -0.042037919 1.8434342e-38 291 276
-0.032696161 0.66600001 -0.042037919 1.861766e-38 292 276
-0.031528439 0.66600001 -0.042037919 1.8709855e-38 293 276
-0.030360719 0.66600001 -0.042037919 1.8709855e-38 294 276
-0.029192999 0.66600001 -0.042037919 1.8709855e-38 295 276
-0.028067358 0.667 -0.042101037 1.8526893e-38 296 276
-0.026776904 0.66399997 -0.041911677 1.8526893e-38 297 276
-0.025574118 0.66299999 -0.041848559 1.8618005e-38 298 276
-0.024264378 0.65899998 -0.041596077 1.8618005e-38 299 276
-0.023108931 0.65899998 -0.041596077 1.8525809e-38 300 276
-0.021953486 0.65899998 -0.041596077 1.8525809e-38 301 276
-0.020734919 0.65700001 -0.041469838 1.8525459e-38 302 276
-0.019582979 0.65700001 -0.041469838 1.8433263e-38 303 276
-0.018487146 0.65899998 -0.041596077 1.7788988e-38 304 276
-0.0173843 0.66100001 -0.04172232 1.7696792e-38 305 276
-0.016225345 0.66100001 -0.04172232 1.7327676e-38 306 276
-0.080772556 0.69800001 -0.045281585 1.4012252e-38 254 277
-0.079548739 0.69800001 -0.045281585 1.4012252e-38 255 277
-0.078212693 0.69700003 -0.045216713 1.447211e-38 256 277
-0.076880157 0.69599998 -0.045151837 1.4379915e-38 257 277
-0.075659841 0.69599998 -0.045151837 1.4563565e-38 258 277
-0.0737978 0.69 -0.0447626 1.4563565e-38 259 277
-0.0723776 0.68800002 -0.044632856 1.4563197e-38 260 277
-0.071067855 0.68699998 -0.044567976 1.4563197e-38 261 277
-0.06955824 0.68400002 -0.04437336 1.4563197e-38 262 277
-0.068358958 0.68400002 -0.04437336 1.4839786e-38 263 277
-0.067061491 0.68300003 -0.044308487 1.4747943e-38 264 277
-0.065767527 0.68199998 -0.044243611 1.5116724e-38 265 277
-0.064571753 0.68199998 -0.044243611 1.5026328e-38 266 277
-0.063190132 0.68000001 -0.044113863 1.5486946e-38 267 277
-0.061906695 0.67900002 -0.044048995 1.6130525e-38 268 277
-0.060626756 0.67799997 -0.043984115 1.640711e-38 269 277
-0.059262663 0.676 -0.043854371 1.6591856e-38 270 277
-0.058077414 0.676 -0.043854371 1.6591856e-38 271 277
-0.056892153 0.676 -0.043854371 1.6959196e-38 272 277
-0.0556245 0.67500001 -0.043789499 1.6959196e-38 273 277
-0.054360349 0.67400002 -0.043724626 1.6959562e-38 274 277
-0.053178601 0.67400002 -0.043724626 1.7051758e-38 275 277
-0.051842555 0.67199999 -0.043594878 1.7143953e-38 276 277
-0.050664317 0.67199999 -0.043594878 1.7143953e-38 277 277
-0.049412437 0.671 -0.043530006 1.7327619e-38 278 277
-0.048235953 0.671 -0.043530006 1.7327619e-38 279 277
-0.046989333 0.67000002 -0.043465134 1.7327622e-38 280 277
-0.045677837 0.66799998 -0.043335386 1.7512014e-38 281 277
-0.044506609 0.66799998 -0.043335386 1.7604213e-38 282 277
-0.04327051 0.667 -0.04327051 1.7788244e-38 283 277
-0.042101037 0.667 -0.04327051 1.7971919e-38 284 277
-0.040931564 0.667 -0.04327051 1.7971919e-38 285 277
-0.039702479 0.66600001 -0.043205637 1.8248146e-38 286 277
-0.03853476 0.66600001 -0.043205637 1.8248146e-38 287 277
-0.037367038 0.66600001 -0.043205637 1.8157031e-38 288 277
-0.03619932 0.66600001 -0.043205637 1.8249585e-38 289 277
-0.035031598 0.66600001 -0.043205637 1.8433263e-38 290 277
-0.03386388 0.66600001 -0.043205637 1.8433263e-38 291 277
-0.032696161 0.66600001 -0.043205637 1.8524387e-38 292 277
-0.031528439 0.66600001 -0.043205637 1.8524387e-38 293 277
-0.030360719 0.66600001 -0.043205637 1.8616941e-38 294 277
-0.029192999 0.66600001 -0.043205637 1.8893168e-38 295 277
-0.028025279 0.66600001 -0.043205637 1.8618007e-38 296 277
-0.026736578 0.66299999 -0.043011017 1.8710203e-38 297 277
-0.025574118 0.66299999 -0.043011017 1.8710559e-38 298 277
-0.024374841 0.662 -0.042946145 1.8710559e-38 299 277
-0.023179067 0.66100001 -0.042881273 1.8710559e-38 300 277
-0.022020113 0.66100001 -0.042881273 1.8618005e-38 301 277
-0.02086116 0.66100001 -0.042881273 1.8434339e-38 302 277
-0.019702207 0.66100001 -0.042881273 1.8342144e-38 303 277
-0.018543253 0.66100001 -0.042881273 1.7974803e-38 304 277
-0.0173843 0.66100001 -0.042881273 1.7698576e-38 305 277
-0.016225345 0.66100001 -0.042881273 1.7513833e-38 306 277
-0.015089186 0.662 -0.042946145 1.7698226e-38 307 277
-0.079548739 0.69800001 -0.046505414 1.346089e-38 255 278
-0.078324907 0.69800001 -0.046505414 1.4012584e-38 256 278
-0.076990619 0.69700003 -0.046438783 1.4012584e-38 257 278
-0.075659841 0.69599998 -0.046372157 1.4472451e-38 258 278
-0.073583893 0.68800002 -0.045839146 1.4380255e-38 259 278
-0.0723776 0.68800002 -0.045839146 1.4563551e-38 260 278
-0.071067855 0.68699998 -0.045772515 1.4563551e-38 261 278
-0.06955824 0.68400002 -0.045572639 1.4379885e-38 262 278
-0.068259016 0.68300003 -0.045506012 1.4563918e-38 263 278
-0.067061491 0.68300003 -0.045506012 1.4379882e-38 264 278
-0.065767527 0.68199998 -0.045439381 1.4287687e-38 265 278
-0.064382397 0.68000001 -0.045306131 1.4380238e-38 266 278
-0.063190132 0.68000001 -0.045306131 1.4840858e-38 267 278
-0.061906695 0.67900002 -0.045239504 1.5302562e-38 268 278
-0.060626756 0.67799997 -0.045172878 1.576354e-38 269 278
-0.059262663 0.676 -0.045039624 1.6498587e-38 270 278
-0.057991501 0.67500001 -0.044972997 1.6498587e-38 271 278
-0.056723841 0.67400002 -0.044906374 1.640711e-38 272 278
-0.055542093 0.67400002 -0.044906374 1.640711e-38 273 278
-0.054199036 0.67199999 -0.044773117 1.659115e-38 274 278
-0.053020798 0.67199999 -0.044773117 1.6683345e-38 275 278
-0.051765412 0.671 -0.044706494 1.6959212e-38 276 278
-0.050588924 0.671 -0.044706494 1.6959212e-38 277 278
-0.049412437 0.671 -0.044706494 1.686666e-38 278 278
-0.048164066 0.67000002 -0.044639867 1.6958856e-38 279 278
-0.046849065 0.66799998 -0.044506609 1.6775546e-38 280 278
-0.045677837 0.66799998 -0.044506609 1.7051773e-38 281 278
-0.044439986 0.667 -0.044439986 1.7143603e-38 282 278
-0.04327051 0.667 -0.044439986 1.7419831e-38 283 278
-0.042101037 0.667 -0.044439986 1.7328715e-38 284 278
-0.040870197 0.66600001 -0.04437336 1.7328715e-38 285 278
-0.039702479 0.66600001 -0.04437336 1.7604225e-38 286 278
-0.03853476 0.66600001 -0.04437336 1.769678e-38 287 278
-0.037367038 0.66600001 -0.04437336 1.7972285e-38 288 278
-0.036090612 0.66399997 -0.044240102 1.806448e-38 289 278
-0.0349264 0.66399997 -0.044240102 1.8065206e-38 290 278
-0.033762183 0.66399997 -0.044240102 1.8065206e-38 291 278
-0.03259797 0.66399997 -0.044240102 1.8247798e-38 292 278
-0.031433757 0.66399997 -0.044240102 1.8339995e-38 293 278
-0.030269546 0.66399997 -0.044240102 1.8157036e-38 294 278
-0.02910533 0.66399997 -0.044240102 1.8433263e-38 295 278
-0.027941117 0.66399997 -0.044240102 1.8249595e-38 296 278
-0.026696252 0.662 -0.044106852 1.8342149e-38 297 278
-0.025535546 0.662 -0.044106852 1.8434345e-38 298 278
-0.02433802 0.66100001 -0.044040225 1.8434345e-38 299 278
-0.023179067 0.66100001 -0.044040225 1.8342868e-38 300 278
-0.022053426 0.662 -0.044106852 1.8250314e-38 301 278
-0.020798039 0.65899998 -0.043906972 1.8342149e-38 302 278
-0.019642593 0.65899998 -0.043906972 1.8342149e-38 303 278
-0.018487146 0.65899998 -0.043906972 1.8250667e-38 304 278
-0.017331699 0.65899998 -0.043906972 1.8066636e-38 305 278
-0.016176252 0.65899998 -0.043906972 1.7974809e-38 306 278
-0.015089186 0.662 -0.044106852 1.8067004e-38 307 278
-0.01392848 0.662 -0.044106852 1.7974099e-38 308 278
-0.012767773 0.662 -0.044106852 1.7605676e-38 309 278
-0.074790187 0.68800002 -0.047045439 1.4655057e-38 258 279
-0.073583893 0.68800002 -0.047045439 1.4562861e-38 259 279
-0.0723776 0.68800002 -0.047045439 1.4563565e-38 260 279
-0.071067855 0.68699998 -0.046977058 1.4563565e-38 261 279
-0.06955824 0.68400002 -0.046771921 1.4379885e-38 262 279
-0.068259016 0.68300003 -0.04670354 1.428769e-38 263 279
-0.0669633 0.68199998 -0.046635158 1.4471355e-38 264 279
-0.065767527 0.68199998 -0.046635158 1.4286605e-38 265 279
-0.064382397 0.68000001 -0.046498399 1.3919625e-38 266 279
-0.063190132 0.68000001 -0.046498399 1.4288406e-38 267 279
-0.061906695 0.67900002 -0.046430022 1.4472801e-38 268 279
-0.060626756 0.67799997 -0.046361636 1.5025975e-38 269 279
-0.059262663 0.676 -0.046224877 1.5853571e-38 270 279
-0.057991501 0.67500001 -0.0461565 1.6037602e-38 271 279
-0.056723841 0.67400002 -0.046088122 1.5854659e-38 272 279
-0.055377278 0.67199999 -0.045951359 1.6131246e-38 273 279
-0.054199036 0.67199999 -0.045951359 1.6406035e-38 274 279
-0.052941896 0.671 -0.045882981 1.649859e-38 275 279
-0.051765412 0.671 -0.045882981 1.6865562e-38 276 279
-0.050588924 0.671 -0.045882981 1.6865562e-38 277 279
-0.049338799 0.67000002 -0.0458146 1.6865562e-38 278 279
-0.048164066 0.67000002 -0.0458146 1.6958116e-38 279 279
-0.046849065 0.66799998 -0.045677837 1.6499303e-38 280 279
-0.045609459 0.667 -0.045609459 1.6684054e-38 281 279
-0.044439986 0.667 -0.045609459 1.7142156e-38 282 279
-0.043205637 0.66600001 -0.045541082 1.7326906e-38 283 279
-0.042037919 0.66600001 -0.045541082 1.7051758e-38 284 279
-0.040870197 0.66600001 -0.045541082 1.7143953e-38 285 279
-0.039583251 0.66399997 -0.045404319 1.760313e-38 286 279
-0.038419038 0.66399997 -0.045404319 1.760313e-38 287 279
-0.037254825 0.66399997 -0.045404319 1.7787155e-38 288 279
-0.036090612 0.66399997 -0.045404319 1.7971546e-38 289 279
-0.034873798 0.66299999 -0.045335937 1.7787881e-38 290 279
-0.033711337 0.66299999 -0.045335937 1.7880077e-38 291 279
-0.032548878 0.66299999 -0.045335937 1.7604934e-38 292 279
-0.031386416 0.66299999 -0.045335937 1.7604934e-38 293 279
-0.030223956 0.66299999 -0.045335937 1.7696774e-38 294 279
-0.029061496 0.66299999 -0.045335937 1.797336e-38 295 279
-0.02781488 0.66100001 -0.045199182 1.8248149e-38 296 279
-0.026655925 0.66100001 -0.045199182 1.8432541e-38 297 279
-0.025496973 0.66100001 -0.045199182 1.8432544e-38 298 279
-0.02433802 0.66100001 -0.045199182 1.852474e-38 299 279
-0.023179067 0.66100001 -0.045199182 1.8433266e-38 300 279
-0.022020113 0.66100001 -0.045199182 1.8433266e-38 301 279
-0.020798039 0.65899998 -0.045062415 1.82496e-38 302 279
-0.019642593 0.65899998 -0.045062415 1.82496e-38 303 279
-0.018487146 0.65899998 -0.045062415 1.8249598e-38 304 279
-0.0172791 0.65700001 -0.04492566 1.8249598e-38 305 279
-0.01612716 0.65700001 -0.04492566 1.8249595e-38 306 279
-0.015066394 0.66100001 -0.045199182 1.8342149e-38 307 279
-0.01390744 0.66100001 -0.045199182 1.7974809e-38 308 279
-0.012767773 0.662 -0.04526756 1.7882254e-38 309 279
-0.011607066 0.662 -0.04526756 1.7513828e-38 310 279
-0.01046214 0.66299999 -0.045335937 1.7606382e-38 311 279
-0.0092996797 0.66299999 -0.045335937 1.7605676e-38 312 279
-0.073583893 0.68800002 -0.048251733 1.419553e-38 259 280
-0.0723776 0.68800002 -0.048251733 1.4379899e-38 260 280
-0.071067855 0.68699998 -0.048181597 1.4287704e-38 261 280
-0.06955824 0.68400002 -0.0479712 1.4471002e-38 262 280
-0.068259016 0.68300003 -0.047901068 1.4471002e-38 263 280
-0.0669633 0.68199998 -0.047830928 1.4195491e-38 264 280
-0.065574668 0.68000001 -0.047690667 1.4103296e-38 265 280
-0.064382397 0.68000001 -0.047690667 1.4011473e-38 266 280
-0.063097201 0.67900002 -0.047620531 1.4195504e-38 267 280
-0.061815511 0.67799997 -0.047550395 1.428769e-38 268 280
-0.060626756 0.67799997 -0.047550395 1.4563918e-38 269 280
-0.059262663 0.676 -0.047410134 1.5024157e-38 270 280
-0.057905588 0.67400002 -0.047269866 1.5208549e-38 271 280
-0.056555521 0.67199999 -0.047129598 1.4933422e-38 272 280
-0.055377278 0.67199999 -0.047129598 1.5578791e-38 273 280
-0.054118387 0.671 -0.047059465 1.6037979e-38 274 280
-0.052941896 0.671 -0.047059465 1.6037979e-38 275 280
-0.051765412 0.671 -0.047059465 1.6589688e-38 276 280
-0.050588924 0.671 -0.047059465 1.6497492e-38 277 280
-0.049338799 0.67000002 -0.046989333 1.640529e-38 278 280
-0.048020288 0.66799998 -0.046849065 1.6313094e-38 279 280
-0.046778932 0.667 -0.046778932 1.631419e-38 280 280
-0.045609459 0.667 -0.046778932 1.6406744e-38 281 280
-0.04437336 0.66600001 -0.046708796 1.6315993e-38 282 280
-0.043205637 0.66600001 -0.046708796 1.6315993e-38 283 280
-0.042037919 0.66600001 -0.046708796 1.6774815e-38 284 280
-0.040747464 0.66399997 -0.046568532 1.6867011e-38 285 280
-0.039583251 0.66399997 -0.046568532 1.6684064e-38 286 280
-0.038361177 0.66299999 -0.046498399 1.6684064e-38 287 280
-0.037198719 0.66299999 -0.046498399 1.705141e-38 288 280
-0.036036257 0.66299999 -0.046498399 1.705141e-38 289 280
-0.034873798 0.66299999 -0.046498399 1.714325e-38 290 280
-0.033711337 0.66299999 -0.046498399 1.732764e-38 291 280
-0.032499783 0.662 -0.046428263 1.7143974e-38 292 280
-0.031339079 0.662 -0.046428263 1.7236171e-38 293 280
-0.030178372 0.662 -0.046428263 1.732872e-38 294 280
-0.029017664 0.662 -0.046428263 1.732872e-38 295 280
-0.02781488 0.66100001 -0.046358135 1.7604225e-38 296 280
-0.026655925 0.66100001 -0.046358135 1.769678e-38 297 280
-0.025419824 0.65899998 -0.046217863 1.7422003e-38 298 280
-0.024264378 0.65899998 -0.046217863 1.7606396e-38 299 280
-0.023108931 0.65899998 -0.046217863 1.7697876e-38 300 280
-0.021953486 0.65899998 -0.046217863 1.7697876e-38 301 280
-0.02076648 0.65799999 -0.04614773 1.7881907e-38 302 280
-0.019582979 0.65700001 -0.046077598 1.7881907e-38 303 280
-0.01843104 0.65700001 -0.046077598 1.769752e-38 304 280
-0.0172791 0.65700001 -0.046077598 1.769752e-38 305 280
-0.01612716 0.65700001 -0.046077598 1.7697876e-38 306 280
-0.014998012 0.65799999 -0.04614773 1.7697876e-38 307 280
-0.013865359 0.65899998 -0.046217863 1.7697873e-38 308 280
-0.012709912 0.65899998 -0.046217863 1.7605676e-38 309 280
-0.011589534 0.66100001 -0.046358135 1.7604944e-38 310 280
-0.01044636 0.662 -0.046428263 1.7604944e-38 311 280
-0.009285653 0.662 -0.046428263 1.7421266e-38 312 280
-0.0081249457 0.662 -0.046428263 1.7605297e-38 313 280
-0.0069642398 0.662 -0.046428263 1.7421279e-38 314 280
-0.073476933 0.68699998 -0.049386136 1.4195551e-38 259 281
-0.07227239 0.68699998 -0.049386136 1.4104404e-38 260 281
-0.071067855 0.68699998 -0.049386136 1.4012208e-38 261 281
-0.069761619 0.68599999 -0.049314249 1.4287334e-38 262 281
-0.068259016 0.68300003 -0.049098592 1.4287334e-38 263 281
-0.0669633 0.68199998 -0.049026705 1.4012179e-38 264 281
-0.065574668 0.68000001 -0.048882935 1.3919625e-38 265 281
-0.064382397 0.68000001 -0.048882935 1.410294e-38 266 281
-0.063097201 0.67900002 -0.048811045 1.410294e-38 267 281
-0.061815511 0.67799997 -0.048739154 1.410294e-38 268 281
-0.06044792 0.676 -0.048595384 1.410294e-38 269 281
-0.059175 0.67500001 -0.048523501 1.3827429e-38 270 281
-0.057905588 0.67400002 -0.048451614 1.3827429e-38 271 281
-0.056555521 0.67199999 -0.04830784 1.4012189e-38 272 281
-0.055294871 0.671 -0.048235953 1.4750112e-38 273 281
-0.054118387 0.671 -0.048235953 1.576139e-38 274 281
-0.052941896 0.671 -0.048235953 1.5945783e-38 275 281
-0.051765412 0.671 -0.048235953 1.6220192e-38 276 281
-0.050513536 0.67000002 -0.048164066 1.5667377e-38 277 281
-0.04919152 0.66799998 -0.048020288 1.5572306e-38 278 281
-0.048020288 0.66799998 -0.048020288 1.6125479e-38 279 281
-0.046778932 0.667 -0.047948405 1.5670268e-38 280 281
-0.045609459 0.667 -0.047948405 1.5854659e-38 281 281
-0.04437336 0.66600001 -0.047876518 1.6313124e-38 282 281
-0.043205637 0.66600001 -0.047876518 1.6497155e-38 283 281
-0.041911677 0.66399997 -0.047732744 1.6314914e-38 284 281
-0.040747464 0.66399997 -0.047732744 1.640711e-38 285 281
-0.039523639 0.66299999 -0.047660857 1.6498584e-38 286 281
-0.038361177 0.66299999 -0.047660857 1.6498584e-38 287 281
-0.037142612 0.662 -0.047588971 1.6957763e-38 288 281
-0.035981905 0.662 -0.047588971 1.6957763e-38 289 281
-0.034821201 0.662 -0.047588971 1.6957407e-38 290 281
-0.033660494 0.662 -0.047588971 1.7049963e-38 291 281
-0.032450691 0.66100001 -0.047517084 1.7049607e-38 292 281
-0.031291738 0.66100001 -0.047517084 1.7049607e-38 293 281
-0.030132787 0.66100001 -0.047517084 1.6591503e-38 294 281
-0.028973831 0.66100001 -0.047517084 1.6591503e-38 295 281
-0.02781488 0.66100001 -0.047517084 1.6958846e-38 296 281
-0.026575271 0.65899998 -0.04737331 1.7235073e-38 297 281
-0.025419824 0.65899998 -0.04737331 1.7051773e-38 298 281
-0.024264378 0.65899998 -0.04737331 1.732872e-38 299 281
-0.023073865 0.65799999 -0.047301427 1.7603875e-38 300 281
-0.021920172 0.65799999 -0.047301427 1.7603875e-38 301 281
-0.020734919 0.65700001 -0.04722954 1.7971581e-38 302 281
-0.019523365 0.65499997 -0.047085766 1.7971581e-38 303 281
-0.018374931 0.65499997 -0.047085766 1.7696792e-38 304 281
-0.017226499 0.65499997 -0.047085766 1.7604597e-38 305 281
-0.016078066 0.65499997 -0.047085766 1.7328367e-38 306 281
-0.01497522 0.65700001 -0.04722954 1.7420563e-38 307 281
-0.013823279 0.65700001 -0.04722954 1.7603522e-38 308 281
-0.012690626 0.65799999 -0.047301427 1.7696076e-38 309 281
-0.011536933 0.65799999 -0.047301427 1.7421284e-38 310 281
-0.01043058 0.66100001 -0.047517084 1.7421284e-38 311 281
-0.0092716264 0.66100001 -0.047517084 1.7421282e-38 312 281
-0.0081126727 0.66100001 -0.047517084 1.7421282e-38 313 281
-0.00695372 0.66100001 -0.047517084 1.7421284e-38 314 281
-0.0057947668 0.66100001 -0.047517084 1.7236534e-38 315 281
-0.0046428265 0.662 -0.047588971 1.7237263e-38 316 281
-0.073476933 0.68699998 -0.050590675 1.3643471e-38 259 282
-0.07227239 0.68699998 -0.050590675 1.4011861e-38 260 282
-0.071067855 0.68699998 -0.050590675 1.382747e-38 261 282
-0.069761619 0.68599999 -0.050517038 1.4195504e-38 262 282
-0.068259016 0.68300003 -0.05029612 1.4195504e-38 263 282
-0.0669633 0.68199998 -0.050222475 1.3919625e-38 264 282
-0.065574668 0.68000001 -0.050075196 1.3919625e-38 265 282
-0.064287722 0.67900002 -0.050001562 1.4010744e-38 266 282
-0.063097201 0.67900002 -0.050001562 1.4010744e-38 267 282
-0.061815511 0.67799997 -0.049927916 1.4010391e-38 268 282
-0.06044792 0.676 -0.049780637 1.4010391e-38 269 282
-0.059175 0.67500001 -0.049706999 1.3826725e-38 270 282
-0.057905588 0.67400002 -0.049633358 1.3826725e-38 271 282
-0.056555521 0.67199999 -0.049486078 1.373453e-38 272 282
-0.055294871 0.671 -0.049412437 1.4195507e-38 273 282
-0.054118387 0.671 -0.049412437 1.4656116e-38 274 282
-0.052863002 0.67000002 -0.049338799 1.4932703e-38 275 282
-0.051688269 0.67000002 -0.049338799 1.5390797e-38 276 282
-0.050362743 0.66799998 -0.04919152 1.4929459e-38 277 282
-0.04919152 0.66799998 -0.04919152 1.4286255e-38 278 282
-0.047948405 0.667 -0.049117878 1.4747593e-38 279 282
-0.046778932 0.667 -0.049117878 1.511747e-38 280 282
-0.045541082 0.66600001 -0.04904424 1.5485892e-38 281 282
-0.04437336 0.66600001 -0.04904424 1.5669566e-38 282 282
-0.043075889 0.66399997 -0.048896957 1.5853956e-38 283 282
-0.041911677 0.66399997 -0.048896957 1.6221291e-38 284 282
-0.040686097 0.66299999 -0.048823316 1.6129095e-38 285 282
-0.039523639 0.66299999 -0.048823316 1.6037976e-38 286 282
