# .PCD v.7 - Point Cloud Data file format
FIELDS x y z rgb imX imY
SIZE 4 4 4 4 4 4
TYPE F F F F F F
COUNT 1 1 1 1 1 1
WIDTH 826
HEIGHT 1
VIEWPOINT 0 0 0 1 0 0 0
POINTS 826
DATA ascii
-0.076257721 0.713 -0.070007093 1.7049217e-38 259 296
-0.075007595 0.713 -0.070007093 1.7417274e-38 260 296
-0.073550582 0.71100003 -0.069810718 1.7601667e-38 261 296
-0.072202265 0.70999998 -0.069712527 1.7969378e-38 262 296
-0.070757516 0.708 -0.069516152 1.815377e-38 263 296
-0.069516152 0.708 -0.069516152 1.8245965e-38 264 296
-0.068178371 0.70700002 -0.069417976 1.8338162e-38 265 296
-0.066844068 0.70599997 -0.069319785 1.8521831e-38 266 296
-0.065420374 0.704 -0.06912341 1.8614026e-38 267 296
-0.064186029 0.704 -0.06912341 1.8337812e-38 268 296
-0.062951677 0.704 -0.06912341 1.7600247e-38 269 296
-0.061717331 0.704 -0.06912341 1.6769035e-38 270 296
-0.060482983 0.704 -0.06912341 1.6769035e-38 271 296
-0.059248637 0.704 -0.06912341 1.7046694e-38 272 296
-0.058179103 0.70599997 -0.069319785 1.7415836e-38 273 296
-0.056941248 0.70599997 -0.069319785 1.7693159e-38 274 296
-0.055703394 0.70599997 -0.069319785 1.806194e-38 275 296
-0.054465543 0.70599997 -0.069319785 1.8154486e-38 276 296
-0.053227689 0.70599997 -0.069319785 1.806229e-38 277 296
-0.051989835 0.70599997 -0.069319785 1.8061574e-38 278 296
-0.050823875 0.70700002 -0.069417976 1.7969378e-38 279 296
-0.049654398 0.708 -0.069516152 1.6496436e-38 280 296
-0.048549797 0.70999998 -0.069712527 1.640424e-38 281 296
-0.047504812 0.713 -0.070007093 1.6310621e-38 282 296
-0.046254687 0.713 -0.070007093 1.6033675e-38 283 296
-0.045067675 0.71399999 -0.070105277 1.4931316e-38 284 296
-0.081372194 0.71399999 -0.071357153 1.4843477e-38 255 297
-0.080120318 0.71399999 -0.071357153 1.2994462e-38 256 297
-0.078757972 0.713 -0.071257219 1.4561789e-38 257 297
-0.077507854 0.713 -0.071257219 1.6771551e-38 258 297
-0.076257721 0.713 -0.071257219 1.7048498e-38 259 297
-0.074797198 0.71100003 -0.071057342 1.7233243e-38 260 297
-0.073447131 0.70999998 -0.070957392 1.750947e-38 261 297
-0.071998879 0.708 -0.070757516 1.7692793e-38 262 297
-0.070757516 0.708 -0.070757516 1.815377e-38 263 297
-0.069417976 0.70700002 -0.070657574 1.8246319e-38 264 297
-0.06808193 0.70599997 -0.070557632 1.8338516e-38 265 297
-0.066654719 0.704 -0.070357755 1.870514e-38 266 297
-0.065420374 0.704 -0.070357755 1.8797694e-38 267 297
-0.064186029 0.704 -0.070357755 1.8338162e-38 268 297
-0.062951677 0.704 -0.070357755 1.7324009e-38 269 297
-0.061717331 0.704 -0.070357755 1.639846e-38 270 297
-0.060482983 0.704 -0.070357755 1.6306264e-38 271 297
-0.059248637 0.704 -0.070357755 1.6032201e-38 272 297
-0.058014292 0.704 -0.070357755 1.6585016e-38 273 297
-0.056779943 0.704 -0.070357755 1.7139635e-38 274 297
-0.055545598 0.704 -0.070357755 1.7877558e-38 275 297
-0.054311249 0.704 -0.070357755 1.8154491e-38 276 297
-0.053076904 0.704 -0.070357755 1.8061937e-38 277 297
-0.051842559 0.704 -0.070357755 1.7877906e-38 278 297
-0.050751984 0.70599997 -0.070557632 1.778571e-38 279 297
-0.049584266 0.70700002 -0.070657574 1.6496433e-38 280 297
-0.048344657 0.70700002 -0.070657574 1.6404237e-38 281 297
-0.047304932 0.70999998 -0.070957392 1.6035476e-38 282 297
-0.046254687 0.713 -0.071257219 1.5851085e-38 283 297
-0.082276918 0.71100003 -0.072303966 1.8254719e-38 254 298
-0.08091633 0.70999998 -0.072202265 1.4935677e-38 255 298
-0.079671465 0.70999998 -0.072202265 1.2535289e-38 256 298
-0.0784266 0.70999998 -0.072202265 1.4010419e-38 257 298
-0.077181734 0.70999998 -0.072202265 1.6587517e-38 258 298
-0.076043822 0.71100003 -0.072303966 1.6864103e-38 259 298
-0.074797198 0.71100003 -0.072303966 1.7233243e-38 260 298
-0.073447131 0.70999998 -0.072202265 1.750947e-38 261 298
-0.071998879 0.708 -0.071998879 1.7693868e-38 262 298
-0.070657574 0.70700002 -0.071897186 1.806229e-38 263 298
-0.069319785 0.70599997 -0.071795486 1.8246672e-38 264 298
-0.067889065 0.704 -0.071592107 1.85229e-38 265 298
-0.066654719 0.704 -0.071592107 1.8614379e-38 266 298
-0.065327443 0.70300001 -0.071490414 1.8522184e-38 267 298
-0.064094849 0.70300001 -0.071490414 1.8338881e-38 268 298
-0.062862262 0.70300001 -0.071490414 1.7601316e-38 269 298
-0.061629668 0.70300001 -0.071490414 1.6766166e-38 270 298
-0.06039707 0.70300001 -0.071490414 1.6673971e-38 271 298
-0.059164476 0.70300001 -0.071490414 1.6306637e-38 272 298
-0.057931885 0.70300001 -0.071490414 1.6490668e-38 273 298
-0.056699295 0.70300001 -0.071490414 1.6953447e-38 274 298
-0.055545598 0.704 -0.071592107 1.8059796e-38 275 298
-0.054311249 0.704 -0.071592107 1.7877909e-38 276 298
-0.053076904 0.704 -0.071592107 1.806194e-38 277 298
-0.051842559 0.704 -0.071592107 1.806229e-38 278 298
-0.050608214 0.704 -0.071592107 1.7601313e-38 279 298
-0.04951413 0.70599997 -0.071795486 1.6497142e-38 280 298
-0.048276275 0.70599997 -0.071795486 1.6312391e-38 281 298
-0.047304932 0.70999998 -0.072202265 1.5852161e-38 282 298
-0.082276918 0.71100003 -0.073550582 1.8254363e-38 254 299
-0.08091633 0.70999998 -0.073447131 1.5211906e-38 255 299
-0.079671465 0.70999998 -0.073447131 1.2717879e-38 256 299
-0.0784266 0.70999998 -0.073447131 1.4100814e-38 257 299
-0.077181734 0.70999998 -0.073447131 1.6678637e-38 258 299
-0.075936861 0.70999998 -0.073447131 1.704778e-38 259 299
-0.074691996 0.70999998 -0.073447131 1.6957745e-38 260 299
-0.073240235 0.708 -0.073240235 1.723433e-38 261 299
-0.071897186 0.70700002 -0.073136792 1.7510918e-38 262 299
-0.070357755 0.704 -0.072826453 1.7787864e-38 263 299
-0.06912341 0.704 -0.072826453 1.8063724e-38 264 299
-0.067792632 0.70300001 -0.072723009 1.8155919e-38 265 299
-0.066560037 0.70300001 -0.072723009 1.8614377e-38 266 299
-0.065141588 0.70099998 -0.072516106 1.8614377e-38 267 299
-0.063912503 0.70099998 -0.072516106 1.8522903e-38 268 299
-0.062683418 0.70099998 -0.072516106 1.8061924e-38 269 299
-0.061366666 0.69999999 -0.072412662 1.6583573e-38 270 299
-0.060139328 0.69999999 -0.072412662 1.6214792e-38 271 299
-0.059164476 0.70300001 -0.072723009 1.6672917e-38 272 299
-0.057931885 0.70300001 -0.072723009 1.6488527e-38 273 299
-0.056699295 0.70300001 -0.072723009 1.6582516e-38 274 299
-0.0554667 0.70300001 -0.072723009 1.7965451e-38 275 299
-0.054234106 0.70300001 -0.072723009 1.7786432e-38 276 299
-0.053001512 0.70300001 -0.072723009 1.7786432e-38 277 299
-0.051768921 0.70300001 -0.072723009 1.7786417e-38 278 299
-0.050608214 0.704 -0.072826453 1.750947e-38 279 299
-0.049373865 0.704 -0.072826453 1.6587889e-38 280 299
-0.048139516 0.704 -0.072826453 1.6495693e-38 281 299
-0.082276918 0.71100003 -0.074797198 1.8438034e-38 254 300
-0.08091633 0.70999998 -0.074691996 1.5671805e-38 255 300
-0.079447038 0.708 -0.074481599 1.3086305e-38 256 300
-0.078205675 0.708 -0.074481599 1.4284848e-38 257 300
-0.076964319 0.708 -0.074481599 1.6219814e-38 258 300
-0.075509049 0.70599997 -0.074271195 1.6403845e-38 259 300
-0.074271195 0.70599997 -0.074271195 1.7141397e-38 260 300
-0.07303334 0.70599997 -0.074271195 1.7417624e-38 261 300
-0.071592107 0.704 -0.07406079 1.7786417e-38 262 300
-0.070057929 0.70099998 -0.073745191 1.8062643e-38 263 300
-0.068828844 0.70099998 -0.073745191 1.8338513e-38 264 300
-0.067599766 0.70099998 -0.073745191 1.8338513e-38 265 300
-0.066370681 0.70099998 -0.073745191 1.8522903e-38 266 300
-0.065048665 0.69999999 -0.073639996 1.8522903e-38 267 300
-0.063821331 0.69999999 -0.073639996 1.8523626e-38 268 300
-0.062415157 0.69800001 -0.073429599 1.8062646e-38 269 300
-0.061103668 0.69700003 -0.073324397 1.7046678e-38 270 300
-0.05988159 0.69700003 -0.073324397 1.5387155e-38 271 300
-0.05865952 0.69700003 -0.073324397 1.5935664e-38 272 300
-0.057519849 0.69800001 -0.073429599 1.6396642e-38 273 300
-0.056296028 0.69800001 -0.073429599 1.5939299e-38 274 300
-0.055229999 0.69999999 -0.073639996 1.7414429e-38 275 300
-0.054079808 0.70099998 -0.073745191 1.7510215e-38 276 300
-0.052850723 0.70099998 -0.073745191 1.7602411e-38 277 300
-0.051621638 0.70099998 -0.073745191 1.8061571e-38 278 300
-0.050392549 0.70099998 -0.073745191 1.7693149e-38 279 300
-0.049163464 0.70099998 -0.073745191 1.6863401e-38 280 300
-0.048071139 0.70300001 -0.073955595 1.6586814e-38 281 300
-0.046838548 0.70300001 -0.073955595 1.5852511e-38 282 300
-0.082276918 0.71100003 -0.076043822 1.8069974e-38 254 301
-0.08091633 0.70999998 -0.075936861 1.5672889e-38 255 301
-0.079447038 0.708 -0.075722955 1.2629652e-38 256 301
-0.07809522 0.70700002 -0.07561601 1.3367217e-38 257 301
-0.076855607 0.70700002 -0.07561601 1.6035068e-38 258 301
-0.075509049 0.70599997 -0.075509049 1.6495688e-38 259 301
-0.07406079 0.704 -0.075295143 1.7231445e-38 260 301
-0.072826453 0.704 -0.075295143 1.7784259e-38 261 301
-0.071490414 0.70300001 -0.07518819 1.7693515e-38 262 301
-0.069957994 0.69999999 -0.07486733 1.8061937e-38 263 301
-0.068730667 0.69999999 -0.07486733 1.8245963e-38 264 301
-0.067503333 0.69999999 -0.07486733 1.8338518e-38 265 301
-0.066275999 0.69999999 -0.07486733 1.8522903e-38 266 301
-0.06486281 0.69800001 -0.074653424 1.8522903e-38 267 301
-0.06354782 0.69700003 -0.074546471 1.85229e-38 268 301
-0.062325738 0.69700003 -0.074546471 1.85229e-38 269 301
-0.061015997 0.69599998 -0.074439511 1.8244128e-38 270 301
-0.059795678 0.69599998 -0.074439511 1.6676804e-38 271 301
-0.058575355 0.69599998 -0.074439511 1.6212251e-38 272 301
-0.05743745 0.69700003 -0.074546471 1.6488838e-38 273 301
-0.056215372 0.69700003 -0.074546471 1.5847113e-38 274 301
-0.054993302 0.69700003 -0.074546471 1.6677233e-38 275 301
-0.053848371 0.69800001 -0.074653424 1.704924e-38 276 301
-0.052624546 0.69800001 -0.074653424 1.7325468e-38 277 301
-0.051400717 0.69800001 -0.074653424 1.7877177e-38 278 301
-0.050320663 0.69999999 -0.07486733 1.7693146e-38 279 301
-0.049093332 0.69999999 -0.07486733 1.7048145e-38 280 301
-0.047865998 0.69999999 -0.07486733 1.6587167e-38 281 301
-0.046705291 0.70099998 -0.074974284 1.6035463e-38 282 301
-0.080688395 0.708 -0.076964319 1.613279e-38 255 302
-0.079334825 0.70700002 -0.076855607 1.327539e-38 256 302
-0.07809522 0.70700002 -0.076855607 1.3367586e-38 257 302
-0.076746903 0.70599997 -0.076746903 1.5666656e-38 258 302
-0.075295143 0.704 -0.076529488 1.6312025e-38 259 302
-0.07406079 0.704 -0.076529488 1.741511e-38 260 302
-0.072723009 0.70300001 -0.076420791 1.7691697e-38 261 302
-0.071490414 0.70300001 -0.076420791 1.7693146e-38 262 302
-0.069957994 0.69999999 -0.076094657 1.8061927e-38 263 302
-0.068730667 0.69999999 -0.076094657 1.8337432e-38 264 302
-0.06731046 0.69800001 -0.075877249 1.8429628e-38 265 302
-0.066086642 0.69800001 -0.075877249 1.8522181e-38 266 302
-0.06486281 0.69800001 -0.075877249 1.8522181e-38 267 302
-0.06354782 0.69700003 -0.075768545 1.8522534e-38 268 302
-0.062236317 0.69599998 -0.075659841 1.8706925e-38 269 302
-0.060752999 0.69300002 -0.075333714 1.916538e-38 270 302
-0.05953794 0.69300002 -0.075333714 1.8151226e-38 271 302
-0.058407038 0.69400001 -0.075442426 1.741079e-38 272 302
-0.057355035 0.69599998 -0.075659841 1.658139e-38 273 302
-0.056134716 0.69599998 -0.075659841 1.5845286e-38 274 302
-0.054914396 0.69599998 -0.075659841 1.6582851e-38 275 302
-0.053694077 0.69599998 -0.075659841 1.6587183e-38 276 302
-0.052549154 0.69700003 -0.075768545 1.7232552e-38 277 302
-0.051327083 0.69700003 -0.075768545 1.7876105e-38 278 302
-0.050176892 0.69800001 -0.075877249 1.7783908e-38 279 302
-0.048953064 0.69800001 -0.075877249 1.7140338e-38 280 302
-0.047729239 0.69800001 -0.075877249 1.6771554e-38 281 302
-0.046505414 0.69800001 -0.075877249 1.6036179e-38 282 302
-0.080688395 0.708 -0.078205675 1.6317905e-38 255 303
-0.079334825 0.70700002 -0.07809522 1.3919688e-38 256 303
-0.07798475 0.70599997 -0.07798475 1.3550545e-38 257 303
-0.076746903 0.70599997 -0.07798475 1.5481911e-38 258 303
-0.075295143 0.704 -0.077763841 1.6311672e-38 259 303
-0.07406079 0.704 -0.077763841 1.69563e-38 260 303
-0.072723009 0.70300001 -0.077653378 1.7140691e-38 261 303
-0.071287021 0.70099998 -0.077432454 1.7509119e-38 262 303
-0.069957994 0.69999999 -0.077321991 1.7785708e-38 263 303
-0.068534292 0.69800001 -0.077101074 1.824524e-38 264 303
-0.06731046 0.69800001 -0.077101074 1.8429631e-38 265 303
-0.06599196 0.69700003 -0.076990619 1.8429265e-38 266 303
-0.064676955 0.69599998 -0.076880157 1.8521461e-38 267 303
-0.063274294 0.69400001 -0.07665924 1.8521814e-38 268 303
-0.061968062 0.69300002 -0.076548778 1.8705846e-38 269 303
-0.060752999 0.69300002 -0.076548778 1.8706925e-38 270 303
-0.05953794 0.69300002 -0.076548778 1.8430337e-38 271 303
-0.058322877 0.69300002 -0.076548778 1.8058312e-38 272 303
-0.057107817 0.69300002 -0.076548778 1.704416e-38 273 303
-0.055892758 0.69300002 -0.076548778 1.6033255e-38 274 303
-0.054756597 0.69400001 -0.07665924 1.6401677e-38 275 303
-0.053539783 0.69400001 -0.07665924 1.6769766e-38 276 303
-0.052473757 0.69599998 -0.076880157 1.7415136e-38 277 303
-0.051253434 0.69599998 -0.076880157 1.7691715e-38 278 303
-0.050105009 0.69700003 -0.076990619 1.759952e-38 279 303
-0.048882935 0.69700003 -0.076990619 1.7231458e-38 280 303
-0.047660861 0.69700003 -0.076990619 1.6863034e-38 281 303
-0.046438783 0.69700003 -0.076990619 1.6219848e-38 282 303
-0.045216713 0.69700003 -0.076990619 1.6035458e-38 283 303
-0.079222605 0.70599997 -0.079222605 1.46576e-38 256 304
-0.07798475 0.70599997 -0.079222605 1.3643447e-38 257 304
-0.076529488 0.704 -0.078998186 1.5113482e-38 258 304
-0.07518819 0.70300001 -0.078885972 1.6219829e-38 259 304
-0.073955595 0.70300001 -0.078885972 1.6680438e-38 260 304
-0.072516106 0.70099998 -0.078661539 1.686483e-38 261 304
-0.071185328 0.69999999 -0.078549333 1.7049943e-38 262 304
-0.069758117 0.69800001 -0.078324907 1.7326171e-38 263 304
-0.068436109 0.69700003 -0.078212693 1.8060852e-38 264 304
-0.067214034 0.69700003 -0.078212693 1.8244884e-38 265 304
-0.065897278 0.69599998 -0.078100473 1.8337069e-38 266 304
-0.064491108 0.69400001 -0.077876054 1.8429265e-38 267 304
-0.063183114 0.69300002 -0.077763841 1.8429981e-38 268 304
-0.061968062 0.69300002 -0.077763841 1.8522178e-38 269 304
-0.060752999 0.69300002 -0.077763841 1.8522886e-38 270 304
-0.05953794 0.69300002 -0.077763841 1.8430331e-38 271 304
-0.058322877 0.69300002 -0.077763841 1.8703676e-38 272 304
-0.057107817 0.69300002 -0.077763841 1.8150861e-38 273 304
-0.055892758 0.69300002 -0.077763841 1.7231792e-38 274 304
-0.054756597 0.69400001 -0.077876054 1.6955204e-38 275 304
-0.053539783 0.69400001 -0.077876054 1.7138529e-38 276 304
-0.052322973 0.69400001 -0.077876054 1.7599148e-38 277 304
-0.051253434 0.69599998 -0.078100473 1.7691344e-38 278 304
-0.050033119 0.69599998 -0.078100473 1.7691344e-38 279 304
-0.048812799 0.69599998 -0.078100473 1.7506956e-38 280 304
-0.047592476 0.69599998 -0.078100473 1.7322204e-38 281 304
-0.046438783 0.69700003 -0.078212693 1.6311322e-38 282 304
-0.045151837 0.69599998 -0.078100473 1.6311322e-38 283 304
-0.043931518 0.69599998 -0.078100473 1.5576688e-38 284 304
-0.078998186 0.704 -0.080232531 1.4934913e-38 256 305
-0.077763841 0.704 -0.080232531 1.3367586e-38 257 305
-0.076529488 0.704 -0.080232531 1.4561397e-38 258 305
-0.07518819 0.70300001 -0.080118567 1.5852136e-38 259 305
-0.073745191 0.70099998 -0.079890631 1.6404571e-38 260 305
-0.072412662 0.69999999 -0.079776667 1.6681158e-38 261 305
-0.071185328 0.69999999 -0.079776667 1.6958101e-38 262 305
-0.069758117 0.69800001 -0.079548739 1.7234327e-38 263 305
-0.068436109 0.69700003 -0.079434767 1.8060127e-38 264 305
-0.067117594 0.69599998 -0.079320796 1.8244518e-38 265 305
-0.065707922 0.69400001 -0.079092868 1.8244868e-38 266 305
-0.064398177 0.69300002 -0.078978904 1.8337064e-38 267 305
-0.063000768 0.69099998 -0.078750968 1.8429981e-38 268 305
-0.061789215 0.69099998 -0.078750968 1.8522178e-38 269 305
-0.060577665 0.69099998 -0.078750968 1.85229e-38 270 305
-0.059366114 0.69099998 -0.078750968 1.8338869e-38 271 305
-0.058154557 0.69099998 -0.078750968 1.8429262e-38 272 305
-0.056942999 0.69099998 -0.078750968 1.8337067e-38 273 305
-0.055731449 0.69099998 -0.078750968 1.7877165e-38 274 305
-0.054677699 0.69300002 -0.078978904 1.7692413e-38 275 305
-0.053462639 0.69300002 -0.078978904 1.7417624e-38 276 305
-0.052322973 0.69400001 -0.079092868 1.7417624e-38 277 305
-0.051106159 0.69400001 -0.079092868 1.760165e-38 278 305
-0.049889345 0.69400001 -0.079092868 1.7509454e-38 279 305
-0.048672531 0.69400001 -0.079092868 1.750695e-38 280 305
-0.047455717 0.69400001 -0.079092868 1.7138526e-38 281 305
-0.046238903 0.69400001 -0.079092868 1.6036886e-38 282 305
-0.044957221 0.69300002 -0.078978904 1.5944331e-38 283 305
-0.043742158 0.69300002 -0.078978904 1.5668863e-38 284 305
-0.078998186 0.704 -0.081466876 1.5302991e-38 256 306
-0.077763841 0.704 -0.081466876 1.3459078e-38 257 306
-0.076420791 0.70300001 -0.081351154 1.3917123e-38 258 306
-0.074653424 0.69800001 -0.080772556 1.5115665e-38 259 306
-0.073429599 0.69800001 -0.080772556 1.6219832e-38 260 306
-0.072205767 0.69800001 -0.080772556 1.6404223e-38 261 306
-0.07098195 0.69800001 -0.080772556 1.6589691e-38 262 306
-0.069658175 0.69700003 -0.080656841 1.6865918e-38 263 306
-0.068337917 0.69599998 -0.080541112 1.7325451e-38 264 306
-0.066924736 0.69400001 -0.080309682 1.7418007e-38 265 306
-0.065707922 0.69400001 -0.080309682 1.7786063e-38 266 306
-0.06421233 0.69099998 -0.079962514 1.7878259e-38 267 306
-0.063000768 0.69099998 -0.079962514 1.806229e-38 268 306
-0.061789215 0.69099998 -0.079962514 1.8154486e-38 269 306
-0.060577665 0.69099998 -0.079962514 1.8339234e-38 270 306
-0.059366114 0.69099998 -0.079962514 1.8339234e-38 271 306
-0.058154557 0.69099998 -0.079962514 1.8706198e-38 272 306
-0.056942999 0.69099998 -0.079962514 1.8429613e-38 273 306
-0.055731449 0.69099998 -0.079962514 1.8428874e-38 274 306
-0.054519895 0.69099998 -0.079962514 1.8336677e-38 275 306
-0.053462639 0.69300002 -0.080193959 1.806081e-38 276 306
-0.05224758 0.69300002 -0.080193959 1.8153006e-38 277 306
-0.051032521 0.69300002 -0.080193959 1.787822e-38 278 306
-0.049817458 0.69300002 -0.080193959 1.769347e-38 279 306
-0.048602402 0.69300002 -0.080193959 1.7324707e-38 280 306
-0.047387339 0.69300002 -0.080193959 1.6956283e-38 281 306
-0.046238903 0.69400001 -0.080309682 1.6219479e-38 282 306
-0.044957221 0.69300002 -0.080193959 1.6219479e-38 283 306
-0.043742158 0.69300002 -0.080193959 1.5668515e-38 284 306
-0.042527102 0.69300002 -0.080193959 1.5852546e-38 285 306
-0.077763841 0.704 -0.082701221 1.3551641e-38 257 307
-0.076420791 0.70300001 -0.082583755 1.4374866e-38 258 307
-0.074653424 0.69800001 -0.081996389 1.5296463e-38 259 307
-0.073324397 0.69700003 -0.081878915 1.5667377e-38 260 307
-0.072102323 0.69700003 -0.081878915 1.6036161e-38 261 307
-0.070880257 0.69700003 -0.081878915 1.6770835e-38 262 307
-0.069558233 0.69599998 -0.081761435 1.7047424e-38 263 307
-0.068141542 0.69400001 -0.081526496 1.7599151e-38 264 307
-0.066924736 0.69400001 -0.081526496 1.7875738e-38 265 307
-0.065423876 0.69099998 -0.081174068 1.8059773e-38 266 307
-0.06421233 0.69099998 -0.081174068 1.8336719e-38 267 307
-0.062909603 0.69 -0.081056595 1.8153773e-38 268 307
-0.061699796 0.69 -0.081056595 1.8245968e-38 269 307
-0.060489997 0.69 -0.081056595 1.8521477e-38 270 307
-0.059280202 0.69 -0.081056595 1.8613673e-38 271 307
-0.058070395 0.69 -0.081056595 1.8522549e-38 272 307
-0.0568606 0.69 -0.081056595 1.8338518e-38 273 307
-0.055650797 0.69 -0.081056595 1.8246672e-38 274 307
-0.054519895 0.69099998 -0.081174068 1.8154476e-38 275 307
-0.053308345 0.69099998 -0.081174068 1.8062275e-38 276 307
-0.052096792 0.69099998 -0.081174068 1.7877884e-38 277 307
-0.051032521 0.69300002 -0.081409015 1.7877881e-38 278 307
-0.049817458 0.69300002 -0.081409015 1.769385e-38 279 307
-0.048602402 0.69300002 -0.081409015 1.7326154e-38 280 307
-0.047387339 0.69300002 -0.081409015 1.6865536e-38 281 307
-0.04617228 0.69300002 -0.081409015 1.649534e-38 282 307
-0.044957221 0.69300002 -0.081409015 1.6403144e-38 283 307
-0.043742158 0.69300002 -0.081409015 1.5852161e-38 284 307
-0.042588469 0.69400001 -0.081526496 1.566777e-38 285 307
-0.076529488 0.704 -0.083935574 1.2905142e-38 258 308
-0.074653424 0.69800001 -0.083220214 1.3550511e-38 259 308
-0.073324397 0.69700003 -0.083100989 1.4931256e-38 260 308
-0.072102323 0.69700003 -0.083100989 1.5484429e-38 261 308
-0.070880257 0.69700003 -0.083100989 1.6402788e-38 262 308
-0.069558233 0.69599998 -0.082981758 1.6587538e-38 263 308
-0.068043359 0.69300002 -0.082624078 1.7047439e-38 264 308
-0.06663543 0.69099998 -0.082385622 1.7232189e-38 265 308
-0.065329194 0.69 -0.082266398 1.7508417e-38 266 308
-0.063933544 0.68800002 -0.082027942 1.7785004e-38 267 308
-0.06272725 0.68800002 -0.082027942 1.8060868e-38 268 308
-0.06152096 0.68800002 -0.082027942 1.8060868e-38 269 308
-0.060314666 0.68800002 -0.082027942 1.8245612e-38 270 308
-0.059108373 0.68800002 -0.082027942 1.8245612e-38 271 308
-0.057902083 0.68800002 -0.082027942 1.8246683e-38 272 308
-0.0568606 0.69 -0.082266398 1.8246683e-38 273 308
-0.055650797 0.69 -0.082266398 1.8246669e-38 274 308
-0.054440998 0.69 -0.082266398 1.8154473e-38 275 308
-0.053231198 0.69 -0.082266398 1.8337064e-38 276 308
-0.052021399 0.69 -0.082266398 1.8152673e-38 277 308
-0.050885238 0.69099998 -0.082385622 1.7876809e-38 278 308
-0.049673684 0.69099998 -0.082385622 1.7876809e-38 279 308
-0.04846213 0.69099998 -0.082385622 1.7233596e-38 280 308
-0.047250576 0.69099998 -0.082385622 1.7048846e-38 281 308
-0.046039023 0.69099998 -0.082385622 1.695595e-38 282 308
-0.044957221 0.69300002 -0.082624078 1.6587167e-38 283 308
-0.043742158 0.69300002 -0.082624078 1.6035476e-38 284 308
-0.042527102 0.69300002 -0.082624078 1.5758889e-38 285 308
-0.041312039 0.69300002 -0.082624078 1.5210086e-38 286 308
-0.074546471 0.69700003 -0.084323063 1.3182107e-38 259 309
-0.073324397 0.69700003 -0.084323063 1.4286981e-38 260 309
-0.072102323 0.69700003 -0.084323063 1.5024904e-38 261 309
-0.07057517 0.69400001 -0.083960123 1.6126565e-38 262 309
-0.069358356 0.69400001 -0.083960123 1.6494987e-38 263 309
-0.067846984 0.69099998 -0.083597176 1.6863401e-38 264 309
-0.066538997 0.69 -0.083476201 1.7139988e-38 265 309
-0.065139838 0.68800002 -0.083234236 1.7415852e-38 266 309
-0.063933544 0.68800002 -0.083234236 1.7692799e-38 267 309
-0.06272725 0.68800002 -0.083234236 1.7876824e-38 268 309
-0.061431535 0.68699998 -0.083113261 1.7969378e-38 269 309
-0.060226995 0.68699998 -0.083113261 1.8061927e-38 270 309
-0.059022456 0.68699998 -0.083113261 1.8154123e-38 271 309
-0.057902083 0.68800002 -0.083234236 1.8154486e-38 272 309
-0.056695789 0.68800002 -0.083234236 1.8154486e-38 273 309
-0.055489492 0.68800002 -0.083234236 1.8245963e-38 274 309
-0.054440998 0.69 -0.083476201 1.8153767e-38 275 309
-0.053076908 0.68800002 -0.083234236 1.8244884e-38 276 309
-0.051870614 0.68800002 -0.083234236 1.7968657e-38 277 309
-0.050664321 0.68800002 -0.083234236 1.7692793e-38 278 309
-0.049601797 0.69 -0.083476201 1.7600596e-38 279 309
-0.048391998 0.69 -0.083476201 1.7509119e-38 280 309
-0.047182199 0.69 -0.083476201 1.7140338e-38 281 309
-0.046039023 0.69099998 -0.083597176 1.6864477e-38 282 309
-0.044827472 0.69099998 -0.083597176 1.6495693e-38 283 309
-0.043742158 0.69300002 -0.083839141 1.5943628e-38 284 309
-0.042527102 0.69300002 -0.083839141 1.5575205e-38 285 309
-0.041312039 0.69300002 -0.083839141 1.5024606e-38 286 309
-0.073008798 0.69400001 -0.085176937 1.3733458e-38 260 310
-0.071791984 0.69400001 -0.085176937 1.4839804e-38 261 310
-0.07057517 0.69400001 -0.085176937 1.6034016e-38 262 310
-0.069058537 0.69099998 -0.08480873 1.6126211e-38 263 310
-0.067846984 0.69099998 -0.08480873 1.6404221e-38 264 310
-0.066538997 0.69 -0.084685996 1.6680807e-38 265 310
-0.065045156 0.68699998 -0.084317796 1.7231458e-38 266 310
-0.06384062 0.68699998 -0.084317796 1.7415849e-38 267 310
-0.062636077 0.68699998 -0.084317796 1.7508398e-38 268 310
-0.061431535 0.68699998 -0.084317796 1.7600952e-38 269 310
-0.060226995 0.68699998 -0.084317796 1.7693143e-38 270 310
-0.059022456 0.68699998 -0.084317796 1.7877533e-38 271 310
-0.057817914 0.68699998 -0.084317796 1.8061927e-38 272 310
-0.056613375 0.68699998 -0.084317796 1.8061927e-38 273 310
-0.055408835 0.68699998 -0.084317796 1.7878259e-38 274 310
-0.054283202 0.68800002 -0.084440529 1.7878259e-38 275 310
-0.052999757 0.68699998 -0.084317796 1.796866e-38 276 310
-0.051795214 0.68699998 -0.084317796 1.7783908e-38 277 310
-0.050590675 0.68699998 -0.084317796 1.7416568e-38 278 310
-0.049386136 0.68699998 -0.084317796 1.7416568e-38 279 310
-0.048181597 0.68699998 -0.084317796 1.7416924e-38 280 310
-0.046977058 0.68699998 -0.084317796 1.7232892e-38 281 310
-0.045772515 0.68699998 -0.084317796 1.6772637e-38 282 310
-0.044827472 0.69099998 -0.08480873 1.6587886e-38 283 310
-0.043742158 0.69300002 -0.085054204 1.5760669e-38 284 310
-0.042527102 0.69300002 -0.085054204 1.5391526e-38 285 310
-0.071481638 0.69099998 -0.086020276 1.4379532e-38 261 311
-0.070270091 0.69099998 -0.086020276 1.5573754e-38 262 311
-0.069058537 0.69099998 -0.086020276 1.5758504e-38 263 311
-0.067846984 0.69099998 -0.086020276 1.6036167e-38 264 311
-0.066346131 0.68800002 -0.08564683 1.6312394e-38 265 311
-0.065045156 0.68699998 -0.085522331 1.6863045e-38 266 311
-0.06384062 0.68699998 -0.085522331 1.7047795e-38 267 311
-0.062636077 0.68699998 -0.085522331 1.7140341e-38 268 311
-0.061431535 0.68699998 -0.085522331 1.7232537e-38 269 311
-0.060226995 0.68699998 -0.085522331 1.7416921e-38 270 311
-0.059022456 0.68699998 -0.085522331 1.7509116e-38 271 311
-0.057817914 0.68699998 -0.085522331 1.7876827e-38 272 311
-0.056613375 0.68699998 -0.085522331 1.7692796e-38 273 311
-0.055408835 0.68699998 -0.085522331 1.7693515e-38 274 311
-0.054204296 0.68699998 -0.085522331 1.7601319e-38 275 311
-0.052999757 0.68699998 -0.085522331 1.7600599e-38 276 311
-0.051795214 0.68699998 -0.085522331 1.7508403e-38 277 311
-0.050517038 0.68599999 -0.085397847 1.7232539e-38 278 311
-0.049314249 0.68599999 -0.085397847 1.7232539e-38 279 311
-0.048181597 0.68699998 -0.085522331 1.7232537e-38 280 311
-0.046977058 0.68699998 -0.085522331 1.7140341e-38 281 311
-0.045772515 0.68699998 -0.085522331 1.6680082e-38 282 311
-0.044567976 0.68699998 -0.085522331 1.649569e-38 283 311
-0.043615919 0.69099998 -0.086020276 1.5852138e-38 284 311
-0.042527102 0.69300002 -0.086269259 1.5483356e-38 285 311
-0.07168854 0.69300002 -0.087484315 1.455998e-38 261 312
-0.070270091 0.69099998 -0.087231837 1.5113852e-38 262 312
-0.069058537 0.69099998 -0.087231837 1.5667024e-38 263 312
-0.067846984 0.69099998 -0.087231837 1.6034716e-38 264 312
-0.066346131 0.68800002 -0.086853124 1.6403139e-38 265 312
-0.065045156 0.68699998 -0.086726874 1.6770114e-38 266 312
-0.06384062 0.68699998 -0.086726874 1.7046699e-38 267 312
-0.062636077 0.68699998 -0.086726874 1.704778e-38 268 312
-0.061431535 0.68699998 -0.086726874 1.7231811e-38 269 312
-0.060226995 0.68699998 -0.086726874 1.7415483e-38 270 312
-0.059022456 0.68699998 -0.086726874 1.7599514e-38 271 312
-0.057733759 0.68599999 -0.086600631 1.7691344e-38 272 312
-0.056530971 0.68599999 -0.086600631 1.7783898e-38 273 312
-0.055328183 0.68599999 -0.086600631 1.7692063e-38 274 312
-0.054125395 0.68599999 -0.086600631 1.7692063e-38 275 312
-0.05292261 0.68599999 -0.086600631 1.7416558e-38 276 312
-0.051719822 0.68599999 -0.086600631 1.7324003e-38 277 312
-0.050517038 0.68599999 -0.086600631 1.7231808e-38 278 312
-0.049314249 0.68599999 -0.086600631 1.7231808e-38 279 312
-0.048111461 0.68599999 -0.086600631 1.7323285e-38 280 312
-0.046977058 0.68699998 -0.086726874 1.7231089e-38 281 312
-0.045772515 0.68699998 -0.086726874 1.6771198e-38 282 312
-0.044567976 0.68699998 -0.086726874 1.6494971e-38 283 312
-0.043363437 0.68699998 -0.086726874 1.5943618e-38 284 312
-0.072693199 0.69099998 -0.088443391 1.4099387e-38 260 313
-0.07168854 0.69300002 -0.088699378 1.4099387e-38 261 313
-0.070473477 0.69300002 -0.088699378 1.43781e-38 262 313
-0.069058537 0.69099998 -0.088443391 1.4839438e-38 263 313
-0.067846984 0.69099998 -0.088443391 1.5759202e-38 264 313
-0.066346131 0.68800002 -0.088059418 1.5943591e-38 265 313
-0.065045156 0.68699998 -0.087931409 1.6219108e-38 266 313
-0.06384062 0.68699998 -0.087931409 1.6495693e-38 267 313
-0.062636077 0.68699998 -0.087931409 1.6494984e-38 268 313
-0.061431535 0.68699998 -0.087931409 1.6587538e-38 269 313
-0.060139328 0.68599999 -0.087803423 1.7138546e-38 270 313
-0.058936544 0.68599999 -0.087803423 1.7230741e-38 271 313
-0.057733759 0.68599999 -0.087803423 1.7048864e-38 272 313
-0.056530971 0.68599999 -0.087803423 1.6864833e-38 273 313
-0.055328183 0.68599999 -0.087803423 1.6864477e-38 274 313
-0.054125395 0.68599999 -0.087803423 1.6864477e-38 275 313
-0.05292261 0.68599999 -0.087803423 1.6864833e-38 276 313
-0.051569041 0.68400002 -0.087547436 1.6864833e-38 277 313
-0.050369758 0.68400002 -0.087547436 1.6772635e-38 278 313
-0.049170479 0.68400002 -0.087547436 1.6772635e-38 279 313
-0.048111461 0.68599999 -0.087803423 1.6680438e-38 280 313
-0.046908677 0.68599999 -0.087803423 1.6772635e-38 281 313
-0.045705888 0.68599999 -0.087803423 1.6587889e-38 282 313
-0.044567976 0.68699998 -0.087931409 1.6403139e-38 283 313
-0.043363437 0.68699998 -0.087931409 1.6126574e-38 284 313
-0.042404365 0.69099998 -0.088443391 1.5942183e-38 285 313
-0.072693199 0.69099998 -0.089654945 1.4100113e-38 260 314
-0.071481638 0.69099998 -0.089654945 1.4100113e-38 261 314
-0.070270091 0.69099998 -0.089654945 1.4560328e-38 262 314
-0.068958595 0.69 -0.0895252 1.5021304e-38 263 314
-0.0677488 0.69 -0.0895252 1.5207107e-38 264 314
-0.066346131 0.68800002 -0.089265712 1.5575529e-38 265 314
-0.065045156 0.68699998 -0.089135952 1.6309128e-38 266 314
-0.06384062 0.68699998 -0.089135952 1.6493878e-38 267 314
-0.062544905 0.68599999 -0.089006208 1.6586441e-38 268 314
-0.061342116 0.68599999 -0.089006208 1.6678637e-38 269 314
-0.060139328 0.68599999 -0.089006208 1.658752e-38 270 314
-0.058936544 0.68599999 -0.089006208 1.658752e-38 271 314
-0.057733759 0.68599999 -0.089006208 1.6863381e-38 272 314
-0.056366164 0.68400002 -0.088746719 1.6863381e-38 273 314
-0.055166878 0.68400002 -0.088746719 1.6771907e-38 274 314
-0.053967599 0.68400002 -0.088746719 1.6771907e-38 275 314
-0.05276832 0.68400002 -0.088746719 1.6863384e-38 276 314
-0.051569041 0.68400002 -0.088746719 1.6863384e-38 277 314
-0.050369758 0.68400002 -0.088746719 1.6771907e-38 278 314
-0.049170479 0.68400002 -0.088746719 1.6587517e-38 279 314
-0.048111461 0.68599999 -0.089006208 1.6863384e-38 280 314
-0.046908677 0.68599999 -0.089006208 1.6863384e-38 281 314
-0.045705888 0.68599999 -0.089006208 1.6403492e-38 282 314
-0.044567976 0.68699998 -0.089135952 1.6219461e-38 283 314
-0.043363437 0.68699998 -0.089135952 1.5851417e-38 284 314
-0.042220265 0.68800002 -0.089265712 1.5667024e-38 285 314
-0.071481638 0.69099998 -0.090866491 1.3732419e-38 261 315
-0.070270091 0.69099998 -0.090866491 1.4008969e-38 262 315
-0.068758719 0.68800002 -0.090471998 1.4285554e-38 263 315
-0.067552425 0.68800002 -0.090471998 1.4746147e-38 264 315
-0.066249698 0.68699998 -0.090340495 1.5114571e-38 265 315
-0.065045156 0.68699998 -0.090340495 1.5574445e-38 266 315
-0.063747689 0.68599999 -0.090209 1.5850671e-38 267 315
-0.062544905 0.68599999 -0.090209 1.594287e-38 268 315
-0.061342116 0.68599999 -0.090209 1.6035065e-38 269 315
-0.060139328 0.68599999 -0.090209 1.6035435e-38 270 315
-0.058764715 0.68400002 -0.089946002 1.6127631e-38 271 315
-0.057481278 0.68300003 -0.089814499 1.6219461e-38 272 315
-0.056283753 0.68300003 -0.089814499 1.6219461e-38 273 315
-0.055166878 0.68400002 -0.089946002 1.6403492e-38 274 315
-0.053967599 0.68400002 -0.089946002 1.6219461e-38 275 315
-0.052691177 0.68300003 -0.089814499 1.6403492e-38 276 315
-0.051493648 0.68300003 -0.089814499 1.6403492e-38 277 315
-0.05029612 0.68300003 -0.089814499 1.6403492e-38 278 315
-0.049098592 0.68300003 -0.089814499 1.6403492e-38 279 315
-0.047901068 0.68300003 -0.089814499 1.6402773e-38 280 315
-0.046771921 0.68400002 -0.089946002 1.6494969e-38 281 315
-0.045705888 0.68599999 -0.090209 1.6220182e-38 282 315
-0.044503104 0.68599999 -0.090209 1.6127987e-38 283 315
-0.043363437 0.68699998 -0.090340495 1.6034729e-38 284 315
-0.042158898 0.68699998 -0.090340495 1.5758501e-38 285 315
-0.040954359 0.68699998 -0.090340495 1.5482322e-38 286 315
-0.06996502 0.68800002 -0.091678292 1.3916053e-38 262 316
-0.068758719 0.68800002 -0.091678292 1.4100085e-38 263 316
-0.067552425 0.68800002 -0.091678292 1.4285167e-38 264 316
-0.066249698 0.68699998 -0.09154503 1.4653948e-38 265 316
-0.065045156 0.68699998 -0.09154503 1.5022358e-38 266 316
-0.063747689 0.68599999 -0.091411777 1.5206751e-38 267 316
-0.062544905 0.68599999 -0.091411777 1.5849602e-38 268 316
-0.061342116 0.68599999 -0.091411777 1.5941798e-38 269 316
-0.060139328 0.68599999 -0.091411777 1.594287e-38 270 316
-0.058764715 0.68400002 -0.091145277 1.6035065e-38 271 316
-0.057481278 0.68300003 -0.091012023 1.6035418e-38 272 316
-0.056283753 0.68300003 -0.091012023 1.6035418e-38 273 316
-0.055086225 0.68300003 -0.091012023 1.6218734e-38 274 316
-0.053888701 0.68300003 -0.091012023 1.6218734e-38 275 316
-0.052691177 0.68300003 -0.091012023 1.6218378e-38 276 316
-0.051493648 0.68300003 -0.091012023 1.6310933e-38 277 316
-0.050222475 0.68199998 -0.090878762 1.6127265e-38 278 316
-0.049026705 0.68199998 -0.090878762 1.6127265e-38 279 316
-0.047901068 0.68300003 -0.091012023 1.6218378e-38 280 316
-0.04670354 0.68300003 -0.091012023 1.6403129e-38 281 316
-0.045572639 0.68400002 -0.091145277 1.6127987e-38 282 316
-0.04437336 0.68400002 -0.091145277 1.6220182e-38 283 316
-0.043300316 0.68599999 -0.091411777 1.5942533e-38 284 316
-0.042097531 0.68599999 -0.091411777 1.5666305e-38 285 316
-0.040954359 0.68699998 -0.09154503 1.5482322e-38 286 316
-0.06996502 0.68800002 -0.092884585 1.364128e-38 262 317
-0.068758719 0.68800002 -0.092884585 1.3365052e-38 263 317
-0.067552425 0.68800002 -0.092884585 1.4100068e-38 264 317
-0.066249698 0.68699998 -0.092749573 1.428482e-38 265 317
-0.065045156 0.68699998 -0.092749573 1.511204e-38 266 317
-0.063747689 0.68599999 -0.092614569 1.5296431e-38 267 317
-0.062544905 0.68599999 -0.092614569 1.5573008e-38 268 317
-0.061163284 0.68400002 -0.092344552 1.5665564e-38 269 317
-0.059964001 0.68400002 -0.092344552 1.5574445e-38 270 317
-0.058764715 0.68400002 -0.092344552 1.5850671e-38 271 317
-0.057481278 0.68300003 -0.092209555 1.5667712e-38 272 317
-0.056283753 0.68300003 -0.092209555 1.5667712e-38 273 317
-0.055086225 0.68300003 -0.092209555 1.5943223e-38 274 317
-0.053809796 0.68199998 -0.092074543 1.5851027e-38 275 317
-0.052614026 0.68199998 -0.092074543 1.5942867e-38 276 317
-0.051418249 0.68199998 -0.092074543 1.5942867e-38 277 317
-0.050222475 0.68199998 -0.092074543 1.5759555e-38 278 317
-0.049026705 0.68199998 -0.092074543 1.5943586e-38 279 317
-0.047830928 0.68199998 -0.092074543 1.5942867e-38 280 317
-0.046635158 0.68199998 -0.092074543 1.6127618e-38 281 317
-0.045506012 0.68300003 -0.092209555 1.6035788e-38 282 317
-0.04437336 0.68400002 -0.092344552 1.6035788e-38 283 317
-0.043174081 0.68400002 -0.092344552 1.5759574e-38 284 317
-0.041974798 0.68400002 -0.092344552 1.5575182e-38 285 317
-0.040894743 0.68599999 -0.092614569 1.5206811e-38 286 317
-0.068758719 0.68800002 -0.094090879 1.327322e-38 263 318
-0.067552425 0.68800002 -0.094090879 1.3915324e-38 264 318
-0.066346131 0.68800002 -0.094090879 1.4100074e-38 265 318
-0.065045156 0.68699998 -0.093954116 1.4192973e-38 266 318
-0.06384062 0.68699998 -0.093954116 1.4561397e-38 267 318
-0.062544905 0.68599999 -0.093817353 1.5204954e-38 268 318
-0.061163284 0.68400002 -0.093543842 1.5389347e-38 269 318
-0.059964001 0.68400002 -0.093543842 1.5390416e-38 270 318
-0.05867881 0.68300003 -0.09340708 1.5482612e-38 271 318
-0.05739712 0.68199998 -0.093270317 1.5482968e-38 272 318
-0.056201346 0.68199998 -0.093270317 1.5482968e-38 273 318
-0.055005573 0.68199998 -0.093270317 1.5758476e-38 274 318
-0.053809796 0.68199998 -0.093270317 1.5574445e-38 275 318
-0.052614026 0.68199998 -0.093270317 1.5758478e-38 276 318
-0.051418249 0.68199998 -0.093270317 1.5758478e-38 277 318
-0.050222475 0.68199998 -0.093270317 1.5575526e-38 278 318
-0.049026705 0.68199998 -0.093270317 1.5575526e-38 279 318
-0.047830928 0.68199998 -0.093270317 1.5759911e-38 280 318
-0.046635158 0.68199998 -0.093270317 1.5943942e-38 281 318
-0.045439381 0.68199998 -0.093270317 1.5852473e-38 282 318
-0.044308487 0.68300003 -0.09340708 1.5852473e-38 283 318
-0.043110959 0.68300003 -0.09340708 1.5759574e-38 284 318
-0.041974798 0.68400002 -0.093543842 1.5575182e-38 285 318
-0.040775519 0.68400002 -0.093543842 1.5114608e-38 286 318
-0.068758719 0.68800002 -0.095297173 1.3088851e-38 263 319
-0.067552425 0.68800002 -0.095297173 1.3639466e-38 264 319
-0.066346131 0.68800002 -0.095297173 1.3639466e-38 265 319
-0.065045156 0.68699998 -0.095158651 1.419117e-38 266 319
-0.06384062 0.68699998 -0.095158651 1.437592e-38 267 319
-0.062544905 0.68599999 -0.095020145 1.4468819e-38 268 319
-0.061163284 0.68400002 -0.094743125 1.4929797e-38 269 319
-0.059876334 0.68300003 -0.094604604 1.5205655e-38 270 319
-0.05867881 0.68300003 -0.094604604 1.5390046e-38 271 319
-0.05739712 0.68199998 -0.09446609 1.5390399e-38 272 319
-0.056201346 0.68199998 -0.09446609 1.5390399e-38 273 319
-0.055005573 0.68199998 -0.09446609 1.5573712e-38 274 319
-0.053652 0.68000001 -0.094189063 1.5573712e-38 275 319
-0.052459732 0.68000001 -0.094189063 1.5391122e-38 276 319
-0.051267464 0.68000001 -0.094189063 1.5483318e-38 277 319
-0.050075196 0.68000001 -0.094189063 1.5575511e-38 278 319
-0.048882935 0.68000001 -0.094189063 1.5575511e-38 279 319
-0.047830928 0.68199998 -0.09446609 1.5575867e-38 280 319
-0.046635158 0.68199998 -0.09446609 1.5944289e-38 281 319
-0.045439381 0.68199998 -0.09446609 1.5759911e-38 282 319
-0.044243611 0.68199998 -0.09446609 1.5943942e-38 283 319
-0.043047838 0.68199998 -0.09446609 1.5575182e-38 284 319
-0.041913435 0.68300003 -0.094604604 1.5390792e-38 285 319
-0.040715907 0.68300003 -0.094604604 1.5114608e-38 286 319
-0.039518382 0.68300003 -0.094604604 1.6036925e-38 287 319
-0.068758719 0.68800002 -0.096503466 1.3089204e-38 263 320
-0.067552425 0.68800002 -0.096503466 1.3363955e-38 264 320
-0.066346131 0.68800002 -0.096503466 1.3456151e-38 265 320
-0.065045156 0.68699998 -0.096363194 1.3639448e-38 266 320
-0.06384062 0.68699998 -0.096363194 1.3639448e-38 267 320
-0.062362559 0.68400002 -0.0959424 1.4100406e-38 268 320
-0.061073858 0.68300003 -0.095802136 1.4376633e-38 269 320
-0.059876334 0.68300003 -0.095802136 1.4837949e-38 270 320
-0.058592889 0.68199998 -0.095661856 1.4930144e-38 271 320
-0.05739712 0.68199998 -0.095661856 1.4839747e-38 272 320
-0.056036532 0.68000001 -0.095381334 1.4839747e-38 273 320
-0.054844268 0.68000001 -0.095381334 1.5022708e-38 274 320
-0.053652 0.68000001 -0.095381334 1.5022708e-38 275 320
-0.052459732 0.68000001 -0.095381334 1.4839766e-38 276 320
-0.051267464 0.68000001 -0.095381334 1.4931962e-38 277 320
-0.050075196 0.68000001 -0.095381334 1.4749363e-38 278 320
-0.048882935 0.68000001 -0.095381334 1.4749363e-38 279 320
-0.047690667 0.68000001 -0.095381334 1.5116703e-38 280 320
-0.046498399 0.68000001 -0.095381334 1.5208899e-38 281 320
-0.045306131 0.68000001 -0.095381334 1.539258e-38 282 320
-0.044113863 0.68000001 -0.095381334 1.539258e-38 283 320
-0.043047838 0.68199998 -0.095661856 1.5483362e-38 284 320
-0.041852064 0.68199998 -0.095661856 1.5390807e-38 285 320
-0.040656291 0.68199998 -0.095661856 1.4746199e-38 286 320
-0.039460517 0.68199998 -0.095661856 1.5852546e-38 287 320
-0.067454241 0.68699998 -0.097567737 1.3365052e-38 264 321
-0.066249698 0.68699998 -0.097567737 1.3088107e-38 265 321
-0.065045156 0.68699998 -0.097567737 1.3547252e-38 266 321
-0.063747689 0.68599999 -0.097425714 1.3455055e-38 267 321
-0.062362559 0.68400002 -0.097141676 1.4006411e-38 268 321
-0.061073858 0.68300003 -0.09699966 1.4190804e-38 269 321
-0.059788663 0.68199998 -0.09685763 1.4285143e-38 270 321
-0.058592889 0.68199998 -0.09685763 1.4469535e-38 271 321
-0.05739712 0.68199998 -0.09685763 1.4654636e-38 272 321
-0.056036532 0.68000001 -0.096573599 1.4746832e-38 273 321
-0.054844268 0.68000001 -0.096573599 1.4746476e-38 274 321
-0.053652 0.68000001 -0.096573599 1.4930866e-38 275 321
-0.052459732 0.68000001 -0.096573599 1.456353e-38 276 321
-0.051192071 0.67900002 -0.096431576 1.4840115e-38 277 321
-0.050001562 0.67900002 -0.096431576 1.4656447e-38 278 321
-0.048811045 0.67900002 -0.096431576 1.4656447e-38 279 321
-0.047620531 0.67900002 -0.096431576 1.5207101e-38 280 321
-0.046430022 0.67900002 -0.096431576 1.5391851e-38 281 321
-0.045239504 0.67900002 -0.096431576 1.5300018e-38 282 321
-0.044048995 0.67900002 -0.096431576 1.5392214e-38 283 321
-0.042921599 0.68000001 -0.096573599 1.5023807e-38 284 321
-0.041729335 0.68000001 -0.096573599 1.5023807e-38 285 321
-0.040537067 0.68000001 -0.096573599 1.4472113e-38 286 321
-0.039344799 0.68000001 -0.096573599 1.5301874e-38 287 321
-0.067454241 0.68699998 -0.098772272 1.3090272e-38 264 322
-0.066249698 0.68699998 -0.098772272 1.2721848e-38 265 322
-0.065045156 0.68699998 -0.098772272 1.3271389e-38 266 322
-0.063747689 0.68599999 -0.098628499 1.3271389e-38 267 322
-0.06227139 0.68300003 -0.098197185 1.3179897e-38 268 322
-0.060984433 0.68199998 -0.098053411 1.3272093e-38 269 322
-0.059788663 0.68199998 -0.098053411 1.3548677e-38 270 322
-0.058592889 0.68199998 -0.098053411 1.391746e-38 271 322
-0.057228796 0.68000001 -0.09776587 1.4011082e-38 272 322
-0.056036532 0.68000001 -0.09776587 1.4011082e-38 273 322
-0.054844268 0.68000001 -0.09776587 1.4011798e-38 274 322
-0.053573098 0.67900002 -0.097622089 1.4011798e-38 275 322
-0.052382588 0.67900002 -0.097622089 1.4103999e-38 276 322
-0.051192071 0.67900002 -0.097622089 1.4196195e-38 277 322
-0.050001562 0.67900002 -0.097622089 1.4013248e-38 278 322
-0.048739154 0.67799997 -0.097478308 1.4013248e-38 279 322
-0.047550395 0.67799997 -0.097478308 1.419656e-38 280 322
-0.046430022 0.67900002 -0.097622089 1.4380953e-38 281 322
-0.045172878 0.67799997 -0.097478308 1.4656814e-38 282 322
-0.043984115 0.67799997 -0.097478308 1.4380586e-38 283 322
-0.042858478 0.67900002 -0.097622089 1.4287687e-38 284 322
-0.041667968 0.67900002 -0.097622089 1.4563915e-38 285 322
-0.040477451 0.67900002 -0.097622089 1.4105851e-38 286 322
-0.039286941 0.67900002 -0.097622089 1.456683e-38 287 322
-0.066249698 0.68699998 -0.099976815 1.2721866e-38 265 323
-0.065045156 0.68699998 -0.099976815 1.3179206e-38 266 323
-0.063747689 0.68599999 -0.099831291 1.3087011e-38 267 323
-0.06227139 0.68300003 -0.099394716 1.3087346e-38 268 323
-0.060984433 0.68199998 -0.099249184 1.299515e-38 269 323
-0.059788663 0.68199998 -0.099249184 1.3088062e-38 270 323
-0.058421064 0.68000001 -0.098958135 1.3365009e-38 271 323
-0.057228796 0.68000001 -0.098958135 1.3641939e-38 272 323
-0.056036532 0.68000001 -0.098958135 1.3734135e-38 273 323
-0.054763615 0.67900002 -0.09881261 1.3919954e-38 274 323
-0.053573098 0.67900002 -0.09881261 1.3919954e-38 275 323
-0.052382588 0.67900002 -0.09881261 1.3552627e-38 276 323
-0.051116679 0.67799997 -0.09866707 1.3552627e-38 277 323
-0.049927916 0.67799997 -0.09866707 1.3552627e-38 278 323
-0.048595384 0.676 -0.098376028 1.3736658e-38 279 323
-0.047410134 0.676 -0.098376028 1.3277126e-38 280 323
-0.046361636 0.67799997 -0.09866707 1.3553712e-38 281 323
-0.045039624 0.676 -0.098376028 1.4103643e-38 282 323
-0.043854371 0.676 -0.098376028 1.3919252e-38 283 323
-0.042795356 0.67799997 -0.09866707 1.3368229e-38 284 323
-0.041606598 0.67799997 -0.09866707 1.3736653e-38 285 323
-0.040417835 0.67799997 -0.09866707 1.3737052e-38 286 323
-0.039229076 0.67799997 -0.09866707 1.4382063e-38 287 323
-0.066346131 0.68800002 -0.10132864 1.2629691e-38 265 324
-0.065045156 0.68699998 -0.10118135 1.3088828e-38 266 324
-0.063747689 0.68599999 -0.10103408 1.262785e-38 267 324
-0.062362559 0.68400002 -0.10073952 1.2994797e-38 268 324
-0.060984433 0.68199998 -0.10044495 1.2902601e-38 269 324
-0.059788663 0.68199998 -0.10044495 1.2719637e-38 270 324
-0.058421064 0.68000001 -0.10015039 1.2812191e-38 271 324
-0.057228796 0.68000001 -0.10015039 1.3088768e-38 272 324
-0.055954125 0.67900002 -0.10000312 1.3180964e-38 273 324
-0.054682959 0.67799997 -0.099855833 1.3091283e-38 274 324
-0.053494196 0.67799997 -0.099855833 1.3183838e-38 275 324
-0.052151144 0.676 -0.099561274 1.3368232e-38 276 324
-0.050965894 0.676 -0.099561274 1.3275677e-38 277 324
-0.049780637 0.676 -0.099561274 1.3184914e-38 278 324
-0.048595384 0.676 -0.099561274 1.3092718e-38 279 324
-0.047410134 0.676 -0.099561274 1.2908337e-38 280 324
-0.046224877 0.676 -0.099561274 1.2724306e-38 281 324
-0.045039624 0.676 -0.099561274 1.2908693e-38 282 324
-0.043854371 0.676 -0.099561274 1.2724662e-38 283 324
-0.042669121 0.676 -0.099561274 1.3090567e-38 284 324
-0.041606598 0.67799997 -0.099855833 1.3182763e-38 285 324
-0.040417835 0.67799997 -0.099855833 1.3184599e-38 286 324
-0.039229076 0.67799997 -0.099855833 1.3922164e-38 287 324
-0.065045156 0.68699998 -0.10238589 1.3088828e-38 266 325
-0.063747689 0.68599999 -0.10223686 1.2720047e-38 267 325
-0.062362559 0.68400002 -0.1019388 1.2902601e-38 268 325
-0.060984433 0.68199998 -0.10164072 1.2810406e-38 269 325
-0.059788663 0.68199998 -0.10164072 1.2534538e-38 270 325
-0.058421064 0.68000001 -0.10134266 1.2534538e-38 271 325
-0.057228796 0.68000001 -0.10134266 1.2076804e-38 272 325
-0.055954125 0.67900002 -0.10119363 1.2168999e-38 273 325
-0.054682959 0.67799997 -0.1010446 1.2079661e-38 274 325
-0.053336397 0.676 -0.10074653 1.2171856e-38 275 325
-0.052151144 0.676 -0.10074653 1.2723576e-38 276 325
-0.050965894 0.676 -0.10074653 1.2908327e-38 277 325
-0.049780637 0.676 -0.10074653 1.2449517e-38 278 325
-0.048595384 0.676 -0.10074653 1.2357321e-38 279 325
-0.047410134 0.676 -0.10074653 1.2264418e-38 280 325
-0.046224877 0.676 -0.10074653 1.2172222e-38 281 325
-0.045039624 0.676 -0.10074653 1.1713049e-38 282 325
-0.043854371 0.676 -0.10074653 1.1620495e-38 283 325
-0.042669121 0.676 -0.10074653 1.2078238e-38 284 325
-0.041606598 0.67799997 -0.1010446 1.226227e-38 285 325
-0.040298611 0.676 -0.10074653 1.2631069e-38 286 325
-0.039113361 0.676 -0.10074653 1.3368993e-38 287 325
-0.038040318 0.67799997 -0.1010446 1.4752335e-38 288 325
-0.063747689 0.68599999 -0.10343964 1.2260539e-38 267 326
-0.062362559 0.68400002 -0.10313808 1.2440941e-38 268 326
-0.060984433 0.68199998 -0.1028365 1.2717529e-38 269 326
-0.059788663 0.68199998 -0.1028365 1.2259048e-38 270 326
-0.058421064 0.68000001 -0.10253493 1.1982463e-38 271 326
-0.057228796 0.68000001 -0.10253493 1.1891326e-38 272 326
-0.055954125 0.67900002 -0.10238414 1.1891326e-38 273 326
-0.054682959 0.67799997 -0.10223336 1.1340644e-38 274 326
-0.053336397 0.676 -0.10193179 1.1340644e-38 275 326
-0.052151144 0.676 -0.10193179 1.1617941e-38 276 326
-0.050965894 0.676 -0.10193179 1.1894528e-38 277 326
-0.049780637 0.676 -0.10193179 1.2355153e-38 278 326
-0.048523501 0.67500001 -0.101781 1.2447349e-38 279 326
-0.047339998 0.67500001 -0.101781 1.244592e-38 280 326
-0.0461565 0.67500001 -0.101781 1.1984941e-38 281 326
-0.044972997 0.67500001 -0.101781 1.1434291e-38 282 326
-0.043854371 0.676 -0.10193179 1.0881118e-38 283 326
-0.042669121 0.676 -0.10193179 1.1431431e-38 284 326
-0.041483864 0.676 -0.10193179 1.1523986e-38 285 326
-0.040298611 0.676 -0.10193179 1.1433977e-38 286 326
-0.039113361 0.676 -0.10193179 1.2816912e-38 287 326
-0.038040318 0.67799997 -0.10223336 1.4199534e-38 288 326
-0.062544905 0.68599999 -0.10464244 1.2719694e-38 268 327
-0.061073858 0.68300003 -0.10418482 1.2443106e-38 269 327
-0.059788663 0.68199998 -0.10403228 1.2534187e-38 270 327
-0.058421064 0.68000001 -0.1037272 1.2349796e-38 271 327
-0.057228796 0.68000001 -0.1037272 1.2074285e-38 272 327
-0.055871718 0.67799997 -0.10342211 1.1705503e-38 273 327
-0.054521654 0.676 -0.10311703 1.0788937e-38 274 327
-0.053336397 0.676 -0.10311703 1.0512352e-38 275 327
-0.052151144 0.676 -0.10311703 1.0971878e-38 276 327
