# .PCD v.7 - Point Cloud Data file format
FIELDS x y z rgb imX imY
SIZE 4 4 4 4 4 4
TYPE F F F F F F
COUNT 1 1 1 1 1 1
WIDTH 830
HEIGHT 1
VIEWPOINT 0 0 0 1 0 0 0
POINTS 830
DATA ascii
-0.014656113 0.64300001 -0.04847791 1.815701e-38 307 283
-0.01352872 0.64300001 -0.04847791 1.8340306e-38 308 283
-0.012401327 0.64300001 -0.04847791 1.8340306e-38 309 283
-0.011291467 0.64399999 -0.048553303 1.8340654e-38 310 283
-0.01016232 0.64399999 -0.048553303 1.8340654e-38 311 283
-0.0090612266 0.64600003 -0.048704095 1.8432852e-38 312 283
-0.0079285735 0.64600003 -0.048704095 1.8340657e-38 313 283
-0.00679592 0.64600003 -0.048704095 1.815627e-38 314 283
-0.0056632664 0.64600003 -0.048704095 1.7879681e-38 315 283
-0.0045376266 0.64700001 -0.048779488 1.7509467e-38 316 283
-0.00339796 0.64600003 -0.048704095 1.7694218e-38 317 283
-0.0022653067 0.64600003 -0.048704095 1.760347e-38 318 283
-0.0011326533 0.64600003 -0.048704095 1.7695666e-38 319 283
0 0.64600003 -0.048704095 1.7878612e-38 320 283
0.0011344067 0.64700001 -0.048779488 1.7786417e-38 321 283
0.0022688133 0.64700001 -0.048779488 1.7694568e-38 322 283
0.0034032199 0.64700001 -0.048779488 1.7602373e-38 323 283
0.0045376266 0.64700001 -0.048779488 1.7327581e-38 324 283
0.0056895665 0.64899999 -0.048930272 1.7235384e-38 325 283
0.0068274797 0.64899999 -0.048930272 1.7234665e-38 326 283
0.0079653924 0.64899999 -0.048930272 1.6865884e-38 327 283
0.0091033066 0.64899999 -0.048930272 1.6865887e-38 328 283
0.01024122 0.64899999 -0.048930272 1.6681135e-38 329 283
0.011379133 0.64899999 -0.048930272 1.6313429e-38 330 283
0.012517046 0.64899999 -0.048930272 1.6221233e-38 331 283
0.013654959 0.64899999 -0.048930272 1.6129035e-38 332 283
0.014815666 0.64999998 -0.049005665 1.6129035e-38 333 283
0.015955333 0.64999998 -0.049005665 1.585353e-38 334 283
0.017147599 0.65200001 -0.049156453 1.5576583e-38 335 283
0.018318826 0.653 -0.049231846 1.5300003e-38 336 283
0.019463753 0.653 -0.049231846 1.5300003e-38 337 283
0.020640239 0.65399998 -0.049307238 1.5207823e-38 338 283
0.021786919 0.65399998 -0.049307238 1.5115627e-38 339 283
0.022933599 0.65399998 -0.049307238 1.4748644e-38 340 283
0.024080278 0.65399998 -0.049307238 1.4656447e-38 341 283
0.025265532 0.65499997 -0.049382631 1.4472406e-38 342 283
0.026413966 0.65499997 -0.049382631 1.4288015e-38 343 283
0.027562398 0.65499997 -0.049382631 1.41029e-38 344 283
0.028798498 0.65700001 -0.049533416 1.3918869e-38 345 283
0.029996024 0.65799999 -0.049608808 1.3551544e-38 346 283
0.031197058 0.65899998 -0.049684204 1.3551544e-38 347 283
0.032352503 0.65899998 -0.049684204 1.3274258e-38 348 283
0.033609647 0.66100001 -0.049834993 1.3182062e-38 349 283
0.034821201 0.662 -0.049910385 1.2999113e-38 350 283
0.036090612 0.66399997 -0.05006117 1.2906917e-38 351 283
0.037367038 0.66600001 -0.050211959 1.2723608e-38 352 283
0.03853476 0.66600001 -0.050211959 1.2723608e-38 353 283
0.039762091 0.667 -0.050287351 1.2539933e-38 354 283
0.040931564 0.667 -0.050287351 1.2632128e-38 355 283
0.042164158 0.66799998 -0.050362743 1.2723608e-38 356 283
0.043465134 0.67000002 -0.050513536 1.2907639e-38 357 283
0.044706494 0.671 -0.050588924 1.2999837e-38 358 283
0.045882981 0.671 -0.050588924 1.3092033e-38 359 283
0.047269866 0.67400002 -0.050815105 1.2908015e-38 360 283
0.048595384 0.676 -0.050965894 1.2908015e-38 361 283
0.049706999 0.67500001 -0.050890498 1.2538901e-38 362 283
0.050890498 0.67500001 -0.050890498 1.2077563e-38 363 283
-0.016910899 0.64300001 -0.049605306 1.806444e-38 305 284
-0.015783506 0.64300001 -0.049605306 1.8064796e-38 306 284
-0.014656113 0.64300001 -0.049605306 1.8249187e-38 307 284
-0.01352872 0.64300001 -0.049605306 1.8340304e-38 308 284
-0.012401327 0.64300001 -0.049605306 1.8432499e-38 309 284
-0.011273934 0.64300001 -0.049605306 1.824954e-38 310 284
-0.01014654 0.64300001 -0.049605306 1.8157344e-38 311 284
-0.0090331733 0.64399999 -0.049682453 1.8340657e-38 312 284
-0.0079040267 0.64399999 -0.049682453 1.8340657e-38 313 284
-0.0067748795 0.64399999 -0.049682453 1.8064074e-38 314 284
-0.0056457333 0.64399999 -0.049682453 1.7879681e-38 315 284
-0.0045306133 0.64600003 -0.049836747 1.7878612e-38 316 284
-0.00339796 0.64600003 -0.049836747 1.7786417e-38 317 284
-0.0022653067 0.64600003 -0.049836747 1.7510916e-38 318 284
-0.0011326533 0.64600003 -0.049836747 1.741872e-38 319 284
0 0.64600003 -0.049836747 1.7326154e-38 320 284
0.0011326533 0.64600003 -0.049836747 1.7233959e-38 321 284
0.0022688133 0.64700001 -0.049913891 1.6958801e-38 322 284
0.0034032199 0.64700001 -0.049913891 1.7050997e-38 323 284
0.0045376266 0.64700001 -0.049913891 1.7142114e-38 324 284
0.0056720334 0.64700001 -0.049913891 1.6865887e-38 325 284
0.0068169599 0.648 -0.049991041 1.6681858e-38 326 284
0.0079531204 0.648 -0.049991041 1.6589661e-38 327 284
0.0091033066 0.64899999 -0.050068185 1.6405277e-38 328 284
0.01024122 0.64899999 -0.050068185 1.6405277e-38 329 284
0.011379133 0.64899999 -0.050068185 1.5945372e-38 330 284
0.01249776 0.648 -0.049991041 1.5853177e-38 331 284
0.01363392 0.648 -0.049991041 1.6036839e-38 332 284
0.014792874 0.64899999 -0.050068185 1.5944642e-38 333 284
0.015930785 0.64899999 -0.050068185 1.5576939e-38 334 284
0.017095 0.64999998 -0.050145328 1.5300353e-38 335 284
0.018290773 0.65200001 -0.050299626 1.4932295e-38 336 284
0.019433947 0.65200001 -0.050299626 1.48401e-38 337 284
0.020608678 0.653 -0.050376773 1.4747917e-38 338 284
0.021753605 0.653 -0.050376773 1.447169e-38 339 284
0.022933599 0.65399998 -0.050453916 1.4379491e-38 340 284
0.024080278 0.65399998 -0.050453916 1.4195099e-38 341 284
0.025226958 0.65399998 -0.050453916 1.3735194e-38 342 284
0.026413966 0.65499997 -0.050531063 1.3458609e-38 343 284
0.027562398 0.65499997 -0.050531063 1.3273863e-38 344 284
0.028710833 0.65499997 -0.050531063 1.3366058e-38 345 284
0.029996024 0.65799999 -0.050762504 1.3366081e-38 346 284
0.031197058 0.65899998 -0.050839648 1.3273885e-38 347 284
0.032352503 0.65899998 -0.050839648 1.2996595e-38 348 284
0.033609647 0.66100001 -0.050993945 1.2996595e-38 349 284
0.034821201 0.662 -0.051071092 1.2722526e-38 350 284
0.036036257 0.66299999 -0.051148236 1.2722526e-38 351 284
0.037254825 0.66399997 -0.051225383 1.2355543e-38 352 284
0.03853476 0.66600001 -0.051379681 1.2539933e-38 353 284
0.039762091 0.667 -0.051456824 1.2631054e-38 354 284
0.040931564 0.667 -0.051456824 1.2631054e-38 355 284
0.042164158 0.66799998 -0.051533967 1.2723252e-38 356 284
0.043465134 0.67000002 -0.051688269 1.2907283e-38 357 284
0.044706494 0.671 -0.051765412 1.2816172e-38 358 284
0.045882981 0.671 -0.051765412 1.2816172e-38 359 284
0.047339998 0.67500001 -0.052074 1.2815469e-38 360 284
0.048523501 0.67500001 -0.052074 1.2354492e-38 361 284
0.049706999 0.67500001 -0.052074 1.1708437e-38 362 284
-0.02684704 0.63800001 -0.050338201 1.7327266e-38 296 285
-0.025728412 0.63800001 -0.050338201 1.7142874e-38 297 285
-0.024609786 0.63800001 -0.050338201 1.7694581e-38 298 285
-0.023491161 0.63800001 -0.050338201 1.7879331e-38 299 285
-0.022372533 0.63800001 -0.050338201 1.7971524e-38 300 285
-0.021253906 0.63800001 -0.050338201 1.8063721e-38 301 285
-0.020198399 0.63999999 -0.050495997 1.8155922e-38 302 285
-0.019076265 0.63999999 -0.050495997 1.8063727e-38 303 285
-0.018038293 0.64300001 -0.050732698 1.7972244e-38 304 285
-0.016910899 0.64300001 -0.050732698 1.806444e-38 305 285
-0.01575896 0.64200002 -0.0506538 1.806444e-38 306 285
-0.01463332 0.64200002 -0.0506538 1.8156994e-38 307 285
-0.01350768 0.64200002 -0.0506538 1.7973326e-38 308 285
-0.01238204 0.64200002 -0.0506538 1.7973326e-38 309 285
-0.0112564 0.64200002 -0.0506538 1.8157357e-38 310 285
-0.01014654 0.64300001 -0.050732698 1.788113e-38 311 285
-0.00900512 0.64200002 -0.0506538 1.7788929e-38 312 285
-0.0078794798 0.64200002 -0.0506538 1.7696732e-38 313 285
-0.00675384 0.64200002 -0.0506538 1.7696366e-38 314 285
-0.0056281998 0.64200002 -0.0506538 1.7511975e-38 315 285
-0.00450256 0.64200002 -0.0506538 1.7510903e-38 316 285
-0.0033874398 0.64399999 -0.050811596 1.7510903e-38 317 285
-0.0022582933 0.64399999 -0.050811596 1.7327231e-38 318 285
-0.0011291467 0.64399999 -0.050811596 1.7235034e-38 319 285
0 0.64600003 -0.0509694 1.7049921e-38 320 285
0.0011326533 0.64600003 -0.0509694 1.6865531e-38 321 285
0.0022653067 0.64600003 -0.0509694 1.6590392e-38 322 285
0.00339796 0.64600003 -0.0509694 1.6590392e-38 323 285
0.0045306133 0.64600003 -0.0509694 1.6681155e-38 324 285
0.0056632664 0.64600003 -0.0509694 1.6404927e-38 325 285
0.0068064397 0.64700001 -0.051048297 1.6313447e-38 326 285
0.0079408465 0.64700001 -0.051048297 1.6037221e-38 327 285
0.0090752533 0.64700001 -0.051048297 1.5945385e-38 328 285
0.010225439 0.648 -0.051127199 1.5853189e-38 329 285
0.0113616 0.648 -0.051127199 1.5577682e-38 330 285
0.01249776 0.648 -0.051127199 1.5485484e-38 331 285
0.01363392 0.648 -0.051127199 1.5209252e-38 332 285
0.014770079 0.648 -0.051127199 1.5117056e-38 333 285
0.015930785 0.64899999 -0.051206097 1.5115975e-38 334 285
0.017095 0.64999998 -0.051284995 1.4931942e-38 335 285
0.018234665 0.64999998 -0.051284995 1.456353e-38 336 285
0.019374331 0.64999998 -0.051284995 1.4379138e-38 337 285
0.02057712 0.65200001 -0.051442798 1.4288012e-38 338 285
0.021753605 0.653 -0.0515217 1.3919588e-38 339 285
0.022898532 0.653 -0.0515217 1.3919217e-38 340 285
0.024080278 0.65399998 -0.051600594 1.364263e-38 341 285
0.025226958 0.65399998 -0.051600594 1.3273515e-38 342 285
0.02637364 0.65399998 -0.051600594 1.318132e-38 343 285
0.027562398 0.65499997 -0.051679496 1.2628891e-38 344 285
0.028710833 0.65499997 -0.051679496 1.2812922e-38 345 285
0.030041611 0.65899998 -0.051995095 1.262961e-38 346 285
0.031197058 0.65899998 -0.051995095 1.2537415e-38 347 285
0.032352503 0.65899998 -0.051995095 1.253634e-38 348 285
0.033609647 0.66100001 -0.052152898 1.2628535e-38 349 285
0.034821201 0.662 -0.0522318 1.2446298e-38 350 285
0.036036257 0.66299999 -0.052310698 1.2538494e-38 351 285
0.037254825 0.66399997 -0.052389596 1.2355546e-38 352 285
0.03853476 0.66600001 -0.052547399 1.2539577e-38 353 285
0.039762091 0.667 -0.052626297 1.2723608e-38 354 285
0.040931564 0.667 -0.052626297 1.2723608e-38 355 285
0.042164158 0.66799998 -0.052705199 1.2907283e-38 356 285
0.043465134 0.67000002 -0.052863002 1.2999837e-38 357 285
0.044706494 0.671 -0.052941896 1.2723623e-38 358 285
0.045882981 0.671 -0.052941896 1.2723623e-38 359 285
0.047339998 0.67500001 -0.053257499 1.2262312e-38 360 285
0.048523501 0.67500001 -0.053257499 1.1801333e-38 361 285
-0.031419732 0.63999999 -0.051618129 1.7878682e-38 292 286
-0.030297596 0.63999999 -0.051618129 1.7878682e-38 293 286
-0.029175464 0.63999999 -0.051618129 1.760386e-38 294 286
-0.027965667 0.63800001 -0.051456824 1.7511664e-38 295 286
-0.02684704 0.63800001 -0.051456824 1.7695663e-38 296 286
-0.025728412 0.63800001 -0.051456824 1.7787858e-38 297 286
-0.024609786 0.63800001 -0.051456824 1.7971874e-38 298 286
-0.023491161 0.63800001 -0.051456824 1.806443e-38 299 286
-0.022372533 0.63800001 -0.051456824 1.8156623e-38 300 286
-0.021253906 0.63800001 -0.051456824 1.8064426e-38 301 286
-0.020198399 0.63999999 -0.051618129 1.8247742e-38 302 286
-0.019076265 0.63999999 -0.051618129 1.8247742e-38 303 286
-0.017982185 0.64099997 -0.051698782 1.7972597e-38 304 286
-0.016884599 0.64200002 -0.051779442 1.7788565e-38 305 286
-0.01575896 0.64200002 -0.051779442 1.8247389e-38 306 286
-0.01463332 0.64200002 -0.051779442 1.8155192e-38 307 286
-0.013486639 0.64099997 -0.051698782 1.8247022e-38 308 286
-0.012362752 0.64099997 -0.051698782 1.8247022e-38 309 286
-0.011238866 0.64099997 -0.051698782 1.7879313e-38 310 286
-0.010114979 0.64099997 -0.051698782 1.7694922e-38 311 286
-0.0089910924 0.64099997 -0.051698782 1.7510526e-38 312 286
-0.0078672068 0.64099997 -0.051698782 1.7234299e-38 313 286
-0.0067433193 0.64099997 -0.051698782 1.7051347e-38 314 286
-0.0056194332 0.64099997 -0.051698782 1.6959152e-38 315 286
-0.0044955462 0.64099997 -0.051698782 1.686624e-38 316 286
-0.00337692 0.64200002 -0.051779442 1.6773686e-38 317 286
-0.00225128 0.64200002 -0.051779442 1.6682563e-38 318 286
-0.0011291467 0.64399999 -0.051940747 1.6405978e-38 319 286
0 0.64399999 -0.051940747 1.6496381e-38 320 286
0.0011326533 0.64600003 -0.052102055 1.6588577e-38 321 286
0.0022653067 0.64600003 -0.052102055 1.6588227e-38 322 286
0.00339796 0.64600003 -0.052102055 1.6588227e-38 323 286
0.0045306133 0.64600003 -0.052102055 1.6220167e-38 324 286
0.0056632664 0.64600003 -0.052102055 1.6220167e-38 325 286
0.00679592 0.64600003 -0.052102055 1.6128687e-38 326 286
0.0079285735 0.64600003 -0.052102055 1.6036492e-38 327 286
0.0090612266 0.64600003 -0.052102055 1.5760627e-38 328 286
0.01020966 0.64700001 -0.052182708 1.5760627e-38 329 286
0.011344067 0.64700001 -0.052182708 1.5575879e-38 330 286
0.012478473 0.64700001 -0.052182708 1.5391848e-38 331 286
0.013612879 0.64700001 -0.052182708 1.5208529e-38 332 286
0.014770079 0.648 -0.05226336 1.4839747e-38 333 286
0.015930785 0.64899999 -0.052344013 1.502234e-38 334 286
0.017068699 0.64899999 -0.052344013 1.4745753e-38 335 286
0.018234665 0.64999998 -0.052424666 1.428622e-38 336 286
0.019374331 0.64999998 -0.052424666 1.4194024e-38 337 286
0.02057712 0.65200001 -0.052585974 1.3917787e-38 338 286
0.021720294 0.65200001 -0.052585974 1.3364614e-38 339 286
0.022898532 0.653 -0.052666627 1.2996907e-38 340 286
0.024080278 0.65399998 -0.052747279 1.290471e-38 341 286
0.025226958 0.65399998 -0.052747279 1.2995854e-38 342 286
0.02637364 0.65399998 -0.052747279 1.2995854e-38 343 286
0.027562398 0.65499997 -0.052827932 1.2719639e-38 344 286
0.028710833 0.65499997 -0.052827932 1.2811835e-38 345 286
0.030041611 0.65899998 -0.053150542 1.2537043e-38 346 286
0.031197058 0.65899998 -0.053150542 1.2537043e-38 347 286
0.032450691 0.66100001 -0.053311851 1.2445213e-38 348 286
0.033609647 0.66100001 -0.053311851 1.2537409e-38 349 286
0.034821201 0.662 -0.053392503 1.2447014e-38 350 286
0.036036257 0.66299999 -0.053473156 1.2447014e-38 351 286
0.037254825 0.66399997 -0.053553808 1.2631407e-38 352 286
0.03853476 0.66600001 -0.053715117 1.2631407e-38 353 286
0.039762091 0.667 -0.05379577 1.2907273e-38 354 286
0.040931564 0.667 -0.05379577 1.2907273e-38 355 286
0.042290401 0.67000002 -0.054037735 1.290692e-38 356 286
0.043465134 0.67000002 -0.054037735 1.3091311e-38 357 286
-0.0397656 0.63 -0.051916201 1.8071067e-38 284 287
-0.038660996 0.63 -0.051916201 1.8163262e-38 285 287
-0.037556399 0.63 -0.051916201 1.8437308e-38 286 287
-0.036509659 0.63099998 -0.051998604 1.8068526e-38 287 287
-0.035459414 0.63200003 -0.052081011 1.8342554e-38 288 287
-0.033558797 0.63800001 -0.05257545 1.7512736e-38 290 287
-0.032440174 0.63800001 -0.05257545 1.6959562e-38 291 287
-0.031419732 0.63999999 -0.052740265 1.7602017e-38 292 287
-0.03020292 0.63800001 -0.05257545 1.7694571e-38 293 287
-0.029084295 0.63800001 -0.05257545 1.7880035e-38 294 287
-0.027965667 0.63800001 -0.05257545 1.8064426e-38 295 287
-0.02684704 0.63800001 -0.05257545 1.7972949e-38 296 287
-0.025728412 0.63800001 -0.05257545 1.8065146e-38 297 287
-0.024609786 0.63800001 -0.05257545 1.8156976e-38 298 287
-0.02345434 0.63700002 -0.052493047 1.8156976e-38 299 287
-0.022337466 0.63700002 -0.052493047 1.8156626e-38 300 287
-0.021253906 0.63800001 -0.05257545 1.806443e-38 301 287
-0.020198399 0.63999999 -0.052740265 1.7879328e-38 302 287
-0.019076265 0.63999999 -0.052740265 1.8063721e-38 303 287
-0.017954132 0.63999999 -0.052740265 1.7878975e-38 304 287
-0.016884599 0.64200002 -0.052905083 1.7786779e-38 305 287
-0.01575896 0.64200002 -0.052905083 1.7694581e-38 306 287
-0.014610525 0.64099997 -0.052822668 1.751055e-38 307 287
-0.013486639 0.64099997 -0.052822668 1.7419409e-38 308 287
-0.012362752 0.64099997 -0.052822668 1.7327214e-38 309 287
-0.011238866 0.64099997 -0.052822668 1.7418678e-38 310 287
-0.010114979 0.64099997 -0.052822668 1.7234647e-38 311 287
-0.0089770658 0.63999999 -0.052740265 1.7142098e-38 312 287
-0.0078549329 0.63999999 -0.052740265 1.6957705e-38 313 287
-0.0067433193 0.64099997 -0.052822668 1.6589659e-38 314 287
-0.0056194332 0.64099997 -0.052822668 1.6589659e-38 315 287
-0.0044955462 0.64099997 -0.052822668 1.6590012e-38 316 287
-0.0033716597 0.64099997 -0.052822668 1.6221589e-38 317 287
-0.00225128 0.64200002 -0.052905083 1.6221218e-38 318 287
-0.00112564 0.64200002 -0.052905083 1.6036825e-38 319 287
0 0.64300001 -0.052987486 1.5945372e-38 320 287
0.0011273933 0.64300001 -0.052987486 1.5853177e-38 321 287
0.0022582933 0.64399999 -0.05306989 1.5852473e-38 322 287
0.0033874398 0.64399999 -0.05306989 1.5852473e-38 323 287
0.0045306133 0.64600003 -0.053234708 1.5485484e-38 324 287
0.0056632664 0.64600003 -0.053234708 1.5393289e-38 325 287
0.00679592 0.64600003 -0.053234708 1.5393283e-38 326 287
0.0079285735 0.64600003 -0.053234708 1.5209252e-38 327 287
0.0090612266 0.64600003 -0.053234708 1.5209255e-38 328 287
0.01019388 0.64600003 -0.053234708 1.5024864e-38 329 287
0.011344067 0.64700001 -0.053317111 1.474865e-38 330 287
0.012478473 0.64700001 -0.053317111 1.474865e-38 331 287
0.013612879 0.64700001 -0.053317111 1.4747564e-38 332 287
0.014747286 0.64700001 -0.053317111 1.4379141e-38 333 287
0.015906241 0.648 -0.053399518 1.4194743e-38 334 287
0.017068699 0.64899999 -0.053481925 1.4102547e-38 335 287
0.018206613 0.64899999 -0.053481925 1.3733419e-38 336 287
0.019374331 0.64999998 -0.053564329 1.345683e-38 337 287
0.02057712 0.65200001 -0.053729147 1.3180611e-38 338 287
0.021720294 0.65200001 -0.053729147 1.2996219e-38 339 287
0.022898532 0.653 -0.05381155 1.2812557e-38 340 287
0.024080278 0.65399998 -0.053893957 1.2627807e-38 341 287
0.025226958 0.65399998 -0.053893957 1.262781e-38 342 287
0.02637364 0.65399998 -0.053893957 1.262781e-38 343 287
0.027562398 0.65499997 -0.053976361 1.216935e-38 344 287
0.028798498 0.65700001 -0.054141179 1.216935e-38 345 287
0.030041611 0.65899998 -0.054305989 1.2078236e-38 346 287
0.031197058 0.65899998 -0.054305989 1.198604e-38 347 287
0.032450691 0.66100001 -0.054470807 1.2261548e-38 348 287
0.033660494 0.662 -0.054553211 1.2353744e-38 349 287
0.034873798 0.66299999 -0.054635618 1.2446298e-38 350 287
0.036090612 0.66399997 -0.054718021 1.2538494e-38 351 287
0.037254825 0.66399997 -0.054718021 1.2722522e-38 352 287
0.03853476 0.66600001 -0.054882839 1.2814719e-38 353 287
0.039702479 0.66600001 -0.054882839 1.2814722e-38 354 287
0.040931564 0.667 -0.054965243 1.2906917e-38 355 287
0.042101037 0.667 -0.054965243 1.2447757e-38 356 287
-0.040870197 0.63 -0.053020798 1.7885952e-38 283 288
-0.0397656 0.63 -0.053020798 1.7975958e-38 284 288
-0.038660996 0.63 -0.053020798 1.7422785e-38 285 288
-0.037556399 0.63 -0.053020798 1.7696086e-38 286 288
-0.036509659 0.63099998 -0.053104956 1.6958521e-38 287 288
-0.035459414 0.63200003 -0.053189121 1.7694959e-38 288 288
-0.03456872 0.63599998 -0.053525757 1.7694959e-38 289 288
-0.0335062 0.63700002 -0.053609919 1.7787858e-38 290 288
-0.032440174 0.63800001 -0.053694081 1.7787858e-38 291 288
-0.031321548 0.63800001 -0.053694081 1.8064074e-38 292 288
-0.03020292 0.63800001 -0.053694081 1.8064074e-38 293 288
-0.029084295 0.63800001 -0.053694081 1.7972946e-38 294 288
-0.027965667 0.63800001 -0.053694081 1.7972946e-38 295 288
-0.026804959 0.63700002 -0.053609919 1.8065143e-38 296 288
-0.025688088 0.63700002 -0.053609919 1.8157698e-38 297 288
-0.024571214 0.63700002 -0.053609919 1.8065146e-38 298 288
-0.02345434 0.63700002 -0.053609919 1.7972949e-38 299 288
-0.022337466 0.63700002 -0.053609919 1.8062994e-38 300 288
-0.021220595 0.63700002 -0.053609919 1.7786767e-38 301 288
-0.020103721 0.63700002 -0.053609919 1.75109e-38 302 288
-0.018986847 0.63700002 -0.053609919 1.769529e-38 303 288
-0.017898027 0.63800001 -0.053694081 1.7694568e-38 304 288
-0.016779399 0.63800001 -0.053694081 1.741798e-38 305 288
-0.015734414 0.64099997 -0.053946555 1.7141748e-38 306 288
-0.014587732 0.63999999 -0.053862397 1.6957357e-38 307 288
-0.013465599 0.63999999 -0.053862397 1.6589999e-38 308 288
-0.012343466 0.63999999 -0.053862397 1.6497804e-38 309 288
-0.011221332 0.63999999 -0.053862397 1.6497079e-38 310 288
-0.0100992 0.63999999 -0.053862397 1.6497079e-38 311 288
-0.0089770658 0.63999999 -0.053862397 1.6128668e-38 312 288
-0.0078549329 0.63999999 -0.053862397 1.6128668e-38 313 288
-0.0067433193 0.64099997 -0.053946555 1.6404551e-38 314 288
-0.0056194332 0.64099997 -0.053946555 1.6220161e-38 315 288
-0.0044955462 0.64099997 -0.053946555 1.6220517e-38 316 288
-0.0033716597 0.64099997 -0.053946555 1.594357e-38 317 288
-0.0022477731 0.64099997 -0.053946555 1.5850656e-38 318 288
-0.00112564 0.64200002 -0.05403072 1.5942851e-38 319 288
0 0.64200002 -0.05403072 1.5851022e-38 320 288
0.0011273933 0.64300001 -0.054114878 1.5851022e-38 321 288
0.0022547867 0.64300001 -0.054114878 1.5392199e-38 322 288
0.0033821799 0.64300001 -0.054114878 1.557623e-38 323 288
0.0045165867 0.64399999 -0.054199036 1.5208526e-38 324 288
0.0056457333 0.64399999 -0.054199036 1.5208526e-38 325 288
0.0067748795 0.64399999 -0.054199036 1.5116331e-38 326 288
0.0079040267 0.64399999 -0.054199036 1.4932298e-38 327 288
0.0090331733 0.64399999 -0.054199036 1.4839744e-38 328 288
0.01019388 0.64600003 -0.05436736 1.4747548e-38 329 288
0.011326533 0.64600003 -0.05436736 1.4655355e-38 330 288
0.012478473 0.64700001 -0.054451518 1.456316e-38 331 288
0.013612879 0.64700001 -0.054451518 1.410181e-38 332 288
0.014747286 0.64700001 -0.054451518 1.3825222e-38 333 288
0.015906241 0.648 -0.05453568 1.3917422e-38 334 288
0.017068699 0.64899999 -0.054619838 1.3640475e-38 335 288
0.018206613 0.64899999 -0.054619838 1.2904008e-38 336 288
0.019344525 0.64899999 -0.054619838 1.2904008e-38 337 288
0.020513998 0.64999998 -0.054703996 1.2903302e-38 338 288
0.021653665 0.64999998 -0.054703996 1.2811105e-38 339 288
0.022863466 0.65200001 -0.054872319 1.2444127e-38 340 288
0.024043459 0.653 -0.054956477 1.2444127e-38 341 288
0.025226958 0.65399998 -0.055040635 1.2352295e-38 342 288
0.02637364 0.65399998 -0.055040635 1.2352295e-38 343 288
0.027562398 0.65499997 -0.055124797 1.2168631e-38 344 288
0.028798498 0.65700001 -0.055293117 1.2261185e-38 345 288
0.030041611 0.65899998 -0.055461437 1.2260829e-38 346 288
0.031197058 0.65899998 -0.055461437 1.244486e-38 347 288
0.032450691 0.66100001 -0.05562976 1.2445216e-38 348 288
0.033660494 0.662 -0.055713918 1.2537412e-38 349 288
0.034873798 0.66299999 -0.055798076 1.2721803e-38 350 288
0.036090612 0.66399997 -0.055882234 1.2721803e-38 351 288
0.037254825 0.66399997 -0.055882234 1.2813999e-38 352 288
0.03853476 0.66600001 -0.056050558 1.2813999e-38 353 288
0.039702479 0.66600001 -0.056050558 1.2722173e-38 354 288
0.040870197 0.66600001 -0.056050558 1.2722173e-38 355 288
0.042101037 0.667 -0.056134716 1.2261939e-38 356 288
-0.040935073 0.63099998 -0.054211311 1.7607179e-38 283 289
-0.039828718 0.63099998 -0.054211311 1.7973396e-38 284 289
-0.038783733 0.63200003 -0.054297227 1.7420581e-38 285 289
-0.037675627 0.63200003 -0.054297227 1.7787511e-38 286 289
-0.036683239 0.634 -0.054469053 1.7510565e-38 287 289
-0.035571627 0.634 -0.054469053 1.8063344e-38 288 289
-0.03456872 0.63599998 -0.054640878 1.815554e-38 289 289
-0.0335062 0.63700002 -0.054726794 1.8064426e-38 290 289
-0.032389328 0.63700002 -0.054726794 1.8156623e-38 291 289
-0.031321548 0.63800001 -0.054812707 1.8340657e-38 292 289
-0.03015558 0.63700002 -0.054726794 1.806443e-38 293 289
-0.029038707 0.63700002 -0.054726794 1.7972946e-38 294 289
-0.027921833 0.63700002 -0.054726794 1.7788915e-38 295 289
-0.026804959 0.63700002 -0.054726794 1.806443e-38 296 289
-0.025688088 0.63700002 -0.054726794 1.7971874e-38 297 289
-0.024571214 0.63700002 -0.054726794 1.7696369e-38 298 289
-0.02345434 0.63700002 -0.054726794 1.7419424e-38 299 289
-0.022337466 0.63700002 -0.054726794 1.7602373e-38 300 289
-0.021220595 0.63700002 -0.054726794 1.741798e-38 301 289
-0.020072158 0.63599998 -0.054640878 1.6866603e-38 302 289
-0.018957037 0.63599998 -0.054640878 1.6866603e-38 303 289
-0.017841918 0.63599998 -0.054640878 1.6956633e-38 304 289
-0.0167531 0.63700002 -0.054726794 1.6772242e-38 305 289
-0.015709866 0.63999999 -0.054984529 1.658893e-38 306 289
-0.014587732 0.63999999 -0.054984529 1.6496376e-38 307 289
-0.01342352 0.63800001 -0.054812707 1.6129035e-38 308 289
-0.012304893 0.63800001 -0.054812707 1.6129035e-38 309 289
-0.011186266 0.63800001 -0.054812707 1.6220865e-38 310 289
-0.01006764 0.63800001 -0.054812707 1.6128668e-38 311 289
-0.0089770658 0.63999999 -0.054984529 1.5760614e-38 312 289
-0.0078549329 0.63999999 -0.054984529 1.5944645e-38 313 289
-0.0067327996 0.63999999 -0.054984529 1.5943942e-38 314 289
-0.0056106662 0.63999999 -0.054984529 1.5759911e-38 315 289
-0.0044885329 0.63999999 -0.054984529 1.5759911e-38 316 289
-0.0033716597 0.64099997 -0.055070441 1.5575161e-38 317 289
-0.0022477731 0.64099997 -0.055070441 1.5575163e-38 318 289
-0.0011238866 0.64099997 -0.055070441 1.5575163e-38 319 289
0 0.64200002 -0.055156358 1.5300374e-38 320 289
0.0011273933 0.64300001 -0.05524227 1.520782e-38 321 289
0.0022547867 0.64300001 -0.05524227 1.4932309e-38 322 289
0.0033821799 0.64300001 -0.05524227 1.4932309e-38 323 289
0.0045095733 0.64300001 -0.05524227 1.4747917e-38 324 289
0.0056457333 0.64399999 -0.055328183 1.4563886e-38 325 289
0.0067748795 0.64399999 -0.055328183 1.4472759e-38 326 289
0.0079040267 0.64399999 -0.055328183 1.4103978e-38 327 289
0.0090331733 0.64399999 -0.055328183 1.3919573e-38 328 289
0.01019388 0.64600003 -0.055500012 1.3827018e-38 329 289
0.011326533 0.64600003 -0.055500012 1.3642983e-38 330 289
0.012459187 0.64600003 -0.055500012 1.3550427e-38 331 289
0.01359184 0.64600003 -0.055500012 1.3640828e-38 332 289
0.014747286 0.64700001 -0.055585928 1.3456797e-38 333 289
0.015906241 0.648 -0.055671841 1.3181304e-38 334 289
0.0170424 0.648 -0.055671841 1.2996554e-38 335 289
0.01817856 0.648 -0.055671841 1.2628146e-38 336 289
0.019344525 0.64899999 -0.05575775 1.2628146e-38 337 289
0.020513998 0.64999998 -0.055843662 1.2352648e-38 338 289
0.021653665 0.64999998 -0.055843662 1.2260452e-38 339 289
0.022863466 0.65200001 -0.056015491 1.2260455e-38 340 289
0.024043459 0.653 -0.056101404 1.2260455e-38 341 289
0.025226958 0.65399998 -0.056187313 1.2260102e-38 342 289
0.02637364 0.65399998 -0.056187313 1.2352297e-38 343 289
0.027562398 0.65499997 -0.056273226 1.2077154e-38 344 289
0.028798498 0.65700001 -0.056445058 1.216935e-38 345 289
0.030041611 0.65899998 -0.056616884 1.2261185e-38 346 289
0.031291738 0.66100001 -0.056788713 1.2445216e-38 347 289
0.032450691 0.66100001 -0.056788713 1.2445216e-38 348 289
0.033609647 0.66100001 -0.056788713 1.2537412e-38 349 289
0.034873798 0.66299999 -0.056960538 1.2446295e-38 350 289
0.036036257 0.66299999 -0.056960538 1.2538491e-38 351 289
0.037254825 0.66399997 -0.057046451 1.272217e-38 352 289
0.03853476 0.66600001 -0.057218276 1.2814725e-38 353 289
0.039702479 0.66600001 -0.057218276 1.253851e-38 354 289
0.040870197 0.66600001 -0.057218276 1.2261563e-38 355 289
-0.041259438 0.63599998 -0.055755995 1.705142e-38 283 290
-0.040144317 0.63599998 -0.055755995 1.7602764e-38 284 290
-0.038967833 0.63499999 -0.055668332 1.7787155e-38 285 290
-0.037854467 0.63499999 -0.055668332 1.8064092e-38 286 290
-0.036798958 0.63599998 -0.055755995 1.7971897e-38 287 290
-0.035683837 0.63599998 -0.055755995 1.8064077e-38 288 290
-0.03456872 0.63599998 -0.055755995 1.8064077e-38 289 290
-0.0335062 0.63700002 -0.055843666 1.8064793e-38 290 290
-0.032389328 0.63700002 -0.055843666 1.8064793e-38 291 290
-0.031272452 0.63700002 -0.055843666 1.8156272e-38 292 290
-0.03015558 0.63700002 -0.055843666 1.797188e-38 293 290
-0.029038707 0.63700002 -0.055843666 1.7880035e-38 294 290
-0.027921833 0.63700002 -0.055843666 1.7695285e-38 295 290
-0.026804959 0.63700002 -0.055843666 1.778747e-38 296 290
-0.025688088 0.63700002 -0.055843666 1.7602719e-38 297 290
-0.024571214 0.63700002 -0.055843666 1.7326858e-38 298 290
-0.023417519 0.63599998 -0.055755995 1.7142467e-38 299 290
-0.022302398 0.63599998 -0.055755995 1.7050624e-38 300 290
-0.021187279 0.63599998 -0.055755995 1.6681842e-38 301 290
-0.020072158 0.63599998 -0.055755995 1.6497804e-38 302 290
-0.018957037 0.63599998 -0.055755995 1.6221218e-38 303 290
-0.017841918 0.63599998 -0.055755995 1.6219784e-38 304 290
-0.016726799 0.63599998 -0.055755995 1.6219784e-38 305 290
-0.015611678 0.63599998 -0.055755995 1.5943923e-38 306 290
-0.014519353 0.63700002 -0.055843666 1.5759532e-38 307 290
-0.01340248 0.63700002 -0.055843666 1.5392199e-38 308 290
-0.012285607 0.63700002 -0.055843666 1.5392199e-38 309 290
-0.011168733 0.63700002 -0.055843666 1.5760261e-38 310 290
-0.01005186 0.63700002 -0.055843666 1.5760261e-38 311 290
-0.0089490134 0.63800001 -0.055931333 1.5576235e-38 312 290
-0.007830387 0.63800001 -0.055931333 1.5391846e-38 313 290
-0.0067117601 0.63800001 -0.055931333 1.5391848e-38 314 290
-0.0055931332 0.63800001 -0.055931333 1.5299653e-38 315 290
-0.0044745067 0.63800001 -0.055931333 1.529965e-38 316 290
-0.0033663998 0.63999999 -0.056106664 1.5207454e-38 317 290
-0.0022442664 0.63999999 -0.056106664 1.5114904e-38 318 290
-0.0011238866 0.64099997 -0.056194331 1.5114904e-38 319 290
0 0.64099997 -0.056194331 1.5115257e-38 320 290
0.00112564 0.64200002 -0.056282002 1.4930866e-38 321 290
0.00225128 0.64200002 -0.056282002 1.4747185e-38 322 290
0.00337692 0.64200002 -0.056282002 1.4654631e-38 323 290
0.0045095733 0.64300001 -0.056369666 1.4470238e-38 324 290
0.0056369668 0.64300001 -0.056369666 1.4470238e-38 325 290
0.0067748795 0.64399999 -0.056457333 1.4102163e-38 326 290
0.0079040267 0.64399999 -0.056457333 1.3825575e-38 327 290
0.0090331733 0.64399999 -0.056457333 1.3273475e-38 328 290
0.01016232 0.64399999 -0.056457333 1.3181279e-38 329 290
0.011326533 0.64600003 -0.056632672 1.2905058e-38 330 290
0.012459187 0.64600003 -0.056632672 1.2905058e-38 331 290
0.01359184 0.64600003 -0.056632672 1.2628493e-38 332 290
0.014747286 0.64700001 -0.056720335 1.2813245e-38 333 290
0.015906241 0.648 -0.056808002 1.262779e-38 334 290
0.0170424 0.648 -0.056808002 1.2443399e-38 335 290
0.01817856 0.648 -0.056808002 1.216861e-38 336 290
0.019344525 0.64899999 -0.056895666 1.216861e-38 337 290
0.020513998 0.64999998 -0.056983333 1.1984944e-38 338 290
0.021653665 0.64999998 -0.056983333 1.207714e-38 339 290
0.022863466 0.65200001 -0.057158668 1.2260099e-38 340 290
0.024043459 0.653 -0.057246335 1.2352295e-38 341 290
0.025226958 0.65399998 -0.057333998 1.2168985e-38 342 290
0.02637364 0.65399998 -0.057333998 1.2168985e-38 343 290
0.027562398 0.65499997 -0.057421666 1.2168631e-38 344 290
0.028798498 0.65700001 -0.057596996 1.2261185e-38 345 290
0.030041611 0.65899998 -0.057772331 1.2260829e-38 346 290
0.031291738 0.66100001 -0.057947662 1.2260829e-38 347 290
0.032450691 0.66100001 -0.057947662 1.2445216e-38 348 290
0.033609647 0.66100001 -0.057947662 1.2445216e-38 349 290
0.034821201 0.662 -0.058035329 1.2537415e-38 350 290
0.036036257 0.66299999 -0.058122993 1.262961e-38 351 290
0.037254825 0.66399997 -0.05821066 1.2445942e-38 352 290
0.038419038 0.66399997 -0.05821066 1.2445942e-38 353 290
0.039583251 0.66399997 -0.05821066 1.1985705e-38 354 290
0.040747464 0.66399997 -0.05821066 1.1524727e-38 355 290
-0.044745065 0.63800001 -0.05704996 1.7328017e-38 280 291
-0.043558061 0.63700002 -0.056960538 1.7235821e-38 281 291
-0.042441189 0.63700002 -0.056960538 1.7602761e-38 282 291
-0.041259438 0.63599998 -0.056871112 1.7602761e-38 283 291
-0.040144317 0.63599998 -0.056871112 1.7879328e-38 284 291
-0.039029196 0.63599998 -0.056871112 1.7971524e-38 285 291
-0.037914075 0.63599998 -0.056871112 1.8064074e-38 286 291
-0.0367411 0.63499999 -0.056781694 1.8064074e-38 287 291
-0.03562773 0.63499999 -0.056781694 1.8155545e-38 288 291
-0.03456872 0.63599998 -0.056871112 1.8155545e-38 289 291
-0.033453599 0.63599998 -0.056871112 1.7971874e-38 290 291
-0.032338478 0.63599998 -0.056871112 1.7787483e-38 291 291
-0.031223357 0.63599998 -0.056871112 1.7694568e-38 292 291
-0.030108238 0.63599998 -0.056871112 1.7510176e-38 293 291
-0.028993119 0.63599998 -0.056871112 1.7234297e-38 294 291
-0.027877998 0.63599998 -0.056871112 1.695735e-38 295 291
-0.026762879 0.63599998 -0.056871112 1.6865504e-38 296 291
-0.025647758 0.63599998 -0.056871112 1.6589277e-38 297 291
-0.024532638 0.63599998 -0.056871112 1.6588924e-38 298 291
-0.023417519 0.63599998 -0.056871112 1.6312336e-38 299 291
-0.022302398 0.63599998 -0.056871112 1.5852431e-38 300 291
-0.021187279 0.63599998 -0.056871112 1.5576205e-38 301 291
-0.020072158 0.63599998 -0.056871112 1.5667314e-38 302 291
-0.018957037 0.63599998 -0.056871112 1.5667314e-38 303 291
-0.017841918 0.63599998 -0.056871112 1.5391103e-38 304 291
-0.016726799 0.63599998 -0.056871112 1.5391103e-38 305 291
-0.015611678 0.63599998 -0.056871112 1.5299276e-38 306 291
-0.014496559 0.63599998 -0.056871112 1.5115245e-38 307 291
-0.01340248 0.63700002 -0.056960538 1.5023412e-38 308 291
-0.012285607 0.63700002 -0.056960538 1.5115608e-38 309 291
-0.011168733 0.63700002 -0.056960538 1.5207807e-38 310 291
-0.01005186 0.63700002 -0.056960538 1.5207807e-38 311 291
-0.0089349868 0.63700002 -0.056960538 1.520781e-38 312 291
-0.0078181131 0.63700002 -0.056960538 1.5115254e-38 313 291
-0.0067117601 0.63800001 -0.05704996 1.5115257e-38 314 291
-0.0055931332 0.63800001 -0.05704996 1.5023062e-38 315 291
-0.0044745067 0.63800001 -0.05704996 1.4747551e-38 316 291
-0.0033663998 0.63999999 -0.057228796 1.4747551e-38 317 291
-0.0022442664 0.63999999 -0.057228796 1.4930141e-38 318 291
-0.0011221332 0.63999999 -0.057228796 1.474575e-38 319 291
0 0.64099997 -0.057318214 1.4469872e-38 320 291
0.0011238866 0.64099997 -0.057318214 1.4285481e-38 321 291
0.0022477731 0.64099997 -0.057318214 1.4286197e-38 322 291
0.00337692 0.64200002 -0.05740764 1.400997e-38 323 291
0.00450256 0.64200002 -0.05740764 1.3732305e-38 324 291
0.0056369668 0.64300001 -0.057497058 1.3455718e-38 325 291
0.0067748795 0.64399999 -0.057586476 1.3180559e-38 326 291
0.0079040267 0.64399999 -0.057586476 1.2995809e-38 327 291
0.0090331733 0.64399999 -0.057586476 1.2536282e-38 328 291
0.01016232 0.64399999 -0.057586476 1.2444087e-38 329 291
0.011326533 0.64600003 -0.057765324 1.2811443e-38 330 291
0.012459187 0.64600003 -0.057765324 1.2719247e-38 331 291
0.01359184 0.64600003 -0.057765324 1.2443396e-38 332 291
0.014747286 0.64700001 -0.057854742 1.2443396e-38 333 291
0.015906241 0.648 -0.05794416 1.2167182e-38 334 291
0.017068699 0.64899999 -0.058033578 1.2167182e-38 335 291
0.018206613 0.64899999 -0.058033578 1.1983869e-38 336 291
0.019374331 0.64999998 -0.058122993 1.1983869e-38 337 291
0.020513998 0.64999998 -0.058122993 1.1984591e-38 338 291
0.021720294 0.65200001 -0.058301836 1.1984591e-38 339 291
0.022898532 0.653 -0.058391262 1.1893474e-38 340 291
0.024080278 0.65399998 -0.05848068 1.1893474e-38 341 291
0.025226958 0.65399998 -0.05848068 1.1893119e-38 342 291
0.026413966 0.65499997 -0.058570094 1.1893119e-38 343 291
0.027562398 0.65499997 -0.058570094 1.2076436e-38 344 291
0.028798498 0.65700001 -0.058748938 1.2168633e-38 345 291
0.030041611 0.65899998 -0.058927774 1.2168633e-38 346 291
0.031291738 0.66100001 -0.059106622 1.2260829e-38 347 291
0.032450691 0.66100001 -0.059106622 1.216935e-38 348 291
0.033609647 0.66100001 -0.059106622 1.2261904e-38 349 291
0.034821201 0.662 -0.05919604 1.2353746e-38 350 291
0.036036257 0.66299999 -0.059285458 1.2353746e-38 351 291
0.037198719 0.66299999 -0.059285458 1.2077535e-38 352 291
0.038419038 0.66399997 -0.059374876 1.133997e-38 353 291
0.039583251 0.66399997 -0.059374876 1.0327648e-38 354 291
-0.04690868 0.63700002 -0.058077414 1.7513127e-38 278 292
-0.045791805 0.63700002 -0.058077414 1.6867758e-38 279 292
-0.044745065 0.63800001 -0.05816859 1.7234327e-38 280 292
-0.043626439 0.63800001 -0.05816859 1.741872e-38 281 292
-0.042441189 0.63700002 -0.058077414 1.7696016e-38 282 292
-0.041259438 0.63599998 -0.057986237 1.7788212e-38 283 292
-0.040144317 0.63599998 -0.057986237 1.7879328e-38 284 292
-0.039029196 0.63599998 -0.057986237 1.7971524e-38 285 292
-0.037914075 0.63599998 -0.057986237 1.7971877e-38 286 292
-0.0367411 0.63499999 -0.057895064 1.7879681e-38 287 292
-0.03562773 0.63499999 -0.057895064 1.7787836e-38 288 292
-0.03456872 0.63599998 -0.057986237 1.7787836e-38 289 292
-0.033453599 0.63599998 -0.057986237 1.7695285e-38 290 292
-0.032338478 0.63599998 -0.057986237 1.7326861e-38 291 292
-0.031223357 0.63599998 -0.057986237 1.7142469e-38 292 292
-0.030108238 0.63599998 -0.057986237 1.6773688e-38 293 292
-0.028993119 0.63599998 -0.057986237 1.6589643e-38 294 292
-0.027877998 0.63599998 -0.057986237 1.6221221e-38 295 292
-0.026762879 0.63599998 -0.057986237 1.6036119e-38 296 292
-0.025647758 0.63599998 -0.057986237 1.5943923e-38 297 292
-0.024532638 0.63599998 -0.057986237 1.5668065e-38 298 292
-0.023417519 0.63599998 -0.057986237 1.539112e-38 299 292
-0.022302398 0.63599998 -0.057986237 1.5208161e-38 300 292
-0.021187279 0.63599998 -0.057986237 1.5023409e-38 301 292
-0.0200406 0.63499999 -0.057895064 1.4930851e-38 302 292
-0.018927233 0.63499999 -0.057895064 1.4930851e-38 303 292
-0.017813865 0.63499999 -0.057895064 1.4654987e-38 304 292
-0.016726799 0.63599998 -0.057986237 1.4654987e-38 305 292
-0.015611678 0.63599998 -0.057986237 1.4838652e-38 306 292
-0.014496559 0.63599998 -0.057986237 1.4838652e-38 307 292
-0.013381439 0.63599998 -0.057986237 1.4839002e-38 308 292
-0.012266319 0.63599998 -0.057986237 1.4839002e-38 309 292
-0.011151199 0.63599998 -0.057986237 1.4931569e-38 310 292
-0.010036079 0.63599998 -0.057986237 1.4931569e-38 311 292
-0.0089349868 0.63700002 -0.058077414 1.4930495e-38 312 292
-0.0078181131 0.63700002 -0.058077414 1.4930495e-38 313 292
-0.0067117601 0.63800001 -0.05816859 1.4562807e-38 314 292
-0.0055931332 0.63800001 -0.05816859 1.4562807e-38 315 292
-0.0044745067 0.63800001 -0.05816859 1.4287296e-38 316 292
-0.00335588 0.63800001 -0.05816859 1.4102544e-38 317 292
-0.0022372534 0.63800001 -0.05816859 1.4469144e-38 318 292
-0.0011221332 0.63999999 -0.058350928 1.4192917e-38 319 292
0 0.63999999 -0.058350928 1.400889e-38 320 292
0.0011238866 0.64099997 -0.058442101 1.38245e-38 321 292
0.0022477731 0.64099997 -0.058442101 1.3457181e-38 322 292
0.0033716597 0.64099997 -0.058442101 1.3180595e-38 323 292
0.00450256 0.64200002 -0.058533281 1.2994779e-38 324 292
0.0056281998 0.64200002 -0.058533281 1.2902582e-38 325 292
0.0067643598 0.64300001 -0.058624454 1.2627077e-38 326 292
0.0078917528 0.64300001 -0.058624454 1.2534522e-38 327 292
0.0090191467 0.64300001 -0.058624454 1.2350853e-38 328 292
0.01016232 0.64399999 -0.058715623 1.2166822e-38 329 292
0.011291467 0.64399999 -0.058715623 1.2074986e-38 330 292
0.012459187 0.64600003 -0.058897976 1.2074986e-38 331 292
0.01359184 0.64600003 -0.058897976 1.2074989e-38 332 292
0.014747286 0.64700001 -0.058989145 1.2074989e-38 333 292
0.015906241 0.648 -0.059080318 1.1891321e-38 334 292
0.017068699 0.64899999 -0.059171494 1.1983875e-38 335 292
0.018206613 0.64899999 -0.059171494 1.1983875e-38 336 292
0.019374331 0.64999998 -0.059262663 1.2167906e-38 337 292
0.02057712 0.65200001 -0.059445009 1.1984594e-38 338 292
0.021720294 0.65200001 -0.059445009 1.1984594e-38 339 292
0.022898532 0.653 -0.059536185 1.1893474e-38 340 292
0.024080278 0.65399998 -0.059627358 1.1893474e-38 341 292
0.025226958 0.65399998 -0.059627358 1.1801642e-38 342 292
0.026413966 0.65499997 -0.059718527 1.1801642e-38 343 292
0.027562398 0.65499997 -0.059718527 1.1892768e-38 344 292
0.028798498 0.65700001 -0.05990088 1.2076801e-38 345 292
0.030041611 0.65899998 -0.060083222 1.2076801e-38 346 292
0.031291738 0.66100001 -0.060265575 1.2169355e-38 347 292
0.032450691 0.66100001 -0.060265575 1.2076801e-38 348 292
0.033609647 0.66100001 -0.060265575 1.2261551e-38 349 292
0.034821201 0.662 -0.060356744 1.2170447e-38 350 292
0.036036257 0.66299999 -0.060447913 1.189386e-38 351 292
0.037198719 0.66299999 -0.060447913 1.1433277e-38 352 292
0.038419038 0.66399997 -0.060539093 1.0695712e-38 353 292
-0.048025552 0.63700002 -0.059194289 1.7142916e-38 277 293
-0.04690868 0.63700002 -0.059194289 1.7235423e-38 278 293
-0.045791805 0.63700002 -0.059194289 1.7419814e-38 279 293
-0.044604797 0.63599998 -0.059101358 1.7878965e-38 280 293
-0.043489676 0.63599998 -0.059101358 1.7878965e-38 281 293
-0.042374559 0.63599998 -0.059101358 1.7787839e-38 282 293
-0.041259438 0.63599998 -0.059101358 1.7880035e-38 283 293
-0.040081199 0.63499999 -0.059008431 1.7787483e-38 284 293
-0.038967833 0.63499999 -0.059008431 1.7787483e-38 285 293
-0.037794851 0.634 -0.058915507 1.7694568e-38 286 293
-0.036683239 0.634 -0.058915507 1.7510176e-38 287 293
-0.035571627 0.634 -0.058915507 1.7050621e-38 288 293
-0.034460012 0.634 -0.058915507 1.6681839e-38 289 293
-0.0333484 0.634 -0.058915507 1.6588198e-38 290 293
-0.032236785 0.634 -0.058915507 1.6404166e-38 291 293
-0.031125173 0.634 -0.058915507 1.5943555e-38 292 293
-0.030013559 0.634 -0.058915507 1.5666967e-38 293 293
-0.028901944 0.634 -0.058915507 1.5298892e-38 294 293
-0.027834166 0.63499999 -0.059008431 1.4929749e-38 295 293
-0.0267208 0.63499999 -0.059008431 1.456169e-38 296 293
-0.025607431 0.63499999 -0.059008431 1.4654244e-38 297 293
-0.024494065 0.63499999 -0.059008431 1.4194727e-38 298 293
-0.023380699 0.63499999 -0.059008431 1.4010336e-38 299 293
-0.022267332 0.63499999 -0.059008431 1.4101813e-38 300 293
-0.021187279 0.63599998 -0.059101358 1.4101813e-38 301 293
-0.0200406 0.63499999 -0.059008431 1.4100734e-38 302 293
-0.018927233 0.63499999 -0.059008431 1.4008537e-38 303 293
-0.017813865 0.63499999 -0.059008431 1.4008184e-38 304 293
-0.016726799 0.63599998 -0.059101358 1.4192576e-38 305 293
-0.015611678 0.63599998 -0.059101358 1.4283329e-38 306 293
-0.014496559 0.63599998 -0.059101358 1.4375526e-38 307 293
-0.013381439 0.63599998 -0.059101358 1.4560267e-38 308 293
-0.012266319 0.63599998 -0.059101358 1.4468072e-38 309 293
-0.011151199 0.63599998 -0.059101358 1.3918141e-38 310 293
-0.010036079 0.63599998 -0.059101358 1.3918141e-38 311 293
-0.0089209592 0.63599998 -0.059101358 1.3825219e-38 312 293
-0.0078058392 0.63599998 -0.059101358 1.3640828e-38 313 293
-0.0067012399 0.63700002 -0.059194289 1.4101087e-38 314 293
-0.0055843666 0.63700002 -0.059194289 1.3732305e-38 315 293
-0.0044674934 0.63700002 -0.059194289 1.3638307e-38 316 293
-0.00335588 0.63800001 -0.059287209 1.336208e-38 317 293
-0.0022372534 0.63800001 -0.059287209 1.3178039e-38 318 293
-0.0011186267 0.63800001 -0.059287209 1.2993647e-38 319 293
0 0.63999999 -0.05947306 1.2717442e-38 320 293
0.0011221332 0.63999999 -0.05947306 1.2994389e-38 321 293
0.0022477731 0.64099997 -0.059565991 1.3176648e-38 322 293
0.0033716597 0.64099997 -0.059565991 1.3176648e-38 323 293
0.00450256 0.64200002 -0.059658919 1.244268e-38 324 293
0.0056281998 0.64200002 -0.059658919 1.244268e-38 325 293
0.0067643598 0.64300001 -0.059751842 1.2167169e-38 326 293
0.0078917528 0.64300001 -0.059751842 1.2167169e-38 327 293
0.0090191467 0.64300001 -0.059751842 1.2074976e-38 328 293
0.01016232 0.64399999 -0.05984477 1.2074976e-38 329 293
0.011291467 0.64399999 -0.05984477 1.2074976e-38 330 293
0.012459187 0.64600003 -0.060030628 1.2074976e-38 331 293
0.013612879 0.64700001 -0.060123552 1.1799831e-38 332 293
0.014770079 0.648 -0.060216483 1.1892027e-38 333 293
0.015906241 0.648 -0.060216483 1.189203e-38 334 293
0.017068699 0.64899999 -0.060309403 1.1984225e-38 335 293
0.018206613 0.64899999 -0.060309403 1.1983872e-38 336 293
0.019374331 0.64999998 -0.060402326 1.2167903e-38 337 293
0.02057712 0.65200001 -0.060588185 1.1984591e-38 338 293
0.021753605 0.653 -0.060681112 1.2076787e-38 339 293
0.022898532 0.653 -0.060681112 1.1801276e-38 340 293
0.024080278 0.65399998 -0.060774036 1.170908e-38 341 293
0.025226958 0.65399998 -0.060774036 1.189204e-38 342 293
0.026413966 0.65499997 -0.060866963 1.1984594e-38 343 293
0.027562398 0.65499997 -0.060866963 1.216755e-38 344 293
0.028842334 0.65799999 -0.061145745 1.2259746e-38 345 293
0.030041611 0.65899998 -0.061238669 1.2076436e-38 346 293
0.031197058 0.65899998 -0.061238669 1.2076436e-38 347 293
0.032450691 0.66100001 -0.061424527 1.2076806e-38 348 293
0.033609647 0.66100001 -0.061424527 1.2076806e-38 349 293
0.034821201 0.662 -0.061517447 1.1339983e-38 350 293
-0.054297227 0.63200003 -0.059837762 1.7887041e-38 271 294
-0.053525757 0.63599998 -0.060216475 1.8530227e-38 272 294
-0.052410636 0.63599998 -0.060216475 1.8069608e-38 273 294
-0.051376175 0.63700002 -0.060311161 1.7975198e-38 274 294
-0.0502593 0.63700002 -0.060311161 1.6776655e-38 275 294
-0.049142428 0.63700002 -0.060311161 1.6866618e-38 276 294
-0.048025552 0.63700002 -0.060311161 1.6958814e-38 277 294
-0.04690868 0.63700002 -0.060311161 1.7511975e-38 278 294
-0.045791805 0.63700002 -0.060311161 1.7604171e-38 279 294
-0.044604797 0.63599998 -0.060216475 1.7694937e-38 280 294
-0.043489676 0.63599998 -0.060216475 1.7787133e-38 281 294
-0.042307932 0.63499999 -0.060121801 1.7604173e-38 282 294
-0.041194562 0.63499999 -0.060121801 1.7511619e-38 283 294
-0.040081199 0.63499999 -0.060121801 1.7419073e-38 284 294
-0.038906466 0.634 -0.060027119 1.7234681e-38 285 294
-0.037794851 0.634 -0.060027119 1.7051e-38 286 294
-0.036683239 0.634 -0.060027119 1.6774054e-38 287 294
-0.035571627 0.634 -0.060027119 1.6589999e-38 288 294
-0.034351308 0.63200003 -0.059837762 1.6129021e-38 289 294
-0.033243202 0.63200003 -0.059837762 1.5851715e-38 290 294
-0.032135095 0.63200003 -0.059837762 1.5759161e-38 291 294
-0.031026987 0.63200003 -0.059837762 1.5299276e-38 292 294
-0.029918881 0.63200003 -0.059837762 1.4746103e-38 293 294
-0.028901944 0.634 -0.060027119 1.4470594e-38 294 294
-0.027790332 0.634 -0.060027119 1.4285844e-38 295 294
-0.026678719 0.634 -0.060027119 1.3917419e-38 296 294
-0.025567105 0.634 -0.060027119 1.3825222e-38 297 294
-0.024494065 0.63499999 -0.060121801 1.3549727e-38 298 294
-0.023380699 0.63499999 -0.060121801 1.3457531e-38 299 294
-0.022267332 0.63499999 -0.060121801 1.3548655e-38 300 294
-0.021153966 0.63499999 -0.060121801 1.3456459e-38 301 294
-0.0200406 0.63499999 -0.060121801 1.3273529e-38 302 294
-0.018927233 0.63499999 -0.060121801 1.3089497e-38 303 294
-0.017813865 0.63499999 -0.060121801 1.3272463e-38 304 294
-0.016700499 0.63499999 -0.060121801 1.3364658e-38 305 294
-0.015587131 0.63499999 -0.060121801 1.3455052e-38 306 294
-0.014496559 0.63599998 -0.060216475 1.3547248e-38 307 294
-0.013381439 0.63599998 -0.060216475 1.3548304e-38 308 294
-0.012266319 0.63599998 -0.060216475 1.3548304e-38 309 294
-0.011151199 0.63599998 -0.060216475 1.3456812e-38 310 294
-0.010036079 0.63599998 -0.060216475 1.3364616e-38 311 294
-0.0089209592 0.63599998 -0.060216475 1.3364248e-38 312 294
-0.0078058392 0.63599998 -0.060216475 1.3087301e-38 313 294
-0.0066907196 0.63599998 -0.060216475 1.3179855e-38 314 294
-0.0055843666 0.63700002 -0.060311161 1.2995105e-38 315 294
-0.0044674934 0.63700002 -0.060311161 1.2902206e-38 316 294
-0.00335588 0.63800001 -0.060405839 1.2625979e-38 317 294
-0.0022372534 0.63800001 -0.060405839 1.2625639e-38 318 294
-0.0011186267 0.63800001 -0.060405839 1.2625639e-38 319 294
0 0.63800001 -0.060405839 1.2349428e-38 320 294
0.0011221332 0.63999999 -0.060595192 1.2349428e-38 321 294
0.0022477731 0.64099997 -0.060689874 1.2349781e-38 322 294
0.0033716597 0.64099997 -0.060689874 1.2441976e-38 323 294
0.00450256 0.64200002 -0.060784556 1.2167535e-38 324 294
0.0056369668 0.64300001 -0.060879238 1.1983144e-38 325 294
0.0067643598 0.64300001 -0.060879238 1.1983497e-38 326 294
0.0078917528 0.64300001 -0.060879238 1.1983497e-38 327 294
0.0090331733 0.64399999 -0.06097392 1.1983497e-38 328 294
0.01016232 0.64399999 -0.06097392 1.1799464e-38 329 294
0.011291467 0.64399999 -0.06097392 1.1983141e-38 330 294
0.012459187 0.64600003 -0.061163284 1.1983141e-38 331 294
0.013612879 0.64700001 -0.061257958 1.2075692e-38 332 294
0.014770079 0.648 -0.06135264 1.2075692e-38 333 294
0.015930785 0.64899999 -0.061447315 1.1984223e-38 334 294
0.017068699 0.64899999 -0.061447315 1.1984223e-38 335 294
0.018234665 0.64999998 -0.061541997 1.2167182e-38 336 294
