# .PCD v.7 - Point Cloud Data file format
FIELDS x y z rgb imX imY
SIZE 4 4 4 4 4 4
TYPE F F F F F F
COUNT 1 1 1 1 1 1
WIDTH 834
HEIGHT 1
VIEWPOINT 0 0 0 1 0 0 0
POINTS 834
DATA ascii
-0.0013342865 0.76099998 -0.018680012 1.2996612e-38 319 254
0 0.76099998 -0.018680012 1.3272475e-38 320 254
0.0013342865 0.76099998 -0.018680012 1.3272475e-38 321 254
0.0026685731 0.76099998 -0.018680012 1.2996965e-38 322 254
0.0040028598 0.76099998 -0.018680012 1.2996965e-38 323 254
0.0053371461 0.76099998 -0.018680012 1.2904412e-38 324 254
0.0066714329 0.76099998 -0.018680012 1.2904412e-38 325 254
0.0080057196 0.76099998 -0.018680012 1.2904768e-38 326 254
0.0093400059 0.76099998 -0.018680012 1.2812572e-38 327 254
0.01068832 0.76200002 -0.01870456 1.2812572e-38 328 254
0.01202436 0.76200002 -0.01870456 1.2628541e-38 329 254
0.0133604 0.76200002 -0.01870456 1.2535989e-38 330 254
0.01469644 0.76200002 -0.01870456 1.2535989e-38 331 254
0.016074561 0.764 -0.018753653 1.2627103e-38 332 254
0.017414106 0.764 -0.018753653 1.2627103e-38 333 254
-0.074998833 0.72500002 -0.0190675 1.7881538e-38 261 255
-0.073524274 0.72299999 -0.019014901 1.8432894e-38 262 255
-0.072256617 0.72299999 -0.019014901 1.852509e-38 263 255
-0.070988953 0.72299999 -0.019014901 1.8800951e-38 264 255
-0.069914162 0.72500002 -0.0190675 1.8985701e-38 265 255
-0.068643004 0.72500002 -0.0190675 1.9261212e-38 266 255
-0.067371838 0.72500002 -0.0190675 1.9169016e-38 267 255
-0.066100664 0.72500002 -0.0190675 1.8800957e-38 268 255
-0.064829499 0.72500002 -0.0190675 1.8432176e-38 269 255
-0.06373366 0.727 -0.019120099 1.8156306e-38 270 255
-0.062287167 0.72500002 -0.0190675 1.8156306e-38 271 255
-0.061016005 0.72500002 -0.0190675 1.778895e-38 272 255
-0.059744831 0.72500002 -0.0190675 1.7604919e-38 273 255
-0.058634974 0.727 -0.019120099 1.7513439e-38 274 255
-0.057360299 0.727 -0.019120099 1.7421242e-38 275 255
-0.056085624 0.727 -0.019120099 1.7420889e-38 276 255
-0.054810952 0.727 -0.019120099 1.7144304e-38 277 255
-0.053609919 0.72799999 -0.0191464 1.695955e-38 278 255
-0.052333489 0.72799999 -0.0191464 1.6590407e-38 279 255
-0.051197331 0.73000002 -0.019199001 1.5854289e-38 280 255
-0.0499174 0.73000002 -0.019199001 1.5669539e-38 281 255
-0.048704091 0.73100001 -0.019225299 1.5210013e-38 282 255
-0.047617026 0.73400003 -0.019304199 1.5210013e-38 283 255
-0.046330083 0.73400003 -0.019304199 1.5025988e-38 284 255
-0.045165867 0.736 -0.019356798 1.5025988e-38 285 255
-0.043994635 0.73799998 -0.019409399 1.4750126e-38 286 255
-0.042758539 0.73900002 -0.0194357 1.4750126e-38 287 255
-0.041462827 0.73900002 -0.0194357 1.4749773e-38 288 255
-0.040167112 0.73900002 -0.0194357 1.4657578e-38 289 255
-0.038976599 0.741 -0.019488299 1.4749057e-38 290 255
-0.037728224 0.74199998 -0.0195146 1.465686e-38 291 255
-0.036427252 0.74199998 -0.0195146 1.4564665e-38 292 255
-0.03512628 0.74199998 -0.0195146 1.4564665e-38 293 255
-0.033916477 0.74400002 -0.019567199 1.4472466e-38 294 255
-0.032699663 0.74599999 -0.019619798 1.4380271e-38 295 255
-0.031433757 0.74699998 -0.019646099 1.4379902e-38 296 255
-0.030204674 0.74900001 -0.0196987 1.4287706e-38 297 255
-0.028891427 0.74900001 -0.0196987 1.4286983e-38 298 255
-0.027578179 0.74900001 -0.0196987 1.4286983e-38 299 255
-0.026264934 0.74900001 -0.0196987 1.4194785e-38 300 255
-0.024984999 0.75 -0.019724999 1.4194785e-38 301 255
-0.02379624 0.75400001 -0.019830201 1.4102586e-38 302 255
-0.022474226 0.75400001 -0.019830201 1.4010391e-38 303 255
-0.021152213 0.75400001 -0.019830201 1.373453e-38 304 255
-0.019830201 0.75400001 -0.019830201 1.3550137e-38 305 255
-0.018508185 0.75400001 -0.019830201 1.3366106e-38 306 255
-0.017186172 0.75400001 -0.019830201 1.3181356e-38 307 255
-0.01586416 0.75400001 -0.019830201 1.3365021e-38 308 255
-0.014542146 0.75400001 -0.019830201 1.3272826e-38 309 255
-0.013220133 0.75400001 -0.019830201 1.3272459e-38 310 255
-0.01194546 0.75700003 -0.019909101 1.3180263e-38 311 255
-0.010618187 0.75700003 -0.019909101 1.2995869e-38 312 255
-0.0092909131 0.75700003 -0.019909101 1.3088065e-38 313 255
-0.0079636406 0.75700003 -0.019909101 1.2904752e-38 314 255
-0.0066538998 0.759 -0.0199617 1.2904752e-38 315 255
-0.0053231199 0.759 -0.0199617 1.2905121e-38 316 255
-0.0040028598 0.76099998 -0.020014299 1.2812925e-38 317 255
-0.0026685731 0.76099998 -0.020014299 1.2903696e-38 318 255
-0.0013342865 0.76099998 -0.020014299 1.28115e-38 319 255
0 0.76099998 -0.020014299 1.2903696e-38 320 255
0.0013342865 0.76099998 -0.020014299 1.2903696e-38 321 255
0.0026685731 0.76099998 -0.020014299 1.2628541e-38 322 255
0.0040028598 0.76099998 -0.020014299 1.2628541e-38 323 255
0.0053371461 0.76099998 -0.020014299 1.2535987e-38 324 255
0.0066714329 0.76099998 -0.020014299 1.2535987e-38 325 255
0.0080057196 0.76099998 -0.020014299 1.2627103e-38 326 255
0.0093522798 0.76200002 -0.0200406 1.2443072e-38 327 255
0.01068832 0.76200002 -0.0200406 1.2443075e-38 328 255
0.01202436 0.76200002 -0.0200406 1.2443075e-38 329 255
-0.076059602 0.72299999 -0.020282559 1.76053e-38 260 256
-0.074791931 0.72299999 -0.020282559 1.7789691e-38 261 256
-0.073422581 0.722 -0.020254506 1.8340699e-38 262 256
-0.072156675 0.722 -0.020254506 1.8617286e-38 263 256
-0.070988953 0.72299999 -0.020282559 1.8801673e-38 264 256
-0.069721296 0.72299999 -0.020282559 1.8893868e-38 265 256
-0.06845364 0.72299999 -0.020282559 1.8986064e-38 266 256
-0.067185976 0.72299999 -0.020282559 1.8801673e-38 267 256
-0.065918319 0.72299999 -0.020282559 1.8432894e-38 268 256
-0.064650662 0.72299999 -0.020282559 1.8156306e-38 269 256
-0.063382991 0.72299999 -0.020282559 1.7879721e-38 270 256
-0.062115334 0.72299999 -0.020282559 1.7879721e-38 271 256
-0.060847677 0.72299999 -0.020282559 1.751237e-38 272 256
-0.059580017 0.72299999 -0.020282559 1.7419814e-38 273 256
-0.058473669 0.72500002 -0.020338668 1.7144307e-38 274 256
-0.057202499 0.72500002 -0.020338668 1.7144307e-38 275 256
-0.055931333 0.72500002 -0.020338668 1.6867717e-38 276 256
-0.054810952 0.727 -0.020394772 1.6498934e-38 277 256
-0.053536277 0.727 -0.020394772 1.6130149e-38 278 256
-0.052333489 0.72799999 -0.020422826 1.5853921e-38 279 256
-0.051057063 0.72799999 -0.020422826 1.5302915e-38 280 256
-0.0499174 0.73000002 -0.020478934 1.5210719e-38 281 256
-0.048704091 0.73100001 -0.020506985 1.5118539e-38 282 256
-0.04755215 0.73299998 -0.020563092 1.5118539e-38 283 256
-0.046330083 0.73400003 -0.020591147 1.5025634e-38 284 256
-0.045165867 0.736 -0.020647252 1.4841603e-38 285 256
-0.043994635 0.73799998 -0.020703359 1.4657575e-38 286 256
-0.042700678 0.73799998 -0.020703359 1.4473542e-38 287 256
-0.041462827 0.73900002 -0.020731414 1.4473545e-38 288 256
-0.040167112 0.73900002 -0.020731414 1.4473545e-38 289 256
-0.038976599 0.741 -0.020787518 1.4473545e-38 290 256
-0.037728224 0.74199998 -0.020815572 1.438135e-38 291 256
-0.036427252 0.74199998 -0.020815572 1.4472466e-38 292 256
-0.03512628 0.74199998 -0.020815572 1.4380271e-38 293 256
-0.033916477 0.74400002 -0.02087168 1.4196237e-38 294 256
-0.032699663 0.74599999 -0.020927785 1.4104041e-38 295 256
-0.031433757 0.74699998 -0.020955838 1.4011841e-38 296 256
-0.030204674 0.74900001 -0.021011947 1.3919646e-38 297 256
-0.028891427 0.74900001 -0.021011947 1.4011122e-38 298 256
-0.027615 0.75 -0.02104 1.3918927e-38 299 256
-0.0263 0.75 -0.02104 1.391928e-38 300 256
-0.024984999 0.75 -0.02104 1.3826725e-38 301 256
-0.02379624 0.75400001 -0.021152213 1.373453e-38 302 256
-0.022474226 0.75400001 -0.021152213 1.3642334e-38 303 256
-0.021152213 0.75400001 -0.021152213 1.3550137e-38 304 256
-0.0198565 0.755 -0.021180267 1.327391e-38 305 256
-0.018508185 0.75400001 -0.021152213 1.3181356e-38 306 256
-0.017186172 0.75400001 -0.021152213 1.308916e-38 307 256
-0.01586416 0.75400001 -0.021152213 1.2996962e-38 308 256
-0.014542146 0.75400001 -0.021152213 1.2904765e-38 309 256
-0.013220133 0.75400001 -0.021152213 1.2996595e-38 310 256
-0.01194546 0.75700003 -0.021236373 1.2904399e-38 311 256
-0.010618187 0.75700003 -0.021236373 1.2720005e-38 312 256
-0.00931546 0.759 -0.02129248 1.2720005e-38 313 256
-0.0079846792 0.759 -0.02129248 1.2536696e-38 314 256
-0.0066538998 0.759 -0.02129248 1.2536696e-38 315 256
-0.0053371461 0.76099998 -0.021348584 1.2535989e-38 316 256
-0.0040028598 0.76099998 -0.021348584 1.2443794e-38 317 256
-0.0026685731 0.76099998 -0.021348584 1.2167577e-38 318 256
-0.07942073 0.71899998 -0.021430992 1.5855796e-38 257 257
-0.078160092 0.71899998 -0.021430992 1.6959928e-38 258 257
-0.0759544 0.722 -0.021520413 1.7788247e-38 260 257
-0.074688487 0.722 -0.021520413 1.8064834e-38 261 257
-0.073422581 0.722 -0.021520413 1.8249229e-38 262 257
-0.072156675 0.722 -0.021520413 1.8525814e-38 263 257
-0.070890769 0.722 -0.021520413 1.8710203e-38 264 257
-0.069721296 0.72299999 -0.021550218 1.8710203e-38 265 257
-0.06845364 0.72299999 -0.021550218 1.8801673e-38 266 257
-0.067185976 0.72299999 -0.021550218 1.8525446e-38 267 257
-0.065918319 0.72299999 -0.021550218 1.8248499e-38 268 257
-0.064650662 0.72299999 -0.021550218 1.7972272e-38 269 257
-0.063382991 0.72299999 -0.021550218 1.7511661e-38 270 257
-0.062115334 0.72299999 -0.021550218 1.7511661e-38 271 257
-0.060847677 0.72299999 -0.021550218 1.7327266e-38 272 257
-0.059580017 0.72299999 -0.021550218 1.7142874e-38 273 257
-0.058312356 0.72299999 -0.021550218 1.6959196e-38 274 257
-0.057202499 0.72500002 -0.021609833 1.6959196e-38 275 257
-0.055931333 0.72500002 -0.021609833 1.6590054e-38 276 257
-0.054660168 0.72500002 -0.021609833 1.5852489e-38 277 257
-0.053536277 0.727 -0.021669446 1.5393315e-38 278 257
-0.052261602 0.727 -0.021669446 1.5485511e-38 279 257
-0.051057063 0.72799999 -0.021699252 1.520966e-38 280 257
-0.049780637 0.72799999 -0.021699252 1.5117464e-38 281 257
-0.048637468 0.73000002 -0.021758866 1.5025634e-38 282 257
-0.04755215 0.73299998 -0.021848286 1.5025634e-38 283 257
-0.046330083 0.73400003 -0.021878093 1.4749054e-38 284 257
-0.045165867 0.736 -0.021937706 1.4656857e-38 285 257
-0.043875411 0.736 -0.021937706 1.4473545e-38 286 257
-0.042700678 0.73799998 -0.021997318 1.438135e-38 287 257
-0.041462827 0.73900002 -0.022027127 1.438135e-38 288 257
-0.040167112 0.73900002 -0.022027127 1.438135e-38 289 257
-0.038976599 0.741 -0.02208674 1.4472466e-38 290 257
-0.037677377 0.741 -0.02208674 1.4380271e-38 291 257
-0.036427252 0.74199998 -0.022116546 1.4196237e-38 292 257
-0.035220962 0.74400002 -0.022176161 1.4104041e-38 293 257
-0.033916477 0.74400002 -0.022176161 1.4011485e-38 294 257
-0.032699663 0.74599999 -0.022235774 1.4011485e-38 295 257
-0.031433757 0.74699998 -0.022265578 1.3735977e-38 296 257
-0.030204674 0.74900001 -0.022325192 1.3643782e-38 297 257
-0.028891427 0.74900001 -0.022325192 1.3827094e-38 298 257
-0.027615 0.75 -0.022355 1.3550867e-38 299 257
-0.0263 0.75 -0.022355 1.3550864e-38 300 257
-0.025118252 0.75400001 -0.022474226 1.3458669e-38 301 257
-0.02379624 0.75400001 -0.022474226 1.3365753e-38 302 257
-0.022504034 0.755 -0.022504034 1.3273557e-38 303 257
-0.021180267 0.755 -0.022504034 1.3089526e-38 304 257
-0.019909101 0.75700003 -0.022563647 1.2813299e-38 305 257
-0.018532733 0.755 -0.022504034 1.2721102e-38 306 257
-0.017208965 0.755 -0.022504034 1.2628907e-38 307 257
-0.015969358 0.759 -0.02262326 1.2627832e-38 308 257
-0.014561433 0.755 -0.022504034 1.2535636e-38 309 257
-0.013237666 0.755 -0.022504034 1.2443441e-38 310 257
-0.01197702 0.759 -0.02262326 1.2443441e-38 311 257
-0.01064624 0.759 -0.02262326 1.2718933e-38 312 257
-0.00931546 0.759 -0.02262326 1.253454e-38 313 257
-0.0079846792 0.759 -0.02262326 1.21672e-38 314 257
-0.081942029 0.71899998 -0.022691639 1.6409007e-38 255 258
-0.080681384 0.71899998 -0.022691639 1.6313884e-38 256 258
-0.07942073 0.71899998 -0.022691639 1.6774861e-38 257 258
-0.078160092 0.71899998 -0.022691639 1.7419834e-38 258 258
-0.076899439 0.71899998 -0.022691639 1.7604225e-38 259 258
-0.075743996 0.72000003 -0.022723202 1.815595e-38 260 258
-0.074481606 0.72000003 -0.022723202 1.815595e-38 261 258
-0.073219202 0.72000003 -0.022723202 1.8157033e-38 262 258
-0.071956798 0.72000003 -0.022723202 1.843326e-38 263 258
-0.070694394 0.72000003 -0.022723202 1.8618007e-38 264 258
-0.069624864 0.722 -0.022786319 1.8525812e-38 265 258
-0.068358958 0.722 -0.022786319 1.8432531e-38 266 258
-0.067093052 0.722 -0.022786319 1.8432531e-38 267 258
-0.065644801 0.72000003 -0.022723202 1.7880439e-38 268 258
-0.064382397 0.72000003 -0.022723202 1.7788244e-38 269 258
-0.063295327 0.722 -0.022786319 1.7602779e-38 270 258
-0.062029421 0.722 -0.022786319 1.7326552e-38 271 258
-0.060763516 0.722 -0.022786319 1.7142874e-38 272 258
-0.059497613 0.722 -0.022786319 1.6682255e-38 273 258
-0.058312356 0.72299999 -0.02281788 1.6314546e-38 274 258
-0.057044696 0.72299999 -0.02281788 1.5761372e-38 275 258
-0.055777039 0.72299999 -0.02281788 1.5667024e-38 276 258
-0.054660168 0.72500002 -0.022880999 1.5390797e-38 277 258
-0.053388998 0.72500002 -0.022880999 1.5483726e-38 278 258
-0.052261602 0.727 -0.022944121 1.5575921e-38 279 258
-0.050986931 0.727 -0.022944121 1.5300426e-38 280 258
-0.049780637 0.72799999 -0.022975679 1.5208231e-38 281 258
-0.048637468 0.73000002 -0.023038799 1.4841253e-38 282 258
-0.047422405 0.73100001 -0.02307036 1.4841253e-38 283 258
-0.046330083 0.73400003 -0.023165042 1.4656507e-38 284 258
-0.045043133 0.73400003 -0.023165042 1.4564312e-38 285 258
-0.043875411 0.736 -0.023228159 1.4472113e-38 286 258
-0.042700678 0.73799998 -0.023291279 1.4379917e-38 287 258
-0.041406717 0.73799998 -0.023291279 1.447211e-38 288 258
-0.040167112 0.73900002 -0.023322839 1.4379915e-38 289 258
-0.038976599 0.741 -0.023385961 1.4379549e-38 290 258
-0.037677377 0.741 -0.023385961 1.4379549e-38 291 258
-0.036427252 0.74199998 -0.023417519 1.4287706e-38 292 258
-0.035220962 0.74400002 -0.023480639 1.401112e-38 293 258
-0.033916477 0.74400002 -0.023480639 1.401112e-38 294 258
-0.032699663 0.74599999 -0.023543758 1.3918924e-38 295 258
-0.031433757 0.74699998 -0.023575317 1.3734896e-38 296 258
-0.030204674 0.74900001 -0.02363844 1.3550864e-38 297 258
-0.028891427 0.74900001 -0.02363844 1.3641984e-38 298 258
-0.027615 0.75 -0.023669999 1.3549787e-38 299 258
-0.026440267 0.75400001 -0.02379624 1.3273557e-38 300 258
-0.025118252 0.75400001 -0.02379624 1.3181362e-38 301 258
-0.023827799 0.755 -0.023827799 1.3089163e-38 302 258
-0.022504034 0.755 -0.023827799 1.2812216e-38 303 258
-0.021236373 0.75700003 -0.02389092 1.2443791e-38 304 258
-0.019909101 0.75700003 -0.02389092 1.2535987e-38 305 258
-0.083549835 0.722 -0.024052227 1.6500815e-38 254 259
-0.081942029 0.71899998 -0.023952285 1.5762891e-38 255 259
-0.080681384 0.71899998 -0.023952285 1.6866313e-38 256 259
-0.07942073 0.71899998 -0.023952285 1.7419487e-38 257 259
-0.078160092 0.71899998 -0.023952285 1.7604225e-38 258 259
-0.076899439 0.71899998 -0.023952285 1.769678e-38 259 259
-0.075638793 0.71899998 -0.023952285 1.7880092e-38 260 259
-0.074378148 0.71899998 -0.023952285 1.8064483e-38 261 259
-0.073117502 0.71899998 -0.023952285 1.8157402e-38 262 259
-0.071856856 0.71899998 -0.023952285 1.8341793e-38 263 259
-0.070596211 0.71899998 -0.023952285 1.8249595e-38 264 259
-0.069335558 0.71899998 -0.023952285 1.8249595e-38 265 259
-0.068074919 0.71899998 -0.023952285 1.8248149e-38 266 259
-0.066814266 0.71899998 -0.023952285 1.8248149e-38 267 259
-0.065553628 0.71899998 -0.023952285 1.7879723e-38 268 259
-0.064292975 0.71899998 -0.023952285 1.7695332e-38 269 259
-0.06312 0.72000003 -0.0239856 1.7326552e-38 270 259
-0.061857603 0.72000003 -0.0239856 1.7234357e-38 271 259
-0.060763516 0.722 -0.024052227 1.7049607e-38 272 259
-0.059497613 0.722 -0.024052227 1.6681183e-38 273 259
-0.058231708 0.722 -0.024052227 1.5853939e-38 274 259
-0.057044696 0.72299999 -0.024085538 1.45632e-38 275 259
-0.055777039 0.72299999 -0.024085538 1.4561772e-38 276 259
-0.054509375 0.72299999 -0.024085538 1.5207142e-38 277 259
-0.053388998 0.72500002 -0.024152167 1.5208233e-38 278 259
-0.052117832 0.72500002 -0.024152167 1.5208233e-38 279 259
-0.050986931 0.727 -0.024218792 1.5024568e-38 280 259
-0.049780637 0.72799999 -0.024252106 1.5024568e-38 281 259
-0.048504211 0.72799999 -0.024252106 1.48409e-38 282 259
-0.047357533 0.73000002 -0.024318734 1.4748704e-38 283 259
-0.046266954 0.73299998 -0.024418673 1.4563956e-38 284 259
-0.045043133 0.73400003 -0.024451986 1.4379564e-38 285 259
-0.043875411 0.736 -0.024518613 1.4104056e-38 286 259
-0.042700678 0.73799998 -0.024585238 1.4011861e-38 287 259
-0.041406717 0.73799998 -0.024585238 1.4104054e-38 288 259
-0.040167112 0.73900002 -0.024618553 1.4011858e-38 289 259
-0.038976599 0.741 -0.024685178 1.3827823e-38 290 259
-0.037677377 0.741 -0.024685178 1.3735627e-38 291 259
-0.036427252 0.74199998 -0.024718491 1.401112e-38 292 259
-0.035220962 0.74400002 -0.02478512 1.3826728e-38 293 259
-0.034007654 0.74599999 -0.024851745 1.373453e-38 294 259
-0.032743499 0.74699998 -0.024885058 1.3550137e-38 295 259
-0.031517919 0.74900001 -0.024951685 1.3182809e-38 296 259
-0.030204674 0.74900001 -0.024951685 1.2998059e-38 297 259
-0.028891427 0.74900001 -0.024951685 1.2905864e-38 298 259
-0.027615 0.75 -0.024984999 1.2721472e-38 299 259
-0.026440267 0.75400001 -0.025118252 1.2995541e-38 300 259
-0.025118252 0.75400001 -0.025118252 1.2903345e-38 301 259
-0.083549835 0.722 -0.025318133 1.5578117e-38 254 260
-0.082283929 0.722 -0.025318133 1.6131291e-38 255 260
-0.080681384 0.71899998 -0.025212931 1.7419114e-38 256 260
-0.079199821 0.71700001 -0.0251428 1.7787896e-38 257 260
-0.077942684 0.71700001 -0.0251428 1.7972641e-38 258 260
-0.076685533 0.71700001 -0.0251428 1.7787891e-38 259 260
-0.075428396 0.71700001 -0.0251428 1.7971922e-38 260 260
-0.07417126 0.71700001 -0.0251428 1.8155953e-38 261 260
-0.072914116 0.71700001 -0.0251428 1.8157033e-38 262 260
-0.07165698 0.71700001 -0.0251428 1.8249229e-38 263 260
-0.070399836 0.71700001 -0.0251428 1.8432894e-38 264 260
-0.069335558 0.71899998 -0.025212931 1.8340699e-38 265 260
-0.067885563 0.71700001 -0.0251428 1.8340696e-38 266 260
-0.066628419 0.71700001 -0.0251428 1.7972272e-38 267 260
-0.065371275 0.71700001 -0.0251428 1.7787878e-38 268 260
-0.064114138 0.71700001 -0.0251428 1.7603485e-38 269 260
-0.063032329 0.71899998 -0.025212931 1.7326906e-38 270 260
-0.061857603 0.72000003 -0.025248 1.7142156e-38 271 260
-0.060595199 0.72000003 -0.025248 1.6773744e-38 272 260
-0.059332799 0.72000003 -0.025248 1.5851788e-38 273 260
-0.058231708 0.722 -0.025318133 1.4654691e-38 274 260
-0.056965802 0.722 -0.025318133 1.2626387e-38 275 260
-0.055699892 0.722 -0.025318133 1.3366472e-38 276 260
-0.054509375 0.72299999 -0.025353199 1.4749408e-38 277 260
-0.053241719 0.72299999 -0.025353199 1.5299713e-38 278 260
-0.052117832 0.72500002 -0.025423333 1.5299713e-38 279 260
-0.050846666 0.72500002 -0.025423333 1.4932372e-38 280 260
-0.049712259 0.727 -0.025493465 1.4932372e-38 281 260
-0.048504211 0.72799999 -0.025528532 1.48409e-38 282 260
-0.047357533 0.73000002 -0.025598666 1.4748704e-38 283 260
-0.046140719 0.73100001 -0.025633732 1.4472116e-38 284 260
-0.045043133 0.73400003 -0.025738932 1.419553e-38 285 260
-0.043875411 0.736 -0.025809066 1.4010772e-38 286 260
-0.042584959 0.736 -0.025809066 1.4010772e-38 287 260
-0.041406717 0.73799998 -0.025879199 1.3918574e-38 288 260
-0.040167112 0.73900002 -0.025914267 1.3918574e-38 289 260
-0.038976599 0.741 -0.025984399 1.3918574e-38 290 260
-0.037677377 0.741 -0.025984399 1.3734182e-38 291 260
-0.036427252 0.74199998 -0.026019465 1.345687e-38 292 260
-0.03531564 0.74599999 -0.026159734 1.3364674e-38 293 260
-0.034007654 0.74599999 -0.026159734 1.290657e-38 294 260
-0.032743499 0.74699998 -0.026194798 1.2814015e-38 295 260
-0.031517919 0.74900001 -0.026264934 1.2905498e-38 296 260
-0.030244999 0.75 -0.0263 1.2721105e-38 297 260
-0.028929999 0.75 -0.0263 1.2903699e-38 298 260
-0.083202675 0.71899998 -0.02647358 1.6219871e-38 254 261
-0.081942029 0.71899998 -0.02647358 1.6865241e-38 255 261
-0.080681384 0.71899998 -0.02647358 1.7327634e-38 256 261
-0.079199821 0.71700001 -0.02639994 1.7419831e-38 257 261
-0.077942684 0.71700001 -0.02639994 1.7326918e-38 258 261
-0.076685533 0.71700001 -0.02639994 1.7419114e-38 259 261
-0.075428396 0.71700001 -0.02639994 1.7511311e-38 260 261
-0.07417126 0.71700001 -0.02639994 1.7880092e-38 261 261
-0.072914116 0.71700001 -0.02639994 1.7973006e-38 262 261
-0.07165698 0.71700001 -0.02639994 1.8065203e-38 263 261
-0.070301652 0.71600002 -0.026363119 1.8340699e-38 264 261
-0.069046266 0.71600002 -0.026363119 1.8340699e-38 265 261
-0.067790881 0.71600002 -0.026363119 1.7880795e-38 266 261
-0.066535495 0.71600002 -0.026363119 1.7880795e-38 267 261
-0.06528011 0.71600002 -0.026363119 1.7512014e-38 268 261
-0.064024724 0.71600002 -0.026363119 1.7327622e-38 269 261
-0.062856995 0.71700001 -0.02639994 1.7234707e-38 270 261
-0.061771683 0.71899998 -0.02647358 1.695776e-38 271 261
-0.060511041 0.71899998 -0.02647358 1.6497881e-38 272 261
-0.059332799 0.72000003 -0.026510401 1.5114946e-38 273 261
-0.058070403 0.72000003 -0.026510401 1.3458321e-38 274 261
-0.056965802 0.722 -0.026584039 1.2443809e-38 275 261
-0.055699892 0.722 -0.026584039 1.373311e-38 276 261
-0.054509375 0.72299999 -0.026620859 1.520788e-38 277 261
-0.053241719 0.72299999 -0.026620859 1.4841256e-38 278 261
-0.051974058 0.72299999 -0.026620859 1.4841256e-38 279 261
-0.050846666 0.72500002 -0.026694499 1.4749423e-38 280 261
-0.049712259 0.727 -0.026768139 1.4749423e-38 281 261
-0.048504211 0.72799999 -0.026804959 1.4473195e-38 282 261
-0.047357533 0.73000002 -0.026878599 1.4288445e-38 283 261
-0.046140719 0.73100001 -0.026915418 1.4010769e-38 284 261
-0.044859033 0.73100001 -0.026915418 1.3549431e-38 285 261
-0.043756187 0.73400003 -0.02702588 1.2722902e-38 286 261
-0.042584959 0.736 -0.02709952 1.2999128e-38 287 261
-0.041406717 0.73799998 -0.027173158 1.3182809e-38 288 261
-0.040167112 0.73900002 -0.027209979 1.3366842e-38 289 261
-0.038976599 0.741 -0.027283618 1.3182456e-38 290 261
-0.037728224 0.74199998 -0.027320439 1.2997706e-38 291 261
-0.036525439 0.74400002 -0.027394081 1.2904792e-38 292 261
-0.035362978 0.74699998 -0.027504537 1.2904792e-38 293 261
-0.034053236 0.74699998 -0.027504537 1.2537087e-38 294 261
-0.032831166 0.74900001 -0.027578179 1.2352337e-38 295 261
-0.083202675 0.71899998 -0.027734226 1.7049259e-38 254 262
-0.081942029 0.71899998 -0.027734226 1.7233651e-38 255 262
-0.080456957 0.71700001 -0.027657079 1.7419111e-38 256 262
-0.079199821 0.71700001 -0.027657079 1.7142524e-38 257 262
-0.077942684 0.71700001 -0.027657079 1.6497158e-38 258 262
-0.076685533 0.71700001 -0.027657079 1.6589353e-38 259 262
-0.075323202 0.71600002 -0.027618507 1.7051054e-38 260 262
-0.074067809 0.71600002 -0.027618507 1.7604228e-38 261 262
-0.072812423 0.71600002 -0.027618507 1.8155597e-38 262 262
-0.071557038 0.71600002 -0.027618507 1.8340348e-38 263 262
-0.070105277 0.71399999 -0.02754136 1.8432897e-38 264 262
-0.068853401 0.71399999 -0.02754136 1.8248146e-38 265 262
-0.067601517 0.71399999 -0.02754136 1.7697127e-38 266 262
-0.066349633 0.71399999 -0.02754136 1.7512736e-38 267 262
-0.065097757 0.71399999 -0.02754136 1.7327985e-38 268 262
-0.063845873 0.71399999 -0.02754136 1.7051758e-38 269 262
-0.062769331 0.71600002 -0.027618507 1.6867011e-38 270 262
-0.061599858 0.71700001 -0.027657079 1.6682618e-38 271 262
-0.060342718 0.71700001 -0.027657079 1.640676e-38 272 262
-0.059250388 0.71899998 -0.027734226 1.410187e-38 273 262
-0.058070403 0.72000003 -0.027772799 1.2443438e-38 274 262
-0.056808002 0.72000003 -0.027772799 1.3088807e-38 275 262
-0.055699892 0.722 -0.027849946 1.4286997e-38 276 262
-0.054433983 0.722 -0.027849946 1.4932367e-38 277 262
-0.053241719 0.72299999 -0.02788852 1.4657227e-38 278 262
-0.051974058 0.72299999 -0.02788852 1.4749423e-38 279 262
-0.050846666 0.72500002 -0.027965667 1.4749426e-38 280 262
-0.049712259 0.727 -0.028042812 1.465723e-38 281 262
-0.048504211 0.72799999 -0.028081384 1.4380643e-38 282 262
-0.047357533 0.73000002 -0.028158534 1.3643078e-38 283 262
-0.046140719 0.73100001 -0.028197108 1.2996264e-38 284 262
-0.044859033 0.73100001 -0.028197108 1.1982112e-38 285 262
-0.043756187 0.73400003 -0.028312827 1.1340336e-38 286 262
-0.042758539 0.73900002 -0.028505694 1.2170096e-38 287 262
-0.041462827 0.73900002 -0.028505694 1.2722551e-38 288 262
-0.04027582 0.741 -0.028582839 1.2722551e-38 289 262
-0.038976599 0.741 -0.028582839 1.2905145e-38 290 262
-0.037728224 0.74199998 -0.028621411 1.2720752e-38 291 262
-0.036672719 0.74699998 -0.028814279 1.2903699e-38 292 262
-0.083202675 0.71899998 -0.028994869 1.7049607e-38 254 263
-0.081714094 0.71700001 -0.028914221 1.7141802e-38 255 263
-0.080456957 0.71700001 -0.028914221 1.6958493e-38 256 263
-0.079089358 0.71600002 -0.028873893 1.6313124e-38 257 263
-0.077833973 0.71600002 -0.028873893 1.5575553e-38 258 263
-0.076578587 0.71600002 -0.028873893 1.5759943e-38 259 263
-0.075323202 0.71600002 -0.028873893 1.67741e-38 260 263
-0.074067809 0.71600002 -0.028873893 1.7419111e-38 261 263
-0.072812423 0.71600002 -0.028873893 1.7880092e-38 262 263
-0.071357153 0.71399999 -0.028793238 1.8064483e-38 263 263
-0.070007093 0.713 -0.028752912 1.8064834e-38 264 263
-0.068564095 0.71100003 -0.028672259 1.7972638e-38 265 263
-0.067317478 0.71100003 -0.028672259 1.7788244e-38 266 263
-0.066256717 0.713 -0.028752912 1.7512017e-38 267 263
-0.065006584 0.713 -0.028752912 1.7051758e-38 268 263
-0.063756458 0.713 -0.028752912 1.6867367e-38 269 263
-0.062506333 0.713 -0.028752912 1.6499309e-38 270 263
-0.061513945 0.71600002 -0.028873893 1.6406754e-38 271 263
-0.06025856 0.71600002 -0.028873893 1.60387e-38 272 263
-0.059085581 0.71700001 -0.028914221 1.3917842e-38 273 263
-0.058070403 0.72000003 -0.029035201 1.3181006e-38 274 263
-0.056808002 0.72000003 -0.029035201 1.4011125e-38 275 263
-0.055545598 0.72000003 -0.029035201 1.4380996e-38 276 263
-0.054433983 0.722 -0.029115854 1.4657225e-38 277 263
-0.053241719 0.72299999 -0.029156178 1.465723e-38 278 263
-0.051974058 0.72299999 -0.029156178 1.465723e-38 279 263
-0.050846666 0.72500002 -0.029236834 1.465723e-38 280 263
-0.049712259 0.727 -0.029317487 1.4380643e-38 281 263
-0.048504211 0.72799999 -0.029357811 1.4195886e-38 282 263
-0.047227785 0.72799999 -0.029357811 1.3089179e-38 283 263
-0.046077598 0.73000002 -0.029438468 1.1799889e-38 284 263
-0.044859033 0.73100001 -0.029478792 1.198428e-38 285 263
-0.043756187 0.73400003 -0.029599773 1.2077195e-38 286 263
-0.042758539 0.73900002 -0.029801406 1.2261946e-38 287 263
-0.041462827 0.73900002 -0.029801406 1.253816e-38 288 263
-0.04027582 0.741 -0.029882059 1.2445604e-38 289 263
-0.038976599 0.741 -0.029882059 1.2536358e-38 290 263
-0.084228382 0.71700001 -0.030171359 1.6498266e-38 253 264
-0.082971238 0.71700001 -0.030171359 1.6957407e-38 254 264
-0.081714094 0.71700001 -0.030171359 1.6957407e-38 255 264
-0.080456957 0.71700001 -0.030171359 1.6957044e-38 256 264
-0.079089358 0.71600002 -0.03012928 1.6127283e-38 257 264
-0.07761655 0.71399999 -0.030045118 1.5298216e-38 258 264
-0.076364681 0.71399999 -0.030045118 1.5390772e-38 259 264
-0.075112797 0.71399999 -0.030045118 1.6404941e-38 260 264
-0.073860914 0.71399999 -0.030045118 1.7327256e-38 261 264
-0.072507344 0.713 -0.030003037 1.7419834e-38 262 264
-0.071257219 0.713 -0.030003037 1.7604225e-38 263 264
-0.069810718 0.71100003 -0.029918881 1.7604581e-38 264 264
-0.068564095 0.71100003 -0.029918881 1.7604581e-38 265 264
-0.067317478 0.71100003 -0.029918881 1.7511667e-38 266 264
-0.066070862 0.71100003 -0.029918881 1.7326915e-38 267 264
-0.064824238 0.71100003 -0.029918881 1.6867016e-38 268 264
-0.063756458 0.713 -0.030003037 1.6682265e-38 269 264
-0.062506333 0.713 -0.030003037 1.6314561e-38 270 264
-0.061256204 0.713 -0.030003037 1.6037976e-38 271 264
-0.06025856 0.71600002 -0.03012928 1.5669922e-38 272 264
-0.059003171 0.71600002 -0.03012928 1.4286986e-38 273 264
-0.057828441 0.71700001 -0.030171359 1.4286997e-38 274 264
-0.056729097 0.71899998 -0.030255521 1.4563943e-38 275 264
-0.055545598 0.72000003 -0.0302976 1.4472839e-38 276 264
-0.054283202 0.72000003 -0.0302976 1.465723e-38 277 264
-0.053168077 0.722 -0.030381758 1.4656877e-38 278 264
-0.051974058 0.72299999 -0.030423839 1.4472845e-38 279 264
-0.050846666 0.72500002 -0.030508002 1.4105135e-38 280 264
-0.049712259 0.727 -0.030592158 1.382819e-38 281 264
-0.048504211 0.72799999 -0.030634239 1.327357e-38 282 264
-0.047227785 0.72799999 -0.030634239 1.2443809e-38 283 264
-0.046077598 0.73000002 -0.030718399 1.1892438e-38 284 264
-0.044859033 0.73100001 -0.03076048 1.2076829e-38 285 264
-0.043756187 0.73400003 -0.030886721 1.2170099e-38 286 264
-0.042758539 0.73900002 -0.03109712 1.2077545e-38 287 264
-0.041575037 0.741 -0.03118128 1.2444157e-38 288 264
-0.04027582 0.741 -0.03118128 1.2260126e-38 289 264
-0.084110901 0.71600002 -0.031384666 1.6314235e-38 253 265
-0.082855515 0.71600002 -0.031384666 1.695741e-38 254 265
-0.08160013 0.71600002 -0.031384666 1.7049607e-38 255 265
-0.080344744 0.71600002 -0.031384666 1.6865562e-38 256 265
-0.078868434 0.71399999 -0.031296998 1.5943966e-38 257 265
-0.077507854 0.713 -0.031253166 1.5390066e-38 258 265
-0.076257721 0.713 -0.031253166 1.6127631e-38 259 265
-0.074797198 0.71100003 -0.031165501 1.6680807e-38 260 265
-0.073550582 0.71100003 -0.031165501 1.704959e-38 261 265
-0.072303966 0.71100003 -0.031165501 1.7142874e-38 262 265
-0.071057342 0.71100003 -0.031165501 1.7327266e-38 263 265
-0.069712527 0.70999998 -0.031121666 1.7419467e-38 264 265
-0.068467662 0.70999998 -0.031121666 1.7235076e-38 265 265
-0.067222796 0.70999998 -0.031121666 1.704961e-38 266 265
-0.066070862 0.71100003 -0.031165501 1.6957413e-38 267 265
-0.064824238 0.71100003 -0.031165501 1.6589353e-38 268 265
-0.063577622 0.71100003 -0.031165501 1.6681549e-38 269 265
-0.062331002 0.71100003 -0.031165501 1.6129821e-38 270 265
-0.061256204 0.713 -0.031253166 1.5853234e-38 271 265
-0.060090236 0.71399999 -0.031296998 1.5668488e-38 272 265
-0.059003171 0.71600002 -0.031384666 1.5023119e-38 273 265
-0.057828441 0.71700001 -0.031428497 1.456359e-38 274 265
-0.056571297 0.71700001 -0.031428497 1.4839817e-38 275 265
-0.055468451 0.71899998 -0.031516165 1.4380643e-38 276 265
-0.054283202 0.72000003 -0.03156 1.4472839e-38 277 265
-0.053020801 0.72000003 -0.03156 1.4472842e-38 278 265
-0.051902171 0.722 -0.031647664 1.428845e-38 279 265
-0.050846666 0.72500002 -0.031779166 1.4104054e-38 280 265
-0.049712259 0.727 -0.03186683 1.290551e-38 281 265
-0.048504211 0.72799999 -0.031910665 1.1339261e-38 282 265
-0.047227785 0.72799999 -0.031910665 1.198463e-38 283 265
-0.046077598 0.73000002 -0.031998333 1.2537084e-38 284 265
-0.044859033 0.73100001 -0.032042164 1.2537084e-38 285 265
-0.043577347 0.73100001 -0.032042164 1.2536002e-38 286 265
-0.042758539 0.73900002 -0.032392833 1.2443806e-38 287 265
-0.085366286 0.71600002 -0.032640055 1.594653e-38 252 266
-0.084110901 0.71600002 -0.032640055 1.6314954e-38 253 266
-0.082624078 0.71399999 -0.032548878 1.6774818e-38 254 266
-0.081372194 0.71399999 -0.032548878 1.6774818e-38 255 266
-0.080008104 0.713 -0.032503292 1.6958116e-38 256 266
-0.078757972 0.713 -0.032503292 1.5943966e-38 257 266
-0.077290438 0.71100003 -0.032412119 1.5298249e-38 258 266
-0.076043822 0.71100003 -0.032412119 1.631204e-38 259 266
-0.074691996 0.70999998 -0.032366529 1.6681563e-38 260 266
-0.073447131 0.70999998 -0.032366529 1.6405335e-38 261 266
-0.072202265 0.70999998 -0.032366529 1.631529e-38 262 266
-0.070957392 0.70999998 -0.032366529 1.6683714e-38 263 266
-0.069712527 0.70999998 -0.032366529 1.6958856e-38 264 266
-0.068467662 0.70999998 -0.032366529 1.6958856e-38 265 266
-0.067222796 0.70999998 -0.032366529 1.6498237e-38 266 266
-0.065977924 0.70999998 -0.032366529 1.6313487e-38 267 266
-0.064733058 0.70999998 -0.032366529 1.6129821e-38 268 266
-0.063577622 0.71100003 -0.032412119 1.6037626e-38 269 266
-0.062331002 0.71100003 -0.032412119 1.5945433e-38 270 266
-0.061084379 0.71100003 -0.032412119 1.5853237e-38 271 266
-0.060006075 0.713 -0.032503292 1.5668488e-38 272 266
-0.058838356 0.71399999 -0.032548878 1.5207512e-38 273 266
-0.057747785 0.71600002 -0.032640055 1.4839817e-38 274 266
-0.056492399 0.71600002 -0.032640055 1.4839817e-38 275 266
-0.055314157 0.71700001 -0.032685637 1.4381365e-38 276 266
-0.054283202 0.72000003 -0.0328224 1.4381365e-38 277 266
-0.053020801 0.72000003 -0.0328224 1.438029e-38 278 266
-0.051902171 0.722 -0.032913569 1.4195899e-38 279 266
-0.050706398 0.72299999 -0.032959159 1.336757e-38 280 266
-0.0495755 0.72500002 -0.033050332 1.2537451e-38 281 266
-0.048437584 0.727 -0.033141505 1.2443088e-38 282 266
-0.047162913 0.727 -0.033141505 1.2904064e-38 283 266
-0.046077598 0.73000002 -0.033278264 1.2538157e-38 284 266
-0.044797666 0.73000002 -0.033278264 1.226121e-38 285 266
-0.043577347 0.73100001 -0.033323854 1.2258692e-38 286 266
-0.086621679 0.71600002 -0.03389544 1.5119695e-38 251 267
-0.085127831 0.71399999 -0.033800758 1.6130911e-38 252 267
-0.083875954 0.71399999 -0.033800758 1.6223108e-38 253 267
-0.082624078 0.71399999 -0.033800758 1.6866295e-38 254 267
-0.08125823 0.713 -0.033753417 1.695849e-38 255 267
-0.080008104 0.713 -0.033753417 1.6774801e-38 256 267
-0.078757972 0.713 -0.033753417 1.5852486e-38 257 267
-0.077290438 0.71100003 -0.033658739 1.5758851e-38 258 267
-0.075936861 0.70999998 -0.033611398 1.6219829e-38 259 267
-0.074691996 0.70999998 -0.033611398 1.6129448e-38 260 267
-0.073240235 0.708 -0.033516716 1.6221644e-38 261 267
-0.071998879 0.708 -0.033516716 1.6313487e-38 262 267
-0.070757516 0.708 -0.033516716 1.6498237e-38 263 267
-0.069516152 0.708 -0.033516716 1.6773744e-38 264 267
-0.068274796 0.708 -0.033516716 1.6681549e-38 265 267
-0.067222796 0.70999998 -0.033611398 1.6037976e-38 266 267
-0.065977924 0.70999998 -0.033611398 1.594578e-38 267 267
-0.064733058 0.70999998 -0.033611398 1.6220572e-38 268 267
-0.063488193 0.70999998 -0.033611398 1.6128375e-38 269 267
-0.062331002 0.71100003 -0.033658739 1.5669922e-38 270 267
-0.061084379 0.71100003 -0.033658739 1.5577725e-38 271 267
-0.060006075 0.713 -0.033753417 1.5209315e-38 272 267
-0.058755953 0.713 -0.033753417 1.5024565e-38 273 267
-0.057586476 0.71399999 -0.033800758 1.4472839e-38 274 267
-0.056492399 0.71600002 -0.03389544 1.4472839e-38 275 267
-0.055314157 0.71700001 -0.033942781 1.4380643e-38 276 267
-0.054283202 0.72000003 -0.034084801 1.4288448e-38 277 267
-0.053020801 0.72000003 -0.034084801 1.4288445e-38 278 267
-0.051758397 0.72000003 -0.034084801 1.4011858e-38 279 267
-0.050706398 0.72299999 -0.03422682 1.3275369e-38 280 267
-0.049438741 0.72299999 -0.03422682 1.2906585e-38 281 267
-0.048304334 0.72500002 -0.034321502 1.244596e-38 282 267
-0.047033165 0.72500002 -0.034321502 1.244596e-38 283 267
-0.045888241 0.727 -0.03441618 1.2260847e-38 284 267
-0.044674929 0.72799999 -0.034463517 1.1431087e-38 285 267
-0.087877065 0.71600002 -0.035150826 1.6870686e-38 250 268
-0.086621679 0.71600002 -0.035150826 1.4934578e-38 251 268
-0.084770165 0.71100003 -0.034905359 1.6130192e-38 252 268
-0.083523542 0.71100003 -0.034905359 1.6314585e-38 253 268
-0.082508355 0.713 -0.035003547 1.6774465e-38 254 268
-0.081030294 0.71100003 -0.034905359 1.686666e-38 255 268
-0.079783678 0.71100003 -0.034905359 1.7142512e-38 256 268
-0.078537062 0.71100003 -0.034905359 1.6404588e-38 257 268
-0.077181734 0.70999998 -0.034856264 1.6219832e-38 258 268
-0.075936861 0.70999998 -0.034856264 1.6404223e-38 259 268
-0.074481599 0.708 -0.034758076 1.6037251e-38 260 268
-0.073240235 0.708 -0.034758076 1.6129448e-38 261 268
-0.071998879 0.708 -0.034758076 1.5946502e-38 262 268
-0.070657574 0.70700002 -0.034708988 1.6130893e-38 263 268
-0.069417976 0.70700002 -0.034708988 1.6314208e-38 264 268
-0.068178371 0.70700002 -0.034708988 1.6130177e-38 265 268
-0.067033432 0.708 -0.034758076 1.5945786e-38 266 268
-0.065792084 0.708 -0.034758076 1.585323e-38 267 268
-0.06455072 0.708 -0.034758076 1.5577722e-38 268 268
-0.063488193 0.70999998 -0.034856264 1.5577722e-38 269 268
-0.062243331 0.70999998 -0.034856264 1.5301858e-38 270 268
-0.061084379 0.71100003 -0.034905359 1.5209663e-38 271 268
-0.059837762 0.71100003 -0.034905359 1.4841972e-38 272 268
-0.058755953 0.713 -0.035003547 1.4473548e-38 273 268
-0.057505824 0.713 -0.035003547 1.465723e-38 274 268
-0.0563346 0.71399999 -0.035052639 1.4380643e-38 275 268
-0.055314157 0.71700001 -0.035199918 1.4289167e-38 276 268
-0.054057021 0.71700001 -0.035199918 1.4105135e-38 277 268
-0.05294716 0.71899998 -0.035298105 1.4104056e-38 278 268
-0.051758397 0.72000003 -0.035347197 1.3735274e-38 279 268
-0.050636265 0.722 -0.035445385 1.2906232e-38 280 268
-0.049438741 0.72299999 -0.035494477 1.2445255e-38 281 268
-0.048171077 0.72299999 -0.035494477 1.2168301e-38 282 268
-0.047033165 0.72500002 -0.035592668 1.1799519e-38 283 268
-0.045888241 0.727 -0.035690852 1.0786806e-38 284 268
-0.087508865 0.713 -0.036253672 1.6593376e-38 250 269
-0.086258732 0.713 -0.036253672 1.4933856e-38 251 269
-0.084770165 0.71100003 -0.036151983 1.6037997e-38 252 269
-0.083523542 0.71100003 -0.036151983 1.6222388e-38 253 269
-0.082508355 0.713 -0.036253672 1.6682268e-38 254 269
-0.081030294 0.71100003 -0.036151983 1.686666e-38 255 269
-0.079783678 0.71100003 -0.036151983 1.7142877e-38 256 269
-0.0784266 0.70999998 -0.036101133 1.6589703e-38 257 269
-0.076964319 0.708 -0.03599944 1.6404588e-38 258 269
-0.075722955 0.708 -0.03599944 1.6404588e-38 259 269
-0.074376404 0.70700002 -0.035948593 1.6037604e-38 260 269
-0.073136792 0.70700002 -0.035948593 1.6129802e-38 261 269
-0.071897186 0.70700002 -0.035948593 1.594578e-38 262 269
-0.070657574 0.70700002 -0.035948593 1.594578e-38 263 269
-0.069417976 0.70700002 -0.035948593 1.5945786e-38 264 269
-0.068178371 0.70700002 -0.035948593 1.5945786e-38 265 269
-0.066938758 0.70700002 -0.035948593 1.5485173e-38 266 269
-0.065699153 0.70700002 -0.035948593 1.5485173e-38 267 269
-0.06455072 0.708 -0.03599944 1.5392981e-38 268 269
-0.063488193 0.70999998 -0.036101133 1.5485176e-38 269 269
-0.062243331 0.70999998 -0.036101133 1.5392625e-38 270 269
-0.061084379 0.71100003 -0.036151983 1.5300429e-38 271 269
-0.059837762 0.71100003 -0.036151983 1.4748701e-38 272 269
-0.058755953 0.713 -0.036253672 1.4656504e-38 273 269
-0.057505824 0.713 -0.036253672 1.4381362e-38 274 269
-0.0563346 0.71399999 -0.036304519 1.4289167e-38 275 269
-0.055237014 0.71600002 -0.036406212 1.4288448e-38 276 269
-0.054057021 0.71700001 -0.036457058 1.4196252e-38 277 269
-0.052799881 0.71700001 -0.036457058 1.3735996e-38 278 269
-0.051902171 0.722 -0.03671129 1.3367214e-38 279 269
-0.050636265 0.722 -0.03671129 1.2352705e-38 280 269
-0.049438741 0.72299999 -0.036762137 1.1984283e-38 281 269
-0.048171077 0.72299999 -0.036762137 1.1522579e-38 282 269
-0.047033165 0.72500002 -0.036863834 1.0416231e-38 283 269
-0.087263398 0.71100003 -0.037398599 1.6042002e-38 250 270
-0.086016782 0.71100003 -0.037398599 1.4382479e-38 251 270
-0.084770165 0.71100003 -0.037398599 1.5945798e-38 252 270
-0.083406061 0.70999998 -0.037345998 1.613019e-38 253 270
-0.082161188 0.70999998 -0.037345998 1.6406041e-38 254 270
-0.08091633 0.70999998 -0.037345998 1.6498237e-38 255 270
-0.079671465 0.70999998 -0.037345998 1.6957413e-38 256 270
-0.0784266 0.70999998 -0.037345998 1.6680827e-38 257 270
-0.076964319 0.708 -0.0372408 1.6496433e-38 258 270
-0.075509049 0.70599997 -0.037135597 1.6404237e-38 259 270
-0.074271195 0.70599997 -0.037135597 1.6220925e-38 260 270
-0.07303334 0.70599997 -0.037135597 1.6220925e-38 261 270
-0.071795486 0.70599997 -0.037135597 1.5852511e-38 262 270
-0.070557632 0.70599997 -0.037135597 1.5852511e-38 263 270
-0.069319785 0.70599997 -0.037135597 1.5668486e-38 264 270
-0.06808193 0.70599997 -0.037135597 1.5668486e-38 265 270
-0.066844068 0.70599997 -0.037135597 1.5392262e-38 266 270
-0.065699153 0.70700002 -0.037188202 1.5299707e-38 267 270
-0.064459547 0.70700002 -0.037188202 1.5208233e-38 268 270
-0.063309364 0.708 -0.0372408 1.5300429e-38 269 270
-0.062243331 0.70999998 -0.037345998 1.5116761e-38 270 270
-0.060998458 0.70999998 -0.037345998 1.5024565e-38 271 270
-0.059837762 0.71100003 -0.037398599 1.4656504e-38 272 270
-0.058591139 0.71100003 -0.037398599 1.4564309e-38 273 270
-0.057505824 0.713 -0.037503798 1.4013656e-38 274 270
-0.0563346 0.71399999 -0.037556399 1.4013656e-38 275 270
-0.055237014 0.71600002 -0.037661601 1.4105135e-38 276 270
-0.053981625 0.71600002 -0.037661601 1.4105135e-38 277 270
-0.052726239 0.71600002 -0.037661601 1.355053e-38 278 270
-0.051470853 0.71600002 -0.037661601 1.2997356e-38 279 270
-0.050636265 0.722 -0.0379772 1.1799536e-38 280 270
-0.049438741 0.72299999 -0.038029801 1.0969774e-38 281 270
-0.048171077 0.72299999 -0.038029801 9.312776e-39 282 270
-0.087263398 0.71100003 -0.038645219 1.6133472e-38 250 271
-0.086016782 0.71100003 -0.038645219 1.4105168e-38 251 271
-0.084650926 0.70999998 -0.038590867 1.5577369e-38 252 271
-0.083406061 0.70999998 -0.038590867 1.6130543e-38 253 271
-0.082161188 0.70999998 -0.038590867 1.6313121e-38 254 271
-0.08091633 0.70999998 -0.038590867 1.6313121e-38 255 271
-0.079671465 0.70999998 -0.038590867 1.6220928e-38 256 271
-0.078205675 0.708 -0.038482159 1.6220928e-38 257 271
-0.076746903 0.70599997 -0.038373452 1.5945786e-38 258 271
-0.075509049 0.70599997 -0.038373452 1.585323e-38 259 271
-0.074271195 0.70599997 -0.038373452 1.5852511e-38 260 271
-0.07303334 0.70599997 -0.038373452 1.5760316e-38 261 271
-0.071795486 0.70599997 -0.038373452 1.5484457e-38 262 271
-0.070557632 0.70599997 -0.038373452 1.5392262e-38 263 271
-0.069319785 0.70599997 -0.038373452 1.5024565e-38 264 271
-0.06808193 0.70599997 -0.038373452 1.5024565e-38 265 271
-0.066844068 0.70599997 -0.038373452 1.5023846e-38 266 271
-0.065606222 0.70599997 -0.038373452 1.4931649e-38 267 271
-0.064368367 0.70599997 -0.038373452 1.465686e-38 268 271
-0.063219935 0.70700002 -0.038427804 1.4749057e-38 269 271
-0.062068 0.708 -0.038482159 1.4657225e-38 270 271
-0.060998458 0.70999998 -0.038590867 1.4473192e-38 271 271
-0.059837762 0.71100003 -0.038645219 1.4380999e-38 272 271
-0.058591139 0.71100003 -0.038645219 1.4288445e-38 273 271
-0.057344519 0.71100003 -0.038645219 1.4013659e-38 274 271
-0.0563346 0.71399999 -0.038808275 1.3921104e-38 275 271
-0.055237014 0.71600002 -0.038916986 1.392111e-38 276 271
-0.053981625 0.71600002 -0.038916986 1.4013306e-38 277 271
-0.052726239 0.71600002 -0.038916986 1.2722216e-38 278 271
-0.051470853 0.71600002 -0.038916986 1.2076847e-38 279 271
-0.087263398 0.71100003 -0.039891839 1.6593373e-38 250 272
-0.086016782 0.71100003 -0.039891839 1.4011896e-38 251 272
-0.084650926 0.70999998 -0.039835732 1.5208587e-38 252 272
-0.083406061 0.70999998 -0.039835732 1.5485173e-38 253 272
-0.082161188 0.70999998 -0.039835732 1.5761022e-38 254 272
-0.08091633 0.70999998 -0.039835732 1.5668826e-38 255 272
-0.079671465 0.70999998 -0.039835732 1.5392606e-38 256 272
-0.078205675 0.708 -0.039723519 1.5669192e-38 257 272
-0.076746903 0.70599997 -0.039611302 1.5852514e-38 258 272
-0.075509049 0.70599997 -0.039611302 1.5760318e-38 259 272
-0.074271195 0.70599997 -0.039611302 1.5667767e-38 260 272
-0.07303334 0.70599997 -0.039611302 1.5483376e-38 261 272
-0.071795486 0.70599997 -0.039611302 1.5390824e-38 262 272
-0.070557632 0.70599997 -0.039611302 1.5114596e-38 263 272
-0.06912341 0.704 -0.039499093 1.5022763e-38 264 272
-0.067889065 0.704 -0.039499093 1.5022763e-38 265 272
-0.066844068 0.70599997 -0.039611302 1.4838732e-38 266 272
-0.065606222 0.70599997 -0.039611302 1.4838732e-38 267 272
-0.064368367 0.70599997 -0.039611302 1.4747258e-38 268 272
-0.063219935 0.70700002 -0.039667413 1.4839454e-38 269 272
-0.062068 0.708 -0.039723519 1.4380996e-38 270 272
-0.060826641 0.708 -0.039723519 1.4380996e-38 271 272
-0.059753593 0.70999998 -0.039835732 1.4012934e-38 272 272
-0.058591139 0.71100003 -0.039891839 1.4012934e-38 273 272
-0.057344519 0.71100003 -0.039891839 1.3829262e-38 274 272
-0.056255698 0.713 -0.040004052 1.3829262e-38 275 272
-0.055237014 0.71600002 -0.040172372 1.3460129e-38 276 272
-0.053981625 0.71600002 -0.040172372 1.3275738e-38 277 272
-0.052726239 0.71600002 -0.040172372 1.1616589e-38 278 272
-0.051470853 0.71600002 -0.040172372 1.032585e-38 279 272
-0.087263398 0.71100003 -0.041138459 1.6778844e-38 250 273
-0.086016782 0.71100003 -0.041138459 1.4104812e-38 251 273
-0.084650926 0.70999998 -0.041080594 1.4379917e-38 252 273
-0.083406061 0.70999998 -0.041080594 1.5025287e-38 253 273
-0.082161188 0.70999998 -0.041080594 1.5392625e-38 254 273
-0.080688395 0.708 -0.040964879 1.5392625e-38 255 273
-0.079334825 0.70700002 -0.040907022 1.5484457e-38 256 273
-0.07809522 0.70700002 -0.040907022 1.5484457e-38 257 273
-0.076746903 0.70599997 -0.040849157 1.5484457e-38 258 273
-0.075509049 0.70599997 -0.040849157 1.5392262e-38 259 273
-0.074271195 0.70599997 -0.040849157 1.5483022e-38 260 273
-0.072826453 0.704 -0.040733438 1.5114599e-38 261 273
-0.071592107 0.704 -0.040733438 1.4747255e-38 262 273
-0.070557632 0.70599997 -0.040849157 1.4562864e-38 263 273
-0.06912341 0.704 -0.040733438 1.4379196e-38 264 273
-0.067889065 0.704 -0.040733438 1.4379196e-38 265 273
-0.066654719 0.704 -0.040733438 1.4103338e-38 266 273
-0.065606222 0.70599997 -0.040849157 1.4195533e-38 267 273
-0.064368367 0.70599997 -0.040849157 1.4379564e-38 268 273
-0.063130513 0.70599997 -0.040849157 1.447176e-38 269 273
-0.061980337 0.70700002 -0.040907022 1.447176e-38 270 273
-0.060740728 0.70700002 -0.040907022 1.4379564e-38 271 273
-0.059753593 0.70999998 -0.041080594 1.4012934e-38 272 273
-0.058508728 0.70999998 -0.041080594 1.3920739e-38 273 273
-0.057344519 0.71100003 -0.041138459 1.364595e-38 274 273
-0.056097899 0.71100003 -0.041138459 1.3461557e-38 275 273
-0.05508272 0.71399999 -0.041312039 1.3183545e-38 276 273
-0.053830836 0.71399999 -0.041312039 1.2538175e-38 277 273
-0.052726239 0.71600002 -0.041427758 1.0234383e-38 278 273
-0.051470853 0.71600002 -0.041427758 8.9436445e-39 279 273
-0.087263398 0.71100003 -0.042385083 1.7331308e-38 250 274
-0.086016782 0.71100003 -0.042385083 1.45658e-38 251 274
-0.084412478 0.708 -0.042206239 1.3826744e-38 252 274
-0.083171122 0.708 -0.042206239 1.4472113e-38 253 274
-0.081929758 0.708 -0.042206239 1.5391529e-38 254 274
-0.080688395 0.708 -0.042206239 1.5575921e-38 255 274
-0.079334825 0.70700002 -0.042146627 1.5300414e-38 256 274
-0.07798475 0.70599997 -0.042087011 1.5392609e-38 257 274
-0.076746903 0.70599997 -0.042087011 1.5483729e-38 258 274
-0.075509049 0.70599997 -0.042087011 1.5483729e-38 259 274
-0.074271195 0.70599997 -0.042087011 1.5114593e-38 260 274
-0.072826453 0.704 -0.041967787 1.4930202e-38 261 274
-0.071592107 0.704 -0.041967787 1.4469945e-38 262 274
-0.070357755 0.704 -0.041967787 1.4285554e-38 263 274
-0.06912341 0.704 -0.041967787 1.4286277e-38 264 274
-0.067889065 0.704 -0.041967787 1.4194081e-38 265 274
-0.066654719 0.704 -0.041967787 1.4377399e-38 266 274
-0.065420374 0.704 -0.041967787 1.4377399e-38 267 274
-0.064186029 0.704 -0.041967787 1.4561792e-38 268 274
-0.062951677 0.704 -0.041967787 1.4653988e-38 269 274
-0.061892662 0.70599997 -0.042087011 1.4195886e-38 270 274
-0.060654808 0.70599997 -0.042087011 1.4195886e-38 271 274
-0.059501119 0.70700002 -0.042146627 1.3645231e-38 272 274
-0.058343921 0.708 -0.042206239 1.3645231e-38 273 274
-0.057263866 0.70999998 -0.042325463 1.3552678e-38 274 274
-0.056018997 0.70999998 -0.042325463 1.3460482e-38 275 274
-0.05508272 0.71399999 -0.042563915 1.2354507e-38 276 274
-0.053830836 0.71399999 -0.042563915 1.0879377e-38 277 274
-0.052578956 0.71399999 -0.042563915 8.7614169e-39 278 274
-0.085653841 0.708 -0.043447599 1.5855108e-38 251 275
-0.084412478 0.708 -0.043447599 1.3918586e-38 252 275
-0.083171122 0.708 -0.043447599 1.3826391e-38 253 275
-0.081929758 0.708 -0.043447599 1.4564649e-38 254 275
-0.080574431 0.70700002 -0.043386232 1.4840876e-38 255 275
-0.079334825 0.70700002 -0.043386232 1.5024197e-38 256 275
-0.07798475 0.70599997 -0.043324865 1.5208587e-38 257 275
-0.076746903 0.70599997 -0.043324865 1.5391177e-38 258 275
-0.075509049 0.70599997 -0.043324865 1.5114949e-38 259 275
