# .PCD v.7 - Point Cloud Data file format
FIELDS x y z rgb imX imY
SIZE 4 4 4 4 4 4
TYPE F F F F F F
COUNT 1 1 1 1 1 1
WIDTH 827
HEIGHT 1
VIEWPOINT 0 0 0 1 0 0 0
POINTS 827
DATA ascii
0.021753605 0.653 -0.05381155 1.2627459e-38 339 287
0.022933599 0.65399998 -0.053893957 1.2443428e-38 340 287
0.024080278 0.65399998 -0.053893957 1.2443428e-38 341 287
0.025226958 0.65399998 -0.053893957 1.2260479e-38 342 287
0.026413966 0.65499997 -0.053976361 1.2260479e-38 343 287
0.027562398 0.65499997 -0.053976361 1.2351595e-38 344 287
0.028842334 0.65799999 -0.054223582 1.2443791e-38 345 287
0.030041611 0.65899998 -0.054305989 1.2536343e-38 346 287
0.031291738 0.66100001 -0.054470807 1.2536343e-38 347 287
0.032450691 0.66100001 -0.054470807 1.2537061e-38 348 287
0.033660494 0.662 -0.054553211 1.2629257e-38 349 287
0.034873798 0.66299999 -0.054635618 1.2721453e-38 350 287
0.036090612 0.66399997 -0.054718021 1.281365e-38 351 287
0.037367038 0.66600001 -0.054882839 1.2813653e-38 352 287
0.03853476 0.66600001 -0.054882839 1.2813653e-38 353 287
0.039702479 0.66600001 -0.054882839 1.2721823e-38 354 287
0.040931564 0.667 -0.054965243 1.2721823e-38 355 287
0.042290401 0.67000002 -0.055212468 1.2537451e-38 356 287
-0.039090566 0.63700002 -0.053609919 1.8153419e-38 285 288
-0.037973695 0.63700002 -0.053609919 1.8247036e-38 286 288
-0.03691468 0.63800001 -0.053694081 1.8247036e-38 287 288
-0.035796054 0.63800001 -0.053694081 1.8247389e-38 288 288
-0.034677424 0.63800001 -0.053694081 1.8339585e-38 289 288
-0.033558797 0.63800001 -0.053694081 1.8338869e-38 290 288
-0.032440174 0.63800001 -0.053694081 1.85229e-38 291 288
-0.031419732 0.63999999 -0.053862397 1.8339237e-38 292 288
-0.03020292 0.63800001 -0.053694081 1.8246683e-38 293 288
-0.029084295 0.63800001 -0.053694081 1.8246316e-38 294 288
-0.027965667 0.63800001 -0.053694081 1.815412e-38 295 288
-0.02684704 0.63800001 -0.053694081 1.7878609e-38 296 288
-0.025728412 0.63800001 -0.053694081 1.7786414e-38 297 288
-0.024609786 0.63800001 -0.053694081 1.7418001e-38 298 288
-0.02345434 0.63700002 -0.053609919 1.7418001e-38 299 288
-0.022337466 0.63700002 -0.053609919 1.7509101e-38 300 288
-0.021253906 0.63800001 -0.053694081 1.7232514e-38 301 288
-0.02013528 0.63800001 -0.053694081 1.7232864e-38 302 288
-0.019076265 0.63999999 -0.053862397 1.7232864e-38 303 288
-0.017954132 0.63999999 -0.053862397 1.7138874e-38 304 288
-0.016858298 0.64099997 -0.053946555 1.7046678e-38 305 288
-0.015734414 0.64099997 -0.053946555 1.6771889e-38 306 288
-0.014610525 0.64099997 -0.053946555 1.6771889e-38 307 288
-0.013486639 0.64099997 -0.053946555 1.6403111e-38 308 288
-0.012362752 0.64099997 -0.053946555 1.6403111e-38 309 288
-0.011238866 0.64099997 -0.053946555 1.6494226e-38 310 288
-0.010114979 0.64099997 -0.053946555 1.640203e-38 311 288
-0.0089910924 0.64099997 -0.053946555 1.6218731e-38 312 288
-0.0078672068 0.64099997 -0.053946555 1.6126535e-38 313 288
-0.00675384 0.64200002 -0.05403072 1.5667359e-38 314 288
-0.0056281998 0.64200002 -0.05403072 1.5667359e-38 315 288
-0.00450256 0.64200002 -0.05403072 1.5667356e-38 316 288
-0.0033821799 0.64300001 -0.054114878 1.5667356e-38 317 288
-0.00225128 0.64200002 -0.05403072 1.5758478e-38 318 288
-0.00112564 0.64200002 -0.05403072 1.5850674e-38 319 288
0 0.64300001 -0.054114878 1.557481e-38 320 288
0.0011291467 0.64399999 -0.054199036 1.557481e-38 321 288
0.0022582933 0.64399999 -0.054199036 1.5482615e-38 322 288
0.0033874398 0.64399999 -0.054199036 1.5390419e-38 323 288
0.0045165867 0.64399999 -0.054199036 1.5390046e-38 324 288
0.0056457333 0.64399999 -0.054199036 1.5113459e-38 325 288
0.00679592 0.64600003 -0.05436736 1.4838299e-38 326 288
0.0079285735 0.64600003 -0.05436736 1.4930495e-38 327 288
0.0090612266 0.64600003 -0.05436736 1.4746106e-38 328 288
0.01019388 0.64600003 -0.05436736 1.465355e-38 329 288
0.011344067 0.64700001 -0.054451518 1.4376617e-38 330 288
0.01249776 0.648 -0.05453568 1.4100031e-38 331 288
0.01363392 0.648 -0.05453568 1.3455387e-38 332 288
0.014792874 0.64899999 -0.054619838 1.31788e-38 333 288
0.015930785 0.64899999 -0.054619838 1.3546156e-38 334 288
0.017068699 0.64899999 -0.054619838 1.3361406e-38 335 288
0.018234665 0.64999998 -0.054703996 1.290188e-38 336 288
0.019374331 0.64999998 -0.054703996 1.2809683e-38 337 288
0.02057712 0.65200001 -0.054872319 1.2351225e-38 338 288
0.021753605 0.653 -0.054956477 1.2351225e-38 339 288
0.022898532 0.653 -0.054956477 1.2259746e-38 340 288
0.024080278 0.65399998 -0.055040635 1.2259746e-38 341 288
0.025226958 0.65399998 -0.055040635 1.2259746e-38 342 288
0.026413966 0.65499997 -0.055124797 1.2352302e-38 343 288
0.027562398 0.65499997 -0.055124797 1.2443422e-38 344 288
0.028842334 0.65799999 -0.055377278 1.2443422e-38 345 288
0.030132787 0.66100001 -0.05562976 1.2444141e-38 346 288
0.031291738 0.66100001 -0.05562976 1.2536696e-38 347 288
0.032499783 0.662 -0.055713918 1.2628889e-38 348 288
0.033711337 0.66299999 -0.055798076 1.281292e-38 349 288
0.0349264 0.66399997 -0.055882234 1.2905118e-38 350 288
0.036090612 0.66399997 -0.055882234 1.2997315e-38 351 288
0.037367038 0.66600001 -0.056050558 1.2996965e-38 352 288
0.03853476 0.66600001 -0.056050558 1.2996965e-38 353 288
0.039702479 0.66600001 -0.056050558 1.253744e-38 354 288
0.040870197 0.66600001 -0.056050558 1.2444885e-38 355 288
-0.040207442 0.63700002 -0.054726794 1.8337788e-38 284 289
-0.039090566 0.63700002 -0.054726794 1.8429984e-38 285 289
-0.037973695 0.63700002 -0.054726794 1.8338866e-38 286 289
-0.036856819 0.63700002 -0.054726794 1.8338866e-38 287 289
-0.035739947 0.63700002 -0.054726794 1.8246672e-38 288 289
-0.034623075 0.63700002 -0.054726794 1.8246672e-38 289 289
-0.0335062 0.63700002 -0.054726794 1.8153767e-38 290 289
-0.032389328 0.63700002 -0.054726794 1.8153767e-38 291 289
-0.031272452 0.63700002 -0.054726794 1.8154491e-38 292 289
-0.03020292 0.63800001 -0.054812707 1.7877906e-38 293 289
-0.029038707 0.63700002 -0.054726794 1.7601302e-38 294 289
-0.027921833 0.63700002 -0.054726794 1.7601302e-38 295 289
-0.026804959 0.63700002 -0.054726794 1.7509101e-38 296 289
-0.025688088 0.63700002 -0.054726794 1.732471e-38 297 289
-0.024571214 0.63700002 -0.054726794 1.7049568e-38 298 289
-0.02345434 0.63700002 -0.054726794 1.6772982e-38 299 289
-0.022337466 0.63700002 -0.054726794 1.686445e-38 300 289
-0.021220595 0.63700002 -0.054726794 1.6588224e-38 301 289
-0.020103721 0.63700002 -0.054726794 1.6679691e-38 302 289
-0.019016653 0.63800001 -0.054812707 1.6587495e-38 303 289
-0.017954132 0.63999999 -0.054984529 1.6403114e-38 304 289
-0.016831998 0.63999999 -0.054984529 1.6403114e-38 305 289
-0.015734414 0.64099997 -0.055070441 1.6311278e-38 306 289
-0.014610525 0.64099997 -0.055070441 1.6219081e-38 307 289
-0.013486639 0.64099997 -0.055070441 1.6035772e-38 308 289
-0.012343466 0.63999999 -0.054984529 1.6035772e-38 309 289
-0.011221332 0.63999999 -0.054984529 1.6035065e-38 310 289
-0.010114979 0.64099997 -0.055070441 1.594287e-38 311 289
-0.0089910924 0.64099997 -0.055070441 1.5667009e-38 312 289
-0.0078672068 0.64099997 -0.055070441 1.5667009e-38 313 289
-0.0067433193 0.64099997 -0.055070441 1.5667006e-38 314 289
-0.0056194332 0.64099997 -0.055070441 1.5482615e-38 315 289
-0.0044955462 0.64099997 -0.055070441 1.5482615e-38 316 289
-0.00337692 0.64200002 -0.055156358 1.5390419e-38 317 289
-0.00225128 0.64200002 -0.055156358 1.5206751e-38 318 289
-0.00112564 0.64200002 -0.055156358 1.5206751e-38 319 289
0 0.64200002 -0.055156358 1.4931243e-38 320 289
0.0011273933 0.64300001 -0.05524227 1.4839046e-38 321 289
0.0022547867 0.64300001 -0.05524227 1.4654649e-38 322 289
0.0033874398 0.64399999 -0.055328183 1.4562453e-38 323 289
0.0045165867 0.64399999 -0.055328183 1.4653556e-38 324 289
0.0056457333 0.64399999 -0.055328183 1.4469166e-38 325 289
0.0067748795 0.64399999 -0.055328183 1.4286197e-38 326 289
0.0079285735 0.64600003 -0.055500012 1.3917775e-38 327 289
0.0090612266 0.64600003 -0.055500012 1.3825942e-38 328 289
0.01019388 0.64600003 -0.055500012 1.3549714e-38 329 289
0.011344067 0.64700001 -0.055585928 1.3456093e-38 330 289
0.01249776 0.648 -0.055671841 1.3271702e-38 331 289
0.01363392 0.648 -0.055671841 1.2903291e-38 332 289
0.014770079 0.648 -0.055671841 1.2903291e-38 333 289
0.015930785 0.64899999 -0.05575775 1.2810755e-38 334 289
0.017068699 0.64899999 -0.05575775 1.2626724e-38 335 289
0.018234665 0.64999998 -0.055843662 1.2351225e-38 336 289
0.019374331 0.64999998 -0.055843662 1.2351225e-38 337 289
0.02057712 0.65200001 -0.056015491 1.2259749e-38 338 289
0.021720294 0.65200001 -0.056015491 1.2167553e-38 339 289
0.022898532 0.653 -0.056101404 1.225903e-38 340 289
0.024080278 0.65399998 -0.056187313 1.225903e-38 341 289
0.025226958 0.65399998 -0.056187313 1.2259749e-38 342 289
0.026413966 0.65499997 -0.056273226 1.2351946e-38 343 289
0.027562398 0.65499997 -0.056273226 1.2443422e-38 344 289
0.028842334 0.65799999 -0.056530971 1.2627812e-38 345 289
0.030132787 0.66100001 -0.056788713 1.2536696e-38 346 289
0.031339079 0.662 -0.056874625 1.2628891e-38 347 289
0.032499783 0.662 -0.056874625 1.2812922e-38 348 289
0.033711337 0.66299999 -0.056960538 1.2812922e-38 349 289
0.0349264 0.66399997 -0.057046451 1.272145e-38 350 289
0.036090612 0.66399997 -0.057046451 1.272145e-38 351 289
0.037254825 0.66399997 -0.057046451 1.253779e-38 352 289
0.03853476 0.66600001 -0.057218276 1.2445594e-38 353 289
0.039702479 0.66600001 -0.057218276 1.2076478e-38 354 289
0.040870197 0.66600001 -0.057218276 1.1707336e-38 355 289
-0.043626439 0.63800001 -0.055931333 1.8154486e-38 281 290
-0.042507812 0.63800001 -0.055931333 1.8154839e-38 282 290
-0.041389186 0.63800001 -0.055931333 1.8247036e-38 283 290
-0.040207442 0.63700002 -0.055843666 1.8154836e-38 284 290
-0.039090566 0.63700002 -0.055843666 1.8062641e-38 285 290
-0.037973695 0.63700002 -0.055843666 1.8154839e-38 286 290
-0.036856819 0.63700002 -0.055843666 1.8247036e-38 287 290
-0.035739947 0.63700002 -0.055843666 1.8061927e-38 288 290
-0.034623075 0.63700002 -0.055843666 1.7969373e-38 289 290
-0.0335062 0.63700002 -0.055843666 1.7693146e-38 290 290
-0.032338478 0.63599998 -0.055755995 1.7693146e-38 291 290
-0.031223357 0.63599998 -0.055755995 1.7693146e-38 292 290
-0.03015558 0.63700002 -0.055843666 1.7416558e-38 293 290
-0.029038707 0.63700002 -0.055843666 1.6956653e-38 294 290
-0.027921833 0.63700002 -0.055843666 1.6864456e-38 295 290
-0.026804959 0.63700002 -0.055843666 1.6771902e-38 296 290
-0.025688088 0.63700002 -0.055843666 1.6587871e-38 297 290
-0.024571214 0.63700002 -0.055843666 1.6220886e-38 298 290
-0.02345434 0.63700002 -0.055843666 1.6036136e-38 299 290
-0.022337466 0.63700002 -0.055843666 1.6036125e-38 300 290
-0.021220595 0.63700002 -0.055843666 1.5851375e-38 301 290
-0.020103721 0.63700002 -0.055843666 1.5758811e-38 302 290
-0.019016653 0.63800001 -0.055931333 1.5758811e-38 303 290
-0.017898027 0.63800001 -0.055931333 1.5759182e-38 304 290
-0.016779399 0.63800001 -0.055931333 1.5943573e-38 305 290
-0.015660774 0.63800001 -0.055931333 1.5575529e-38 306 290
-0.014587732 0.63999999 -0.056106664 1.5575529e-38 307 290
-0.013465599 0.63999999 -0.056106664 1.5574813e-38 308 290
-0.012343466 0.63999999 -0.056106664 1.5574813e-38 309 290
-0.011221332 0.63999999 -0.056106664 1.5574813e-38 310 290
-0.0100992 0.63999999 -0.056106664 1.5574813e-38 311 290
-0.0089770658 0.63999999 -0.056106664 1.5299302e-38 312 290
-0.0078549329 0.63999999 -0.056106664 1.5207107e-38 313 290
-0.0067327996 0.63999999 -0.056106664 1.5390419e-38 314 290
-0.0056194332 0.64099997 -0.056194331 1.5298223e-38 315 290
-0.0044955462 0.64099997 -0.056194331 1.5114185e-38 316 290
-0.0033716597 0.64099997 -0.056194331 1.502199e-38 317 290
-0.0022477731 0.64099997 -0.056194331 1.4930144e-38 318 290
-0.0011238866 0.64099997 -0.056194331 1.4837949e-38 319 290
0 0.64200002 -0.056282002 1.4746106e-38 320 290
0.0011273933 0.64300001 -0.056369666 1.4469519e-38 321 290
0.0022547867 0.64300001 -0.056369666 1.4101816e-38 322 290
0.0033821799 0.64300001 -0.056369666 1.3917066e-38 323 290
0.0045165867 0.64399999 -0.056457333 1.4008184e-38 324 290
0.0056457333 0.64399999 -0.056457333 1.3731957e-38 325 290
0.0067748795 0.64399999 -0.056457333 1.3640477e-38 326 290
0.0079285735 0.64600003 -0.056632672 1.3271696e-38 327 290
0.0090612266 0.64600003 -0.056632672 1.2812889e-38 328 290
0.01019388 0.64600003 -0.056632672 1.2720693e-38 329 290
0.011326533 0.64600003 -0.056632672 1.2810755e-38 330 290
0.012478473 0.64700001 -0.056720335 1.2626724e-38 331 290
0.01363392 0.648 -0.056808002 1.2442695e-38 332 290
0.014770079 0.648 -0.056808002 1.2442695e-38 333 290
0.015930785 0.64899999 -0.056895666 1.23505e-38 334 290
0.017068699 0.64899999 -0.056895666 1.23505e-38 335 290
0.018234665 0.64999998 -0.056983333 1.2167187e-38 336 290
0.019374331 0.64999998 -0.056983333 1.2167187e-38 337 290
0.02057712 0.65200001 -0.057158668 1.216755e-38 338 290
0.021720294 0.65200001 -0.057158668 1.216755e-38 339 290
0.022898532 0.653 -0.057246335 1.216755e-38 340 290
0.024080278 0.65399998 -0.057333998 1.216755e-38 341 290
0.025226958 0.65399998 -0.057333998 1.2259749e-38 342 290
0.026413966 0.65499997 -0.057421666 1.2351946e-38 343 290
0.027562398 0.65499997 -0.057421666 1.2444141e-38 344 290
0.028886165 0.65899998 -0.057772331 1.2444141e-38 345 290
0.030132787 0.66100001 -0.057947662 1.2536696e-38 346 290
0.031291738 0.66100001 -0.057947662 1.2536696e-38 347 290
0.032548878 0.66299999 -0.058122993 1.2628535e-38 348 290
0.033711337 0.66299999 -0.058122993 1.2628535e-38 349 290
0.0349264 0.66399997 -0.05821066 1.262926e-38 350 290
0.036090612 0.66399997 -0.05821066 1.262926e-38 351 290
0.037254825 0.66399997 -0.05821066 1.226121e-38 352 290
0.038419038 0.66399997 -0.05821066 1.1984983e-38 353 290
0.039702479 0.66600001 -0.058385998 1.1247812e-38 354 290
-0.054812707 0.63800001 -0.05704996 1.7976353e-38 271 291
-0.053694081 0.63800001 -0.05704996 1.8433346e-38 272 291
-0.052740265 0.63999999 -0.057228796 1.7880172e-38 273 291
-0.051698782 0.64099997 -0.057318214 1.769537e-38 274 291
-0.050574899 0.64099997 -0.057318214 1.7418783e-38 275 291
-0.049451008 0.64099997 -0.057318214 1.7786432e-38 276 291
-0.048327126 0.64099997 -0.057318214 1.7509846e-38 277 291
-0.047276881 0.64200002 -0.05740764 1.7694568e-38 278 291
-0.046151239 0.64200002 -0.05740764 1.7786764e-38 279 291
-0.045025598 0.64200002 -0.05740764 1.8062275e-38 280 291
-0.043626439 0.63800001 -0.05704996 1.815447e-38 281 291
-0.042507812 0.63800001 -0.05704996 1.8154476e-38 282 291
-0.041324314 0.63700002 -0.056960538 1.8246672e-38 283 291
-0.040207442 0.63700002 -0.056960538 1.8061922e-38 284 291
-0.039029196 0.63599998 -0.056871112 1.7969726e-38 285 291
-0.037914075 0.63599998 -0.056871112 1.7693865e-38 286 291
-0.036798958 0.63599998 -0.056871112 1.7509472e-38 287 291
-0.035683837 0.63599998 -0.056871112 1.7049214e-38 288 291
-0.03456872 0.63599998 -0.056871112 1.6865183e-38 289 291
-0.033453599 0.63599998 -0.056871112 1.6864456e-38 290 291
-0.032338478 0.63599998 -0.056871112 1.6587871e-38 291 291
-0.031223357 0.63599998 -0.056871112 1.6311281e-38 292 291
-0.03015558 0.63700002 -0.056960538 1.6219084e-38 293 291
-0.029038707 0.63700002 -0.056960538 1.5943573e-38 294 291
-0.027921833 0.63700002 -0.056960538 1.5574792e-38 295 291
-0.026804959 0.63700002 -0.056960538 1.5665911e-38 296 291
-0.025688088 0.63700002 -0.056960538 1.5665911e-38 297 291
-0.024571214 0.63700002 -0.056960538 1.5298923e-38 298 291
-0.02345434 0.63700002 -0.056960538 1.5114891e-38 299 291
-0.022337466 0.63700002 -0.056960538 1.5481866e-38 300 291
-0.021187279 0.63599998 -0.056871112 1.5297835e-38 301 291
-0.020072158 0.63599998 -0.056871112 1.5206361e-38 302 291
-0.018986847 0.63700002 -0.056960538 1.5298557e-38 303 291
-0.017869974 0.63700002 -0.056960538 1.5298572e-38 304 291
-0.0167531 0.63700002 -0.056960538 1.5390769e-38 305 291
-0.015636226 0.63700002 -0.056960538 1.5481896e-38 306 291
-0.014542148 0.63800001 -0.05704996 1.5481896e-38 307 291
-0.01342352 0.63800001 -0.05704996 1.5389696e-38 308 291
-0.012304893 0.63800001 -0.05704996 1.5389696e-38 309 291
-0.011186266 0.63800001 -0.05704996 1.5298216e-38 310 291
-0.01006764 0.63800001 -0.05704996 1.5114185e-38 311 291
-0.0089770658 0.63999999 -0.057228796 1.4746476e-38 312 291
-0.0078549329 0.63999999 -0.057228796 1.465428e-38 313 291
-0.0067327996 0.63999999 -0.057228796 1.4929791e-38 314 291
-0.0056106662 0.63999999 -0.057228796 1.4837596e-38 315 291
-0.0044885329 0.63999999 -0.057228796 1.4469169e-38 316 291
-0.0033716597 0.64099997 -0.057318214 1.4376973e-38 317 291
-0.0022477731 0.64099997 -0.057318214 1.4468087e-38 318 291
-0.0011238866 0.64099997 -0.057318214 1.4375892e-38 319 291
0 0.64099997 -0.057318214 1.3914548e-38 320 291
0.00112564 0.64200002 -0.05740764 1.3822352e-38 321 291
0.0022547867 0.64300001 -0.057497058 1.3363165e-38 322 291
0.0033821799 0.64300001 -0.057497058 1.3086938e-38 323 291
0.0045095733 0.64300001 -0.057497058 1.317878e-38 324 291
0.0056457333 0.64399999 -0.057586476 1.2902194e-38 325 291
0.0067748795 0.64399999 -0.057586476 1.2719244e-38 326 291
0.0079040267 0.64399999 -0.057586476 1.2534853e-38 327 291
0.0090331733 0.64399999 -0.057586476 1.2535231e-38 328 291
0.01019388 0.64600003 -0.057765324 1.2535231e-38 329 291
0.011326533 0.64600003 -0.057765324 1.2441976e-38 330 291
0.012478473 0.64700001 -0.057854742 1.2441976e-38 331 291
0.01363392 0.648 -0.05794416 1.2350146e-38 332 291
0.014770079 0.648 -0.05794416 1.2350146e-38 333 291
0.015930785 0.64899999 -0.058033578 1.2166834e-38 334 291
0.017095 0.64999998 -0.058122993 1.2166834e-38 335 291
0.018234665 0.64999998 -0.058122993 1.1983519e-38 336 291
0.019433947 0.65200001 -0.058301836 1.216755e-38 337 291
0.020608678 0.653 -0.058391262 1.1983519e-38 338 291
0.021753605 0.653 -0.058391262 1.216755e-38 339 291
0.022933599 0.65399998 -0.05848068 1.1983519e-38 340 291
0.024080278 0.65399998 -0.05848068 1.216755e-38 341 291
0.025226958 0.65399998 -0.05848068 1.2076436e-38 342 291
0.026413966 0.65499997 -0.058570094 1.2168633e-38 343 291
0.027688639 0.65799999 -0.058838356 1.2351946e-38 344 291
0.028886165 0.65899998 -0.058927774 1.2444141e-38 345 291
0.030132787 0.66100001 -0.059106622 1.2627456e-38 346 291
0.031291738 0.66100001 -0.059106622 1.2627456e-38 347 291
0.032548878 0.66299999 -0.059285458 1.2719655e-38 348 291
0.033711337 0.66299999 -0.059285458 1.2719655e-38 349 291
0.0349264 0.66399997 -0.059374876 1.235304e-38 350 291
0.036090612 0.66399997 -0.059374876 1.2260844e-38 351 291
0.037254825 0.66399997 -0.059374876 1.1799889e-38 352 291
0.038419038 0.66399997 -0.059374876 1.0785737e-38 353 291
-0.05704996 0.63800001 -0.05816859 1.8346577e-38 269 292
-0.055931333 0.63800001 -0.05816859 1.8252917e-38 270 292
-0.054812707 0.63800001 -0.05816859 1.714693e-38 271 292
-0.053694081 0.63800001 -0.05816859 1.7603525e-38 272 292
-0.052740265 0.63999999 -0.058350928 1.686596e-38 273 292
-0.051618129 0.63999999 -0.058350928 1.7418007e-38 274 292
-0.050495997 0.63999999 -0.058350928 1.7694234e-38 275 292
-0.049373865 0.63999999 -0.058350928 1.7786779e-38 276 292
-0.048251729 0.63999999 -0.058350928 1.7694584e-38 277 292
-0.047203235 0.64099997 -0.058442101 1.7786767e-38 278 292
-0.046007466 0.63999999 -0.058350928 1.7786767e-38 279 292
-0.044745065 0.63800001 -0.05816859 1.7786411e-38 280 292
-0.043558061 0.63700002 -0.058077414 1.7786411e-38 281 292
-0.042441189 0.63700002 -0.058077414 1.7786414e-38 282 292
-0.041324314 0.63700002 -0.058077414 1.7694218e-38 283 292
-0.040144317 0.63599998 -0.057986237 1.7784965e-38 284 292
-0.039029196 0.63599998 -0.057986237 1.7600574e-38 285 292
-0.037914075 0.63599998 -0.057986237 1.7232511e-38 286 292
-0.036798958 0.63599998 -0.057986237 1.6956283e-38 287 292
-0.035683837 0.63599998 -0.057986237 1.6312726e-38 288 292
-0.03456872 0.63599998 -0.057986237 1.6128334e-38 289 292
-0.033453599 0.63599998 -0.057986237 1.6035421e-38 290 292
-0.032338478 0.63599998 -0.057986237 1.5850671e-38 291 292
-0.031223357 0.63599998 -0.057986237 1.5482246e-38 292 292
-0.030108238 0.63599998 -0.057986237 1.5390049e-38 293 292
-0.029038707 0.63700002 -0.058077414 1.5022706e-38 294 292
-0.027921833 0.63700002 -0.058077414 1.4654283e-38 295 292
-0.026804959 0.63700002 -0.058077414 1.4836877e-38 296 292
-0.025688088 0.63700002 -0.058077414 1.4929072e-38 297 292
-0.024571214 0.63700002 -0.058077414 1.4378435e-38 298 292
-0.02345434 0.63700002 -0.058077414 1.4378435e-38 299 292
-0.022337466 0.63700002 -0.058077414 1.447028e-38 300 292
-0.021187279 0.63599998 -0.057986237 1.4378085e-38 301 292
-0.020072158 0.63599998 -0.057986237 1.4653948e-38 302 292
-0.018957037 0.63599998 -0.057986237 1.4653948e-38 303 292
-0.017841918 0.63599998 -0.057986237 1.465358e-38 304 292
-0.016726799 0.63599998 -0.057986237 1.4745775e-38 305 292
-0.015636226 0.63700002 -0.058077414 1.5297851e-38 306 292
-0.014519353 0.63700002 -0.058077414 1.5113459e-38 307 292
-0.01342352 0.63800001 -0.05816859 1.5113457e-38 308 292
-0.012304893 0.63800001 -0.05816859 1.483723e-38 309 292
-0.011186266 0.63800001 -0.05816859 1.4653553e-38 310 292
-0.01006764 0.63800001 -0.05816859 1.4653553e-38 311 292
-0.0089770658 0.63999999 -0.058350928 1.4469875e-38 312 292
-0.0078549329 0.63999999 -0.058350928 1.4377321e-38 313 292
-0.0067327996 0.63999999 -0.058350928 1.4285847e-38 314 292
-0.0056106662 0.63999999 -0.058350928 1.4101816e-38 315 292
-0.0044885329 0.63999999 -0.058350928 1.4375173e-38 316 292
-0.0033663998 0.63999999 -0.058350928 1.419078e-38 317 292
-0.0022477731 0.64099997 -0.058442101 1.3639071e-38 318 292
-0.0011238866 0.64099997 -0.058442101 1.3639071e-38 319 292
0 0.64099997 -0.058442101 1.3177379e-38 320 292
0.00112564 0.64200002 -0.058533281 1.2992629e-38 321 292
0.00225128 0.64200002 -0.058533281 1.2627077e-38 322 292
0.0033821799 0.64300001 -0.058624454 1.2442327e-38 323 292
0.0045095733 0.64300001 -0.058624454 1.23505e-38 324 292
0.0056457333 0.64399999 -0.058715623 1.2166468e-38 325 292
0.0067748795 0.64399999 -0.058715623 1.2350853e-38 326 292
0.0079040267 0.64399999 -0.058715623 1.2166822e-38 327 292
0.0090331733 0.64399999 -0.058715623 1.2350497e-38 328 292
0.01019388 0.64600003 -0.058897976 1.2166466e-38 329 292
0.011326533 0.64600003 -0.058897976 1.2073917e-38 330 292
0.012478473 0.64700001 -0.058989145 1.2166113e-38 331 292
0.01363392 0.648 -0.059080318 1.2166115e-38 332 292
0.014770079 0.648 -0.059080318 1.2166115e-38 333 292
0.015930785 0.64899999 -0.059171494 1.2166837e-38 334 292
0.017095 0.64999998 -0.059262663 1.2166837e-38 335 292
0.018234665 0.64999998 -0.059262663 1.1983166e-38 336 292
0.019433947 0.65200001 -0.059445009 1.2167556e-38 337 292
0.020608678 0.653 -0.059536185 1.2167556e-38 338 292
0.021753605 0.653 -0.059536185 1.2167556e-38 339 292
0.022933599 0.65399998 -0.059627358 1.2167556e-38 340 292
0.024080278 0.65399998 -0.059627358 1.2167556e-38 341 292
0.025265532 0.65499997 -0.059718527 1.1983888e-38 342 292
0.026413966 0.65499997 -0.059718527 1.2076083e-38 343 292
0.027730718 0.65899998 -0.060083222 1.216828e-38 344 292
0.028973831 0.66100001 -0.060265575 1.216828e-38 345 292
0.030132787 0.66100001 -0.060265575 1.2168283e-38 346 292
0.031291738 0.66100001 -0.060265575 1.2260479e-38 347 292
0.032548878 0.66299999 -0.060447913 1.216793e-38 348 292
0.033711337 0.66299999 -0.060447913 1.216793e-38 349 292
0.0349264 0.66399997 -0.060539093 1.1984636e-38 350 292
0.036090612 0.66399997 -0.060539093 1.1707689e-38 351 292
0.037254825 0.66399997 -0.060539093 1.0603178e-38 352 292
-0.058442101 0.64099997 -0.059565991 1.8066711e-38 268 293
-0.05704996 0.63800001 -0.059287209 1.7421342e-38 269 293
-0.055931333 0.63800001 -0.059287209 1.7513497e-38 270 293
-0.054812707 0.63800001 -0.059287209 1.6868127e-38 271 293
-0.053694081 0.63800001 -0.059287209 1.7418022e-38 272 293
-0.05257545 0.63800001 -0.059287209 1.7510218e-38 273 293
-0.051456824 0.63800001 -0.059287209 1.7786061e-38 274 293
-0.050495997 0.63999999 -0.05947306 1.7786061e-38 275 293
-0.049373865 0.63999999 -0.05947306 1.7786411e-38 276 293
-0.048100945 0.63800001 -0.059287209 1.7694215e-38 277 293
-0.046982322 0.63800001 -0.059287209 1.7877881e-38 278 293
-0.045863692 0.63800001 -0.059287209 1.7877881e-38 279 293
-0.044674933 0.63700002 -0.059194289 1.7969713e-38 280 293
-0.043558061 0.63700002 -0.059194289 1.7600571e-38 281 293
-0.042374559 0.63599998 -0.059101358 1.7232862e-38 282 293
-0.041194562 0.63499999 -0.059008431 1.6772242e-38 283 293
-0.040081199 0.63499999 -0.059008431 1.6679678e-38 284 293
-0.038967833 0.63499999 -0.059008431 1.6126504e-38 285 293
-0.037854467 0.63499999 -0.059008431 1.584991e-38 286 293
-0.0367411 0.63499999 -0.059008431 1.5481488e-38 287 293
-0.03562773 0.63499999 -0.059008431 1.5113797e-38 288 293
-0.034514364 0.63499999 -0.059008431 1.5021243e-38 289 293
-0.033453599 0.63599998 -0.059101358 1.4653187e-38 290 293
-0.032287631 0.63499999 -0.059008431 1.4468437e-38 291 293
-0.031174263 0.63499999 -0.059008431 1.4099661e-38 292 293
-0.030108238 0.63599998 -0.059101358 1.4099661e-38 293 293
-0.028993119 0.63599998 -0.059101358 1.3734122e-38 294 293
-0.027877998 0.63599998 -0.059101358 1.3549729e-38 295 293
-0.026762879 0.63599998 -0.059101358 1.3823816e-38 296 293
-0.025647758 0.63599998 -0.059101358 1.4008208e-38 297 293
-0.024532638 0.63599998 -0.059101358 1.4191525e-38 298 293
-0.023417519 0.63599998 -0.059101358 1.4191525e-38 299 293
-0.022302398 0.63599998 -0.059101358 1.4008564e-38 300 293
-0.021187279 0.63599998 -0.059101358 1.4008564e-38 301 293
-0.020072158 0.63599998 -0.059101358 1.4284427e-38 302 293
-0.018957037 0.63599998 -0.059101358 1.4284427e-38 303 293
-0.017841918 0.63599998 -0.059101358 1.4192226e-38 304 293
-0.016726799 0.63599998 -0.059101358 1.4100031e-38 305 293
-0.015611678 0.63599998 -0.059101358 1.4283326e-38 306 293
-0.014519353 0.63700002 -0.059194289 1.419113e-38 307 293
-0.01340248 0.63700002 -0.059194289 1.428261e-38 308 293
-0.012285607 0.63700002 -0.059194289 1.428261e-38 309 293
-0.011168733 0.63700002 -0.059194289 1.3364251e-38 310 293
-0.01006764 0.63800001 -0.059287209 1.3271696e-38 311 293
-0.0089490134 0.63800001 -0.059287209 1.3362433e-38 312 293
-0.0078549329 0.63999999 -0.05947306 1.3270238e-38 313 293
-0.0067327996 0.63999999 -0.05947306 1.2902175e-38 314 293
-0.0056106662 0.63999999 -0.05947306 1.2809978e-38 315 293
-0.0044885329 0.63999999 -0.05947306 1.3175183e-38 316 293
-0.0033663998 0.63999999 -0.05947306 1.3451772e-38 317 293
-0.0022442664 0.63999999 -0.05947306 1.3268478e-38 318 293
-0.0011238866 0.64099997 -0.059565991 1.3360673e-38 319 293
0 0.64099997 -0.059565991 1.2258289e-38 320 293
0.0011238866 0.64099997 -0.059565991 1.244268e-38 321 293
0.00225128 0.64200002 -0.059658919 1.2349768e-38 322 293
0.0033821799 0.64300001 -0.059751842 1.2257212e-38 323 293
0.0045095733 0.64300001 -0.059751842 1.2165738e-38 324 293
0.0056457333 0.64399999 -0.05984477 1.2165738e-38 325 293
0.0067748795 0.64399999 -0.05984477 1.2165738e-38 326 293
0.0079040267 0.64399999 -0.05984477 1.2165738e-38 327 293
0.0090331733 0.64399999 -0.05984477 1.207427e-38 328 293
0.01019388 0.64600003 -0.060030628 1.207427e-38 329 293
0.011326533 0.64600003 -0.060030628 1.2074267e-38 330 293
0.012478473 0.64700001 -0.060123552 1.2166822e-38 331 293
0.01363392 0.648 -0.060216483 1.1982793e-38 332 293
0.014792874 0.64899999 -0.060309403 1.2167184e-38 333 293
0.015930785 0.64899999 -0.060309403 1.2166834e-38 334 293
0.017095 0.64999998 -0.060402326 1.2166834e-38 335 293
0.018290773 0.65200001 -0.060588185 1.2166481e-38 336 293
0.019463753 0.653 -0.060681112 1.2166481e-38 337 293
0.020608678 0.653 -0.060681112 1.1891692e-38 338 293
0.021753605 0.653 -0.060681112 1.1891692e-38 339 293
0.022933599 0.65399998 -0.060774036 1.2166834e-38 340 293
0.024080278 0.65399998 -0.060774036 1.2074639e-38 341 293
0.025265532 0.65499997 -0.060866963 1.216755e-38 342 293
0.026413966 0.65499997 -0.060866963 1.2259746e-38 343 293
0.027730718 0.65899998 -0.061238669 1.2259751e-38 344 293
0.028973831 0.66100001 -0.061424527 1.2351949e-38 345 293
0.030132787 0.66100001 -0.061424527 1.2351598e-38 346 293
0.031291738 0.66100001 -0.061424527 1.2443794e-38 347 293
0.032548878 0.66299999 -0.061610378 1.1892068e-38 348 293
0.033711337 0.66299999 -0.061610378 1.1522926e-38 349 293
0.0349264 0.66399997 -0.061703302 1.0235099e-38 350 293
0.036090612 0.66399997 -0.061703302 9.9585125e-39 351 293
-0.059565991 0.64099997 -0.060689874 1.751534e-38 267 294
-0.058442101 0.64099997 -0.060689874 1.7604597e-38 268 294
-0.057228796 0.63999999 -0.060595192 1.6775196e-38 269 294
-0.056106664 0.63999999 -0.060595192 1.7141413e-38 270 294
-0.054812707 0.63800001 -0.060405839 1.7141413e-38 271 294
-0.053694081 0.63800001 -0.060405839 1.7600946e-38 272 294
-0.05257545 0.63800001 -0.060405839 1.7877533e-38 273 294
-0.051456824 0.63800001 -0.060405839 1.7693862e-38 274 294
-0.050338201 0.63800001 -0.060405839 1.7693862e-38 275 294
-0.049219571 0.63800001 -0.060405839 1.7694937e-38 276 294
-0.048025552 0.63700002 -0.060311161 1.7510906e-38 277 294
-0.04690868 0.63700002 -0.060311161 1.7234681e-38 278 294
-0.045791805 0.63700002 -0.060311161 1.7234681e-38 279 294
-0.044674933 0.63700002 -0.060311161 1.7324707e-38 280 294
-0.043489676 0.63599998 -0.060216475 1.6864088e-38 281 294
-0.042374559 0.63599998 -0.060216475 1.6679322e-38 282 294
-0.041194562 0.63499999 -0.060121801 1.6494929e-38 283 294
-0.040081199 0.63499999 -0.060121801 1.5759883e-38 284 294
-0.038967833 0.63499999 -0.060121801 1.5206709e-38 285 294
-0.037854467 0.63499999 -0.060121801 1.4929046e-38 286 294
-0.0367411 0.63499999 -0.060121801 1.483685e-38 287 294
-0.03562773 0.63499999 -0.060121801 1.4653185e-38 288 294
-0.034514364 0.63499999 -0.060121801 1.4376598e-38 289 294
-0.033400998 0.63499999 -0.060121801 1.3824516e-38 290 294
-0.032287631 0.63499999 -0.060121801 1.373232e-38 291 294
-0.031174263 0.63499999 -0.060121801 1.3456127e-38 292 294
-0.0300609 0.63499999 -0.060121801 1.3548324e-38 293 294
-0.028993119 0.63599998 -0.060216475 1.3179209e-38 294 294
-0.027877998 0.63599998 -0.060216475 1.3179209e-38 295 294
-0.026762879 0.63599998 -0.060216475 1.3087011e-38 296 294
-0.025647758 0.63599998 -0.060216475 1.3087011e-38 297 294
-0.024532638 0.63599998 -0.060216475 1.3179557e-38 298 294
-0.023417519 0.63599998 -0.060216475 1.3087361e-38 299 294
-0.022302398 0.63599998 -0.060216475 1.3179907e-38 300 294
-0.021187279 0.63599998 -0.060216475 1.3179907e-38 301 294
-0.020072158 0.63599998 -0.060216475 1.3272459e-38 302 294
-0.018957037 0.63599998 -0.060216475 1.3364656e-38 303 294
-0.017841918 0.63599998 -0.060216475 1.327211e-38 304 294
-0.016726799 0.63599998 -0.060216475 1.3364305e-38 305 294
-0.015611678 0.63599998 -0.060216475 1.3638352e-38 306 294
-0.014496559 0.63599998 -0.060216475 1.3546156e-38 307 294
-0.013381439 0.63599998 -0.060216475 1.3454294e-38 308 294
-0.012266319 0.63599998 -0.060216475 1.3454294e-38 309 294
-0.011151199 0.63599998 -0.060216475 1.3086953e-38 310 294
-0.01005186 0.63700002 -0.060311161 1.2994758e-38 311 294
-0.0089490134 0.63800001 -0.060405839 1.2808941e-38 312 294
-0.007830387 0.63800001 -0.060405839 1.2808941e-38 313 294
-0.0067117601 0.63800001 -0.060405839 1.2533093e-38 314 294
-0.0055931332 0.63800001 -0.060405839 1.2349062e-38 315 294
-0.0044885329 0.63999999 -0.060595192 1.2624575e-38 316 294
-0.0033663998 0.63999999 -0.060595192 1.2624575e-38 317 294
-0.0022442664 0.63999999 -0.060595192 1.2349783e-38 318 294
-0.0011221332 0.63999999 -0.060595192 1.2441979e-38 319 294
0 0.64099997 -0.060689874 1.2166822e-38 320 294
0.0011238866 0.64099997 -0.060689874 1.2166822e-38 321 294
0.00225128 0.64200002 -0.060784556 1.2165738e-38 322 294
0.00337692 0.64200002 -0.060784556 1.2165738e-38 323 294
0.0045095733 0.64300001 -0.060879238 1.1798758e-38 324 294
0.0056457333 0.64399999 -0.06097392 1.1706562e-38 325 294
0.0067748795 0.64399999 -0.06097392 1.1981718e-38 326 294
0.0079040267 0.64399999 -0.06097392 1.1981718e-38 327 294
0.0090612266 0.64600003 -0.061163284 1.1981718e-38 328 294
0.01019388 0.64600003 -0.061163284 1.2074273e-38 329 294
0.011344067 0.64700001 -0.061257958 1.2074267e-38 330 294
0.012478473 0.64700001 -0.061257958 1.2166822e-38 331 294
0.01363392 0.648 -0.06135264 1.2166822e-38 332 294
0.014792874 0.64899999 -0.061447315 1.2350853e-38 333 294
0.015955333 0.64999998 -0.061541997 1.1983519e-38 334 294
0.017147599 0.65200001 -0.061731357 1.1983519e-38 335 294
0.018318826 0.653 -0.061826039 1.1983169e-38 336 294
0.019463753 0.653 -0.061826039 1.1983169e-38 337 294
0.020640239 0.65399998 -0.061920714 1.1983169e-38 338 294
0.021786919 0.65399998 -0.061920714 1.1890973e-38 339 294
0.022933599 0.65399998 -0.061920714 1.1799494e-38 340 294
0.024080278 0.65399998 -0.061920714 1.1891689e-38 341 294
0.025226958 0.65399998 -0.061920714 1.1800575e-38 342 294
0.026413966 0.65499997 -0.062015396 1.1800575e-38 343 294
0.027562398 0.65499997 -0.062015396 1.1983537e-38 344 294
0.028886165 0.65899998 -0.062394116 1.1983537e-38 345 294
0.030132787 0.66100001 -0.062583476 1.1708042e-38 346 294
0.031291738 0.66100001 -0.062583476 1.1431815e-38 347 294
-0.062103063 0.64399999 -0.062103063 1.659302e-38 265 295
-0.060784556 0.64200002 -0.061910201 1.6683001e-38 266 295
-0.059658919 0.64200002 -0.061910201 1.6129827e-38 267 295
-0.058442101 0.64099997 -0.061813761 1.6680082e-38 268 295
-0.057318214 0.64099997 -0.061813761 1.6864833e-38 269 295
-0.056106664 0.63999999 -0.061717331 1.714141e-38 270 295
-0.054812707 0.63800001 -0.061524466 1.7233606e-38 271 295
-0.053609919 0.63700002 -0.061428033 1.750947e-38 272 295
-0.052493047 0.63700002 -0.061428033 1.7417274e-38 273 295
-0.051376175 0.63700002 -0.061428033 1.7601297e-38 274 295
-0.0502593 0.63700002 -0.061428033 1.7509101e-38 275 295
-0.049142428 0.63700002 -0.061428033 1.7510176e-38 276 295
-0.048025552 0.63700002 -0.061428033 1.723359e-38 277 295
-0.046835039 0.63599998 -0.061331596 1.7141042e-38 278 295
-0.045719914 0.63599998 -0.061331596 1.6772258e-38 279 295
-0.044604797 0.63599998 -0.061331596 1.640383e-38 280 295
-0.043489676 0.63599998 -0.061331596 1.5942851e-38 281 295
-0.042307932 0.63499999 -0.061235163 1.5574052e-38 282 295
-0.041194562 0.63499999 -0.061235163 1.5297107e-38 283 295
-0.040081199 0.63499999 -0.061235163 1.4653888e-38 284 295
-0.038906466 0.634 -0.06113873 1.4377301e-38 285 295
-0.037794851 0.634 -0.06113873 1.3825222e-38 286 295
-0.036683239 0.634 -0.06113873 1.3640831e-38 287 295
-0.035571627 0.634 -0.06113873 1.3731604e-38 288 295
-0.034460012 0.634 -0.06113873 1.3454658e-38 289 295
-0.0333484 0.634 -0.06113873 1.2995132e-38 290 295
-0.032236785 0.634 -0.06113873 1.3179163e-38 291 295
-0.031125173 0.634 -0.06113873 1.3269942e-38 292 295
-0.030013559 0.634 -0.06113873 1.3085551e-38 293 295
-0.028947532 0.63499999 -0.061235163 1.3085198e-38 294 295
-0.027877998 0.63599998 -0.061331596 1.2993001e-38 295 295
-0.026762879 0.63599998 -0.061331596 1.280933e-38 296 295
-0.025647758 0.63599998 -0.061331596 1.280933e-38 297 295
-0.024532638 0.63599998 -0.061331596 1.2809685e-38 298 295
-0.023417519 0.63599998 -0.061331596 1.2809685e-38 299 295
-0.022302398 0.63599998 -0.061331596 1.2535244e-38 300 295
-0.021153966 0.63499999 -0.061235163 1.262744e-38 301 295
-0.0200406 0.63499999 -0.061235163 1.2994782e-38 302 295
-0.018957037 0.63599998 -0.061331596 1.2902585e-38 303 295
-0.017841918 0.63599998 -0.061331596 1.3177379e-38 304 295
-0.016726799 0.63599998 -0.061331596 1.3084825e-38 305 295
-0.015611678 0.63599998 -0.061331596 1.262492e-38 306 295
-0.014496559 0.63599998 -0.061331596 1.2440527e-38 307 295
-0.013381439 0.63599998 -0.061331596 1.2256484e-38 308 295
-0.012266319 0.63599998 -0.061331596 1.2256484e-38 309 295
-0.011151199 0.63599998 -0.061331596 1.2257215e-38 310 295
-0.01005186 0.63700002 -0.061428033 1.2257215e-38 311 295
-0.0089490134 0.63800001 -0.061524466 1.253201e-38 312 295
-0.007830387 0.63800001 -0.061524466 1.2439455e-38 313 295
-0.0067117601 0.63800001 -0.061524466 1.2440881e-38 314 295
-0.0055931332 0.63800001 -0.061524466 1.2440881e-38 315 295
-0.0044885329 0.63999999 -0.061717331 1.2440881e-38 316 295
-0.0033663998 0.63999999 -0.061717331 1.2440881e-38 317 295
-0.0022442664 0.63999999 -0.061717331 1.2257212e-38 318 295
-0.0011221332 0.63999999 -0.061717331 1.2349768e-38 319 295
0 0.63999999 -0.061717331 1.2257933e-38 320 295
0.0011238866 0.64099997 -0.061813761 1.2257933e-38 321 295
0.0022477731 0.64099997 -0.061813761 1.2165736e-38 322 295
0.00337692 0.64200002 -0.061910201 1.2165736e-38 323 295
0.0045095733 0.64300001 -0.062006634 1.198207e-38 324 295
0.0056369668 0.64300001 -0.062006634 1.198207e-38 325 295
0.0067643598 0.64300001 -0.062006634 1.1982073e-38 326 295
0.0079040267 0.64399999 -0.062103063 1.207427e-38 327 295
0.0090612266 0.64600003 -0.062295936 1.2074273e-38 328 295
0.01019388 0.64600003 -0.062295936 1.2074273e-38 329 295
0.011344067 0.64700001 -0.062392361 1.2074989e-38 330 295
0.012478473 0.64700001 -0.062392361 1.2074989e-38 331 295
0.01363392 0.648 -0.062488798 1.2166466e-38 332 295
0.014792874 0.64899999 -0.062585227 1.2350497e-38 333 295
0.015955333 0.64999998 -0.062681668 1.2166831e-38 334 295
0.017147599 0.65200001 -0.062874533 1.2074636e-38 335 295
0.018318826 0.653 -0.062970966 1.1983166e-38 336 295
0.019463753 0.653 -0.062970966 1.189097e-38 337 295
0.020640239 0.65399998 -0.063067392 1.1981734e-38 338 295
0.021786919 0.65399998 -0.063067392 1.2074288e-38 339 295
0.022933599 0.65399998 -0.063067392 1.1615107e-38 340 295
0.024080278 0.65399998 -0.063067392 1.1799496e-38 341 295
0.025226958 0.65399998 -0.063067392 1.1983172e-38 342 295
0.026413966 0.65499997 -0.063163824 1.1983172e-38 343 295
0.027562398 0.65499997 -0.063163824 1.1890633e-38 344 295
0.028886165 0.65899998 -0.063549563 1.1798437e-38 345 295
0.030178372 0.662 -0.063838862 1.1246012e-38 346 295
-0.06456124 0.64600003 -0.063428588 1.6408266e-38 263 296
-0.063428588 0.64600003 -0.063428588 1.5948319e-38 264 296
-0.062103063 0.64399999 -0.063232213 1.530295e-38 265 296
-0.060784556 0.64200002 -0.063035838 1.5577684e-38 266 296
-0.059658919 0.64200002 -0.063035838 1.566988e-38 267 296
-0.058442101 0.64099997 -0.062937655 1.6313435e-38 268 296
-0.057318214 0.64099997 -0.062937655 1.6681858e-38 269 296
-0.056106664 0.63999999 -0.062839463 1.6682587e-38 270 296
-0.054726794 0.63700002 -0.062544905 1.6682587e-38 271 296
-0.053609919 0.63700002 -0.062544905 1.7141763e-38 272 296
-0.052493047 0.63700002 -0.062544905 1.7049568e-38 273 296
-0.051295515 0.63599998 -0.062446713 1.7141395e-38 274 296
-0.050180398 0.63599998 -0.062446713 1.6957003e-38 275 296
-0.049065277 0.63599998 -0.062446713 1.7048477e-38 276 296
-0.047950156 0.63599998 -0.062446713 1.6864085e-38 277 296
-0.046835039 0.63599998 -0.062446713 1.6587142e-38 278 296
-0.045648031 0.63499999 -0.062348526 1.6310914e-38 279 296
-0.044534665 0.63499999 -0.062348526 1.6033971e-38 280 296
-0.043421298 0.63499999 -0.062348526 1.5572993e-38 281 296
-0.042241305 0.634 -0.062250346 1.4653185e-38 282 296
-0.041129693 0.634 -0.062250346 1.4376598e-38 283 296
-0.040018078 0.634 -0.062250346 1.4192561e-38 284 296
-0.038906466 0.634 -0.062250346 1.3915973e-38 285 296
-0.037794851 0.634 -0.062250346 1.3456456e-38 286 296
-0.036683239 0.634 -0.062250346 1.3179869e-38 287 296
-0.035571627 0.634 -0.062250346 1.2810742e-38 288 296
-0.034460012 0.634 -0.062250346 1.2718188e-38 289 296
-0.0333484 0.634 -0.062250346 1.2810033e-38 290 296
-0.032236785 0.634 -0.062250346 1.2717837e-38 291 296
-0.031125173 0.634 -0.062250346 1.2624941e-38 292 296
-0.030013559 0.634 -0.062250346 1.2532745e-38 293 296
-0.028901944 0.634 -0.062250346 1.2256882e-38 294 296
-0.027790332 0.634 -0.062250346 1.2164686e-38 295 296
-0.0267208 0.63499999 -0.062348526 1.2164686e-38 296 296
-0.025607431 0.63499999 -0.062348526 1.2164686e-38 297 296
-0.024532638 0.63599998 -0.062446713 1.1982087e-38 298 296
-0.023417519 0.63599998 -0.062446713 1.1982087e-38 299 296
-0.022302398 0.63599998 -0.062446713 1.1891326e-38 300 296
-0.021153966 0.63499999 -0.062348526 1.1983522e-38 301 296
-0.0200406 0.63499999 -0.062348526 1.2350149e-38 302 296
-0.018927233 0.63499999 -0.062348526 1.2350149e-38 303 296
-0.017813865 0.63499999 -0.062348526 1.2348712e-38 304 296
-0.016700499 0.63499999 -0.062348526 1.2532743e-38 305 296
-0.015587131 0.63499999 -0.062348526 1.2348712e-38 306 296
-0.014496559 0.63599998 -0.062446713 1.2348712e-38 307 296
-0.013381439 0.63599998 -0.062446713 1.2256513e-38 308 296
-0.012266319 0.63599998 -0.062446713 1.2256513e-38 309 296
-0.011151199 0.63599998 -0.062446713 1.1981001e-38 310 296
-0.01005186 0.63700002 -0.062544905 1.1981001e-38 311 296
-0.0089490134 0.63800001 -0.062643096 1.1981354e-38 312 296
-0.007830387 0.63800001 -0.062643096 1.1981354e-38 313 296
-0.0067117601 0.63800001 -0.062643096 1.1981704e-38 314 296
-0.0056106662 0.63999999 -0.062839463 1.1981704e-38 315 296
-0.0044885329 0.63999999 -0.062839463 1.2165736e-38 316 296
-0.0033663998 0.63999999 -0.062839463 1.2165736e-38 317 296
-0.0022442664 0.63999999 -0.062839463 1.2165738e-38 318 296
-0.0011221332 0.63999999 -0.062839463 1.2165738e-38 319 296
0 0.63999999 -0.062839463 1.1982426e-38 320 296
0.0011221332 0.63999999 -0.062839463 1.1982426e-38 321 296
0.0022477731 0.64099997 -0.062937655 1.1982426e-38 322 296
0.00337692 0.64200002 -0.063035838 1.1982426e-38 323 296
0.00450256 0.64200002 -0.063035838 1.1983146e-38 324 296
0.0056369668 0.64300001 -0.063134022 1.1983146e-38 325 296
0.0067643598 0.64300001 -0.063134022 1.207427e-38 326 296
0.0079040267 0.64399999 -0.063232213 1.207427e-38 327 296
0.0090612266 0.64600003 -0.063428588 1.207427e-38 328 296
0.01019388 0.64600003 -0.063428588 1.207427e-38 329 296
0.011344067 0.64700001 -0.063526772 1.2074986e-38 330 296
0.012478473 0.64700001 -0.063526772 1.2074986e-38 331 296
0.01363392 0.648 -0.063624963 1.23505e-38 332 296
0.014815666 0.64999998 -0.063821331 1.2166468e-38 333 296
0.015955333 0.64999998 -0.063821331 1.1891326e-38 334 296
0.017147599 0.65200001 -0.064017706 1.1891326e-38 335 296
0.018318826 0.653 -0.064115889 1.1890973e-38 336 296
0.019463753 0.653 -0.064115889 1.1798778e-38 337 296
0.020640239 0.65399998 -0.064214081 1.1798422e-38 338 296
0.021786919 0.65399998 -0.064214081 1.1798422e-38 339 296
0.022933599 0.65399998 -0.064214081 1.1615112e-38 340 296
0.024080278 0.65399998 -0.064214081 1.1615112e-38 341 296
0.025265532 0.65499997 -0.064312264 1.1614406e-38 342 296
0.026413966 0.65499997 -0.064312264 1.152221e-38 343 296
0.027646558 0.65700001 -0.064508639 1.0968702e-38 344 296
0.028798498 0.65700001 -0.064508639 1.0876506e-38 345 296
-0.065895528 0.63700002 -0.063661784 1.5487396e-38 261 297
-0.064676955 0.63599998 -0.063561834 1.4840507e-38 262 297
-0.063561834 0.63599998 -0.063561834 1.3918551e-38 263 297
-0.063232213 0.64399999 -0.064361356 1.4013583e-38 264 297
-0.062006634 0.64300001 -0.064261422 1.4474561e-38 265 297
-0.060689874 0.64099997 -0.064061537 1.5209974e-38 266 297
-0.059565991 0.64099997 -0.064061537 1.5394366e-38 267 297
-0.05816859 0.63800001 -0.063761719 1.6221252e-38 268 297
-0.05704996 0.63800001 -0.063761719 1.6405643e-38 269 297
-0.056106664 0.63999999 -0.063961595 1.6498196e-38 270 297
-0.054726794 0.63700002 -0.063661784 1.6498196e-38 271 297
-0.053609919 0.63700002 -0.063661784 1.6774054e-38 272 297
-0.052493047 0.63700002 -0.063661784 1.6589661e-38 273 297
-0.051295515 0.63599998 -0.063561834 1.6864804e-38 274 297
-0.050180398 0.63599998 -0.063561834 1.6496381e-38 275 297
-0.049065277 0.63599998 -0.063561834 1.6311984e-38 276 297
-0.047950156 0.63599998 -0.063561834 1.6127592e-38 277 297
-0.046761397 0.63499999 -0.0634619 1.6033953e-38 278 297
-0.045576144 0.634 -0.063361958 1.584956e-38 279 297
-0.044464532 0.634 -0.063361958 1.5205637e-38 280 297
-0.043352917 0.634 -0.063361958 1.4836853e-38 281 297
-0.042241305 0.634 -0.063361958 1.4007815e-38 282 297
-0.041129693 0.634 -0.063361958 1.3823424e-38 283 297
-0.040018078 0.634 -0.063361958 1.3547557e-38 284 297
-0.038783733 0.63200003 -0.063162081 1.3363165e-38 285 297
-0.037675627 0.63200003 -0.063162081 1.3086247e-38 286 297
-0.03656752 0.63200003 -0.063162081 1.2717825e-38 287 297
-0.035571627 0.634 -0.063361958 1.2257585e-38 288 297
-0.034460012 0.634 -0.063361958 1.2165389e-38 289 297
-0.0333484 0.634 -0.063361958 1.2165034e-38 290 297
-0.032236785 0.634 -0.063361958 1.1981001e-38 291 297
-0.031026987 0.63200003 -0.063162081 1.2071764e-38 292 297
-0.029918881 0.63200003 -0.063162081 1.2071764e-38 293 297
-0.028901944 0.634 -0.063361958 1.1979572e-38 294 297
-0.027790332 0.634 -0.063361958 1.1887376e-38 295 297
-0.026678719 0.634 -0.063361958 1.1703342e-38 296 297
-0.025567105 0.634 -0.063361958 1.1887373e-38 297 297
-0.024455493 0.634 -0.063361958 1.1704777e-38 298 297
-0.023380699 0.63499999 -0.0634619 1.1796973e-38 299 297
-0.022267332 0.63499999 -0.0634619 1.1889171e-38 300 297
-0.021153966 0.63499999 -0.0634619 1.1981368e-38 301 297
-0.0200406 0.63499999 -0.0634619 1.1981004e-38 302 297
-0.018927233 0.63499999 -0.0634619 1.2165036e-38 303 297
-0.017813865 0.63499999 -0.0634619 1.225543e-38 304 297
-0.016700499 0.63499999 -0.0634619 1.2347625e-38 305 297
-0.015587131 0.63499999 -0.0634619 1.2164669e-38 306 297
-0.014496559 0.63599998 -0.063561834 1.2164669e-38 307 297
-0.013381439 0.63599998 -0.063561834 1.2348335e-38 308 297
-0.012266319 0.63599998 -0.063561834 1.2348335e-38 309 297
-0.011151199 0.63599998 -0.063561834 1.1889153e-38 310 297
-0.01005186 0.63700002 -0.063661784 1.1981707e-38 311 297
-0.0089349868 0.63700002 -0.063661784 1.1889156e-38 312 297
-0.007830387 0.63800001 -0.063761719 1.1889156e-38 313 297
-0.0067117601 0.63800001 -0.063761719 1.1889156e-38 314 297
-0.0056106662 0.63999999 -0.063961595 1.1889156e-38 315 297
-0.0044885329 0.63999999 -0.063961595 1.1889875e-38 316 297
-0.0033663998 0.63999999 -0.063961595 1.1889875e-38 317 297
-0.0022442664 0.63999999 -0.063961595 1.1889877e-38 318 297
-0.0011221332 0.63999999 -0.063961595 1.1889877e-38 319 297
0 0.63999999 -0.063961595 1.1982073e-38 320 297
0.0011221332 0.63999999 -0.063961595 1.1982073e-38 321 297
0.0022477731 0.64099997 -0.064061537 1.1982073e-38 322 297
0.00337692 0.64200002 -0.064161479 1.1982073e-38 323 297
0.00450256 0.64200002 -0.064161479 1.1798755e-38 324 297
0.0056457333 0.64399999 -0.064361356 1.1798755e-38 325 297
0.0067748795 0.64399999 -0.064361356 1.1798758e-38 326 297
0.0079040267 0.64399999 -0.064361356 1.198279e-38 327 297
0.0090612266 0.64600003 -0.06456124 1.207427e-38 328 297
0.01019388 0.64600003 -0.06456124 1.207427e-38 329 297
0.011344067 0.64700001 -0.064661182 1.1891677e-38 330 297
0.01249776 0.648 -0.064761117 1.1891677e-38 331 297
0.013654959 0.64899999 -0.064861059 1.2166468e-38 332 297
0.014815666 0.64999998 -0.064960994 1.2166468e-38 333 297
0.016004426 0.65200001 -0.065160878 1.189097e-38 334 297
0.017147599 0.65200001 -0.065160878 1.1798775e-38 335 297
0.018318826 0.653 -0.06526082 1.1706226e-38 336 297
0.019493559 0.65399998 -0.065360755 1.1614029e-38 337 297
0.020640239 0.65399998 -0.065360755 1.1430364e-38 338 297
0.021786919 0.65399998 -0.065360755 1.1430364e-38 339 297
0.022933599 0.65399998 -0.065360755 1.1247416e-38 340 297
0.024080278 0.65399998 -0.065360755 1.1247416e-38 341 297
0.025226958 0.65399998 -0.065360755 1.1062322e-38 342 297
0.026413966 0.65499997 -0.065460697 1.0601346e-38 343 297
-0.068664044 0.64200002 -0.065287121 1.5210468e-38 259 298
-0.067012399 0.63700002 -0.064778656 1.4013656e-38 260 298
-0.065895528 0.63700002 -0.064778656 1.3183895e-38 261 298
-0.064676955 0.63599998 -0.064676955 1.3368582e-38 262 298
-0.063561834 0.63599998 -0.064676955 1.3460778e-38 263 298
-0.063035838 0.64200002 -0.065287121 1.383099e-38 264 298
-0.061910201 0.64200002 -0.065287121 1.4199413e-38 265 298
-0.060595192 0.63999999 -0.065083727 1.4934826e-38 266 298
-0.059287209 0.63800001 -0.064880349 1.5119577e-38 267 298
-0.058077414 0.63700002 -0.064778656 1.5946094e-38 268 298
-0.056960538 0.63700002 -0.064778656 1.603829e-38 269 298
-0.055931333 0.63800001 -0.064880349 1.6406349e-38 270 298
