# .PCD v.7 - Point Cloud Data file format
FIELDS x y z rgb imX imY
SIZE 4 4 4 4 4 4
TYPE F F F F F F
COUNT 1 1 1 1 1 1
WIDTH 840
HEIGHT 1
VIEWPOINT 0 0 0 1 0 0 0
POINTS 840
DATA ascii
0.042101037 0.667 -0.091218919 1.8061221e-38 356 318
0.04327051 0.667 -0.091218919 1.787683e-38 357 318
0.044506609 0.66799998 -0.091355674 1.7783192e-38 358 318
0.045609459 0.667 -0.091218919 1.7690997e-38 359 318
0.046778932 0.667 -0.091218919 1.7322934e-38 360 318
0.047948405 0.667 -0.091218919 1.7138542e-38 361 318
0.049117878 0.667 -0.091218919 1.6953429e-38 362 318
0.050287351 0.667 -0.091218919 1.6769037e-38 363 318
0.051379681 0.66600001 -0.091082163 1.6491727e-38 364 318
0.052547399 0.66600001 -0.091082163 1.6122945e-38 365 318
0.053715117 0.66600001 -0.091082163 1.5755254e-38 366 318
0.054882839 0.66600001 -0.091082163 1.649282e-38 367 318
0.056134716 0.667 -0.091218919 1.6769776e-38 368 318
0.057304189 0.667 -0.091218919 1.7230754e-38 369 318
0.058473662 0.667 -0.091218919 1.7232902e-38 370 318
0.059643134 0.667 -0.091218919 1.7325458e-38 371 318
0.060812607 0.667 -0.091218919 1.7692796e-38 372 318
0.06198208 0.667 -0.091218919 1.7692796e-38 373 318
0.063246235 0.66799998 -0.091355674 1.7692799e-38 374 318
0.064417459 0.66799998 -0.091355674 1.7600243e-38 375 318
0.065588683 0.66799998 -0.091355674 1.741622e-38 376 318
0.066759922 0.66799998 -0.091355674 1.741622e-38 377 318
0.067931145 0.66799998 -0.091355674 1.7232202e-38 378 318
0.069102369 0.66799998 -0.091355674 1.704781e-38 379 318
0.070273593 0.66799998 -0.091355674 1.6863779e-38 380 318
0.07208655 0.67400002 -0.092176244 1.6586832e-38 381 318
0.073376998 0.67500001 -0.092312999 1.621876e-38 382 318
0.074560501 0.67500001 -0.092312999 1.6126565e-38 383 318
0.075856209 0.676 -0.092449754 1.5759218e-38 384 318
0.077041462 0.676 -0.092449754 1.5667021e-38 385 318
0.078110993 0.67500001 -0.092312999 1.5116368e-38 386 318
0.079294503 0.67500001 -0.092312999 1.4840142e-38 387 318
0.080477998 0.67500001 -0.092312999 1.3734516e-38 388 318
0.083335936 0.67900002 -0.092860043 1.2446658e-38 390 318
0.08440195 0.67799997 -0.092723273 1.1156278e-38 391 318
0.085590713 0.67799997 -0.092723273 7.5743994e-39 392 318
0.086779475 0.67799997 -0.092723273 1.1999431e-38 393 318
-0.073369987 0.68599999 -0.095020145 1.4007154e-38 259 319
-0.071851604 0.68300003 -0.094604604 1.4745072e-38 260 319
-0.070654072 0.68300003 -0.094604604 1.520605e-38 261 319
-0.069354847 0.68199998 -0.09446609 1.5300764e-38 262 319
-0.067959204 0.68000001 -0.094189063 1.5669545e-38 263 319
-0.066766933 0.68000001 -0.094189063 1.5943968e-38 264 319
-0.065478235 0.67900002 -0.094050556 1.6220195e-38 265 319
-0.06419304 0.67799997 -0.093912028 1.6404223e-38 266 319
-0.062818423 0.676 -0.093635008 1.6404223e-38 267 319
-0.061633173 0.676 -0.093635008 1.695595e-38 268 319
-0.06044792 0.676 -0.093635008 1.695595e-38 269 319
-0.059175 0.67500001 -0.093496501 1.714106e-38 270 319
-0.057991501 0.67500001 -0.093496501 1.7233255e-38 271 319
-0.056723841 0.67400002 -0.093357988 1.7692796e-38 272 319
-0.055377278 0.67199999 -0.093080953 1.7876827e-38 273 319
-0.054118387 0.671 -0.092942439 1.7969378e-38 274 319
-0.052941896 0.671 -0.092942439 1.8061574e-38 275 319
-0.051765412 0.671 -0.092942439 1.8154491e-38 276 319
-0.050588924 0.671 -0.092942439 1.8246688e-38 277 319
-0.049338799 0.67000002 -0.092803933 1.8338528e-38 278 319
-0.048164066 0.67000002 -0.092803933 1.8431083e-38 279 319
-0.046989333 0.67000002 -0.092803933 1.8707309e-38 280 319
-0.045677837 0.66799998 -0.092526905 1.8707309e-38 281 319
-0.044506609 0.66799998 -0.092526905 1.8798786e-38 282 319
-0.04327051 0.667 -0.092388391 1.8983179e-38 283 319
-0.042101037 0.667 -0.092388391 1.8892058e-38 284 319
-0.040992931 0.66799998 -0.092526905 1.8984253e-38 285 319
-0.039821707 0.66799998 -0.092526905 1.8800941e-38 286 319
-0.038650475 0.66799998 -0.092526905 1.8800941e-38 287 319
-0.037423145 0.667 -0.092388391 1.89839e-38 288 319
-0.036253672 0.667 -0.092388391 1.9076096e-38 289 319
-0.035031598 0.66600001 -0.092249878 1.9076449e-38 290 319
-0.03386388 0.66600001 -0.092249878 1.9168645e-38 291 319
-0.032696161 0.66600001 -0.092249878 1.9168645e-38 292 319
-0.031528439 0.66600001 -0.092249878 1.9168645e-38 293 319
-0.030360719 0.66600001 -0.092249878 1.9168648e-38 294 319
-0.02910533 0.66399997 -0.091972843 1.9168648e-38 295 319
-0.027941117 0.66399997 -0.091972843 1.9168645e-38 296 319
-0.026776904 0.66399997 -0.091972843 1.9168645e-38 297 319
-0.02568984 0.66600001 -0.092249878 1.9076802e-38 298 319
-0.02452212 0.66600001 -0.092249878 1.9076802e-38 299 319
-0.023284266 0.66399997 -0.091972843 1.9260112e-38 300 319
-0.022120051 0.66399997 -0.091972843 1.9260112e-38 301 319
-0.020955838 0.66399997 -0.091972843 1.9077155e-38 302 319
-0.019791625 0.66399997 -0.091972843 1.8984601e-38 303 319
-0.018683519 0.66600001 -0.092249878 1.8983885e-38 304 319
-0.017515799 0.66600001 -0.092249878 1.8891688e-38 305 319
-0.016348081 0.66600001 -0.092249878 1.861654e-38 306 319
-0.01518036 0.66600001 -0.092249878 1.8432149e-38 307 319
-0.014012639 0.66600001 -0.092249878 1.8431786e-38 308 319
-0.01284492 0.66600001 -0.092249878 1.8431786e-38 309 319
-0.011677199 0.66600001 -0.092249878 1.8523628e-38 310 319
-0.01050948 0.66600001 -0.092249878 1.8523628e-38 311 319
-0.0093417596 0.66600001 -0.092249878 1.8523275e-38 312 319
-0.0081740404 0.66600001 -0.092249878 1.8523275e-38 313 319
-0.0070063197 0.66600001 -0.092249878 1.8523275e-38 314 319
-0.0058385995 0.66600001 -0.092249878 1.843108e-38 315 319
-0.0046498398 0.66299999 -0.091834337 1.843108e-38 316 319
-0.0034873798 0.66299999 -0.091834337 1.8523275e-38 317 319
-0.0023249199 0.66299999 -0.091834337 1.8523278e-38 318 319
-0.00116246 0.66299999 -0.091834337 1.8523278e-38 319 319
0 0.662 -0.091695823 1.8523644e-38 320 319
0.0011607066 0.662 -0.091695823 1.8431448e-38 321 319
0.0023214133 0.662 -0.091695823 1.8431092e-38 322 319
0.0034873798 0.66299999 -0.091834337 1.8431092e-38 323 319
0.0046498398 0.66299999 -0.091834337 1.8431095e-38 324 319
0.02433802 0.66100001 -0.091557316 1.8522938e-38 341 319
0.025496973 0.66100001 -0.091557316 1.8706603e-38 342 319
0.026696252 0.662 -0.091695823 1.8706603e-38 343 319
0.029061496 0.66299999 -0.091834337 1.8430729e-38 345 319
0.030178372 0.662 -0.091695823 1.8522922e-38 346 319
0.031339079 0.662 -0.091695823 1.8430727e-38 347 319
0.032499783 0.662 -0.091695823 1.8338531e-38 348 319
0.033711337 0.66299999 -0.091834337 1.8338531e-38 349 319
0.034873798 0.66299999 -0.091834337 1.8338531e-38 350 319
0.036036257 0.66299999 -0.091834337 1.8338531e-38 351 319
0.037198719 0.66299999 -0.091834337 1.8337815e-38 352 319
0.038419038 0.66399997 -0.091972843 1.8337815e-38 353 319
0.039583251 0.66399997 -0.091972843 1.8061943e-38 354 319
0.040870197 0.66600001 -0.092249878 1.7877553e-38 355 319
0.042101037 0.667 -0.092388391 1.7415483e-38 356 319
0.04327051 0.667 -0.092388391 1.6677918e-38 357 319
0.044439986 0.667 -0.092388391 1.6398437e-38 358 319
0.045609459 0.667 -0.092388391 1.5937459e-38 359 319
0.046778932 0.667 -0.092388391 1.5751979e-38 360 319
0.047876518 0.66600001 -0.092249878 1.5659425e-38 361 319
0.04904424 0.66600001 -0.092249878 1.5016575e-38 362 319
0.050211959 0.66600001 -0.092249878 1.5016575e-38 363 319
0.051225383 0.66399997 -0.091972843 1.428226e-38 364 319
0.052389596 0.66399997 -0.091972843 1.4558488e-38 365 319
0.053553808 0.66399997 -0.091972843 1.5754888e-38 366 319
0.054882839 0.66600001 -0.092249878 1.6492453e-38 367 319
0.056050558 0.66600001 -0.092249878 1.6771201e-38 368 319
0.057218276 0.66600001 -0.092249878 1.7047789e-38 369 319
0.058385998 0.66600001 -0.092249878 1.7416205e-38 370 319
0.059553716 0.66600001 -0.092249878 1.7600596e-38 371 319
0.060721438 0.66600001 -0.092249878 1.7692793e-38 372 319
0.06198208 0.667 -0.092388391 1.7876824e-38 373 319
0.063151561 0.667 -0.092388391 1.7693512e-38 374 319
0.064321034 0.667 -0.092388391 1.7601316e-38 375 319
0.065490507 0.667 -0.092388391 1.7416568e-38 376 319
0.06665998 0.667 -0.092388391 1.7232537e-38 377 319
0.067931145 0.66799998 -0.092526905 1.7048508e-38 378 319
0.069102369 0.66799998 -0.092526905 1.6864477e-38 379 319
0.070273593 0.66799998 -0.092526905 1.6770848e-38 380 319
0.071658738 0.67000002 -0.092803933 1.6770848e-38 381 319
0.073050871 0.67199999 -0.093080953 1.6403142e-38 382 319
0.074450038 0.67400002 -0.093357988 1.6126915e-38 383 319
0.075743996 0.67500001 -0.093496501 1.5852123e-38 384 319
0.076927498 0.67500001 -0.093496501 1.5759927e-38 385 319
0.078110993 0.67500001 -0.093496501 1.5209268e-38 386 319
0.079177029 0.67400002 -0.093357988 1.474865e-38 387 319
0.080358773 0.67400002 -0.093357988 1.3828854e-38 388 319
0.082024433 0.67799997 -0.093912028 1.327568e-38 389 319
0.083213195 0.67799997 -0.093912028 1.2631763e-38 390 319
0.08440195 0.67799997 -0.093912028 1.2078589e-38 391 319
0.085590713 0.67799997 -0.093912028 1.0421664e-38 392 319
0.086779475 0.67799997 -0.093912028 1.0144718e-38 393 319
0.08796823 0.67799997 -0.093912028 1.0527957e-38 394 319
-0.071851604 0.68300003 -0.095802136 1.3732733e-38 260 320
-0.070550621 0.68199998 -0.095661856 1.4101517e-38 261 320
-0.069151461 0.68000001 -0.095381334 1.4563918e-38 262 320
-0.067859262 0.67900002 -0.095241062 1.4840505e-38 263 320
-0.066668749 0.67900002 -0.095241062 1.5393313e-38 264 320
-0.065381795 0.67799997 -0.09510079 1.5669539e-38 265 320
-0.064003684 0.676 -0.094820268 1.5761375e-38 266 320
-0.062818423 0.676 -0.094820268 1.5853571e-38 267 320
-0.061633173 0.676 -0.094820268 1.6128725e-38 268 320
-0.060358498 0.67500001 -0.094679996 1.6220922e-38 269 320
-0.059175 0.67500001 -0.094679996 1.6497152e-38 270 320
-0.057905588 0.67400002 -0.094539732 1.6589706e-38 271 320
-0.056555521 0.67199999 -0.094259195 1.6774095e-38 272 320
-0.055377278 0.67199999 -0.094259195 1.6774095e-38 273 320
-0.054118387 0.671 -0.09411893 1.704996e-38 274 320
-0.052941896 0.671 -0.09411893 1.7234351e-38 275 320
-0.051688269 0.67000002 -0.093978666 1.7326906e-38 276 320
-0.050513536 0.67000002 -0.093978666 1.7510937e-38 277 320
-0.04919152 0.66799998 -0.093698129 1.7695332e-38 278 320
-0.048020288 0.66799998 -0.093698129 1.7879723e-38 279 320
-0.046849065 0.66799998 -0.093698129 1.8155234e-38 280 320
-0.045677837 0.66799998 -0.093698129 1.8155234e-38 281 320
-0.044439986 0.667 -0.093557864 1.8431098e-38 282 320
-0.04327051 0.667 -0.093557864 1.8523294e-38 283 320
-0.042101037 0.667 -0.093557864 1.8432176e-38 284 320
-0.040931564 0.667 -0.093557864 1.8432176e-38 285 320
-0.039762091 0.667 -0.093557864 1.8340702e-38 286 320
-0.03853476 0.66600001 -0.093417592 1.8432897e-38 287 320
-0.037367038 0.66600001 -0.093417592 1.8707686e-38 288 320
-0.03619932 0.66600001 -0.093417592 1.8707686e-38 289 320
-0.0349264 0.66399997 -0.093137063 1.8800235e-38 290 320
-0.033762183 0.66399997 -0.093137063 1.8984266e-38 291 320
-0.03259797 0.66399997 -0.093137063 1.8984266e-38 292 320
-0.031433757 0.66399997 -0.093137063 1.8984266e-38 293 320
-0.030269546 0.66399997 -0.093137063 1.9076462e-38 294 320
-0.029061496 0.66299999 -0.092996798 1.9076462e-38 295 320
-0.027899038 0.66299999 -0.092996798 1.9077171e-38 296 320
-0.026736578 0.66299999 -0.092996798 1.9077171e-38 297 320
-0.025574118 0.66299999 -0.092996798 1.9076802e-38 298 320
-0.024411658 0.66299999 -0.092996798 1.9168998e-38 299 320
-0.0232492 0.66299999 -0.092996798 1.9260465e-38 300 320
-0.02208674 0.66299999 -0.092996798 1.935266e-38 301 320
-0.020924279 0.66299999 -0.092996798 1.9260821e-38 302 320
-0.019761819 0.66299999 -0.092996798 1.9260821e-38 303 320
-0.018627413 0.66399997 -0.093137063 1.8984591e-38 304 320
-0.0174632 0.66399997 -0.093137063 1.8892035e-38 305 320
-0.016298985 0.66399997 -0.093137063 1.9075701e-38 306 320
-0.015134773 0.66399997 -0.093137063 1.8983505e-38 307 320
-0.013970559 0.66399997 -0.093137063 1.8891307e-38 308 320
-0.012806346 0.66399997 -0.093137063 1.8707276e-38 309 320
-0.011642133 0.66399997 -0.093137063 1.8891312e-38 310 320
-0.010477919 0.66399997 -0.093137063 1.8983508e-38 311 320
-0.0093137063 0.66399997 -0.093137063 1.8982802e-38 312 320
-0.0081494926 0.66399997 -0.093137063 1.8982802e-38 313 320
-0.0069852793 0.66399997 -0.093137063 1.8982805e-38 314 320
-0.0058035329 0.662 -0.092856526 1.8982805e-38 315 320
-0.0046428265 0.662 -0.092856526 1.870766e-38 316 320
-0.0034821199 0.662 -0.092856526 1.8799855e-38 317 320
-0.0023214133 0.662 -0.092856526 1.8799858e-38 318 320
-0.0011607066 0.662 -0.092856526 1.8799858e-38 319 320
0 0.662 -0.092856526 1.8799861e-38 320 320
0.0011607066 0.662 -0.092856526 1.8799861e-38 321 320
0.0023214133 0.662 -0.092856526 1.8798789e-38 322 320
0.00347686 0.66100001 -0.092716269 1.8798789e-38 323 320
0.0046358132 0.66100001 -0.092716269 1.8706956e-38 324 320
0.0057947668 0.66100001 -0.092716269 1.8706956e-38 325 320
0.00695372 0.66100001 -0.092716269 1.8523641e-38 326 320
0.0081249457 0.662 -0.092856526 1.8523641e-38 327 320
0.009285653 0.662 -0.092856526 1.8523647e-38 328 320
0.01044636 0.662 -0.092856526 1.8523647e-38 329 320
0.011607066 0.662 -0.092856526 1.8706606e-38 330 320
0.01267134 0.65700001 -0.092155196 1.8798803e-38 331 320
0.013823279 0.65700001 -0.092155196 1.8522938e-38 332 320
0.01497522 0.65700001 -0.092155196 1.8615493e-38 333 320
0.016225345 0.66100001 -0.092716269 1.8615844e-38 334 320
0.0173843 0.66100001 -0.092716269 1.8431092e-38 335 320
0.018543253 0.66100001 -0.092716269 1.8706959e-38 336 320
0.019702207 0.66100001 -0.092716269 1.8706959e-38 337 320
0.02086116 0.66100001 -0.092716269 1.8615488e-38 338 320
0.022053426 0.662 -0.092856526 1.8523291e-38 339 320
0.023214132 0.662 -0.092856526 1.8523644e-38 340 320
0.02433802 0.66100001 -0.092716269 1.8431448e-38 341 320
0.025496973 0.66100001 -0.092716269 1.8523997e-38 342 320
0.026655925 0.66100001 -0.092716269 1.8431801e-38 343 320
0.027856959 0.662 -0.092856526 1.843108e-38 344 320
0.029061496 0.66299999 -0.092996798 1.8523275e-38 345 320
0.030178372 0.662 -0.092856526 1.8430727e-38 346 320
0.031339079 0.662 -0.092856526 1.8430727e-38 347 320
0.032499783 0.662 -0.092856526 1.8430727e-38 348 320
0.033660494 0.662 -0.092856526 1.8430727e-38 349 320
0.034873798 0.66299999 -0.092996798 1.8338534e-38 350 320
0.036036257 0.66299999 -0.092996798 1.8246338e-38 351 320
0.037198719 0.66299999 -0.092996798 1.8245266e-38 352 320
0.038361177 0.66299999 -0.092996798 1.8153069e-38 353 320
0.039583251 0.66399997 -0.093137063 1.7877205e-38 354 320
0.040870197 0.66600001 -0.093417592 1.760026e-38 355 320
0.042037919 0.66600001 -0.093417592 1.6862681e-38 356 320
0.04327051 0.667 -0.093557864 1.5664139e-38 357 320
0.044439986 0.667 -0.093557864 1.5569773e-38 358 320
0.045541082 0.66600001 -0.093417592 1.5293184e-38 359 320
0.046708796 0.66600001 -0.093417592 1.5292109e-38 360 320
0.047732744 0.66399997 -0.093137063 1.5199914e-38 361 320
0.048896957 0.66399997 -0.093137063 1.5750582e-38 362 320
0.05006117 0.66399997 -0.093137063 1.5474355e-38 363 320
0.051225383 0.66399997 -0.093137063 1.418975e-38 364 320
0.052389596 0.66399997 -0.093137063 1.4927315e-38 365 320
0.053553808 0.66399997 -0.093137063 1.5849267e-38 366 320
0.054882839 0.66600001 -0.093417592 1.6679029e-38 367 320
0.055882234 0.66399997 -0.093137063 1.723146e-38 368 320
0.057046451 0.66399997 -0.093137063 1.7323656e-38 369 320
0.058385998 0.66600001 -0.093417592 1.7416924e-38 370 320
0.059553716 0.66600001 -0.093417592 1.7601316e-38 371 320
0.060721438 0.66600001 -0.093417592 1.7692799e-38 372 320
0.061889157 0.66600001 -0.093417592 1.787683e-38 373 320
0.063056879 0.66600001 -0.093417592 1.7417651e-38 374 320
0.064321034 0.667 -0.093557864 1.7325454e-38 375 320
0.065490507 0.667 -0.093557864 1.714106e-38 376 320
0.06665998 0.667 -0.093557864 1.7048864e-38 377 320
0.067829452 0.667 -0.093557864 1.6864477e-38 378 320
0.068998925 0.667 -0.093557864 1.6680086e-38 379 320
0.070168398 0.667 -0.093557864 1.6770851e-38 380 320
0.071444817 0.66799998 -0.093698129 1.6494624e-38 381 320
0.072833464 0.67000002 -0.093978666 1.6126562e-38 382 320
0.074229114 0.67199999 -0.094259195 1.6034366e-38 383 320
0.07563179 0.67400002 -0.094539732 1.5483706e-38 384 320
0.076927498 0.67500001 -0.094679996 1.5391511e-38 385 320
0.078110993 0.67500001 -0.094679996 1.474794e-38 386 320
0.079177029 0.67400002 -0.094539732 1.4655745e-38 387 320
0.080358773 0.67400002 -0.094539732 1.3920334e-38 388 320
0.081782483 0.676 -0.094820268 1.3643387e-38 389 320
0.083213195 0.67799997 -0.09510079 1.2999466e-38 390 320
0.08440195 0.67799997 -0.09510079 1.2722878e-38 391 320
0.085590713 0.67799997 -0.09510079 1.2171166e-38 392 320
0.086779475 0.67799997 -0.09510079 9.3134612e-39 393 320
0.08796823 0.67799997 -0.09510079 5.5554492e-39 394 320
0.089156993 0.67799997 -0.09510079 1.1455969e-38 395 320
-0.070550621 0.68199998 -0.09685763 1.3455419e-38 261 321
-0.069151461 0.68000001 -0.096573599 1.3459375e-38 262 321
-0.067859262 0.67900002 -0.096431576 1.3919993e-38 263 321
-0.066668749 0.67900002 -0.096431576 1.4840142e-38 264 321
-0.065381795 0.67799997 -0.096289553 1.5300761e-38 265 321
-0.064003684 0.676 -0.096005514 1.5758851e-38 266 321
-0.062818423 0.676 -0.096005514 1.6127634e-38 267 321
-0.061633173 0.676 -0.096005514 1.6036514e-38 268 321
-0.060358498 0.67500001 -0.095863499 1.6220545e-38 269 321
-0.059087332 0.67400002 -0.095721483 1.6405297e-38 270 321
-0.057905588 0.67400002 -0.095721483 1.6405297e-38 271 321
-0.056471359 0.671 -0.095295422 1.6680802e-38 272 321
-0.055294871 0.671 -0.095295422 1.6773356e-38 273 321
-0.054037735 0.67000002 -0.095153399 1.7048864e-38 274 321
-0.052863002 0.67000002 -0.095153399 1.714106e-38 275 321
-0.051688269 0.67000002 -0.095153399 1.7232902e-38 276 321
-0.050513536 0.67000002 -0.095153399 1.7509849e-38 277 321
-0.049117878 0.667 -0.094727337 1.778536e-38 278 321
-0.047948405 0.667 -0.094727337 1.7877556e-38 279 321
-0.046778932 0.667 -0.094727337 1.8060871e-38 280 321
-0.045609459 0.667 -0.094727337 1.8245263e-38 281 321
-0.044439986 0.667 -0.094727337 1.8153789e-38 282 321
-0.043205637 0.66600001 -0.094585314 1.8245985e-38 283 321
-0.042037919 0.66600001 -0.094585314 1.8338534e-38 284 321
-0.040870197 0.66600001 -0.094585314 1.8338534e-38 285 321
-0.039702479 0.66600001 -0.094585314 1.8338528e-38 286 321
-0.03853476 0.66600001 -0.094585314 1.8431083e-38 287 321
-0.037367038 0.66600001 -0.094585314 1.8522922e-38 288 321
-0.036090612 0.66399997 -0.094301268 1.8707312e-38 289 321
-0.0349264 0.66399997 -0.094301268 1.8891705e-38 290 321
-0.033762183 0.66399997 -0.094301268 1.8891705e-38 291 321
-0.03259797 0.66399997 -0.094301268 1.89839e-38 292 321
-0.031386416 0.66299999 -0.094159253 1.89839e-38 293 321
-0.030223956 0.66299999 -0.094159253 1.89839e-38 294 321
-0.029061496 0.66299999 -0.094159253 1.9076096e-38 295 321
-0.027899038 0.66299999 -0.094159253 1.9076452e-38 296 321
-0.026696252 0.662 -0.094017237 1.9076452e-38 297 321
-0.025535546 0.662 -0.094017237 1.9076446e-38 298 321
-0.02433802 0.66100001 -0.093875214 1.9169001e-38 299 321
-0.023179067 0.66100001 -0.093875214 1.9169001e-38 300 321
-0.022053426 0.662 -0.094017237 1.9169001e-38 301 321
-0.020892721 0.662 -0.094017237 1.9169001e-38 302 321
-0.019732011 0.662 -0.094017237 1.9169001e-38 303 321
-0.018599359 0.66299999 -0.094159253 1.8985323e-38 304 321
-0.017436899 0.66299999 -0.094159253 1.8985323e-38 305 321
-0.016274439 0.66299999 -0.094159253 1.8801645e-38 306 321
-0.015111978 0.66299999 -0.094159253 1.870909e-38 307 321
-0.013949519 0.66299999 -0.094159253 1.8892759e-38 308 321
-0.012787059 0.66299999 -0.094159253 1.8892759e-38 309 321
-0.0116246 0.66299999 -0.094159253 1.8984235e-38 310 321
-0.01046214 0.66299999 -0.094159253 1.8984235e-38 311 321
-0.0092996797 0.66299999 -0.094159253 1.8891332e-38 312 321
-0.0081372196 0.66299999 -0.094159253 1.8983888e-38 313 321
-0.0069747595 0.66299999 -0.094159253 1.8799858e-38 314 321
-0.0058035329 0.662 -0.094017237 1.8799858e-38 315 321
-0.0046428265 0.662 -0.094017237 1.8799861e-38 316 321
-0.0034821199 0.662 -0.094017237 1.8892058e-38 317 321
-0.0023214133 0.662 -0.094017237 1.870839e-38 318 321
-0.0011607066 0.662 -0.094017237 1.870839e-38 319 321
0 0.662 -0.094017237 1.8708387e-38 320 321
0.0011607066 0.662 -0.094017237 1.861619e-38 321 321
0.0023108933 0.65899998 -0.093591176 1.8799858e-38 322 321
0.0034663398 0.65899998 -0.093591176 1.8707662e-38 323 321
0.0046217865 0.65899998 -0.093591176 1.852435e-38 324 321
0.0057772328 0.65899998 -0.093591176 1.852435e-38 325 321
0.0069326796 0.65899998 -0.093591176 1.8523631e-38 326 321
0.0081126727 0.66100001 -0.093875214 1.8707662e-38 327 321
0.0092435731 0.65899998 -0.093591176 1.8524347e-38 328 321
0.01036746 0.65700001 -0.093307137 1.8432152e-38 329 321
0.011519399 0.65700001 -0.093307137 1.8524347e-38 330 321
0.01267134 0.65700001 -0.093307137 1.8524347e-38 331 321
0.013823279 0.65700001 -0.093307137 1.8524347e-38 332 321
0.01497522 0.65700001 -0.093307137 1.8524347e-38 333 321
0.016176252 0.65899998 -0.093591176 1.8523628e-38 334 321
0.017331699 0.65899998 -0.093591176 1.870766e-38 335 321
0.018487146 0.65899998 -0.093591176 1.8523631e-38 336 321
0.019642593 0.65899998 -0.093591176 1.8523631e-38 337 321
0.02086116 0.66100001 -0.093875214 1.8523275e-38 338 321
0.022020113 0.66100001 -0.093875214 1.8523275e-38 339 321
0.023179067 0.66100001 -0.093875214 1.8523631e-38 340 321
0.02433802 0.66100001 -0.093875214 1.8523631e-38 341 321
0.025496973 0.66100001 -0.093875214 1.843143e-38 342 321
0.026655925 0.66100001 -0.093875214 1.843143e-38 343 321
0.027730718 0.65899998 -0.093591176 1.843143e-38 344 321
0.028886165 0.65899998 -0.093591176 1.843143e-38 345 321
0.030132787 0.66100001 -0.093875214 1.8431077e-38 346 321
0.031291738 0.66100001 -0.093875214 1.8431077e-38 347 321
0.032450691 0.66100001 -0.093875214 1.843108e-38 348 321
0.033609647 0.66100001 -0.093875214 1.8338884e-38 349 321
0.034821201 0.662 -0.094017237 1.8245615e-38 350 321
0.035981905 0.662 -0.094017237 1.8245615e-38 351 321
0.037198719 0.66299999 -0.094159253 1.8244183e-38 352 321
0.038361177 0.66299999 -0.094159253 1.8060152e-38 353 321
0.039523639 0.66299999 -0.094159253 1.760025e-38 354 321
0.040747464 0.66399997 -0.094301268 1.7231107e-38 355 321
0.041911677 0.66399997 -0.094301268 1.6586091e-38 356 321
0.043075889 0.66399997 -0.094301268 1.5848526e-38 357 321
0.04437336 0.66600001 -0.094585314 1.6030766e-38 358 321
0.045404319 0.66399997 -0.094301268 1.5846734e-38 359 321
0.046568532 0.66399997 -0.094301268 1.5663786e-38 360 321
0.047732744 0.66399997 -0.094301268 1.5663786e-38 361 321
0.048823316 0.66299999 -0.094159253 1.6030766e-38 362 321
0.049985778 0.66299999 -0.094159253 1.6399907e-38 363 321
0.051148236 0.66299999 -0.094159253 1.6311675e-38 364 321
0.052310698 0.66299999 -0.094159253 1.704924e-38 365 321
0.053473156 0.66299999 -0.094159253 1.7417303e-38 366 321
0.054635618 0.66299999 -0.094159253 1.7417303e-38 367 321
0.055798076 0.66299999 -0.094159253 1.741657e-38 368 321
0.056960538 0.66299999 -0.094159253 1.741657e-38 369 321
0.05821066 0.66399997 -0.094301268 1.7600599e-38 370 321
0.059374876 0.66399997 -0.094301268 1.7600599e-38 371 321
0.060539093 0.66399997 -0.094301268 1.7783914e-38 372 321
0.061703302 0.66399997 -0.094301268 1.7691359e-38 373 321
0.062867515 0.66399997 -0.094301268 1.7508047e-38 374 321
0.064031735 0.66399997 -0.094301268 1.7415852e-38 375 321
0.065392323 0.66600001 -0.094585314 1.7047792e-38 376 321
0.06665998 0.667 -0.094727337 1.6955597e-38 377 321
0.067829452 0.667 -0.094727337 1.6863045e-38 378 321
0.068998925 0.667 -0.094727337 1.6586817e-38 379 321
0.070168398 0.667 -0.094727337 1.6402426e-38 380 321
0.071337871 0.667 -0.094727337 1.631023e-38 381 321
0.072616048 0.66799998 -0.094869353 1.6034363e-38 382 321
0.074008204 0.67000002 -0.095153399 1.5849971e-38 383 321
0.075407356 0.67199999 -0.095437437 1.5391148e-38 384 321
0.076813534 0.67400002 -0.095721483 1.5206398e-38 385 321
0.077995278 0.67400002 -0.095721483 1.483941e-38 386 321
0.079177029 0.67400002 -0.095721483 1.4563182e-38 387 321
0.080358773 0.67400002 -0.095721483 1.3920331e-38 388 321
0.081540518 0.67400002 -0.095721483 1.3643742e-38 389 321
0.082844995 0.67500001 -0.095863499 1.2908342e-38 390 321
0.084152982 0.676 -0.096005514 1.253956e-38 391 321
0.085338242 0.676 -0.096005514 1.1986756e-38 392 321
0.086523488 0.676 -0.096005514 1.0696017e-38 393 321
0.087708741 0.676 -0.096005514 8.1246837e-39 394 321
0.088893995 0.676 -0.096005514 1.1812507e-38 395 321
-0.069151461 0.68000001 -0.09776587 1.3088442e-38 262 322
-0.067859262 0.67900002 -0.097622089 1.3641614e-38 263 322
-0.066570558 0.67799997 -0.097478308 1.4010744e-38 264 322
-0.065381795 0.67799997 -0.097478308 1.4379885e-38 265 322
-0.064003684 0.676 -0.097190768 1.5023807e-38 266 322
-0.062818423 0.676 -0.097190768 1.5484427e-38 267 322
-0.061542001 0.67500001 -0.097047001 1.576029e-38 268 322
-0.06026908 0.67400002 -0.096903227 1.5852486e-38 269 322
-0.058911994 0.67199999 -0.09661568 1.5944684e-38 270 322
-0.057647847 0.671 -0.096471906 1.603688e-38 271 322
-0.056471359 0.671 -0.096471906 1.6129432e-38 272 322
-0.055212468 0.67000002 -0.096328132 1.6221629e-38 273 322
-0.054037735 0.67000002 -0.096328132 1.6497139e-38 274 322
-0.052863002 0.67000002 -0.096328132 1.6497139e-38 275 322
-0.051533967 0.66799998 -0.096040577 1.6588985e-38 276 322
-0.050362743 0.66799998 -0.096040577 1.6865211e-38 277 322
-0.049117878 0.667 -0.09589681 1.695741e-38 278 322
-0.047876518 0.66600001 -0.095753036 1.7234357e-38 279 322
-0.046708796 0.66600001 -0.095753036 1.7509149e-38 280 322
-0.045541082 0.66600001 -0.095753036 1.769318e-38 281 322
-0.04437336 0.66600001 -0.095753036 1.760206e-38 282 322
-0.043075889 0.66399997 -0.095465489 1.7694256e-38 283 322
-0.041911677 0.66399997 -0.095465489 1.7787162e-38 284 322
-0.040747464 0.66399997 -0.095465489 1.7787162e-38 285 322
-0.039583251 0.66399997 -0.095465489 1.7970472e-38 286 322
-0.038419038 0.66399997 -0.095465489 1.8062667e-38 287 322
-0.037254825 0.66399997 -0.095465489 1.8154866e-38 288 322
-0.036036257 0.66299999 -0.095321715 1.8338897e-38 289 322
-0.034873798 0.66299999 -0.095321715 1.8523644e-38 290 322
-0.033711337 0.66299999 -0.095321715 1.8523644e-38 291 322
-0.032548878 0.66299999 -0.095321715 1.8616195e-38 292 322
-0.031386416 0.66299999 -0.095321715 1.8708392e-38 293 322
-0.030178372 0.662 -0.095177941 1.8708392e-38 294 322
-0.029017664 0.662 -0.095177941 1.8708392e-38 295 322
-0.027856959 0.662 -0.095177941 1.870839e-38 296 322
-0.026696252 0.662 -0.095177941 1.8800585e-38 297 322
-0.025496973 0.66100001 -0.095034167 1.880166e-38 298 322
-0.02433802 0.66100001 -0.095034167 1.880166e-38 299 322
-0.023179067 0.66100001 -0.095034167 1.8984972e-38 300 322
-0.022020113 0.66100001 -0.095034167 1.8984972e-38 301 322
-0.02086116 0.66100001 -0.095034167 1.8984972e-38 302 322
-0.019702207 0.66100001 -0.095034167 1.8984972e-38 303 322
-0.018571306 0.662 -0.095177941 1.9260117e-38 304 322
-0.017410601 0.662 -0.095177941 1.9167563e-38 305 322
-0.016249891 0.662 -0.095177941 1.9260468e-38 306 322
-0.015089186 0.662 -0.095177941 1.9168272e-38 307 322
-0.01392848 0.662 -0.095177941 1.9168266e-38 308 322
-0.012767773 0.662 -0.095177941 1.8984235e-38 309 322
-0.0116246 0.66299999 -0.095321715 1.916755e-38 310 322
-0.01046214 0.66299999 -0.095321715 1.916755e-38 311 322
-0.0092996797 0.66299999 -0.095321715 1.9075e-38 312 322
-0.0081372196 0.66299999 -0.095321715 1.9167197e-38 313 322
-0.00695372 0.66100001 -0.095034167 1.8799855e-38 314 322
-0.0057947668 0.66100001 -0.095034167 1.8892052e-38 315 322
-0.0046358132 0.66100001 -0.095034167 1.8892058e-38 316 322
-0.00347686 0.66100001 -0.095034167 1.8892058e-38 317 322
-0.0023179066 0.66100001 -0.095034167 1.8891702e-38 318 322
-0.0011589533 0.66100001 -0.095034167 1.8891702e-38 319 322
0 0.66100001 -0.095034167 1.8892055e-38 320 322
0.0011589533 0.66100001 -0.095034167 1.8799858e-38 321 322
0.0023108933 0.65899998 -0.094746619 1.8891688e-38 322 322
0.0034663398 0.65899998 -0.094746619 1.8799492e-38 323 322
0.0046217865 0.65899998 -0.094746619 1.8708016e-38 324 322
0.0057772328 0.65899998 -0.094746619 1.8708016e-38 325 322
0.0069326796 0.65899998 -0.094746619 1.8523626e-38 326 322
0.0080758529 0.65799999 -0.094602853 1.8708016e-38 327 322
0.0092295464 0.65799999 -0.094602853 1.8708013e-38 328 322
0.01036746 0.65700001 -0.094459079 1.8708013e-38 329 322
0.011519399 0.65700001 -0.094459079 1.8523982e-38 330 322
0.012632766 0.65499997 -0.094171531 1.8708013e-38 331 322
0.013781199 0.65499997 -0.094171531 1.8523982e-38 332 322
0.014929632 0.65499997 -0.094171531 1.8708013e-38 333 322
0.016176252 0.65899998 -0.094746619 1.8523982e-38 334 322
0.017331699 0.65899998 -0.094746619 1.8523982e-38 335 322
0.018487146 0.65899998 -0.094746619 1.8523628e-38 336 322
0.019642593 0.65899998 -0.094746619 1.8523628e-38 337 322
0.02086116 0.66100001 -0.095034167 1.8523631e-38 338 322
0.022020113 0.66100001 -0.095034167 1.8523631e-38 339 322
0.023179067 0.66100001 -0.095034167 1.8523631e-38 340 322
0.024264378 0.65899998 -0.094746619 1.8523631e-38 341 322
0.025419824 0.65899998 -0.094746619 1.8614742e-38 342 322
0.026575271 0.65899998 -0.094746619 1.8614742e-38 343 322
0.027688639 0.65799999 -0.094602853 1.8614742e-38 344 322
0.028842334 0.65799999 -0.094602853 1.8614742e-38 345 322
0.030041611 0.65899998 -0.094746619 1.8431077e-38 346 322
0.031291738 0.66100001 -0.095034167 1.8431077e-38 347 322
0.032450691 0.66100001 -0.095034167 1.8338884e-38 348 322
0.033609647 0.66100001 -0.095034167 1.8246688e-38 349 322
0.0347686 0.66100001 -0.095034167 1.8428927e-38 350 322
0.035927553 0.66100001 -0.095034167 1.8336732e-38 351 322
0.037142612 0.662 -0.095177941 1.8061224e-38 352 322
0.038303319 0.662 -0.095177941 1.7876474e-38 353 322
0.039464023 0.662 -0.095177941 1.7783911e-38 354 322
0.040686097 0.66299999 -0.095321715 1.759952e-38 355 322
0.041848559 0.66299999 -0.095321715 1.7230741e-38 356 322
0.043011017 0.66299999 -0.095321715 1.6953794e-38 357 322
0.044173479 0.66299999 -0.095321715 1.667758e-38 358 322
0.045335937 0.66299999 -0.095321715 1.667758e-38 359 322
0.046498399 0.66299999 -0.095321715 1.6677936e-38 360 322
0.047588971 0.662 -0.095177941 1.6677936e-38 361 322
0.048749682 0.662 -0.095177941 1.6586814e-38 362 322
0.049910385 0.662 -0.095177941 1.6863401e-38 363 322
0.051071092 0.662 -0.095177941 1.7049217e-38 364 322
0.0522318 0.662 -0.095177941 1.7049217e-38 365 322
0.053392503 0.662 -0.095177941 1.7141047e-38 366 322
0.054553211 0.662 -0.095177941 1.7233243e-38 367 322
0.055713918 0.662 -0.095177941 1.7140344e-38 368 322
0.056874625 0.662 -0.095177941 1.7232539e-38 369 322
0.058122993 0.66299999 -0.095321715 1.7139635e-38 370 322
0.059285458 0.66299999 -0.095321715 1.7139635e-38 371 322
0.060447913 0.66299999 -0.095321715 1.7139637e-38 372 322
0.061703302 0.66399997 -0.095465489 1.7139637e-38 373 322
0.062867515 0.66399997 -0.095465489 1.6864127e-38 374 322
0.064031735 0.66399997 -0.095465489 1.6771931e-38 375 322
0.065392323 0.66600001 -0.095753036 1.6587183e-38 376 322
0.066560037 0.66600001 -0.095753036 1.6587183e-38 377 322
0.067727759 0.66600001 -0.095753036 1.6402791e-38 378 322
0.068998925 0.667 -0.09589681 1.6126565e-38 379 322
0.070168398 0.667 -0.09589681 1.603401e-38 380 322
0.071337871 0.667 -0.09589681 1.5941813e-38 381 322
0.072507344 0.667 -0.09589681 1.5666305e-38 382 322
0.073787279 0.66799998 -0.096040577 1.557411e-38 383 322
0.07518293 0.67000002 -0.096328132 1.5206403e-38 384 322
0.076471634 0.671 -0.096471906 1.5113849e-38 385 322
0.077763841 0.67199999 -0.09661568 1.4746494e-38 386 322
0.078942075 0.67199999 -0.09661568 1.4562103e-38 387 322
0.080358773 0.67400002 -0.096903227 1.3735937e-38 388 322
0.081540518 0.67400002 -0.096903227 1.3367513e-38 389 322
0.082844995 0.67500001 -0.097047001 1.2907258e-38 390 322
0.084152982 0.676 -0.097190768 1.244592e-38 391 322
0.085338242 0.676 -0.097190768 1.1984241e-38 392 322
0.086395502 0.67500001 -0.097047001 1.0232525e-38 393 322
0.087578997 0.67500001 -0.097047001 7.1094583e-39 394 322
0.088893995 0.676 -0.097190768 8.9530122e-39 395 322
-0.067859262 0.67900002 -0.09881261 1.3271754e-38 263 323
-0.066570558 0.67799997 -0.09866707 1.3273176e-38 264 323
-0.065188929 0.676 -0.098376028 1.3550122e-38 265 323
-0.064003684 0.676 -0.098376028 1.4286955e-38 266 323
-0.062725499 0.67500001 -0.098230496 1.4748294e-38 267 323
-0.061542001 0.67500001 -0.098230496 1.5391145e-38 268 323
-0.06026908 0.67400002 -0.098084971 1.5667372e-38 269 323
-0.058911994 0.67199999 -0.097793922 1.5576975e-38 270 323
-0.057647847 0.671 -0.09764839 1.566953e-38 271 323
-0.056387197 0.67000002 -0.097502865 1.5945035e-38 272 323
-0.055212468 0.67000002 -0.097502865 1.5945035e-38 273 323
-0.053876422 0.66799998 -0.097211808 1.6220545e-38 274 323
-0.052705199 0.66799998 -0.097211808 1.6220545e-38 275 323
-0.051456824 0.667 -0.097066283 1.6311672e-38 276 323
-0.050287351 0.667 -0.097066283 1.6588259e-38 277 323
-0.04904424 0.66600001 -0.096920758 1.6496789e-38 278 323
-0.047876518 0.66600001 -0.096920758 1.668118e-38 279 323
-0.046708796 0.66600001 -0.096920758 1.7139991e-38 280 323
-0.045541082 0.66600001 -0.096920758 1.7416217e-38 281 323
-0.04437336 0.66600001 -0.096920758 1.7509122e-38 282 323
-0.043075889 0.66399997 -0.096629702 1.7601319e-38 283 323
-0.041911677 0.66399997 -0.096629702 1.7327253e-38 284 323
-0.040747464 0.66399997 -0.096629702 1.7327253e-38 285 323
-0.039523639 0.66299999 -0.096484177 1.7511287e-38 286 323
-0.038361177 0.66299999 -0.096484177 1.7511287e-38 287 323
-0.037198719 0.66299999 -0.096484177 1.7878274e-38 288 323
-0.035981905 0.662 -0.096338652 1.8062667e-38 289 323
-0.034821201 0.662 -0.096338652 1.8338178e-38 290 323
-0.033660494 0.662 -0.096338652 1.8430373e-38 291 323
-0.032499783 0.662 -0.096338652 1.8431448e-38 292 323
-0.031339079 0.662 -0.096338652 1.8431448e-38 293 323
-0.030178372 0.662 -0.096338652 1.8523278e-38 294 323
-0.028973831 0.66100001 -0.096193127 1.8707309e-38 295 323
-0.02781488 0.66100001 -0.096193127 1.8523997e-38 296 323
-0.026655925 0.66100001 -0.096193127 1.870839e-38 297 323
-0.025419824 0.65899998 -0.09590207 1.8616916e-38 298 323
-0.024264378 0.65899998 -0.09590207 1.8616916e-38 299 323
-0.023108931 0.65899998 -0.09590207 1.8616916e-38 300 323
-0.021953486 0.65899998 -0.09590207 1.8709111e-38 301 323
-0.020798039 0.65899998 -0.09590207 1.8708755e-38 302 323
-0.019642593 0.65899998 -0.09590207 1.8708755e-38 303 323
-0.018487146 0.65899998 -0.09590207 1.9076099e-38 304 323
-0.017331699 0.65899998 -0.09590207 1.8983903e-38 305 323
-0.016225345 0.66100001 -0.096193127 1.89839e-38 306 323
-0.015066394 0.66100001 -0.096193127 1.89839e-38 307 323
-0.01390744 0.66100001 -0.096193127 1.8800585e-38 308 323
-0.012767773 0.662 -0.096338652 1.870839e-38 309 323
-0.011607066 0.662 -0.096338652 1.8799861e-38 310 323
-0.01044636 0.662 -0.096338652 1.8799861e-38 311 323
-0.0092716264 0.66100001 -0.096193127 1.8799858e-38 312 323
-0.0081126727 0.66100001 -0.096193127 1.8799858e-38 313 323
-0.00695372 0.66100001 -0.096193127 1.8616546e-38 314 323
-0.0057772328 0.65899998 -0.09590207 1.8616546e-38 315 323
-0.0046217865 0.65899998 -0.09590207 1.8616193e-38 316 323
-0.0034663398 0.65899998 -0.09590207 1.870839e-38 317 323
-0.0023073866 0.65799999 -0.095756538 1.8708392e-38 318 323
-0.0011536933 0.65799999 -0.095756538 1.8708392e-38 319 323
0 0.65799999 -0.095756538 1.870839e-38 320 323
0.0011536933 0.65799999 -0.095756538 1.8616193e-38 321 323
0.0023073866 0.65799999 -0.095756538 1.8799858e-38 322 323
0.0034610799 0.65799999 -0.095756538 1.8799858e-38 323 323
0.0046147732 0.65799999 -0.095756538 1.870766e-38 324 323
0.0057684663 0.65799999 -0.095756538 1.870766e-38 325 323
0.0069221598 0.65799999 -0.095756538 1.8523628e-38 326 323
0.0080635799 0.65700001 -0.095611021 1.870766e-38 327 323
0.0092155198 0.65700001 -0.095611021 1.870766e-38 328 323
0.01036746 0.65700001 -0.095611021 1.870766e-38 329 323
0.011519399 0.65700001 -0.095611021 1.8707662e-38 330 323
0.012632766 0.65499997 -0.095319957 1.8707662e-38 331 323
0.013781199 0.65499997 -0.095319957 1.870766e-38 332 323
0.01497522 0.65700001 -0.095611021 1.8523628e-38 333 323
0.016176252 0.65899998 -0.09590207 1.8524345e-38 334 323
0.0173843 0.66100001 -0.096193127 1.8432149e-38 335 323
0.018543253 0.66100001 -0.096193127 1.8432152e-38 336 323
0.019642593 0.65899998 -0.09590207 1.8432152e-38 337 323
0.020798039 0.65899998 -0.09590207 1.8523278e-38 338 323
0.021953486 0.65899998 -0.09590207 1.8523278e-38 339 323
0.023108931 0.65899998 -0.09590207 1.8431083e-38 340 323
0.024264378 0.65899998 -0.09590207 1.8431083e-38 341 323
0.025419824 0.65899998 -0.09590207 1.8431083e-38 342 323
0.026494619 0.65700001 -0.095611021 1.8431083e-38 343 323
0.027646558 0.65700001 -0.095611021 1.8431083e-38 344 323
0.028798498 0.65700001 -0.095611021 1.8338528e-38 345 323
0.030041611 0.65899998 -0.09590207 1.8339247e-38 346 323
0.031197058 0.65899998 -0.09590207 1.8339247e-38 347 323
0.032352503 0.65899998 -0.09590207 1.8155216e-38 348 323
0.033507951 0.65899998 -0.09590207 1.7970823e-38 349 323
0.034663398 0.65899998 -0.09590207 1.8061587e-38 350 323
0.035818845 0.65899998 -0.09590207 1.7877556e-38 351 323
0.037086505 0.66100001 -0.096193127 1.7693883e-38 352 323
0.038303319 0.662 -0.096338652 1.7693883e-38 353 323
0.039464023 0.662 -0.096338652 1.7508766e-38 354 323
0.04062473 0.662 -0.096338652 1.741657e-38 355 323
0.041785441 0.662 -0.096338652 1.7416205e-38 356 323
0.042946145 0.662 -0.096338652 1.7416205e-38 357 323
0.044106852 0.662 -0.096338652 1.7232892e-38 358 323
0.04526756 0.662 -0.096338652 1.7140338e-38 359 323
0.046428263 0.662 -0.096338652 1.7141047e-38 360 323
0.047517084 0.66100001 -0.096193127 1.6956297e-38 361 323
0.04867604 0.66100001 -0.096193127 1.7141766e-38 362 323
0.049834993 0.66100001 -0.096193127 1.7141766e-38 363 323
0.050993945 0.66100001 -0.096193127 1.7048861e-38 364 323
0.052152898 0.66100001 -0.096193127 1.686483e-38 365 323
0.053311851 0.66100001 -0.096193127 1.7047789e-38 366 323
0.054470807 0.66100001 -0.096193127 1.6955594e-38 367 323
0.055713918 0.662 -0.096338652 1.6955246e-38 368 323
0.056874625 0.662 -0.096338652 1.6955246e-38 369 323
0.058035329 0.662 -0.096338652 1.6770498e-38 370 323
0.05919604 0.662 -0.096338652 1.6770498e-38 371 323
0.060356744 0.662 -0.096338652 1.6770495e-38 372 323
0.061610378 0.66299999 -0.096484177 1.6586464e-38 373 323
0.062772833 0.66299999 -0.096484177 1.6494268e-38 374 323
0.064031735 0.66399997 -0.096629702 1.6402072e-38 375 323
0.06519594 0.66399997 -0.096629702 1.6126211e-38 376 323
0.066560037 0.66600001 -0.096920758 1.6126211e-38 377 323
0.067727759 0.66600001 -0.096920758 1.5942183e-38 378 323
0.068895474 0.66600001 -0.096920758 1.5665955e-38 379 323
0.070063196 0.66600001 -0.096920758 1.5573759e-38 380 323
0.071337871 0.667 -0.097066283 1.5573759e-38 381 323
0.072507344 0.667 -0.097066283 1.5298249e-38 382 323
0.073787279 0.66799998 -0.097211808 1.5205694e-38 383 323
0.074958503 0.66799998 -0.097211808 1.5113852e-38 384 323
0.076357663 0.67000002 -0.097502865 1.4929459e-38 385 323
0.077648118 0.671 -0.09764839 1.4562103e-38 386 323
0.078942075 0.67199999 -0.097793922 1.4285518e-38 387 323
0.080120318 0.67199999 -0.097793922 1.3643024e-38 388 323
0.081540518 0.67400002 -0.098084971 1.3366078e-38 389 323
0.082722262 0.67400002 -0.098084971 1.2905471e-38 390 323
0.084152982 0.676 -0.098376028 1.2167906e-38 391 323
0.085338242 0.676 -0.098376028 1.1705158e-38 392 323
0.086395502 0.67500001 -0.098230496 1.0321865e-38 393 323
0.087578997 0.67500001 -0.098230496 7.1055053e-39 394 323
0.088762499 0.67500001 -0.098230496 6.5523315e-39 395 323
0.089945994 0.67500001 -0.098230496 1.1809322e-38 396 323
-0.066570558 0.67799997 -0.099855833 1.3361784e-38 264 324
-0.065188929 0.676 -0.099561274 1.345398e-38 265 324
-0.063909002 0.67500001 -0.099413998 1.318026e-38 266 324
-0.062725499 0.67500001 -0.099413998 1.4102577e-38 267 324
-0.061542001 0.67500001 -0.099413998 1.4563904e-38 268 324
-0.060090236 0.67199999 -0.098972157 1.4840492e-38 269 324
-0.058824331 0.671 -0.098824874 1.5575532e-38 270 324
-0.057561934 0.67000002 -0.098677598 1.5575532e-38 271 324
-0.056387197 0.67000002 -0.098677598 1.575992e-38 272 324
-0.05504765 0.66799998 -0.098383039 1.575992e-38 273 324
-0.05379577 0.667 -0.098235756 1.5944672e-38 274 324
-0.052626297 0.667 -0.098235756 1.5944672e-38 275 324
-0.051379681 0.66600001 -0.098088481 1.6127634e-38 276 324
-0.050211959 0.66600001 -0.098088481 1.6219829e-38 277 324
-0.04904424 0.66600001 -0.098088481 1.6494984e-38 278 324
-0.047876518 0.66600001 -0.098088481 1.6587538e-38 279 324
-0.046708796 0.66600001 -0.098088481 1.6312025e-38 280 324
-0.045541082 0.66600001 -0.098088481 1.6680807e-38 281 324
-0.044240102 0.66399997 -0.097793914 1.7231458e-38 282 324
-0.043075889 0.66399997 -0.097793914 1.7323653e-38 283 324
-0.041848559 0.66299999 -0.097646631 1.6958466e-38 284 324
-0.040686097 0.66299999 -0.097646631 1.6958466e-38 285 324
-0.039523639 0.66299999 -0.097646631 1.7142859e-38 286 324
-0.038361177 0.66299999 -0.097646631 1.7142859e-38 287 324
-0.037198719 0.66299999 -0.097646631 1.7693878e-38 288 324
-0.035981905 0.662 -0.097499363 1.7693878e-38 289 324
-0.034821201 0.662 -0.097499363 1.8153417e-38 290 324
-0.033660494 0.662 -0.097499363 1.8337809e-38 291 324
-0.032499783 0.662 -0.097499363 1.8246335e-38 292 324
-0.031339079 0.662 -0.097499363 1.8246335e-38 293 324
-0.030132787 0.66100001 -0.09735208 1.8246335e-38 294 324
-0.028973831 0.66100001 -0.09735208 1.8338531e-38 295 324
-0.02781488 0.66100001 -0.09735208 1.833925e-38 296 324
-0.026575271 0.65899998 -0.097057514 1.8431445e-38 297 324
-0.025419824 0.65899998 -0.097057514 1.8523644e-38 298 324
-0.02422756 0.65799999 -0.096910238 1.8523644e-38 299 324
-0.023073865 0.65799999 -0.096910238 1.8432527e-38 300 324
-0.021920172 0.65799999 -0.096910238 1.8432527e-38 301 324
-0.02076648 0.65799999 -0.096910238 1.8432527e-38 302 324
-0.019612785 0.65799999 -0.096910238 1.861656e-38 303 324
-0.018459093 0.65799999 -0.096910238 1.8891352e-38 304 324
-0.017305398 0.65799999 -0.096910238 1.8891352e-38 305 324
-0.016151706 0.65799999 -0.096910238 1.8891352e-38 306 324
-0.015020805 0.65899998 -0.097057514 1.8891352e-38 307 324
-0.013865359 0.65899998 -0.097057514 1.8983182e-38 308 324
-0.012748486 0.66100001 -0.09735208 1.8890984e-38 309 324
-0.011589534 0.66100001 -0.09735208 1.8799142e-38 310 324
-0.01043058 0.66100001 -0.09735208 1.8799142e-38 311 324
-0.0092435731 0.65899998 -0.097057514 1.8707306e-38 312 324
-0.0080881258 0.65899998 -0.097057514 1.8707306e-38 313 324
-0.00695372 0.66100001 -0.09735208 1.8707309e-38 314 324
-0.0057772328 0.65899998 -0.097057514 1.8707309e-38 315 324
-0.0046147732 0.65799999 -0.096910238 1.8707312e-38 316 324
-0.0034610799 0.65799999 -0.096910238 1.8799508e-38 317 324
-0.0023038799 0.65700001 -0.096762955 1.8799152e-38 318 324
-0.00115194 0.65700001 -0.096762955 1.8799152e-38 319 324
0 0.65700001 -0.096762955 1.8799508e-38 320 324
0.00115194 0.65700001 -0.096762955 1.8799508e-38 321 324
0.0023038799 0.65700001 -0.096762955 1.8799861e-38 322 324
0.0034558198 0.65700001 -0.096762955 1.8799861e-38 323 324
0.0046077599 0.65700001 -0.096762955 1.8799139e-38 324 324
0.0057596997 0.65700001 -0.096762955 1.8706944e-38 325 324
0.0068905996 0.65499997 -0.096468389 1.8523631e-38 326 324
0.008039033 0.65499997 -0.096468389 1.8523631e-38 327 324
0.0091874655 0.65499997 -0.096468389 1.8707306e-38 328 324
0.010335899 0.65499997 -0.096468389 1.8707306e-38 329 324
0.011484332 0.65499997 -0.096468389 1.8799142e-38 330 324
0.012632766 0.65499997 -0.096468389 1.8706588e-38 331 324
0.013781199 0.65499997 -0.096468389 1.8890256e-38 332 324
0.014929632 0.65499997 -0.096468389 1.8890256e-38 333 324
0.01612716 0.65700001 -0.096762955 1.8523628e-38 334 324
0.017305398 0.65799999 -0.096910238 1.8431433e-38 335 324
0.018487146 0.65899998 -0.097057514 1.8431077e-38 336 324
0.019612785 0.65799999 -0.096910238 1.8431077e-38 337 324
0.02076648 0.65799999 -0.096910238 1.8614392e-38 338 324
0.021920172 0.65799999 -0.096910238 1.8614392e-38 339 324
0.023073865 0.65799999 -0.096910238 1.8521843e-38 340 324
0.02422756 0.65799999 -0.096910238 1.8614039e-38 341 324
0.025381252 0.65799999 -0.096910238 1.8430727e-38 342 324
0.026494619 0.65700001 -0.096762955 1.8430727e-38 343 324
0.027646558 0.65700001 -0.096762955 1.8522199e-38 344 324
0.028798498 0.65700001 -0.096762955 1.8337809e-38 345 324
0.029996024 0.65799999 -0.096910238 1.8338528e-38 346 324
0.031149717 0.65799999 -0.096910238 1.8246333e-38 347 324
0.032303412 0.65799999 -0.096910238 1.8061221e-38 348 324
0.033457108 0.65799999 -0.096910238 1.8061221e-38 349 324
0.034663398 0.65899998 -0.097057514 1.7968669e-38 350 324
0.035818845 0.65899998 -0.097057514 1.7876474e-38 351 324
0.036974292 0.65899998 -0.097057514 1.7600613e-38 352 324
0.038245458 0.66100001 -0.09735208 1.7600613e-38 353 324
0.039404415 0.66100001 -0.09735208 1.7416217e-38 354 324
0.040563367 0.66100001 -0.09735208 1.7232186e-38 355 324
0.04172232 0.66100001 -0.09735208 1.7232537e-38 356 324
0.042881273 0.66100001 -0.09735208 1.7048145e-38 357 324
0.044040225 0.66100001 -0.09735208 1.7231811e-38 358 324
0.045199182 0.66100001 -0.09735208 1.704778e-38 359 324
0.046358135 0.66100001 -0.09735208 1.7047777e-38 360 324
0.04737331 0.65899998 -0.097057514 1.7047777e-38 361 324
0.048528757 0.65899998 -0.097057514 1.7047777e-38 362 324
0.049684204 0.65899998 -0.097057514 1.7047777e-38 363 324
0.050839648 0.65899998 -0.097057514 1.6955582e-38 364 324
0.051995095 0.65899998 -0.097057514 1.6955582e-38 365 324
0.053150542 0.65899998 -0.097057514 1.704599e-38 366 324
0.054470807 0.66100001 -0.09735208 1.704599e-38 367 324
0.05562976 0.66100001 -0.09735208 1.6769776e-38 368 324
0.056788713 0.66100001 -0.09735208 1.667758e-38 369 324
0.058035329 0.662 -0.097499363 1.6585741e-38 370 324
0.05919604 0.662 -0.097499363 1.6401351e-38 371 324
0.060356744 0.662 -0.097499363 1.6401351e-38 372 324
0.061610378 0.66299999 -0.097646631 1.6309155e-38 373 324
0.062772833 0.66299999 -0.097646631 1.6216961e-38 374 324
0.063935295 0.66299999 -0.097646631 1.6124407e-38 375 324
0.06519594 0.66399997 -0.097793914 1.584962e-38 376 324
0.066360161 0.66399997 -0.097793914 1.584962e-38 377 324
0.067727759 0.66600001 -0.098088481 1.557304e-38 378 324
0.068895474 0.66600001 -0.098088481 1.557304e-38 379 324
0.070063196 0.66600001 -0.098088481 1.5296814e-38 380 324
0.071337871 0.667 -0.098235756 1.5296814e-38 381 324
0.072507344 0.667 -0.098235756 1.5020583e-38 382 324
0.073676817 0.667 -0.098235756 1.5020583e-38 383 324
0.074958503 0.66799998 -0.098383039 1.4745428e-38 384 324
0.076129727 0.66799998 -0.098383039 1.4652874e-38 385 324
0.077532403 0.67000002 -0.098677598 1.4285518e-38 386 324
0.078824602 0.671 -0.098824874 1.4101125e-38 387 324
0.080001086 0.671 -0.098824874 1.3641942e-38 388 324
0.08129856 0.67199999 -0.098972157 1.3180964e-38 389 324
0.082476802 0.67199999 -0.098972157 1.2719289e-38 390 324
0.084152982 0.676 -0.099561274 1.207392e-38 391 324
0.085212 0.67500001 -0.099413998 1.1518263e-38 392 324
0.086395502 0.67500001 -0.099413998 1.0780339e-38 393 324
0.087578997 0.67500001 -0.099413998 7.5628751e-39 394 324
0.088762499 0.67500001 -0.099413998 6.8253086e-39 395 324
0.089945994 0.67500001 -0.099413998 1.2726587e-38 396 324
-0.063909002 0.67500001 -0.10059749 1.2718951e-38 266 325
-0.062725499 0.67500001 -0.10059749 1.3364321e-38 267 325
-0.061542001 0.67500001 -0.10059749 1.3917831e-38 268 325
-0.060090236 0.67199999 -0.10015039 1.4470646e-38 269 325
-0.058824331 0.671 -0.10000136 1.5114558e-38 270 325
-0.057561934 0.67000002 -0.099852331 1.5206754e-38 271 325
-0.056387197 0.67000002 -0.099852331 1.5851027e-38 272 325
-0.05504765 0.66799998 -0.099554263 1.5851027e-38 273 325
-0.05379577 0.667 -0.099405229 1.5668075e-38 274 325
-0.052626297 0.667 -0.099405229 1.5760629e-38 275 325
-0.051379681 0.66600001 -0.099256195 1.5759207e-38 276 325
-0.050211959 0.66600001 -0.099256195 1.6035435e-38 277 325
