# .PCD v.7 - Point Cloud Data file format
FIELDS x y z rgb imX imY
SIZE 4 4 4 4 4 4
TYPE F F F F F F
COUNT 1 1 1 1 1 1
WIDTH 840
HEIGHT 1
VIEWPOINT 0 0 0 1 0 0 0
POINTS 840
DATA ascii
-0.011137174 0.79400003 0.015313613 1.4841253e-38 312 229
-0.0097450269 0.79400003 0.015313613 1.447211e-38 313 229
-0.0084686 0.80500001 0.015525767 1.447211e-38 314 229
-0.0070571667 0.80500001 0.015525767 1.4103688e-38 315 229
-0.0057018399 0.81300002 0.01568006 1.336758e-38 316 229
-0.0042763799 0.81300002 0.01568006 1.2906962e-38 317 229
-0.0028439066 0.81099999 0.015641484 1.2261258e-38 318 229
-0.0014219533 0.81099999 0.015641484 1.2076508e-38 319 229
0 0.81099999 0.015641484 1.1158175e-38 320 229
-0.027667599 0.78899997 0.013833799 1.8986404e-38 300 230
-0.026284218 0.78899997 0.013833799 1.8801654e-38 301 230
-0.024932399 0.79000002 0.013851333 1.9077155e-38 302 230
-0.023547266 0.79000002 0.013851333 1.9169351e-38 303 230
-0.022162134 0.79000002 0.013851333 1.8709812e-38 304 230
-0.020829599 0.792 0.0138864 1.8433584e-38 305 230
-0.01944096 0.792 0.0138864 1.8341754e-38 306 230
-0.018006733 0.79000002 0.013851333 1.8249558e-38 307 230
-0.016621601 0.79000002 0.013851333 1.7972991e-38 308 230
-0.015236467 0.79000002 0.013851333 1.77886e-38 309 230
-0.013851333 0.79000002 0.013851333 1.7511664e-38 310 230
-0.012497759 0.792 0.0138864 1.7419467e-38 311 230
-0.011137174 0.79400003 0.013921468 1.7051761e-38 312 230
-0.009953673 0.81099999 0.014219533 1.6867011e-38 313 230
-0.0084686 0.80500001 0.014114333 1.6681902e-38 314 230
-0.0070571667 0.80500001 0.014114333 1.6497152e-38 315 230
-0.0056737866 0.80900002 0.014184467 1.5302227e-38 316 230
-0.00425534 0.80900002 0.014184467 1.484125e-38 317 230
-0.0028439066 0.81099999 0.014219533 1.410335e-38 318 230
-0.0014219533 0.81099999 0.014219533 1.3181754e-38 319 230
0 0.80900002 0.014184467 1.180245e-38 320 230
0.0014184467 0.80900002 0.014184467 1.1894646e-38 321 230
-0.046140719 0.77399999 0.01221372 1.3276527e-38 286 231
-0.043426558 0.77399999 0.01221372 1.2356363e-38 288 231
-0.042178184 0.77600002 0.01224528 1.3093928e-38 289 231
-0.0408176 0.77600002 0.01224528 1.4658714e-38 290 231
-0.039457016 0.77600002 0.01224528 1.5672865e-38 291 231
-0.035557598 0.77999997 0.012308398 1.8342149e-38 294 231
-0.034189999 0.77999997 0.012308398 1.8710573e-38 295 231
-0.032948639 0.78299999 0.012355739 1.9079339e-38 296 231
-0.031575777 0.78299999 0.012355739 1.8894949e-38 297 231
-0.030280067 0.78500003 0.0123873 1.8894925e-38 298 231
-0.02897734 0.787 0.01241886 1.8526144e-38 299 231
-0.027597465 0.787 0.01241886 1.8893107e-38 300 231
-0.026284218 0.78899997 0.012450419 1.8800912e-38 301 231
-0.024900839 0.78899997 0.012450419 1.8525404e-38 302 231
-0.023547266 0.79000002 0.0124662 1.8525404e-38 303 231
-0.022162134 0.79000002 0.0124662 1.8156989e-38 304 231
-0.020829599 0.792 0.012497759 1.8064793e-38 305 231
-0.01944096 0.792 0.012497759 1.7882202e-38 306 231
-0.018006733 0.79000002 0.0124662 1.7882202e-38 307 231
-0.016621601 0.79000002 0.0124662 1.815771e-38 308 231
-0.015236467 0.79000002 0.0124662 1.7973679e-38 309 231
-0.013851333 0.79000002 0.0124662 1.8157357e-38 310 231
-0.012497759 0.792 0.012497759 1.7788935e-38 311 231
-0.011137174 0.79400003 0.01252932 1.7605269e-38 312 231
-0.0098186666 0.80000001 0.012624 1.7605269e-38 313 231
-0.0084475596 0.80299997 0.012671339 1.7512366e-38 314 231
-0.0070396326 0.80299997 0.012671339 1.7235779e-38 315 231
-0.0056737866 0.80900002 0.012766019 1.6133048e-38 316 231
-0.00425534 0.80900002 0.012766019 1.5763906e-38 317 231
-0.0028368933 0.80900002 0.012766019 1.4656855e-38 318 231
-0.0014219533 0.81099999 0.012797579 1.391929e-38 319 231
0 0.80900002 0.012766019 1.1986097e-38 320 231
0.0014184467 0.80900002 0.012766019 1.1525119e-38 321 231
-0.046140719 0.77399999 0.01085664 1.1989363e-38 286 232
-0.044783637 0.77399999 0.01085664 1.3556328e-38 287 232
-0.043426558 0.77399999 0.01085664 1.5579579e-38 288 232
-0.042178184 0.77600002 0.010884693 1.6962513e-38 289 232
-0.0408176 0.77600002 0.010884693 1.8342907e-38 290 232
-0.039457016 0.77600002 0.010884693 1.871133e-38 291 232
-0.038096428 0.77600002 0.010884693 1.9077563e-38 292 232
-0.036735836 0.77600002 0.010884693 1.8892812e-38 293 232
-0.035466425 0.778 0.010912746 1.8894575e-38 294 232
-0.034102332 0.778 0.010912746 1.8433598e-38 295 232
-0.032948639 0.78299999 0.010982879 1.8526853e-38 296 232
-0.031575777 0.78299999 0.010982879 1.8526853e-38 297 232
-0.030280067 0.78500003 0.011010934 1.8617969e-38 298 232
-0.0289037 0.78500003 0.011010934 1.8617969e-38 299 232
-0.027527334 0.78500003 0.011010934 1.8433934e-38 300 232
-0.026217593 0.787 0.011038986 1.8433934e-38 301 232
-0.024837719 0.787 0.011038986 1.8341739e-38 302 232
-0.023517458 0.78899997 0.011067039 1.8249543e-38 303 232
-0.022134079 0.78899997 0.011067039 1.7605622e-38 304 232
-0.020777 0.79000002 0.011081067 1.7605622e-38 305 232
-0.019391866 0.79000002 0.011081067 1.7788579e-38 306 232
-0.017983939 0.78899997 0.011067039 1.7788579e-38 307 232
-0.016600559 0.78899997 0.011067039 1.7788932e-38 308 232
-0.015217179 0.78899997 0.011067039 1.7604539e-38 309 232
-0.0138864 0.792 0.011109119 1.7327954e-38 310 232
-0.012497759 0.792 0.011109119 1.7235758e-38 311 232
-0.011137174 0.79400003 0.011137174 1.7143928e-38 312 232
-0.0097941197 0.79799998 0.011193279 1.7143928e-38 313 232
-0.0084370393 0.80199999 0.011249386 1.6592922e-38 314 232
-0.0070308661 0.80199999 0.011249386 1.6316694e-38 315 232
-0.0056317062 0.80299997 0.011263412 1.5764259e-38 316 232
-0.0042448197 0.80699998 0.011319519 1.5395476e-38 317 232
-0.0028298798 0.80699998 0.011319519 1.4382416e-38 318 232
-0.0014149399 0.80699998 0.011319519 1.3829244e-38 319 232
0 0.80900002 0.011347573 1.2078994e-38 320 232
0.0014184467 0.80900002 0.011347573 1.0603862e-38 321 232
-0.046140719 0.77399999 0.0094995592 1.4931316e-38 286 233
-0.044783637 0.77399999 0.0094995592 1.6406446e-38 287 233
-0.043426558 0.77399999 0.0094995592 1.7788988e-38 288 233
-0.042069476 0.77399999 0.0094995592 1.8249966e-38 289 233
-0.040712398 0.77399999 0.0094995592 1.916901e-38 290 233
-0.039355319 0.77399999 0.0094995592 1.9261565e-38 291 233
-0.037998237 0.77399999 0.0094995592 1.9353014e-38 292 233
-0.036735836 0.77600002 0.009524107 1.8984591e-38 293 233
-0.035466425 0.778 0.0095486529 1.8710513e-38 294 233
-0.034102332 0.778 0.0095486529 1.8618316e-38 295 233
-0.032864477 0.78100002 0.0095854728 1.8617969e-38 296 233
-0.031495128 0.78100002 0.0095854728 1.8617969e-38 297 233
-0.03020292 0.78299999 0.0096100196 1.8433228e-38 298 233
-0.0289037 0.78500003 0.0096345674 1.8433228e-38 299 233
-0.027527334 0.78500003 0.0096345674 1.8433231e-38 300 233
-0.026217593 0.787 0.0096591124 1.8341035e-38 301 233
-0.024837719 0.787 0.0096591124 1.815736e-38 302 233
-0.023517458 0.78899997 0.0096836593 1.815736e-38 303 233
-0.022134079 0.78899997 0.0096836593 1.7788945e-38 304 233
-0.0207507 0.78899997 0.0096836593 1.7604913e-38 305 233
-0.019391866 0.79000002 0.0096959332 1.7512719e-38 306 233
-0.017983939 0.78899997 0.0096836593 1.7327969e-38 307 233
-0.016600559 0.78899997 0.0096836593 1.6960985e-38 308 233
-0.015217179 0.78899997 0.0096836593 1.6684758e-38 309 233
-0.0138864 0.792 0.0097204801 1.6500379e-38 310 233
-0.012497759 0.792 0.0097204801 1.6223792e-38 311 233
-0.011137174 0.79400003 0.0097450269 1.6224514e-38 312 233
-0.0097695729 0.796 0.0097695729 1.6132318e-38 313 233
-0.0084159998 0.80000001 0.0098186666 1.6132318e-38 314 233
-0.007013333 0.80000001 0.0098186666 1.5763537e-38 315 233
-0.0056317062 0.80299997 0.0098554865 1.5119971e-38 316 233
-0.0042343 0.80500001 0.0098800333 1.4935221e-38 317 233
-0.0028298798 0.80699998 0.0099045793 1.4565716e-38 318 233
-0.0014149399 0.80699998 0.0099045793 1.4381324e-38 319 233
0 0.80699998 0.0099045793 1.3367189e-38 320 233
0.0014184467 0.80900002 0.0099291261 1.1615831e-38 321 233
-0.04866552 0.77100003 0.0081109209 1.7235834e-38 284 234
-0.047313701 0.77100003 0.0081109209 1.7881203e-38 285 234
-0.046081103 0.773 0.0081319595 1.8801699e-38 286 234
-0.044725779 0.773 0.0081319595 1.9354872e-38 287 234
-0.043426558 0.77399999 0.0081424797 1.9080427e-38 288 234
-0.042069476 0.77399999 0.0081424797 1.8712005e-38 289 234
-0.040712398 0.77399999 0.0081424797 1.9169717e-38 290 234
-0.039355319 0.77399999 0.0081424797 1.8985325e-38 291 234
-0.037998237 0.77399999 0.0081424797 1.9077503e-38 292 234
-0.036735836 0.77600002 0.0081635201 1.8985307e-38 293 234
-0.035466425 0.778 0.0081845606 1.8617962e-38 294 234
-0.034102332 0.778 0.0081845606 1.8433931e-38 295 234
-0.032864477 0.78100002 0.0082161194 1.8617969e-38 296 234
-0.031495128 0.78100002 0.0082161194 1.8433578e-38 297 234
-0.03020292 0.78299999 0.0082371598 1.8341035e-38 298 234
-0.028830061 0.78299999 0.0082371598 1.8341035e-38 299 234
-0.027457198 0.78299999 0.0082371598 1.8157007e-38 300 234
-0.026150968 0.78500003 0.0082582003 1.8157007e-38 301 234
-0.0247746 0.78500003 0.0082582003 1.815736e-38 302 234
-0.023457846 0.787 0.0082792398 1.815736e-38 303 234
-0.022077972 0.787 0.0082792398 1.7513793e-38 304 234
-0.0206981 0.787 0.0082792398 1.7052814e-38 305 234
-0.019367319 0.78899997 0.0083002793 1.649784e-38 306 234
-0.017983939 0.78899997 0.0083002793 1.5945025e-38 307 234
-0.016600559 0.78899997 0.0083002793 1.5577331e-38 308 234
-0.015217179 0.78899997 0.0083002793 1.5853918e-38 309 234
-0.013833799 0.78899997 0.0083002793 1.5763906e-38 310 234
-0.01252932 0.79400003 0.0083528794 1.5856101e-38 311 234
-0.011137174 0.79400003 0.0083528794 1.5947228e-38 312 234
-0.0097695729 0.796 0.0083739199 1.5947228e-38 313 234
-0.0083739199 0.796 0.0083739199 1.5486973e-38 314 234
-0.0069957995 0.79799998 0.0083949603 1.530258e-38 315 234
-0.0055966396 0.79799998 0.0083949603 1.5210384e-38 316 234
-0.0042079999 0.80000001 0.0084159998 1.5118189e-38 317 234
-0.0028158531 0.80299997 0.0084475596 1.4567162e-38 318 234
-0.0014149399 0.80699998 0.0084896395 1.4106542e-38 319 234
0 0.80699998 0.0084896395 1.4473164e-38 320 234
0.0014149399 0.80699998 0.0084896395 1.2721806e-38 321 234
0.0028298798 0.80699998 0.0084896395 9.3102536e-39 322 234
-0.051102653 0.76700002 0.006724033 1.6131288e-38 282 235
-0.049757849 0.76700002 0.006724033 1.7052884e-38 283 235
-0.048539277 0.76899999 0.0067415666 1.8618007e-38 284 235
-0.047190964 0.76899999 0.0067415666 1.8618007e-38 285 235
-0.045842651 0.76899999 0.0067415666 1.898497e-38 286 235
-0.044610061 0.77100003 0.0067590997 1.9354112e-38 287 235
-0.043258239 0.77100003 0.0067590997 1.8803805e-38 288 235
-0.042015124 0.773 0.0067766332 1.871161e-38 289 235
-0.0406598 0.773 0.0067766332 1.8986029e-38 290 235
-0.039304473 0.773 0.0067766332 1.8801639e-38 291 235
-0.037949149 0.773 0.0067766332 1.8801639e-38 292 235
-0.036641158 0.77399999 0.0067853997 1.8709443e-38 293 235
-0.035375252 0.77600002 0.0068029333 1.8434654e-38 294 235
-0.034102332 0.778 0.0068204664 1.8342457e-38 295 235
-0.032822397 0.77999997 0.0068379994 1.8158792e-38 296 235
-0.031454798 0.77999997 0.0068379994 1.8066596e-38 297 235
-0.030125774 0.78100002 0.0068467669 1.8065887e-38 298 235
-0.028830061 0.78299999 0.0068642995 1.7973692e-38 299 235
-0.027457198 0.78299999 0.0068642995 1.7881499e-38 300 235
-0.026150968 0.78500003 0.0068818335 1.7881499e-38 301 235
-0.0247746 0.78500003 0.0068818335 1.7788945e-38 302 235
-0.023398234 0.78500003 0.0068818335 1.7604913e-38 303 235
-0.022021867 0.78500003 0.0068818335 1.6960982e-38 304 235
-0.0206981 0.787 0.0068993662 1.6315612e-38 305 235
-0.019318225 0.787 0.0068993662 1.5025583e-38 306 235
-0.017938353 0.787 0.0068993662 1.4103628e-38 307 235
-0.01655848 0.787 0.0068993662 1.4105444e-38 308 235
-0.015178605 0.787 0.0068993662 1.484301e-38 309 235
-0.013833799 0.78899997 0.0069168997 1.5119632e-38 310 235
-0.012497759 0.792 0.0069431998 1.5211828e-38 311 235
-0.011137174 0.79400003 0.0069607338 1.5303673e-38 312 235
-0.0097695729 0.796 0.0069782664 1.5303673e-38 313 235
-0.0083739199 0.796 0.0069782664 1.5486988e-38 314 235
-0.0069957995 0.79799998 0.0069957995 1.5302597e-38 315 235
-0.0055966396 0.79799998 0.0069957995 1.5118912e-38 316 235
-0.0042079999 0.80000001 0.007013333 1.5026716e-38 317 235
-0.0028158531 0.80299997 0.0070396326 1.4843376e-38 318 235
-0.0014149399 0.80699998 0.0070746993 1.4474952e-38 319 235
0 0.80699998 0.0070746993 1.4565713e-38 320 235
0.0014149399 0.80699998 0.0070746993 1.3920343e-38 321 235
0.0028298798 0.80699998 0.0070746993 1.180063e-38 322 235
0.00425534 0.80900002 0.0070922333 1.1247456e-38 323 235
-0.051036026 0.76599997 0.0053722127 1.9079711e-38 282 236
-0.04969297 0.76599997 0.0053722127 1.9171907e-38 283 236
-0.048413042 0.76700002 0.0053792265 1.9539588e-38 284 236
-0.047068235 0.76700002 0.0053792265 1.9171166e-38 285 236
-0.045842651 0.76899999 0.0053932532 1.9170067e-38 286 236
-0.044494338 0.76899999 0.0053932532 1.9170067e-38 287 236
-0.043146025 0.76899999 0.0053932532 1.8895278e-38 288 236
-0.04190642 0.77100003 0.0054072798 1.8803082e-38 289 236
-0.040554602 0.77100003 0.0054072798 1.8802008e-38 290 236
-0.03920278 0.77100003 0.0054072798 1.8709812e-38 291 236
-0.037850961 0.77100003 0.0054072798 1.8617616e-38 292 236
-0.036593821 0.773 0.0054213065 1.8433584e-38 293 236
-0.035238493 0.773 0.0054213065 1.8249553e-38 294 236
-0.033927001 0.77399999 0.0054283198 1.8249553e-38 295 236
-0.032654081 0.77600002 0.0054423464 1.7974045e-38 296 236
-0.031374145 0.778 0.0054563731 1.7974045e-38 297 236
-0.030087199 0.77999997 0.0054703997 1.7973694e-38 298 236
-0.028756421 0.78100002 0.0054774131 1.7881499e-38 299 236
-0.027387068 0.78100002 0.0054774131 1.7788945e-38 300 236
-0.026084339 0.78299999 0.0054914397 1.7604913e-38 301 236
-0.024711479 0.78299999 0.0054914397 1.7328688e-38 302 236
-0.02333862 0.78299999 0.0054914397 1.7052461e-38 303 236
-0.022021867 0.78500003 0.0055054668 1.5948287e-38 304 236
-0.020645501 0.78500003 0.0055054668 1.5302918e-38 305 236
-0.019318225 0.787 0.005519493 1.4196563e-38 306 236
-0.017938353 0.787 0.005519493 1.3551194e-38 307 236
-0.01655848 0.787 0.005519493 1.3460094e-38 308 236
-0.015178605 0.787 0.005519493 1.438205e-38 309 236
-0.013833799 0.78899997 0.0055335197 1.4843772e-38 310 236
-0.012497759 0.792 0.0055545596 1.4935969e-38 311 236
-0.011137174 0.79400003 0.0055685868 1.5211124e-38 312 236
-0.0097695729 0.796 0.0055826134 1.5303679e-38 313 236
-0.0083739199 0.796 0.0055826134 1.5211843e-38 314 236
-0.0069782664 0.796 0.0055826134 1.4935616e-38 315 236
-0.0055966396 0.79799998 0.0055966396 1.5027082e-38 316 236
-0.0041974802 0.79799998 0.0055966396 1.4934886e-38 317 236
-0.0027983198 0.79799998 0.0055966396 1.493559e-38 318 236
-0.0014114333 0.80500001 0.0056457333 1.4567167e-38 319 236
0 0.80699998 0.0056597595 1.3552332e-38 320 236
0.0014149399 0.80699998 0.0056597595 1.4197701e-38 321 236
0.0028298798 0.80699998 0.0056597595 1.5305548e-38 322 236
0.00425534 0.80900002 0.0056737866 1.6319698e-38 323 236
-0.05470575 0.76099998 0.0040028598 1.7328029e-38 279 237
-0.053371463 0.76099998 0.0040028598 1.8801322e-38 280 237
-0.052037176 0.76099998 0.0040028598 1.8985715e-38 281 237
-0.051036026 0.76599997 0.0040291594 1.9354112e-38 282 237
-0.04969297 0.76599997 0.0040291594 1.9446308e-38 283 237
-0.048413042 0.76700002 0.00403442 1.9354463e-38 284 237
-0.047068235 0.76700002 0.00403442 1.9262266e-38 285 237
-0.045723427 0.76700002 0.00403442 1.917007e-38 286 237
-0.04437862 0.76700002 0.00403442 1.917007e-38 287 237
-0.043146025 0.76899999 0.0040449398 1.8801654e-38 288 237
-0.041797712 0.76899999 0.0040449398 1.8801654e-38 289 237
-0.0404494 0.76899999 0.0040449398 1.8709462e-38 290 237
-0.039101087 0.76899999 0.0040449398 1.8433234e-38 291 237
-0.03775277 0.76899999 0.0040449398 1.8340679e-38 292 237
-0.036499143 0.77100003 0.0040554604 1.8340679e-38 293 237
-0.03514732 0.77100003 0.0040554604 1.8157004e-38 294 237
-0.033883166 0.773 0.0040659797 1.8249558e-38 295 237
-0.032527838 0.773 0.0040659797 1.7881499e-38 296 237
-0.031212838 0.77399999 0.0040712398 1.7881499e-38 297 237
-0.03001005 0.778 0.0040922803 1.7605282e-38 298 237
-0.028719598 0.77999997 0.0041027996 1.7513086e-38 299 237
-0.027351998 0.77999997 0.0041027996 1.7144657e-38 300 237
-0.026017714 0.78100002 0.0041080597 1.6960266e-38 301 237
-0.024648361 0.78100002 0.0041080597 1.6317064e-38 302 237
-0.02333862 0.78299999 0.0041185799 1.6132671e-38 303 237
-0.021965759 0.78299999 0.0041185799 1.5304732e-38 304 237
-0.0205929 0.78299999 0.0041185799 1.493559e-38 305 237
-0.019269135 0.78500003 0.0041291001 1.4749408e-38 306 237
-0.017892767 0.78500003 0.0041291001 1.3919646e-38 307 237
-0.016516401 0.78500003 0.0041291001 1.3181371e-38 308 237
-0.015178605 0.787 0.0041396199 1.4011491e-38 309 237
-0.013833799 0.78899997 0.0041501396 1.4843419e-38 310 237
-0.012497759 0.792 0.00416592 1.4935616e-38 311 237
-0.011137174 0.79400003 0.0041764397 1.5119647e-38 312 237
-0.0097695729 0.796 0.0041869599 1.4935616e-38 313 237
-0.0083739199 0.796 0.0041869599 1.4935616e-38 314 237
-0.0069782664 0.796 0.0041869599 1.4935616e-38 315 237
-0.0055826134 0.796 0.0041869599 1.5027085e-38 316 237
-0.0041869599 0.796 0.0041869599 1.4658304e-38 317 237
-0.0027913067 0.796 0.0041869599 1.4473545e-38 318 237
-0.0013956534 0.796 0.0041869599 1.41966e-38 319 237
0 0.77399999 0.0040712398 1.309569e-38 320 237
0.0013570799 0.77399999 0.0040712398 1.4847049e-38 321 237
0.0027141599 0.77399999 0.0040712398 1.696868e-38 322 237
0.0040712398 0.77399999 0.0040712398 1.7983192e-38 323 237
0.0054283198 0.77399999 0.0040712398 1.8257628e-38 324 237
0.0067853997 0.77399999 0.0040712398 1.8073237e-38 325 237
-0.05470575 0.76099998 0.0026685731 1.8617657e-38 279 238
-0.053371463 0.76099998 0.0026685731 1.9353762e-38 280 238
-0.052037176 0.76099998 0.0026685731 1.9445958e-38 281 238
-0.050702889 0.76099998 0.0026685731 1.9261912e-38 282 238
-0.049368605 0.76099998 0.0026685731 1.9354109e-38 283 238
-0.048349917 0.76599997 0.0026861064 1.9445581e-38 284 238
-0.047006864 0.76599997 0.0026861064 1.9261549e-38 285 238
-0.045663811 0.76599997 0.0026861064 1.916972e-38 286 238
-0.044320758 0.76599997 0.0026861064 1.9077165e-38 287 238
-0.043033812 0.76700002 0.0026896133 1.8525796e-38 288 238
-0.041689005 0.76700002 0.0026896133 1.8525796e-38 289 238
-0.0404494 0.76899999 0.0026966266 1.8341404e-38 290 238
-0.039101087 0.76899999 0.0026966266 1.8248849e-38 291 238
-0.03775277 0.76899999 0.0026966266 1.8157007e-38 292 238
-0.036404461 0.76899999 0.0026966266 1.7972976e-38 293 238
-0.035056144 0.76899999 0.0026966266 1.7972976e-38 294 238
-0.033795502 0.77100003 0.0027036399 1.7972976e-38 295 238
-0.032443684 0.77100003 0.0027036399 1.778895e-38 296 238
-0.03117251 0.773 0.0027106532 1.778895e-38 297 238
-0.029855758 0.77399999 0.0027141599 1.7237222e-38 298 238
-0.028572321 0.77600002 0.0027211732 1.705283e-38 299 238
-0.027281865 0.778 0.0027281865 1.6683701e-38 300 238
-0.025984399 0.77999997 0.0027351999 1.6406754e-38 301 238
-0.024648361 0.78100002 0.0027387065 1.5672083e-38 302 238
-0.023279008 0.78100002 0.0027387065 1.5579887e-38 303 238
-0.021909652 0.78100002 0.0027387065 1.5119279e-38 304 238
-0.0205929 0.78299999 0.0027457199 1.5027082e-38 305 238
-0.019220039 0.78299999 0.0027457199 1.4933814e-38 306 238
-0.017847179 0.78299999 0.0027457199 1.4288445e-38 307 238
-0.01647432 0.78299999 0.0027457199 1.2905157e-38 308 238
-0.01510146 0.78299999 0.0027457199 1.3550527e-38 309 238
-0.013798732 0.787 0.0027597465 1.4474281e-38 310 238
-0.012497759 0.792 0.0027772798 1.4843422e-38 311 238
-0.011137174 0.79400003 0.0027842934 1.4934536e-38 312 238
-0.0097450269 0.79400003 0.0027842934 1.4934536e-38 313 238
-0.0083528794 0.79400003 0.0027842934 1.493417e-38 314 238
-0.0069607338 0.79400003 0.0027842934 1.4841975e-38 315 238
-0.0055685868 0.79400003 0.0027842934 1.4566111e-38 316 238
-0.0041764397 0.79400003 0.0027842934 1.4381718e-38 317 238
-0.0027772798 0.792 0.0027772798 1.327682e-38 318 238
-0.0013605866 0.77600002 0.0027211732 1.2999874e-38 319 238
0 0.77399999 0.0027141599 1.4848496e-38 320 238
0.0013570799 0.77399999 0.0027141599 1.6600213e-38 321 238
0.0027141599 0.77399999 0.0027141599 1.862676e-38 322 238
0.0040712398 0.77399999 0.0027141599 1.9179934e-38 323 238
0.0054283198 0.77399999 0.0027141599 1.9178864e-38 324 238
0.0067853997 0.77399999 0.0027141599 1.908631e-38 325 238
-0.058554318 0.759 0.00133078 1.8616588e-38 276 239
-0.05722354 0.759 0.00133078 1.8985012e-38 277 239
-0.055892758 0.759 0.00133078 1.8895302e-38 278 239
-0.054561976 0.759 0.00133078 1.8710909e-38 279 239
-0.053231198 0.759 0.00133078 1.8894928e-38 280 239
-0.051900417 0.759 0.00133078 1.8987123e-38 281 239
-0.050702889 0.76099998 0.0013342865 1.926191e-38 282 239
-0.049368605 0.76099998 0.0013342865 1.926191e-38 283 239
-0.048097439 0.76200002 0.00133604 1.9169714e-38 284 239
-0.046761397 0.76200002 0.00133604 1.9169714e-38 285 239
-0.045425359 0.76200002 0.00133604 1.880166e-38 286 239
-0.044089317 0.76200002 0.00133604 1.8709106e-38 287 239
-0.042865492 0.764 0.0013395466 1.861656e-38 288 239
-0.041634649 0.76599997 0.0013430532 1.8432527e-38 289 239
-0.040344197 0.76700002 0.0013448066 1.8248855e-38 290 239
-0.038999394 0.76700002 0.0013448066 1.8156301e-38 291 239
-0.037654586 0.76700002 0.0013448066 1.815701e-38 292 239
-0.036404461 0.76899999 0.0013483133 1.7880424e-38 293 239
-0.035056144 0.76899999 0.0013483133 1.7788945e-38 294 239
-0.033795502 0.77100003 0.00135182 1.7512716e-38 295 239
-0.032443684 0.77100003 0.00135182 1.7144304e-38 296 239
-0.03117251 0.773 0.0013553266 1.6867717e-38 297 239
-0.029855758 0.77399999 0.0013570799 1.6315993e-38 298 239
-0.028572321 0.77600002 0.0013605866 1.6223798e-38 299 239
-0.027211733 0.77600002 0.0013605866 1.5855029e-38 300 239
-0.025917772 0.778 0.0013640933 1.5762834e-38 301 239
-0.024616797 0.77999997 0.0013675999 1.5487341e-38 302 239
-0.023279008 0.78100002 0.0013693533 1.5395146e-38 303 239
-0.021909652 0.78100002 0.0013693533 1.5027088e-38 304 239
-0.0205929 0.78299999 0.0013728599 1.4750502e-38 305 239
-0.019220039 0.78299999 0.0013728599 1.4658672e-38 306 239
-0.017847179 0.78299999 0.0013728599 1.4105498e-38 307 239
-0.01647432 0.78299999 0.0013728599 1.3550532e-38 308 239
-0.01510146 0.78299999 0.0013728599 1.3365782e-38 309 239
-0.013798732 0.787 0.0013798733 1.3642725e-38 310 239
-0.012497759 0.792 0.0013886399 1.355053e-38 311 239
-0.011137174 0.79400003 0.0013921467 1.3643444e-38 312 239
-0.0097450269 0.79400003 0.0013921467 1.3828195e-38 313 239
-0.0083528794 0.79400003 0.0013921467 1.4011135e-38 314 239
-0.0069607338 0.79400003 0.0013921467 1.3918939e-38 315 239
-0.0055545596 0.792 0.0013886399 1.3734548e-38 316 239
-0.0041554002 0.79000002 0.0013851334 1.3550517e-38 317 239
-0.0027457199 0.78299999 0.0013728599 1.3555947e-38 318 239
-0.0013605866 0.77600002 0.0013605866 1.5307304e-38 319 239
0 0.77399999 0.0013570799 1.8441994e-38 320 239
0.0013570799 0.77399999 0.0013570799 1.8810776e-38 321 239
0.0027141599 0.77399999 0.0013570799 1.8625685e-38 322 239
0.0040712398 0.77399999 0.0013570799 1.8810075e-38 323 239
0.0054283198 0.77399999 0.0013570799 1.8533858e-38 324 239
0.0067853997 0.77399999 0.0013570799 1.8626054e-38 325 239
-0.061722592 0.74900001 -0 1.521078e-38 273 240
-0.060409348 0.74900001 -0 1.7788247e-38 274 240
-0.059175 0.75 -0 1.8710203e-38 275 240
-0.057859998 0.75 -0 1.916972e-38 276 240
-0.056695782 0.75199997 -0 1.916972e-38 277 240
-0.055598196 0.755 -0 1.9168995e-38 278 240
-0.054274432 0.755 -0 1.9168995e-38 279 240
-0.053090934 0.75700003 -0 1.9445578e-38 280 240
-0.051763661 0.75700003 -0 1.9445578e-38 281 240
-0.050436385 0.75700003 -0 1.9261912e-38 282 240
-0.049109112 0.75700003 -0 1.9261912e-38 283 240
-0.047908079 0.759 -0 1.9077521e-38 284 240
-0.046577301 0.759 -0 1.8800936e-38 285 240
-0.045365743 0.76099998 -0 1.8525793e-38 286 240
-0.044031456 0.76099998 -0 1.8433598e-38 287 240
-0.042865492 0.764 -0 1.834105e-38 288 240
-0.041525945 0.764 -0 1.8248855e-38 289 240
-0.040291596 0.76599997 -0 1.7789673e-38 290 240
-0.038948543 0.76599997 -0 1.7789673e-38 291 240
-0.037605491 0.76599997 -0 1.742197e-38 292 240
-0.036309779 0.76700002 -0 1.7329774e-38 293 240
-0.035056144 0.76899999 -0 1.7237222e-38 294 240
-0.033707831 0.76899999 -0 1.6960634e-38 295 240
-0.032443684 0.77100003 -0 1.6683701e-38 296 240
-0.031091858 0.77100003 -0 1.6499309e-38 297 240
-0.029817186 0.773 -0 1.6130909e-38 298 240
-0.028498679 0.77399999 -0 1.5854682e-38 299 240
-0.027211733 0.77600002 -0 1.5579184e-38 300 240
-0.025917772 0.778 -0 1.5394792e-38 301 240
-0.024616797 0.77999997 -0 1.5303676e-38 302 240
-0.023279008 0.78100002 -0 1.521148e-38 303 240
-0.021909652 0.78100002 -0 1.4751224e-38 304 240
-0.0205929 0.78299999 -0 1.4659028e-38 305 240
-0.019220039 0.78299999 -0 1.4105498e-38 306 240
-0.017847179 0.78299999 -0 1.364488e-38 307 240
-0.01647432 0.78299999 -0 1.2997709e-38 308 240
-0.01510146 0.78299999 -0 1.2352339e-38 309 240
-0.013798732 0.787 -0 1.2074678e-38 310 240
-0.0124662 0.79000002 -0 1.2074678e-38 311 240
-0.011109119 0.792 -0 1.1433277e-38 312 240
-0.0097450269 0.79400003 -0 1.2170842e-38 313 240
-0.0083318399 0.792 -0 1.2998452e-38 314 240
-0.0069431998 0.792 -0 1.3182841e-38 315 240
-0.0055545596 0.792 -0 1.3091725e-38 316 240
-0.0041554002 0.79000002 -0 1.364454e-38 317 240
-0.0027457199 0.78299999 -0 1.5949819e-38 318 240
-0.0013605866 0.77600002 -0 1.8162873e-38 319 240
0 0.77399999 -0 1.9638038e-38 320 240
0.0013570799 0.77399999 -0 1.9177061e-38 321 240
0.0027141599 0.77399999 -0 1.8624612e-38 322 240
0.0040712398 0.77399999 -0 1.8716807e-38 323 240
0.0054283198 0.77399999 -0 1.8533139e-38 324 240
-0.061557774 0.74699998 -0.0013097399 1.8434006e-38 273 241
-0.060248036 0.74699998 -0.0013097399 1.9078267e-38 274 241
-0.059096102 0.74900001 -0.0013132467 1.9170462e-38 275 241
-0.057782855 0.74900001 -0.0013132467 1.9078247e-38 276 241
-0.056544997 0.75 -0.001315 1.9078247e-38 277 241
-0.055229999 0.75 -0.001315 1.8986049e-38 278 241
-0.054202545 0.75400001 -0.0013220133 1.9078603e-38 279 241
-0.052950665 0.755 -0.0013237667 1.9445225e-38 280 241
-0.051626898 0.755 -0.0013237667 1.9445225e-38 281 241
-0.050303131 0.755 -0.0013237667 1.9169717e-38 282 241
-0.048979364 0.755 -0.0013237667 1.9077521e-38 283 241
-0.04778184 0.75700003 -0.0013272733 1.8985323e-38 284 241
-0.046454567 0.75700003 -0.0013272733 1.861654e-38 285 241
-0.045246519 0.759 -0.00133078 1.8433234e-38 286 241
-0.043915741 0.759 -0.00133078 1.8340679e-38 287 241
-0.042697169 0.76099998 -0.0013342865 1.8156656e-38 288 241
-0.041417241 0.76200002 -0.00133604 1.8156656e-38 289 241
-0.040081199 0.76200002 -0.00133604 1.797406e-38 290 241
-0.038846854 0.764 -0.0013395466 1.7605638e-38 291 241
-0.037507307 0.764 -0.0013395466 1.7420889e-38 292 241
-0.036262438 0.76599997 -0.0013430532 1.7052108e-38 293 241
-0.034964975 0.76700002 -0.0013448066 1.6500026e-38 294 241
-0.033707831 0.76899999 -0.0013483133 1.6315993e-38 295 241
-0.032359518 0.76899999 -0.0013483133 1.5855032e-38 296 241
-0.031091858 0.77100003 -0.00135182 1.5947228e-38 297 241
-0.029817186 0.773 -0.0013553266 1.5762849e-38 298 241
-0.028498679 0.77399999 -0.0013570799 1.5762849e-38 299 241
-0.027211733 0.77600002 -0.0013605866 1.5211833e-38 300 241
-0.025851147 0.77600002 -0.0013605866 1.5211833e-38 301 241
-0.024553679 0.778 -0.0013640933 1.4935972e-38 302 241
-0.023249198 0.77999997 -0.0013675999 1.4843417e-38 303 241
-0.021909652 0.78100002 -0.0013693533 1.4567202e-38 304 241
-0.0205929 0.78299999 -0.0013728599 1.4382811e-38 305 241
-0.019220039 0.78299999 -0.0013728599 1.2999161e-38 306 241
-0.017847179 0.78299999 -0.0013728599 1.152367e-38 307 241
-0.01647432 0.78299999 -0.0013728599 1.0229319e-38 308 241
-0.01510146 0.78299999 -0.0013728599 8.754189e-39 309 241
-0.013798732 0.787 -0.0013798733 7.9240584e-39 310 241
-0.0124662 0.79000002 -0.0013851334 8.0162554e-39 311 241
-0.011109119 0.792 -0.0013886399 7.3780886e-39 312 241
-0.0097204801 0.792 -0.0013886399 1.0328708e-38 313 241
-0.0083318399 0.792 -0.0013886399 1.2355226e-38 314 241
-0.0069431998 0.792 -0.0013886399 1.3277184e-38 315 241
-0.0055545596 0.792 -0.0013886399 1.4842382e-38 316 241
-0.0041554002 0.79000002 -0.0013851334 1.7055077e-38 317 241
-0.0027702667 0.79000002 -0.0013851334 1.8897949e-38 318 241
-0.062783353 0.74599999 -0.0026159731 1.8340696e-38 272 242
-0.06147537 0.74599999 -0.0026159731 1.8617642e-38 273 242
-0.06016738 0.74599999 -0.0026159731 1.8894209e-38 274 242
-0.058938295 0.74699998 -0.0026194798 1.8894209e-38 275 242
-0.057628557 0.74699998 -0.0026194798 1.8986402e-38 276 242
-0.056469604 0.74900001 -0.0026264933 1.8986402e-38 277 242
-0.055156358 0.74900001 -0.0026264933 1.9445225e-38 278 242
-0.053914998 0.75 -0.00263 1.9445225e-38 279 242
-0.052740261 0.75199997 -0.0026370131 1.9261912e-38 280 242
-0.051558517 0.75400001 -0.0026440267 1.9169717e-38 281 242
-0.050236505 0.75400001 -0.0026440267 1.8894209e-38 282 242
-0.048914492 0.75400001 -0.0026440267 1.8709459e-38 283 242
-0.047655597 0.755 -0.0026475333 1.861691e-38 284 242
-0.04633183 0.755 -0.0026475333 1.8432878e-38 285 242
-0.045127295 0.75700003 -0.0026545466 1.8340685e-38 286 242
-0.043800019 0.75700003 -0.0026545466 1.824813e-38 287 242
-0.042697169 0.76099998 -0.0026685731 1.7973344e-38 288 242
-0.041417241 0.76200002 -0.00267208 1.788079e-38 289 242
-0.040081199 0.76200002 -0.00267208 1.7605638e-38 290 242
-0.038745161 0.76200002 -0.00267208 1.7328691e-38 291 242
-0.037507307 0.764 -0.0026790933 1.6959915e-38 292 242
-0.036262438 0.76599997 -0.0026861064 1.6775165e-38 293 242
-0.034964975 0.76700002 -0.0026896133 1.5948297e-38 294 242
-0.033707831 0.76899999 -0.0026966266 1.6040851e-38 295 242
-0.032359518 0.76899999 -0.0026966266 1.5855401e-38 296 242
-0.031091858 0.77100003 -0.0027036399 1.5763205e-38 297 242
-0.029817186 0.773 -0.0027106532 1.5304029e-38 298 242
-0.028498679 0.77399999 -0.0027141599 1.5304029e-38 299 242
-0.027211733 0.77600002 -0.0027211732 1.5120001e-38 300 242
-0.025851147 0.77600002 -0.0027211732 1.4935969e-38 301 242
-0.024553679 0.778 -0.0027281865 1.4935616e-38 302 242
-0.023249198 0.77999997 -0.0027351999 1.4843419e-38 303 242
-0.021909652 0.78100002 -0.0027387065 1.4473577e-38 304 242
-0.020540299 0.78100002 -0.0027387065 1.4197351e-38 305 242
-0.019220039 0.78299999 -0.0027457199 1.0970869e-38 306 242
-0.017847179 0.78299999 -0.0027457199 8.6659786e-39 307 242
-0.01647432 0.78299999 -0.0027457199 7.2790785e-39 308 242
-0.01510146 0.78299999 -0.0027457199 6.3571222e-39 309 242
-0.013763667 0.78500003 -0.0027527334 4.7959076e-39 310 242
-0.012450419 0.78899997 -0.0027667598 6.8242114e-39 311 242
-0.011109119 0.792 -0.0027772798 8.5734103e-39 312 242
-0.0097204801 0.792 -0.0027772798 1.1984649e-38 313 242
-0.0083318399 0.792 -0.0027772798 1.299917e-38 314 242
-0.0069431998 0.792 -0.0027772798 1.4474659e-38 315 242
-0.0055545596 0.792 -0.0027772798 1.5396295e-38 316 242
-0.063747689 0.74199998 -0.0039029196 1.8157036e-38 271 243
-0.062446713 0.74199998 -0.0039029196 1.8707662e-38 272 243
-0.061310563 0.74400002 -0.0039134403 1.8984251e-38 273 243
-0.060006075 0.74400002 -0.0039134403 1.8801654e-38 274 243
-0.058701597 0.74400002 -0.0039134403 1.8986404e-38 275 243
-0.057551414 0.74599999 -0.0039239596 1.916972e-38 276 243
-0.056318816 0.74699998 -0.0039292197 1.9261915e-38 277 243
-0.055009075 0.74699998 -0.0039292197 1.916972e-38 278 243
-0.053843111 0.74900001 -0.0039397399 1.916972e-38 279 243
-0.0526 0.75 -0.003945 1.9077165e-38 280 243
-0.051284999 0.75 -0.003945 1.898497e-38 281 243
-0.050103247 0.75199997 -0.0039555198 1.8800938e-38 282 243
-0.048784744 0.75199997 -0.0039555198 1.8708743e-38 283 243
-0.04759248 0.75400001 -0.00396604 1.8523994e-38 284 243
-0.046270464 0.75400001 -0.00396604 1.8431799e-38 285 243
-0.045008067 0.755 -0.0039712996 1.8248486e-38 286 243
-0.043684296 0.755 -0.0039712996 1.8156291e-38 287 243
-0.042472746 0.75700003 -0.0039818203 1.7788594e-38 288 243
-0.041362885 0.76099998 -0.0040028598 1.7604563e-38 289 243
-0.040028598 0.76099998 -0.0040028598 1.6960634e-38 290 243
-0.038745161 0.76200002 -0.0040081199 1.6591853e-38 291 243
-0.037409119 0.76200002 -0.0040081199 1.6223798e-38 292 243
-0.036073081 0.76200002 -0.0040081199 1.6223798e-38 293 243
-0.034919381 0.76599997 -0.0040291594 1.5672439e-38 294 243
-0.033620168 0.76700002 -0.00403442 1.5764634e-38 295 243
-0.032359518 0.76899999 -0.0040449398 1.5671732e-38 296 243
-0.031091858 0.77100003 -0.0040554604 1.5579537e-38 297 243
-0.029817186 0.773 -0.0040659797 1.5304392e-38 298 243
-0.028498679 0.77399999 -0.0040712398 1.5212196e-38 299 243
-0.027211733 0.77600002 -0.0040817601 1.5120003e-38 300 243
-0.025851147 0.77600002 -0.0040817601 1.4935972e-38 301 243
-0.024553679 0.778 -0.0040922803 1.5026378e-38 302 243
-0.023249198 0.77999997 -0.0041027996 1.4934183e-38 303 243
-0.021909652 0.78100002 -0.0041080597 1.4104079e-38 304 243
-0.020540299 0.78100002 -0.0041080597 1.3366514e-38 305 243
-0.019220039 0.78299999 -0.0041185799 8.205376e-39 306 243
-0.017847179 0.78299999 -0.0041185799 4.6093863e-39 307 243
-0.01647432 0.78299999 -0.0041185799 4.97745e-39 308 243
-0.015140033 0.78500003 -0.0041291001 4.97745e-39 309 243
-0.013763667 0.78500003 -0.0041291001 4.7966516e-39 310 243
-0.012450419 0.78899997 -0.0041501396 8.5766725e-39 311 243
-0.011109119 0.792 -0.00416592 1.2166185e-38 312 243
-0.0097204801 0.792 -0.00416592 1.3641674e-38 313 243
-0.0083318399 0.792 -0.00416592 1.3920796e-38 314 243
-0.0069431998 0.792 -0.00416592 1.5211535e-38 315 243
-0.064960994 0.741 -0.0051968796 1.7510918e-38 270 244
-0.063661776 0.741 -0.0051968796 1.8340679e-38 271 244
-0.062362559 0.741 -0.0051968796 1.8984601e-38 272 244
-0.061063338 0.741 -0.0051968796 1.9077155e-38 273 244
-0.05984477 0.74199998 -0.0052038929 1.8986755e-38 274 244
-0.058543798 0.74199998 -0.0052038929 1.8986755e-38 275 244
-0.05739712 0.74400002 -0.0052179201 1.9169714e-38 276 244
-0.056092639 0.74400002 -0.0052179201 1.9169714e-38 277 244
-0.054935437 0.74599999 -0.0052319462 1.9169001e-38 278 244
-0.053627454 0.74599999 -0.0052319462 1.9169001e-38 279 244
-0.052389596 0.74699998 -0.0052389596 1.880166e-38 280 244
-0.051216617 0.74900001 -0.0052529867 1.8709106e-38 281 244
-0.04990337 0.74900001 -0.0052529867 1.8616913e-38 282 244
-0.048655 0.75 -0.00526 1.843288e-38 283 244
-0.047466237 0.75199997 -0.0052740262 1.824813e-38 284 244
-0.046270464 0.75400001 -0.0052880533 1.824813e-38 285 244
-0.044948451 0.75400001 -0.0052880533 1.8155935e-38 286 244
-0.043684296 0.755 -0.0052950666 1.8063739e-38 287 244
-0.042360533 0.755 -0.0052950666 1.7237225e-38 288 244
-0.041254178 0.759 -0.0053231199 1.6960278e-38 289 244
-0.040028598 0.76099998 -0.0053371461 1.6500026e-38 290 244
-0.038694311 0.76099998 -0.0053371461 1.6223798e-38 291 244
-0.037409119 0.76200002 -0.0053441599 1.5947584e-38 292 244
-0.036073081 0.76200002 -0.0053441599 1.5947584e-38 293 244
-0.034828212 0.764 -0.0053581866 1.5672088e-38 294 244
-0.033576332 0.76599997 -0.0053722127 1.5672088e-38 295 244
-0.03227536 0.76700002 -0.0053792265 1.5580259e-38 296 244
-0.031011207 0.76899999 -0.0053932532 1.5396227e-38 297 244
-0.029817186 0.773 -0.0054213065 1.5211843e-38 298 244
-0.028498679 0.77399999 -0.0054283198 1.5211843e-38 299 244
-0.027141599 0.77399999 -0.0054283198 1.4935619e-38 300 244
-0.025851147 0.77600002 -0.0054423464 1.4750868e-38 301 244
-0.024553679 0.778 -0.0054563731 1.4473565e-38 302 244
-0.023249198 0.77999997 -0.0054703997 1.3920391e-38 303 244
-0.021909652 0.78100002 -0.0054774131 1.2443106e-38 304 244
-0.020540299 0.78100002 -0.0054774131 1.0783586e-38 305 244
-0.019220039 0.78299999 -0.0054914397 5.3491038e-39 306 244
-0.017847179 0.78299999 -0.0054914397 4.5193431e-39 307 244
-0.01647432 0.78299999 -0.0054914397 6.8249723e-39 308 244
-0.015140033 0.78500003 -0.0055054668 8.3926568e-39 309 244
-0.013798732 0.787 -0.005519493 1.0417358e-38 310 244
-0.012450419 0.78899997 -0.0055335197 1.2169435e-38 311 244
-0.011109119 0.792 -0.0055545596 1.3641324e-38 312 244
-0.0097204801 0.792 -0.0055545596 1.3825717e-38 313 244
-0.0083318399 0.792 -0.0055545596 1.3736053e-38 314 244
-0.064785667 0.73900002 -0.0064785667 1.7971529e-38 270 245
-0.063489959 0.73900002 -0.0064785667 1.861654e-38 271 245
-0.062362559 0.741 -0.0064960998 1.9170064e-38 272 245
-0.061063338 0.741 -0.0064960998 1.9170064e-38 273 245
-0.059764117 0.741 -0.0064960998 1.9170067e-38 274 245
-0.058543798 0.74199998 -0.0065048663 1.9170067e-38 275 245
-0.057242822 0.74199998 -0.0065048663 1.9169714e-38 276 245
-0.05594185 0.74199998 -0.0065048663 1.9077518e-38 277 245
-0.054788161 0.74400002 -0.0065223998 1.8801657e-38 278 245
-0.05348368 0.74400002 -0.0065223998 1.8801657e-38 279 245
-0.052319467 0.74599999 -0.0065399334 1.8434317e-38 280 245
-0.051079858 0.74699998 -0.0065486995 1.8434317e-38 281 245
-0.049770117 0.74699998 -0.0065486995 1.8433598e-38 282 245
-0.048590127 0.74900001 -0.0065662335 1.8341401e-38 283 245
-0.047339998 0.75 -0.006575 1.815701e-38 284 245
-0.046024997 0.75 -0.006575 1.7880424e-38 285 245
-0.044829223 0.75199997 -0.0065925326 1.7605282e-38 286 245
-0.043626439 0.75400001 -0.0066100666 1.7420889e-38 287 245
-0.042360533 0.755 -0.0066188332 1.6869164e-38 288 245
-0.041145474 0.75700003 -0.0066363667 1.6592219e-38 289 245
-0.0399234 0.759 -0.0066538998 1.6040498e-38 290 245
-0.038694311 0.76099998 -0.0066714329 1.5948303e-38 291 245
-0.037360024 0.76099998 -0.0066714329 1.5672083e-38 292 245
-0.036073081 0.76200002 -0.0066801999 1.5672083e-38 293 245
-0.034737039 0.76200002 -0.0066801999 1.5580256e-38 294 245
-0.033488665 0.764 -0.006697733 1.5580256e-38 295 245
-0.03227536 0.76700002 -0.006724033 1.5304395e-38 296 245
-0.031011207 0.76899999 -0.0067415666 1.5212199e-38 297 245
-0.029817186 0.773 -0.0067766332 1.5028534e-38 298 245
-0.028498679 0.77399999 -0.0067853997 1.4844142e-38 299 245
-0.027141599 0.77399999 -0.0067853997 1.4658675e-38 300 245
-0.025851147 0.77600002 -0.0068029333 1.4566479e-38 301 245
-0.024490559 0.77600002 -0.0068029333 1.4104782e-38 302 245
-0.023189586 0.778 -0.0068204664 1.2905879e-38 303 245
-0.021909652 0.78100002 -0.0068467669 1.1244565e-38 304 245
-0.020540299 0.78100002 -0.0068467669 8.8474804e-39 305 245
-0.019220039 0.78299999 -0.0068642995 7.0990187e-39 306 245
-0.017847179 0.78299999 -0.0068642995 7.9287793e-39 307 245
-0.01647432 0.78299999 -0.0068642995 1.0049286e-38 308 245
-0.015140033 0.78500003 -0.0068818335 1.1708447e-38 309 245
-0.013798732 0.787 -0.0068993662 1.3274687e-38 310 245
-0.012450419 0.78899997 -0.0069168997 1.3274687e-38 311 245
-0.011067039 0.78899997 -0.0069168997 1.2997748e-38 312 245
-0.064697996 0.73799998 -0.0077637597 1.8616896e-38 270 246
-0.063404039 0.73799998 -0.0077637597 1.898532e-38 271 246
-0.062110078 0.73799998 -0.0077637597 1.9169717e-38 272 246
-0.060898528 0.73900002 -0.0077742799 1.9169717e-38 273 246
-0.059602812 0.73900002 -0.0077742799 1.8986402e-38 274 246
-0.0584649 0.741 -0.0077953199 1.9078597e-38 275 246
-0.057165679 0.741 -0.0077953199 1.917007e-38 276 246
-0.05594185 0.74199998 -0.0078058392 1.9077874e-38 277 246
-0.054640878 0.74199998 -0.0078058392 1.880201e-38 278 246
-0.053339902 0.74199998 -0.0078058392 1.8709815e-38 279 246
-0.052179199 0.74400002 -0.0078268806 1.8434667e-38 280 246
-0.051011477 0.74599999 -0.0078479191 1.8250636e-38 281 246
-0.04970349 0.74599999 -0.0078479191 1.8250283e-38 282 246
-0.048460379 0.74699998 -0.0078584393 1.8158086e-38 283 246
-0.047276881 0.74900001 -0.0078794798 1.7973341e-38 284 246
-0.045963634 0.74900001 -0.0078794798 1.7881146e-38 285 246
-0.044650383 0.74900001 -0.0078794798 1.7052833e-38 286 246
-0.043394998 0.75 -0.00789 1.6591856e-38 287 246
-0.04219221 0.75199997 -0.0079110395 1.6040851e-38 288 246
-0.041036766 0.755 -0.0079425992 1.5948297e-38 289 246
-0.039818201 0.75700003 -0.0079636406 1.5947593e-38 290 246
-0.038592618 0.759 -0.0079846792 1.5947593e-38 291 246
-0.037360024 0.76099998 -0.0080057196 1.5396943e-38 292 246
-0.036073081 0.76200002 -0.0080162399 1.5396943e-38 293 246
-0.034737039 0.76200002 -0.0080162399 1.5580259e-38 294 246
-0.033401001 0.76200002 -0.0080162399 1.5396227e-38 295 246
-0.032233275 0.76599997 -0.0080583189 1.5304392e-38 296 246
-0.030930554 0.76700002 -0.00806884 1.5212196e-38 297 246
-0.029740039 0.77100003 -0.0081109209 1.4843419e-38 298 246
-0.028498679 0.77399999 -0.0081424797 1.4659028e-38 299 246
-0.027141599 0.77399999 -0.0081424797 1.410478e-38 300 246
-0.025851147 0.77600002 -0.0081635201 1.3367214e-38 301 246
-0.024490559 0.77600002 -0.0081635201 1.2443806e-38 302 246
-0.023189586 0.778 -0.0081845606 1.0784645e-38 303 246
-0.021881599 0.77999997 -0.0082055992 1.0694616e-38 304 246
-0.020513998 0.77999997 -0.0082055992 1.1432181e-38 305 246
-0.019220039 0.78299999 -0.0082371598 1.2170492e-38 306 246
-0.017847179 0.78299999 -0.0082371598 1.2631111e-38 307 246
-0.01647432 0.78299999 -0.0082371598 1.3457277e-38 308 246
-0.015140033 0.78500003 -0.0082582003 1.3365082e-38 309 246
-0.013798732 0.787 -0.0082792398 1.2905176e-38 310 246
-0.012450419 0.78899997 -0.0083002793 1.2444199e-38 311 246
-0.066830046 0.73299998 -0.0089963535 1.8249187e-38 268 247
-0.065544859 0.73299998 -0.0089963535 1.8341383e-38 269 247
-0.064347334 0.73400003 -0.0090086265 1.8801642e-38 270 247
-0.063232213 0.736 -0.0090331733 1.9077869e-38 271 247
-0.061941758 0.736 -0.0090331733 1.9169714e-38 272 247
-0.060651302 0.736 -0.0090331733 1.9169714e-38 273 247
-0.059522156 0.73799998 -0.0090577193 1.9169714e-38 274 247
-0.058228195 0.73799998 -0.0090577193 1.9169714e-38 275 247
-0.056934237 0.73799998 -0.0090577193 1.8986404e-38 276 247
-0.055715673 0.73900002 -0.0090699932 1.8801654e-38 277 247
-0.054419957 0.73900002 -0.0090699932 1.8618342e-38 278 247
-0.053124249 0.73900002 -0.0090699932 1.8526147e-38 279 247
-0.051968798 0.741 -0.0090945391 1.8158806e-38 280 247
-0.050737958 0.74199998 -0.009106813 1.8158806e-38 281 247
-0.04957024 0.74400002 -0.0091313599 1.8158089e-38 282 247
-0.048395503 0.74599999 -0.0091559067 1.8158089e-38 283 247
-0.047150634 0.74699998 -0.0091681797 1.7789676e-38 284 247
-0.045840897 0.74699998 -0.0091681797 1.7328338e-38 285 247
-0.044650383 0.74900001 -0.0091927266 1.6500752e-38 286 247
-0.04333714 0.74900001 -0.0091927266 1.6224164e-38 287 247
-0.04219221 0.75199997 -0.0092295464 1.5947949e-38 288 247
-0.040982414 0.75400001 -0.0092540924 1.5947949e-38 289 247
-0.039712999 0.755 -0.0092663663 1.5764281e-38 290 247
-0.038592618 0.759 -0.00931546 1.5764281e-38 291 247
-0.03726184 0.759 -0.00931546 1.5213628e-38 292 247
-0.036025736 0.76099998 -0.0093400059 1.5213628e-38 293 247
-0.034737039 0.76200002 -0.0093522798 1.5304395e-38 294 247
-0.033401001 0.76200002 -0.0093522798 1.5304395e-38 295 247
-0.032149121 0.764 -0.0093768267 1.5211843e-38 296 247
-0.030930554 0.76700002 -0.0094136465 1.4843419e-38 297 247
-0.02966289 0.76899999 -0.0094381925 1.4750149e-38 298 247
-0.028461859 0.773 -0.0094872871 1.410478e-38 299 247
-0.027141599 0.77399999 -0.0094995592 1.3184621e-38 300 247
-0.025851147 0.77600002 -0.009524107 1.2262665e-38 301 247
-0.024490559 0.77600002 -0.009524107 1.2259791e-38 302 247
-0.023189586 0.778 -0.0095486529 1.1891368e-38 303 247
-0.021881599 0.77999997 -0.0095731998 1.2442753e-38 304 247
-0.020513998 0.77999997 -0.0095731998 1.3088122e-38 305 247
-0.019220039 0.78299999 -0.0096100196 1.3457981e-38 306 247
-0.017892767 0.78500003 -0.0096345674 1.3550176e-38 307 247
-0.016516401 0.78500003 -0.0096345674 1.2722201e-38 308 247
-0.015217179 0.78899997 -0.0096836593 1.2353058e-38 309 247
-0.013833799 0.78899997 -0.0096836593 1.1341444e-38 310 247
-0.068927035 0.72799999 -0.010211413 1.8431801e-38 266 248
-0.067650609 0.72799999 -0.010211413 1.8523997e-38 267 248
-0.066556528 0.73000002 -0.010239467 1.8433584e-38 268 248
-0.0652766 0.73000002 -0.010239467 1.8617616e-38 269 248
-0.064259663 0.73299998 -0.010281546 1.8803082e-38 270 248
-0.062974468 0.73299998 -0.010281546 1.8895278e-38 271 248
-0.061773442 0.73400003 -0.010295574 1.9169717e-38 272 248
-0.060486492 0.73400003 -0.010295574 1.9261912e-38 273 248
-0.059360851 0.736 -0.010323626 1.916972e-38 274 248
-0.058070395 0.736 -0.010323626 1.916972e-38 275 248
-0.056779943 0.736 -0.010323626 1.8893856e-38 276 248
-0.055489492 0.736 -0.010323626 1.880166e-38 277 248
-0.05419904 0.736 -0.010323626 1.8526149e-38 278 248
-0.053052358 0.73799998 -0.010351679 1.8433954e-38 279 248
-0.051758397 0.73799998 -0.010351679 1.8158806e-38 280 248
-0.050532822 0.73900002 -0.010365707 1.7974413e-38 281 248
-0.049436983 0.74199998 -0.010407786 1.7973344e-38 282 248
-0.048265759 0.74400002 -0.01043584 1.788079e-38 283 248
-0.047087517 0.74599999 -0.010463892 1.7421263e-38 284 248
-0.045840897 0.74699998 -0.010477919 1.6775894e-38 285 248
-0.044531155 0.74699998 -0.010477919 1.5764637e-38 286 248
-0.04333714 0.74900001 -0.010505973 1.5764637e-38 287 248
-0.04219221 0.75199997 -0.010548052 1.5763928e-38 288 248
-0.040982414 0.75400001 -0.010576107 1.5763928e-38 289 248
-0.039712999 0.755 -0.010590133 1.5489139e-38 290 248
-0.038490929 0.75700003 -0.010618187 1.5489139e-38 291 248
-0.03726184 0.759 -0.01064624 1.5213275e-38 292 248
-0.036025736 0.76099998 -0.010674292 1.5213275e-38 293 248
-0.034737039 0.76200002 -0.01068832 1.5211843e-38 294 248
-0.033401001 0.76200002 -0.01068832 1.5119647e-38 295 248
-0.032149121 0.764 -0.010716373 1.5027088e-38 296 248
-0.030930554 0.76700002 -0.010758453 1.4750502e-38 297 248
-0.02966289 0.76899999 -0.010786506 1.4381362e-38 298 248
-0.028461859 0.773 -0.010842613 1.336757e-38 299 248
-0.027141599 0.77399999 -0.01085664 1.2170462e-38 300 248
-0.025851147 0.77600002 -0.010884693 1.1525094e-38 301 248
-0.024490559 0.77600002 -0.010884693 1.2720403e-38 302 248
-0.023189586 0.778 -0.010912746 1.3181021e-38 303 248
-0.021881599 0.77999997 -0.010940799 1.3457615e-38 304 248
-0.020513998 0.77999997 -0.010940799 1.3273222e-38 305 248
-0.019220039 0.78299999 -0.010982879 1.2906232e-38 306 248
-0.017938353 0.787 -0.011038986 1.2445255e-38 307 248
-0.01655848 0.787 -0.011038986 1.1891731e-38 308 248
-0.068927035 0.72799999 -0.01148784 1.861654e-38 266 249
-0.067650609 0.72799999 -0.01148784 1.8709096e-38 267 249
-0.066374183 0.72799999 -0.01148784 1.8709809e-38 268 249
-0.065097757 0.72799999 -0.01148784 1.8894559e-38 269 249
-0.063996665 0.73000002 -0.011519399 1.8986758e-38 270 249
-0.062802643 0.73100001 -0.01153518 1.9078953e-38 271 249
-0.061689276 0.73299998 -0.011566739 1.9261915e-38 272 249
-0.060404085 0.73299998 -0.011566739 1.916972e-38 273 249
-0.059199546 0.73400003 -0.011582521 1.9169364e-38 274 249
-0.057912603 0.73400003 -0.011582521 1.9077168e-38 275 249
-0.056625653 0.73400003 -0.011582521 1.8709106e-38 276 249
-0.055338707 0.73400003 -0.011582521 1.8709106e-38 277 249
-0.054051761 0.73400003 -0.011582521 1.8250286e-38 278 249
-0.052908584 0.736 -0.01161408 1.8158089e-38 279 249
-0.051618133 0.736 -0.01161408 1.8065893e-38 280 249
-0.050464436 0.73799998 -0.011645639 1.7973339e-38 281 249
-0.049237106 0.73900002 -0.01166142 1.7605282e-38 282 249
-0.048136011 0.74199998 -0.01170876 1.7420889e-38 283 249
-0.046961278 0.74400002 -0.011740319 1.7052126e-38 284 249
-0.045779534 0.74599999 -0.011771879 1.6498953e-38 285 249
-0.044531155 0.74699998 -0.011787659 1.5855401e-38 286 249
-0.04333714 0.74900001 -0.01181922 1.5947596e-38 287 249
-0.04208 0.75 -0.011835 1.5763931e-38 288 249
-0.040873703 0.75199997 -0.011866559 1.5763931e-38 289 249
-0.039660402 0.75400001 -0.01189812 1.5489139e-38 290 249
-0.038389232 0.755 -0.011913899 1.5396943e-38 291 249
-0.037163652 0.75700003 -0.01194546 1.5304392e-38 292 249
-0.036025736 0.76099998 -0.012008579 1.5212196e-38 293 249
-0.034737039 0.76200002 -0.01202436 1.5119285e-38 294 249
-0.033401001 0.76200002 -0.01202436 1.5027088e-38 295 249
-0.032149121 0.764 -0.01205592 1.4750502e-38 296 249
-0.030890226 0.76599997 -0.012087479 1.4105133e-38 297 249
-0.02966289 0.76899999 -0.012134819 1.4102982e-38 298 249
