# .PCD v.7 - Point Cloud Data file format
FIELDS x y z rgb imX imY
SIZE 4 4 4 4 4 4
TYPE F F F F F F
COUNT 1 1 1 1 1 1
WIDTH 830
HEIGHT 1
VIEWPOINT 0 0 0 1 0 0 0
POINTS 830
DATA ascii
-0.081004001 0.69999999 -0.079776667 1.6774451e-38 254 305
-0.079776667 0.69999999 -0.079776667 1.6958843e-38 255 305
-0.078324907 0.69800001 -0.079548739 1.723506e-38 256 305
-0.076990619 0.69700003 -0.079434767 1.7511287e-38 257 305
-0.075659841 0.69599998 -0.079320796 1.7970826e-38 258 305
-0.074225612 0.69400001 -0.079092868 1.8155219e-38 259 305
-0.072903603 0.69300002 -0.078978904 1.8155582e-38 260 305
-0.07168854 0.69300002 -0.078978904 1.8248136e-38 261 305
-0.070473477 0.69300002 -0.078978904 1.843288e-38 262 305
-0.068958595 0.69 -0.078636996 1.8616913e-38 263 305
-0.0677488 0.69 -0.078636996 1.8709096e-38 264 305
-0.066346131 0.68800002 -0.078409068 1.8801292e-38 265 305
-0.065139838 0.68800002 -0.078409068 1.9076799e-38 266 305
-0.063933544 0.68800002 -0.078409068 1.9168995e-38 267 305
-0.062636077 0.68699998 -0.078295097 1.9444509e-38 268 305
-0.061431535 0.68699998 -0.078295097 1.9536704e-38 269 305
-0.060226995 0.68699998 -0.078295097 1.962962e-38 270 305
-0.059022456 0.68699998 -0.078295097 1.962962e-38 271 305
-0.057817914 0.68699998 -0.078295097 1.9537424e-38 272 305
-0.056530971 0.68599999 -0.078181133 1.9537424e-38 273 305
-0.055328183 0.68599999 -0.078181133 1.9261194e-38 274 305
-0.054125395 0.68599999 -0.078181133 1.9076802e-38 275 305
-0.05292261 0.68599999 -0.078181133 1.8984957e-38 276 305
-0.051719822 0.68599999 -0.078181133 1.8892761e-38 277 305
-0.050517038 0.68599999 -0.078181133 1.8617967e-38 278 305
-0.049386136 0.68699998 -0.078295097 1.8341739e-38 279 305
-0.048111461 0.68599999 -0.078181133 1.8248837e-38 280 305
-0.046908677 0.68599999 -0.078181133 1.8156641e-38 281 305
-0.045705888 0.68599999 -0.078181133 1.7788247e-38 282 305
-0.044503104 0.68599999 -0.078181133 1.7788247e-38 283 305
-0.043300316 0.68599999 -0.078181133 1.7696092e-38 284 305
-0.086281531 0.70300001 -0.081351154 1.3734886e-38 250 306
-0.085048936 0.70300001 -0.081351154 1.4380255e-38 251 306
-0.083577886 0.70099998 -0.081119716 1.5484432e-38 252 306
-0.082348801 0.70099998 -0.081119716 1.6221997e-38 253 306
-0.080772556 0.69800001 -0.080772556 1.6314912e-38 254 306
-0.079548739 0.69800001 -0.080772556 1.6499303e-38 255 306
-0.078212693 0.69700003 -0.080656841 1.6866292e-38 256 306
-0.076990619 0.69700003 -0.080656841 1.7142877e-38 257 306
-0.075659841 0.69599998 -0.080541112 1.7510581e-38 258 306
-0.074225612 0.69400001 -0.080309682 1.7695332e-38 259 306
-0.072903603 0.69300002 -0.080193959 1.7879723e-38 260 306
-0.071481638 0.69099998 -0.079962514 1.7971919e-38 261 306
-0.070270091 0.69099998 -0.079962514 1.8248855e-38 262 306
-0.068958595 0.69 -0.079846799 1.834105e-38 263 306
-0.067552425 0.68800002 -0.079615362 1.861691e-38 264 306
-0.066346131 0.68800002 -0.079615362 1.8709106e-38 265 306
-0.065139838 0.68800002 -0.079615362 1.8709106e-38 266 306
-0.06384062 0.68699998 -0.079499632 1.880166e-38 267 306
-0.062636077 0.68699998 -0.079499632 1.8893503e-38 268 306
-0.061431535 0.68699998 -0.079499632 1.8985698e-38 269 306
-0.060139328 0.68599999 -0.079383917 1.9261565e-38 270 306
-0.058936544 0.68599999 -0.079383917 1.9353762e-38 271 306
-0.057733759 0.68599999 -0.079383917 1.9354112e-38 272 306
-0.056530971 0.68599999 -0.079383917 1.9446308e-38 273 306
-0.055328183 0.68599999 -0.079383917 1.953741e-38 274 306
-0.053967599 0.68400002 -0.07915248 1.9444856e-38 275 306
-0.05276832 0.68400002 -0.07915248 1.9628159e-38 276 306
-0.051719822 0.68599999 -0.079383917 1.9535963e-38 277 306
-0.050517038 0.68599999 -0.079383917 1.9168975e-38 278 306
-0.049170479 0.68400002 -0.07915248 1.8984584e-38 279 306
-0.0479712 0.68400002 -0.07915248 1.8892389e-38 280 306
-0.046771921 0.68400002 -0.07915248 1.8707997e-38 281 306
-0.045572639 0.68400002 -0.07915248 1.8340306e-38 282 306
-0.04437336 0.68400002 -0.07915248 1.8156275e-38 283 306
-0.043174081 0.68400002 -0.07915248 1.7787878e-38 284 306
-0.041974798 0.68400002 -0.07915248 1.7695682e-38 285 306
-0.040775519 0.68400002 -0.07915248 1.7787568e-38 286 306
-0.084806979 0.70099998 -0.082348801 1.3826378e-38 251 307
-0.083577886 0.70099998 -0.082348801 1.4747956e-38 252 307
-0.082231328 0.69999999 -0.082231328 1.5393325e-38 253 307
-0.080772556 0.69800001 -0.081996389 1.6863045e-38 254 307
-0.079548739 0.69800001 -0.081996389 1.7232186e-38 255 307
-0.078212693 0.69700003 -0.081878915 1.7141063e-38 256 307
-0.076880157 0.69599998 -0.081761435 1.7325454e-38 257 307
-0.075442426 0.69400001 -0.081526496 1.7418007e-38 258 307
-0.073904753 0.69099998 -0.081174068 1.7694234e-38 259 307
-0.072693199 0.69099998 -0.081174068 1.7878981e-38 260 307
-0.071378194 0.69 -0.081056595 1.7971176e-38 261 307
-0.070168398 0.69 -0.081056595 1.8338881e-38 262 307
-0.068758719 0.68800002 -0.080821648 1.8523631e-38 263 307
-0.067454241 0.68699998 -0.080704175 1.8799858e-38 264 307
-0.066249698 0.68699998 -0.080704175 1.8892055e-38 265 307
-0.065045156 0.68699998 -0.080704175 1.8984251e-38 266 307
-0.06384062 0.68699998 -0.080704175 1.8984251e-38 267 307
-0.062544905 0.68599999 -0.080586702 1.9076449e-38 268 307
-0.061342116 0.68599999 -0.080586702 1.9168645e-38 269 307
-0.060139328 0.68599999 -0.080586702 1.9444874e-38 270 307
-0.058936544 0.68599999 -0.080586702 1.9444874e-38 271 307
-0.057565439 0.68400002 -0.080351762 1.9354112e-38 272 307
-0.056366164 0.68400002 -0.080351762 1.9354112e-38 273 307
-0.055166878 0.68400002 -0.080351762 1.9446305e-38 274 307
-0.053888701 0.68300003 -0.080234289 1.9261912e-38 275 307
-0.052691177 0.68300003 -0.080234289 1.9445227e-38 276 307
-0.051493648 0.68300003 -0.080234289 1.9169001e-38 277 307
-0.050222475 0.68199998 -0.080116808 1.9077518e-38 278 307
-0.049026705 0.68199998 -0.080116808 1.8801292e-38 279 307
-0.047901068 0.68300003 -0.080234289 1.8526497e-38 280 307
-0.04670354 0.68300003 -0.080234289 1.8434301e-38 281 307
-0.045506012 0.68300003 -0.080234289 1.8249553e-38 282 307
-0.04437336 0.68400002 -0.080351762 1.8157357e-38 283 307
-0.043174081 0.68400002 -0.080351762 1.7972976e-38 284 307
-0.041974798 0.68400002 -0.080351762 1.7972976e-38 285 307
-0.040775519 0.68400002 -0.080351762 1.8155597e-38 286 307
-0.039691959 0.68599999 -0.080586702 1.8248151e-38 287 307
-0.03848917 0.68599999 -0.080586702 1.7604989e-38 288 307
-0.084806979 0.70099998 -0.083577886 1.3548365e-38 251 308
-0.083577886 0.70099998 -0.083577886 1.4195156e-38 252 308
-0.082231328 0.69999999 -0.083458662 1.4656495e-38 253 308
-0.080772556 0.69800001 -0.083220214 1.5668836e-38 254 308
-0.079434767 0.69700003 -0.083100989 1.6037979e-38 255 308
-0.078212693 0.69700003 -0.083100989 1.6589703e-38 256 308
-0.076880157 0.69599998 -0.082981758 1.6681899e-38 257 308
-0.075116299 0.69099998 -0.082385622 1.7049957e-38 258 308
-0.0737978 0.69 -0.082266398 1.7142512e-38 259 308
-0.072587997 0.69 -0.082266398 1.7235423e-38 260 308
-0.071378194 0.69 -0.082266398 1.7327619e-38 261 308
-0.070168398 0.69 -0.082266398 1.7787159e-38 262 308
-0.068758719 0.68800002 -0.082027942 1.8155582e-38 263 308
-0.067454241 0.68699998 -0.081908718 1.8707312e-38 264 308
-0.066249698 0.68699998 -0.081908718 1.8799508e-38 265 308
-0.064950474 0.68599999 -0.081789486 1.8708392e-38 266 308
-0.063747689 0.68599999 -0.081789486 1.8708392e-38 267 308
-0.062362559 0.68400002 -0.081551038 1.8800232e-38 268 308
-0.061163284 0.68400002 -0.081551038 1.8984622e-38 269 308
-0.059964001 0.68400002 -0.081551038 1.9076815e-38 270 308
-0.058764715 0.68400002 -0.081551038 1.9076815e-38 271 308
-0.057481278 0.68300003 -0.081431814 1.9169364e-38 272 308
-0.056201346 0.68199998 -0.081312582 1.9169364e-38 273 308
-0.055005573 0.68199998 -0.081312582 1.9261912e-38 274 308
-0.053888701 0.68300003 -0.081431814 1.9354109e-38 275 308
-0.052614026 0.68199998 -0.081312582 1.9537057e-38 276 308
-0.051418249 0.68199998 -0.081312582 1.9444862e-38 277 308
-0.050222475 0.68199998 -0.081312582 1.9261544e-38 278 308
-0.049026705 0.68199998 -0.081312582 1.9169348e-38 279 308
-0.047830928 0.68199998 -0.081312582 1.8986029e-38 280 308
-0.046635158 0.68199998 -0.081312582 1.8709443e-38 281 308
-0.045439381 0.68199998 -0.081312582 1.8709798e-38 282 308
-0.044243611 0.68199998 -0.081312582 1.8617244e-38 283 308
-0.043047838 0.68199998 -0.081312582 1.8524698e-38 284 308
-0.041852064 0.68199998 -0.081312582 1.8524698e-38 285 308
-0.040656291 0.68199998 -0.081312582 1.8615844e-38 286 308
-0.039691959 0.68599999 -0.081789486 1.8431092e-38 287 308
-0.03848917 0.68599999 -0.081789486 1.7879023e-38 288 308
-0.037286382 0.68599999 -0.081789486 1.7971218e-38 289 308
-0.083577886 0.70099998 -0.084806979 1.3641981e-38 252 309
-0.082231328 0.69999999 -0.084685996 1.4011122e-38 253 309
-0.080772556 0.69800001 -0.084444039 1.4840873e-38 254 309
-0.079434767 0.69700003 -0.084323063 1.5486243e-38 255 309
-0.078100473 0.69599998 -0.084202074 1.6221997e-38 256 309
-0.076327853 0.69099998 -0.083597176 1.6406388e-38 257 309
-0.075116299 0.69099998 -0.083597176 1.6865918e-38 258 309
-0.073583893 0.68800002 -0.083234236 1.6958113e-38 259 309
-0.0723776 0.68800002 -0.083234236 1.7142859e-38 260 309
-0.071171306 0.68800002 -0.083234236 1.732725e-38 261 309
-0.06996502 0.68800002 -0.083234236 1.8062293e-38 262 309
-0.068658777 0.68699998 -0.083113261 1.8246686e-38 263 309
-0.067454241 0.68699998 -0.083113261 1.8431077e-38 264 309
-0.066153266 0.68599999 -0.082992278 1.8707662e-38 265 309
-0.064761117 0.68400002 -0.082750313 1.8523997e-38 266 309
-0.063561834 0.68400002 -0.082750313 1.8616193e-38 267 309
-0.062362559 0.68400002 -0.082750313 1.8891702e-38 268 309
-0.061163284 0.68400002 -0.082750313 1.8983898e-38 269 309
-0.059964001 0.68400002 -0.082750313 1.9076449e-38 270 309
-0.05867881 0.68300003 -0.082629345 1.9076449e-38 271 309
-0.05739712 0.68199998 -0.082508355 1.9076449e-38 272 309
-0.056201346 0.68199998 -0.082508355 1.9168645e-38 273 309
-0.055005573 0.68199998 -0.082508355 1.926084e-38 274 309
-0.053809796 0.68199998 -0.082508355 1.926084e-38 275 309
-0.052614026 0.68199998 -0.082508355 1.9444872e-38 276 309
-0.051418249 0.68199998 -0.082508355 1.9444872e-38 277 309
-0.050075196 0.68000001 -0.082266398 1.9261915e-38 278 309
-0.048882935 0.68000001 -0.082266398 1.916972e-38 279 309
-0.047690667 0.68000001 -0.082266398 1.9169714e-38 280 309
-0.046498399 0.68000001 -0.082266398 1.8985323e-38 281 309
-0.045306131 0.68000001 -0.082266398 1.8984957e-38 282 309
-0.044113863 0.68000001 -0.082266398 1.8892761e-38 283 309
-0.042921599 0.68000001 -0.082266398 1.8800206e-38 284 309
-0.041729335 0.68000001 -0.082266398 1.8800206e-38 285 309
-0.040537067 0.68000001 -0.082266398 1.8706944e-38 286 309
-0.039344799 0.68000001 -0.082266398 1.8706944e-38 287 309
-0.038264744 0.68199998 -0.082508355 1.8338897e-38 288 309
-0.037177678 0.68400002 -0.082750313 1.8338897e-38 289 309
-0.035978399 0.68400002 -0.082750313 1.787902e-38 290 309
-0.083577886 0.70099998 -0.086036064 1.3272122e-38 252 310
-0.082231328 0.69999999 -0.08591333 1.3456872e-38 253 310
-0.080656841 0.69700003 -0.08554513 1.410511e-38 254 310
-0.079320796 0.69599998 -0.085422389 1.475048e-38 255 310
-0.077876054 0.69400001 -0.085176937 1.5761738e-38 256 310
-0.076327853 0.69099998 -0.08480873 1.6038685e-38 257 310
-0.075116299 0.69099998 -0.08480873 1.6589688e-38 258 310
-0.073583893 0.68800002 -0.084440529 1.6865915e-38 259 310
-0.0723776 0.68800002 -0.084440529 1.6958113e-38 260 310
-0.071067855 0.68699998 -0.084317796 1.7142506e-38 261 310
-0.069863312 0.68699998 -0.084317796 1.7509846e-38 262 310
-0.068658777 0.68699998 -0.084317796 1.7786432e-38 263 310
-0.06735605 0.68599999 -0.084195063 1.7787864e-38 264 310
-0.066153266 0.68599999 -0.084195063 1.8156288e-38 265 310
-0.064761117 0.68400002 -0.083949596 1.8431083e-38 266 310
-0.063468911 0.68300003 -0.08382687 1.8707309e-38 267 310
-0.06227139 0.68300003 -0.08382687 1.8523641e-38 268 310
-0.060984433 0.68199998 -0.083704129 1.8616195e-38 269 310
-0.059788663 0.68199998 -0.083704129 1.8983179e-38 270 310
-0.058592889 0.68199998 -0.083704129 1.8983179e-38 271 310
-0.057228796 0.68000001 -0.083458669 1.8892058e-38 272 310
-0.056036532 0.68000001 -0.083458669 1.8892058e-38 273 310
-0.054844268 0.68000001 -0.083458669 1.898497e-38 274 310
-0.053809796 0.68199998 -0.083704129 1.9077165e-38 275 310
-0.052459732 0.68000001 -0.083458669 1.9168645e-38 276 310
-0.051267464 0.68000001 -0.083458669 1.926084e-38 277 310
-0.049927916 0.67799997 -0.083213195 1.9444872e-38 278 310
-0.048739154 0.67799997 -0.083213195 1.926084e-38 279 310
-0.047550395 0.67799997 -0.083213195 1.917007e-38 280 310
-0.046361636 0.67799997 -0.083213195 1.9077874e-38 281 310
-0.045172878 0.67799997 -0.083213195 1.9169704e-38 282 310
-0.043854371 0.676 -0.082967728 1.907715e-38 283 310
-0.042669121 0.676 -0.082967728 1.8984957e-38 284 310
-0.041483864 0.676 -0.082967728 1.8892761e-38 285 310
-0.040417835 0.67799997 -0.083213195 1.8891335e-38 286 310
-0.039229076 0.67799997 -0.083213195 1.8799139e-38 287 310
-0.037928104 0.676 -0.082967728 1.8707309e-38 288 310
-0.036742851 0.676 -0.082967728 1.8523278e-38 289 310
-0.035557602 0.676 -0.082967728 1.8155219e-38 290 310
-0.083458662 0.69999999 -0.087140664 1.3454719e-38 252 311
-0.082231328 0.69999999 -0.087140664 1.3546914e-38 253 311
-0.080541112 0.69599998 -0.08664272 1.3827447e-38 254 311
-0.079092868 0.69400001 -0.086393744 1.4380621e-38 255 311
-0.077763841 0.69300002 -0.086269259 1.5300761e-38 256 311
-0.076327853 0.69099998 -0.086020276 1.5761738e-38 257 311
-0.075116299 0.69099998 -0.086020276 1.6404944e-38 258 311
-0.073476933 0.68699998 -0.085522331 1.6589335e-38 259 311
-0.07227239 0.68699998 -0.085522331 1.649894e-38 260 311
-0.071067855 0.68699998 -0.085522331 1.6682971e-38 261 311
-0.069863312 0.68699998 -0.085522331 1.704996e-38 262 311
-0.068558842 0.68599999 -0.085397847 1.7234351e-38 263 311
-0.06735605 0.68599999 -0.085397847 1.7511287e-38 264 311
-0.066153266 0.68599999 -0.085397847 1.7787875e-38 265 311
-0.064666435 0.68300003 -0.085024394 1.8063386e-38 266 311
-0.063375987 0.68199998 -0.084899902 1.8248136e-38 267 311
-0.062180214 0.68199998 -0.084899902 1.8431092e-38 268 311
-0.060984433 0.68199998 -0.084899902 1.8523647e-38 269 311
-0.059788663 0.68199998 -0.084899902 1.8798789e-38 270 311
-0.058592889 0.68199998 -0.084899902 1.8798789e-38 271 311
-0.057228796 0.68000001 -0.084650926 1.8799861e-38 272 311
-0.056036532 0.68000001 -0.084650926 1.8799861e-38 273 311
-0.054844268 0.68000001 -0.084650926 1.8708743e-38 274 311
-0.053652 0.68000001 -0.084650926 1.898497e-38 275 311
-0.052459732 0.68000001 -0.084650926 1.9076815e-38 276 311
-0.051192071 0.67900002 -0.084526442 1.916901e-38 277 311
-0.049927916 0.67799997 -0.08440195 1.9261565e-38 278 311
-0.048595384 0.676 -0.084152982 1.9261565e-38 279 311
-0.047410134 0.676 -0.084152982 1.9445225e-38 280 311
-0.046224877 0.676 -0.084152982 1.9261194e-38 281 311
-0.045039624 0.676 -0.084152982 1.9261544e-38 282 311
-0.043789499 0.67500001 -0.084028497 1.9261544e-38 283 311
-0.042606 0.67500001 -0.084028497 1.935266e-38 284 311
-0.041422497 0.67500001 -0.084028497 1.9260465e-38 285 311
-0.040238999 0.67500001 -0.084028497 1.9442711e-38 286 311
-0.039113361 0.676 -0.084152982 1.9350515e-38 287 311
-0.037928104 0.676 -0.084152982 1.9074647e-38 288 311
-0.036742851 0.676 -0.084152982 1.8982451e-38 289 311
-0.035557602 0.676 -0.084152982 1.8614745e-38 290 311
-0.034321502 0.67500001 -0.084028497 1.8614745e-38 291 311
-0.033137999 0.67500001 -0.084028497 1.8614395e-38 292 311
-0.081996389 0.69800001 -0.088115521 1.3272498e-38 253 312
-0.080309682 0.69400001 -0.087610558 1.4100438e-38 254 312
-0.078978904 0.69300002 -0.087484315 1.446958e-38 255 312
-0.077539407 0.69099998 -0.087231837 1.4656113e-38 256 312
-0.075996481 0.68800002 -0.086853124 1.5209287e-38 257 312
-0.074681476 0.68699998 -0.086726874 1.5761372e-38 258 312
-0.073476933 0.68699998 -0.086726874 1.5853568e-38 259 312
-0.07227239 0.68699998 -0.086726874 1.649749e-38 260 312
-0.071067855 0.68699998 -0.086726874 1.649749e-38 261 312
-0.069863312 0.68699998 -0.086726874 1.7048508e-38 262 312
-0.068558842 0.68599999 -0.086600631 1.7233258e-38 263 312
-0.06735605 0.68599999 -0.086600631 1.7325451e-38 264 312
-0.0659604 0.68400002 -0.086348161 1.7694234e-38 265 312
-0.064666435 0.68300003 -0.086221918 1.7878628e-38 266 312
-0.063375987 0.68199998 -0.086095676 1.806302e-38 267 312
-0.062180214 0.68199998 -0.086095676 1.8521843e-38 268 312
-0.060984433 0.68199998 -0.086095676 1.8614039e-38 269 312
-0.059788663 0.68199998 -0.086095676 1.8614395e-38 270 312
-0.058592889 0.68199998 -0.086095676 1.870659e-38 271 312
-0.057228796 0.68000001 -0.085843198 1.8523626e-38 272 312
-0.056036532 0.68000001 -0.085843198 1.8708016e-38 273 312
-0.054844268 0.68000001 -0.085843198 1.870909e-38 274 312
-0.053652 0.68000001 -0.085843198 1.8801645e-38 275 312
-0.052382588 0.67900002 -0.085716955 1.9076802e-38 276 312
-0.051116679 0.67799997 -0.085590713 1.9168998e-38 277 312
-0.049780637 0.676 -0.085338242 1.9444511e-38 278 312
-0.048595384 0.676 -0.085338242 1.9444511e-38 279 312
-0.047410134 0.676 -0.085338242 1.9261196e-38 280 312
-0.046224877 0.676 -0.085338242 1.9445227e-38 281 312
-0.045039624 0.676 -0.085338242 1.9537057e-38 282 312
-0.043789499 0.67500001 -0.085212 1.9629254e-38 283 312
-0.042542879 0.67400002 -0.085085757 1.9445578e-38 284 312
-0.041361131 0.67400002 -0.085085757 1.9261547e-38 285 312
-0.040179387 0.67400002 -0.085085757 1.9627458e-38 286 312
-0.03888192 0.67199999 -0.084833272 1.9534904e-38 287 312
-0.037703678 0.67199999 -0.084833272 1.9167563e-38 288 312
-0.036471087 0.671 -0.084707037 1.8983532e-38 289 312
-0.0352946 0.671 -0.084707037 1.870766e-38 290 312
-0.034321502 0.67500001 -0.085212 1.8523628e-38 291 312
-0.033137999 0.67500001 -0.085212 1.8339603e-38 292 312
-0.032001842 0.676 -0.085338242 1.8339603e-38 293 312
-0.078750968 0.69099998 -0.088443391 1.4010043e-38 255 313
-0.077539407 0.69099998 -0.088443391 1.4194432e-38 256 313
-0.075996481 0.68800002 -0.088059418 1.4563214e-38 257 313
-0.074681476 0.68699998 -0.087931409 1.4748665e-38 258 313
-0.073476933 0.68699998 -0.087931409 1.4933056e-38 259 313
-0.07227239 0.68699998 -0.087931409 1.5944321e-38 260 313
-0.071067855 0.68699998 -0.087931409 1.6220548e-38 261 313
-0.069863312 0.68699998 -0.087931409 1.6497142e-38 262 313
-0.068558842 0.68599999 -0.087803423 1.6681533e-38 263 313
-0.067159683 0.68400002 -0.087547436 1.6865217e-38 264 313
-0.0659604 0.68400002 -0.087547436 1.7141805e-38 265 313
-0.064571753 0.68199998 -0.087291449 1.7417669e-38 266 313
-0.063190132 0.68000001 -0.087035462 1.7694256e-38 267 313
-0.061997864 0.68000001 -0.087035462 1.7695329e-38 268 313
-0.0608056 0.68000001 -0.087035462 1.7879721e-38 269 313
-0.059613332 0.68000001 -0.087035462 1.8155584e-38 270 313
-0.058421064 0.68000001 -0.087035462 1.824778e-38 271 313
-0.057144642 0.67900002 -0.086907476 1.8431799e-38 272 313
-0.055954125 0.67900002 -0.086907476 1.8523994e-38 273 313
-0.054763615 0.67900002 -0.086907476 1.8433234e-38 274 313
-0.053573098 0.67900002 -0.086907476 1.8617266e-38 275 313
-0.052151144 0.676 -0.086523488 1.8709109e-38 276 313
-0.050965894 0.676 -0.086523488 1.88935e-38 277 313
-0.049780637 0.676 -0.086523488 1.9076818e-38 278 313
-0.048523501 0.67500001 -0.086395502 1.9169013e-38 279 313
-0.047339998 0.67500001 -0.086395502 1.916901e-38 280 313
-0.0461565 0.67500001 -0.086395502 1.916901e-38 281 313
-0.044972997 0.67500001 -0.086395502 1.9261915e-38 282 313
-0.043724626 0.67400002 -0.086267509 1.9261915e-38 283 313
-0.042416636 0.67199999 -0.086011514 1.9444859e-38 284 313
-0.041238401 0.67199999 -0.086011514 1.9444859e-38 285 313
-0.040060159 0.67199999 -0.086011514 1.9720004e-38 286 313
-0.03888192 0.67199999 -0.086011514 1.9535613e-38 287 313
-0.037703678 0.67199999 -0.086011514 1.9534888e-38 288 313
-0.036471087 0.671 -0.085883528 1.9350495e-38 289 313
-0.0352946 0.671 -0.085883528 1.8983508e-38 290 313
-0.034270655 0.67400002 -0.086267509 1.8983508e-38 291 313
-0.033088908 0.67400002 -0.086267509 1.8707647e-38 292 313
-0.031812478 0.67199999 -0.086011514 1.8707647e-38 293 313
-0.030634239 0.67199999 -0.086011514 1.8615098e-38 294 313
-0.078750968 0.69099998 -0.089654945 1.3733458e-38 255 314
-0.077539407 0.69099998 -0.089654945 1.4285173e-38 256 314
-0.076217398 0.69 -0.0895252 1.4469204e-38 257 314
-0.074681476 0.68699998 -0.089135952 1.5019135e-38 258 314
-0.073476933 0.68699998 -0.089135952 1.3820592e-38 259 314
-0.07227239 0.68699998 -0.089135952 1.410114e-38 260 314
-0.071067855 0.68699998 -0.089135952 1.5391879e-38 261 314
-0.069761619 0.68599999 -0.089006208 1.6036167e-38 262 314
-0.068558842 0.68599999 -0.089006208 1.6404591e-38 263 314
-0.067159683 0.68400002 -0.088746719 1.6772281e-38 264 314
-0.065863967 0.68300003 -0.088616975 1.7048508e-38 265 314
-0.064571753 0.68199998 -0.088487223 1.6682605e-38 266 314
-0.063190132 0.68000001 -0.088227727 1.6959194e-38 267 314
-0.061997864 0.68000001 -0.088227727 1.7326903e-38 268 314
-0.0608056 0.68000001 -0.088227727 1.7695327e-38 269 314
-0.059613332 0.68000001 -0.088227727 1.8339253e-38 270 314
-0.058335152 0.67900002 -0.08809799 1.8339253e-38 271 314
-0.057144642 0.67900002 -0.08809799 1.8523994e-38 272 314
-0.055871718 0.67799997 -0.08796823 1.8523994e-38 273 314
-0.054521654 0.676 -0.087708741 1.8707662e-38 274 314
-0.053336397 0.676 -0.087708741 1.8799858e-38 275 314
-0.052151144 0.676 -0.087708741 1.8799858e-38 276 314
-0.050890498 0.67500001 -0.087578997 1.8984251e-38 277 314
-0.049706999 0.67500001 -0.087578997 1.9076452e-38 278 314
-0.048523501 0.67500001 -0.087578997 1.9076452e-38 279 314
-0.047269866 0.67400002 -0.087449253 1.9351963e-38 280 314
-0.046088122 0.67400002 -0.087449253 1.9351963e-38 281 314
-0.044906374 0.67400002 -0.087449253 1.9168648e-38 282 314
-0.043594878 0.67199999 -0.087189756 1.9260843e-38 283 314
-0.042416636 0.67199999 -0.087189756 1.9536707e-38 284 314
-0.041238401 0.67199999 -0.087189756 1.9536707e-38 285 314
-0.040000543 0.671 -0.087060012 1.9720016e-38 286 314
-0.038824059 0.671 -0.087060012 1.9627821e-38 287 314
-0.037647571 0.671 -0.087060012 1.9168998e-38 288 314
-0.036471087 0.671 -0.087060012 1.9076802e-38 289 314
-0.0352946 0.671 -0.087060012 1.8709459e-38 290 314
-0.034118112 0.671 -0.087060012 1.8617263e-38 291 314
-0.03299072 0.67199999 -0.087189756 1.8616543e-38 292 314
-0.031765141 0.671 -0.087060012 1.8524347e-38 293 314
-0.030588651 0.671 -0.087060012 1.8708016e-38 294 314
-0.029455997 0.67199999 -0.087189756 1.8523626e-38 295 314
-0.028235679 0.671 -0.087060012 1.8432502e-38 296 314
-0.027059194 0.671 -0.087060012 1.8432502e-38 297 314
-0.025882706 0.671 -0.087060012 1.8432149e-38 298 314
-0.024706218 0.671 -0.087060012 1.8432149e-38 299 314
-0.023529733 0.671 -0.087060012 1.8431799e-38 300 314
-0.022386558 0.67199999 -0.087189756 1.8523994e-38 301 314
-0.021208318 0.67199999 -0.087189756 1.8523647e-38 302 314
-0.077539407 0.69099998 -0.090866491 1.3825282e-38 256 315
-0.076217398 0.69 -0.090734996 1.3825282e-38 257 315
-0.075007595 0.69 -0.090734996 1.3916053e-38 258 315
-0.073583893 0.68800002 -0.090471998 1.3639466e-38 259 315
-0.07227239 0.68699998 -0.090340495 1.3177055e-38 260 315
-0.071067855 0.68699998 -0.090340495 1.474474e-38 261 315
-0.069761619 0.68599999 -0.090209 1.5301132e-38 262 315
-0.068358958 0.68400002 -0.089946002 1.5485524e-38 263 315
-0.067061491 0.68300003 -0.089814499 1.6219842e-38 264 315
-0.065767527 0.68199998 -0.089682996 1.6404593e-38 265 315
-0.064571753 0.68199998 -0.089682996 1.6588987e-38 266 315
-0.063190132 0.68000001 -0.089419998 1.6865214e-38 267 315
-0.061997864 0.68000001 -0.089419998 1.7049963e-38 268 315
-0.0608056 0.68000001 -0.089419998 1.7234354e-38 269 315
-0.059525665 0.67900002 -0.089288503 1.760313e-38 270 315
-0.058335152 0.67900002 -0.089288503 1.7787881e-38 271 315
-0.057060476 0.67799997 -0.089156993 1.8063389e-38 272 315
-0.055706903 0.676 -0.088893995 1.8155584e-38 273 315
-0.054521654 0.676 -0.088893995 1.8339253e-38 274 315
-0.053257499 0.67500001 -0.088762499 1.8431448e-38 275 315
-0.052074 0.67500001 -0.088762499 1.8522925e-38 276 315
-0.050890498 0.67500001 -0.088762499 1.8799152e-38 277 315
-0.049633358 0.67400002 -0.088631004 1.8708039e-38 278 315
-0.048451614 0.67400002 -0.088631004 1.8800235e-38 279 315
-0.047269866 0.67400002 -0.088631004 1.898355e-38 280 315
-0.045951359 0.67199999 -0.088367991 1.9075746e-38 281 315
-0.044773117 0.67199999 -0.088367991 1.8984622e-38 282 315
-0.043530006 0.671 -0.088236496 1.9076818e-38 283 315
-0.042353518 0.671 -0.088236496 1.916901e-38 284 315
-0.041177034 0.671 -0.088236496 1.916901e-38 285 315
-0.040000543 0.671 -0.088236496 1.9260843e-38 286 315
-0.038824059 0.671 -0.088236496 1.9260843e-38 287 315
-0.037647571 0.671 -0.088236496 1.9444509e-38 288 315
-0.036416732 0.67000002 -0.088105001 1.9352313e-38 289 315
-0.035241999 0.67000002 -0.088105001 1.9077155e-38 290 315
-0.034118112 0.671 -0.088236496 1.8984601e-38 291 315
-0.032941625 0.671 -0.088236496 1.8984957e-38 292 315
-0.031765141 0.671 -0.088236496 1.8892761e-38 293 315
-0.030588651 0.671 -0.088236496 1.8984591e-38 294 315
-0.029412165 0.671 -0.088236496 1.8892035e-38 295 315
-0.028235679 0.671 -0.088236496 1.8800559e-38 296 315
-0.027059194 0.671 -0.088236496 1.8708363e-38 297 315
-0.025882706 0.671 -0.088236496 1.8799487e-38 298 315
-0.024706218 0.671 -0.088236496 1.8799487e-38 299 315
-0.023529733 0.671 -0.088236496 1.8799139e-38 300 315
-0.022353247 0.671 -0.088236496 1.8799139e-38 301 315
-0.021176759 0.671 -0.088236496 1.8799136e-38 302 315
-0.020000271 0.671 -0.088236496 1.8614745e-38 303 315
-0.018823786 0.671 -0.088236496 1.8339953e-38 304 315
-0.077427194 0.69 -0.091944791 1.3916756e-38 256 316
-0.076217398 0.69 -0.091944791 1.3732365e-38 257 316
-0.075007595 0.69 -0.091944791 1.391603e-38 258 316
-0.073583893 0.68800002 -0.091678292 1.3639803e-38 259 316
-0.07227239 0.68699998 -0.09154503 1.36391e-38 260 316
-0.070964411 0.68599999 -0.091411777 1.3915327e-38 261 316
-0.069761619 0.68599999 -0.091411777 1.401112e-38 262 316
-0.068358958 0.68400002 -0.091145277 1.5025271e-38 263 316
-0.067061491 0.68300003 -0.091012023 1.6034729e-38 264 316
-0.065767527 0.68199998 -0.090878762 1.6311675e-38 265 316
-0.064571753 0.68199998 -0.090878762 1.6404223e-38 266 316
-0.063190132 0.68000001 -0.090612262 1.6680452e-38 267 316
-0.061906695 0.67900002 -0.090479009 1.6864848e-38 268 316
-0.060716182 0.67900002 -0.090479009 1.704924e-38 269 316
-0.059525665 0.67900002 -0.090479009 1.7233623e-38 270 316
-0.058249239 0.67799997 -0.090345755 1.7510568e-38 271 316
-0.056892153 0.676 -0.090079248 1.806194e-38 272 316
-0.0556245 0.67500001 -0.089945994 1.8246333e-38 273 316
-0.054441001 0.67500001 -0.089945994 1.806267e-38 274 316
-0.053257499 0.67500001 -0.089945994 1.8154866e-38 275 316
-0.051996857 0.67400002 -0.089812748 1.8430729e-38 276 316
-0.050815105 0.67400002 -0.089812748 1.8522925e-38 277 316
-0.049486078 0.67199999 -0.089546233 1.8523647e-38 278 316
-0.04830784 0.67199999 -0.089546233 1.8523647e-38 279 316
-0.047129598 0.67199999 -0.089546233 1.8708042e-38 280 316
-0.045951359 0.67199999 -0.089546233 1.8800238e-38 281 316
-0.044706494 0.671 -0.089412987 1.8891708e-38 282 316
-0.043530006 0.671 -0.089412987 1.9076099e-38 283 316
-0.042353518 0.671 -0.089412987 1.9076818e-38 284 316
-0.041177034 0.671 -0.089412987 1.9076818e-38 285 316
-0.040000543 0.671 -0.089412987 1.9168294e-38 286 316
-0.038824059 0.671 -0.089412987 1.9168294e-38 287 316
-0.037591465 0.67000002 -0.089279734 1.9168292e-38 288 316
-0.036416732 0.67000002 -0.089279734 1.9168292e-38 289 316
-0.035241999 0.67000002 -0.089279734 1.9077171e-38 290 316
-0.034067266 0.67000002 -0.089279734 1.8984616e-38 291 316
-0.032892533 0.67000002 -0.089279734 1.898497e-38 292 316
-0.031765141 0.671 -0.089412987 1.8800938e-38 293 316
-0.030543067 0.67000002 -0.089279734 1.8984604e-38 294 316
-0.029368332 0.67000002 -0.089279734 1.8892408e-38 295 316
-0.028235679 0.671 -0.089412987 1.8892756e-38 296 316
-0.027018867 0.67000002 -0.089279734 1.8800559e-38 297 316
-0.025844134 0.67000002 -0.089279734 1.8800559e-38 298 316
-0.024669399 0.67000002 -0.089279734 1.8800559e-38 299 316
-0.023494666 0.67000002 -0.089279734 1.8892041e-38 300 316
-0.022319933 0.67000002 -0.089279734 1.8892041e-38 301 316
-0.0211452 0.67000002 -0.089279734 1.8799489e-38 302 316
-0.019970467 0.67000002 -0.089279734 1.8799489e-38 303 316
-0.018823786 0.671 -0.089412987 1.8523626e-38 304 316
-0.0176473 0.671 -0.089412987 1.8523626e-38 305 316
-0.016446266 0.67000002 -0.089279734 1.8430727e-38 306 316
-0.015271533 0.67000002 -0.089279734 1.8522922e-38 307 316
-0.076217398 0.69 -0.093154602 1.3732731e-38 257 317
-0.074790187 0.68800002 -0.092884585 1.3732362e-38 258 317
-0.073583893 0.68800002 -0.092884585 1.3640166e-38 259 317
-0.07227239 0.68699998 -0.092749573 1.3456501e-38 260 317
-0.070964411 0.68599999 -0.092614569 1.3364305e-38 261 317
-0.069761619 0.68599999 -0.092614569 1.281365e-38 262 317
-0.068358958 0.68400002 -0.092344552 1.38278e-38 263 317
-0.067159683 0.68400002 -0.092344552 1.5298967e-38 264 317
-0.065767527 0.68199998 -0.092074543 1.5575556e-38 265 317
-0.064571753 0.68199998 -0.092074543 1.5944334e-38 266 317
-0.063190132 0.68000001 -0.091804534 1.603653e-38 267 317
-0.061906695 0.67900002 -0.091669522 1.6587903e-38 268 317
-0.060716182 0.67900002 -0.091669522 1.6772653e-38 269 317
-0.059525665 0.67900002 -0.091669522 1.714106e-38 270 317
-0.058249239 0.67799997 -0.09153451 1.7233255e-38 271 317
-0.056892153 0.676 -0.091264501 1.7601313e-38 272 317
-0.0556245 0.67500001 -0.091129504 1.7693868e-38 273 317
-0.054441001 0.67500001 -0.091129504 1.7877909e-38 274 317
-0.053178601 0.67400002 -0.090994492 1.806194e-38 275 317
-0.051996857 0.67400002 -0.090994492 1.8154135e-38 276 317
-0.050664317 0.67199999 -0.090724476 1.8246333e-38 277 317
-0.049486078 0.67199999 -0.090724476 1.8155219e-38 278 317
-0.048235953 0.671 -0.090589471 1.833925e-38 279 317
-0.047059465 0.671 -0.090589471 1.8431448e-38 280 317
-0.045882981 0.671 -0.090589471 1.8523644e-38 281 317
-0.044639867 0.67000002 -0.090454467 1.8706956e-38 282 317
-0.043465134 0.67000002 -0.090454467 1.8799152e-38 283 317
-0.042290401 0.67000002 -0.090454467 1.8891708e-38 284 317
-0.041115668 0.67000002 -0.090454467 1.8891708e-38 285 317
-0.039940935 0.67000002 -0.090454467 1.89839e-38 286 317
-0.038766202 0.67000002 -0.090454467 1.89839e-38 287 317
-0.037591465 0.67000002 -0.090454467 1.9076452e-38 288 317
-0.036308024 0.66799998 -0.090184443 1.9076452e-38 289 317
-0.035136797 0.66799998 -0.090184443 1.9076449e-38 290 317
-0.033965573 0.66799998 -0.090184443 1.9076449e-38 291 317
-0.032892533 0.67000002 -0.090454467 1.9076446e-38 292 317
-0.0317178 0.67000002 -0.090454467 1.9076446e-38 293 317
-0.030451892 0.66799998 -0.090184443 1.9167916e-38 294 317
-0.029280664 0.66799998 -0.090184443 1.9167916e-38 295 317
-0.028109439 0.66799998 -0.090184443 1.8984591e-38 296 317
-0.027018867 0.67000002 -0.090454467 1.8984591e-38 297 317
-0.025844134 0.67000002 -0.090454467 1.889311e-38 298 317
-0.024669399 0.67000002 -0.090454467 1.8985307e-38 299 317
-0.023494666 0.67000002 -0.090454467 1.8984238e-38 300 317
-0.022253305 0.66799998 -0.090184443 1.8984238e-38 301 317
-0.021082079 0.66799998 -0.090184443 1.9350865e-38 302 317
-0.019970467 0.67000002 -0.090454467 1.9166833e-38 303 317
-0.018795732 0.67000002 -0.090454467 1.8799492e-38 304 317
-0.017620999 0.67000002 -0.090454467 1.8799492e-38 305 317
-0.016446266 0.67000002 -0.090454467 1.8523631e-38 306 317
-0.015225946 0.66799998 -0.090184443 1.8707662e-38 307 317
-0.014054719 0.66799998 -0.090184443 1.8431083e-38 308 317
-0.074681476 0.68699998 -0.093954116 1.3640522e-38 258 318
-0.073476933 0.68699998 -0.093954116 1.3547968e-38 259 318
-0.072167195 0.68599999 -0.093817353 1.3547968e-38 260 318
-0.070964411 0.68599999 -0.093817353 1.3455771e-38 261 318
-0.06955824 0.68400002 -0.093543842 1.2904752e-38 262 318
-0.068358958 0.68400002 -0.093543842 1.3273176e-38 263 318
-0.067061491 0.68300003 -0.09340708 1.4102224e-38 264 318
-0.065767527 0.68199998 -0.093270317 1.4747593e-38 265 318
-0.064382397 0.68000001 -0.092996798 1.5575556e-38 266 318
-0.063190132 0.68000001 -0.092996798 1.5851783e-38 267 318
-0.061906695 0.67900002 -0.092860043 1.6219842e-38 268 318
-0.060716182 0.67900002 -0.092860043 1.6312038e-38 269 318
-0.059437994 0.67799997 -0.092723273 1.6496789e-38 270 318
-0.058077414 0.676 -0.092449754 1.6588985e-38 271 318
-0.056808002 0.67500001 -0.092312999 1.6865567e-38 272 318
-0.0556245 0.67500001 -0.092312999 1.6865567e-38 273 318
-0.054360349 0.67400002 -0.092176244 1.7507697e-38 274 318
-0.053178601 0.67400002 -0.092176244 1.7876121e-38 275 318
-0.051842555 0.67199999 -0.091902718 1.7510565e-38 276 318
-0.050588924 0.671 -0.091765963 1.7602761e-38 277 318
-0.049412437 0.671 -0.091765963 1.7878978e-38 278 318
-0.048235953 0.671 -0.091765963 1.7971174e-38 279 318
-0.047059465 0.671 -0.091765963 1.8063023e-38 280 318
-0.0458146 0.67000002 -0.0916292 1.8155219e-38 281 318
-0.044639867 0.67000002 -0.0916292 1.8338544e-38 282 318
-0.043465134 0.67000002 -0.0916292 1.8431098e-38 283 318
-0.042290401 0.67000002 -0.0916292 1.8706603e-38 284 318
-0.041115668 0.67000002 -0.0916292 1.8706603e-38 285 318
-0.039940935 0.67000002 -0.0916292 1.8432531e-38 286 318
-0.038650475 0.66799998 -0.091355674 1.8432531e-38 287 318
-0.037479252 0.66799998 -0.091355674 1.8800235e-38 288 318
-0.036308024 0.66799998 -0.091355674 1.8800235e-38 289 318
-0.035084199 0.667 -0.091218919 1.8800235e-38 290 318
-0.033914726 0.667 -0.091218919 1.8800235e-38 291 318
-0.032794341 0.66799998 -0.091355674 1.8800232e-38 292 318
-0.031623118 0.66799998 -0.091355674 1.8800232e-38 293 318
-0.030451892 0.66799998 -0.091355674 1.8891702e-38 294 318
-0.029236831 0.667 -0.091218919 1.8891702e-38 295 318
-0.028067358 0.667 -0.091218919 1.8892408e-38 296 318
-0.026938211 0.66799998 -0.091355674 1.8984604e-38 297 318
-0.025766984 0.66799998 -0.091355674 1.8801645e-38 298 318
-0.024558939 0.667 -0.091218919 1.8801645e-38 299 318
-0.023389466 0.667 -0.091218919 1.9168272e-38 300 318
-0.02218668 0.66600001 -0.091082163 1.9168272e-38 301 318
-0.02101896 0.66600001 -0.091082163 1.9259749e-38 302 318
-0.019851239 0.66600001 -0.091082163 1.9167553e-38 303 318
-0.018739626 0.66799998 -0.091355674 1.8892038e-38 304 318
-0.017568398 0.66799998 -0.091355674 1.8892038e-38 305 318
-0.016397171 0.66799998 -0.091355674 1.8708013e-38 306 318
-0.015203152 0.667 -0.091218919 1.8708013e-38 307 318
-0.014033679 0.667 -0.091218919 1.8708016e-38 308 318
-0.012864206 0.667 -0.091218919 1.8523626e-38 309 318
-0.011694733 0.667 -0.091218919 1.8523626e-38 310 318
-0.010525259 0.667 -0.091218919 1.8523626e-38 311 318
-0.0093417596 0.66600001 -0.091082163 1.8706941e-38 312 318
-0.0081740404 0.66600001 -0.091082163 1.8706941e-38 313 318
-0.0070168395 0.667 -0.091218919 1.8706956e-38 314 318
-0.0058473665 0.667 -0.091218919 1.8706956e-38 315 318
-0.0046778931 0.667 -0.091218919 1.8430379e-38 316 318
-0.0035084197 0.667 -0.091218919 1.8430379e-38 317 318
-0.0023389466 0.667 -0.091218919 1.8522572e-38 318 318
-0.00116772 0.66600001 -0.091082163 1.8430376e-38 319 318
0 0.66600001 -0.091082163 1.8338183e-38 320 318
0.0023389466 0.667 -0.091218919 1.806413e-38 322 318
0.0035084197 0.667 -0.091218919 1.8432913e-38 323 318
-0.073476933 0.68699998 -0.095158651 1.3456504e-38 259 319
-0.072167195 0.68599999 -0.095020145 1.3547971e-38 260 319
-0.070757523 0.68400002 -0.094743125 1.3455775e-38 261 319
-0.069456547 0.68300003 -0.094604604 1.327174e-38 262 319
-0.068259016 0.68300003 -0.094604604 1.3455771e-38 263 319
-0.0669633 0.68199998 -0.09446609 1.3640166e-38 264 319
-0.065767527 0.68199998 -0.09446609 1.4285536e-38 265 319
-0.064382397 0.68000001 -0.094189063 1.4931258e-38 266 319
-0.063190132 0.68000001 -0.094189063 1.5392235e-38 267 319
-0.061906695 0.67900002 -0.094050556 1.6309508e-38 268 319
-0.060626756 0.67799997 -0.093912028 1.6585735e-38 269 319
-0.059262663 0.676 -0.093635008 1.6495337e-38 270 319
-0.058077414 0.676 -0.093635008 1.6587533e-38 271 319
-0.056808002 0.67500001 -0.093496501 1.6955594e-38 272 319
-0.055542093 0.67400002 -0.093357988 1.6955594e-38 273 319
-0.054360349 0.67400002 -0.093357988 1.7231092e-38 274 319
-0.053020798 0.67199999 -0.093080953 1.7138895e-38 275 319
-0.051842555 0.67199999 -0.093080953 1.6865181e-38 276 319
-0.050588924 0.671 -0.092942439 1.7141766e-38 277 319
-0.049412437 0.671 -0.092942439 1.6958819e-38 278 319
-0.048235953 0.671 -0.092942439 1.7235408e-38 279 319
-0.046989333 0.67000002 -0.092803933 1.7968304e-38 280 319
-0.0458146 0.67000002 -0.092803933 1.8244889e-38 281 319
-0.044639867 0.67000002 -0.092803933 1.8153419e-38 282 319
-0.043465134 0.67000002 -0.092803933 1.8245615e-38 283 319
-0.042290401 0.67000002 -0.092803933 1.8246333e-38 284 319
-0.041115668 0.67000002 -0.092803933 1.8338528e-38 285 319
-0.039762091 0.667 -0.092388391 1.8431083e-38 286 319
-0.038592618 0.667 -0.092388391 1.8431083e-38 287 319
-0.037423145 0.667 -0.092388391 1.8707312e-38 288 319
-0.036253672 0.667 -0.092388391 1.8707312e-38 289 319
-0.035031598 0.66600001 -0.092249878 1.8798786e-38 290 319
-0.03386388 0.66600001 -0.092249878 1.8798786e-38 291 319
-0.032696161 0.66600001 -0.092249878 1.8798786e-38 292 319
-0.031528439 0.66600001 -0.092249878 1.8798786e-38 293 319
-0.030360719 0.66600001 -0.092249878 1.9074297e-38 294 319
-0.029192999 0.66600001 -0.092249878 1.9074297e-38 295 319
-0.028025279 0.66600001 -0.092249878 1.8891338e-38 296 319
-0.026857559 0.66600001 -0.092249878 1.8983535e-38 297 319
-0.02568984 0.66600001 -0.092249878 1.8984251e-38 298 319
-0.02452212 0.66600001 -0.092249878 1.8984251e-38 299 319
-0.023354398 0.66600001 -0.092249878 1.9076802e-38 300 319
-0.02218668 0.66600001 -0.092249878 1.9076802e-38 301 319
-0.020955838 0.66399997 -0.091972843 1.8984604e-38 302 319
-0.019791625 0.66399997 -0.091972843 1.8984604e-38 303 319
-0.018711573 0.667 -0.092388391 1.8892408e-38 304 319
-0.0175421 0.667 -0.092388391 1.8892408e-38 305 319
-0.016372627 0.667 -0.092388391 1.870874e-38 306 319
-0.015203152 0.667 -0.092388391 1.8616543e-38 307 319
-0.014033679 0.667 -0.092388391 1.8799858e-38 308 319
-0.012864206 0.667 -0.092388391 1.8707662e-38 309 319
-0.011677199 0.66600001 -0.092249878 1.870766e-38 310 319
-0.01050948 0.66600001 -0.092249878 1.870766e-38 311 319
-0.0093417596 0.66600001 -0.092249878 1.8707662e-38 312 319
-0.0081863133 0.667 -0.092388391 1.8707662e-38 313 319
-0.0070168395 0.667 -0.092388391 1.8523275e-38 314 319
-0.0058473665 0.667 -0.092388391 1.8523275e-38 315 319
-0.0046428265 0.662 -0.091695823 1.8523994e-38 316 319
-0.0035084197 0.667 -0.092388391 1.8431799e-38 317 319
-0.0023389466 0.667 -0.092388391 1.8523275e-38 318 319
-0.00116772 0.66600001 -0.092249878 1.8523275e-38 319 319
0 0.66600001 -0.092249878 1.8431083e-38 320 319
0.0011642133 0.66399997 -0.091972843 1.8523278e-38 321 319
0.0023284266 0.66399997 -0.091972843 1.8706959e-38 322 319
0.0035031599 0.66600001 -0.092249878 1.8799156e-38 323 319
0.0046708798 0.66600001 -0.092249878 1.8615859e-38 324 319
0.0058385995 0.66600001 -0.092249878 1.8615859e-38 325 319
0.030178372 0.662 -0.091695823 1.7885229e-38 346 319
0.031291738 0.66100001 -0.091557316 1.7885229e-38 347 319
0.032450691 0.66100001 -0.091557316 1.8159665e-38 348 319
-0.073476933 0.68699998 -0.096363194 1.3365024e-38 259 320
-0.072167195 0.68599999 -0.096222922 1.3548324e-38 260 320
-0.070757523 0.68400002 -0.0959424 1.3548324e-38 261 320
-0.069456547 0.68300003 -0.095802136 1.3455771e-38 262 320
-0.068159081 0.68199998 -0.095661856 1.3547968e-38 263 320
-0.0669633 0.68199998 -0.095661856 1.3456854e-38 264 320
-0.065574668 0.68000001 -0.095381334 1.3456854e-38 265 320
-0.064382397 0.68000001 -0.095381334 1.4193693e-38 266 320
-0.063097201 0.67900002 -0.095241062 1.4746866e-38 267 320
-0.061906695 0.67900002 -0.095241062 1.5390792e-38 268 320
-0.060626756 0.67799997 -0.09510079 1.5667377e-38 269 320
-0.059262663 0.676 -0.094820268 1.5851773e-38 270 320
-0.057991501 0.67500001 -0.094679996 1.5943968e-38 271 320
-0.056808002 0.67500001 -0.094679996 1.6035811e-38 272 320
-0.055542093 0.67400002 -0.094539732 1.6035811e-38 273 320
-0.054199036 0.67199999 -0.094259195 1.6219479e-38 274 320
-0.053020798 0.67199999 -0.094259195 1.6219479e-38 275 320
-0.051765412 0.671 -0.09411893 1.6403873e-38 276 320
-0.050588924 0.671 -0.09411893 1.6587906e-38 277 320
-0.049338799 0.67000002 -0.093978666 1.6497142e-38 278 320
-0.048164066 0.67000002 -0.093978666 1.6681533e-38 279 320
-0.046989333 0.67000002 -0.093978666 1.6958464e-38 280 320
-0.0458146 0.67000002 -0.093978666 1.7143215e-38 281 320
-0.044639867 0.67000002 -0.093978666 1.7418017e-38 282 320
-0.04327051 0.667 -0.093557864 1.7510212e-38 283 320
-0.042101037 0.667 -0.093557864 1.7785004e-38 284 320
-0.040931564 0.667 -0.093557864 1.806159e-38 285 320
-0.039762091 0.667 -0.093557864 1.7603132e-38 286 320
-0.038592618 0.667 -0.093557864 1.7695329e-38 287 320
-0.037367038 0.66600001 -0.093417592 1.7879723e-38 288 320
-0.03619932 0.66600001 -0.093417592 1.7879723e-38 289 320
-0.035031598 0.66600001 -0.093417592 1.8154512e-38 290 320
-0.033762183 0.66399997 -0.093137063 1.8338544e-38 291 320
-0.03259797 0.66399997 -0.093137063 1.8338544e-38 292 320
-0.031528439 0.66600001 -0.093417592 1.8431098e-38 293 320
-0.030360719 0.66600001 -0.093417592 1.8430742e-38 294 320
-0.02910533 0.66399997 -0.093137063 1.8522938e-38 295 320
-0.027941117 0.66399997 -0.093137063 1.8706606e-38 296 320
-0.026776904 0.66399997 -0.093137063 1.8798803e-38 297 320
-0.025612691 0.66399997 -0.093137063 1.8708039e-38 298 320
-0.024448479 0.66399997 -0.093137063 1.8800235e-38 299 320
-0.023284266 0.66399997 -0.093137063 1.8800588e-38 300 320
-0.022120051 0.66399997 -0.093137063 1.8800588e-38 301 320
-0.020955838 0.66399997 -0.093137063 1.8800585e-38 302 320
-0.019791625 0.66399997 -0.093137063 1.8800585e-38 303 320
-0.018627413 0.66399997 -0.093137063 1.8708387e-38 304 320
-0.0174632 0.66399997 -0.093137063 1.861619e-38 305 320
-0.016348081 0.66600001 -0.093417592 1.8617266e-38 306 320
-0.01518036 0.66600001 -0.093417592 1.8433234e-38 307 320
-0.014012639 0.66600001 -0.093417592 1.8799489e-38 308 320
-0.012806346 0.66399997 -0.093137063 1.8891685e-38 309 320
-0.011642133 0.66399997 -0.093137063 1.8799843e-38 310 320
-0.010477919 0.66399997 -0.093137063 1.8892038e-38 311 320
-0.0093137063 0.66399997 -0.093137063 1.9074281e-38 312 320
-0.0081863133 0.667 -0.093557864 1.9074281e-38 313 320
-0.0070168395 0.667 -0.093557864 1.8799139e-38 314 320
-0.0058473665 0.667 -0.093557864 1.8799139e-38 315 320
-0.0046428265 0.662 -0.092856526 1.8799136e-38 316 320
-0.0034821199 0.662 -0.092856526 1.8799136e-38 317 320
-0.0023284266 0.66399997 -0.093137063 1.8707662e-38 318 320
-0.0011642133 0.66399997 -0.093137063 1.8523631e-38 319 320
0 0.66299999 -0.092996798 1.8707306e-38 320 320
0.00116246 0.66299999 -0.092996798 1.8707306e-38 321 320
0.0023249199 0.66299999 -0.092996798 1.8707312e-38 322 320
0.0034873798 0.66299999 -0.092996798 1.8799508e-38 323 320
0.0046568532 0.66399997 -0.093137063 1.8615137e-38 324 320
0.0058122999 0.66299999 -0.092996798 1.852294e-38 325 320
0.0069747595 0.66299999 -0.092996798 1.8338544e-38 326 320
0.0081372196 0.66299999 -0.092996798 1.8338544e-38 327 320
0.0092996797 0.66299999 -0.092996798 1.8339253e-38 328 320
0.01046214 0.66299999 -0.092996798 1.8154863e-38 329 320
0.025535546 0.662 -0.092856526 1.7880484e-38 342 320
0.026696252 0.662 -0.092856526 1.797268e-38 343 320
0.027856959 0.662 -0.092856526 1.778938e-38 344 320
0.029017664 0.662 -0.092856526 1.778938e-38 345 320
0.030178372 0.662 -0.092856526 1.806419e-38 346 320
0.031291738 0.66100001 -0.092716269 1.8156387e-38 347 320
0.032450691 0.66100001 -0.092716269 1.8065286e-38 348 320
0.033609647 0.66100001 -0.092716269 1.8434067e-38 349 320
0.0347686 0.66100001 -0.092716269 1.8342967e-38 350 320
-0.073476933 0.68699998 -0.097567737 1.3181374e-38 259 321
-0.072167195 0.68599999 -0.097425714 1.3547974e-38 260 321
-0.070757523 0.68400002 -0.097141676 1.3640169e-38 261 321
-0.069456547 0.68300003 -0.09699966 1.3639803e-38 262 321
-0.068159081 0.68199998 -0.09685763 1.3547248e-38 263 321
-0.0669633 0.68199998 -0.09685763 1.3638364e-38 264 321
-0.065574668 0.68000001 -0.096573599 1.3823116e-38 265 321
-0.064382397 0.68000001 -0.096573599 1.364052e-38 266 321
-0.063097201 0.67900002 -0.096431576 1.4101496e-38 267 321
-0.061906695 0.67900002 -0.096431576 1.4470636e-38 268 321
-0.06044792 0.676 -0.096005514 1.4746863e-38 269 321
-0.059262663 0.676 -0.096005514 1.5298596e-38 270 321
-0.057991501 0.67500001 -0.095863499 1.5390792e-38 271 321
-0.056723841 0.67400002 -0.095721483 1.5850324e-38 272 321
-0.055542093 0.67400002 -0.095721483 1.5942519e-38 273 321
-0.054199036 0.67199999 -0.095437437 1.612511e-38 274 321
-0.052941896 0.671 -0.095295422 1.612511e-38 275 321
-0.051765412 0.671 -0.095295422 1.6217308e-38 276 321
-0.050513536 0.67000002 -0.095153399 1.6309505e-38 277 321
-0.049338799 0.67000002 -0.095153399 1.6035438e-38 278 321
-0.048164066 0.67000002 -0.095153399 1.6312025e-38 279 321
-0.046989333 0.67000002 -0.095153399 1.640387e-38 280 321
-0.045677837 0.66799998 -0.094869353 1.6772653e-38 281 321
-0.044506609 0.66799998 -0.094869353 1.7139635e-38 282 321
-0.04327051 0.667 -0.094727337 1.7232189e-38 283 321
-0.042101037 0.667 -0.094727337 1.7233255e-38 284 321
-0.040870197 0.66600001 -0.094585314 1.7325451e-38 285 321
-0.039702479 0.66600001 -0.094585314 1.7509119e-38 286 321
-0.03853476 0.66600001 -0.094585314 1.7693512e-38 287 321
-0.037367038 0.66600001 -0.094585314 1.778571e-38 288 321
-0.03619932 0.66600001 -0.094585314 1.778571e-38 289 321
-0.0349264 0.66399997 -0.094301268 1.8153417e-38 290 321
-0.033762183 0.66399997 -0.094301268 1.8153417e-38 291 321
-0.03259797 0.66399997 -0.094301268 1.8245615e-38 292 321
-0.031433757 0.66399997 -0.094301268 1.8245615e-38 293 321
-0.030269546 0.66399997 -0.094301268 1.8337459e-38 294 321
-0.02910533 0.66399997 -0.094301268 1.852149e-38 295 321
-0.027899038 0.66299999 -0.094159253 1.8614044e-38 296 321
-0.026736578 0.66299999 -0.094159253 1.8798436e-38 297 321
-0.025574118 0.66299999 -0.094159253 1.8798789e-38 298 321
-0.024411658 0.66299999 -0.094159253 1.8798789e-38 299 321
-0.0232492 0.66299999 -0.094159253 1.8799505e-38 300 321
-0.022053426 0.662 -0.094017237 1.8799505e-38 301 321
-0.020892721 0.662 -0.094017237 1.8799508e-38 302 321
-0.019761819 0.66299999 -0.094159253 1.8891705e-38 303 321
-0.018599359 0.66299999 -0.094159253 1.8799508e-38 304 321
-0.017436899 0.66299999 -0.094159253 1.8799508e-38 305 321
-0.016274439 0.66299999 -0.094159253 1.8799505e-38 306 321
-0.015111978 0.66299999 -0.094159253 1.8799505e-38 307 321
-0.013949519 0.66299999 -0.094159253 1.8800211e-38 308 321
-0.012806346 0.66399997 -0.094301268 1.8708016e-38 309 321
-0.0116246 0.66299999 -0.094159253 1.8892038e-38 310 321
-0.01044636 0.662 -0.094017237 1.8892038e-38 311 321
-0.009285653 0.662 -0.094017237 1.9075353e-38 312 321
-0.0081372196 0.66299999 -0.094159253 1.9075353e-38 313 321
-0.0069747595 0.66299999 -0.094159253 1.8799492e-38 314 321
-0.0058035329 0.662 -0.094017237 1.8799492e-38 315 321
-0.0046428265 0.662 -0.094017237 1.8799858e-38 316 321
-0.0034821199 0.662 -0.094017237 1.8707662e-38 317 321
-0.0023249199 0.66299999 -0.094159253 1.8707306e-38 318 321
-0.00116246 0.66299999 -0.094159253 1.8707306e-38 319 321
0 0.662 -0.094017237 1.870766e-38 320 321
0.0011607066 0.662 -0.094017237 1.870766e-38 321 321
0.0023214133 0.662 -0.094017237 1.8523628e-38 322 321
0.0034873798 0.66299999 -0.094159253 1.870766e-38 323 321
0.0046498398 0.66299999 -0.094159253 1.8523631e-38 324 321
0.0058122999 0.66299999 -0.094159253 1.8523631e-38 325 321
0.0069747595 0.66299999 -0.094159253 1.8431083e-38 326 321
0.0081372196 0.66299999 -0.094159253 1.8523278e-38 327 321
