# .PCD v.7 - Point Cloud Data file format
FIELDS x y z rgb imX imY
SIZE 4 4 4 4 4 4
TYPE F F F F F F
COUNT 1 1 1 1 1 1
WIDTH 842
HEIGHT 1
VIEWPOINT 0 0 0 1 0 0 0
POINTS 842
DATA ascii
0.048602402 0.69300002 -0.029161438 1.7327975e-38 360 264
0.049817458 0.69300002 -0.029161438 1.7327975e-38 361 264
0.051032521 0.69300002 -0.029161438 1.6959565e-38 362 264
0.052322973 0.69400001 -0.029203519 1.6867011e-38 363 264
0.053694077 0.69599998 -0.029287677 1.6499323e-38 364 264
0.054914396 0.69599998 -0.029287677 1.631529e-38 365 264
0.056134716 0.69599998 -0.029287677 1.6222741e-38 366 264
0.057355035 0.69599998 -0.029287677 1.6130546e-38 367 264
0.058743682 0.69800001 -0.029371841 1.5762483e-38 368 264
0.059967503 0.69800001 -0.029371841 1.5578092e-38 369 264
0.061366666 0.69999999 -0.029455997 1.5485192e-38 370 264
0.062862262 0.70300001 -0.029582238 1.511641e-38 371 264
0.022753006 0.68300003 -0.029938167 1.7422785e-38 339 265
0.023915464 0.68199998 -0.029894331 1.7973048e-38 340 265
0.025111238 0.68199998 -0.029894331 1.7696822e-38 341 265
0.026229866 0.68000001 -0.029806666 1.7788973e-38 342 265
0.027422134 0.68000001 -0.029806666 1.7788973e-38 343 265
0.028614398 0.68000001 -0.029806666 1.7972976e-38 344 265
0.029894331 0.68199998 -0.029894331 1.8341398e-38 345 265
0.031135695 0.68300003 -0.029938167 1.8341751e-38 346 265
0.032333218 0.68300003 -0.029938167 1.8433948e-38 347 265
0.033579841 0.68400002 -0.029982001 1.8433228e-38 348 265
0.034880809 0.68599999 -0.030069664 1.8709815e-38 349 265
0.036083598 0.68599999 -0.030069664 1.8617266e-38 350 265
0.037286382 0.68599999 -0.030069664 1.8617266e-38 351 265
0.03848917 0.68599999 -0.030069664 1.8340685e-38 352 265
0.039691959 0.68599999 -0.030069664 1.8340685e-38 353 265
0.040954359 0.68699998 -0.030113498 1.824813e-38 354 265
0.042158898 0.68699998 -0.030113498 1.8155935e-38 355 265
0.043363437 0.68699998 -0.030113498 1.8063739e-38 356 265
0.044567976 0.68699998 -0.030113498 1.7787511e-38 357 265
0.045772515 0.68699998 -0.030113498 1.7695678e-38 358 265
0.046977058 0.68699998 -0.030113498 1.7511287e-38 359 265
0.048391998 0.69 -0.030244999 1.7327622e-38 360 265
0.049601797 0.69 -0.030244999 1.7235426e-38 361 265
0.050885238 0.69099998 -0.030288832 1.6867016e-38 362 265
0.05224758 0.69300002 -0.0303765 1.6774462e-38 363 265
0.053462639 0.69300002 -0.0303765 1.6314935e-38 364 265
0.054756597 0.69400001 -0.030420333 1.6222738e-38 365 265
0.055973411 0.69400001 -0.030420333 1.594688e-38 366 265
0.057355035 0.69599998 -0.030507999 1.5854685e-38 367 265
0.05865952 0.69700003 -0.030551834 1.5577742e-38 368 265
0.059967503 0.69800001 -0.030595668 1.5485186e-38 369 265
0.061366666 0.69999999 -0.030683333 1.5208959e-38 370 265
0.062862262 0.70300001 -0.030814834 1.5116764e-38 371 265
0.064368367 0.70599997 -0.030946331 1.3827858e-38 372 265
0.02158704 0.68400002 -0.03118128 1.7881556e-38 338 266
0.022753006 0.68300003 -0.031135695 1.7328383e-38 339 266
0.023845334 0.68000001 -0.030998932 1.8063392e-38 340 266
0.025037598 0.68000001 -0.030998932 1.8155587e-38 341 266
0.026229866 0.68000001 -0.030998932 1.7972623e-38 342 266
0.027422134 0.68000001 -0.030998932 1.8341404e-38 343 266
0.028614398 0.68000001 -0.030998932 1.8433228e-38 344 266
0.029894331 0.68199998 -0.031090107 1.861726e-38 345 266
0.031090107 0.68199998 -0.031090107 1.8709809e-38 346 266
0.032333218 0.68300003 -0.031135695 1.8709809e-38 347 266
0.033530746 0.68300003 -0.031135695 1.8709459e-38 348 266
0.03477912 0.68400002 -0.03118128 1.8617263e-38 349 266
0.036083598 0.68599999 -0.031272452 1.8616913e-38 350 266
0.037177678 0.68400002 -0.03118128 1.843288e-38 351 266
0.038376961 0.68400002 -0.03118128 1.8248849e-38 352 266
0.039691959 0.68599999 -0.031272452 1.8156654e-38 353 266
0.040894743 0.68599999 -0.031272452 1.7972625e-38 354 266
0.042097531 0.68599999 -0.031272452 1.7787875e-38 355 266
0.043300316 0.68599999 -0.031272452 1.7695329e-38 356 266
0.044503104 0.68599999 -0.031272452 1.7603132e-38 357 266
0.045772515 0.68699998 -0.031318039 1.7143956e-38 358 266
0.046977058 0.68699998 -0.031318039 1.7143956e-38 359 266
0.048251733 0.68800002 -0.031363625 1.67759e-38 360 266
0.049458027 0.68800002 -0.031363625 1.6683345e-38 361 266
0.050664321 0.68800002 -0.031363625 1.6498602e-38 362 266
0.052021399 0.69 -0.031454802 1.6498602e-38 363 266
0.053308345 0.69099998 -0.031500384 1.6130909e-38 364 266
0.054677699 0.69300002 -0.031591557 1.5854682e-38 365 266
0.055892758 0.69300002 -0.031591557 1.5579174e-38 366 266
0.057190225 0.69400001 -0.031637147 1.5302227e-38 367 266
0.05865952 0.69700003 -0.03177391 1.5302227e-38 368 266
0.05988159 0.69700003 -0.03177391 1.5117836e-38 369 266
0.061366666 0.69999999 -0.031910665 1.4841253e-38 370 266
0.063130513 0.70599997 -0.032184184 1.465686e-38 371 266
0.064368367 0.70599997 -0.032184184 1.3457984e-38 372 266
0.065606222 0.70599997 -0.032184184 1.4195549e-38 373 266
0.011764866 0.671 -0.031765141 1.8251845e-38 330 267
0.012922067 0.67000002 -0.0317178 1.815965e-38 331 267
0.014054719 0.66799998 -0.031623118 1.8158907e-38 332 267
0.015203152 0.667 -0.03157578 1.7974516e-38 333 267
0.016372627 0.667 -0.03157578 1.8065966e-38 334 267
0.017620999 0.67000002 -0.0317178 1.7604989e-38 335 267
0.018795732 0.67000002 -0.0317178 1.7970865e-38 336 267
0.020000271 0.671 -0.031765141 1.7970865e-38 337 267
0.021176759 0.671 -0.031765141 1.815595e-38 338 267
0.022386558 0.67199999 -0.031812478 1.8340702e-38 339 267
0.023669999 0.67500001 -0.031954501 1.8341401e-38 340 267
0.0248535 0.67500001 -0.031954501 1.8341401e-38 341 267
0.026037 0.67500001 -0.031954501 1.8341751e-38 342 267
0.027260827 0.676 -0.032001842 1.8433948e-38 343 267
0.028446076 0.676 -0.032001842 1.8434304e-38 344 267
0.029806666 0.68000001 -0.032191198 1.8434304e-38 345 267
0.031090107 0.68199998 -0.032285877 1.8617266e-38 346 267
0.032285877 0.68199998 -0.032285877 1.8709462e-38 347 267
0.03348165 0.68199998 -0.032285877 1.8616913e-38 348 267
0.034728274 0.68300003 -0.032333218 1.843288e-38 349 267
0.035925802 0.68300003 -0.032333218 1.8340685e-38 350 267
0.037123326 0.68300003 -0.032333218 1.8340685e-38 351 267
0.038320854 0.68300003 -0.032333218 1.8155935e-38 352 267
0.039518382 0.68300003 -0.032333218 1.8063739e-38 353 267
0.040775519 0.68400002 -0.032380559 1.7787508e-38 354 267
0.041974798 0.68400002 -0.032380559 1.7695313e-38 355 267
0.043174081 0.68400002 -0.032380559 1.7510931e-38 356 267
0.04437336 0.68400002 -0.032380559 1.73269e-38 357 267
0.045705888 0.68599999 -0.032475237 1.7326552e-38 358 267
0.046977058 0.68699998 -0.032522578 1.7234357e-38 359 267
0.048181597 0.68699998 -0.032522578 1.6683345e-38 360 267
0.049458027 0.68800002 -0.032569919 1.659115e-38 361 267
0.050664321 0.68800002 -0.032569919 1.6406404e-38 362 267
0.052021399 0.69 -0.032664597 1.6314208e-38 363 267
0.053231198 0.69 -0.032664597 1.5855035e-38 364 267
0.054519895 0.69099998 -0.032711938 1.5762839e-38 365 267
0.055731449 0.69099998 -0.032711938 1.5485895e-38 366 267
0.057107817 0.69300002 -0.03280662 1.4840526e-38 367 267
0.058575355 0.69599998 -0.032948639 1.4657578e-38 368 267
0.05988159 0.69700003 -0.03299598 1.4473545e-38 369 267
0.061366666 0.69999999 -0.033137999 1.4379915e-38 370 267
0.063130513 0.70599997 -0.033422034 1.4103688e-38 371 267
0.064368367 0.70599997 -0.033422034 1.382317e-38 372 267
0.065606222 0.70599997 -0.033422034 1.4560735e-38 373 267
0.01058838 0.671 -0.032941625 1.8160006e-38 329 268
0.011764866 0.671 -0.032941625 1.8434771e-38 330 268
0.012883492 0.66799998 -0.032794341 1.806599e-38 331 268
0.014054719 0.66799998 -0.032794341 1.8341461e-38 332 268
0.015203152 0.667 -0.032745253 1.797268e-38 333 268
0.016372627 0.667 -0.032745253 1.7972635e-38 334 268
0.017620999 0.67000002 -0.032892533 1.7604213e-38 335 268
0.018795732 0.67000002 -0.032892533 1.7971891e-38 336 268
0.020000271 0.671 -0.032941625 1.8156641e-38 337 268
0.021176759 0.671 -0.032941625 1.8341385e-38 338 268
0.022353247 0.671 -0.032941625 1.8433581e-38 339 268
0.023564799 0.67199999 -0.03299072 1.8433581e-38 340 268
0.024816679 0.67400002 -0.033088908 1.8617614e-38 341 268
0.025998428 0.67400002 -0.033088908 1.8433581e-38 342 268
0.027220501 0.67500001 -0.033137999 1.8617614e-38 343 268
0.028404001 0.67500001 -0.033137999 1.8433948e-38 344 268
0.0295875 0.67500001 -0.033137999 1.8433948e-38 345 268
0.030998932 0.68000001 -0.033383466 1.843288e-38 346 268
0.032191198 0.68000001 -0.033383466 1.843288e-38 347 268
0.033383466 0.68000001 -0.033383466 1.8248855e-38 348 268
0.034677424 0.68199998 -0.03348165 1.8156301e-38 349 268
0.035873197 0.68199998 -0.03348165 1.7972269e-38 350 268
0.037068974 0.68199998 -0.03348165 1.7880074e-38 351 268
0.038264744 0.68199998 -0.03348165 1.7604913e-38 352 268
0.039460517 0.68199998 -0.03348165 1.7236129e-38 353 268
0.040715907 0.68300003 -0.033530746 1.7511637e-38 354 268
0.041913435 0.68300003 -0.033530746 1.7327606e-38 355 268
0.043174081 0.68400002 -0.033579841 1.6959562e-38 356 268
0.04437336 0.68400002 -0.033579841 1.6867367e-38 357 268
0.045705888 0.68599999 -0.033678025 1.659115e-38 358 268
0.046908677 0.68599999 -0.033678025 1.6498953e-38 359 268
0.048181597 0.68699998 -0.033727121 1.6315643e-38 360 268
0.049386136 0.68699998 -0.033727121 1.6223089e-38 361 268
0.050664321 0.68800002 -0.033776212 1.5947228e-38 362 268
0.051870614 0.68800002 -0.033776212 1.5855032e-38 363 268
0.053076908 0.68800002 -0.033776212 1.5670285e-38 364 268
0.054440998 0.69 -0.0338744 1.5578089e-38 365 268
0.055731449 0.69099998 -0.033923492 1.5485176e-38 366 268
0.056942999 0.69099998 -0.033923492 1.4655057e-38 367 268
0.058575355 0.69599998 -0.034168959 1.4011488e-38 368 268
0.05988159 0.69700003 -0.034218054 1.3734901e-38 369 268
0.06145433 0.70099998 -0.034414422 1.3367565e-38 370 268
0.062951677 0.704 -0.034561705 1.3367565e-38 371 268
0.064186029 0.704 -0.034561705 1.2538551e-38 372 268
0.065420374 0.704 -0.034561705 1.3552344e-38 373 268
0.01058838 0.671 -0.034118112 1.7788286e-38 329 269
0.011764866 0.671 -0.034118112 1.7971216e-38 330 269
0.012883492 0.66799998 -0.033965573 1.7971216e-38 331 269
0.014054719 0.66799998 -0.033965573 1.7971919e-38 332 269
0.015225946 0.66799998 -0.033965573 1.8248146e-38 333 269
0.016397171 0.66799998 -0.033965573 1.861656e-38 334 269
0.017620999 0.67000002 -0.034067266 1.8432527e-38 335 269
0.018795732 0.67000002 -0.034067266 1.8433231e-38 336 269
0.020000271 0.671 -0.034118112 1.8617263e-38 337 269
0.021176759 0.671 -0.034118112 1.8617614e-38 338 269
0.022353247 0.671 -0.034118112 1.8617614e-38 339 269
0.023564799 0.67199999 -0.034168959 1.8617614e-38 340 269
0.024816679 0.67400002 -0.034270655 1.8617614e-38 341 269
0.025998428 0.67400002 -0.034270655 1.8433584e-38 342 269
0.027180174 0.67400002 -0.034270655 1.8617616e-38 343 269
0.028404001 0.67500001 -0.034321502 1.8340679e-38 344 269
0.0295875 0.67500001 -0.034321502 1.8340679e-38 345 269
0.030771 0.67500001 -0.034321502 1.8248486e-38 346 269
0.031954501 0.67500001 -0.034321502 1.8248486e-38 347 269
0.033137999 0.67500001 -0.034321502 1.7880427e-38 348 269
0.034372345 0.676 -0.034372345 1.7880427e-38 349 269
0.035767999 0.68000001 -0.034575731 1.7604566e-38 350 269
0.036960267 0.68000001 -0.034575731 1.751237e-38 351 269
0.038152531 0.68000001 -0.034575731 1.7327975e-38 352 269
0.039344799 0.68000001 -0.034575731 1.6866998e-38 353 269
0.040656291 0.68199998 -0.034677424 1.6867001e-38 354 269
0.041852064 0.68199998 -0.034677424 1.6867001e-38 355 269
0.043110959 0.68300003 -0.034728274 1.6591503e-38 356 269
0.044308487 0.68300003 -0.034728274 1.6499306e-38 357 269
0.045572639 0.68400002 -0.03477912 1.6223445e-38 358 269
0.046908677 0.68599999 -0.034880809 1.6223445e-38 359 269
0.048111461 0.68599999 -0.034880809 1.6130896e-38 360 269
0.049386136 0.68699998 -0.034931656 1.60387e-38 361 269
0.050590675 0.68699998 -0.034931656 1.5762834e-38 362 269
0.051795214 0.68699998 -0.034931656 1.5670638e-38 363 269
0.053076908 0.68800002 -0.03498251 1.5486245e-38 364 269
0.054283202 0.68800002 -0.03498251 1.5302214e-38 365 269
0.055650797 0.69 -0.035084199 1.5025637e-38 366 269
0.056942999 0.69099998 -0.035135046 1.3827094e-38 367 269
0.058575355 0.69599998 -0.035389278 1.2812949e-38 368 269
0.05988159 0.69700003 -0.035440128 1.2259775e-38 369 269
0.06145433 0.70099998 -0.035643511 1.2538173e-38 370 269
0.062951677 0.704 -0.035796054 1.2999511e-38 371 269
0.064186029 0.704 -0.035796054 1.2446368e-38 372 269
0.065420374 0.704 -0.035796054 1.3644911e-38 373 269
0.0081249457 0.662 -0.034821201 1.8248172e-38 327 270
0.009285653 0.662 -0.034821201 1.8339981e-38 328 270
0.01058838 0.671 -0.0352946 1.8247427e-38 329 270
0.011764866 0.671 -0.0352946 1.8156285e-38 330 270
0.012922067 0.67000002 -0.035241999 1.8248839e-38 331 270
0.014096799 0.67000002 -0.035241999 1.8341032e-38 332 270
0.015225946 0.66799998 -0.035136797 1.861726e-38 333 270
0.016397171 0.66799998 -0.035136797 1.861726e-38 334 270
0.0176473 0.671 -0.0352946 1.861726e-38 335 270
0.018823786 0.671 -0.0352946 1.8801292e-38 336 270
0.020000271 0.671 -0.0352946 1.8801292e-38 337 270
0.021176759 0.671 -0.0352946 1.8617616e-38 338 270
0.022353247 0.671 -0.0352946 1.8709812e-38 339 270
0.023529733 0.671 -0.0352946 1.8433584e-38 340 270
0.024743039 0.67199999 -0.035347197 1.8433584e-38 341 270
0.025921278 0.67199999 -0.035347197 1.8341388e-38 342 270
0.027099518 0.67199999 -0.035347197 1.8341388e-38 343 270
0.02836192 0.67400002 -0.035452399 1.8340679e-38 344 270
0.029543666 0.67400002 -0.035452399 1.8156288e-38 345 270
0.030725412 0.67400002 -0.035452399 1.7788584e-38 346 270
0.03190716 0.67400002 -0.035452399 1.7788584e-38 347 270
0.033137999 0.67500001 -0.035505001 1.7696034e-38 348 270
0.034321502 0.67500001 -0.035505001 1.760348e-38 349 270
0.0356628 0.67799997 -0.0356628 1.7327619e-38 350 270
0.036905911 0.67900002 -0.035715401 1.7235423e-38 351 270
0.038096428 0.67900002 -0.035715401 1.7142509e-38 352 270
0.039344799 0.68000001 -0.035767999 1.7050313e-38 353 270
0.040537067 0.68000001 -0.035767999 1.6774451e-38 354 270
0.041852064 0.68199998 -0.035873197 1.6682255e-38 355 270
0.043047838 0.68199998 -0.035873197 1.6131246e-38 356 270
0.044243611 0.68199998 -0.035873197 1.6039051e-38 357 270
0.045439381 0.68199998 -0.035873197 1.6038695e-38 358 270
0.046771921 0.68400002 -0.035978399 1.6038695e-38 359 270
0.0479712 0.68400002 -0.035978399 1.5946502e-38 360 270
0.049314249 0.68599999 -0.036083598 1.5854306e-38 361 270
0.050517038 0.68599999 -0.036083598 1.5670271e-38 362 270
0.051719822 0.68599999 -0.036083598 1.548588e-38 363 270
0.05292261 0.68599999 -0.036083598 1.5117817e-38 364 270
0.054204296 0.68699998 -0.036136195 1.4841229e-38 365 270
0.055408835 0.68699998 -0.036136195 1.4747608e-38 366 270
0.056695789 0.68800002 -0.0361888 1.3733458e-38 367 270
0.058575355 0.69599998 -0.036609598 1.2720396e-38 368 270
0.05988159 0.69700003 -0.036662199 1.2536005e-38 369 270
0.06145433 0.70099998 -0.036872596 1.2720413e-38 370 270
0.062862262 0.70300001 -0.036977798 1.3089554e-38 371 270
0.064094849 0.70300001 -0.036977798 1.2630045e-38 372 270
0.065327443 0.70300001 -0.036977798 1.4104815e-38 373 270
-0.0093417596 0.66600001 -0.03619932 1.8804666e-38 312 271
-0.0081740404 0.66600001 -0.03619932 1.8620275e-38 313 271
-0.0070063197 0.66600001 -0.03619932 1.8620258e-38 314 271
0.0034821199 0.662 -0.035981905 1.7971544e-38 323 271
0.0046428265 0.662 -0.035981905 1.8063023e-38 324 271
0.0058035329 0.662 -0.035981905 1.833925e-38 325 271
0.0069747595 0.66299999 -0.036036257 1.8523647e-38 326 271
0.0081249457 0.662 -0.035981905 1.8708039e-38 327 271
0.009285653 0.662 -0.035981905 1.8800941e-38 328 271
0.01044636 0.662 -0.035981905 1.8800941e-38 329 271
0.011642133 0.66399997 -0.036090612 1.870909e-38 330 271
0.012806346 0.66399997 -0.036090612 1.870909e-38 331 271
0.014054719 0.66799998 -0.036308024 1.8709443e-38 332 271
0.015225946 0.66799998 -0.036308024 1.8709443e-38 333 271
0.016397171 0.66799998 -0.036308024 1.8709446e-38 334 271
0.017620999 0.67000002 -0.036416732 1.8801642e-38 335 271
0.018795732 0.67000002 -0.036416732 1.8709815e-38 336 271
0.019970467 0.67000002 -0.036416732 1.861726e-38 337 271
0.0211452 0.67000002 -0.036416732 1.8526147e-38 338 271
0.022319933 0.67000002 -0.036416732 1.8433951e-38 339 271
0.023529733 0.671 -0.036471087 1.8249556e-38 340 271
0.024706218 0.671 -0.036471087 1.8249556e-38 341 271
0.025882706 0.671 -0.036471087 1.8157357e-38 342 271
0.027099518 0.67199999 -0.036525436 1.7973326e-38 343 271
0.02827776 0.67199999 -0.036525436 1.7881143e-38 344 271
0.029455997 0.67199999 -0.036525436 1.7604916e-38 345 271
0.030634239 0.67199999 -0.036525436 1.7603836e-38 346 271
0.03190716 0.67400002 -0.036634147 1.7603836e-38 347 271
0.033088908 0.67400002 -0.036634147 1.7327972e-38 348 271
0.034270655 0.67400002 -0.036634147 1.7235776e-38 349 271
0.035505001 0.67500001 -0.036688499 1.714323e-38 350 271
0.036851559 0.67799997 -0.036851559 1.6958841e-38 351 271
0.038096428 0.67900002 -0.036905911 1.695776e-38 352 271
0.039286941 0.67900002 -0.036905911 1.6681533e-38 353 271
0.040477451 0.67900002 -0.036905911 1.6314196e-38 354 271
0.041729335 0.68000001 -0.036960267 1.6314196e-38 355 271
0.042921599 0.68000001 -0.036960267 1.5946499e-38 356 271
0.044113863 0.68000001 -0.036960267 1.5854303e-38 357 271
0.045439381 0.68199998 -0.037068974 1.585395e-38 358 271
0.04670354 0.68300003 -0.037123326 1.5669918e-38 359 271
0.047901068 0.68300003 -0.037123326 1.5577725e-38 360 271
0.049170479 0.68400002 -0.037177678 1.5577725e-38 361 271
0.050369758 0.68400002 -0.037177678 1.5485527e-38 362 271
0.051569041 0.68400002 -0.037177678 1.5301135e-38 363 271
0.05292261 0.68599999 -0.037286382 1.4657208e-38 364 271
0.054125395 0.68599999 -0.037286382 1.4104035e-38 365 271
0.055408835 0.68699998 -0.037340738 1.437775e-38 366 271
0.056695789 0.68800002 -0.037395094 1.3824576e-38 367 271
0.058575355 0.69599998 -0.037829921 1.2813665e-38 368 271
0.05988159 0.69700003 -0.037884273 1.2537437e-38 369 271
0.061629668 0.70300001 -0.038210396 1.2537101e-38 370 271
0.062862262 0.70300001 -0.038210396 1.2721851e-38 371 271
0.064094849 0.70300001 -0.038210396 1.2999189e-38 372 271
-0.010525259 0.667 -0.037423145 1.8342222e-38 311 272
-0.0093417596 0.66600001 -0.037367038 1.8249652e-38 312 272
-0.0081372196 0.66299999 -0.037198719 1.8065261e-38 313 272
-0.0069747595 0.66299999 -0.037198719 1.8064525e-38 314 272
-0.0058122999 0.66299999 -0.037198719 1.7880134e-38 315 272
-0.0046708798 0.66600001 -0.037367038 1.8063431e-38 316 272
-0.0035031599 0.66600001 -0.037367038 1.8155626e-38 317 272
-0.0023354399 0.66600001 -0.037367038 1.8064133e-38 318 272
-0.00116772 0.66600001 -0.037367038 1.815633e-38 319 272
0.0011712266 0.66799998 -0.037479252 1.8156303e-38 321 272
0.0023389466 0.667 -0.037423145 1.8156641e-38 322 272
0.0034821199 0.662 -0.037142612 1.8248837e-38 323 272
0.0046428265 0.662 -0.037142612 1.8433581e-38 324 272
0.0058122999 0.66299999 -0.037198719 1.8433581e-38 325 272
0.0069747595 0.66299999 -0.037198719 1.8709446e-38 326 272
0.0081372196 0.66299999 -0.037198719 1.8801642e-38 327 272
0.009285653 0.662 -0.037142612 1.898531e-38 328 272
0.01044636 0.662 -0.037142612 1.8892756e-38 329 272
0.0116246 0.66299999 -0.037198719 1.8986029e-38 330 272
0.012806346 0.66399997 -0.037254825 1.8801639e-38 331 272
0.014033679 0.667 -0.037423145 1.8801645e-38 332 272
0.015203152 0.667 -0.037423145 1.870909e-38 333 272
0.016372627 0.667 -0.037423145 1.8892405e-38 334 272
0.017568398 0.66799998 -0.037479252 1.8892405e-38 335 272
0.018795732 0.67000002 -0.037591465 1.8617266e-38 336 272
0.019970467 0.67000002 -0.037591465 1.8433234e-38 337 272
0.0211452 0.67000002 -0.037591465 1.8432878e-38 338 272
0.022319933 0.67000002 -0.037591465 1.8340682e-38 339 272
0.023494666 0.67000002 -0.037591465 1.8156288e-38 340 272
0.024706218 0.671 -0.037647571 1.8156288e-38 341 272
0.025882706 0.671 -0.037647571 1.8063727e-38 342 272
0.027059194 0.671 -0.037647571 1.7971529e-38 343 272
0.028235679 0.671 -0.037647571 1.7695666e-38 344 272
0.029455997 0.67199999 -0.037703678 1.760347e-38 345 272
0.030634239 0.67199999 -0.037703678 1.7142859e-38 346 272
0.031812478 0.67199999 -0.037703678 1.7235055e-38 347 272
0.03299072 0.67199999 -0.037703678 1.7326174e-38 348 272
0.034168959 0.67199999 -0.037703678 1.7326174e-38 349 272
0.035452399 0.67400002 -0.037815895 1.6958113e-38 350 272
0.036742851 0.676 -0.037928104 1.6865918e-38 351 272
0.038096428 0.67900002 -0.038096428 1.6497861e-38 352 272
0.039286941 0.67900002 -0.038096428 1.6313471e-38 353 272
0.040477451 0.67900002 -0.038096428 1.6129446e-38 354 272
0.041729335 0.68000001 -0.038152531 1.6037249e-38 355 272
0.042921599 0.68000001 -0.038152531 1.5853939e-38 356 272
0.044113863 0.68000001 -0.038152531 1.5761385e-38 357 272
0.045439381 0.68199998 -0.038264744 1.5760669e-38 358 272
0.046635158 0.68199998 -0.038264744 1.5576277e-38 359 272
0.047830928 0.68199998 -0.038264744 1.575959e-38 360 272
0.049098592 0.68300003 -0.038320854 1.5575559e-38 361 272
0.05029612 0.68300003 -0.038320854 1.5300414e-38 362 272
0.051569041 0.68400002 -0.038376961 1.5300414e-38 363 272
0.05276832 0.68400002 -0.038376961 1.43817e-38 364 272
0.054125395 0.68599999 -0.03848917 1.3459385e-38 365 272
0.055328183 0.68599999 -0.03848917 1.3917129e-38 366 272
0.056530971 0.68599999 -0.03848917 1.3732377e-38 367 272
0.057902083 0.68800002 -0.038601387 1.290658e-38 368 272
0.060482983 0.704 -0.039499093 1.2630353e-38 369 272
0.061717331 0.704 -0.039499093 1.2262662e-38 370 272
0.062862262 0.70300001 -0.039442986 1.2262662e-38 371 272
-0.012748486 0.66100001 -0.038245458 1.7973402e-38 309 273
-0.011589534 0.66100001 -0.038245458 1.815633e-38 310 273
-0.01044636 0.662 -0.038303319 1.7879742e-38 311 273
-0.009285653 0.662 -0.038303319 1.8063742e-38 312 273
-0.0081372196 0.66299999 -0.038361177 1.7971546e-38 313 273
-0.0069642398 0.662 -0.038303319 1.8062646e-38 314 273
-0.0058035329 0.662 -0.038303319 1.8062646e-38 315 273
-0.0046428265 0.662 -0.038303319 1.8154836e-38 316 273
-0.00347686 0.66100001 -0.038245458 1.8247392e-38 317 273
-0.0023179066 0.66100001 -0.038245458 1.8339232e-38 318 273
-0.0011642133 0.66399997 -0.038419038 1.8431786e-38 319 273
0 0.66600001 -0.03853476 1.8616896e-38 320 273
0.00116772 0.66600001 -0.03853476 1.8616896e-38 321 273
0.0023354399 0.66600001 -0.03853476 1.8800561e-38 322 273
0.0034821199 0.662 -0.038303319 1.8892759e-38 323 273
0.0046428265 0.662 -0.038303319 1.8709798e-38 324 273
0.0058122999 0.66299999 -0.038361177 1.8801995e-38 325 273
0.0069747595 0.66299999 -0.038361177 1.8709443e-38 326 273
0.0081372196 0.66299999 -0.038361177 1.8709443e-38 327 273
0.0092996797 0.66299999 -0.038361177 1.8892761e-38 328 273
0.01046214 0.66299999 -0.038361177 1.8984957e-38 329 273
0.0116246 0.66299999 -0.038361177 1.8709815e-38 330 273
0.012787059 0.66299999 -0.038361177 1.861726e-38 331 273
0.014012639 0.66600001 -0.03853476 1.8617263e-38 332 273
0.015203152 0.667 -0.038592618 1.8617263e-38 333 273
0.016372627 0.667 -0.038592618 1.8249205e-38 334 273
0.0175421 0.667 -0.038592618 1.8341401e-38 335 273
0.018739626 0.66799998 -0.038650475 1.8341048e-38 336 273
0.019910853 0.66799998 -0.038650475 1.8248852e-38 337 273
0.021082079 0.66799998 -0.038650475 1.8248136e-38 338 273
0.022253305 0.66799998 -0.038650475 1.8063386e-38 339 273
0.023424532 0.66799998 -0.038650475 1.7880424e-38 340 273
0.024669399 0.67000002 -0.038766202 1.7603836e-38 341 273
0.025844134 0.67000002 -0.038766202 1.7603818e-38 342 273
0.027059194 0.671 -0.038824059 1.7511622e-38 343 273
0.028235679 0.671 -0.038824059 1.7143934e-38 344 273
0.029412165 0.671 -0.038824059 1.7143934e-38 345 273
0.030634239 0.67199999 -0.03888192 1.6774815e-38 346 273
0.031812478 0.67199999 -0.03888192 1.6682618e-38 347 273
0.03299072 0.67199999 -0.03888192 1.6682621e-38 348 273
0.034168959 0.67199999 -0.03888192 1.649859e-38 349 273
0.035347197 0.67199999 -0.03888192 1.6314196e-38 350 273
0.036634147 0.67400002 -0.038997639 1.6221641e-38 351 273
0.037928104 0.676 -0.039113361 1.6221641e-38 352 273
0.039113361 0.676 -0.039113361 1.6129446e-38 353 273
0.040417835 0.67799997 -0.039229076 1.5854659e-38 354 273
0.041606598 0.67799997 -0.039229076 1.5578072e-38 355 273
0.042858478 0.67900002 -0.039286941 1.5393678e-38 356 273
0.044113863 0.68000001 -0.039344799 1.5025255e-38 357 273
0.045306131 0.68000001 -0.039344799 1.4840858e-38 358 273
0.046498399 0.68000001 -0.039344799 1.4748662e-38 359 273
0.047830928 0.68199998 -0.039460517 1.4748309e-38 360 273
0.049026705 0.68199998 -0.039460517 1.4840505e-38 361 273
0.050222475 0.68199998 -0.039460517 1.484052e-38 362 273
0.051569041 0.68400002 -0.03957624 1.4656489e-38 363 273
0.05276832 0.68400002 -0.03957624 1.3829262e-38 364 273
0.054125395 0.68599999 -0.039691959 1.3276088e-38 365 273
0.055328183 0.68599999 -0.039691959 1.3641278e-38 366 273
0.056695789 0.68800002 -0.039807681 1.3365049e-38 367 273
0.057902083 0.68800002 -0.039807681 1.2906582e-38 368 273
0.059108373 0.68800002 -0.039807681 1.2906582e-38 369 273
0.060314666 0.68800002 -0.039807681 1.2171545e-38 370 273
-0.093635008 0.676 -0.040298611 1.8162912e-38 241 274
-0.092449754 0.676 -0.040298611 1.8346224e-38 242 274
-0.091264501 0.676 -0.040298611 1.8530974e-38 243 274
-0.090079248 0.676 -0.040298611 1.8531327e-38 244 274
-0.088631004 0.67400002 -0.040179387 1.8531327e-38 245 274
-0.087189756 0.67199999 -0.040060159 1.8530599e-38 246 274
-0.086011514 0.67199999 -0.040060159 1.8254013e-38 247 274
-0.081177577 0.671 -0.040000543 1.7792295e-38 251 274
-0.080001086 0.671 -0.040000543 1.8158551e-38 252 274
-0.075295143 0.671 -0.040000543 1.7883759e-38 256 274
-0.074118659 0.671 -0.040000543 1.7607532e-38 257 274
-0.072942175 0.671 -0.040000543 1.7974513e-38 258 274
-0.015020805 0.65899998 -0.039285187 1.8430742e-38 307 274
-0.013865359 0.65899998 -0.039285187 1.8339981e-38 308 274
-0.012709912 0.65899998 -0.039285187 1.8432178e-38 309 274
-0.011589534 0.66100001 -0.039404415 1.8615491e-38 310 274
-0.01043058 0.66100001 -0.039404415 1.8615491e-38 311 274
-0.0092716264 0.66100001 -0.039404415 1.8523644e-38 312 274
-0.0081249457 0.662 -0.039464023 1.8523644e-38 313 274
-0.0069642398 0.662 -0.039464023 1.8433231e-38 314 274
-0.0058035329 0.662 -0.039464023 1.8341035e-38 315 274
-0.0046428265 0.662 -0.039464023 1.8617246e-38 316 274
-0.00347686 0.66100001 -0.039404415 1.8617246e-38 317 274
-0.0023179066 0.66100001 -0.039404415 1.8618318e-38 318 274
-0.0011607066 0.662 -0.039464023 1.8434287e-38 319 274
0 0.66399997 -0.039583251 1.8433931e-38 320 274
0.0011642133 0.66399997 -0.039583251 1.8617962e-38 321 274
0.0023284266 0.66399997 -0.039583251 1.870909e-38 322 274
0.0034821199 0.662 -0.039464023 1.8801645e-38 323 274
0.0046428265 0.662 -0.039464023 1.8709459e-38 324 274
0.0058035329 0.662 -0.039464023 1.8709459e-38 325 274
0.0069642398 0.662 -0.039464023 1.870874e-38 326 274
0.0081372196 0.66299999 -0.039523639 1.8800936e-38 327 274
0.009285653 0.662 -0.039464023 1.8709096e-38 328 274
0.01044636 0.662 -0.039464023 1.8709096e-38 329 274
0.0116246 0.66299999 -0.039523639 1.8800211e-38 330 274
0.012787059 0.66299999 -0.039523639 1.8708016e-38 331 274
0.014012639 0.66600001 -0.039702479 1.870766e-38 332 274
0.01518036 0.66600001 -0.039702479 1.8523628e-38 333 274
0.016348081 0.66600001 -0.039702479 1.8248484e-38 334 274
0.017515799 0.66600001 -0.039702479 1.8156288e-38 335 274
0.018711573 0.667 -0.039762091 1.8156288e-38 336 274
0.019881045 0.667 -0.039762091 1.7787864e-38 337 274
0.021050518 0.667 -0.039762091 1.7878981e-38 338 274
0.022219993 0.667 -0.039762091 1.7786426e-38 339 274
0.023389466 0.667 -0.039762091 1.7326878e-38 340 274
0.02459576 0.66799998 -0.039821707 1.7050649e-38 341 274
0.025766984 0.66799998 -0.039821707 1.7235034e-38 342 274
0.027018867 0.67000002 -0.039940935 1.7050644e-38 343 274
0.028193599 0.67000002 -0.039940935 1.6957745e-38 344 274
0.029368332 0.67000002 -0.039940935 1.6957745e-38 345 274
0.030588651 0.671 -0.040000543 1.6681886e-38 346 274
0.031765141 0.671 -0.040000543 1.6681886e-38 347 274
0.032941625 0.671 -0.040000543 1.6497855e-38 348 274
0.034118112 0.671 -0.040000543 1.6313824e-38 349 274
0.0352946 0.671 -0.040000543 1.6221275e-38 350 274
0.036525436 0.67199999 -0.040060159 1.6221275e-38 351 274
0.037871998 0.67500001 -0.040238999 1.6037249e-38 352 274
0.039055496 0.67500001 -0.040238999 1.5853217e-38 353 274
0.040298611 0.676 -0.040298611 1.5761741e-38 354 274
0.041483864 0.676 -0.040298611 1.5485155e-38 355 274
0.042795356 0.67799997 -0.040417835 1.5024902e-38 356 274
0.043984115 0.67799997 -0.040417835 1.4747956e-38 357 274
0.045306131 0.68000001 -0.040537067 1.3918551e-38 358 274
0.046498399 0.68000001 -0.040537067 1.3457573e-38 359 274
0.047690667 0.68000001 -0.040537067 1.3641611e-38 360 274
0.049026705 0.68199998 -0.040656291 1.4010394e-38 361 274
0.050222475 0.68199998 -0.040656291 1.373598e-38 362 274
0.051418249 0.68199998 -0.040656291 1.373598e-38 363 274
0.052691177 0.68300003 -0.040715907 1.3643075e-38 364 274
0.054125395 0.68599999 -0.040894743 1.3458684e-38 365 274
0.055328183 0.68599999 -0.040894743 1.3365771e-38 366 274
0.056695789 0.68800002 -0.041013971 1.3273217e-38 367 274
0.057902083 0.68800002 -0.041013971 1.2815115e-38 368 274
0.059108373 0.68800002 -0.041013971 1.2907311e-38 369 274
-0.094679996 0.67500001 -0.041422497 1.8254382e-38 240 275
-0.093496501 0.67500001 -0.041422497 1.806999e-38 241 275
-0.092449754 0.676 -0.041483864 1.8712473e-38 242 275
-0.091264501 0.676 -0.041483864 1.8804669e-38 243 275
-0.090079248 0.676 -0.041483864 1.8895766e-38 244 275
-0.088631004 0.67400002 -0.041361131 1.8619179e-38 245 275
-0.087189756 0.67199999 -0.041238401 1.8526248e-38 246 275
-0.085883528 0.671 -0.041177034 1.8341498e-38 247 275
-0.084707037 0.671 -0.041177034 1.8432599e-38 248 275
-0.083032601 0.667 -0.040931564 1.8248206e-38 249 275
-0.081863128 0.667 -0.040931564 1.8064881e-38 250 275
-0.081177577 0.671 -0.041177034 1.7972327e-38 251 275
-0.080001086 0.671 -0.041177034 1.8156345e-38 252 275
-0.078707129 0.67000002 -0.041115668 1.806415e-38 253 275
-0.077532403 0.67000002 -0.041115668 1.8155626e-38 254 275
-0.076129727 0.66799998 -0.040992931 1.8247822e-38 255 275
-0.074958503 0.66799998 -0.040992931 1.8064147e-38 256 275
-0.074008204 0.67000002 -0.041115668 1.7971951e-38 257 275
-0.072833464 0.67000002 -0.041115668 1.8064136e-38 258 275
-0.071765684 0.671 -0.041177034 1.8064136e-38 259 275
-0.0705892 0.671 -0.041177034 1.8247798e-38 260 275
-0.069412716 0.671 -0.041177034 1.7971572e-38 261 275
-0.067829452 0.667 -0.040931564 1.806413e-38 262 275
-0.06665998 0.667 -0.040931564 1.8248881e-38 263 275
-0.04062473 0.662 -0.04062473 1.8157796e-38 285 275
-0.039464023 0.662 -0.04062473 1.8433305e-38 286 275
-0.033609647 0.66100001 -0.040563367 1.7972683e-38 291 275
-0.032450691 0.66100001 -0.040563367 1.8156343e-38 292 275
-0.026696252 0.662 -0.04062473 1.8063392e-38 297 275
-0.025496973 0.66100001 -0.040563367 1.8247392e-38 298 275
-0.02433802 0.66100001 -0.040563367 1.8154836e-38 299 275
-0.023108931 0.65899998 -0.04044063 1.8339924e-38 300 275
-0.021953486 0.65899998 -0.04044063 1.8247369e-38 301 275
-0.02076648 0.65799999 -0.040379263 1.8155177e-38 302 275
-0.019612785 0.65799999 -0.040379263 1.8247372e-38 303 275
-0.01843104 0.65700001 -0.0403179 1.8247375e-38 304 275
-0.0172791 0.65700001 -0.0403179 1.8339571e-38 305 275
-0.01612716 0.65700001 -0.0403179 1.8339571e-38 306 275
-0.015020805 0.65899998 -0.04044063 1.8707995e-38 307 275
-0.013865359 0.65899998 -0.04044063 1.8707647e-38 308 275
-0.012709912 0.65899998 -0.04044063 1.8707647e-38 309 275
-0.011589534 0.66100001 -0.040563367 1.8523631e-38 310 275
-0.01043058 0.66100001 -0.040563367 1.8523631e-38 311 275
-0.0092716264 0.66100001 -0.040563367 1.8431796e-38 312 275
-0.0081126727 0.66100001 -0.040563367 1.852435e-38 313 275
-0.00695372 0.66100001 -0.040563367 1.8616896e-38 314 275
-0.0057947668 0.66100001 -0.040563367 1.8616896e-38 315 275
-0.0046358132 0.66100001 -0.040563367 1.8709798e-38 316 275
-0.00347686 0.66100001 -0.040563367 1.8617244e-38 317 275
-0.0023179066 0.66100001 -0.040563367 1.8709795e-38 318 275
-0.0011554466 0.65899998 -0.04044063 1.86176e-38 319 275
0 0.65899998 -0.04044063 1.8709443e-38 320 275
0.0011554466 0.65899998 -0.04044063 1.8617246e-38 321 275
0.0023284266 0.66399997 -0.040747464 1.8709093e-38 322 275
0.00347686 0.66100001 -0.040563367 1.8709093e-38 323 275
0.0046358132 0.66100001 -0.040563367 1.8433231e-38 324 275
0.0058035329 0.662 -0.04062473 1.8433231e-38 325 275
0.0069642398 0.662 -0.04062473 1.8341398e-38 326 275
0.0081249457 0.662 -0.04062473 1.8249202e-38 327 275
0.009285653 0.662 -0.04062473 1.8433234e-38 328 275
0.01044636 0.662 -0.04062473 1.8340679e-38 329 275
0.011607066 0.662 -0.04062473 1.8156641e-38 330 275
0.012767773 0.662 -0.04062473 1.8064445e-38 331 275
0.013970559 0.66399997 -0.040747464 1.8063721e-38 332 275
0.015134773 0.66399997 -0.040747464 1.8063721e-38 333 275
0.016348081 0.66600001 -0.040870197 1.7696385e-38 334 275
0.017515799 0.66600001 -0.040870197 1.7696385e-38 335 275
0.018683519 0.66600001 -0.040870197 1.7695666e-38 336 275
0.019851239 0.66600001 -0.040870197 1.741872e-38 337 275
0.02101896 0.66600001 -0.040870197 1.7143212e-38 338 275
0.022219993 0.667 -0.040931564 1.7143212e-38 339 275
0.023389466 0.667 -0.040931564 1.7050649e-38 340 275
0.024558939 0.667 -0.040931564 1.6958095e-38 341 275
0.025766984 0.66799998 -0.040992931 1.6866255e-38 342 275
0.026938211 0.66799998 -0.040992931 1.6866255e-38 343 275
0.028109439 0.66799998 -0.040992931 1.6497136e-38 344 275
0.029368332 0.67000002 -0.041115668 1.6497136e-38 345 275
0.030543067 0.67000002 -0.041115668 1.6221997e-38 346 275
0.031765141 0.671 -0.041177034 1.6221997e-38 347 275
0.032941625 0.671 -0.041177034 1.6037249e-38 348 275
0.034118112 0.671 -0.041177034 1.6037249e-38 349 275
0.0352946 0.671 -0.041177034 1.5761741e-38 350 275
0.036471087 0.671 -0.041177034 1.5669545e-38 351 275
0.037815895 0.67400002 -0.041361131 1.548588e-38 352 275
0.038997639 0.67400002 -0.041361131 1.5393325e-38 353 275
0.040238999 0.67500001 -0.041422497 1.5393325e-38 354 275
0.041422497 0.67500001 -0.041422497 1.5208934e-38 355 275
0.042669121 0.676 -0.041483864 1.5024899e-38 356 275
0.043984115 0.67799997 -0.041606598 1.4748312e-38 357 275
0.045172878 0.67799997 -0.041606598 1.4102586e-38 358 275
0.046498399 0.68000001 -0.041729335 1.3365021e-38 359 275
0.047690667 0.68000001 -0.041729335 1.3366119e-38 360 275
0.049026705 0.68199998 -0.041852064 1.3366119e-38 361 275
0.050222475 0.68199998 -0.041852064 1.3458331e-38 362 275
0.051418249 0.68199998 -0.041852064 1.3458331e-38 363 275
0.052614026 0.68199998 -0.041852064 1.3457612e-38 364 275
0.054125395 0.68599999 -0.042097531 1.327322e-38 365 275
0.055328183 0.68599999 -0.042097531 1.3089905e-38 366 275
0.056613375 0.68699998 -0.042158898 1.2997709e-38 367 275
0.057817914 0.68699998 -0.042158898 1.281476e-38 368 275
0.059022456 0.68699998 -0.042158898 1.2907315e-38 369 275
-0.095721483 0.67400002 -0.042542879 1.8069608e-38 239 276
-0.094539732 0.67400002 -0.042542879 1.8251826e-38 240 276
-0.093357988 0.67400002 -0.042542879 1.7790847e-38 241 276
-0.092449754 0.676 -0.042669121 1.7881582e-38 242 276
-0.091264501 0.676 -0.042669121 1.751244e-38 243 276
-0.089546233 0.67199999 -0.042416636 1.7510607e-38 244 276
-0.088367991 0.67199999 -0.042416636 1.7234019e-38 245 276
-0.087189756 0.67199999 -0.042416636 1.7693533e-38 246 276
-0.085883528 0.671 -0.042353518 1.7785729e-38 247 276
-0.084202074 0.667 -0.042101037 1.7968672e-38 248 276
-0.082908116 0.66600001 -0.042037919 1.8060868e-38 249 276
-0.081740394 0.66600001 -0.042037919 1.7878262e-38 250 276
-0.080693655 0.667 -0.042101037 1.8062293e-38 251 276
-0.079524182 0.667 -0.042101037 1.7878259e-38 252 276
-0.078354709 0.667 -0.042101037 1.8154486e-38 253 276
-0.077185236 0.667 -0.042101037 1.8338881e-38 254 276
-0.076015763 0.667 -0.042101037 1.8246686e-38 255 276
-0.07484629 0.667 -0.042101037 1.8338162e-38 256 276
-0.073787279 0.66799998 -0.042164158 1.8338162e-38 257 276
-0.072616048 0.66799998 -0.042164158 1.8247036e-38 258 276
-0.071444817 0.66799998 -0.042164158 1.8062643e-38 259 276
-0.070273593 0.66799998 -0.042164158 1.8154473e-38 260 276
-0.068998925 0.667 -0.042101037 1.8062278e-38 261 276
-0.067829452 0.667 -0.042101037 1.8154476e-38 262 276
-0.06665998 0.667 -0.042101037 1.8154476e-38 263 276
-0.065490507 0.667 -0.042101037 1.7787864e-38 264 276
-0.064321034 0.667 -0.042101037 1.7787864e-38 265 276
-0.063056879 0.66600001 -0.042037919 1.8063023e-38 266 276
-0.061703302 0.66399997 -0.041911677 1.833925e-38 267 276
-0.060539093 0.66399997 -0.041911677 1.833925e-38 268 276
-0.059285458 0.66299999 -0.041848559 1.8431445e-38 269 276
-0.058035329 0.662 -0.041785441 1.8339603e-38 270 276
-0.056874625 0.662 -0.041785441 1.8155572e-38 271 276
-0.05562976 0.66100001 -0.04172232 1.8522196e-38 272 276
-0.054305989 0.65899998 -0.041596077 1.8338165e-38 273 276
-0.053150542 0.65899998 -0.041596077 1.8154863e-38 274 276
-0.052152898 0.66100001 -0.04172232 1.8339253e-38 275 276
-0.049684204 0.65899998 -0.041596077 1.806302e-38 277 276
-0.048528757 0.65899998 -0.041596077 1.8245963e-38 278 276
-0.04737331 0.65899998 -0.041596077 1.8153767e-38 279 276
-0.046358135 0.66100001 -0.04172232 1.8154123e-38 280 276
-0.045199182 0.66100001 -0.04172232 1.8246319e-38 281 276
-0.044040225 0.66100001 -0.04172232 1.8245965e-38 282 276
-0.042946145 0.662 -0.041785441 1.8522194e-38 283 276
-0.041785441 0.662 -0.041785441 1.8339253e-38 284 276
-0.040563367 0.66100001 -0.04172232 1.8431448e-38 285 276
-0.039404415 0.66100001 -0.04172232 1.8523647e-38 286 276
-0.038245458 0.66100001 -0.04172232 1.8523647e-38 287 276
-0.037086505 0.66100001 -0.04172232 1.824778e-38 288 276
-0.035818845 0.65899998 -0.041596077 1.824778e-38 289 276
-0.034610797 0.65799999 -0.04153296 1.8248136e-38 290 276
-0.033457108 0.65799999 -0.04153296 1.8340332e-38 291 276
-0.032303412 0.65799999 -0.04153296 1.8616207e-38 292 276
-0.031197058 0.65899998 -0.041596077 1.8616207e-38 293 276
-0.030132787 0.66100001 -0.04172232 1.8615844e-38 294 276
-0.028973831 0.66100001 -0.04172232 1.8615844e-38 295 276
-0.026696252 0.662 -0.041785441 1.8799136e-38 297 276
-0.025496973 0.66100001 -0.04172232 1.8891312e-38 298 276
-0.02433802 0.66100001 -0.04172232 1.8891312e-38 299 276
-0.023108931 0.65899998 -0.041596077 1.8891307e-38 300 276
-0.021953486 0.65899998 -0.041596077 1.8891307e-38 301 276
-0.020734919 0.65700001 -0.041469838 1.8707997e-38 302 276
-0.019582979 0.65700001 -0.041469838 1.8707997e-38 303 276
-0.01843104 0.65700001 -0.041469838 1.8707995e-38 304 276
-0.0172791 0.65700001 -0.041469838 1.8707995e-38 305 276
-0.01612716 0.65700001 -0.041469838 1.8707995e-38 306 276
-0.014998012 0.65799999 -0.04153296 1.8707995e-38 307 276
-0.01384432 0.65799999 -0.04153296 1.8707641e-38 308 276
-0.012690626 0.65799999 -0.04153296 1.8615446e-38 309 276
-0.011554466 0.65899998 -0.041596077 1.8246672e-38 310 276
-0.010399019 0.65899998 -0.041596077 1.8246672e-38 311 276
-0.0092435731 0.65899998 -0.041596077 1.8339232e-38 312 276
-0.0080881258 0.65899998 -0.041596077 1.8431786e-38 313 276
-0.0069326796 0.65899998 -0.041596077 1.8523626e-38 314 276
-0.0057772328 0.65899998 -0.041596077 1.8708016e-38 315 276
-0.0046217865 0.65899998 -0.041596077 1.8800208e-38 316 276
-0.0034663398 0.65899998 -0.041596077 1.8800208e-38 317 276
-0.0023108933 0.65899998 -0.041596077 1.85247e-38 318 276
-0.0011554466 0.65899998 -0.041596077 1.8616896e-38 319 276
0 0.65899998 -0.041596077 1.8524347e-38 320 276
0.0011554466 0.65899998 -0.041596077 1.8524347e-38 321 276
0.0023108933 0.65899998 -0.041596077 1.8524347e-38 322 276
0.0034663398 0.65899998 -0.041596077 1.8524347e-38 323 276
0.0046358132 0.66100001 -0.04172232 1.8432152e-38 324 276
0.0057947668 0.66100001 -0.04172232 1.8432152e-38 325 276
0.00695372 0.66100001 -0.04172232 1.7973326e-38 326 276
0.0081249457 0.662 -0.041785441 1.7788935e-38 327 276
0.009285653 0.662 -0.041785441 1.8064074e-38 328 276
0.01044636 0.662 -0.041785441 1.7971877e-38 329 276
0.011607066 0.662 -0.041785441 1.7696369e-38 330 276
0.012767773 0.662 -0.041785441 1.7604173e-38 331 276
0.01392848 0.662 -0.041785441 1.732831e-38 332 276
0.015134773 0.66399997 -0.041911677 1.7236114e-38 333 276
0.016298985 0.66399997 -0.041911677 1.7326875e-38 334 276
0.0174632 0.66399997 -0.041911677 1.7326875e-38 335 276
0.018683519 0.66600001 -0.042037919 1.7050649e-38 336 276
0.019851239 0.66600001 -0.042037919 1.6958095e-38 337 276
0.02101896 0.66600001 -0.042037919 1.6866268e-38 338 276
0.02218668 0.66600001 -0.042037919 1.6682237e-38 339 276
0.023354398 0.66600001 -0.042037919 1.6498208e-38 340 276
0.024558939 0.667 -0.042101037 1.6314177e-38 341 276
0.025728412 0.667 -0.042101037 1.6221629e-38 342 276
0.026938211 0.66799998 -0.042164158 1.6129432e-38 343 276
0.028109439 0.66799998 -0.042164158 1.6312394e-38 344 276
0.029280664 0.66799998 -0.042164158 1.6312394e-38 345 276
0.030543067 0.67000002 -0.042290401 1.6128725e-38 346 276
0.0317178 0.67000002 -0.042290401 1.603653e-38 347 276
0.032892533 0.67000002 -0.042290401 1.5853217e-38 348 276
0.034067266 0.67000002 -0.042290401 1.5761022e-38 349 276
0.035241999 0.67000002 -0.042290401 1.5669545e-38 350 276
0.036471087 0.671 -0.042353518 1.5485155e-38 351 276
0.037703678 0.67199999 -0.042416636 1.5392962e-38 352 276
0.03888192 0.67199999 -0.042416636 1.520857e-38 353 276
0.040179387 0.67400002 -0.042542879 1.5025255e-38 354 276
0.041422497 0.67500001 -0.042606 1.4933059e-38 355 276
0.042669121 0.676 -0.042669121 1.5025252e-38 356 276
0.043854371 0.676 -0.042669121 1.4748665e-38 357 276
0.045039624 0.676 -0.042669121 1.4011473e-38 358 276
0.046430022 0.67900002 -0.042858478 1.3642331e-38 359 276
0.047690667 0.68000001 -0.042921599 1.3366119e-38 360 276
0.049026705 0.68199998 -0.043047838 1.3273923e-38 361 276
0.050222475 0.68199998 -0.043047838 1.327357e-38 362 276
0.051418249 0.68199998 -0.043047838 1.327357e-38 363 276
0.052614026 0.68199998 -0.043047838 1.3273573e-38 364 276
0.054125395 0.68599999 -0.043300316 1.3181377e-38 365 276
0.055328183 0.68599999 -0.043300316 1.2906229e-38 366 276
0.056613375 0.68699998 -0.043363437 1.2906229e-38 367 276
0.057817914 0.68699998 -0.043363437 1.2815834e-38 368 276
0.059108373 0.68800002 -0.043426562 1.2908031e-38 369 276
0.060314666 0.68800002 -0.043426562 1.2908775e-38 370 276
-0.096903227 0.67400002 -0.043724626 1.7696466e-38 238 277
-0.095437437 0.67199999 -0.043594878 1.7419878e-38 239 277
-0.094259195 0.67199999 -0.043594878 1.7603527e-38 240 277
-0.093080953 0.67199999 -0.043594878 1.7511332e-38 241 277
-0.091902718 0.67199999 -0.043594878 1.7603506e-38 242 277
-0.090724476 0.67199999 -0.043594878 1.7419114e-38 243 277
-0.089412987 0.671 -0.043530006 1.7693512e-38 244 277
-0.088236496 0.671 -0.043530006 1.7693512e-38 245 277
-0.087060012 0.671 -0.043530006 1.8061559e-38 246 277
-0.085755527 0.67000002 -0.043465134 1.824559e-38 247 277
-0.084202074 0.667 -0.04327051 1.824594e-38 248 277
-0.082908116 0.66600001 -0.043205637 1.824594e-38 249 277
-0.081740394 0.66600001 -0.043205637 1.8063697e-38 250 277
-0.080693655 0.667 -0.04327051 1.8063697e-38 251 277
-0.079524182 0.667 -0.04327051 1.8062259e-38 252 277
-0.078354709 0.667 -0.04327051 1.843104e-38 253 277
-0.077185236 0.667 -0.04327051 1.8339568e-38 254 277
-0.076015763 0.667 -0.04327051 1.8339568e-38 255 277
-0.07484629 0.667 -0.04327051 1.852288e-38 256 277
-0.073676817 0.667 -0.04327051 1.8430685e-38 257 277
-0.072507344 0.667 -0.04327051 1.815553e-38 258 277
-0.071337871 0.667 -0.04327051 1.815553e-38 259 277
-0.070168398 0.667 -0.04327051 1.8338842e-38 260 277
-0.068895474 0.66600001 -0.043205637 1.8338842e-38 261 277
-0.067727759 0.66600001 -0.043205637 1.8246646e-38 262 277
-0.066560037 0.66600001 -0.043205637 1.8246646e-38 263 277
-0.065392323 0.66600001 -0.043205637 1.8247372e-38 264 277
-0.064224601 0.66600001 -0.043205637 1.8247372e-38 265 277
-0.062772833 0.66299999 -0.043011017 1.8247738e-38 266 277
-0.061610378 0.66299999 -0.043011017 1.8339935e-38 267 277
-0.060356744 0.662 -0.042946145 1.8340291e-38 268 277
-0.05919604 0.662 -0.042946145 1.8340291e-38 269 277
-0.058035329 0.662 -0.042946145 1.85236e-38 270 277
-0.056788713 0.66100001 -0.042881273 1.85236e-38 271 277
-0.055461437 0.65899998 -0.042751525 1.861508e-38 272 277
-0.054305989 0.65899998 -0.042751525 1.8522883e-38 273 277
-0.053150542 0.65899998 -0.042751525 1.8430334e-38 274 277
-0.051995095 0.65899998 -0.042751525 1.8430334e-38 275 277
-0.050839648 0.65899998 -0.042751525 1.861508e-38 276 277
-0.049684204 0.65899998 -0.042751525 1.8522883e-38 277 277
-0.048528757 0.65899998 -0.042751525 1.8339924e-38 278 277
-0.04737331 0.65899998 -0.042751525 1.8339924e-38 279 277
-0.046217863 0.65899998 -0.042751525 1.8339921e-38 280 277
-0.045062415 0.65899998 -0.042751525 1.8523954e-38 281 277
-0.044040225 0.66100001 -0.042881273 1.85236e-38 282 277
-0.042881273 0.66100001 -0.042881273 1.85236e-38 283 277
-0.04172232 0.66100001 -0.042881273 1.8432133e-38 284 277
-0.040563367 0.66100001 -0.042881273 1.8524329e-38 285 277
-0.039404415 0.66100001 -0.042881273 1.8707644e-38 286 277
-0.038245458 0.66100001 -0.042881273 1.8707644e-38 287 277
-0.036974292 0.65899998 -0.042751525 1.8707644e-38 288 277
-0.035764489 0.65799999 -0.042686652 1.8707644e-38 289 277
-0.034610797 0.65799999 -0.042686652 1.8432855e-38 290 277
-0.033457108 0.65799999 -0.042686652 1.8525051e-38 291 277
-0.032303412 0.65799999 -0.042686652 1.8708013e-38 292 277
-0.031149717 0.65799999 -0.042686652 1.8800208e-38 293 277
-0.029996024 0.65799999 -0.042686652 1.8800208e-38 294 277
-0.028842334 0.65799999 -0.042686652 1.8708013e-38 295 277
-0.027688639 0.65799999 -0.042686652 1.8983505e-38 296 277
-0.026655925 0.66100001 -0.042881273 1.8983505e-38 297 277
-0.025419824 0.65899998 -0.042751525 1.8984211e-38 298 277
-0.024264378 0.65899998 -0.042751525 1.8984211e-38 299 277
-0.023108931 0.65899998 -0.042751525 1.8983858e-38 300 277
-0.021920172 0.65799999 -0.042686652 1.9076054e-38 301 277
-0.020734919 0.65700001 -0.04262178 1.8800193e-38 302 277
-0.019582979 0.65700001 -0.04262178 1.8892389e-38 303 277
-0.01843104 0.65700001 -0.04262178 1.8800193e-38 304 277
-0.017226499 0.65499997 -0.042492028 1.8800193e-38 305 277
-0.016078066 0.65499997 -0.042492028 1.8983505e-38 306 277
-0.01497522 0.65700001 -0.04262178 1.8707278e-38 307 277
-0.013823279 0.65700001 -0.04262178 1.8523253e-38 308 277
-0.01267134 0.65700001 -0.04262178 1.8339222e-38 309 277
-0.011536933 0.65799999 -0.042686652 1.8061924e-38 310 277
-0.01038324 0.65799999 -0.042686652 1.815412e-38 311 277
-0.0092295464 0.65799999 -0.042686652 1.8154839e-38 312 277
-0.0080881258 0.65899998 -0.042751525 1.8339232e-38 313 277
-0.0069326796 0.65899998 -0.042751525 1.8431783e-38 314 277
-0.0057772328 0.65899998 -0.042751525 1.8431783e-38 315 277
-0.0046217865 0.65899998 -0.042751525 1.8523979e-38 316 277
-0.0034610799 0.65799999 -0.042686652 1.8523979e-38 317 277
-0.0023073866 0.65799999 -0.042686652 1.843143e-38 318 277
-0.0011536933 0.65799999 -0.042686652 1.8523626e-38 319 277
0 0.65799999 -0.042686652 1.83396e-38 320 277
0.0011536933 0.65799999 -0.042686652 1.83396e-38 321 277
0.0023073866 0.65799999 -0.042686652 1.8155566e-38 322 277
0.0034610799 0.65799999 -0.042686652 1.8063371e-38 323 277
0.0046147732 0.65799999 -0.042686652 1.7878978e-38 324 277
0.0057772328 0.65899998 -0.042751525 1.7878978e-38 325 277
0.0069326796 0.65899998 -0.042751525 1.7879328e-38 326 277
0.0081126727 0.66100001 -0.042881273 1.7510906e-38 327 277
0.0092716264 0.66100001 -0.042881273 1.7327581e-38 328 277
0.01043058 0.66100001 -0.042881273 1.7235384e-38 329 277
0.011589534 0.66100001 -0.042881273 1.7235031e-38 330 277
0.012748486 0.66100001 -0.042881273 1.7235031e-38 331 277
0.01392848 0.662 -0.042946145 1.6775502e-38 332 277
0.015111978 0.66299999 -0.043011017 1.6683306e-38 333 277
0.016274439 0.66299999 -0.043011017 1.6590754e-38 334 277
0.0174632 0.66399997 -0.043075889 1.6590754e-38 335 277
