# .PCD v.7 - Point Cloud Data file format
FIELDS x y z rgb imX imY
SIZE 4 4 4 4 4 4
TYPE F F F F F F
COUNT 1 1 1 1 1 1
WIDTH 849
HEIGHT 1
VIEWPOINT 0 0 0 1 0 0 0
POINTS 849
DATA ascii
0.011771879 0.74599999 -0.019619798 1.4377381e-38 329 255
0.013079867 0.74599999 -0.019619798 1.4469933e-38 330 255
0.01434928 0.74400002 -0.019567199 1.4562128e-38 331 255
0.015653761 0.74400002 -0.019567199 1.4745438e-38 332 255
0.016912652 0.74199998 -0.0195146 1.4837992e-38 333 255
0.018189078 0.741 -0.019488299 1.4746157e-38 334 255
0.019488299 0.741 -0.019488299 1.4838712e-38 335 255
0.020731414 0.73900002 -0.0194357 1.5114217e-38 336 255
0.021997318 0.73799998 -0.019409399 1.5206413e-38 337 255
0.023291279 0.73799998 -0.019409399 1.5206769e-38 338 255
0.024518613 0.736 -0.019356798 1.5298965e-38 339 255
0.025738932 0.73400003 -0.019304199 1.5390797e-38 340 255
0.02702588 0.73400003 -0.019304199 1.5390797e-38 341 255
0.028274251 0.73299998 -0.019277899 1.5575182e-38 342 255
0.029559445 0.73299998 -0.019277899 1.5667377e-38 343 255
0.030844638 0.73299998 -0.019277899 1.5483706e-38 344 255
0.032042164 0.73100001 -0.019225299 1.5576262e-38 345 255
0.033323854 0.73100001 -0.019225299 1.5759937e-38 346 255
0.034558199 0.73000002 -0.019199001 1.5759937e-38 347 255
0.035739943 0.72799999 -0.0191464 1.585177e-38 348 255
0.037016369 0.72799999 -0.0191464 1.5943966e-38 349 255
0.038240198 0.727 -0.019120099 1.6036164e-38 350 255
0.039406165 0.72500002 -0.0190675 1.6036164e-38 351 255
0.040677335 0.72500002 -0.0190675 1.5853571e-38 352 255
0.041832779 0.72299999 -0.019014901 1.631419e-38 353 255
0.043100435 0.72299999 -0.019014901 1.7233623e-38 354 255
0.044306733 0.722 -0.0189886 1.7326177e-38 355 255
0.045446403 0.72000003 -0.018935999 1.7786063e-38 356 255
0.0467088 0.72000003 -0.018935999 1.806229e-38 357 255
0.04790457 0.71899998 -0.018909698 1.8062641e-38 358 255
0.04902846 0.71700001 -0.018857099 1.8154836e-38 359 255
0.0502856 0.71700001 -0.018857099 1.8246319e-38 360 255
0.051470853 0.71600002 -0.0188308 1.8522547e-38 361 255
0.052578956 0.71399999 -0.018778199 1.8338881e-38 362 255
0.053830836 0.71399999 -0.018778199 1.8431077e-38 363 255
0.05508272 0.71399999 -0.018778199 1.8523626e-38 364 255
0.056097899 0.71100003 -0.0186993 1.8523626e-38 365 255
0.057263866 0.70999998 -0.018672999 1.8432505e-38 366 255
0.058508728 0.70999998 -0.018672999 1.85247e-38 367 255
0.059585281 0.708 -0.0186204 1.8707291e-38 368 255
0.060826641 0.708 -0.0186204 1.8615095e-38 369 255
0.062068 0.708 -0.0186204 1.8339588e-38 370 255
0.063309364 0.708 -0.0186204 1.8339588e-38 371 255
0.06455072 0.708 -0.0186204 1.8338866e-38 372 255
0.065606222 0.70599997 -0.018567799 1.8246669e-38 373 255
0.066654719 0.704 -0.018515198 1.8154473e-38 374 255
0.067889065 0.704 -0.018515198 1.7693496e-38 375 255
0.06912341 0.704 -0.018515198 1.7048511e-38 376 255
0.070557632 0.70599997 -0.018567799 1.621911e-38 377 255
0.071592107 0.704 -0.018515198 1.5118581e-38 378 255
0.072826453 0.704 -0.018515198 1.6685907e-38 379 255
0.07406079 0.704 -0.018515198 1.7333501e-38 380 255
0.075295143 0.704 -0.018515198 1.8439848e-38 381 255
-0.065749995 0.75 -0.02104 1.5857243e-38 270 256
-0.064434998 0.75 -0.02104 1.4381755e-38 271 256
-0.063540794 0.755 -0.021180267 1.5022769e-38 272 256
-0.062217031 0.755 -0.021180267 1.5207161e-38 273 256
-0.060893264 0.755 -0.021180267 1.5114599e-38 274 256
-0.059569497 0.755 -0.021180267 1.4837653e-38 275 256
-0.058245733 0.755 -0.021180267 1.4010041e-38 276 256
-0.056921966 0.755 -0.021180267 1.3549421e-38 277 256
-0.055598196 0.755 -0.021180267 1.3089511e-38 278 256
-0.054274432 0.755 -0.021180267 1.2997315e-38 279 256
-0.052950665 0.755 -0.021180267 1.2906567e-38 280 256
-0.051626898 0.755 -0.021180267 1.2998763e-38 281 256
-0.050303131 0.755 -0.021180267 1.290658e-38 282 256
-0.048979364 0.755 -0.021180267 1.290658e-38 283 256
-0.047655597 0.755 -0.021180267 1.290658e-38 284 256
-0.04633183 0.755 -0.021180267 1.2722549e-38 285 256
-0.045008067 0.755 -0.021180267 1.2630353e-38 286 256
-0.043684296 0.755 -0.021180267 1.2630353e-38 287 256
-0.042360533 0.755 -0.021180267 1.2813312e-38 288 256
-0.041036766 0.755 -0.021180267 1.2813312e-38 289 256
-0.039712999 0.755 -0.021180267 1.3089179e-38 290 256
-0.038389232 0.755 -0.021180267 1.3089179e-38 291 256
-0.037065465 0.755 -0.021180267 1.3089176e-38 292 256
-0.035741698 0.755 -0.021180267 1.3089176e-38 293 256
-0.034600276 0.759 -0.02129248 1.2996261e-38 294 256
-0.033269498 0.759 -0.02129248 1.2904064e-38 295 256
-0.031938717 0.759 -0.02129248 1.26282e-38 296 256
-0.030607941 0.759 -0.02129248 1.2536005e-38 297 256
-0.029277159 0.759 -0.02129248 1.2536005e-38 298 256
-0.027946379 0.759 -0.02129248 1.2259778e-38 299 256
-0.026615599 0.759 -0.02129248 1.2075383e-38 300 256
-0.025284819 0.759 -0.02129248 1.2075383e-38 301 256
-0.023954039 0.759 -0.02129248 1.1983187e-38 302 256
-0.02262326 0.759 -0.02129248 1.1983187e-38 303 256
-0.02129248 0.759 -0.02129248 1.2075736e-38 304 256
-0.0199617 0.759 -0.02129248 1.2260128e-38 305 256
-0.018581826 0.75700003 -0.021236373 1.2261195e-38 306 256
-0.017254554 0.75700003 -0.021236373 1.2076804e-38 307 256
-0.015885198 0.755 -0.021180267 1.2076801e-38 308 256
-0.014561433 0.755 -0.021180267 1.2076801e-38 309 256
-0.013237666 0.755 -0.021180267 1.2169002e-38 310 256
-0.01189812 0.75400001 -0.021152213 1.2261198e-38 311 256
-0.010576107 0.75400001 -0.021152213 1.2353396e-38 312 256
-0.0092540924 0.75400001 -0.021152213 1.2445592e-38 313 256
-0.00793208 0.75400001 -0.021152213 1.27211e-38 314 256
-0.0066100666 0.75400001 -0.021152213 1.2813297e-38 315 256
-0.0052880533 0.75400001 -0.021152213 1.2813299e-38 316 256
-0.00396604 0.75400001 -0.021152213 1.2905495e-38 317 256
-0.0026440267 0.75400001 -0.021152213 1.3272125e-38 318 256
-0.0013220133 0.75400001 -0.021152213 1.3364321e-38 319 256
0 0.75199997 -0.021096105 1.3455798e-38 320 256
0.0013185065 0.75199997 -0.021096105 1.3639829e-38 321 256
0.00263 0.75 -0.02104 1.3549065e-38 322 256
0.0039397399 0.74900001 -0.021011947 1.3641261e-38 323 256
0.0052389596 0.74699998 -0.020955838 1.3641614e-38 324 256
0.0065486995 0.74699998 -0.020955838 1.3641614e-38 325 256
0.0078584393 0.74699998 -0.020955838 1.3917476e-38 326 256
0.0091559067 0.74599999 -0.020927785 1.3917476e-38 327 256
0.010463892 0.74599999 -0.020927785 1.4009675e-38 328 256
0.011771879 0.74599999 -0.020927785 1.410187e-38 329 256
0.013079867 0.74599999 -0.020927785 1.4285902e-38 330 256
0.014387853 0.74599999 -0.020927785 1.4285902e-38 331 256
0.015653761 0.74400002 -0.02087168 1.4377378e-38 332 256
0.016912652 0.74199998 -0.020815572 1.4469933e-38 333 256
0.018189078 0.741 -0.020787518 1.4652889e-38 334 256
0.019488299 0.741 -0.020787518 1.483764e-38 335 256
0.020731414 0.73900002 -0.020731414 1.4838712e-38 336 256
0.021997318 0.73799998 -0.020703359 1.4838712e-38 337 256
0.023228159 0.736 -0.020647252 1.5114217e-38 338 256
0.024518613 0.736 -0.020647252 1.5114217e-38 339 256
0.025738932 0.73400003 -0.020591147 1.5298965e-38 340 256
0.02702588 0.73400003 -0.020591147 1.5298965e-38 341 256
0.028274251 0.73299998 -0.020563092 1.5391513e-38 342 256
0.029559445 0.73299998 -0.020563092 1.5483709e-38 343 256
0.030844638 0.73299998 -0.020563092 1.5575906e-38 344 256
0.032042164 0.73100001 -0.020506985 1.5759937e-38 345 256
0.033278264 0.73000002 -0.020478934 1.575994e-38 346 256
0.034463517 0.72799999 -0.020422826 1.575994e-38 347 256
0.035739943 0.72799999 -0.020422826 1.575994e-38 348 256
0.036965527 0.727 -0.020394772 1.575994e-38 349 256
0.038135 0.72500002 -0.020338668 1.5668823e-38 350 256
0.039297458 0.72299999 -0.020282559 1.5668823e-38 351 256
0.040565118 0.72299999 -0.020282559 1.5852136e-38 352 256
0.041774917 0.722 -0.020254506 1.5944331e-38 353 256
0.043040827 0.722 -0.020254506 1.6312394e-38 354 256
0.044306733 0.722 -0.020254506 1.6588982e-38 355 256
0.045446403 0.72000003 -0.020198401 1.7050665e-38 356 256
0.046643924 0.71899998 -0.020170346 1.7327253e-38 357 256
0.04790457 0.71899998 -0.020170346 1.7786061e-38 358 256
0.048960082 0.71600002 -0.020086186 1.7878256e-38 359 256
0.050215468 0.71600002 -0.020086186 1.8154123e-38 360 256
0.051255193 0.713 -0.020002026 1.8338516e-38 361 256
0.052505318 0.713 -0.020002026 1.8247039e-38 362 256
0.053604662 0.71100003 -0.01994592 1.8339234e-38 363 256
0.054851279 0.71100003 -0.01994592 1.833995e-38 364 256
0.056018997 0.70999998 -0.019917866 1.8155919e-38 365 256
0.057263866 0.70999998 -0.019917866 1.8340306e-38 366 256
0.058343921 0.708 -0.01986176 1.8340306e-38 367 256
0.059501119 0.70700002 -0.019833706 1.8524335e-38 368 256
0.060740728 0.70700002 -0.019833706 1.843178e-38 369 256
0.062068 0.708 -0.01986176 1.8431783e-38 370 256
0.063309364 0.708 -0.01986176 1.8431783e-38 371 256
0.06455072 0.708 -0.01986176 1.8523253e-38 372 256
0.065606222 0.70599997 -0.019805651 1.8246666e-38 373 256
0.066275999 0.69999999 -0.019637333 1.8247019e-38 374 256
0.067503333 0.69999999 -0.019637333 1.8062628e-38 375 256
0.069025226 0.70300001 -0.019721493 1.7600568e-38 376 256
0.070357755 0.704 -0.019749546 1.6955557e-38 377 256
0.071592107 0.704 -0.019749546 1.6127278e-38 378 256
0.072826453 0.704 -0.019749546 1.6312028e-38 379 256
0.07406079 0.704 -0.019749546 1.5857976e-38 380 256
0.075295143 0.704 -0.019749546 1.7425661e-38 381 256
-0.068379998 0.75 -0.022355 1.86217e-38 268 257
-0.067065001 0.75 -0.022355 1.6777787e-38 269 257
-0.066100664 0.75400001 -0.022474226 1.5026385e-38 270 257
-0.064778648 0.75400001 -0.022474226 1.4657603e-38 271 257
-0.06345664 0.75400001 -0.022474226 1.5484101e-38 272 257
-0.062217031 0.755 -0.022504034 1.5207515e-38 273 257
-0.060893264 0.755 -0.022504034 1.4838003e-38 274 257
-0.059569497 0.755 -0.022504034 1.4285188e-38 275 257
-0.058245733 0.755 -0.022504034 1.3273557e-38 276 257
-0.056921966 0.755 -0.022504034 1.2904415e-38 277 257
-0.055598196 0.755 -0.022504034 1.2721105e-38 278 257
-0.054274432 0.755 -0.022504034 1.2813302e-38 279 257
-0.052950665 0.755 -0.022504034 1.263035e-38 280 257
-0.051626898 0.755 -0.022504034 1.263035e-38 281 257
-0.050303131 0.755 -0.022504034 1.2538876e-38 282 257
-0.048979364 0.755 -0.022504034 1.2538876e-38 283 257
-0.047655597 0.755 -0.022504034 1.263035e-38 284 257
-0.04633183 0.755 -0.022504034 1.263035e-38 285 257
-0.045008067 0.755 -0.022504034 1.263035e-38 286 257
-0.043684296 0.755 -0.022504034 1.2445957e-38 287 257
-0.042360533 0.755 -0.022504034 1.2538157e-38 288 257
-0.041036766 0.755 -0.022504034 1.2538157e-38 289 257
-0.039712999 0.755 -0.022504034 1.2813312e-38 290 257
-0.038389232 0.755 -0.022504034 1.2721116e-38 291 257
-0.037163652 0.75700003 -0.022563647 1.2813312e-38 292 257
-0.03583638 0.75700003 -0.022563647 1.2721116e-38 293 257
-0.034600276 0.759 -0.02262326 1.2537084e-38 294 257
-0.033269498 0.759 -0.02262326 1.2444888e-38 295 257
-0.032022879 0.76099998 -0.022682872 1.2352693e-38 296 257
-0.030688593 0.76099998 -0.022682872 1.2260497e-38 297 257
-0.029354304 0.76099998 -0.022682872 1.2168301e-38 298 257
-0.027946379 0.759 -0.02262326 1.2168301e-38 299 257
-0.026615599 0.759 -0.02262326 1.20761e-38 300 257
-0.025284819 0.759 -0.02262326 1.1892068e-38 301 257
-0.024017159 0.76099998 -0.022682872 1.1800588e-38 302 257
-0.022682872 0.76099998 -0.022682872 1.1800588e-38 303 257
-0.021348584 0.76099998 -0.022682872 1.1892785e-38 304 257
-0.020014299 0.76099998 -0.022682872 1.1984981e-38 305 257
-0.01863092 0.759 -0.02262326 1.2168652e-38 306 257
-0.017300138 0.759 -0.02262326 1.2168652e-38 307 257
-0.015969358 0.759 -0.02262326 1.1985337e-38 308 257
-0.014600007 0.75700003 -0.022563647 1.1985337e-38 309 257
-0.013272733 0.75700003 -0.022563647 1.1893141e-38 310 257
-0.011913899 0.755 -0.022504034 1.1985337e-38 311 257
-0.010590133 0.755 -0.022504034 1.2168649e-38 312 257
-0.0092663663 0.755 -0.022504034 1.2260844e-38 313 257
-0.0079425992 0.755 -0.022504034 1.2444157e-38 314 257
-0.0066188332 0.755 -0.022504034 1.2444157e-38 315 257
-0.0052880533 0.75400001 -0.022474226 1.2536358e-38 316 257
-0.00396604 0.75400001 -0.022474226 1.2536358e-38 317 257
-0.0026440267 0.75400001 -0.022474226 1.2811516e-38 318 257
-0.0013220133 0.75400001 -0.022474226 1.2903711e-38 319 257
0 0.75199997 -0.022414612 1.2995544e-38 320 257
0.0013185065 0.75199997 -0.022414612 1.3087741e-38 321 257
0.00263 0.75 -0.022355 1.3272125e-38 322 257
0.003945 0.75 -0.022355 1.3456516e-38 323 257
0.0052529867 0.74900001 -0.022325192 1.3273557e-38 324 257
0.0065486995 0.74699998 -0.022265578 1.3273557e-38 325 257
0.0078584393 0.74699998 -0.022265578 1.3549415e-38 326 257
0.0091681797 0.74699998 -0.022265578 1.3549415e-38 327 257
0.010477919 0.74699998 -0.022265578 1.3734167e-38 328 257
0.011771879 0.74599999 -0.022235774 1.3734167e-38 329 257
0.013079867 0.74599999 -0.022235774 1.3734167e-38 330 257
0.014387853 0.74599999 -0.022235774 1.3734167e-38 331 257
0.015653761 0.74400002 -0.022176161 1.4100794e-38 332 257
0.016912652 0.74199998 -0.022116546 1.419299e-38 333 257
0.018189078 0.741 -0.02208674 1.4284469e-38 334 257
0.019488299 0.741 -0.02208674 1.4560696e-38 335 257
0.020731414 0.73900002 -0.022027127 1.4377734e-38 336 257
0.021997318 0.73799998 -0.021997318 1.446993e-38 337 257
0.023228159 0.736 -0.021937706 1.4745794e-38 338 257
0.024518613 0.736 -0.021937706 1.5114217e-38 339 257
0.025738932 0.73400003 -0.021878093 1.5115302e-38 340 257
0.02702588 0.73400003 -0.021878093 1.5022748e-38 341 257
0.028274251 0.73299998 -0.021848286 1.5207848e-38 342 257
0.029559445 0.73299998 -0.021848286 1.5207848e-38 343 257
0.030844638 0.73299998 -0.021848286 1.5483356e-38 344 257
0.032042164 0.73100001 -0.021788673 1.5759943e-38 345 257
0.033278264 0.73000002 -0.021758866 1.5576275e-38 346 257
0.034463517 0.72799999 -0.021699252 1.5576275e-38 347 257
0.035739943 0.72799999 -0.021699252 1.5576628e-38 348 257
0.036965527 0.727 -0.021669446 1.5576628e-38 349 257
0.038135 0.72500002 -0.021609833 1.5760293e-38 350 257
0.039297458 0.72299999 -0.021550218 1.5760293e-38 351 257
0.040509012 0.722 -0.021520413 1.5852492e-38 352 257
0.041774917 0.722 -0.021520413 1.5852492e-38 353 257
0.043040827 0.722 -0.021520413 1.5667377e-38 354 257
0.044183999 0.72000003 -0.021460801 1.5943966e-38 355 257
0.045383278 0.71899998 -0.021430992 1.6313094e-38 356 257
0.046643924 0.71899998 -0.021430992 1.6866268e-38 357 257
0.04777132 0.71700001 -0.021371379 1.7509472e-38 358 257
0.048960082 0.71600002 -0.021341572 1.7786061e-38 359 257
0.050005067 0.713 -0.021252153 1.7786417e-38 360 257
0.051111419 0.71100003 -0.021192541 1.8062643e-38 361 257
0.052358042 0.71100003 -0.021192541 1.8062643e-38 362 257
0.053529263 0.70999998 -0.021162732 1.8154839e-38 363 257
0.054774132 0.70999998 -0.021162732 1.8154836e-38 364 257
0.056018997 0.70999998 -0.021162732 1.8154836e-38 365 257
0.057102561 0.708 -0.021103119 1.8156272e-38 366 257
0.058343921 0.708 -0.021103119 1.8064077e-38 367 257
0.059416957 0.70599997 -0.021043506 1.8339585e-38 368 257
0.060654808 0.70599997 -0.021043506 1.8339585e-38 369 257
0.061980337 0.70700002 -0.021073313 1.8339232e-38 370 257
0.062951677 0.704 -0.020983893 1.8339232e-38 371 257
0.064186029 0.704 -0.020983893 1.8339234e-38 372 257
0.065327443 0.70300001 -0.020954086 1.8339234e-38 373 257
0.066275999 0.69999999 -0.020864666 1.8155189e-38 374 257
0.067503333 0.69999999 -0.020864666 1.7786767e-38 375 257
0.069025226 0.70300001 -0.020954086 1.7877867e-38 376 257
0.070357755 0.704 -0.020983893 1.7600921e-38 377 257
0.071592107 0.704 -0.020983893 1.7324341e-38 378 257
0.072826453 0.704 -0.020983893 1.6494579e-38 379 257
0.073955595 0.70300001 -0.020954086 1.484052e-38 380 257
0.07518819 0.70300001 -0.020954086 1.6408206e-38 381 257
-0.069694996 0.75 -0.023669999 1.788451e-38 267 258
-0.068379998 0.75 -0.023669999 1.6223152e-38 268 258
-0.067065001 0.75 -0.023669999 1.5393032e-38 269 258
-0.06592533 0.75199997 -0.023733119 1.5207161e-38 270 258
-0.064778648 0.75400001 -0.02379624 1.4838738e-38 271 258
-0.06345664 0.75400001 -0.02379624 1.4838003e-38 272 258
-0.062134624 0.75400001 -0.02379624 1.4192634e-38 273 258
-0.060812615 0.75400001 -0.02379624 1.354762e-38 274 258
-0.059490599 0.75400001 -0.02379624 1.3178838e-38 275 258
-0.058245733 0.755 -0.023827799 1.3271757e-38 276 258
-0.056846574 0.75400001 -0.02379624 1.3271757e-38 277 258
-0.055524562 0.75400001 -0.02379624 1.2720749e-38 278 258
-0.054274432 0.755 -0.023827799 1.2720749e-38 279 258
-0.052950665 0.755 -0.023827799 1.272147e-38 280 258
-0.051626898 0.755 -0.023827799 1.272147e-38 281 258
-0.050303131 0.755 -0.023827799 1.272147e-38 282 258
-0.048979364 0.755 -0.023827799 1.272147e-38 283 258
-0.047655597 0.755 -0.023827799 1.2813302e-38 284 258
-0.046454567 0.75700003 -0.02389092 1.2721105e-38 285 258
-0.045127295 0.75700003 -0.02389092 1.253851e-38 286 258
-0.043800019 0.75700003 -0.02389092 1.2446313e-38 287 258
-0.042472746 0.75700003 -0.02389092 1.2445957e-38 288 258
-0.041145474 0.75700003 -0.02389092 1.2445957e-38 289 258
-0.039818201 0.75700003 -0.02389092 1.253744e-38 290 258
-0.038490929 0.75700003 -0.02389092 1.253744e-38 291 258
-0.03726184 0.759 -0.023954039 1.2720396e-38 292 258
-0.035931058 0.759 -0.023954039 1.26282e-38 293 258
-0.010618187 0.75700003 -0.02389092 1.207573e-38 312 258
-0.0092909131 0.75700003 -0.02389092 1.1983535e-38 313 258
-0.0079425992 0.755 -0.023827799 1.2258682e-38 314 258
-0.0066188332 0.755 -0.023827799 1.2350878e-38 315 258
-0.0052950666 0.755 -0.023827799 1.2350528e-38 316 258
-0.0039712996 0.755 -0.023827799 1.2442725e-38 317 258
-0.0026475333 0.755 -0.023827799 1.2443443e-38 318 258
-0.0013237667 0.755 -0.023827799 1.2535639e-38 319 258
0 0.75400001 -0.02379624 1.2810784e-38 320 258
0.0013220133 0.75400001 -0.02379624 1.2994815e-38 321 258
0.0026440267 0.75400001 -0.02379624 1.2903696e-38 322 258
0.0039555198 0.75199997 -0.023733119 1.3088088e-38 323 258
0.00526 0.75 -0.023669999 1.3088444e-38 324 258
0.006575 0.75 -0.023669999 1.3088444e-38 325 258
0.0078794798 0.74900001 -0.02363844 1.3272473e-38 326 258
0.0091681797 0.74699998 -0.023575317 1.3272473e-38 327 258
0.010477919 0.74699998 -0.023575317 1.3457223e-38 328 258
0.011787659 0.74699998 -0.023575317 1.3457223e-38 329 258
0.013097399 0.74699998 -0.023575317 1.3732731e-38 330 258
0.014387853 0.74599999 -0.023543758 1.3732731e-38 331 258
0.015695838 0.74599999 -0.023543758 1.4007876e-38 332 258
0.016958239 0.74400002 -0.023480639 1.4007876e-38 333 258
0.018213626 0.74199998 -0.023417519 1.4099352e-38 334 258
0.019488299 0.741 -0.023385961 1.3822765e-38 335 258
0.020731414 0.73900002 -0.023322839 1.3178109e-38 336 258
0.022027127 0.73900002 -0.023322839 1.3547252e-38 337 258
0.023291279 0.73799998 -0.023291279 1.4100071e-38 338 258
0.024518613 0.736 -0.023228159 1.4837638e-38 339 258
0.025738932 0.73400003 -0.023165042 1.5113864e-38 340 258
0.02702588 0.73400003 -0.023165042 1.4929833e-38 341 258
0.028274251 0.73299998 -0.023133477 1.5207122e-38 342 258
0.029559445 0.73299998 -0.023133477 1.5299318e-38 343 258
0.030844638 0.73299998 -0.023133477 1.5391516e-38 344 258
0.032042164 0.73100001 -0.02307036 1.5391516e-38 345 258
0.033278264 0.73000002 -0.023038799 1.5483356e-38 346 258
0.034463517 0.72799999 -0.022975679 1.5575553e-38 347 258
0.035739943 0.72799999 -0.022975679 1.5576262e-38 348 258
0.036965527 0.727 -0.022944121 1.5576262e-38 349 258
0.038135 0.72500002 -0.022880999 1.5759571e-38 350 258
0.039243106 0.722 -0.022786319 1.5759571e-38 351 258
0.040509012 0.722 -0.022786319 1.5851773e-38 352 258
0.041774917 0.722 -0.022786319 1.5851773e-38 353 258
0.043040827 0.722 -0.022786319 1.5759574e-38 354 258
0.044183999 0.72000003 -0.022723202 1.585177e-38 355 258
0.045383278 0.71899998 -0.022691639 1.5944319e-38 356 258
0.046514176 0.71700001 -0.02262852 1.6220545e-38 357 258
0.047704693 0.71600002 -0.022596961 1.6498208e-38 358 258
0.048823316 0.71399999 -0.022533838 1.686735e-38 359 258
0.049864799 0.71100003 -0.022439159 1.7418723e-38 360 258
0.051039528 0.70999998 -0.022407599 1.7510918e-38 361 258
0.052284397 0.70999998 -0.022407599 1.7969726e-38 362 258
0.053378478 0.708 -0.022344479 1.8061922e-38 363 258
0.054619838 0.708 -0.022344479 1.8154826e-38 364 258
0.055861197 0.708 -0.022344479 1.8154826e-38 365 258
0.057102561 0.708 -0.022344479 1.8339215e-38 366 258
0.05826151 0.70700002 -0.022312919 1.8247019e-38 367 258
0.059164476 0.70300001 -0.02218668 1.8339219e-38 368 258
0.06039707 0.70300001 -0.02218668 1.8339219e-38 369 258
0.061629668 0.70300001 -0.02218668 1.8338866e-38 370 258
0.062683418 0.70099998 -0.022123558 1.8338866e-38 371 258
0.063912503 0.70099998 -0.022123558 1.8247036e-38 372 258
0.065048665 0.69999999 -0.022091998 1.8247036e-38 373 258
0.066275999 0.69999999 -0.022091998 1.8247392e-38 374 258
0.067503333 0.69999999 -0.022091998 1.7878609e-38 375 258
0.068828844 0.70099998 -0.022123558 1.7877881e-38 376 258
0.070357755 0.704 -0.022218239 1.7601653e-38 377 258
0.071490414 0.70300001 -0.02218668 1.7600924e-38 378 258
0.072723009 0.70300001 -0.02218668 1.704775e-38 379 258
0.073955595 0.70300001 -0.02218668 1.6127615e-38 380 258
0.07518819 0.70300001 -0.02218668 1.6219811e-38 381 258
0.076420791 0.70300001 -0.02218668 1.5305143e-38 382 258
-0.070915319 0.74900001 -0.024951685 1.9264899e-38 266 259
-0.069602072 0.74900001 -0.024951685 1.6960367e-38 267 259
-0.068379998 0.75 -0.024984999 1.4837678e-38 268 259
-0.067065001 0.75 -0.024984999 1.4837678e-38 269 259
-0.06592533 0.75199997 -0.025051624 1.50224e-38 270 259
-0.064606823 0.75199997 -0.025051624 1.4469226e-38 271 259
-0.06345664 0.75400001 -0.025118252 1.4100441e-38 272 259
-0.062134624 0.75400001 -0.025118252 1.3639463e-38 273 259
-0.060812615 0.75400001 -0.025118252 1.2996264e-38 274 259
-0.059490599 0.75400001 -0.025118252 1.2627482e-38 275 259
-0.058245733 0.755 -0.025151566 1.2628203e-38 276 259
-0.056846574 0.75400001 -0.025118252 1.2628203e-38 277 259
-0.055524562 0.75400001 -0.025118252 1.2352337e-38 278 259
-0.054274432 0.755 -0.025151566 1.2352337e-38 279 259
-0.052950665 0.755 -0.025151566 1.226051e-38 280 259
-0.051626898 0.755 -0.025151566 1.226051e-38 281 259
-0.050436385 0.75700003 -0.025218192 1.2077195e-38 282 259
-0.049109112 0.75700003 -0.025218192 1.2077195e-38 283 259
-0.04778184 0.75700003 -0.025218192 1.2170099e-38 284 259
-0.046454567 0.75700003 -0.025218192 1.2170099e-38 285 259
-0.045127295 0.75700003 -0.025218192 1.2170094e-38 286 259
-0.043800019 0.75700003 -0.025218192 1.2077898e-38 287 259
-0.042472746 0.75700003 -0.025218192 1.2077901e-38 288 259
-0.0052950666 0.755 -0.025151566 1.1431112e-38 316 259
-0.0039712996 0.755 -0.025151566 1.1431112e-38 317 259
-0.0013237667 0.755 -0.025151566 1.1707339e-38 319 259
0.0013220133 0.75400001 -0.025118252 1.2075027e-38 321 259
0.0026440267 0.75400001 -0.025118252 1.2260128e-38 322 259
0.00396604 0.75400001 -0.025118252 1.2536355e-38 323 259
0.0052740262 0.75199997 -0.025051624 1.2261216e-38 324 259
0.0065925326 0.75199997 -0.025051624 1.2261216e-38 325 259
0.00789 0.75 -0.024984999 1.2352339e-38 326 259
0.0091927266 0.74900001 -0.024951685 1.2444535e-38 327 259
0.010505973 0.74900001 -0.024951685 1.2812596e-38 328 259
0.011787659 0.74699998 -0.024885058 1.2812596e-38 329 259
0.013097399 0.74699998 -0.024885058 1.3088104e-38 330 259
0.014407139 0.74699998 -0.024885058 1.3088104e-38 331 259
0.015695838 0.74599999 -0.024851745 1.3363605e-38 332 259
0.017003827 0.74599999 -0.024851745 1.3363605e-38 333 259
0.01826272 0.74400002 -0.02478512 1.3454716e-38 334 259
0.0195146 0.74199998 -0.024718491 1.3270683e-38 335 259
0.020787518 0.741 -0.024685178 1.3086295e-38 336 259
0.022027127 0.73900002 -0.024618553 1.3086295e-38 337 259
0.023291279 0.73799998 -0.024585238 1.3177409e-38 338 259
0.024518613 0.736 -0.024518613 1.3914974e-38 339 259
0.025738932 0.73400003 -0.024451986 1.4285902e-38 340 259
0.02702588 0.73400003 -0.024451986 1.4378097e-38 341 259
0.028274251 0.73299998 -0.024418673 1.474651e-38 342 259
0.029559445 0.73299998 -0.024418673 1.4930902e-38 343 259
0.030844638 0.73299998 -0.024418673 1.502382e-38 344 259
0.032042164 0.73100001 -0.024352046 1.5116015e-38 345 259
0.033278264 0.73000002 -0.024318734 1.5207498e-38 346 259
0.034463517 0.72799999 -0.024252106 1.5207498e-38 347 259
0.035739943 0.72799999 -0.024252106 1.5391882e-38 348 259
0.036965527 0.727 -0.024218792 1.5391882e-38 349 259
0.038135 0.72500002 -0.024152167 1.5667021e-38 350 259
0.039243106 0.722 -0.024052227 1.5759218e-38 351 259
0.040509012 0.722 -0.024052227 1.5759937e-38 352 259
0.041774917 0.722 -0.024052227 1.5759937e-38 353 259
0.042921603 0.72000003 -0.0239856 1.575994e-38 354 259
0.044183999 0.72000003 -0.0239856 1.575994e-38 355 259
0.045383278 0.71899998 -0.023952285 1.5851783e-38 356 259
0.046514176 0.71700001 -0.02388566 1.5944337e-38 357 259
0.047571439 0.71399999 -0.02378572 1.6128378e-38 358 259
0.048754938 0.713 -0.023752406 1.6496802e-38 359 259
0.049864799 0.71100003 -0.023685781 1.6865567e-38 360 259
0.051039528 0.70999998 -0.023652466 1.704996e-38 361 259
0.052284397 0.70999998 -0.023652466 1.7786061e-38 362 259
0.053378478 0.708 -0.023585839 1.8062646e-38 363 259
0.054542694 0.70700002 -0.023552528 1.7879681e-38 364 259
0.055782299 0.70700002 -0.023552528 1.7879681e-38 365 259
0.056941248 0.70599997 -0.023519212 1.8062991e-38 366 259
0.058179103 0.70599997 -0.023519212 1.8062991e-38 367 259
0.059164476 0.70300001 -0.023419274 1.8155545e-38 368 259
0.06039707 0.70300001 -0.023419274 1.8155545e-38 369 259
0.061366666 0.69999999 -0.023319334 1.8155192e-38 370 259
0.062593997 0.69999999 -0.023319334 1.8247389e-38 371 259
0.063638985 0.69800001 -0.023252707 1.8247039e-38 372 259
0.06486281 0.69800001 -0.023252707 1.8247039e-38 373 259
0.066086642 0.69800001 -0.023252707 1.8246669e-38 374 259
0.06731046 0.69800001 -0.023252707 1.8154473e-38 375 259
0.068534292 0.69800001 -0.023252707 1.8062262e-38 376 259
0.070057929 0.70099998 -0.023352645 1.7877511e-38 377 259
0.071287021 0.70099998 -0.023352645 1.769347e-38 378 259
0.072516106 0.70099998 -0.023352645 1.7325047e-38 379 259
0.073745191 0.70099998 -0.023352645 1.6956631e-38 380 259
0.074974284 0.70099998 -0.023352645 1.6219066e-38 381 259
0.076203369 0.70099998 -0.023352645 1.5023472e-38 382 259
0.077432454 0.70099998 -0.023352645 1.594543e-38 383 259
-0.070915319 0.74900001 -0.026264934 1.5939369e-38 266 260
-0.069602072 0.74900001 -0.026264934 1.483338e-38 267 260
-0.068288825 0.74900001 -0.026264934 1.4559993e-38 268 260
-0.066975579 0.74900001 -0.026264934 1.4191212e-38 269 260
-0.06592533 0.75199997 -0.02637013 1.3546546e-38 270 260
-0.064606823 0.75199997 -0.02637013 1.3362153e-38 271 260
-0.06345664 0.75400001 -0.026440267 1.3087008e-38 272 260
-0.062134624 0.75400001 -0.026440267 1.262639e-38 273 260
-0.060812615 0.75400001 -0.026440267 1.2810431e-38 274 260
-0.059490599 0.75400001 -0.026440267 1.2718235e-38 275 260
-0.058168583 0.75400001 -0.026440267 1.2443088e-38 276 260
-0.056921966 0.755 -0.026475333 1.2350892e-38 277 260
-0.055598196 0.755 -0.026475333 1.2350174e-38 278 260
-0.054274432 0.755 -0.026475333 1.2257979e-38 279 260
-0.052950665 0.755 -0.026475333 1.2257979e-38 280 260
0.00789 0.75 -0.0263 1.189062e-38 326 260
0.0092049995 0.75 -0.0263 1.2166847e-38 327 260
0.010505973 0.74900001 -0.026264934 1.2718586e-38 328 260
0.01181922 0.74900001 -0.026264934 1.2810781e-38 329 260
0.013097399 0.74699998 -0.026194798 1.3086289e-38 330 260
0.014407139 0.74699998 -0.026194798 1.3178844e-38 331 260
0.015716879 0.74699998 -0.026194798 1.3362153e-38 332 260
0.017003827 0.74599999 -0.026159734 1.3454349e-38 333 260
0.01826272 0.74400002 -0.026089599 1.3454702e-38 334 260
0.019567199 0.74400002 -0.026089599 1.3454702e-38 335 260
0.020815572 0.74199998 -0.026019465 1.3271389e-38 336 260
0.02208674 0.741 -0.025984399 1.3271389e-38 337 260
0.023322839 0.73900002 -0.025914267 1.3545099e-38 338 260
0.024585238 0.73799998 -0.025879199 1.3176677e-38 339 260
0.025809066 0.736 -0.025809066 1.2534891e-38 340 260
0.02702588 0.73400003 -0.025738932 1.3088065e-38 341 260
0.028312827 0.73400003 -0.025738932 1.4193693e-38 342 260
0.029559445 0.73299998 -0.025703866 1.4746866e-38 343 260
0.030844638 0.73299998 -0.025703866 1.5112781e-38 344 260
0.032042164 0.73100001 -0.025633732 1.5389009e-38 345 260
0.033278264 0.73000002 -0.025598666 1.5205694e-38 346 260
0.034463517 0.72799999 -0.025528532 1.5390444e-38 347 260
0.035690852 0.727 -0.025493465 1.5665952e-38 348 260
0.036863834 0.72500002 -0.025423333 1.5758148e-38 349 260
0.038135 0.72500002 -0.025423333 1.5759221e-38 350 260
0.039243106 0.722 -0.025318133 1.5759221e-38 351 260
0.040396802 0.72000003 -0.025248 1.585177e-38 352 260
0.041659199 0.72000003 -0.025248 1.585177e-38 353 260
0.042861983 0.71899998 -0.025212931 1.5759937e-38 354 260
0.044122629 0.71899998 -0.025212931 1.5759937e-38 355 260
0.045257039 0.71700001 -0.0251428 1.5943612e-38 356 260
0.046514176 0.71700001 -0.0251428 1.5943612e-38 357 260
0.047571439 0.71399999 -0.025037598 1.6218757e-38 358 260
0.048754938 0.713 -0.025002534 1.6402788e-38 359 260
0.049864799 0.71100003 -0.024932399 1.6312025e-38 360 260
0.051039528 0.70999998 -0.024897331 1.6773003e-38 361 260
0.052284397 0.70999998 -0.024897331 1.732688e-38 362 260
0.053378478 0.708 -0.024827199 1.7511272e-38 363 260
0.054542694 0.70700002 -0.024792133 1.8061912e-38 364 260
0.055703394 0.70599997 -0.024757065 1.8245943e-38 365 260
0.056941248 0.70599997 -0.024757065 1.8154821e-38 366 260
0.058014292 0.704 -0.024686933 1.8154821e-38 367 260
0.059164476 0.70300001 -0.024651866 1.8154824e-38 368 260
0.06039707 0.70300001 -0.024651866 1.8154824e-38 369 260
0.061191335 0.69800001 -0.024476532 1.8337783e-38 370 260
0.062415157 0.69800001 -0.024476532 1.8430337e-38 371 260
0.06354782 0.69700003 -0.024441468 1.8246669e-38 372 260
0.064769886 0.69700003 -0.024441468 1.8338866e-38 373 260
0.06599196 0.69700003 -0.024441468 1.8247389e-38 374 260
0.067214034 0.69700003 -0.024441468 1.8247389e-38 375 260
0.068436109 0.69700003 -0.024441468 1.7879684e-38 376 260
0.069758117 0.69800001 -0.024476532 1.7879684e-38 377 260
0.07098195 0.69800001 -0.024476532 1.7694215e-38 378 260
0.072205767 0.69800001 -0.024476532 1.760202e-38 379 260
0.073429599 0.69800001 -0.024476532 1.7233596e-38 380 260
0.074653424 0.69800001 -0.024476532 1.7048846e-38 381 260
0.075877249 0.69800001 -0.024476532 1.6312025e-38 382 260
0.077101074 0.69800001 -0.024476532 1.6035438e-38 383 260
-0.070725955 0.74699998 -0.027504537 1.4003964e-38 266 261
-0.069416218 0.74699998 -0.027504537 1.3543345e-38 267 261
-0.068106472 0.74699998 -0.027504537 1.373238e-38 268 261
-0.066975579 0.74900001 -0.027578179 1.3271403e-38 269 261
-0.065662332 0.74900001 -0.027578179 1.2442725e-38 270 261
-0.064606823 0.75199997 -0.027688639 1.2718951e-38 271 261
-0.063288316 0.75199997 -0.027688639 1.2535652e-38 272 261
-0.062134624 0.75400001 -0.027762281 1.2167229e-38 273 261
-0.060812615 0.75400001 -0.027762281 1.1891366e-38 274 261
-0.059490599 0.75400001 -0.027762281 1.1799168e-38 275 261
-0.058168583 0.75400001 -0.027762281 1.1707686e-38 276 261
0.014407139 0.74699998 -0.027504537 1.2350895e-38 331 261
0.015716879 0.74699998 -0.027504537 1.2167229e-38 332 261
0.017026618 0.74699998 -0.027504537 1.2259425e-38 333 261
0.018311813 0.74599999 -0.027467718 1.2536358e-38 334 261
0.019567199 0.74400002 -0.027394081 1.2536358e-38 335 261
0.020815572 0.74199998 -0.027320439 1.2904052e-38 336 261
0.022116546 0.74199998 -0.027320439 1.2904052e-38 337 261
0.023385961 0.741 -0.027283618 1.3178844e-38 338 261
0.024618553 0.73900002 -0.027209979 1.3178844e-38 339 261
0.025879199 0.73799998 -0.027173158 1.2904052e-38 340 261
0.02709952 0.736 -0.02709952 1.2904052e-38 341 261
0.028312827 0.73400003 -0.02702588 1.36391e-38 342 261
0.029559445 0.73299998 -0.026989058 1.4284469e-38 343 261
0.030844638 0.73299998 -0.026989058 1.4377384e-38 344 261
0.032042164 0.73100001 -0.026915418 1.4745808e-38 345 261
0.033278264 0.73000002 -0.026878599 1.4929839e-38 346 261
0.034463517 0.72799999 -0.026804959 1.511387e-38 347 261
0.035690852 0.727 -0.026768139 1.5298261e-38 348 261
0.036863834 0.72500002 -0.026694499 1.5390457e-38 349 261
0.038135 0.72500002 -0.026694499 1.5483362e-38 350 261
0.039243106 0.722 -0.026584039 1.5575559e-38 351 261
0.040396802 0.72000003 -0.026510401 1.5484076e-38 352 261
0.041659199 0.72000003 -0.026510401 1.5576272e-38 353 261
0.042861983 0.71899998 -0.02647358 1.575994e-38 354 261
0.043999899 0.71700001 -0.02639994 1.5852136e-38 355 261
0.045257039 0.71700001 -0.02639994 1.5851417e-38 356 261
0.046449307 0.71600002 -0.026363119 1.5943612e-38 357 261
0.047571439 0.71399999 -0.026289478 1.6126927e-38 358 261
0.048754938 0.713 -0.026252659 1.6219123e-38 359 261
0.049864799 0.71100003 -0.026179021 1.6036164e-38 360 261
0.051039528 0.70999998 -0.026142199 1.5943968e-38 361 261
0.052137118 0.708 -0.026068559 1.6314899e-38 362 261
0.053303085 0.70700002 -0.02603174 1.6775517e-38 363 261
0.054465543 0.70599997 -0.025994917 1.7419073e-38 364 261
0.055545598 0.704 -0.02592128 1.7511269e-38 365 261
0.056779943 0.704 -0.02592128 1.7787483e-38 366 261
0.057931885 0.70300001 -0.025884461 1.7787483e-38 367 261
0.059164476 0.70300001 -0.025884461 1.8062994e-38 368 261
0.060139328 0.69999999 -0.025773998 1.7878963e-38 369 261
0.061191335 0.69800001 -0.025700359 1.8154476e-38 370 261
0.062415157 0.69800001 -0.025700359 1.8246672e-38 371 261
0.06354782 0.69700003 -0.025663542 1.8338513e-38 372 261
0.064769886 0.69700003 -0.025663542 1.8338513e-38 373 261
0.065897278 0.69599998 -0.025626717 1.8247392e-38 374 261
0.067117594 0.69599998 -0.025626717 1.8154836e-38 375 261
0.068436109 0.69700003 -0.025663542 1.8339219e-38 376 261
0.069658175 0.69700003 -0.025663542 1.8154826e-38 377 261
0.070880257 0.69700003 -0.025663542 1.8061906e-38 378 261
0.071998879 0.69599998 -0.025626717 1.7969711e-38 379 261
0.073219195 0.69599998 -0.025626717 1.7602003e-38 380 261
0.074546471 0.69700003 -0.025663542 1.7325416e-38 381 261
0.075768545 0.69700003 -0.025663542 1.7139242e-38 382 261
0.076990619 0.69700003 -0.025663542 1.6401677e-38 383 261
0.078212693 0.69700003 -0.025663542 1.4932016e-38 384 261
-0.069137439 0.74400002 -0.02869856 1.2530985e-38 267 262
-0.068106472 0.74699998 -0.028814279 1.2166146e-38 268 262
-0.066975579 0.74900001 -0.028891427 1.1797724e-38 269 262
-0.065662332 0.74900001 -0.028891427 1.1522579e-38 270 262
-0.064434998 0.75 -0.028929999 1.1614774e-38 271 262
0.02087168 0.74400002 -0.02869856 1.2626387e-38 336 262
0.022116546 0.74199998 -0.028621411 1.2810778e-38 337 262
0.023385961 0.741 -0.028582839 1.2994812e-38 338 262
0.024618553 0.73900002 -0.028505694 1.3087008e-38 339 262
0.025879199 0.73799998 -0.028467119 1.3547618e-38 340 262
0.02709952 0.736 -0.028389972 1.3547618e-38 341 262
0.028312827 0.73400003 -0.028312827 1.3823484e-38 342 262
0.029599773 0.73400003 -0.028312827 1.4007876e-38 343 262
0.030844638 0.73299998 -0.028274251 1.4009322e-38 344 262
0.032042164 0.73100001 -0.028197108 1.4285907e-38 345 262
0.033323854 0.73100001 -0.028197108 1.4744369e-38 346 262
0.034463517 0.72799999 -0.028081384 1.5020955e-38 347 262
0.035739943 0.72799999 -0.028081384 1.52057e-38 348 262
0.036965527 0.727 -0.028042812 1.5297895e-38 349 262
0.0379772 0.722 -0.027849946 1.5298614e-38 350 262
0.039243106 0.722 -0.027849946 1.539081e-38 351 262
0.040396802 0.72000003 -0.027772799 1.5483726e-38 352 262
0.041601337 0.71899998 -0.027734226 1.5483726e-38 353 262
0.042861983 0.71899998 -0.027734226 1.5576275e-38 354 262
0.043999899 0.71700001 -0.027657079 1.566847e-38 355 262
0.045193922 0.71600002 -0.027618507 1.5852136e-38 356 262
0.046449307 0.71600002 -0.027618507 1.575994e-38 357 262
0.047504812 0.713 -0.027502786 1.6127281e-38 358 262
0.048618179 0.71100003 -0.027425639 1.6035085e-38 359 262
0.049794663 0.70999998 -0.027387066 1.5851773e-38 360 262
0.050895758 0.708 -0.027309919 1.5759218e-38 361 262
0.052137118 0.708 -0.027309919 1.5669176e-38 362 262
0.053303085 0.70700002 -0.027271347 1.622235e-38 363 262
0.054465543 0.70599997 -0.027232772 1.6867347e-38 364 262
0.055545598 0.704 -0.027155625 1.7143934e-38 365 262
0.056699295 0.70300001 -0.027117053 1.7787133e-38 366 262
0.057931885 0.70300001 -0.027117053 1.7694937e-38 367 262
0.058911994 0.69999999 -0.027001332 1.778713e-38 368 262
0.059967503 0.69800001 -0.026924185 1.778713e-38 369 262
0.061191335 0.69800001 -0.026924185 1.8154476e-38 370 262
0.062325738 0.69700003 -0.026885614 1.8154476e-38 371 262
0.06354782 0.69700003 -0.026885614 1.8246316e-38 372 262
0.064769886 0.69700003 -0.026885614 1.8246316e-38 373 262
0.065897278 0.69599998 -0.026847038 1.8246319e-38 374 262
0.067117594 0.69599998 -0.026847038 1.8338516e-38 375 262
0.068337917 0.69599998 -0.026847038 1.8338513e-38 376 262
0.069558233 0.69599998 -0.026847038 1.8246316e-38 377 262
0.07057517 0.69400001 -0.026769891 1.8154476e-38 378 262
0.07168854 0.69300002 -0.02673132 1.8061922e-38 379 262
0.072903603 0.69300002 -0.02673132 1.7693852e-38 380 262
0.074118659 0.69300002 -0.02673132 1.7601297e-38 381 262
0.075333714 0.69300002 -0.02673132 1.7324357e-38 382 262
0.076548778 0.69300002 -0.02673132 1.704813e-38 383 262
0.077763841 0.69300002 -0.02673132 1.5666322e-38 384 262
0.078978904 0.69300002 -0.02673132 1.5574125e-38 385 262
-0.068015307 0.74599999 -0.03008369 1.1794865e-38 268 263
-0.066796735 0.74699998 -0.030124018 1.1702669e-38 269 263
-0.065662332 0.74900001 -0.030204674 1.1336042e-38 270 263
0.023417519 0.74199998 -0.029922385 1.2533837e-38 338 263
0.024685178 0.741 -0.029882059 1.2810784e-38 339 263
0.025914267 0.73900002 -0.029801406 1.317956e-38 340 263
0.02709952 0.736 -0.029680425 1.317956e-38 341 263
0.028312827 0.73400003 -0.029599773 1.3271759e-38 342 263
0.029599773 0.73400003 -0.029599773 1.3456151e-38 343 263
0.030844638 0.73299998 -0.029559445 1.3824579e-38 344 263
0.032042164 0.73100001 -0.029478792 1.4008971e-38 345 263
0.033323854 0.73100001 -0.029478792 1.4468147e-38 346 263
0.034463517 0.72799999 -0.029357811 1.4652539e-38 347 263
0.035739943 0.72799999 -0.029357811 1.4745087e-38 348 263
0.036965527 0.727 -0.029317487 1.4837284e-38 349 263
0.0379772 0.722 -0.029115854 1.4930555e-38 350 263
0.039243106 0.722 -0.029115854 1.5022751e-38 351 263
0.040396802 0.72000003 -0.029035201 1.5207142e-38 352 263
0.041601337 0.71899998 -0.028994869 1.5391533e-38 353 263
0.042742759 0.71700001 -0.028914221 1.5484082e-38 354 263
0.043999899 0.71700001 -0.028914221 1.5484082e-38 355 263
0.045193922 0.71600002 -0.028873893 1.5851064e-38 356 263
0.046319555 0.71399999 -0.028793238 1.5758868e-38 357 263
0.047504812 0.713 -0.028752912 1.5851417e-38 358 263
0.048618179 0.71100003 -0.028672259 1.5759221e-38 359 263
0.049794663 0.70999998 -0.028631933 1.5759221e-38 360 263
0.050895758 0.708 -0.02855128 1.5759221e-38 361 263
0.052137118 0.708 -0.02855128 1.5851773e-38 362 263
0.053227689 0.70599997 -0.028470624 1.6036164e-38 363 263
0.054311249 0.704 -0.028389972 1.6313827e-38 364 263
0.0554667 0.70300001 -0.028349647 1.6682249e-38 365 263
0.056699295 0.70300001 -0.028349647 1.7235057e-38 366 263
0.057767071 0.70099998 -0.028268991 1.7327253e-38 367 263
0.058743682 0.69800001 -0.028148014 1.7694581e-38 368 263
0.059967503 0.69800001 -0.028148014 1.7694581e-38 369 263
0.061103668 0.69700003 -0.028107686 1.8061922e-38 370 263
0.062325738 0.69700003 -0.028107686 1.8061922e-38 371 263
0.063456632 0.69599998 -0.028067358 1.8061924e-38 372 263
0.064676955 0.69599998 -0.028067358 1.815412e-38 373 263
0.065897278 0.69599998 -0.028067358 1.8154123e-38 374 263
0.067117594 0.69599998 -0.028067358 1.8246319e-38 375 263
0.068141542 0.69400001 -0.027986705 1.8337432e-38 376 263
0.069358356 0.69400001 -0.027986705 1.8337432e-38 377 263
0.070473477 0.69300002 -0.027946379 1.8245587e-38 378 263
0.071481638 0.69099998 -0.027865725 1.8245587e-38 379 263
0.072693199 0.69099998 -0.027865725 1.7969357e-38 380 263
0.073904753 0.69099998 -0.027865725 1.7877162e-38 381 263
0.075116299 0.69099998 -0.027865725 1.7509104e-38 382 263
0.076548778 0.69300002 -0.027946379 1.7509104e-38 383 263
0.077763841 0.69300002 -0.027946379 1.6770848e-38 384 263
0.078978904 0.69300002 -0.027946379 1.6217676e-38 385 263
0.02709952 0.736 -0.030970879 1.2442719e-38 341 264
0.028389972 0.736 -0.030970879 1.2994815e-38 342 264
0.029599773 0.73400003 -0.030886721 1.3179206e-38 343 264
0.030844638 0.73299998 -0.030844638 1.3456516e-38 344 264
0.032129832 0.73299998 -0.030844638 1.3548712e-38 345 264
0.033323854 0.73100001 -0.03076048 1.3824579e-38 346 264
0.034558199 0.73000002 -0.030718399 1.3916776e-38 347 264
0.035739943 0.72799999 -0.030634239 1.4101167e-38 348 264
0.036965527 0.727 -0.030592158 1.4285198e-38 349 264
0.0379772 0.722 -0.030381758 1.4469942e-38 350 264
0.039243106 0.722 -0.030381758 1.4562498e-38 351 264
0.040396802 0.72000003 -0.0302976 1.511387e-38 352 264
0.041601337 0.71899998 -0.030255521 1.5206066e-38 353 264
0.042742759 0.71700001 -0.030171359 1.5115668e-38 354 264
0.043938532 0.71600002 -0.03012928 1.5207865e-38 355 264
0.045193922 0.71600002 -0.03012928 1.5391533e-38 356 264
0.046319555 0.71399999 -0.030045118 1.5483729e-38 357 264
0.047504812 0.713 -0.030003037 1.5575556e-38 358 264
0.048618179 0.71100003 -0.029918881 1.5575556e-38 359 264
0.049794663 0.70999998 -0.029876797 1.5575909e-38 360 264
0.050895758 0.708 -0.02979264 1.5575909e-38 361 264
0.05206348 0.70700002 -0.029750559 1.5667027e-38 362 264
0.053227689 0.70599997 -0.029708479 1.585142e-38 363 264
0.054311249 0.704 -0.029624319 1.5668826e-38 364 264
0.0554667 0.70300001 -0.029582238 1.6037249e-38 365 264
0.056537982 0.70099998 -0.029498078 1.631419e-38 366 264
0.057519849 0.69800001 -0.029371841 1.6775168e-38 367 264
0.058743682 0.69800001 -0.029371841 1.7510202e-38 368 264
0.05988159 0.69700003 -0.02932976 1.7418007e-38 369 264
0.061103668 0.69700003 -0.02932976 1.7786426e-38 370 264
0.062325738 0.69700003 -0.02932976 1.7786426e-38 371 264
0.063456632 0.69599998 -0.029287677 1.8061571e-38 372 264
0.064676955 0.69599998 -0.029287677 1.8061571e-38 373 264
0.065707922 0.69400001 -0.029203519 1.8061574e-38 374 264
0.066924736 0.69400001 -0.029203519 1.8061574e-38 375 264
0.068141542 0.69400001 -0.029203519 1.8061571e-38 376 264
0.069258414 0.69300002 -0.029161438 1.8061571e-38 377 264
0.070473477 0.69300002 -0.029161438 1.8061922e-38 378 264
0.071481638 0.69099998 -0.029077278 1.8061922e-38 379 264
0.072693199 0.69099998 -0.029077278 1.7969363e-38 380 264
0.0737978 0.69 -0.029035198 1.7969363e-38 381 264
0.075007595 0.69 -0.029035198 1.769385e-38 382 264
0.076327853 0.69099998 -0.029077278 1.7601653e-38 383 264
0.077427194 0.69 -0.029035198 1.7416558e-38 384 264
0.078409068 0.68800002 -0.028951041 1.695558e-38 385 264
0.079615362 0.68800002 -0.028951041 1.4745833e-38 386 264
0.029680425 0.736 -0.032261331 1.2810794e-38 343 265
0.030844638 0.73299998 -0.032129832 1.2627838e-38 344 265
0.032129832 0.73299998 -0.032129832 1.2904064e-38 345 265
0.033323854 0.73100001 -0.032042164 1.3729863e-38 346 265
0.034558199 0.73000002 -0.031998333 1.3914255e-38 347 265
0.035739943 0.72799999 -0.031910665 1.3732733e-38 348 265
0.036965527 0.727 -0.03186683 1.3917126e-38 349 265
0.038135 0.72500002 -0.031779166 1.4468498e-38 350 265
0.039243106 0.722 -0.031647664 1.4560693e-38 351 265
0.040396802 0.72000003 -0.03156 1.4929109e-38 352 265
0.041601337 0.71899998 -0.031516165 1.5021304e-38 353 265
0.042742759 0.71700001 -0.031428497 1.5206413e-38 354 265
0.043938532 0.71600002 -0.031384666 1.5206413e-38 355 265
0.045067675 0.71399999 -0.031296998 1.5298612e-38 356 265
0.046319555 0.71399999 -0.031296998 1.5390807e-38 357 265
0.047504812 0.713 -0.031253166 1.5483362e-38 358 265
0.048754938 0.713 -0.031253166 1.5483362e-38 359 265
0.049794663 0.70999998 -0.031121666 1.5483356e-38 360 265
0.050895758 0.708 -0.031034 1.5483356e-38 361 265
0.05206348 0.70700002 -0.030990168 1.5483712e-38 362 265
0.053076904 0.704 -0.030858666 1.5483712e-38 363 265
0.054234106 0.70300001 -0.030814834 1.5575553e-38 364 265
0.0554667 0.70300001 -0.030814834 1.5759943e-38 365 265
0.056296028 0.69800001 -0.030595668 1.6219479e-38 366 265
0.057519849 0.69800001 -0.030595668 1.640387e-38 367 265
0.05865952 0.69700003 -0.030551834 1.7048508e-38 368 265
0.05988159 0.69700003 -0.030551834 1.7141063e-38 369 265
0.061103668 0.69700003 -0.030551834 1.7326524e-38 370 265
0.062236317 0.69599998 -0.030507999 1.7326524e-38 371 265
0.063456632 0.69599998 -0.030507999 1.7876458e-38 372 265
0.064491108 0.69400001 -0.030420333 1.7968654e-38 373 265
0.06561324 0.69300002 -0.0303765 1.796901e-38 374 265
0.066828303 0.69300002 -0.0303765 1.796901e-38 375 265
0.068043359 0.69300002 -0.0303765 1.8061559e-38 376 265
0.069058537 0.69099998 -0.030288832 1.8061559e-38 377 265
0.070270091 0.69099998 -0.030288832 1.8061556e-38 378 265
0.071378194 0.69 -0.030244999 1.8061556e-38 379 265
0.072587997 0.69 -0.030244999 1.796936e-38 380 265
0.073583893 0.68800002 -0.030157333 1.796936e-38 381 265
0.074790187 0.68800002 -0.030157333 1.7694571e-38 382 265
0.076217398 0.69 -0.030244999 1.7602017e-38 383 265
0.077202775 0.68800002 -0.030157333 1.7326157e-38 384 265
0.078295097 0.68699998 -0.030113498 1.7049212e-38 385 265
0.079499632 0.68699998 -0.030113498 1.5942909e-38 386 265
0.080704175 0.68699998 -0.030113498 1.5574125e-38 387 265
0.081908718 0.68699998 -0.030113498 1.420026e-38 388 265
0.083113261 0.68699998 -0.030113498 1.6597345e-38 389 265
0.084440529 0.68800002 -0.030157333 1.7887044e-38 390 265
0.030844638 0.73299998 -0.033415023 1.1799519e-38 344 266
0.032129832 0.73299998 -0.033415023 1.2168301e-38 345 266
0.033323854 0.73100001 -0.033323854 1.2718949e-38 346 266
0.034605537 0.73100001 -0.033323854 1.2811503e-38 347 266
0.035838135 0.73000002 -0.033278264 1.3272478e-38 348 266
0.037016369 0.72799999 -0.033187091 1.3549065e-38 349 266
0.038240198 0.727 -0.033141505 1.3641984e-38 350 266
0.039243106 0.722 -0.032913569 1.3734179e-38 351 266
0.040396802 0.72000003 -0.0328224 1.4102242e-38 352 266
0.041601337 0.71899998 -0.032776814 1.4194437e-38 353 266
0.042742759 0.71700001 -0.032685637 1.4652892e-38 354 266
0.043938532 0.71600002 -0.032640055 1.4929839e-38 355 266
0.045067675 0.71399999 -0.032548878 1.4930202e-38 356 266
0.046319555 0.71399999 -0.032548878 1.5022397e-38 357 266
0.047504812 0.713 -0.032503292 1.4839454e-38 358 266
0.048618179 0.71100003 -0.032412119 1.4931649e-38 359 266
0.049794663 0.70999998 -0.032366529 1.5207865e-38 360 266
0.050895758 0.708 -0.03227536 1.5115668e-38 361 266
0.051989835 0.70599997 -0.032184184 1.5391163e-38 362 266
0.053076904 0.704 -0.032093015 1.5483359e-38 363 266
0.054234106 0.70300001 -0.032047424 1.5483362e-38 364 266
0.055308893 0.70099998 -0.031956252 1.5575559e-38 365 266
0.056296028 0.69800001 -0.031819493 1.5575921e-38 366 266
0.057519849 0.69800001 -0.031819493 1.5668117e-38 367 266
0.05865952 0.69700003 -0.03177391 1.6127634e-38 368 266
0.05988159 0.69700003 -0.03177391 1.6404221e-38 369 266
0.061103668 0.69700003 -0.03177391 1.6865183e-38 370 266
0.062236317 0.69599998 -0.031728316 1.7049214e-38 371 266
0.063274294 0.69400001 -0.031637147 1.7233611e-38 372 266
0.064491108 0.69400001 -0.031637147 1.7325807e-38 373 266
0.06561324 0.69300002 -0.031591557 1.7509119e-38 374 266
0.06663543 0.69099998 -0.031500384 1.7601316e-38 375 266
0.067846984 0.69099998 -0.031500384 1.7693862e-38 376 266
0.068958595 0.69 -0.031454802 1.7693862e-38 377 266
0.070168398 0.69 -0.031454802 1.7969726e-38 378 266
0.071171306 0.68800002 -0.031363625 1.787753e-38 379 266
0.0723776 0.68800002 -0.031363625 1.796936e-38 380 266
0.073583893 0.68800002 -0.031363625 1.796936e-38 381 266
0.074790187 0.68800002 -0.031363625 1.7877884e-38 382 266
0.075996481 0.68800002 -0.031363625 1.7693852e-38 383 266
0.077202775 0.68800002 -0.031363625 1.7417627e-38 384 266
0.078295097 0.68699998 -0.031318039 1.7233596e-38 385 266
0.079499632 0.68699998 -0.031318039 1.6588958e-38 386 266
0.080704175 0.68699998 -0.031318039 1.5667362e-38 387 266
0.081908718 0.68699998 -0.031318039 1.3735291e-38 388 266
