# .PCD v.7 - Point Cloud Data file format
FIELDS x y z rgb imX imY
SIZE 4 4 4 4 4 4
TYPE F F F F F F
COUNT 1 1 1 1 1 1
WIDTH 839
HEIGHT 1
VIEWPOINT 0 0 0 1 0 0 0
POINTS 839
DATA ascii
-0.029491065 0.84100002 0.060456682 1.0411547e-38 300 199
-0.028016513 0.84100002 0.060456682 1.0411547e-38 301 199
-0.026541959 0.84100002 0.060456682 9.769064e-39 302 199
-0.025067406 0.84100002 0.060456682 9.769064e-39 303 199
-0.023648959 0.84299999 0.060600456 9.492847e-39 304 199
-0.022170898 0.84299999 0.060600456 9.677597e-39 305 199
-0.02069284 0.84299999 0.060600456 1.0046765e-38 306 199
-0.085550398 0.82700002 0.058000267 1.7243107e-38 261 200
-0.084100381 0.82700002 0.058000267 1.5955194e-38 262 200
-0.082650378 0.82700002 0.058000267 1.4480064e-38 263 200
-0.081200369 0.82700002 0.058000267 1.5946505e-38 264 200
-0.079750367 0.82700002 0.058000267 1.6223092e-38 265 200
-0.078300357 0.82700002 0.058000267 1.6959913e-38 266 200
-0.076850355 0.82700002 0.058000267 1.7144304e-38 267 200
-0.075400345 0.82700002 0.058000267 1.742124e-38 268 200
-0.073950343 0.82700002 0.058000267 1.7605632e-38 269 200
-0.072500333 0.82700002 0.058000267 1.7606354e-38 270 200
-0.071050331 0.82700002 0.058000267 1.7606354e-38 271 200
-0.069600314 0.82700002 0.058000267 1.7697833e-38 272 200
-0.068150312 0.82700002 0.058000267 1.7697833e-38 273 200
-0.066700302 0.82700002 0.058000267 1.77886e-38 274 200
-0.0652503 0.82700002 0.058000267 1.7512014e-38 275 200
-0.06380029 0.82700002 0.058000267 1.7143956e-38 276 200
-0.062350284 0.82700002 0.058000267 1.6959565e-38 277 200
-0.060900278 0.82700002 0.058000267 1.6867011e-38 278 200
-0.059450272 0.82700002 0.058000267 1.6406391e-38 279 200
-0.058000267 0.82700002 0.058000267 1.6312391e-38 280 200
-0.056550261 0.82700002 0.058000267 1.6220195e-38 281 200
-0.055100251 0.82700002 0.058000267 1.5576625e-38 282 200
-0.053650245 0.82700002 0.058000267 1.5484429e-38 283 200
-0.052326478 0.829 0.058140531 1.4840139e-38 284 200
-0.050872963 0.829 0.058140531 1.4471355e-38 285 200
-0.049538679 0.83099997 0.058280796 1.4285889e-38 286 200
-0.048081655 0.83099997 0.058280796 1.3917106e-38 287 200
-0.046736851 0.833 0.058421064 1.3456127e-38 288 200
-0.045276325 0.833 0.058421064 1.3271737e-38 289 200
-0.043815799 0.833 0.058421064 1.3270292e-38 290 200
-0.042355273 0.833 0.058421064 1.290115e-38 291 200
-0.040894743 0.833 0.058421064 1.1979922e-38 292 200
-0.039434217 0.833 0.058421064 1.1426748e-38 293 200
-0.038064864 0.83499998 0.058561329 1.0690279e-38 294 200
-0.036600832 0.83499998 0.058561329 1.0598082e-38 295 200
-0.035220962 0.83700001 0.058701597 1.0321164e-38 296 200
-0.033753417 0.83700001 0.058701597 1.0228969e-38 297 200
-0.032363027 0.83899999 0.058841862 9.6772439e-39 298 200
-0.030965621 0.84100002 0.05898213 9.4928526e-39 299 200
-0.029491065 0.84100002 0.05898213 9.4932029e-39 300 200
-0.028016513 0.84100002 0.05898213 9.4932029e-39 301 200
-0.023648959 0.84299999 0.059122398 9.4017458e-39 304 200
-0.088450409 0.82700002 0.056550261 1.7520063e-38 259 201
-0.0870004 0.82700002 0.056550261 1.7243454e-38 260 201
-0.085550398 0.82700002 0.056550261 1.586052e-38 261 201
-0.083896995 0.82499999 0.056413498 1.5215446e-38 262 201
-0.082450494 0.82499999 0.056413498 1.4570076e-38 263 201
-0.081200369 0.82700002 0.056550261 1.6682971e-38 264 201
-0.079750367 0.82700002 0.056550261 1.6867364e-38 265 201
-0.078300357 0.82700002 0.056550261 1.7420168e-38 266 201
-0.076850355 0.82700002 0.056550261 1.7512363e-38 267 201
-0.075400345 0.82700002 0.056550261 1.7330124e-38 268 201
-0.073950343 0.82700002 0.056550261 1.742232e-38 269 201
-0.072500333 0.82700002 0.056550261 1.7697833e-38 270 201
-0.070878498 0.82499999 0.056413498 1.7697833e-38 271 201
-0.069431998 0.82499999 0.056413498 1.7605285e-38 272 201
-0.068150312 0.82700002 0.056550261 1.7605285e-38 273 201
-0.066700302 0.82700002 0.056550261 1.742054e-38 274 201
-0.0652503 0.82700002 0.056550261 1.7143953e-38 275 201
-0.06380029 0.82700002 0.056550261 1.6959562e-38 276 201
-0.062350284 0.82700002 0.056550261 1.6498584e-38 277 201
-0.060900278 0.82700002 0.056550261 1.6589335e-38 278 201
-0.059450272 0.82700002 0.056550261 1.6312747e-38 279 201
-0.058000267 0.82700002 0.056550261 1.5576612e-38 280 201
-0.056550261 0.82700002 0.056550261 1.5484415e-38 281 201
-0.055100251 0.82700002 0.056550261 1.502416e-38 282 201
-0.053650245 0.82700002 0.056550261 1.4931606e-38 283 201
-0.052200239 0.82700002 0.056550261 1.4470631e-38 284 201
-0.050872963 0.829 0.05668702 1.4101847e-38 285 201
-0.049419452 0.829 0.05668702 1.4100409e-38 286 201
-0.048081655 0.83099997 0.056823779 1.3731266e-38 287 201
-0.046624638 0.83099997 0.056823779 1.2901503e-38 288 201
-0.045276325 0.833 0.056960538 1.2348329e-38 289 201
-0.043815799 0.833 0.056960538 1.1520013e-38 290 201
-0.042355273 0.833 0.056960538 1.0967199e-38 291 201
-0.040894743 0.833 0.056960538 1.0322574e-38 292 201
-0.039434217 0.833 0.056960538 1.0045628e-38 293 201
-0.038064864 0.83499998 0.057097297 9.8623288e-39 294 201
-0.036600832 0.83499998 0.057097297 9.8623288e-39 295 201
-0.035220962 0.83700001 0.05723406 1.0044925e-38 296 201
-0.033753417 0.83700001 0.05723406 9.7686982e-39 297 201
-0.032363027 0.83899999 0.057370819 9.5846685e-39 298 201
-0.030965621 0.84100002 0.057507578 9.5846685e-39 299 201
-0.029491065 0.84100002 0.057507578 9.1254924e-39 300 201
-0.089900412 0.82700002 0.055100251 1.7428937e-38 258 202
-0.088450409 0.82700002 0.055100251 1.6967959e-38 259 202
-0.0870004 0.82700002 0.055100251 1.6048841e-38 260 202
-0.085550398 0.82700002 0.055100251 1.4296764e-38 261 202
-0.083896995 0.82499999 0.054966997 1.6130177e-38 262 202
-0.082450494 0.82499999 0.054966997 1.6130177e-38 263 202
-0.081200369 0.82700002 0.055100251 1.677587e-38 264 202
-0.079750367 0.82700002 0.055100251 1.6960263e-38 265 202
-0.078300357 0.82700002 0.055100251 1.7420521e-38 266 202
-0.076850355 0.82700002 0.055100251 1.7512716e-38 267 202
-0.075400345 0.82700002 0.055100251 1.7605635e-38 268 202
-0.073771499 0.82499999 0.054966997 1.7605635e-38 269 202
-0.072324999 0.82499999 0.054966997 1.7605282e-38 270 202
-0.070878498 0.82499999 0.054966997 1.7605282e-38 271 202
-0.069431998 0.82499999 0.054966997 1.7512733e-38 272 202
-0.067985497 0.82499999 0.054966997 1.7420538e-38 273 202
-0.066700302 0.82700002 0.055100251 1.7143956e-38 274 202
-0.0652503 0.82700002 0.055100251 1.6867011e-38 275 202
-0.06380029 0.82700002 0.055100251 1.6682615e-38 276 202
-0.062199496 0.82499999 0.054966997 1.6221997e-38 277 202
-0.060752995 0.82499999 0.054966997 1.6129078e-38 278 202
-0.059450272 0.82700002 0.055100251 1.5852492e-38 279 202
-0.058000267 0.82700002 0.055100251 1.5391148e-38 280 202
-0.056550261 0.82700002 0.055100251 1.5298952e-38 281 202
-0.055100251 0.82700002 0.055100251 1.4839057e-38 282 202
-0.053650245 0.82700002 0.055100251 1.4470633e-38 283 202
-0.052200239 0.82700002 0.055100251 1.419369e-38 284 202
-0.050872963 0.829 0.055233505 1.3640517e-38 285 202
-0.049419452 0.829 0.055233505 1.3271008e-38 286 202
-0.048081655 0.83099997 0.055366758 1.2072824e-38 287 202
-0.046624638 0.83099997 0.055366758 1.1979553e-38 288 202
-0.045276325 0.833 0.055500012 1.1610411e-38 289 202
-0.043815799 0.833 0.055500012 1.1241653e-38 290 202
-0.042355273 0.833 0.055500012 1.1057622e-38 291 202
-0.040894743 0.833 0.055500012 1.0504833e-38 292 202
-0.039528899 0.83499998 0.055633266 1.0412278e-38 293 202
-0.038064864 0.83499998 0.055633266 9.8612624e-39 294 202
-0.036688499 0.83700001 0.055766519 9.7690668e-39 295 202
-0.035220962 0.83700001 0.055766519 9.6768655e-39 296 202
-0.03383407 0.83899999 0.055899773 9.5846685e-39 297 202
-0.032363027 0.83899999 0.055899773 9.4010003e-39 298 202
-0.091350421 0.82700002 0.053650245 1.7430019e-38 257 203
-0.089900412 0.82700002 0.053650245 1.7245972e-38 258 203
-0.088450409 0.82700002 0.053650245 1.5678645e-38 259 203
-0.0870004 0.82700002 0.053650245 1.5491307e-38 260 203
-0.085550398 0.82700002 0.053650245 1.4569351e-38 261 203
-0.083896995 0.82499999 0.053520497 1.6682237e-38 262 203
-0.082450494 0.82499999 0.053520497 1.7050659e-38 263 203
-0.081004001 0.82499999 0.053520497 1.7143212e-38 264 203
-0.079557501 0.82499999 0.053520497 1.7511635e-38 265 203
-0.078110993 0.82499999 0.053520497 1.7512719e-38 266 203
-0.076664492 0.82499999 0.053520497 1.7604916e-38 267 203
-0.075217992 0.82499999 0.053520497 1.7788231e-38 268 203
-0.073771499 0.82499999 0.053520497 1.7880427e-38 269 203
-0.072324999 0.82499999 0.053520497 1.7604919e-38 270 203
-0.070878498 0.82499999 0.053520497 1.7512363e-38 271 203
-0.069431998 0.82499999 0.053520497 1.7419817e-38 272 203
-0.067985497 0.82499999 0.053520497 1.7327622e-38 273 203
-0.066538997 0.82499999 0.053520497 1.6867011e-38 274 203
-0.065092497 0.82499999 0.053520497 1.6682618e-38 275 203
-0.063645996 0.82499999 0.053520497 1.6497858e-38 276 203
-0.062199496 0.82499999 0.053520497 1.603688e-38 277 203
-0.060752995 0.82499999 0.053520497 1.5852476e-38 278 203
-0.059306499 0.82499999 0.053520497 1.5575529e-38 279 203
-0.057859998 0.82499999 0.053520497 1.483869e-38 280 203
-0.056550261 0.82700002 0.053650245 1.4746494e-38 281 203
-0.055100251 0.82700002 0.053650245 1.4561397e-38 282 203
-0.053650245 0.82700002 0.053650245 1.4192973e-38 283 203
-0.052200239 0.82700002 0.053650245 1.3640522e-38 284 203
-0.050872963 0.829 0.053779993 1.2810403e-38 285 203
-0.049419452 0.829 0.053779993 1.225508e-38 286 203
-0.048081655 0.83099997 0.053909738 1.1056536e-38 287 203
-0.046624638 0.83099997 0.053909738 1.1056189e-38 288 203
-0.045276325 0.833 0.054039486 1.0963993e-38 289 203
-0.043815799 0.833 0.054039486 1.0872525e-38 290 203
-0.042355273 0.833 0.054039486 1.0687773e-38 291 203
-0.040894743 0.833 0.054039486 1.0136402e-38 292 203
-0.039528899 0.83499998 0.05416923 1.0044206e-38 293 203
-0.038064864 0.83499998 0.05416923 9.6772215e-39 294 203
-0.036688499 0.83700001 0.054298978 9.6772215e-39 295 203
-0.03530512 0.83899999 0.054428723 9.5846657e-39 296 203
-0.03383407 0.83899999 0.054428723 9.4006346e-39 297 203
-0.092800424 0.82700002 0.052200239 1.7520414e-38 256 204
-0.091350421 0.82700002 0.052200239 1.7243825e-38 257 204
-0.089900412 0.82700002 0.052200239 1.6599857e-38 258 204
-0.088450409 0.82700002 0.052200239 1.4571553e-38 259 204
-0.0870004 0.82700002 0.052200239 1.5855738e-38 260 204
-0.085550398 0.82700002 0.052200239 1.5855738e-38 261 204
-0.083896995 0.82499999 0.052073997 1.6775858e-38 262 204
-0.082450494 0.82499999 0.052073997 1.696025e-38 263 204
-0.081004001 0.82499999 0.052073997 1.7236129e-38 264 204
-0.079557501 0.82499999 0.052073997 1.7512716e-38 265 204
-0.078110993 0.82499999 0.052073997 1.7788228e-38 266 204
-0.076664492 0.82499999 0.052073997 1.7696031e-38 267 204
-0.075217992 0.82499999 0.052073997 1.7787511e-38 268 204
-0.073592655 0.82300001 0.051947758 1.7787511e-38 269 204
-0.072149664 0.82300001 0.051947758 1.7603485e-38 270 204
-0.070706673 0.82300001 0.051947758 1.7510931e-38 271 204
-0.069263682 0.82300001 0.051947758 1.7326903e-38 272 204
-0.067985497 0.82499999 0.052073997 1.7142512e-38 273 204
-0.066538997 0.82499999 0.052073997 1.6682252e-38 274 204
-0.065092497 0.82499999 0.052073997 1.6590057e-38 275 204
-0.063645996 0.82499999 0.052073997 1.6221626e-38 276 204
-0.062199496 0.82499999 0.052073997 1.5852842e-38 277 204
-0.060752995 0.82499999 0.052073997 1.5024511e-38 278 204
-0.059306499 0.82499999 0.052073997 1.4839759e-38 279 204
-0.057859998 0.82499999 0.052073997 1.474685e-38 280 204
-0.056413498 0.82499999 0.052073997 1.4469905e-38 281 204
-0.054966997 0.82499999 0.052073997 1.3824911e-38 282 204
-0.053650245 0.82700002 0.052200239 1.3271737e-38 283 204
-0.052200239 0.82700002 0.052200239 1.2350149e-38 284 204
-0.050872963 0.829 0.052326478 1.1428194e-38 285 204
-0.049538679 0.83099997 0.052452717 1.1700486e-38 286 204
-0.048081655 0.83099997 0.052452717 1.1516095e-38 287 204
-0.046736851 0.833 0.05257896 1.0872537e-38 288 204
-0.045276325 0.833 0.05257896 1.0596309e-38 289 204
-0.043920998 0.83499998 0.052705199 1.0504108e-38 290 204
-0.042456966 0.83499998 0.052705199 1.0319717e-38 291 204
-0.040992931 0.83499998 0.052705199 9.9527322e-39 292 204
-0.039528899 0.83499998 0.052705199 9.7683423e-39 293 204
-0.03815604 0.83700001 0.052831437 9.4935533e-39 294 204
-0.036688499 0.83700001 0.052831437 9.4013562e-39 295 204
-0.092800424 0.82700002 0.050750233 1.7888473e-38 256 205
-0.091350421 0.82700002 0.050750233 1.6597734e-38 257 205
-0.089900412 0.82700002 0.050750233 1.6043409e-38 258 205
-0.088450409 0.82700002 0.050750233 1.4568277e-38 259 205
-0.0870004 0.82700002 0.050750233 1.6130854e-38 260 205
-0.085550398 0.82700002 0.050750233 1.6684028e-38 261 205
-0.083896995 0.82499999 0.0506275 1.696025e-38 262 205
-0.082450494 0.82499999 0.0506275 1.7328673e-38 263 205
-0.081004001 0.82499999 0.0506275 1.7604186e-38 264 205
-0.079557501 0.82499999 0.0506275 1.7788579e-38 265 205
-0.077921636 0.82300001 0.050504766 1.7971897e-38 266 205
-0.076478645 0.82300001 0.050504766 1.7787864e-38 267 205
-0.075035654 0.82300001 0.050504766 1.7878625e-38 268 205
-0.073592655 0.82300001 0.050504766 1.7786429e-38 269 205
-0.072149664 0.82300001 0.050504766 1.73269e-38 270 205
-0.070706673 0.82300001 0.050504766 1.73269e-38 271 205
-0.069263682 0.82300001 0.050504766 1.714323e-38 272 205
-0.067820683 0.82300001 0.050504766 1.6774448e-38 273 205
-0.066538997 0.82499999 0.0506275 1.6590054e-38 274 205
-0.064934701 0.82300001 0.050504766 1.6221631e-38 275 205
-0.06349171 0.82300001 0.050504766 1.5945391e-38 276 205
-0.062048711 0.82300001 0.050504766 1.5484412e-38 277 205
-0.06060572 0.82300001 0.050504766 1.4931592e-38 278 205
-0.059306499 0.82499999 0.0506275 1.4839396e-38 279 205
-0.057859998 0.82499999 0.0506275 1.428659e-38 280 205
-0.056413498 0.82499999 0.0506275 1.3918166e-38 281 205
-0.054966997 0.82499999 0.0506275 1.327209e-38 282 205
-0.053650245 0.82700002 0.050750233 1.2534525e-38 283 205
-0.052200239 0.82700002 0.050750233 1.1335648e-38 284 205
-0.050872963 0.829 0.050872963 1.105906e-38 285 205
-0.049538679 0.83099997 0.050995696 1.133243e-38 286 205
-0.048081655 0.83099997 0.050995696 1.1055484e-38 287 205
-0.046736851 0.833 0.051118433 1.0321517e-38 288 205
-0.045276325 0.833 0.051118433 1.0137126e-38 289 205
-0.043920998 0.83499998 0.051241163 1.0044572e-38 290 205
-0.042456966 0.83499998 0.051241163 9.9523762e-39 291 205
-0.040992931 0.83499998 0.051241163 9.4932001e-39 292 205
-0.039623581 0.83700001 0.051363897 9.4932001e-39 293 205
-0.093338698 0.81900001 0.048823319 1.7611533e-38 255 206
-0.091902718 0.81900001 0.048823319 1.7059049e-38 256 206
-0.091129497 0.82499999 0.049180996 1.5122942e-38 257 206
-0.089682996 0.82499999 0.049180996 1.5211828e-38 258 206
-0.088450409 0.82700002 0.049300224 1.5304382e-38 259 206
-0.0870004 0.82700002 0.049300224 1.6684025e-38 260 206
-0.085550398 0.82700002 0.049300224 1.6868418e-38 261 206
-0.083896995 0.82499999 0.049180996 1.7053168e-38 262 206
-0.082450494 0.82499999 0.049180996 1.742159e-38 263 206
-0.080807626 0.82300001 0.049061771 1.7605269e-38 264 206
-0.079364628 0.82300001 0.049061771 1.7881496e-38 265 206
-0.07773228 0.82099998 0.048942544 1.7698181e-38 266 206
-0.07629279 0.82099998 0.048942544 1.7421593e-38 267 206
-0.074853301 0.82099998 0.048942544 1.7511988e-38 268 206
-0.073413812 0.82099998 0.048942544 1.7327957e-38 269 206
-0.07197433 0.82099998 0.048942544 1.7235411e-38 270 206
-0.070534848 0.82099998 0.048942544 1.7143215e-38 271 206
-0.069095351 0.82099998 0.048942544 1.66826e-38 272 206
-0.067820683 0.82300001 0.049061771 1.6590404e-38 273 206
-0.066377692 0.82300001 0.049061771 1.6313097e-38 274 206
-0.064934701 0.82300001 0.049061771 1.603687e-38 275 206
-0.06349171 0.82300001 0.049061771 1.5759925e-38 276 206
-0.062048711 0.82300001 0.049061771 1.5298946e-38 277 206
-0.06060572 0.82300001 0.049061771 1.483904e-38 278 206
-0.059162725 0.82300001 0.049061771 1.4470258e-38 279 206
-0.057859998 0.82499999 0.049180996 1.4101481e-38 280 206
-0.056413498 0.82499999 0.049180996 1.3271361e-38 281 206
-0.054966997 0.82499999 0.049180996 1.2072115e-38 282 206
-0.053650245 0.82700002 0.049300224 1.1426745e-38 283 206
-0.052200239 0.82700002 0.049300224 1.1241653e-38 284 206
-0.050872963 0.829 0.049419452 1.1241653e-38 285 206
-0.049538679 0.83099997 0.049538679 1.0689578e-38 286 206
-0.048197377 0.833 0.049657907 1.0597383e-38 287 206
-0.046736851 0.833 0.049657907 9.9538112e-39 288 206
-0.045276325 0.833 0.049657907 9.8616155e-39 289 206
-0.043920998 0.83499998 0.049777132 9.7686982e-39 290 206
-0.042456966 0.83499998 0.049777132 9.6765012e-39 291 206
-0.040992931 0.83499998 0.049777132 9.6768655e-39 292 206
-0.093338698 0.81900001 0.047387339 1.715163e-38 255 207
-0.091902718 0.81900001 0.047387339 1.622889e-38 256 207
-0.090687655 0.82099998 0.047503054 1.4661925e-38 257 207
-0.089465588 0.82300001 0.04761878 1.539331e-38 258 207
-0.088236496 0.82499999 0.047734499 1.6315265e-38 259 207
-0.086789995 0.82499999 0.047734499 1.6684022e-38 260 207
-0.085343495 0.82499999 0.047734499 1.7053165e-38 261 207
-0.083693616 0.82300001 0.04761878 1.7329391e-38 262 207
-0.082250617 0.82300001 0.04761878 1.7514143e-38 263 207
-0.080807626 0.82300001 0.04761878 1.7605985e-38 264 207
-0.079171762 0.82099998 0.047503054 1.7698181e-38 265 207
-0.07773228 0.82099998 0.047503054 1.7789654e-38 266 207
-0.07629279 0.82099998 0.047503054 1.7513067e-38 267 207
-0.074853301 0.82099998 0.047503054 1.7603818e-38 268 207
-0.073234983 0.81900001 0.047387339 1.7419426e-38 269 207
-0.071799003 0.81900001 0.047387339 1.732688e-38 270 207
-0.070534848 0.82099998 0.047503054 1.7050293e-38 271 207
-0.069095351 0.82099998 0.047503054 1.6773353e-38 272 207
-0.067655869 0.82099998 0.047503054 1.6588961e-38 273 207
-0.066377692 0.82300001 0.04761878 1.594504e-38 274 207
-0.064934701 0.82300001 0.04761878 1.5576259e-38 275 207
-0.06349171 0.82300001 0.04761878 1.5117075e-38 276 207
-0.062048711 0.82300001 0.04761878 1.4656098e-38 277 207
-0.06060572 0.82300001 0.04761878 1.4469902e-38 278 207
-0.059162725 0.82300001 0.04761878 1.4285871e-38 279 207
-0.057859998 0.82499999 0.047734499 1.3179897e-38 280 207
-0.056413498 0.82499999 0.047734499 1.2626724e-38 281 207
-0.054966997 0.82499999 0.047734499 1.1610793e-38 282 207
-0.053650245 0.82700002 0.047850218 1.1426401e-38 283 207
-0.052200239 0.82700002 0.047850218 1.1333499e-38 284 207
-0.050872963 0.829 0.04796594 1.1056913e-38 285 207
-0.049538679 0.83099997 0.048081655 1.0689931e-38 286 207
-0.048197377 0.833 0.048197377 1.050518e-38 287 207
-0.046736851 0.833 0.048197377 1.0137121e-38 288 207
-0.045385033 0.83499998 0.048313096 9.9527293e-39 289 207
-0.043920998 0.83499998 0.048313096 8.8496286e-39 290 207
-0.042456966 0.83499998 0.048313096 8.6652373e-39 291 207
-0.093110763 0.81699997 0.045839142 1.604563e-38 255 208
-0.091678284 0.81699997 0.045839142 1.4935982e-38 256 208
-0.090466738 0.81900001 0.045951359 1.4935982e-38 257 208
-0.089248173 0.82099998 0.046063572 1.6407095e-38 258 208
-0.087808676 0.82099998 0.046063572 1.6683321e-38 259 208
-0.086369194 0.82099998 0.046063572 1.6960613e-38 260 208
-0.0851366 0.82300001 0.046175785 1.7145363e-38 261 208
-0.083693616 0.82300001 0.046175785 1.7513787e-38 262 208
-0.082250617 0.82300001 0.046175785 1.7605983e-38 263 208
-0.080611244 0.82099998 0.046063572 1.7698547e-38 264 208
-0.079171762 0.82099998 0.046063572 1.7606351e-38 265 208
-0.07773228 0.82099998 0.046063572 1.7697831e-38 266 208
-0.076106943 0.81900001 0.045951359 1.7513439e-38 267 208
-0.074670963 0.81900001 0.045951359 1.7328688e-38 268 208
-0.073234983 0.81900001 0.045951359 1.7052461e-38 269 208
-0.071799003 0.81900001 0.045951359 1.7050662e-38 270 208
-0.070363015 0.81900001 0.045951359 1.6681881e-38 271 208
-0.068927035 0.81900001 0.045951359 1.6221978e-38 272 208
-0.067655869 0.82099998 0.046063572 1.6037586e-38 273 208
-0.066216379 0.82099998 0.046063572 1.5576256e-38 274 208
-0.064934701 0.82300001 0.046175785 1.5299668e-38 275 208
-0.06349171 0.82300001 0.046175785 1.5115274e-38 276 208
-0.062048711 0.82300001 0.046175785 1.474685e-38 277 208
-0.06060572 0.82300001 0.046175785 1.3918163e-38 278 208
-0.059162725 0.82300001 0.046175785 1.3549022e-38 279 208
-0.057859998 0.82499999 0.046287999 1.2718193e-38 280 208
-0.056413498 0.82499999 0.046287999 1.2165019e-38 281 208
-0.054966997 0.82499999 0.046287999 1.1518594e-38 282 208
-0.053650245 0.82700002 0.046400212 1.1334202e-38 283 208
-0.052200239 0.82700002 0.046400212 1.0965437e-38 284 208
-0.050872963 0.829 0.046512425 1.0873241e-38 285 208
-0.049538679 0.83099997 0.046624638 1.0321868e-38 286 208
-0.048081655 0.83099997 0.046624638 1.0229672e-38 287 208
-0.046736851 0.833 0.046736851 9.7694171e-39 288 208
-0.094543234 0.81699997 0.044406671 1.6875374e-38 254 209
-0.093110763 0.81699997 0.044406671 1.5123658e-38 255 209
-0.091678284 0.81699997 0.044406671 1.5209315e-38 256 209
-0.090466738 0.81900001 0.044515379 1.576213e-38 257 209
-0.089030758 0.81900001 0.044515379 1.6499287e-38 258 209
-0.087808676 0.82099998 0.044624086 1.686807e-38 259 209
-0.086369194 0.82099998 0.044624086 1.723648e-38 260 209
-0.084929712 0.82099998 0.044624086 1.7420871e-38 261 209
-0.083490223 0.82099998 0.044624086 1.7605269e-38 262 209
-0.082050733 0.82099998 0.044624086 1.7881496e-38 263 209
-0.080611244 0.82099998 0.044624086 1.7973339e-38 264 209
-0.078978904 0.81900001 0.044515379 1.7881143e-38 265 209
-0.077542923 0.81900001 0.044515379 1.7697831e-38 266 209
-0.076106943 0.81900001 0.044515379 1.7513439e-38 267 209
-0.074670963 0.81900001 0.044515379 1.7052827e-38 268 209
-0.073056139 0.81699997 0.044406671 1.67766e-38 269 209
-0.071623661 0.81699997 0.044406671 1.6865918e-38 270 209
-0.070363015 0.81900001 0.044515379 1.6404941e-38 271 209
-0.068927035 0.81900001 0.044515379 1.6037233e-38 272 209
-0.067491055 0.81900001 0.044515379 1.5760646e-38 273 209
-0.066055074 0.81900001 0.044515379 1.5391511e-38 274 209
-0.064776897 0.82099998 0.044624086 1.5114924e-38 275 209
-0.063337415 0.82099998 0.044624086 1.4838693e-38 276 209
-0.061897919 0.82099998 0.044624086 1.4561747e-38 277 209
-0.06060572 0.82300001 0.044732794 1.3916378e-38 278 209
-0.059162725 0.82300001 0.044732794 1.3363563e-38 279 209
-0.057859998 0.82499999 0.044841498 1.2071764e-38 280 209
-0.056413498 0.82499999 0.044841498 1.1887373e-38 281 209
-0.054966997 0.82499999 0.044841498 1.1518243e-38 282 209
-0.053650245 0.82700002 0.044950206 1.1241298e-38 283 209
-0.052200239 0.82700002 0.044950206 1.0782121e-38 284 209
-0.050872963 0.829 0.04505891 1.0597729e-38 285 209
-0.049538679 0.83099997 0.045167617 1.0229669e-38 286 209
-0.048081655 0.83099997 0.045167617 1.0045278e-38 287 209
-0.046736851 0.833 0.045276325 9.5839524e-39 288 209
-0.094543234 0.81699997 0.042974196 1.5767563e-38 254 210
-0.093110763 0.81699997 0.042974196 1.4661216e-38 255 210
-0.091678284 0.81699997 0.042974196 1.6037251e-38 256 210
-0.090466738 0.81900001 0.043079399 1.6406035e-38 257 210
-0.089030758 0.81900001 0.043079399 1.6775149e-38 258 210
-0.087594777 0.81900001 0.043079399 1.7143931e-38 259 210
-0.086158797 0.81900001 0.043079399 1.7328675e-38 260 210
-0.084929712 0.82099998 0.043184597 1.7605622e-38 261 210
-0.083490223 0.82099998 0.043184597 1.7881499e-38 262 210
-0.081850857 0.81900001 0.043079399 1.7973694e-38 263 210
-0.080414876 0.81900001 0.043079399 1.7973339e-38 264 210
-0.078978904 0.81900001 0.043079399 1.7881143e-38 265 210
-0.077542923 0.81900001 0.043079399 1.7604919e-38 266 210
-0.076106943 0.81900001 0.043079399 1.7512363e-38 267 210
-0.074488603 0.81699997 0.042974196 1.7143228e-38 268 210
-0.073056139 0.81699997 0.042974196 1.6867001e-38 269 210
-0.071623661 0.81699997 0.042974196 1.6589335e-38 270 210
-0.07019119 0.81699997 0.042974196 1.6036161e-38 271 210
-0.068758719 0.81699997 0.042974196 1.5851767e-38 272 210
-0.06732624 0.81699997 0.042974196 1.5575179e-38 273 210
-0.066055074 0.81900001 0.043079399 1.52064e-38 274 210
-0.064619094 0.81900001 0.043079399 1.4929812e-38 275 210
-0.063183114 0.81900001 0.043079399 1.4561747e-38 276 210
-0.061747137 0.81900001 0.043079399 1.4193323e-38 277 210
-0.060458437 0.82099998 0.043184597 1.3179894e-38 278 210
-0.059162725 0.82300001 0.043289799 1.2534525e-38 279 210
-0.057719734 0.82300001 0.043289799 1.1703342e-38 280 210
-0.056413498 0.82499999 0.043394998 1.1611146e-38 281 210
-0.054966997 0.82499999 0.043394998 1.1150537e-38 282 210
-0.053650245 0.82700002 0.0435002 1.0965787e-38 283 210
-0.052326478 0.829 0.043605398 1.0415137e-38 284 210
-0.050872963 0.829 0.043605398 1.0046354e-38 285 210
-0.049538679 0.83099997 0.043710597 9.5857489e-39 286 210
-0.094774678 0.81900001 0.041643418 1.5119297e-38 254 211
-0.093338698 0.81900001 0.041643418 1.4935266e-38 255 211
-0.091902718 0.81900001 0.041643418 1.6314177e-38 256 211
-0.090466738 0.81900001 0.041643418 1.66826e-38 257 211
-0.089030758 0.81900001 0.041643418 1.696025e-38 258 211
-0.087594777 0.81900001 0.041643418 1.7236477e-38 259 211
-0.086158797 0.81900001 0.041643418 1.7420871e-38 260 211
-0.084722817 0.81900001 0.041643418 1.7513067e-38 261 211
-0.083286837 0.81900001 0.041643418 1.7788945e-38 262 211
-0.081850857 0.81900001 0.041643418 1.7973694e-38 263 211
-0.080414876 0.81900001 0.041643418 1.7973341e-38 264 211
-0.078978904 0.81900001 0.041643418 1.778895e-38 265 211
-0.077353559 0.81699997 0.041541722 1.7604919e-38 266 211
-0.075921081 0.81699997 0.041541722 1.7327972e-38 267 211
-0.074488603 0.81699997 0.041541722 1.6959194e-38 268 211
-0.073056139 0.81699997 0.041541722 1.6682605e-38 269 211
-0.071623661 0.81699997 0.041541722 1.6404944e-38 270 211
-0.07019119 0.81699997 0.041541722 1.5943966e-38 271 211
-0.068758719 0.81699997 0.041541722 1.5666656e-38 272 211
-0.06732624 0.81699997 0.041541722 1.5482264e-38 273 211
-0.066055074 0.81900001 0.041643418 1.4746497e-38 274 211
-0.064619094 0.81900001 0.041643418 1.428552e-38 275 211
-0.063183114 0.81900001 0.041643418 1.4008929e-38 276 211
-0.061747137 0.81900001 0.041643418 1.3547951e-38 277 211
-0.060458437 0.82099998 0.041745111 1.2350134e-38 278 211
-0.059162725 0.82300001 0.041846808 1.179696e-38 279 211
-0.057719734 0.82300001 0.041846808 1.1794103e-38 280 211
-0.056413498 0.82499999 0.041948497 1.1425679e-38 281 211
-0.054966997 0.82499999 0.041948497 1.0782477e-38 282 211
-0.053650245 0.82700002 0.04205019 1.0690282e-38 283 211
-0.052200239 0.82700002 0.04205019 9.9548803e-39 284 211
-0.050872963 0.829 0.042151887 9.5860992e-39 285 211
-0.049538679 0.83099997 0.042253576 9.1226254e-39 286 211
-0.096210659 0.81900001 0.040207438 1.6319698e-38 253 212
-0.094774678 0.81900001 0.040207438 1.4749057e-38 254 212
-0.093338698 0.81900001 0.040207438 1.5210034e-38 255 212
-0.091902718 0.81900001 0.040207438 1.6407798e-38 256 212
-0.090466738 0.81900001 0.040207438 1.677622e-38 257 212
-0.088813342 0.81699997 0.040109251 1.7144281e-38 258 212
-0.087380864 0.81699997 0.040109251 1.7328673e-38 259 212
-0.085948393 0.81699997 0.040109251 1.7420518e-38 260 212
-0.084515922 0.81699997 0.040109251 1.7605269e-38 261 212
-0.083286837 0.81900001 0.040207438 1.7788594e-38 262 212
-0.081850857 0.81900001 0.040207438 1.7973344e-38 263 212
-0.080414876 0.81900001 0.040207438 1.7697478e-38 264 212
-0.078978904 0.81900001 0.040207438 1.7697478e-38 265 212
-0.077353559 0.81699997 0.040109251 1.7328688e-38 266 212
-0.075921081 0.81699997 0.040109251 1.6960266e-38 267 212
-0.074488603 0.81699997 0.040109251 1.7049943e-38 268 212
-0.072877295 0.815 0.040011063 1.6680802e-38 269 212
-0.071448334 0.815 0.040011063 1.6403495e-38 270 212
-0.070019364 0.815 0.040011063 1.5942517e-38 271 212
-0.068590395 0.815 0.040011063 1.5482617e-38 272 212
-0.06732624 0.81699997 0.040109251 1.5113835e-38 273 212
-0.065893769 0.81699997 0.040109251 1.4653933e-38 274 212
-0.064619094 0.81900001 0.040207438 1.428479e-38 275 212
-0.063183114 0.81900001 0.040207438 1.3823816e-38 276 212
-0.061897919 0.82099998 0.040305622 1.3178447e-38 277 212
-0.060458437 0.82099998 0.040305622 1.2256513e-38 278 212
-0.059162725 0.82300001 0.040403813 1.1703339e-38 279 212
-0.057719734 0.82300001 0.040403813 1.1333849e-38 280 212
-0.056413498 0.82499999 0.040502001 1.1241653e-38 281 212
-0.054966997 0.82499999 0.040502001 1.0415137e-38 282 212
-0.053650245 0.82700002 0.040600184 1.0230744e-38 283 212
-0.052200239 0.82700002 0.040600184 9.9523762e-39 284 212
-0.050872963 0.829 0.040698372 9.1229757e-39 285 212
-0.097646639 0.81900001 0.038771462 1.631968e-38 252 213
-0.095975704 0.81699997 0.03867678 1.4936746e-38 253 213
-0.094543234 0.81699997 0.03867678 1.5668486e-38 254 213
-0.093338698 0.81900001 0.038771462 1.6129824e-38 255 213
-0.091902718 0.81900001 0.038771462 1.6684028e-38 256 213
-0.090466738 0.81900001 0.038771462 1.686842e-38 257 213
-0.088813342 0.81699997 0.03867678 1.7236833e-38 258 213
-0.087380864 0.81699997 0.03867678 1.7421224e-38 259 213
-0.085948393 0.81699997 0.03867678 1.7788935e-38 260 213
-0.084515922 0.81699997 0.03867678 1.7788935e-38 261 213
-0.083083443 0.81699997 0.03867678 1.7605988e-38 262 213
-0.08165098 0.81699997 0.03867678 1.7605988e-38 263 213
-0.080414876 0.81900001 0.038771462 1.7605988e-38 264 213
-0.078786023 0.81699997 0.03867678 1.7421237e-38 265 213
-0.077353559 0.81699997 0.03867678 1.7145013e-38 266 213
-0.075921081 0.81699997 0.03867678 1.677587e-38 267 213
-0.074306265 0.815 0.038582098 1.6682234e-38 268 213
-0.072877295 0.815 0.038582098 1.631345e-38 269 213
-0.071448334 0.815 0.038582098 1.5669877e-38 270 213
-0.070019364 0.815 0.038582098 1.5024508e-38 271 213
-0.068590395 0.815 0.038582098 1.5021992e-38 272 213
-0.06732624 0.81699997 0.03867678 1.5021992e-38 273 213
-0.065893769 0.81699997 0.03867678 1.4469183e-38 274 213
-0.064619094 0.81900001 0.038771462 1.4100759e-38 275 213
-0.063183114 0.81900001 0.038771462 1.35458e-38 276 213
-0.061897919 0.82099998 0.03886614 1.2808235e-38 277 213
-0.06060572 0.82300001 0.038960818 1.2253642e-38 278 213
-0.059162725 0.82300001 0.038960818 1.1884499e-38 279 213
-0.057859998 0.82499999 0.039055496 1.1057988e-38 280 213
-0.056413498 0.82499999 0.039055496 1.0965792e-38 281 213
-0.054966997 0.82499999 0.039055496 1.0414786e-38 282 213
-0.053650245 0.82700002 0.039150178 1.0046004e-38 283 213
-0.052326478 0.829 0.039244857 9.3077383e-39 284 213
-0.097646639 0.81900001 0.037335481 1.5397702e-38 252 214
-0.095975704 0.81699997 0.037244301 1.4199517e-38 253 214
-0.094543234 0.81699997 0.037244301 1.6221994e-38 254 214
-0.093338698 0.81900001 0.037335481 1.649894e-38 255 214
-0.091902718 0.81900001 0.037335481 1.6776576e-38 256 214
-0.090466738 0.81900001 0.037335481 1.7053165e-38 257 214
-0.088813342 0.81699997 0.037244301 1.7146435e-38 258 214
-0.087380864 0.81699997 0.037244301 1.7330828e-38 259 214
-0.085738003 0.815 0.037153132 1.7513787e-38 260 214
-0.084309027 0.815 0.037153132 1.7605983e-38 261 214
-0.082880065 0.815 0.037153132 1.7880777e-38 262 214
-0.081451096 0.815 0.037153132 1.7880777e-38 263 214
-0.080218501 0.81699997 0.037244301 1.7788228e-38 264 214
-0.078786023 0.81699997 0.037244301 1.7603836e-38 265 214
-0.077164195 0.815 0.037153132 1.686807e-38 266 214
-0.075735234 0.815 0.037153132 1.6499287e-38 267 214
-0.074306265 0.815 0.037153132 1.6405999e-38 268 214
-0.072877295 0.815 0.037153132 1.6037218e-38 269 214
-0.071448334 0.815 0.037153132 1.5668431e-38 270 214
-0.070019364 0.815 0.037153132 1.5207454e-38 271 214
-0.068590395 0.815 0.037153132 1.5205305e-38 272 214
-0.067161433 0.815 0.037153132 1.4836524e-38 273 214
-0.065893769 0.81699997 0.037244301 1.4376636e-38 274 214
-0.064619094 0.81900001 0.037335481 1.3455039e-38 275 214
-0.063183114 0.81900001 0.037335481 1.2258677e-38 276 214
-0.061897919 0.82099998 0.037426651 1.133672e-38 277 214
-0.06060572 0.82300001 0.037517827 1.1426764e-38 278 214
-0.059162725 0.82300001 0.037517827 1.1242732e-38 279 214
-0.057859998 0.82499999 0.037608996 1.0783196e-38 280 214
-0.056413498 0.82499999 0.037608996 1.0691001e-38 281 214
-0.055100251 0.82700002 0.037700173 1.0322235e-38 282 214
-0.053650245 0.82700002 0.037700173 9.5846685e-39 283 214
-0.097646639 0.81900001 0.035899501 1.4935263e-38 252 215
-0.096210659 0.81900001 0.035899501 1.4843066e-38 253 215
-0.094774678 0.81900001 0.035899501 1.659076e-38 254 215
-0.093338698 0.81900001 0.035899501 1.6867347e-38 255 215
-0.091902718 0.81900001 0.035899501 1.7144281e-38 256 215
-0.090245813 0.81699997 0.03581183 1.7328673e-38 257 215
-0.088813342 0.81699997 0.03581183 1.751342e-38 258 215
-0.087380864 0.81699997 0.03581183 1.7605617e-38 259 215
-0.085738003 0.815 0.035724167 1.7789654e-38 260 215
-0.084309027 0.815 0.035724167 1.7789654e-38 261 215
-0.082880065 0.815 0.035724167 1.788078e-38 262 215
-0.081451096 0.815 0.035724167 1.7788584e-38 263 215
-0.080022126 0.815 0.035724167 1.7512716e-38 264 215
-0.078593165 0.815 0.035724167 1.7236129e-38 265 215
-0.077164195 0.815 0.035724167 1.6867347e-38 266 215
-0.075735234 0.815 0.035724167 1.6498564e-38 267 215
-0.074306265 0.815 0.035724167 1.6313447e-38 268 215
-0.072877295 0.815 0.035724167 1.5760274e-38 269 215
-0.071448334 0.815 0.035724167 1.5482962e-38 270 215
-0.070019364 0.815 0.035724167 1.5298569e-38 271 215
-0.068590395 0.815 0.035724167 1.4929441e-38 272 215
-0.067161433 0.815 0.035724167 1.4652854e-38 273 215
-0.065893769 0.81699997 0.03581183 1.3641238e-38 274 215
-0.064461298 0.81699997 0.03581183 1.2166468e-38 275 215
-0.063183114 0.81900001 0.035899501 1.1521112e-38 276 215
-0.061897919 0.82099998 0.035987165 1.1152689e-38 277 215
-0.06060572 0.82300001 0.036074832 1.1426764e-38 278 215
-0.059306499 0.82499999 0.036162499 1.1150537e-38 279 215
-0.057859998 0.82499999 0.036162499 1.0782843e-38 280 215
-0.056550261 0.82700002 0.036250167 1.0414421e-38 281 215
-0.055100251 0.82700002 0.036250167 9.677597e-39 282 215
-0.098840654 0.81699997 0.034379359 1.5399895e-38 251 216
-0.097408183 0.81699997 0.034379359 1.5301505e-38 252 216
-0.096210659 0.81900001 0.034463517 1.5670288e-38 253 216
-0.094774678 0.81900001 0.034463517 1.6590754e-38 254 216
-0.093338698 0.81900001 0.034463517 1.7143928e-38 255 216
-0.091678284 0.81699997 0.034379359 1.751199e-38 256 216
-0.090245813 0.81699997 0.034379359 1.7604186e-38 257 216
-0.088595927 0.815 0.034295198 1.7788932e-38 258 216
-0.087166965 0.815 0.034295198 1.7788932e-38 259 216
-0.085738003 0.815 0.034295198 1.7880774e-38 260 216
-0.084309027 0.815 0.034295198 1.7973329e-38 261 216
-0.082880065 0.815 0.034295198 1.7880424e-38 262 216
-0.081451096 0.815 0.034295198 1.7696031e-38 263 216
-0.080022126 0.815 0.034295198 1.751164e-38 264 216
-0.078593165 0.815 0.034295198 1.7142859e-38 265 216
-0.076974839 0.81300002 0.03421104 1.66826e-38 266 216
-0.075549379 0.81300002 0.03421104 1.622198e-38 267 216
-0.074123919 0.81300002 0.03421104 1.6036865e-38 268 216
-0.072698459 0.81300002 0.03421104 1.5575526e-38 269 216
-0.071448334 0.815 0.034295198 1.4931595e-38 270 216
-0.070019364 0.815 0.034295198 1.483904e-38 271 216
-0.068590395 0.815 0.034295198 1.4653583e-38 272 216
-0.067161433 0.815 0.034295198 1.4100409e-38 273 216
-0.065732464 0.815 0.034295198 1.3087711e-38 274 216
-0.064461298 0.81699997 0.034379359 1.1796973e-38 275 216
-0.06302882 0.81699997 0.034379359 1.188702e-38 276 216
-0.061747137 0.81900001 0.034463517 1.1610793e-38 277 216
-0.060458437 0.82099998 0.034547675 1.1426764e-38 278 216
-0.059306499 0.82499999 0.034715999 1.1150537e-38 279 216
-0.057859998 0.82499999 0.034715999 1.0690294e-38 280 216
-0.056550261 0.82700002 0.034800157 1.0229316e-38 281 216
-0.1005186 0.81900001 0.033027537 1.622928e-38 250 217
-0.098598696 0.815 0.032866232 1.4293171e-38 251 217
-0.097169727 0.815 0.032866232 1.5759234e-38 252 217
-0.095975704 0.81699997 0.032946885 1.6497158e-38 253 217
-0.094543234 0.81699997 0.032946885 1.6682953e-38 254 217
-0.093110763 0.81699997 0.032946885 1.7143931e-38 255 217
-0.091229439 0.81300002 0.03278558 1.7328675e-38 256 217
-0.089583054 0.81099999 0.032704927 1.7513067e-38 257 217
-0.088161096 0.81099999 0.032704927 1.760562e-38 258 217
-0.086525239 0.80900002 0.032624274 1.7789651e-38 259 217
-0.085106798 0.80900002 0.032624274 1.7789654e-38 260 217
-0.083895244 0.81099999 0.032704927 1.7605622e-38 261 217
-0.082473285 0.81099999 0.032704927 1.7513072e-38 262 217
-0.081051342 0.81099999 0.032704927 1.7420518e-38 263 217
-0.079629384 0.81099999 0.032704927 1.7235055e-38 264 217
-0.078593165 0.815 0.032866232 1.6958466e-38 265 217
-0.076974839 0.81300002 0.03278558 1.6589685e-38 266 217
-0.075549379 0.81300002 0.03278558 1.6220901e-38 267 217
-0.074123919 0.81300002 0.03278558 1.5852476e-38 268 217
-0.072698459 0.81300002 0.03278558 1.5391498e-38 269 217
-0.071448334 0.815 0.032866232 1.5114907e-38 270 217
-0.069847539 0.81300002 0.03278558 1.4746126e-38 271 217
-0.068422079 0.81300002 0.03278558 1.4561028e-38 272 217
-0.067161433 0.815 0.032866232 1.3731266e-38 273 217
-0.065732464 0.815 0.032866232 1.262674e-38 274 217
-0.064461298 0.81699997 0.032946885 1.1796978e-38 275 217
-0.06302882 0.81699997 0.032946885 1.1978497e-38 276 217
-0.061747137 0.81900001 0.033027537 1.1794106e-38 277 217
-0.060458437 0.82099998 0.03310819 1.1243451e-38 278 217
-0.059306499 0.82499999 0.033269498 1.087467e-38 279 217
-0.057859998 0.82499999 0.033269498 1.0322235e-38 280 217
-0.10027312 0.81699997 0.03151441 1.5307304e-38 250 218
-0.098598696 0.815 0.031437267 1.3832174e-38 251 218
-0.097169727 0.815 0.031437267 1.6036164e-38 252 218
-0.095270865 0.81099999 0.031282969 1.6681533e-38 253 218
-0.093848921 0.81099999 0.031282969 1.7050659e-38 254 218
-0.092426963 0.81099999 0.031282969 1.7327606e-38 255 218
-0.091005012 0.81099999 0.031282969 1.7420874e-38 256 218
-0.089362144 0.80900002 0.031205826 1.7605267e-38 257 218
-0.087943695 0.80900002 0.031205826 1.7789654e-38 258 218
-0.086311333 0.80699998 0.031128678 1.7789654e-38 259 218
-0.084896393 0.80699998 0.031128678 1.7605985e-38 260 218
-0.083688356 0.80900002 0.031205826 1.7605985e-38 261 218
-0.082269907 0.80900002 0.031205826 1.7512719e-38 262 218
-0.080851458 0.80900002 0.031205826 1.7235774e-38 263 218
-0.079629384 0.81099999 0.031282969 1.7142859e-38 264 218
-0.078400299 0.81300002 0.03136012 1.6866271e-38 265 218
-0.076974839 0.81300002 0.03136012 1.6590038e-38 266 218
-0.075549379 0.81300002 0.03136012 1.6036865e-38 267 218
-0.073941574 0.81099999 0.031282969 1.5760276e-38 268 218
-0.072519615 0.81099999 0.031282969 1.52993e-38 269 218
-0.071272999 0.81300002 0.03136012 1.4839396e-38 270 218
-0.069847539 0.81300002 0.03136012 1.4747201e-38 271 218
-0.068422079 0.81300002 0.03136012 1.4378438e-38 272 218
-0.067161433 0.815 0.031437267 1.2810752e-38 273 218
-0.065732464 0.815 0.031437267 1.2807184e-38 274 218
-0.064461298 0.81699997 0.03151441 1.2438402e-38 275 218
-0.063183114 0.81900001 0.031591557 1.1703355e-38 276 218
-0.061747137 0.81900001 0.031591557 1.1518963e-38 277 218
-0.060458437 0.82099998 0.031668708 1.0967941e-38 278 218
-0.059306499 0.82499999 0.031822998 1.0690995e-38 279 218
-0.10002767 0.815 0.030008299 1.4753386e-38 250 219
-0.098356739 0.81300002 0.02993466 1.3647397e-38 251 219
-0.096931279 0.81300002 0.02993466 1.6129429e-38 252 219
-0.095270865 0.81099999 0.02986102 1.6590407e-38 253 219
-0.093848921 0.81099999 0.02986102 1.7602761e-38 254 219
-0.092426963 0.81099999 0.02986102 1.7695315e-38 255 219
-0.091005012 0.81099999 0.02986102 1.7696385e-38 256 219
-0.089362144 0.80900002 0.02978738 1.7788582e-38 257 219
-0.087943695 0.80900002 0.02978738 1.7880774e-38 258 219
-0.086097427 0.80500001 0.029640101 1.7880774e-38 259 219
-0.084685996 0.80500001 0.029640101 1.77893e-38 260 219
-0.083481453 0.80699998 0.029713741 1.7605269e-38 261 219
-0.082066514 0.80699998 0.029713741 1.7695313e-38 262 219
-0.080651581 0.80699998 0.029713741 1.7418367e-38 263 219
-0.079629384 0.81099999 0.02986102 1.6958466e-38 264 219
-0.078207433 0.81099999 0.02986102 1.6589685e-38 265 219
-0.076785475 0.81099999 0.02986102 1.6313447e-38 266 219
-0.075363517 0.81099999 0.02986102 1.5852471e-38 267 219
-0.073941574 0.81099999 0.02986102 1.5758829e-38 268 219
-0.072519615 0.81099999 0.02986102 1.5482602e-38 269 219
-0.071272999 0.81300002 0.02993466 1.5205655e-38 270 219
-0.069847539 0.81300002 0.02993466 1.4837233e-38 271 219
-0.068422079 0.81300002 0.02993466 1.4467033e-38 272 219
-0.067161433 0.815 0.030008299 1.2900068e-38 273 219
-0.065732464 0.815 0.030008299 1.1888099e-38 274 219
-0.064461298 0.81699997 0.030081939 1.1795903e-38 275 219
-0.063183114 0.81900001 0.030155579 1.1702992e-38 276 219
-0.061747137 0.81900001 0.030155579 1.151824e-38 277 219
-0.060458437 0.82099998 0.030229218 1.1151253e-38 278 219
-0.10145663 0.815 0.028579332 1.5398462e-38 249 220
-0.099782199 0.81300002 0.0285092 1.4751224e-38 250 220
-0.098114774 0.81099999 0.028439065 1.4566474e-38 251 220
-0.096692823 0.81099999 0.028439065 1.6404577e-38 252 220
-0.095270865 0.81099999 0.028439065 1.7049946e-38 253 220
-0.093848921 0.81099999 0.028439065 1.760348e-38 254 220
-0.092426963 0.81099999 0.028439065 1.760348e-38 255 220
-0.090780586 0.80900002 0.028368933 1.7696385e-38 256 220
-0.089362144 0.80900002 0.028368933 1.7788582e-38 257 220
-0.087943695 0.80900002 0.028368933 1.77893e-38 258 220
-0.086097427 0.80500001 0.028228667 1.77893e-38 259 220
-0.084685996 0.80500001 0.028228667 1.7605635e-38 260 220
-0.083274566 0.80500001 0.028228667 1.7513439e-38 261 220
-0.081863128 0.80500001 0.028228667 1.7511284e-38 262 220
-0.080451705 0.80500001 0.028228667 1.7142862e-38 263 220
-0.079040267 0.80500001 0.028228667 1.6865915e-38 264 220
-0.077628836 0.80500001 0.028228667 1.6405297e-38 265 220
-0.076406755 0.80699998 0.028298797 1.6313447e-38 266 220
-0.074991815 0.80699998 0.028298797 1.5668078e-38 267 220
-0.073759228 0.80900002 0.028368933 1.5575161e-38 268 220
-0.072340779 0.80900002 0.028368933 1.5298572e-38 269 220
-0.071097665 0.81099999 0.028439065 1.4746129e-38 270 220
-0.069847539 0.81300002 0.0285092 1.4469183e-38 271 220
-0.068422079 0.81300002 0.0285092 1.3273176e-38 272 220
-0.067161433 0.815 0.028579332 1.1706209e-38 273 220
-0.065732464 0.815 0.028579332 1.2346203e-38 274 220
-0.064461298 0.81699997 0.028649466 1.2161812e-38 275 220
-0.063183114 0.81900001 0.0287196 1.1611159e-38 276 220
-0.061747137 0.81900001 0.0287196 1.1426766e-38 277 220
-0.060311157 0.81900001 0.0287196 1.0691729e-38 278 220
-0.059162725 0.82300001 0.028859867 9.9541643e-39 279 220
-0.10145663 0.815 0.027150365 1.4476133e-38 249 221
-0.099536732 0.81099999 0.027017111 1.5025284e-38 250 221
-0.098114774 0.81099999 0.027017111 1.511748e-38 251 221
-0.096692823 0.81099999 0.027017111 1.6313824e-38 252 221
-0.095270865 0.81099999 0.027017111 1.6774801e-38 253 221
-0.093617477 0.80900002 0.026950486 1.7235779e-38 254 221
-0.092199028 0.80900002 0.026950486 1.7512366e-38 255 221
-0.090556152 0.80699998 0.026883857 1.7604916e-38 256 221
-0.08914122 0.80699998 0.026883857 1.7604916e-38 257 221
-0.08772628 0.80699998 0.026883857 1.7788945e-38 258 221
-0.086097427 0.80500001 0.026817232 1.7788945e-38 259 221
-0.084685996 0.80500001 0.026817232 1.788078e-38 260 221
-0.083274566 0.80500001 0.026817232 1.7696029e-38 261 221
-0.081863128 0.80500001 0.026817232 1.7510918e-38 262 221
-0.080451705 0.80500001 0.026817232 1.704994e-38 263 221
-0.079040267 0.80500001 0.026817232 1.6773353e-38 264 221
-0.077628836 0.80500001 0.026817232 1.6312375e-38 265 221
-0.076406755 0.80699998 0.026883857 1.6036142e-38 266 221
-0.074991815 0.80699998 0.026883857 1.5667359e-38 267 221
-0.073759228 0.80900002 0.026950486 1.5482602e-38 268 221
-0.072340779 0.80900002 0.026950486 1.5297851e-38 269 221
-0.071097665 0.81099999 0.027017111 1.4928725e-38 270 221
-0.069675706 0.81099999 0.027017111 1.419116e-38 271 221
-0.068422079 0.81300002 0.02708374 1.2719652e-38 272 221
-0.066996619 0.81300002 0.02708374 1.1705859e-38 273 221
-0.065732464 0.815 0.027150365 1.1703355e-38 274 221
-0.064461298 0.81699997 0.027216991 1.1703355e-38 275 221
-0.063183114 0.81900001 0.027283618 1.1335648e-38 276 221
-0.061596353 0.81699997 0.027216991 1.1335648e-38 277 221
-0.060163878 0.81699997 0.027216991 9.6783005e-39 278 221
-0.10070971 0.80900002 0.025532039 1.383147e-38 249 222
-0.099291265 0.80900002 0.025532039 1.5392256e-38 250 222
-0.098114774 0.81099999 0.025595158 1.5853234e-38 251 222
-0.096692823 0.81099999 0.025595158 1.649749e-38 252 222
-0.095035926 0.80900002 0.025532039 1.7050662e-38 253 222
-0.093617477 0.80900002 0.025532039 1.7327603e-38 254 222
-0.092199028 0.80900002 0.025532039 1.7604189e-38 255 222
-0.090556152 0.80699998 0.025468919 1.7788582e-38 256 222
-0.08914122 0.80699998 0.025468919 1.7788582e-38 257 222
-0.087291449 0.80299997 0.025342679 1.7788947e-38 258 222
-0.085883521 0.80299997 0.025342679 1.7788947e-38 259 222
-0.084685996 0.80500001 0.025405798 1.7788231e-38 260 222
-0.083274566 0.80500001 0.025405798 1.760348e-38 261 222
-0.081863128 0.80500001 0.025405798 1.741837e-38 262 222
-0.080451705 0.80500001 0.025405798 1.6957392e-38 263 222
-0.079040267 0.80500001 0.025405798 1.6588605e-38 264 222
-0.077628836 0.80500001 0.025405798 1.6220182e-38 265 222
-0.076406755 0.80699998 0.025468919 1.6035788e-38 266 222
-0.074991815 0.80699998 0.025468919 1.557481e-38 267 222
-0.073576882 0.80699998 0.025468919 1.5390419e-38 268 222
-0.072161935 0.80699998 0.025468919 1.5021636e-38 269 222
-0.071097665 0.81099999 0.025595158 1.4836545e-38 270 222
-0.069675706 0.81099999 0.025595158 1.3730197e-38 271 222
-0.068422079 0.81300002 0.02565828 1.2166847e-38 272 222
-0.066996619 0.81300002 0.02565828 1.1614032e-38 273 222
-0.065732464 0.815 0.025721399 1.1887749e-38 274 222
-0.064461298 0.81699997 0.025784519 1.1703358e-38 275 222
-0.063183114 0.81900001 0.02584764 1.1427494e-38 276 222
-0.061596353 0.81699997 0.025784519 1.1335298e-38 277 222
-0.060163878 0.81699997 0.025784519 8.9407508e-39 278 222
-0.10070971 0.80900002 0.024113594 1.3096409e-38 249 223
-0.099291265 0.80900002 0.024113594 1.5485155e-38 250 223
-0.098114774 0.81099999 0.024173206 1.5946133e-38 251 223
-0.096692823 0.81099999 0.024173206 1.6498208e-38 252 223
-0.095035926 0.80900002 0.024113594 1.6959547e-38 253 223
-0.093617477 0.80900002 0.024113594 1.7511635e-38 254 223
-0.091971092 0.80699998 0.02405398 1.7696385e-38 255 223
-0.090331733 0.80500001 0.023994366 1.7788584e-38 256 223
-0.088920295 0.80500001 0.023994366 1.7788584e-38 257 223
-0.087291449 0.80299997 0.023934752 1.7788228e-38 258 223
-0.085883521 0.80299997 0.023934752 1.7788228e-38 259 223
-0.084475599 0.80299997 0.023934752 1.7788231e-38 260 223
-0.08306767 0.80299997 0.023934752 1.7511284e-38 261 223
-0.081659742 0.80299997 0.023934752 1.7326174e-38 262 223
-0.08025182 0.80299997 0.023934752 1.6865196e-38 263 223
-0.079040267 0.80500001 0.023994366 1.6404574e-38 264 223
-0.077628836 0.80500001 0.023994366 1.6127987e-38 265 223
-0.076217398 0.80500001 0.023994366 1.5943591e-38 266 223
-0.074805968 0.80500001 0.023994366 1.557481e-38 267 223
-0.073576882 0.80699998 0.02405398 1.529787e-38 268 223
-0.072161935 0.80699998 0.02405398 1.4929088e-38 269 223
-0.07092233 0.80900002 0.024113594 1.4376288e-38 270 223
-0.069503881 0.80900002 0.024113594 1.3177746e-38 271 223
-0.068253763 0.81099999 0.024173206 1.1798071e-38 272 223
-0.066996619 0.81300002 0.02423282 1.1613679e-38 273 223
-0.065571159 0.81300002 0.02423282 1.1795919e-38 274 223
-0.064303495 0.815 0.024292432 1.1519692e-38 275 223
-0.063183114 0.81900001 0.02441166 1.1151986e-38 276 223
-0.061747137 0.81900001 0.02441166 1.0690648e-38 277 223
-0.10070971 0.80900002 0.022695147 1.3463016e-38 249 224
-0.099291265 0.80900002 0.022695147 1.5669524e-38 250 224
-0.097872816 0.80900002 0.022695147 1.6130501e-38 251 224
-0.096454374 0.80900002 0.022695147 1.659076e-38 252 224
-0.095035926 0.80900002 0.022695147 1.6959544e-38 253 224
-0.093386032 0.80699998 0.022639038 1.7328322e-38 254 224
-0.091971092 0.80699998 0.022639038 1.7420518e-38 255 224
-0.090331733 0.80500001 0.022582933 1.7512719e-38 256 224
