# .PCD v.7 - Point Cloud Data file format
FIELDS x y z rgb imX imY
SIZE 4 4 4 4 4 4
TYPE F F F F F F
COUNT 1 1 1 1 1 1
WIDTH 829
HEIGHT 1
VIEWPOINT 0 0 0 1 0 0 0
POINTS 829
DATA ascii
-0.044972997 0.67500001 -0.037871998 1.8894221e-38 282 272
-0.043724626 0.67400002 -0.037815895 1.8986417e-38 283 272
-0.042416636 0.67199999 -0.037703678 1.8986417e-38 284 272
-0.041238401 0.67199999 -0.037703678 1.9078614e-38 285 272
-0.040179387 0.67400002 -0.037815895 1.8895302e-38 286 272
-0.038997639 0.67400002 -0.037815895 1.8803105e-38 287 272
-0.037815895 0.67400002 -0.037815895 1.8894219e-38 288 272
-0.036634147 0.67400002 -0.037815895 1.8894219e-38 289 272
-0.035452399 0.67400002 -0.037815895 1.8251007e-38 290 272
-0.034270655 0.67400002 -0.037815895 1.8158453e-38 291 272
-0.033088908 0.67400002 -0.037815895 1.7697493e-38 292 272
-0.031812478 0.67199999 -0.037703678 1.7697493e-38 293 272
-0.030634239 0.67199999 -0.037703678 1.74213e-38 294 272
-0.029455997 0.67199999 -0.037703678 1.7513497e-38 295 272
-0.082231328 0.69999999 -0.040502001 1.5211906e-38 253 273
-0.081004001 0.69999999 -0.040502001 1.4471056e-38 254 273
-0.079548739 0.69800001 -0.040386278 1.419483e-38 255 273
-0.078324907 0.69800001 -0.040386278 1.4746887e-38 256 273
-0.076990619 0.69700003 -0.040328421 1.4839082e-38 257 273
-0.075659841 0.69599998 -0.040270556 1.4656839e-38 258 273
-0.074225612 0.69400001 -0.040154841 1.4841229e-38 259 273
-0.072693199 0.69099998 -0.039981257 1.5485874e-38 260 273
-0.071171306 0.68800002 -0.039807681 1.6223798e-38 261 273
-0.069863312 0.68699998 -0.039749816 1.6960278e-38 262 273
-0.068658777 0.68699998 -0.039749816 1.7052833e-38 263 273
-0.06735605 0.68599999 -0.039691959 1.7327622e-38 264 273
-0.065863967 0.68300003 -0.039518382 1.7512014e-38 265 273
-0.064666435 0.68300003 -0.039518382 1.7327985e-38 266 273
-0.063375987 0.68199998 -0.039460517 1.742054e-38 267 273
-0.062180214 0.68199998 -0.039460517 1.7695329e-38 268 273
-0.0608056 0.68000001 -0.039344799 1.7787525e-38 269 273
-0.059525665 0.67900002 -0.039286941 1.7604932e-38 270 273
-0.058335152 0.67900002 -0.039286941 1.7697127e-38 271 273
-0.057060476 0.67799997 -0.039229076 1.7789326e-38 272 273
-0.055706903 0.676 -0.039113361 1.7973357e-38 273 273
-0.054521654 0.676 -0.039113361 1.7973354e-38 274 273
-0.053336397 0.676 -0.039113361 1.806591e-38 275 273
-0.052151144 0.676 -0.039113361 1.8158105e-38 276 273
-0.050965894 0.676 -0.039113361 1.8158105e-38 277 273
-0.049706999 0.67500001 -0.039055496 1.8249229e-38 278 273
-0.048523501 0.67500001 -0.039055496 1.843326e-38 279 273
-0.047339998 0.67500001 -0.039055496 1.8342144e-38 280 273
-0.0461565 0.67500001 -0.039055496 1.8434339e-38 281 273
-0.044906374 0.67400002 -0.038997639 1.8618007e-38 282 273
-0.043594878 0.67199999 -0.03888192 1.8710203e-38 283 273
-0.042416636 0.67199999 -0.03888192 1.8526891e-38 284 273
-0.041238401 0.67199999 -0.03888192 1.8710923e-38 285 273
-0.040000543 0.671 -0.038824059 1.8802752e-38 286 273
-0.038824059 0.671 -0.038824059 1.8802752e-38 287 273
-0.037647571 0.671 -0.038824059 1.8986773e-38 288 273
-0.036471087 0.671 -0.038824059 1.8894219e-38 289 273
-0.035136797 0.66799998 -0.038650475 1.8894209e-38 290 273
-0.033965573 0.66799998 -0.038650475 1.8801654e-38 291 273
-0.032892533 0.67000002 -0.038766202 1.8433598e-38 292 273
-0.031765141 0.671 -0.038824059 1.8433598e-38 293 273
-0.030588651 0.671 -0.038824059 1.7972988e-38 294 273
-0.029412165 0.671 -0.038824059 1.7788597e-38 295 273
-0.028235679 0.671 -0.038824059 1.7512033e-38 296 273
-0.081119716 0.70099998 -0.041788943 1.4748369e-38 254 274
-0.079548739 0.69800001 -0.041610107 1.4472143e-38 255 274
-0.078324907 0.69800001 -0.041610107 1.4565012e-38 256 274
-0.076990619 0.69700003 -0.041550495 1.4472817e-38 257 274
-0.075659841 0.69599998 -0.041490879 1.5023457e-38 258 274
-0.074225612 0.69400001 -0.041371655 1.4838707e-38 259 274
-0.072587997 0.69 -0.041133199 1.5392235e-38 260 274
-0.071171306 0.68800002 -0.041013971 1.5576628e-38 261 274
-0.069863312 0.68699998 -0.040954359 1.6039401e-38 262 274
-0.068658777 0.68699998 -0.040954359 1.6592575e-38 263 274
-0.067061491 0.68300003 -0.040715907 1.705031e-38 264 274
-0.065767527 0.68199998 -0.040656291 1.723506e-38 265 274
-0.064571753 0.68199998 -0.040656291 1.7510565e-38 266 274
-0.063375987 0.68199998 -0.040656291 1.7602761e-38 267 274
-0.061997864 0.68000001 -0.040537067 1.7602761e-38 268 274
-0.060716182 0.67900002 -0.040477451 1.7602761e-38 269 274
-0.059437994 0.67799997 -0.040417835 1.7696034e-38 270 274
-0.058249239 0.67799997 -0.040417835 1.7696034e-38 271 274
-0.056892153 0.676 -0.040298611 1.788043e-38 272 274
-0.055706903 0.676 -0.040298611 1.788043e-38 273 274
-0.054441001 0.67500001 -0.040238999 1.7972988e-38 274 274
-0.053257499 0.67500001 -0.040238999 1.7972988e-38 275 274
-0.052074 0.67500001 -0.040238999 1.8248499e-38 276 274
-0.050890498 0.67500001 -0.040238999 1.8248499e-38 277 274
-0.049706999 0.67500001 -0.040238999 1.8340332e-38 278 274
-0.048523501 0.67500001 -0.040238999 1.861656e-38 279 274
-0.047269866 0.67400002 -0.040179387 1.8433245e-38 280 274
-0.046088122 0.67400002 -0.040179387 1.852544e-38 281 274
-0.044773117 0.67199999 -0.040060159 1.8525443e-38 282 274
-0.043594878 0.67199999 -0.040060159 1.8617639e-38 283 274
-0.042353518 0.671 -0.040000543 1.8801676e-38 284 274
-0.041177034 0.671 -0.040000543 1.8801676e-38 285 274
-0.039940935 0.67000002 -0.039940935 1.8986071e-38 286 274
-0.038650475 0.66799998 -0.039821707 1.8986071e-38 287 274
-0.037479252 0.66799998 -0.039821707 1.88024e-38 288 274
-0.036416732 0.67000002 -0.039940935 1.88024e-38 289 274
-0.035084199 0.667 -0.039762091 1.8711279e-38 290 274
-0.033914726 0.667 -0.039762091 1.8526888e-38 291 274
-0.032745253 0.667 -0.039762091 1.8252099e-38 292 274
-0.03157578 0.667 -0.039762091 1.8067708e-38 293 274
-0.030451892 0.66799998 -0.039821707 1.8342853e-38 294 274
-0.029280664 0.66799998 -0.039821707 1.8158103e-38 295 274
-0.028109439 0.66799998 -0.039821707 1.8157752e-38 296 274
-0.081119716 0.70099998 -0.043018032 1.4564707e-38 254 275
-0.079434767 0.69700003 -0.042772565 1.4472152e-38 255 275
-0.078212693 0.69700003 -0.042772565 1.4840526e-38 256 275
-0.076990619 0.69700003 -0.042772565 1.4471745e-38 257 275
-0.075768545 0.69700003 -0.042772565 1.4748312e-38 258 275
-0.074225612 0.69400001 -0.042588469 1.4748312e-38 259 275
-0.072587997 0.69 -0.042342998 1.4840861e-38 260 275
-0.071171306 0.68800002 -0.042220265 1.4840861e-38 261 275
-0.069863312 0.68699998 -0.042158898 1.5209637e-38 262 275
-0.068558842 0.68599999 -0.042097531 1.5578779e-38 263 275
-0.067061491 0.68300003 -0.041913435 1.5946486e-38 264 275
-0.065767527 0.68199998 -0.041852064 1.6314909e-38 265 275
-0.064571753 0.68199998 -0.041852064 1.6684051e-38 266 275
-0.063375987 0.68199998 -0.041852064 1.6684051e-38 267 275
-0.061997864 0.68000001 -0.041729335 1.7234704e-38 268 275
-0.060626756 0.67799997 -0.041606598 1.73269e-38 269 275
-0.059437994 0.67799997 -0.041606598 1.7327622e-38 270 275
-0.058077414 0.676 -0.041483864 1.7327622e-38 271 275
-0.056808002 0.67500001 -0.041422497 1.742054e-38 272 275
-0.0556245 0.67500001 -0.041422497 1.742054e-38 273 275
-0.054360349 0.67400002 -0.041361131 1.751238e-38 274 275
-0.053178601 0.67400002 -0.041361131 1.7604934e-38 275 275
-0.051996857 0.67400002 -0.041361131 1.7880442e-38 276 275
-0.050815105 0.67400002 -0.041361131 1.7880442e-38 277 275
-0.049633358 0.67400002 -0.041361131 1.815595e-38 278 275
-0.048451614 0.67400002 -0.041361131 1.815595e-38 279 275
-0.047129598 0.67199999 -0.041238401 1.7973354e-38 280 275
-0.045951359 0.67199999 -0.041238401 1.806591e-38 281 275
-0.044706494 0.671 -0.041177034 1.8065554e-38 282 275
-0.043530006 0.671 -0.041177034 1.8157749e-38 283 275
-0.042290401 0.67000002 -0.041115668 1.843326e-38 284 275
-0.040992931 0.66799998 -0.040992931 1.8525814e-38 285 275
-0.039821707 0.66799998 -0.040992931 1.8525814e-38 286 275
-0.038650475 0.66799998 -0.040992931 1.861801e-38 287 275
-0.037479252 0.66799998 -0.040992931 1.861801e-38 288 275
-0.036253672 0.667 -0.040931564 1.861801e-38 289 275
-0.035084199 0.667 -0.040931564 1.8710206e-38 290 275
-0.033914726 0.667 -0.040931564 1.8710206e-38 291 275
-0.032745253 0.667 -0.040931564 1.8802752e-38 292 275
-0.03157578 0.667 -0.040931564 1.8710556e-38 293 275
-0.030406304 0.667 -0.040931564 1.8894219e-38 294 275
-0.029236831 0.667 -0.040931564 1.8617992e-38 295 275
-0.028109439 0.66799998 -0.040992931 1.8617642e-38 296 275
-0.026938211 0.66799998 -0.040992931 1.8617642e-38 297 275
-0.022053426 0.662 -0.04062473 1.760495e-38 301 275
-0.020892721 0.662 -0.04062473 1.7329844e-38 302 275
-0.080656841 0.69700003 -0.043994639 1.4104815e-38 254 276
-0.079434767 0.69700003 -0.043994639 1.419701e-38 255 276
-0.078212693 0.69700003 -0.043994639 1.465686e-38 256 276
-0.076990619 0.69700003 -0.043994639 1.447211e-38 257 276
-0.075659841 0.69599998 -0.043931518 1.4656113e-38 258 276
-0.074225612 0.69400001 -0.043805279 1.4656113e-38 259 276
-0.072587997 0.69 -0.043552797 1.4931256e-38 260 276
-0.071171306 0.68800002 -0.043426562 1.4746863e-38 261 276
-0.069863312 0.68699998 -0.043363437 1.4656101e-38 262 276
-0.068558842 0.68599999 -0.043300316 1.5024523e-38 263 276
-0.067159683 0.68400002 -0.043174081 1.5025605e-38 264 276
-0.065863967 0.68300003 -0.043110959 1.5486583e-38 265 276
-0.064571753 0.68199998 -0.043047838 1.6131599e-38 266 276
-0.063190132 0.68000001 -0.042921599 1.6500023e-38 267 276
-0.061906695 0.67900002 -0.042858478 1.6958116e-38 268 276
-0.060626756 0.67799997 -0.042795356 1.7050313e-38 269 276
-0.059262663 0.676 -0.042669121 1.723506e-38 270 276
-0.058077414 0.676 -0.042669121 1.7327256e-38 271 276
-0.056808002 0.67500001 -0.042606 1.7144307e-38 272 276
-0.0556245 0.67500001 -0.042606 1.7144307e-38 273 276
-0.054360349 0.67400002 -0.042542879 1.741982e-38 274 276
-0.053178601 0.67400002 -0.042542879 1.741982e-38 275 276
-0.051842555 0.67199999 -0.042416636 1.7512014e-38 276 276
-0.050664317 0.67199999 -0.042416636 1.77886e-38 277 276
-0.049412437 0.671 -0.042353518 1.7880074e-38 278 276
-0.048235953 0.671 -0.042353518 1.7972269e-38 279 276
-0.047059465 0.671 -0.042353518 1.7880439e-38 280 276
-0.045882981 0.671 -0.042353518 1.7972635e-38 281 276
-0.044706494 0.671 -0.042353518 1.7789328e-38 282 276
-0.043465134 0.67000002 -0.042290401 1.797336e-38 283 276
-0.042101037 0.667 -0.042101037 1.8249582e-38 284 276
-0.040931564 0.667 -0.042101037 1.8249582e-38 285 276
-0.039762091 0.667 -0.042101037 1.8432894e-38 286 276
-0.038592618 0.667 -0.042101037 1.852509e-38 287 276
-0.037423145 0.667 -0.042101037 1.843326e-38 288 276
-0.036253672 0.667 -0.042101037 1.8525814e-38 289 276
-0.035031598 0.66600001 -0.042037919 1.8617654e-38 290 276
-0.03386388 0.66600001 -0.042037919 1.8617654e-38 291 276
-0.032696161 0.66600001 -0.042037919 1.870985e-38 292 276
-0.031528439 0.66600001 -0.042037919 1.8894601e-38 293 276
-0.030360719 0.66600001 -0.042037919 1.8803119e-38 294 276
-0.029192999 0.66600001 -0.042037919 1.8526891e-38 295 276
-0.028025279 0.66600001 -0.042037919 1.8710556e-38 296 276
-0.026776904 0.66399997 -0.041911677 1.861836e-38 297 276
-0.025574118 0.66299999 -0.041848559 1.8526165e-38 298 276
-0.024411658 0.66299999 -0.041848559 1.8433969e-38 299 276
-0.023214132 0.662 -0.041785441 1.843326e-38 300 276
-0.022053426 0.662 -0.041785441 1.8157033e-38 301 276
-0.02086116 0.66100001 -0.04172232 1.7788269e-38 302 276
-0.019702207 0.66100001 -0.04172232 1.7696073e-38 303 276
-0.018487146 0.65899998 -0.041596077 1.7145083e-38 304 276
-0.017331699 0.65899998 -0.041596077 1.7329476e-38 305 276
-0.079434767 0.69700003 -0.045216713 1.3737837e-38 255 277
-0.078212693 0.69700003 -0.045216713 1.4472842e-38 256 277
-0.076990619 0.69700003 -0.045216713 1.4380646e-38 257 277
-0.075659841 0.69599998 -0.045151837 1.4564646e-38 258 277
-0.074225612 0.69400001 -0.045022093 1.4472451e-38 259 277
-0.0723776 0.68800002 -0.044632856 1.4747946e-38 260 277
-0.071067855 0.68699998 -0.044567976 1.4563195e-38 261 277
-0.069761619 0.68599999 -0.044503104 1.4471352e-38 262 277
-0.068558842 0.68599999 -0.044503104 1.4655745e-38 263 277
-0.067159683 0.68400002 -0.04437336 1.4564268e-38 264 277
-0.065863967 0.68300003 -0.044308487 1.4841214e-38 265 277
-0.064571753 0.68199998 -0.044243611 1.5302562e-38 266 277
-0.063190132 0.68000001 -0.044113863 1.5947931e-38 267 277
-0.061906695 0.67900002 -0.044048995 1.6406391e-38 268 277
-0.060626756 0.67799997 -0.043984115 1.6498587e-38 269 277
-0.059262663 0.676 -0.043854371 1.6499656e-38 270 277
-0.057991501 0.67500001 -0.043789499 1.6591853e-38 271 277
-0.056723841 0.67400002 -0.043724626 1.686772e-38 272 277
-0.055542093 0.67400002 -0.043724626 1.686772e-38 273 277
-0.054199036 0.67199999 -0.043594878 1.6959562e-38 274 277
-0.053020798 0.67199999 -0.043594878 1.6959562e-38 275 277
-0.051842555 0.67199999 -0.043594878 1.7051758e-38 276 277
-0.050588924 0.671 -0.043530006 1.7327985e-38 277 277
-0.049412437 0.671 -0.043530006 1.7237225e-38 278 277
-0.048164066 0.67000002 -0.043465134 1.7237225e-38 279 277
-0.046849065 0.66799998 -0.043335386 1.760386e-38 280 277
-0.045677837 0.66799998 -0.043335386 1.7787891e-38 281 277
-0.044506609 0.66799998 -0.043335386 1.7879726e-38 282 277
-0.04327051 0.667 -0.04327051 1.7971922e-38 283 277
-0.042101037 0.667 -0.04327051 1.7972638e-38 284 277
-0.040931564 0.667 -0.04327051 1.7972638e-38 285 277
-0.039762091 0.667 -0.04327051 1.8064834e-38 286 277
-0.038592618 0.667 -0.04327051 1.8064834e-38 287 277
-0.037423145 0.667 -0.04327051 1.8157033e-38 288 277
-0.03619932 0.66600001 -0.043205637 1.8249229e-38 289 277
-0.035031598 0.66600001 -0.043205637 1.8433263e-38 290 277
-0.03386388 0.66600001 -0.043205637 1.8433263e-38 291 277
-0.03259797 0.66399997 -0.043075889 1.8616938e-38 292 277
-0.031433757 0.66399997 -0.043075889 1.8800969e-38 293 277
-0.030360719 0.66600001 -0.043205637 1.8800966e-38 294 277
-0.029192999 0.66600001 -0.043205637 1.8800966e-38 295 277
-0.027941117 0.66399997 -0.043075889 1.8710203e-38 296 277
-0.026776904 0.66399997 -0.043075889 1.8618007e-38 297 277
-0.025574118 0.66299999 -0.043011017 1.8618007e-38 298 277
-0.024411658 0.66299999 -0.043011017 1.8525812e-38 299 277
-0.023214132 0.662 -0.042946145 1.8525814e-38 300 277
-0.022053426 0.662 -0.042946145 1.843326e-38 301 277
-0.02086116 0.66100001 -0.042881273 1.7881888e-38 302 277
-0.019702207 0.66100001 -0.042881273 1.7789691e-38 303 277
-0.018487146 0.65899998 -0.042751525 1.760495e-38 304 277
-0.017331699 0.65899998 -0.042751525 1.760495e-38 305 277
-0.016176252 0.65899998 -0.042751525 1.7237281e-38 306 277
-0.078100473 0.69599998 -0.046372157 1.4105151e-38 256 278
-0.076880157 0.69599998 -0.046372157 1.4012955e-38 257 278
-0.075659841 0.69599998 -0.046372157 1.4380618e-38 258 278
-0.074225612 0.69400001 -0.046238903 1.4380618e-38 259 278
-0.0723776 0.68800002 -0.045839146 1.4564271e-38 260 278
-0.071067855 0.68699998 -0.045772515 1.4380238e-38 261 278
-0.069761619 0.68599999 -0.045705888 1.4471355e-38 262 278
-0.068558842 0.68599999 -0.045705888 1.4563551e-38 263 278
-0.067159683 0.68400002 -0.045572639 1.4288406e-38 264 278
-0.065863967 0.68300003 -0.045506012 1.4380603e-38 265 278
-0.064571753 0.68199998 -0.045439381 1.4657192e-38 266 278
-0.063190132 0.68000001 -0.045306131 1.5210366e-38 267 278
-0.061906695 0.67900002 -0.045239504 1.5670624e-38 268 278
-0.06044792 0.676 -0.045039624 1.5946852e-38 269 278
-0.059175 0.67500001 -0.044972997 1.6039404e-38 270 278
-0.057905588 0.67400002 -0.044906374 1.6223795e-38 271 278
-0.056555521 0.67199999 -0.044773117 1.6499303e-38 272 278
-0.055377278 0.67199999 -0.044773117 1.6499303e-38 273 278
-0.054199036 0.67199999 -0.044773117 1.6774818e-38 274 278
-0.052941896 0.671 -0.044706494 1.6774818e-38 275 278
-0.051765412 0.671 -0.044706494 1.6774818e-38 276 278
-0.050513536 0.67000002 -0.044639867 1.6959209e-38 277 278
-0.04919152 0.66799998 -0.044506609 1.6776618e-38 278 278
-0.048020288 0.66799998 -0.044506609 1.6868814e-38 279 278
-0.046778932 0.667 -0.044439986 1.7143253e-38 280 278
-0.045609459 0.667 -0.044439986 1.7419481e-38 281 278
-0.044439986 0.667 -0.044439986 1.7695332e-38 282 278
-0.04327051 0.667 -0.044439986 1.7787528e-38 283 278
-0.042101037 0.667 -0.044439986 1.7604929e-38 284 278
-0.040870197 0.66600001 -0.04437336 1.7604929e-38 285 278
-0.039702479 0.66600001 -0.04437336 1.7880445e-38 286 278
-0.03853476 0.66600001 -0.04437336 1.7880445e-38 287 278
-0.037367038 0.66600001 -0.04437336 1.7697499e-38 288 278
-0.036090612 0.66399997 -0.044240102 1.7789694e-38 289 278
-0.0349264 0.66399997 -0.044240102 1.806485e-38 290 278
-0.033762183 0.66399997 -0.044240102 1.806485e-38 291 278
-0.03259797 0.66399997 -0.044240102 1.8339995e-38 292 278
-0.031433757 0.66399997 -0.044240102 1.8432191e-38 293 278
-0.030269546 0.66399997 -0.044240102 1.843291e-38 294 278
-0.02910533 0.66399997 -0.044240102 1.8525105e-38 295 278
-0.027899038 0.66299999 -0.044173479 1.8341793e-38 296 278
-0.026736578 0.66299999 -0.044173479 1.8433989e-38 297 278
-0.025574118 0.66299999 -0.044173479 1.8342149e-38 298 278
-0.024374841 0.662 -0.044106852 1.8342149e-38 299 278
-0.023214132 0.662 -0.044106852 1.8250314e-38 300 278
-0.022053426 0.662 -0.044106852 1.8066282e-38 301 278
-0.02086116 0.66100001 -0.044040225 1.8066282e-38 302 278
-0.019702207 0.66100001 -0.044040225 1.8066282e-38 303 278
-0.018487146 0.65899998 -0.043906972 1.7974087e-38 304 278
-0.017305398 0.65799999 -0.043840345 1.7974087e-38 305 278
-0.016151706 0.65799999 -0.043840345 1.7696424e-38 306 278
-0.015066394 0.66100001 -0.044040225 1.732764e-38 307 278
-0.074790187 0.68800002 -0.047045439 1.4472116e-38 258 279
-0.073583893 0.68800002 -0.047045439 1.4472116e-38 259 279
-0.0723776 0.68800002 -0.047045439 1.4563565e-38 260 279
-0.071067855 0.68699998 -0.046977058 1.4563565e-38 261 279
-0.069761619 0.68599999 -0.046908677 1.4563195e-38 262 279
-0.068558842 0.68599999 -0.046908677 1.4470999e-38 263 279
-0.067159683 0.68400002 -0.046771921 1.447028e-38 264 279
-0.065863967 0.68300003 -0.04670354 1.4562476e-38 265 279
-0.064571753 0.68199998 -0.046635158 1.4379882e-38 266 279
-0.063190132 0.68000001 -0.046498399 1.4563915e-38 267 279
-0.061906695 0.67900002 -0.046430022 1.447352e-38 268 279
-0.06044792 0.676 -0.046224877 1.4842663e-38 269 279
-0.059175 0.67500001 -0.0461565 1.5578438e-38 270 279
-0.057905588 0.67400002 -0.046088122 1.5947581e-38 271 279
-0.056555521 0.67199999 -0.045951359 1.6406757e-38 272 279
-0.055377278 0.67199999 -0.045951359 1.6406757e-38 273 279
-0.054118387 0.671 -0.045882981 1.6588985e-38 274 279
-0.052941896 0.671 -0.045882981 1.6588985e-38 275 279
-0.051688269 0.67000002 -0.0458146 1.6039051e-38 276 279
-0.050513536 0.67000002 -0.0458146 1.6223442e-38 277 279
-0.04919152 0.66799998 -0.045677837 1.6773744e-38 278 279
-0.047948405 0.667 -0.045609459 1.6958137e-38 279 279
-0.046778932 0.667 -0.045609459 1.7234004e-38 280 279
-0.045609459 0.667 -0.045609459 1.7326199e-38 281 279
-0.04437336 0.66600001 -0.045541082 1.7234354e-38 282 279
-0.043205637 0.66600001 -0.045541082 1.732655e-38 283 279
-0.042037919 0.66600001 -0.045541082 1.7144307e-38 284 279
-0.040870197 0.66600001 -0.045541082 1.7052111e-38 285 279
-0.039702479 0.66600001 -0.045541082 1.7512014e-38 286 279
-0.03853476 0.66600001 -0.045541082 1.7512014e-38 287 279
-0.037254825 0.66399997 -0.045404319 1.7511661e-38 288 279
-0.036090612 0.66399997 -0.045404319 1.7604216e-38 289 279
-0.034873798 0.66299999 -0.045335937 1.7879726e-38 290 279
-0.033711337 0.66299999 -0.045335937 1.7971922e-38 291 279
-0.032548878 0.66299999 -0.045335937 1.7604581e-38 292 279
-0.031386416 0.66299999 -0.045335937 1.7696777e-38 293 279
-0.030223956 0.66299999 -0.045335937 1.8064483e-38 294 279
-0.029061496 0.66299999 -0.045335937 1.815668e-38 295 279
-0.027856959 0.662 -0.04526756 1.8615859e-38 296 279
-0.026696252 0.662 -0.04526756 1.8615859e-38 297 279
-0.025535546 0.662 -0.04526756 1.8433266e-38 298 279
-0.024374841 0.662 -0.04526756 1.8433266e-38 299 279
-0.023214132 0.662 -0.04526756 1.8066285e-38 300 279
-0.022053426 0.662 -0.04526756 1.8066285e-38 301 279
-0.020798039 0.65899998 -0.045062415 1.8157046e-38 302 279
-0.019642593 0.65899998 -0.045062415 1.8157046e-38 303 279
-0.018487146 0.65899998 -0.045062415 1.8157402e-38 304 279
-0.017305398 0.65799999 -0.044994038 1.8157402e-38 305 279
-0.016151706 0.65799999 -0.044994038 1.7789694e-38 306 279
-0.015020805 0.65899998 -0.045062415 1.7604944e-38 307 279
-0.013865359 0.65899998 -0.045062415 1.7329439e-38 308 279
-0.012787059 0.66299999 -0.045335937 1.7236885e-38 309 279
-0.0116246 0.66299999 -0.045335937 1.7236184e-38 310 279
-0.01046214 0.66299999 -0.045335937 1.732838e-38 311 279
-0.073583893 0.68800002 -0.048251733 1.4195899e-38 259 280
-0.0723776 0.68800002 -0.048251733 1.4563211e-38 260 280
-0.071067855 0.68699998 -0.048181597 1.437918e-38 261 280
-0.069761619 0.68599999 -0.048111461 1.4562479e-38 262 280
-0.068358958 0.68400002 -0.0479712 1.4470283e-38 263 280
-0.067061491 0.68300003 -0.047901068 1.4377731e-38 264 280
-0.065767527 0.68199998 -0.047830928 1.4469927e-38 265 280
-0.064382397 0.68000001 -0.047690667 1.4011823e-38 266 280
-0.063097201 0.67900002 -0.047620531 1.4195854e-38 267 280
-0.061815511 0.67799997 -0.047550395 1.3828151e-38 268 280
-0.06044792 0.676 -0.047410134 1.4104737e-38 269 280
-0.059175 0.67500001 -0.047339998 1.484052e-38 270 280
-0.057905588 0.67400002 -0.047269866 1.5301858e-38 271 280
-0.056555521 0.67199999 -0.047129598 1.6220938e-38 272 280
-0.055377278 0.67199999 -0.047129598 1.6128742e-38 273 280
-0.054118387 0.671 -0.047059465 1.5759574e-38 274 280
-0.052863002 0.67000002 -0.046989333 1.5390792e-38 275 280
-0.051688269 0.67000002 -0.046989333 1.539296e-38 276 280
-0.050362743 0.66799998 -0.046849065 1.6038329e-38 277 280
-0.04919152 0.66799998 -0.046849065 1.6405337e-38 278 280
-0.047948405 0.667 -0.046778932 1.6681566e-38 279 280
-0.046778932 0.667 -0.046778932 1.6681568e-38 280 280
-0.045609459 0.667 -0.046778932 1.6773764e-38 281 280
-0.04437336 0.66600001 -0.046708796 1.6774467e-38 282 280
-0.043205637 0.66600001 -0.046708796 1.6774467e-38 283 280
-0.042037919 0.66600001 -0.046708796 1.6408556e-38 284 280
-0.040747464 0.66399997 -0.046568532 1.6500752e-38 285 280
-0.039583251 0.66399997 -0.046568532 1.6776263e-38 286 280
-0.038419038 0.66399997 -0.046568532 1.6776263e-38 287 280
-0.037254825 0.66399997 -0.046568532 1.6868461e-38 288 280
-0.036036257 0.66299999 -0.046498399 1.6868461e-38 289 280
-0.034873798 0.66299999 -0.046498399 1.6960303e-38 290 280
-0.033660494 0.662 -0.046428263 1.7052859e-38 291 280
-0.032499783 0.662 -0.046428263 1.7236166e-38 292 280
-0.031339079 0.662 -0.046428263 1.732872e-38 293 280
-0.030178372 0.662 -0.046428263 1.7604225e-38 294 280
-0.029017664 0.662 -0.046428263 1.7604225e-38 295 280
-0.027856959 0.662 -0.046428263 1.769679e-38 296 280
-0.026696252 0.662 -0.046428263 1.7881541e-38 297 280
-0.025496973 0.66100001 -0.046358135 1.7697873e-38 298 280
-0.02433802 0.66100001 -0.046358135 1.7697873e-38 299 280
-0.023179067 0.66100001 -0.046358135 1.7881188e-38 300 280
-0.022020113 0.66100001 -0.046358135 1.7881188e-38 301 280
-0.020798039 0.65899998 -0.046217863 1.769752e-38 302 280
-0.019642593 0.65899998 -0.046217863 1.7605324e-38 303 280
-0.018487146 0.65899998 -0.046217863 1.7513844e-38 304 280
-0.017305398 0.65799999 -0.04614773 1.7513844e-38 305 280
-0.016151706 0.65799999 -0.04614773 1.7606029e-38 306 280
-0.015020805 0.65899998 -0.046217863 1.7698226e-38 307 280
-0.013865359 0.65899998 -0.046217863 1.7514184e-38 308 280
-0.012709912 0.65899998 -0.046217863 1.7421988e-38 309 280
-0.011607066 0.662 -0.046428263 1.7420913e-38 310 280
-0.01044636 0.662 -0.046428263 1.7420913e-38 311 280
-0.009285653 0.662 -0.046428263 1.7421294e-38 312 280
-0.07227239 0.68699998 -0.049386136 1.4379199e-38 260 281
-0.071067855 0.68699998 -0.049386136 1.4471394e-38 261 281
-0.069761619 0.68599999 -0.049314249 1.4379536e-38 262 281
-0.068358958 0.68400002 -0.049170479 1.4194785e-38 263 281
-0.067061491 0.68300003 -0.049098592 1.4286605e-38 264 281
-0.065767527 0.68199998 -0.049026705 1.4102574e-38 265 281
-0.064382397 0.68000001 -0.048882935 1.4102574e-38 266 281
-0.063097201 0.67900002 -0.048811045 1.4286605e-38 267 281
-0.061815511 0.67799997 -0.048739154 1.4102224e-38 268 281
-0.06044792 0.676 -0.048595384 1.4102224e-38 269 281
-0.059175 0.67500001 -0.048523501 1.4011473e-38 270 281
-0.057733759 0.67199999 -0.04830784 1.4380255e-38 271 281
-0.056555521 0.67199999 -0.04830784 1.511422e-38 272 281
-0.055294871 0.671 -0.048235953 1.4930189e-38 273 281
-0.054118387 0.671 -0.048235953 1.446848e-38 274 281
-0.052705199 0.66799998 -0.048020288 1.4376282e-38 275 281
-0.051533967 0.66799998 -0.048020288 1.4932703e-38 276 281
-0.050362743 0.66799998 -0.048020288 1.5578072e-38 277 281
-0.049117878 0.667 -0.047948405 1.640389e-38 278 281
-0.047948405 0.667 -0.047948405 1.6588281e-38 279 281
-0.046708796 0.66600001 -0.047876518 1.668083e-38 280 281
-0.045541082 0.66600001 -0.047876518 1.668083e-38 281 281
-0.04437336 0.66600001 -0.047876518 1.6130174e-38 282 281
-0.043205637 0.66600001 -0.047876518 1.640676e-38 283 281
-0.041911677 0.66399997 -0.047732744 1.6498953e-38 284 281
-0.040747464 0.66399997 -0.047732744 1.6498953e-38 285 281
-0.039523639 0.66299999 -0.047660857 1.6681899e-38 286 281
-0.038361177 0.66299999 -0.047660857 1.6681899e-38 287 281
-0.037198719 0.66299999 -0.047660857 1.6957407e-38 288 281
-0.035981905 0.662 -0.047588971 1.6957407e-38 289 281
-0.034821201 0.662 -0.047588971 1.6866297e-38 290 281
-0.033660494 0.662 -0.047588971 1.6958493e-38 291 281
-0.032499783 0.662 -0.047588971 1.6591871e-38 292 281
-0.031291738 0.66100001 -0.047517084 1.6591871e-38 293 281
-0.030132787 0.66100001 -0.047517084 1.6684064e-38 294 281
-0.028973831 0.66100001 -0.047517084 1.6776618e-38 295 281
-0.02781488 0.66100001 -0.047517084 1.732799e-38 296 281
-0.026655925 0.66100001 -0.047517084 1.7512383e-38 297 281
-0.025496973 0.66100001 -0.047517084 1.7880089e-38 298 281
-0.02433802 0.66100001 -0.047517084 1.7880089e-38 299 281
-0.023179067 0.66100001 -0.047517084 1.7879739e-38 300 281
-0.022020113 0.66100001 -0.047517084 1.7879739e-38 301 281
-0.02076648 0.65799999 -0.047301427 1.760495e-38 302 281
-0.019612785 0.65799999 -0.047301427 1.760495e-38 303 281
-0.018459093 0.65799999 -0.047301427 1.7604594e-38 304 281
-0.017305398 0.65799999 -0.047301427 1.7604594e-38 305 281
-0.016151706 0.65799999 -0.047301427 1.7604241e-38 306 281
-0.014998012 0.65799999 -0.047301427 1.7604241e-38 307 281
-0.01384432 0.65799999 -0.047301427 1.7604597e-38 308 281
-0.012690626 0.65799999 -0.047301427 1.7696792e-38 309 281
-0.011554466 0.65899998 -0.04737331 1.7237969e-38 310 281
-0.01043058 0.66100001 -0.047517084 1.7237969e-38 311 281
-0.0092716264 0.66100001 -0.047517084 1.7237613e-38 312 281
-0.00695372 0.66100001 -0.047517084 1.6962124e-38 314 281
-0.071067855 0.68699998 -0.050590675 1.4011508e-38 261 282
-0.06955824 0.68400002 -0.050369758 1.4379536e-38 262 282
-0.068259016 0.68300003 -0.05029612 1.4286981e-38 263 282
-0.0669633 0.68199998 -0.050222475 1.4286961e-38 264 282
-0.065574668 0.68000001 -0.050075196 1.4102571e-38 265 282
-0.064287722 0.67900002 -0.050001562 1.40111e-38 266 282
-0.063097201 0.67900002 -0.050001562 1.40111e-38 267 282
-0.061815511 0.67799997 -0.049927916 1.3734883e-38 268 282
-0.06044792 0.676 -0.049780637 1.3734883e-38 269 282
-0.059175 0.67500001 -0.049706999 1.4010747e-38 270 282
-0.057733759 0.67199999 -0.049486078 1.3918551e-38 271 282
-0.056555521 0.67199999 -0.049486078 1.410294e-38 272 282
-0.055294871 0.671 -0.049412437 1.4010744e-38 273 282
-0.054118387 0.671 -0.049412437 1.4100438e-38 274 282
-0.052705199 0.66799998 -0.04919152 1.4192634e-38 275 282
-0.051456824 0.667 -0.049117878 1.4011125e-38 276 282
-0.050287351 0.667 -0.049117878 1.4932723e-38 277 282
-0.049117878 0.667 -0.049117878 1.5668842e-38 278 282
-0.047948405 0.667 -0.049117878 1.5853234e-38 279 282
-0.046708796 0.66600001 -0.04904424 1.6036901e-38 280 282
-0.045541082 0.66600001 -0.04904424 1.6129098e-38 281 282
-0.04437336 0.66600001 -0.04904424 1.5945433e-38 282 282
-0.043075889 0.66399997 -0.048896957 1.5945433e-38 283 282
-0.041911677 0.66399997 -0.048896957 1.5946152e-38 284 282
-0.040747464 0.66399997 -0.048896957 1.6038347e-38 285 282
-0.039523639 0.66299999 -0.048823316 1.6130177e-38 286 282
-0.038361177 0.66299999 -0.048823316 1.6037981e-38 287 282
-0.037198719 0.66299999 -0.048823316 1.6130177e-38 288 282
-0.035981905 0.662 -0.048749682 1.6130177e-38 289 282
-0.0347686 0.66100001 -0.04867604 1.6129821e-38 290 282
-0.033609647 0.66100001 -0.04867604 1.6314211e-38 291 282
-0.032450691 0.66100001 -0.04867604 1.6130896e-38 292 282
-0.031291738 0.66100001 -0.04867604 1.6223092e-38 293 282
-0.030132787 0.66100001 -0.04867604 1.6223442e-38 294 282
-0.028973831 0.66100001 -0.04867604 1.6223442e-38 295 282
-0.02781488 0.66100001 -0.04867604 1.6591503e-38 296 282
-0.026655925 0.66100001 -0.04867604 1.6960284e-38 297 282
-0.025419824 0.65899998 -0.048528757 1.7052129e-38 298 282
-0.024264378 0.65899998 -0.048528757 1.7052129e-38 299 282
-0.023108931 0.65899998 -0.048528757 1.714325e-38 300 282
-0.021953486 0.65899998 -0.048528757 1.714325e-38 301 282
-0.02076648 0.65799999 -0.048455119 1.7143974e-38 302 282
-0.019582979 0.65700001 -0.048381478 1.7236171e-38 303 282
-0.01843104 0.65700001 -0.048381478 1.7052153e-38 304 282
-0.017305398 0.65799999 -0.048455119 1.7236184e-38 305 282
-0.016151706 0.65799999 -0.048455119 1.7235465e-38 306 282
-0.014998012 0.65799999 -0.048455119 1.714327e-38 307 282
-0.01384432 0.65799999 -0.048455119 1.7235821e-38 308 282
-0.012690626 0.65799999 -0.048455119 1.7235821e-38 309 282
-0.011554466 0.65899998 -0.048528757 1.723689e-38 310 282
-0.010399019 0.65899998 -0.048528757 1.7052859e-38 311 282
-0.0092435731 0.65899998 -0.048528757 1.7052503e-38 312 282
-0.0080881258 0.65899998 -0.048528757 1.732873e-38 313 282
-0.00695372 0.66100001 -0.04867604 1.7145065e-38 314 282
-0.0057947668 0.66100001 -0.04867604 1.6776281e-38 315 282
-0.070964411 0.68599999 -0.051719822 1.3734938e-38 261 283
-0.069456547 0.68300003 -0.051493648 1.41948e-38 262 283
-0.068259016 0.68300003 -0.051493648 1.41948e-38 263 283
-0.0669633 0.68199998 -0.051418249 1.4011823e-38 264 283
-0.065574668 0.68000001 -0.051267464 1.3827432e-38 265 283
-0.064287722 0.67900002 -0.051192071 1.4011094e-38 266 283
-0.063004278 0.67799997 -0.051116679 1.3918899e-38 267 283
-0.061815511 0.67799997 -0.051116679 1.3734866e-38 268 283
-0.06044792 0.676 -0.050965894 1.3642671e-38 269 283
-0.059175 0.67500001 -0.050890498 1.3734513e-38 270 283
-0.057733759 0.67199999 -0.050664317 1.3550122e-38 271 283
-0.056555521 0.67199999 -0.050664317 1.3366822e-38 272 283
-0.055294871 0.671 -0.050588924 1.3366822e-38 273 283
-0.054118387 0.671 -0.050588924 1.3733814e-38 274 283
-0.052705199 0.66799998 -0.050362743 1.3641617e-38 275 283
-0.051456824 0.667 -0.050287351 1.3642337e-38 276 283
-0.050287351 0.667 -0.050287351 1.4195151e-38 277 283
-0.049117878 0.667 -0.050287351 1.502455e-38 278 283
-0.047876518 0.66600001 -0.050211959 1.5301135e-38 279 283
-0.046708796 0.66600001 -0.050211959 1.5758868e-38 280 283
-0.045541082 0.66600001 -0.050211959 1.5943618e-38 281 283
-0.044240102 0.66399997 -0.05006117 1.566847e-38 282 283
-0.043075889 0.66399997 -0.05006117 1.566847e-38 283 283
-0.041848559 0.66299999 -0.049985778 1.5668473e-38 284 283
-0.040686097 0.66299999 -0.049985778 1.5852864e-38 285 283
-0.039464023 0.662 -0.049910385 1.5761388e-38 286 283
-0.038303319 0.662 -0.049910385 1.5761388e-38 287 283
-0.037142612 0.662 -0.049910385 1.5852867e-38 288 283
-0.035927553 0.66100001 -0.049834993 1.5760671e-38 289 283
-0.0347686 0.66100001 -0.049834993 1.5852864e-38 290 283
-0.033609647 0.66100001 -0.049834993 1.5852864e-38 291 283
-0.032352503 0.65899998 -0.049684204 1.576139e-38 292 283
-0.031197058 0.65899998 -0.049684204 1.5853586e-38 293 283
-0.030041611 0.65899998 -0.049684204 1.585395e-38 294 283
-0.028886165 0.65899998 -0.049684204 1.585395e-38 295 283
-0.027730718 0.65899998 -0.049684204 1.5946855e-38 296 283
-0.026575271 0.65899998 -0.049684204 1.6039051e-38 297 283
-0.025419824 0.65899998 -0.049684204 1.613053e-38 298 283
-0.024264378 0.65899998 -0.049684204 1.6406757e-38 299 283
-0.023108931 0.65899998 -0.049684204 1.6681915e-38 300 283
-0.021953486 0.65899998 -0.049684204 1.6681915e-38 301 283
-0.020734919 0.65700001 -0.049533416 1.6866313e-38 302 283
-0.019582979 0.65700001 -0.049533416 1.71429e-38 303 283
-0.018374931 0.65499997 -0.049382631 1.6959955e-38 304 283
-0.017226499 0.65499997 -0.049382631 1.6959955e-38 305 283
-0.016078066 0.65499997 -0.049382631 1.6958874e-38 306 283
-0.01497522 0.65700001 -0.049533416 1.6774843e-38 307 283
-0.013823279 0.65700001 -0.049533416 1.6590446e-38 308 283
-0.012690626 0.65799999 -0.049608808 1.6498251e-38 309 283
-0.011536933 0.65799999 -0.049608808 1.6498955e-38 310 283
-0.010399019 0.65899998 -0.049684204 1.6498955e-38 311 283
-0.0092435731 0.65899998 -0.049684204 1.6683351e-38 312 283
-0.0080881258 0.65899998 -0.049684204 1.6775546e-38 313 283
-0.0069326796 0.65899998 -0.049684204 1.6591165e-38 314 283
-0.0057772328 0.65899998 -0.049684204 1.6498969e-38 315 283
-0.0046217865 0.65899998 -0.049684204 1.6132713e-38 316 283
-0.0034663398 0.65899998 -0.049684204 1.6224909e-38 317 283
-0.070964411 0.68599999 -0.05292261 1.2999186e-38 261 284
-0.069354847 0.68199998 -0.052614026 1.3826037e-38 262 284
-0.068159081 0.68199998 -0.052614026 1.3918592e-38 263 284
-0.0669633 0.68199998 -0.052614026 1.4102236e-38 264 284
-0.065574668 0.68000001 -0.052459732 1.4102236e-38 265 284
-0.064287722 0.67900002 -0.052382588 1.391963e-38 266 284
-0.063004278 0.67799997 -0.052305438 1.373488e-38 267 284
-0.061815511 0.67799997 -0.052305438 1.3643036e-38 268 284
-0.06044792 0.676 -0.052151144 1.3550841e-38 269 284
-0.059087332 0.67400002 -0.051996857 1.3549766e-38 270 284
-0.057733759 0.67199999 -0.051842555 1.345757e-38 271 284
-0.056555521 0.67199999 -0.051842555 1.345722e-38 272 284
-0.055294871 0.671 -0.051765412 1.345722e-38 273 284
-0.054118387 0.671 -0.051765412 1.336575e-38 274 284
-0.052705199 0.66799998 -0.051533967 1.336575e-38 275 284
-0.051456824 0.667 -0.051456824 1.3641617e-38 276 284
-0.050287351 0.667 -0.051456824 1.4102236e-38 277 284
-0.049117878 0.667 -0.051456824 1.4563211e-38 278 284
-0.047876518 0.66600001 -0.051379681 1.4747961e-38 279 284
-0.046708796 0.66600001 -0.051379681 1.4930908e-38 280 284
-0.045404319 0.66399997 -0.051225383 1.4930908e-38 281 284
-0.044240102 0.66399997 -0.051225383 1.4564644e-38 282 284
-0.043011017 0.66299999 -0.051148236 1.4841229e-38 283 284
-0.041848559 0.66299999 -0.051148236 1.5208214e-38 284 284
-0.04062473 0.662 -0.051071092 1.5300411e-38 285 284
-0.039464023 0.662 -0.051071092 1.5392962e-38 286 284
-0.038303319 0.662 -0.051071092 1.5300767e-38 287 284
-0.037086505 0.66100001 -0.050993945 1.5483726e-38 288 284
-0.035927553 0.66100001 -0.050993945 1.5483726e-38 289 284
-0.0347686 0.66100001 -0.050993945 1.5483726e-38 290 284
-0.033507951 0.65899998 -0.050839648 1.5483726e-38 291 284
-0.032352503 0.65899998 -0.050839648 1.5575205e-38 292 284
-0.031197058 0.65899998 -0.050839648 1.5851432e-38 293 284
-0.030041611 0.65899998 -0.050839648 1.5668123e-38 294 284
-0.028886165 0.65899998 -0.050839648 1.5760318e-38 295 284
-0.027688639 0.65799999 -0.050762504 1.5852867e-38 296 284
-0.026534945 0.65799999 -0.050762504 1.5852867e-38 297 284
-0.025381252 0.65799999 -0.050762504 1.5578075e-38 298 284
-0.02422756 0.65799999 -0.050762504 1.5854303e-38 299 284
-0.023038799 0.65700001 -0.050685361 1.5853953e-38 300 284
-0.021886859 0.65700001 -0.050685361 1.6038344e-38 301 284
-0.020671798 0.65499997 -0.050531063 1.6406056e-38 302 284
-0.019523365 0.65499997 -0.050531063 1.6682645e-38 303 284
-0.018374931 0.65499997 -0.050531063 1.64075e-38 304 284
-0.017226499 0.65499997 -0.050531063 1.659225e-38 305 284
-0.016078066 0.65499997 -0.050531063 1.6774843e-38 306 284
-0.014929632 0.65499997 -0.050531063 1.6590452e-38 307 284
-0.013781199 0.65499997 -0.050531063 1.6129821e-38 308 284
-0.01267134 0.65700001 -0.050685361 1.5392256e-38 309 284
-0.011536933 0.65799999 -0.050762504 1.5298952e-38 310 284
-0.01038324 0.65799999 -0.050762504 1.5022005e-38 311 284
-0.0092295464 0.65799999 -0.050762504 1.5022002e-38 312 284
-0.0080758529 0.65799999 -0.050762504 1.5114558e-38 313 284
-0.0069326796 0.65899998 -0.050839648 1.5025988e-38 314 284
-0.0057772328 0.65899998 -0.050839648 1.5579521e-38 315 284
-0.0046217865 0.65899998 -0.050839648 1.6037994e-38 316 284
-0.0034663398 0.65899998 -0.050839648 1.613019e-38 317 284
-0.0023073866 0.65799999 -0.050762504 1.5396227e-38 318 284
-0.0011536933 0.65799999 -0.050762504 1.5672454e-38 319 284
-0.069354847 0.68199998 -0.053809796 1.3273962e-38 262 285
-0.068159081 0.68199998 -0.053809796 1.3273962e-38 263 285
-0.0669633 0.68199998 -0.053809796 1.3734195e-38 264 285
-0.065574668 0.68000001 -0.053652 1.3734195e-38 265 285
-0.064287722 0.67900002 -0.053573098 1.3826725e-38 266 285
-0.063004278 0.67799997 -0.053494196 1.373453e-38 267 285
-0.061633173 0.676 -0.053336397 1.3734516e-38 268 285
-0.060358498 0.67500001 -0.053257499 1.364232e-38 269 285
-0.059087332 0.67400002 -0.053178601 1.3457576e-38 270 285
-0.057733759 0.67199999 -0.053020798 1.3272826e-38 271 285
-0.056555521 0.67199999 -0.053020798 1.3272478e-38 272 285
-0.055294871 0.671 -0.052941896 1.3088088e-38 273 285
-0.054118387 0.671 -0.052941896 1.2905498e-38 274 285
-0.052705199 0.66799998 -0.052705199 1.3089529e-38 275 285
-0.051456824 0.667 -0.052626297 1.3365753e-38 276 285
-0.050287351 0.667 -0.052626297 1.3641981e-38 277 285
-0.049117878 0.667 -0.052626297 1.3917842e-38 278 285
-0.047876518 0.66600001 -0.052547399 1.4194788e-38 279 285
-0.046708796 0.66600001 -0.052547399 1.437775e-38 280 285
-0.045404319 0.66399997 -0.052389596 1.437775e-38 281 285
-0.044173479 0.66299999 -0.052310698 1.3826022e-38 282 285
-0.043011017 0.66299999 -0.052310698 1.4010772e-38 283 285
-0.041848559 0.66299999 -0.052310698 1.4746887e-38 284 285
-0.04062473 0.662 -0.0522318 1.4839082e-38 285 285
-0.039464023 0.662 -0.0522318 1.5207145e-38 286 285
-0.038303319 0.662 -0.0522318 1.5207145e-38 287 285
-0.037086505 0.66100001 -0.052152898 1.4932353e-38 288 285
-0.035927553 0.66100001 -0.052152898 1.4840157e-38 289 285
-0.0347686 0.66100001 -0.052152898 1.4930908e-38 290 285
-0.033507951 0.65899998 -0.051995095 1.4930908e-38 291 285
-0.032352503 0.65899998 -0.051995095 1.4839801e-38 292 285
-0.031149717 0.65799999 -0.051916201 1.5024553e-38 293 285
-0.029996024 0.65799999 -0.051916201 1.4932723e-38 294 285
-0.028842334 0.65799999 -0.051916201 1.5024918e-38 295 285
-0.027688639 0.65799999 -0.051916201 1.5024918e-38 296 285
-0.026494619 0.65700001 -0.051837299 1.5024918e-38 297 285
-0.025342681 0.65700001 -0.051837299 1.5300779e-38 298 285
-0.024190739 0.65700001 -0.051837299 1.5485171e-38 299 285
-0.022968665 0.65499997 -0.051679496 1.5760687e-38 300 285
-0.021820232 0.65499997 -0.051679496 1.5852884e-38 301 285
-0.020671798 0.65499997 -0.051679496 1.5854331e-38 302 285
-0.019523365 0.65499997 -0.051679496 1.5946527e-38 303 285
-0.018374931 0.65499997 -0.051679496 1.6130555e-38 304 285
-0.017226499 0.65499997 -0.051679496 1.6315307e-38 305 285
-0.016078066 0.65499997 -0.051679496 1.6315304e-38 306 285
-0.014929632 0.65499997 -0.051679496 1.594688e-38 307 285
-0.013781199 0.65499997 -0.051679496 1.5852884e-38 308 285
-0.012632766 0.65499997 -0.051679496 1.529971e-38 309 285
-0.011484332 0.65499997 -0.051679496 1.4930539e-38 310 285
-0.01036746 0.65700001 -0.051837299 1.4100777e-38 311 285
-0.0092295464 0.65799999 -0.051916201 1.3824538e-38 312 285
-0.0080758529 0.65799999 -0.051916201 1.3916734e-38 313 285
-0.0069221598 0.65799999 -0.051916201 1.4011475e-38 314 285
-0.0057684663 0.65799999 -0.051916201 1.520966e-38 315 285
-0.0046147732 0.65799999 -0.051916201 1.5669216e-38 316 285
-0.0034610799 0.65799999 -0.051916201 1.5484823e-38 317 285
-0.0023073866 0.65799999 -0.051916201 1.5119279e-38 318 285
-0.0011536933 0.65799999 -0.051916201 1.5396225e-38 319 285
0 0.65799999 -0.051916201 1.5579905e-38 320 285
0.0011536933 0.65799999 -0.051916201 1.5672101e-38 321 285
0.0023108933 0.65899998 -0.051995095 1.530479e-38 322 285
-0.068159081 0.68199998 -0.055005573 1.2629691e-38 263 286
-0.0669633 0.68199998 -0.055005573 1.3547658e-38 264 286
-0.065574668 0.68000001 -0.054844268 1.4008636e-38 265 286
-0.064287722 0.67900002 -0.054763615 1.4102239e-38 266 286
-0.063004278 0.67799997 -0.054682959 1.4010043e-38 267 286
-0.061633173 0.676 -0.054521654 1.373416e-38 268 286
-0.060358498 0.67500001 -0.054441001 1.3549769e-38 269 286
-0.059087332 0.67400002 -0.054360349 1.3456854e-38 270 286
-0.057905588 0.67400002 -0.054360349 1.3272463e-38 271 286
-0.056555521 0.67199999 -0.054199036 1.2994447e-38 272 286
-0.055294871 0.671 -0.054118387 1.3086642e-38 273 286
-0.054118387 0.671 -0.054118387 1.3087361e-38 274 286
-0.052705199 0.66799998 -0.053876422 1.3179557e-38 275 286
-0.051456824 0.667 -0.05379577 1.327211e-38 276 286
-0.050287351 0.667 -0.05379577 1.3456501e-38 277 286
-0.04904424 0.66600001 -0.053715117 1.3365027e-38 278 286
-0.047876518 0.66600001 -0.053715117 1.3549418e-38 279 286
-0.046708796 0.66600001 -0.053715117 1.4100071e-38 280 286
-0.045335937 0.66299999 -0.053473156 1.4007876e-38 281 286
-0.044173479 0.66299999 -0.053473156 1.327174e-38 282 286
-0.043011017 0.66299999 -0.053473156 1.3455771e-38 283 286
-0.041785441 0.662 -0.053392503 1.3733437e-38 284 286
-0.04062473 0.662 -0.053392503 1.4010025e-38 285 286
-0.039464023 0.662 -0.053392503 1.4469933e-38 286 286
-0.038245458 0.66100001 -0.053311851 1.4746161e-38 287 286
-0.037086505 0.66100001 -0.053311851 1.4468848e-38 288 286
-0.035927553 0.66100001 -0.053311851 1.4008229e-38 289 286
-0.034663398 0.65899998 -0.053150542 1.3640882e-38 290 286
-0.033457108 0.65799999 -0.05306989 1.3917828e-38 291 286
-0.032303412 0.65799999 -0.05306989 1.4104391e-38 292 286
-0.031149717 0.65799999 -0.05306989 1.4380618e-38 293 286
-0.029996024 0.65799999 -0.05306989 1.4746887e-38 294 286
-0.028798498 0.65700001 -0.052989237 1.5023472e-38 295 286
-0.027646558 0.65700001 -0.052989237 1.5115665e-38 296 286
-0.026494619 0.65700001 -0.052989237 1.5207862e-38 297 286
-0.025342681 0.65700001 -0.052989237 1.5208937e-38 298 286
-0.024117097 0.65499997 -0.052827932 1.5208937e-38 299 286
-0.022968665 0.65499997 -0.052827932 1.5392612e-38 300 286
-0.021820232 0.65499997 -0.052827932 1.5484808e-38 301 286
-0.020640239 0.65399998 -0.052747279 1.5577372e-38 302 286
-0.019493559 0.65399998 -0.052747279 1.5669569e-38 303 286
-0.01834688 0.65399998 -0.052747279 1.548662e-38 304 286
-0.017200198 0.65399998 -0.052747279 1.5579174e-38 305 286
-0.016078066 0.65499997 -0.052827932 1.6037631e-38 306 286
-0.014929632 0.65499997 -0.052827932 1.5945077e-38 307 286
-0.013781199 0.65499997 -0.052827932 1.5485171e-38 308 286
-0.012632766 0.65499997 -0.052827932 1.5300779e-38 309 286
-0.011484332 0.65499997 -0.052827932 1.4839801e-38 310 286
-0.010335899 0.65499997 -0.052827932 1.4563214e-38 311 286
-0.0092155198 0.65700001 -0.052989237 1.4469933e-38 312 286
-0.0080635799 0.65700001 -0.052989237 1.4377378e-38 313 286
-0.0069116396 0.65700001 -0.052989237 1.4377381e-38 314 286
-0.0057596997 0.65700001 -0.052989237 1.4746164e-38 315 286
-0.0046077599 0.65700001 -0.052989237 1.4470298e-38 316 286
-0.0034610799 0.65799999 -0.05306989 1.4746887e-38 317 286
-0.0023073866 0.65799999 -0.05306989 1.465901e-38 318 286
-0.0011536933 0.65799999 -0.05306989 1.5119988e-38 319 286
0 0.65799999 -0.05306989 1.5853252e-38 320 286
0.0011536933 0.65799999 -0.05306989 1.6129839e-38 321 286
0.0023108933 0.65899998 -0.053150542 1.5670679e-38 322 286
0.0034663398 0.65899998 -0.053150542 1.5670679e-38 323 286
0.0046358132 0.66100001 -0.053311851 1.5396648e-38 324 286
-0.0669633 0.68199998 -0.056201346 1.2446355e-38 264 287
-0.065574668 0.68000001 -0.056036532 1.2446355e-38 265 287
-0.064287722 0.67900002 -0.055954125 1.318282e-38 266 287
-0.063004278 0.67799997 -0.055871718 1.336757e-38 267 287
-0.061633173 0.676 -0.055706903 1.3550137e-38 268 287
-0.060358498 0.67500001 -0.0556245 1.327391e-38 269 287
-0.059087332 0.67400002 -0.055542093 1.3272107e-38 270 287
-0.057905588 0.67400002 -0.055542093 1.3087714e-38 271 287
-0.056555521 0.67199999 -0.055377278 1.2719304e-38 272 287
-0.055377278 0.67199999 -0.055377278 1.2719304e-38 273 287
-0.054118387 0.671 -0.055294871 1.281115e-38 274 287
-0.052705199 0.66799998 -0.05504765 1.2903345e-38 275 287
-0.051456824 0.667 -0.054965243 1.2904064e-38 276 287
-0.050287351 0.667 -0.054965243 1.3088457e-38 277 287
-0.04904424 0.66600001 -0.054882839 1.3089176e-38 278 287
-0.047876518 0.66600001 -0.054882839 1.3089176e-38 279 287
-0.046568532 0.66399997 -0.054718021 1.3180653e-38 280 287
-0.045335937 0.66299999 -0.054635618 1.3180653e-38 281 287
-0.044106852 0.662 -0.054553211 1.3088457e-38 282 287
-0.042946145 0.662 -0.054553211 1.2996261e-38 283 287
-0.041785441 0.662 -0.054553211 1.2995894e-38 284 287
-0.040563367 0.66100001 -0.054470807 1.3272122e-38 285 287
-0.039404415 0.66100001 -0.054470807 1.354762e-38 286 287
-0.038245458 0.66100001 -0.054470807 1.3639816e-38 287 287
-0.036974292 0.65899998 -0.054305989 1.3456857e-38 288 287
-0.035818845 0.65899998 -0.054305989 1.2811488e-38 289 287
-0.034663398 0.65899998 -0.054305989 1.2627456e-38 290 287
-0.033457108 0.65799999 -0.054223582 1.2996598e-38 291 287
-0.032303412 0.65799999 -0.054223582 1.3734898e-38 292 287
-0.031149717 0.65799999 -0.054223582 1.4011485e-38 293 287
-0.029996024 0.65799999 -0.054223582 1.4104051e-38 294 287
-0.028798498 0.65700001 -0.054141179 1.4196605e-38 295 287
-0.027646558 0.65700001 -0.054141179 1.4563946e-38 296 287
-0.026413966 0.65499997 -0.053976361 1.4840173e-38 297 287
-0.025265532 0.65499997 -0.053976361 1.4657578e-38 298 287
-0.024117097 0.65499997 -0.053976361 1.4657578e-38 299 287
-0.022933599 0.65399998 -0.053893957 1.493237e-38 300 287
-0.021786919 0.65399998 -0.053893957 1.5024565e-38 301 287
-0.020640239 0.65399998 -0.053893957 1.5116761e-38 302 287
-0.019493559 0.65399998 -0.053893957 1.5301511e-38 303 287
-0.01834688 0.65399998 -0.053893957 1.5301158e-38 304 287
-0.017200198 0.65399998 -0.053893957 1.5301158e-38 305 287
-0.016078066 0.65499997 -0.053976361 1.530116e-38 306 287
-0.014929632 0.65499997 -0.053976361 1.530116e-38 307 287
-0.013781199 0.65499997 -0.053976361 1.5117117e-38 308 287
-0.012632766 0.65499997 -0.053976361 1.5117117e-38 309 287
-0.011484332 0.65499997 -0.053976361 1.5116018e-38 310 287
-0.010335899 0.65499997 -0.053976361 1.4839791e-38 311 287
-0.0091874655 0.65499997 -0.053976361 1.4838707e-38 312 287
-0.008039033 0.65499997 -0.053976361 1.474651e-38 313 287
-0.0068905996 0.65499997 -0.053976361 1.4562844e-38 314 287
-0.0057421662 0.65499997 -0.053976361 1.4470649e-38 315 287
-0.0046077599 0.65700001 -0.054141179 1.4102224e-38 316 287
-0.0034610799 0.65799999 -0.054223582 1.4286255e-38 317 287
-0.0023073866 0.65799999 -0.054223582 1.4565009e-38 318 287
-0.0011536933 0.65799999 -0.054223582 1.5118183e-38 319 287
0 0.65799999 -0.054223582 1.5394439e-38 320 287
0.0011536933 0.65799999 -0.054223582 1.5486635e-38 321 287
0.0023108933 0.65899998 -0.054305989 1.5579908e-38 322 287
0.0034663398 0.65899998 -0.054305989 1.5211127e-38 323 287
0.0046358132 0.66100001 -0.054470807 1.4935269e-38 324 287
0.0057947668 0.66100001 -0.054470807 1.5211496e-38 325 287
-0.065478235 0.67900002 -0.057144642 1.1339672e-38 265 288
-0.064287722 0.67900002 -0.057144642 1.1893535e-38 266 288
-0.063004278 0.67799997 -0.057060476 1.2261959e-38 267 288
-0.061633173 0.676 -0.056892153 1.3272851e-38 268 288
-0.060358498 0.67500001 -0.056808002 1.3272851e-38 269 288
-0.059087332 0.67400002 -0.056723841 1.2996968e-38 270 288
-0.057905588 0.67400002 -0.056723841 1.2904412e-38 271 288
-0.056555521 0.67199999 -0.056555521 1.281185e-38 272 288
