# .PCD v.7 - Point Cloud Data file format
FIELDS x y z rgb imX imY
SIZE 4 4 4 4 4 4
TYPE F F F F F F
COUNT 1 1 1 1 1 1
WIDTH 855
HEIGHT 1
VIEWPOINT 0 0 0 1 0 0 0
POINTS 855
DATA ascii
0.07163769 0.65899998 -0.099368408 1.4561034e-38 382 326
0.072793134 0.65899998 -0.099368408 1.4376282e-38 383 326
0.074173011 0.66100001 -0.099669985 1.4375564e-38 384 326
0.075331964 0.66100001 -0.099669985 1.4283368e-38 385 326
0.076490916 0.66100001 -0.099669985 1.4007504e-38 386 326
0.077767342 0.662 -0.09982077 1.3730916e-38 387 326
0.078928046 0.662 -0.09982077 1.3453607e-38 388 326
0.080088757 0.662 -0.09982077 1.2808238e-38 389 326
0.081372194 0.66299999 -0.099971555 1.1888079e-38 390 326
0.08265914 0.66399997 -0.10012234 1.1888079e-38 391 326
0.084075838 0.66600001 -0.10042392 1.1979569e-38 392 326
0.08524356 0.66600001 -0.10042392 1.2071764e-38 393 326
0.086541019 0.667 -0.1005747 1.1888824e-38 394 326
0.087841995 0.66799998 -0.10072549 1.1796269e-38 395 326
0.089279734 0.67000002 -0.10102707 1.1612609e-38 396 326
0.090454467 0.67000002 -0.10102707 1.1520055e-38 397 326
0.091765963 0.671 -0.10117785 1.1334963e-38 398 326
0.093080953 0.67199999 -0.10132863 1.1058378e-38 399 326
-0.028193599 0.67000002 -0.1022018 9.5828931e-39 296 327
-0.027018867 0.67000002 -0.1022018 1.0413014e-38 297 327
-0.025844134 0.67000002 -0.1022018 1.1335341e-38 298 327
-0.024669399 0.67000002 -0.1022018 1.1980711e-38 299 327
-0.023424532 0.66799998 -0.10189671 1.2719347e-38 300 327
-0.022253305 0.66799998 -0.10189671 1.2811542e-38 301 327
-0.021082079 0.66799998 -0.10189671 1.373241e-38 302 327
-0.019910853 0.66799998 -0.10189671 1.3916441e-38 303 327
-0.018795732 0.67000002 -0.1022018 1.4008268e-38 304 327
0.0091874655 0.65499997 -0.099913694 1.778903e-38 328 327
0.010335899 0.65499997 -0.099913694 1.7696834e-38 329 327
0.011484332 0.65499997 -0.099913694 1.7510626e-38 330 327
0.012632766 0.65499997 -0.099913694 1.7049647e-38 331 327
0.013781199 0.65499997 -0.099913694 1.7233663e-38 332 327
0.014929632 0.65499997 -0.099913694 1.7233663e-38 333 327
0.016151706 0.65799999 -0.10037132 1.7416244e-38 334 327
0.017331699 0.65899998 -0.10052385 1.750844e-38 335 327
0.018543253 0.66100001 -0.10082894 1.7967966e-38 336 327
0.019642593 0.65899998 -0.10052385 1.787577e-38 337 327
0.02076648 0.65799999 -0.10037132 1.7875773e-38 338 327
0.021920172 0.65799999 -0.10037132 1.7691742e-38 339 327
0.023073865 0.65799999 -0.10037132 1.7416597e-38 340 327
0.02422756 0.65799999 -0.10037132 1.7508793e-38 341 327
0.025342681 0.65700001 -0.10021878 1.7599894e-38 342 327
0.026494619 0.65700001 -0.10021878 1.7599894e-38 343 327
0.027646558 0.65700001 -0.10021878 1.7600966e-38 344 327
0.028798498 0.65700001 -0.10021878 1.7600966e-38 345 327
0.02995044 0.65700001 -0.10021878 1.7876474e-38 346 327
0.031149717 0.65799999 -0.10037132 1.7876474e-38 347 327
0.03225432 0.65700001 -0.10021878 1.7693164e-38 348 327
0.033406258 0.65700001 -0.10021878 1.7877556e-38 349 327
0.034347799 0.653 -0.099608615 1.7970837e-38 350 327
0.035492726 0.653 -0.099608615 1.8247783e-38 351 327
0.036637653 0.653 -0.099608615 1.8247783e-38 352 327
0.03778258 0.653 -0.099608615 1.8339979e-38 353 327
0.038867895 0.65200001 -0.099456072 1.8339979e-38 354 327
0.040011063 0.65200001 -0.099456072 1.8339979e-38 355 327
0.041217357 0.653 -0.099608615 1.8432178e-38 356 327
0.042362284 0.653 -0.099608615 1.8339981e-38 357 327
0.043507211 0.653 -0.099608615 1.8431092e-38 358 327
0.044720516 0.65399998 -0.099761158 1.8431092e-38 359 327
0.045797065 0.653 -0.099608615 1.8063386e-38 360 327
0.046941992 0.653 -0.099608615 1.8063386e-38 361 327
0.048160557 0.65399998 -0.099761158 1.7970837e-38 362 327
0.049231846 0.653 -0.099608615 1.7970837e-38 363 327
0.050376773 0.653 -0.099608615 1.7419111e-38 364 327
0.051600594 0.65399998 -0.099761158 1.723472e-38 365 327
0.052747279 0.65399998 -0.099761158 1.7234001e-38 366 327
0.053893957 0.65399998 -0.099761158 1.704961e-38 367 327
0.055124797 0.65499997 -0.099913694 1.6865214e-38 368 327
0.056273226 0.65499997 -0.099913694 1.6588987e-38 369 327
0.057421666 0.65499997 -0.099913694 1.6587538e-38 370 327
0.058570094 0.65499997 -0.099913694 1.6494984e-38 371 327
0.05990088 0.65700001 -0.10021878 1.5943968e-38 372 327
0.061052818 0.65700001 -0.10021878 1.5851773e-38 373 327
0.06220476 0.65700001 -0.10021878 1.5849615e-38 374 327
0.06345313 0.65799999 -0.10037132 1.5757419e-38 375 327
0.064606823 0.65799999 -0.10037132 1.52064e-38 376 327
0.065760516 0.65799999 -0.10037132 1.5114205e-38 377 327
0.066914216 0.65799999 -0.10037132 1.5020933e-38 378 327
0.068067901 0.65799999 -0.10037132 1.4836542e-38 379 327
0.069221593 0.65799999 -0.10037132 1.4560678e-38 380 327
0.070375293 0.65799999 -0.10037132 1.4376285e-38 381 327
0.071528979 0.65799999 -0.10037132 1.4192617e-38 382 327
0.072682679 0.65799999 -0.10037132 1.4008226e-38 383 327
0.073948584 0.65899998 -0.10052385 1.3732718e-38 384 327
0.075104028 0.65899998 -0.10052385 1.3547968e-38 385 327
0.076259479 0.65899998 -0.10052385 1.3269945e-38 386 327
0.077649876 0.66100001 -0.10082894 1.2992998e-38 387 327
0.078808829 0.66100001 -0.10082894 1.2348358e-38 388 327
0.080088757 0.662 -0.10098148 1.2163966e-38 389 327
0.081372194 0.66299999 -0.10113402 1.1886673e-38 390 327
0.08265914 0.66399997 -0.10128655 1.1886673e-38 391 327
0.084075838 0.66600001 -0.10159164 1.1520764e-38 392 327
0.08524356 0.66600001 -0.10159164 1.161296e-38 393 327
0.086541019 0.667 -0.10174417 1.1704076e-38 394 327
0.087841995 0.66799998 -0.10189671 1.1796272e-38 395 327
0.089279734 0.67000002 -0.1022018 1.1795566e-38 396 327
0.090454467 0.67000002 -0.1022018 1.1519339e-38 397 327
0.0916292 0.67000002 -0.1022018 1.1058383e-38 398 327
-0.029368332 0.67000002 -0.10337654 9.2137406e-39 295 328
-0.028193599 0.67000002 -0.10337654 7.7422203e-39 296 328
-0.026938211 0.66799998 -0.10306793 8.7567323e-39 297 328
-0.025766984 0.66799998 -0.10306793 1.0320478e-38 298 328
-0.02459576 0.66799998 -0.10306793 1.0689619e-38 299 328
-0.023424532 0.66799998 -0.10306793 1.0969797e-38 300 328
-0.022253305 0.66799998 -0.10306793 1.1891394e-38 301 328
-0.021082079 0.66799998 -0.10306793 1.32718e-38 302 328
-0.019910853 0.66799998 -0.10306793 1.3917169e-38 303 328
-0.018739626 0.66799998 -0.10306793 1.4561091e-38 304 328
-0.0175421 0.667 -0.10291365 1.4837678e-38 305 328
-0.016372627 0.667 -0.10291365 1.4748001e-38 306 328
-0.015203152 0.667 -0.10291365 1.4748001e-38 307 328
0.008039033 0.65499997 -0.10106213 1.6959254e-38 327 328
0.0091874655 0.65499997 -0.10106213 1.7418783e-38 328 328
0.010335899 0.65499997 -0.10106213 1.7418783e-38 329 328
0.011484332 0.65499997 -0.10106213 1.7694276e-38 330 328
0.012632766 0.65499997 -0.10106213 1.760208e-38 331 328
0.013781199 0.65499997 -0.10106213 1.7876852e-38 332 328
0.014929632 0.65499997 -0.10106213 1.7507711e-38 333 328
0.016151706 0.65799999 -0.10152501 1.7137842e-38 334 328
0.017331699 0.65899998 -0.1016793 1.6676864e-38 335 328
0.018487146 0.65899998 -0.1016793 1.6490671e-38 336 328
0.019642593 0.65899998 -0.1016793 1.612189e-38 337 328
0.02076648 0.65799999 -0.10152501 1.6028974e-38 338 328
0.021920172 0.65799999 -0.10152501 1.5660191e-38 339 328
0.023073865 0.65799999 -0.10152501 1.4833673e-38 340 328
0.02422756 0.65799999 -0.10152501 1.4833673e-38 341 328
0.025342681 0.65700001 -0.10137072 1.5015901e-38 342 328
0.026494619 0.65700001 -0.10137072 1.5015901e-38 343 328
0.027646558 0.65700001 -0.10137072 1.5016973e-38 344 328
0.028798498 0.65700001 -0.10137072 1.5201364e-38 345 328
0.02995044 0.65700001 -0.10137072 1.5479743e-38 346 328
0.03091302 0.653 -0.10075355 1.5571939e-38 347 328
0.032057945 0.653 -0.10075355 1.6400258e-38 348 328
0.033152029 0.65200001 -0.10059925 1.7321854e-38 349 328
0.034295198 0.65200001 -0.10059925 1.7418022e-38 350 328
0.035329666 0.64999998 -0.10029066 1.8063392e-38 351 328
0.036469329 0.64999998 -0.10029066 1.8155234e-38 352 328
0.037608996 0.64999998 -0.10029066 1.824743e-38 353 328
0.038748663 0.64999998 -0.10029066 1.8431098e-38 354 328
0.039888334 0.64999998 -0.10029066 1.8431098e-38 355 328
0.041154239 0.65200001 -0.10059925 1.8523291e-38 356 328
0.042297412 0.65200001 -0.10059925 1.8431095e-38 357 328
0.043507211 0.653 -0.10075355 1.8431092e-38 358 328
0.044652138 0.653 -0.10075355 1.8154866e-38 359 328
0.045797065 0.653 -0.10075355 1.8063023e-38 360 328
0.046941992 0.653 -0.10075355 1.7878272e-38 361 328
0.048086919 0.653 -0.10075355 1.7877553e-38 362 328
0.049231846 0.653 -0.10075355 1.7785357e-38 363 328
0.050376773 0.653 -0.10075355 1.7234707e-38 364 328
0.0515217 0.653 -0.10075355 1.7049957e-38 365 328
0.052666627 0.653 -0.10075355 1.6957044e-38 366 328
0.05381155 0.653 -0.10075355 1.6772653e-38 367 328
0.055040635 0.65399998 -0.10090783 1.6586814e-38 368 328
0.056187313 0.65399998 -0.10090783 1.6402423e-38 369 328
0.057333998 0.65399998 -0.10090783 1.6402776e-38 370 328
0.058570094 0.65499997 -0.10106213 1.6218385e-38 371 328
0.059718527 0.65499997 -0.10106213 1.5942519e-38 372 328
0.061052818 0.65700001 -0.10137072 1.5758128e-38 373 328
0.06220476 0.65700001 -0.10137072 1.529787e-38 374 328
0.063356705 0.65700001 -0.10137072 1.5113838e-38 375 328
0.064508639 0.65700001 -0.10137072 1.5021286e-38 376 328
0.065660581 0.65700001 -0.10137072 1.4929091e-38 377 328
0.066812515 0.65700001 -0.10137072 1.4561028e-38 378 328
0.067964457 0.65700001 -0.10137072 1.4376636e-38 379 328
0.069116399 0.65700001 -0.10137072 1.4100772e-38 380 328
0.070375293 0.65799999 -0.10152501 1.4008576e-38 381 328
0.071528979 0.65799999 -0.10152501 1.3916383e-38 382 328
0.072682679 0.65799999 -0.10152501 1.3823829e-38 383 328
0.073948584 0.65899998 -0.1016793 1.3455758e-38 384 328
0.075104028 0.65899998 -0.1016793 1.2902585e-38 385 328
0.076259479 0.65899998 -0.1016793 1.2164313e-38 386 328
0.077649876 0.66100001 -0.10198789 1.1426748e-38 387 328
0.078808829 0.66100001 -0.10198789 1.1608288e-38 388 328
0.080088757 0.662 -0.10214218 1.1885235e-38 389 328
0.081372194 0.66299999 -0.10229647 1.1886317e-38 390 328
0.08265914 0.66399997 -0.10245077 1.1978512e-38 391 328
0.084075838 0.66600001 -0.10275936 1.1612957e-38 392 328
0.085371546 0.667 -0.10291365 1.1612957e-38 393 328
0.086541019 0.667 -0.10291365 1.1705158e-38 394 328
0.087841995 0.66799998 -0.10306793 1.1612604e-38 395 328
0.089013219 0.66799998 -0.10306793 1.1612256e-38 396 328
0.090454467 0.67000002 -0.10337654 1.1335311e-38 397 328
0.0916292 0.67000002 -0.10337654 1.0598843e-38 398 328
0.092803933 0.67000002 -0.10337654 1.0322616e-38 399 328
-0.029368332 0.67000002 -0.10455126 9.0297235e-39 295 329
-0.028193599 0.67000002 -0.10455126 8.3847226e-39 296 329
-0.026938211 0.66799998 -0.10423917 8.6613095e-39 297 329
-0.025766984 0.66799998 -0.10423917 9.3995976e-39 298 329
-0.02459576 0.66799998 -0.10423917 9.95277e-39 299 329
-0.023424532 0.66799998 -0.10423917 1.0321913e-38 300 329
-0.022253305 0.66799998 -0.10423917 1.1243509e-38 301 329
-0.021082079 0.66799998 -0.10423917 1.1798832e-38 302 329
-0.019910853 0.66799998 -0.10423917 1.2628593e-38 303 329
-0.018739626 0.66799998 -0.10423917 1.3640574e-38 304 329
-0.0175421 0.667 -0.10408312 1.4193748e-38 305 329
-0.016372627 0.667 -0.10408312 1.4471041e-38 306 329
-0.015203152 0.667 -0.10408312 1.4655791e-38 307 329
-0.014012639 0.66600001 -0.10392708 1.5022763e-38 308 329
-0.01284492 0.66600001 -0.10392708 1.5115317e-38 309 329
-0.011642133 0.66399997 -0.10361498 1.4840523e-38 310 329
-0.010477919 0.66399997 -0.10361498 1.4840523e-38 311 329
-0.0092996797 0.66299999 -0.10345893 1.4473195e-38 312 329
-0.0081372196 0.66299999 -0.10345893 1.4841619e-38 313 329
-0.0069642398 0.662 -0.10330289 1.4842717e-38 314 329
-0.0058035329 0.662 -0.10330289 1.5118944e-38 315 329
-0.0046498398 0.66299999 -0.10345893 1.5120029e-38 316 329
-0.0034821199 0.662 -0.10330289 1.5488452e-38 317 329
-0.0023214133 0.662 -0.10330289 1.5672849e-38 318 329
-0.0011607066 0.662 -0.10330289 1.5857241e-38 319 329
0 0.66100001 -0.10314685 1.640897e-38 320 329
0.00115194 0.65700001 -0.10252266 1.640897e-38 321 329
0.0023038799 0.65700001 -0.10252266 1.6867777e-38 322 329
0.0034558198 0.65700001 -0.10252266 1.6867777e-38 323 329
0.0046077599 0.65700001 -0.10252266 1.7051426e-38 324 329
0.0057596997 0.65700001 -0.10252266 1.677484e-38 325 329
0.0068905996 0.65499997 -0.10221056 1.7143256e-38 326 329
0.008039033 0.65499997 -0.10221056 1.7419484e-38 327 329
0.0091874655 0.65499997 -0.10221056 1.7143253e-38 328 329
0.010335899 0.65499997 -0.10221056 1.6774112e-38 329 329
0.011484332 0.65499997 -0.10221056 1.6678284e-38 330 329
0.012632766 0.65499997 -0.10221056 1.5387545e-38 331 329
0.013781199 0.65499997 -0.10221056 1.5290298e-38 332 329
0.014929632 0.65499997 -0.10221056 1.4828959e-38 333 329
0.01612716 0.65700001 -0.10252266 1.4185039e-38 334 329
0.017305398 0.65799999 -0.1026787 1.3816616e-38 335 329
0.018459093 0.65799999 -0.1026787 1.3538603e-38 336 329
0.019612785 0.65799999 -0.1026787 1.3261656e-38 337 329
0.020734919 0.65700001 -0.10252266 1.3077639e-38 338 329
0.021886859 0.65700001 -0.10252266 1.3354224e-38 339 329
0.023038799 0.65700001 -0.10252266 1.2438755e-38 340 329
0.024190739 0.65700001 -0.10252266 1.2807537e-38 341 329
0.025265532 0.65499997 -0.10221056 1.4275844e-38 342 329
0.026413966 0.65499997 -0.10221056 1.4091812e-38 343 329
0.027562398 0.65499997 -0.10221056 1.3726624e-38 344 329
0.028623167 0.653 -0.10189847 1.41876e-38 345 329
0.029768093 0.653 -0.10189847 1.483332e-38 346 329
0.030865679 0.65200001 -0.10174242 1.547869e-38 347 329
0.032008853 0.65200001 -0.10174242 1.6492473e-38 348 329
0.033050328 0.64999998 -0.10143033 1.7230038e-38 349 329
0.034189999 0.64999998 -0.10143033 1.7509143e-38 350 329
0.03527531 0.64899999 -0.10127428 1.7877924e-38 351 329
0.036413226 0.64899999 -0.10127428 1.8063038e-38 352 329
0.037608996 0.64999998 -0.10143033 1.824743e-38 353 329
0.038748663 0.64999998 -0.10143033 1.8247433e-38 354 329
0.039888334 0.64999998 -0.10143033 1.8247433e-38 355 329
0.041027997 0.64999998 -0.10143033 1.8155231e-38 356 329
0.042167664 0.64999998 -0.10143033 1.8063036e-38 357 329
0.043440588 0.65200001 -0.10174242 1.7877924e-38 358 329
0.044583756 0.65200001 -0.10174242 1.7877924e-38 359 329
0.045726933 0.65200001 -0.10174242 1.7693164e-38 360 329
0.046870105 0.65200001 -0.10174242 1.7508414e-38 361 329
0.048013281 0.65200001 -0.10174242 1.741657e-38 362 329
0.049156453 0.65200001 -0.10174242 1.741657e-38 363 329
0.050299626 0.65200001 -0.10174242 1.6956688e-38 364 329
0.051442798 0.65200001 -0.10174242 1.6772297e-38 365 329
0.052585974 0.65200001 -0.10174242 1.6680104e-38 366 329
0.05381155 0.653 -0.10189847 1.6403517e-38 367 329
0.054956477 0.653 -0.10189847 1.621876e-38 368 329
0.056101404 0.653 -0.10189847 1.6126565e-38 369 329
0.057246335 0.653 -0.10189847 1.5849968e-38 370 329
0.05848068 0.65399998 -0.10205451 1.5757772e-38 371 329
0.059718527 0.65499997 -0.10221056 1.5390066e-38 372 329
0.060866963 0.65499997 -0.10221056 1.529787e-38 373 329
0.062015396 0.65499997 -0.10221056 1.4929812e-38 374 329
0.063163824 0.65499997 -0.10221056 1.4745422e-38 375 329
0.064312264 0.65499997 -0.10221056 1.4561034e-38 376 329
0.065660581 0.65700001 -0.10252266 1.446848e-38 377 329
0.066812515 0.65700001 -0.10252266 1.419297e-38 378 329
0.067964457 0.65700001 -0.10252266 1.4008579e-38 379 329
0.069116399 0.65700001 -0.10252266 1.3732712e-38 380 329
0.07026834 0.65700001 -0.10252266 1.3732712e-38 381 329
0.071420282 0.65700001 -0.10252266 1.3548324e-38 382 329
0.072572216 0.65700001 -0.10252266 1.3271737e-38 383 329
0.073836371 0.65799999 -0.1026787 1.2534528e-38 384 329
0.074990064 0.65799999 -0.1026787 1.1981354e-38 385 329
0.076259479 0.65899998 -0.10283475 1.19785e-38 386 329
0.077414922 0.65899998 -0.10283475 1.1701553e-38 387 329
0.078808829 0.66100001 -0.10314685 1.1700853e-38 388 329
0.080088757 0.662 -0.10330289 1.1885245e-38 389 329
0.081372194 0.66299999 -0.10345893 1.1520408e-38 390 329
0.08265914 0.66399997 -0.10361498 1.1612604e-38 391 329
0.084075838 0.66600001 -0.10392708 1.1521127e-38 392 329
0.08524356 0.66600001 -0.10392708 1.1521127e-38 393 329
0.086541019 0.667 -0.10408312 1.1612607e-38 394 329
0.0877105 0.667 -0.10408312 1.1612607e-38 395 329
0.088879973 0.667 -0.10408312 1.1519705e-38 396 329
0.090454467 0.67000002 -0.10455126 1.1151282e-38 397 329
0.0916292 0.67000002 -0.10455126 1.0506297e-38 398 329
-0.029368332 0.67000002 -0.105726 8.1088448e-39 295 330
-0.028193599 0.67000002 -0.105726 8.6602305e-39 296 330
-0.026938211 0.66799998 -0.1054104 8.8449805e-39 297 330
-0.025766984 0.66799998 -0.1054104 8.8474958e-39 298 330
-0.024669399 0.67000002 -0.105726 9.2166385e-39 299 330
-0.023424532 0.66799998 -0.1054104 9.6772593e-39 300 330
-0.022253305 0.66799998 -0.1054104 1.0230433e-38 301 330
-0.021082079 0.66799998 -0.1054104 1.0785758e-38 302 330
-0.019910853 0.66799998 -0.1054104 1.1431127e-38 303 330
-0.018739626 0.66799998 -0.1054104 1.2535299e-38 304 330
-0.0175421 0.667 -0.10525259 1.3180668e-38 305 330
-0.016372627 0.667 -0.10525259 1.3734192e-38 306 330
-0.015203152 0.667 -0.10525259 1.4011138e-38 307 330
-0.014012639 0.66600001 -0.1050948 1.4654344e-38 308 330
-0.01284492 0.66600001 -0.1050948 1.5114962e-38 309 330
-0.011642133 0.66399997 -0.10477919 1.4932367e-38 310 330
-0.010477919 0.66399997 -0.10477919 1.5024921e-38 311 330
-0.0092996797 0.66299999 -0.1046214 1.474941e-38 312 330
-0.0081372196 0.66299999 -0.1046214 1.4656855e-38 313 330
-0.0069642398 0.662 -0.1044636 1.43817e-38 314 330
-0.0058035329 0.662 -0.1044636 1.43817e-38 315 330
-0.0046498398 0.66299999 -0.1046214 1.3922517e-38 316 330
-0.00347686 0.66100001 -0.1043058 1.3922517e-38 317 330
-0.0023179066 0.66100001 -0.1043058 1.4566461e-38 318 330
-0.0011589533 0.66100001 -0.1043058 1.4935242e-38 319 330
0 0.65899998 -0.10399019 1.5577742e-38 320 330
0.00115194 0.65700001 -0.1036746 1.5762133e-38 321 330
0.0023038799 0.65700001 -0.1036746 1.6498616e-38 322 330
0.0034558198 0.65700001 -0.1036746 1.6959955e-38 323 330
0.0046077599 0.65700001 -0.1036746 1.7052503e-38 324 330
0.0057596997 0.65700001 -0.1036746 1.7052503e-38 325 330
0.0068905996 0.65499997 -0.10335899 1.7236166e-38 326 330
0.008039033 0.65499997 -0.10335899 1.7143969e-38 327 330
0.0091874655 0.65499997 -0.10335899 1.6959196e-38 328 330
0.010335899 0.65499997 -0.10335899 1.5760293e-38 329 330
0.011466799 0.65399998 -0.10320119 1.4648516e-38 330 330
0.012613479 0.65399998 -0.10320119 1.2067041e-38 331 330
0.013760159 0.65399998 -0.10320119 1.2335014e-38 332 330
0.014906839 0.65399998 -0.10320119 1.1689654e-38 333 330
0.01605352 0.65399998 -0.10320119 1.1139731e-38 334 330
0.0172791 0.65700001 -0.1036746 1.0863145e-38 335 330
0.01843104 0.65700001 -0.1036746 1.1137583e-38 336 330
0.019582979 0.65700001 -0.1036746 1.1137583e-38 337 330
0.020671798 0.65499997 -0.10335899 1.0957158e-38 338 330
0.021820232 0.65499997 -0.10335899 1.197131e-38 339 330
0.023038799 0.65700001 -0.1036746 1.1792686e-38 340 330
0.024117097 0.65499997 -0.10335899 1.2345858e-38 341 330
0.025226958 0.65399998 -0.10320119 1.3815235e-38 342 330
0.02637364 0.65399998 -0.10320119 1.3999985e-38 343 330
0.02743616 0.65200001 -0.1028856 1.3543324e-38 344 330
0.028579334 0.65200001 -0.1028856 1.4188693e-38 345 330
0.029722504 0.65200001 -0.1028856 1.4926612e-38 346 330
0.030770998 0.64999998 -0.10256999 1.6032959e-38 347 330
0.031910665 0.64999998 -0.10256999 1.7230051e-38 348 330
0.033050328 0.64999998 -0.10256999 1.787542e-38 349 330
0.034189999 0.64999998 -0.10256999 1.7969771e-38 350 330
0.03527531 0.64899999 -0.10241219 1.8154162e-38 351 330
0.036413226 0.64899999 -0.10241219 1.8154881e-38 352 330
0.037551139 0.64899999 -0.10241219 1.8154881e-38 353 330
0.038689051 0.64899999 -0.10241219 1.7971569e-38 354 330
0.039888334 0.64999998 -0.10256999 1.7971569e-38 355 330
0.041027997 0.64999998 -0.10256999 1.7786809e-38 356 330
0.042167664 0.64999998 -0.10256999 1.7602058e-38 357 330
0.043440588 0.65200001 -0.1028856 1.7324755e-38 358 330
0.044583756 0.65200001 -0.1028856 1.7324755e-38 359 330
0.045726933 0.65200001 -0.1028856 1.7139284e-38 360 330
0.046870105 0.65200001 -0.1028856 1.7047089e-38 361 330
0.048013281 0.65200001 -0.1028856 1.6680101e-38 362 330
0.049156453 0.65200001 -0.1028856 1.6772297e-38 363 330
0.050299626 0.65200001 -0.1028856 1.6587552e-38 364 330
0.051442798 0.65200001 -0.1028856 1.640352e-38 365 330
0.052585974 0.65200001 -0.1028856 1.6219129e-38 366 330
0.053729147 0.65200001 -0.1028856 1.6034379e-38 367 330
0.054956477 0.653 -0.1030434 1.5758504e-38 368 330
0.056101404 0.653 -0.1030434 1.5666308e-38 369 330
0.057246335 0.653 -0.1030434 1.5389716e-38 370 330
0.058391262 0.653 -0.1030434 1.529752e-38 371 330
0.059627358 0.65399998 -0.10320119 1.5020933e-38 372 330
0.060774036 0.65399998 -0.10320119 1.5020933e-38 373 330
0.061920714 0.65399998 -0.10320119 1.4652874e-38 374 330
0.063163824 0.65499997 -0.10335899 1.4468482e-38 375 330
0.064312264 0.65499997 -0.10335899 1.4192973e-38 376 330
0.065460697 0.65499997 -0.10335899 1.4100777e-38 377 330
0.066812515 0.65700001 -0.1036746 1.3824911e-38 378 330
0.067964457 0.65700001 -0.1036746 1.3732715e-38 379 330
0.069116399 0.65700001 -0.1036746 1.364052e-38 380 330
0.07026834 0.65700001 -0.1036746 1.3548324e-38 381 330
0.071420282 0.65700001 -0.1036746 1.3638364e-38 382 330
0.072572216 0.65700001 -0.1036746 1.3269942e-38 383 330
0.073836371 0.65799999 -0.1038324 1.1981721e-38 384 330
0.074990064 0.65799999 -0.1038324 1.1428547e-38 385 330
0.076143757 0.65799999 -0.1038324 1.1702262e-38 386 330
0.077414922 0.65899998 -0.10399019 1.1794459e-38 387 330
0.078808829 0.66100001 -0.1043058 1.1335651e-38 388 330
0.080088757 0.662 -0.1044636 1.1704074e-38 389 330
0.081372194 0.66299999 -0.1046214 1.1521483e-38 390 330
0.08265914 0.66399997 -0.10477919 1.1521483e-38 391 330
0.084075838 0.66600001 -0.1050948 1.1612604e-38 392 330
0.08524356 0.66600001 -0.1050948 1.1612604e-38 393 330
0.086541019 0.667 -0.10525259 1.1704451e-38 394 330
0.0877105 0.667 -0.10525259 1.1612253e-38 395 330
0.088879973 0.667 -0.10525259 1.1151295e-38 396 330
0.090049446 0.667 -0.10525259 1.0690676e-38 397 330
-0.028109439 0.66799998 -0.10658162 7.8336998e-39 296 331
-0.026938211 0.66799998 -0.10658162 8.109928e-39 297 331
-0.025766984 0.66799998 -0.10658162 8.2021264e-39 298 331
-0.024669399 0.67000002 -0.10690073 8.5712691e-39 299 331
-0.023424532 0.66799998 -0.10658162 9.0326059e-39 300 331
-0.022253305 0.66799998 -0.10658162 9.4939442e-39 301 331
-0.021082079 0.66799998 -0.10658162 9.9534762e-39 302 331
-0.019910853 0.66799998 -0.10658162 1.0137869e-38 303 331
-0.018739626 0.66799998 -0.10658162 1.0602793e-38 304 331
-0.017568398 0.66799998 -0.10658162 1.1524391e-38 305 331
-0.016372627 0.667 -0.10642207 1.2352705e-38 306 331
-0.01518036 0.66600001 -0.10626251 1.2721848e-38 307 331
-0.014012639 0.66600001 -0.10626251 1.3365417e-38 308 331
-0.012806346 0.66399997 -0.1059434 1.4010785e-38 309 331
-0.011642133 0.66399997 -0.1059434 1.4288445e-38 310 331
-0.01046214 0.66299999 -0.10578386 1.4657227e-38 311 331
-0.009285653 0.662 -0.1056243 1.4473898e-38 312 331
-0.0081249457 0.662 -0.1056243 1.4381703e-38 313 331
-0.0069642398 0.662 -0.1056243 1.438205e-38 314 331
-0.0058035329 0.662 -0.1056243 1.438205e-38 315 331
-0.0046358132 0.66100001 -0.10546475 1.4290571e-38 316 331
-0.00347686 0.66100001 -0.10546475 1.4382766e-38 317 331
-0.0023108933 0.65899998 -0.10514564 1.5026343e-38 318 331
-0.0011536933 0.65799999 -0.10498609 1.530293e-38 319 331
0 0.65799999 -0.10498609 1.5945786e-38 320 331
0.00115194 0.65700001 -0.10482653 1.6314208e-38 321 331
0.0023038799 0.65700001 -0.10482653 1.6683351e-38 322 331
0.0034558198 0.65700001 -0.10482653 1.7051773e-38 323 331
0.0046077599 0.65700001 -0.10482653 1.6961013e-38 324 331
0.0057596997 0.65700001 -0.10482653 1.6961013e-38 325 331
0.0068905996 0.65499997 -0.10450742 1.7327637e-38 326 331
0.008039033 0.65499997 -0.10450742 1.7143606e-38 327 331
0.0091734398 0.65399998 -0.10434788 1.7049237e-38 328 331
0.01032012 0.65399998 -0.10434788 1.6127281e-38 329 331
0.011466799 0.65399998 -0.10434788 1.4465925e-38 330 331
0.012613479 0.65399998 -0.10434788 1.2529817e-38 331 331
0.013760159 0.65399998 -0.10434788 1.2986498e-38 332 331
0.014906839 0.65399998 -0.10434788 1.3170891e-38 333 331
0.01605352 0.65399998 -0.10434788 1.2712845e-38 334 331
0.017200198 0.65399998 -0.10434788 1.2620647e-38 335 331
0.018374931 0.65499997 -0.10450742 1.3079119e-38 336 331
0.019523365 0.65499997 -0.10450742 1.344826e-38 337 331
0.020640239 0.65399998 -0.10434788 1.3450781e-38 338 331
0.021753605 0.653 -0.10418832 1.4003596e-38 339 331
0.022898532 0.653 -0.10418832 1.4097592e-38 340 331
0.024080278 0.65399998 -0.10434788 1.4374179e-38 341 331
0.025226958 0.65399998 -0.10434788 1.4834785e-38 342 331
0.02637364 0.65399998 -0.10434788 1.5019176e-38 343 331
0.02726784 0.648 -0.10339055 1.5297205e-38 344 331
0.028404001 0.648 -0.10339055 1.5758183e-38 345 331
0.029631332 0.64999998 -0.10370966 1.6403186e-38 346 331
0.030770998 0.64999998 -0.10370966 1.7048556e-38 347 331
0.03186157 0.64899999 -0.10355011 1.7693906e-38 348 331
0.032999486 0.64899999 -0.10355011 1.7786103e-38 349 331
0.034137398 0.64899999 -0.10355011 1.787937e-38 350 331
0.03527531 0.64899999 -0.10355011 1.787937e-38 351 331
0.036413226 0.64899999 -0.10355011 1.7879726e-38 352 331
0.037551139 0.64899999 -0.10355011 1.7879726e-38 353 331
0.038689051 0.64899999 -0.10355011 1.7787172e-38 354 331
0.039826967 0.64899999 -0.10355011 1.7694976e-38 355 331
0.040964879 0.64899999 -0.10355011 1.7509862e-38 356 331
0.042167664 0.64999998 -0.10370966 1.7233275e-38 357 331
0.04330733 0.64999998 -0.10370966 1.7232552e-38 358 331
0.044446997 0.64999998 -0.10370966 1.7048161e-38 359 331
0.045586664 0.64999998 -0.10370966 1.7047442e-38 360 331
0.046726331 0.64999998 -0.10370966 1.6863051e-38 361 331
0.047865998 0.64999998 -0.10370966 1.6587538e-38 362 331
0.049005665 0.64999998 -0.10370966 1.6494984e-38 363 331
0.050145328 0.64999998 -0.10370966 1.6127283e-38 364 331
0.051284995 0.64999998 -0.10370966 1.6034729e-38 365 331
0.052424666 0.64999998 -0.10370966 1.5758148e-38 366 331
0.053729147 0.65200001 -0.10402877 1.5665952e-38 367 331
0.054872319 0.65200001 -0.10402877 1.5481558e-38 368 331
0.056015491 0.65200001 -0.10402877 1.5389362e-38 369 331
0.057246335 0.653 -0.10418832 1.5113131e-38 370 331
0.058391262 0.653 -0.10418832 1.4836545e-38 371 331
0.059536185 0.653 -0.10418832 1.4835823e-38 372 331
0.060774036 0.65399998 -0.10434788 1.4743627e-38 373 331
0.061920714 0.65399998 -0.10434788 1.4376285e-38 374 331
0.063067392 0.65399998 -0.10434788 1.428409e-38 375 331
0.064214081 0.65399998 -0.10434788 1.3824914e-38 376 331
0.065460697 0.65499997 -0.10450742 1.3732718e-38 377 331
0.066609129 0.65499997 -0.10450742 1.364052e-38 378 331
0.067757562 0.65499997 -0.10450742 1.364052e-38 379 331
0.068905994 0.65499997 -0.10450742 1.3456127e-38 380 331
0.070054427 0.65499997 -0.10450742 1.3271737e-38 381 331
0.071420282 0.65700001 -0.10482653 1.3453251e-38 382 331
0.072572216 0.65700001 -0.10482653 1.3177023e-38 383 331
0.073724158 0.65700001 -0.10482653 1.2349065e-38 384 331
0.0748761 0.65700001 -0.10482653 1.2072118e-38 385 331
0.076143757 0.65799999 -0.10498609 1.1336718e-38 386 331
0.077414922 0.65899998 -0.10514564 1.1336718e-38 387 331
0.078808829 0.66100001 -0.10546475 1.1428919e-38 388 331
0.080088757 0.662 -0.1056243 1.1521114e-38 389 331
0.081372194 0.66299999 -0.10578386 1.152148e-38 390 331
0.08265914 0.66399997 -0.1059434 1.152148e-38 391 331
0.084202074 0.667 -0.10642207 1.1430366e-38 392 331
0.085371546 0.667 -0.10642207 1.1430366e-38 393 331
0.086541019 0.667 -0.10642207 1.1520777e-38 394 331
0.0877105 0.667 -0.10642207 1.124455e-38 395 331
0.088879973 0.667 -0.10642207 1.059849e-38 396 331
-0.026938211 0.66799998 -0.10775284 5.9033748e-39 297 332
-0.025766984 0.66799998 -0.10775284 7.1887004e-39 298 332
-0.024669399 0.67000002 -0.10807547 7.8340698e-39 299 332
-0.023494666 0.67000002 -0.10807547 8.2943276e-39 300 332
-0.022253305 0.66799998 -0.10775284 8.7549471e-39 301 332
-0.021082079 0.66799998 -0.10775284 9.7644201e-39 302 332
-0.019910853 0.66799998 -0.10775284 9.7644201e-39 303 332
-0.018739626 0.66799998 -0.10775284 9.4946659e-39 304 332
-0.017568398 0.66799998 -0.10775284 1.0600655e-38 305 332
-0.016372627 0.667 -0.10759154 1.133821e-38 306 332
-0.01518036 0.66600001 -0.10743023 1.1983579e-38 307 332
-0.014012639 0.66600001 -0.10743023 1.2444908e-38 308 332
-0.012806346 0.66399997 -0.10710762 1.2905526e-38 309 332
-0.0116246 0.66299999 -0.10694631 1.3275741e-38 310 332
-0.01046214 0.66299999 -0.10694631 1.3828914e-38 311 332
-0.009285653 0.662 -0.10678501 1.4380996e-38 312 332
-0.0081249457 0.662 -0.10678501 1.4288801e-38 313 332
-0.0069642398 0.662 -0.10678501 1.4014362e-38 314 332
-0.0057947668 0.66100001 -0.1066237 1.4106558e-38 315 332
-0.0046217865 0.65899998 -0.10630108 1.4107274e-38 316 332
-0.0034610799 0.65799999 -0.10613978 1.4291666e-38 317 332
-0.0023073866 0.65799999 -0.10613978 1.4934521e-38 318 332
-0.0011536933 0.65799999 -0.10613978 1.5118912e-38 319 332
0 0.65799999 -0.10613978 1.6037991e-38 320 332
0.00115194 0.65700001 -0.10597847 1.6314938e-38 321 332
0.0023038799 0.65700001 -0.10597847 1.6408209e-38 322 332
0.0034452998 0.65499997 -0.10565586 1.65926e-38 323 332
0.0045937328 0.65499997 -0.10565586 1.6776631e-38 324 332
0.0057421662 0.65499997 -0.10565586 1.65926e-38 325 332
0.0068905996 0.65499997 -0.10565586 1.7051057e-38 326 332
0.008039033 0.65499997 -0.10565586 1.6958862e-38 327 332
0.0091734398 0.65399998 -0.10549456 1.7049242e-38 328 332
0.01032012 0.65399998 -0.10549456 1.6680101e-38 329 332
0.011449266 0.653 -0.10533325 1.5848876e-38 330 332
0.012594193 0.653 -0.10533325 1.4558137e-38 331 332
0.013739119 0.653 -0.10533325 1.4374485e-38 332 332
0.014884046 0.653 -0.10533325 1.465143e-38 333 332
0.016028972 0.653 -0.10533325 1.4467797e-38 334 332
0.017173899 0.653 -0.10533325 1.4467797e-38 335 332
0.018318826 0.653 -0.10533325 1.4743668e-38 336 332
0.019463753 0.653 -0.10533325 1.5112092e-38 337 332
0.02057712 0.65200001 -0.10517195 1.5204643e-38 338 332
0.02158704 0.648 -0.10452672 1.5665621e-38 339 332
0.0227232 0.648 -0.10452672 1.5850013e-38 340 332
0.024080278 0.65399998 -0.10549456 1.6034404e-38 341 332
0.025226958 0.65399998 -0.10549456 1.6310621e-38 342 332
0.026051028 0.64600003 -0.10420411 1.6310621e-38 343 332
0.02718368 0.64600003 -0.10420411 1.6496448e-38 344 332
0.028316336 0.64600003 -0.10420411 1.6773395e-38 345 332
0.029494572 0.64700001 -0.10436542 1.7325493e-38 346 332
0.03067632 0.648 -0.10452672 1.760208e-38 347 332
0.031812482 0.648 -0.10452672 1.7694623e-38 348 332
0.032948639 0.648 -0.10452672 1.7602426e-38 349 332
0.034084801 0.648 -0.10452672 1.7603862e-38 350 332
0.035220958 0.648 -0.10452672 1.7603862e-38 351 332
0.03635712 0.648 -0.10452672 1.7511667e-38 352 332
0.037493281 0.648 -0.10452672 1.7511667e-38 353 332
0.038629439 0.648 -0.10452672 1.7327269e-38 354 332
0.039826967 0.64899999 -0.10468803 1.6958846e-38 355 332
0.040964879 0.64899999 -0.10468803 1.7049237e-38 356 332
0.042167664 0.64999998 -0.10484933 1.6864846e-38 357 332
0.04330733 0.64999998 -0.10484933 1.6680098e-38 358 332
0.044446997 0.64999998 -0.10484933 1.6587903e-38 359 332
0.045586664 0.64999998 -0.10484933 1.6311324e-38 360 332
0.046726331 0.64999998 -0.10484933 1.6219129e-38 361 332
0.047865998 0.64999998 -0.10484933 1.612693e-38 362 332
0.049005665 0.64999998 -0.10484933 1.6034735e-38 363 332
0.050145328 0.64999998 -0.10484933 1.5666674e-38 364 332
0.051284995 0.64999998 -0.10484933 1.5390088e-38 365 332
0.052424666 0.64999998 -0.10484933 1.5206419e-38 366 332
0.053564329 0.64999998 -0.10484933 1.5113864e-38 367 332
0.054872319 0.65200001 -0.10517195 1.4838696e-38 368 332
0.056015491 0.65200001 -0.10517195 1.4653946e-38 369 332
0.057246335 0.653 -0.10533325 1.4561028e-38 370 332
0.058391262 0.653 -0.10533325 1.4468833e-38 371 332
0.059536185 0.653 -0.10533325 1.428409e-38 372 332
0.060774036 0.65399998 -0.10549456 1.4100059e-38 373 332
0.061920714 0.65399998 -0.10549456 1.391603e-38 374 332
0.063067392 0.65399998 -0.10549456 1.391603e-38 375 332
0.064214081 0.65399998 -0.10549456 1.3640166e-38 376 332
0.065460697 0.65499997 -0.10565586 1.3547971e-38 377 332
0.066609129 0.65499997 -0.10565586 1.3364656e-38 378 332
0.067757562 0.65499997 -0.10565586 1.3272459e-38 379 332
0.068905994 0.65499997 -0.10565586 1.3087349e-38 380 332
0.070054427 0.65499997 -0.10565586 1.2995153e-38 381 332
0.071420282 0.65700001 -0.10597847 1.2809685e-38 382 332
0.072572216 0.65700001 -0.10597847 1.2624935e-38 383 332
0.073724158 0.65700001 -0.10597847 1.2165034e-38 384 332
0.0748761 0.65700001 -0.10597847 1.179661e-38 385 332
0.076143757 0.65799999 -0.10613978 1.1520749e-38 386 332
0.077649876 0.66100001 -0.1066237 1.1520749e-38 387 332
0.078928046 0.662 -0.10678501 1.1427844e-38 388 332
0.080209732 0.66299999 -0.10694631 1.152004e-38 389 332
0.081494927 0.66399997 -0.10710762 1.152148e-38 390 332
0.082908116 0.66600001 -0.10743023 1.152148e-38 391 332
0.084202074 0.667 -0.10759154 1.152113e-38 392 332
0.085371546 0.667 -0.10759154 1.152113e-38 393 332
0.086541019 0.667 -0.10759154 1.115237e-38 394 332
0.0877105 0.667 -0.10759154 1.0691392e-38 395 332
-0.025844134 0.67000002 -0.1092502 1.1801391e-38 298 333
-0.024669399 0.67000002 -0.1092502 1.1156022e-38 299 333
-0.023494666 0.67000002 -0.1092502 1.1243156e-38 300 333
-0.022253305 0.66799998 -0.10892407 1.0044614e-38 301 333
-0.021082079 0.66799998 -0.10892407 9.6686217e-39 302 333
-0.019910853 0.66799998 -0.10892407 8.5626329e-39 303 333
-0.018739626 0.66799998 -0.10892407 8.5665957e-39 304 333
-0.0175421 0.667 -0.10876101 9.5807477e-39 305 333
-0.016372627 0.667 -0.10876101 9.9549224e-39 306 333
-0.01518036 0.66600001 -0.10859796 1.0692487e-38 307 333
-0.013970559 0.66399997 -0.10827184 1.0600639e-38 308 333
-0.012806346 0.66399997 -0.10827184 1.1153813e-38 309 333
-0.0116246 0.66299999 -0.10810877 1.1616939e-38 310 333
-0.01046214 0.66299999 -0.10810877 1.2354504e-38 311 333
-0.009285653 0.662 -0.10794572 1.3183174e-38 312 333
-0.0081126727 0.66100001 -0.10778265 1.3551955e-38 313 333
-0.00695372 0.66100001 -0.10778265 1.4012561e-38 314 333
-0.0057772328 0.65899998 -0.10745654 1.4196953e-38 315 333
-0.0046217865 0.65899998 -0.10745654 1.4290223e-38 316 333
-0.0034610799 0.65799999 -0.10729348 1.4566811e-38 317 333
-0.0023038799 0.65700001 -0.10713042 1.511782e-38 318 333
-0.00115194 0.65700001 -0.10713042 1.5486243e-38 319 333
0 0.65700001 -0.10713042 1.6129092e-38 320 333
0.00115194 0.65700001 -0.10713042 1.6406038e-38 321 333
0.0023038799 0.65700001 -0.10713042 1.6498955e-38 322 333
0.0034452998 0.65499997 -0.10680429 1.6683348e-38 323 333
0.0045937328 0.65499997 -0.10680429 1.6774465e-38 324 333
0.0057421662 0.65499997 -0.10680429 1.686666e-38 325 333
0.0068905996 0.65499997 -0.10680429 1.6958137e-38 326 333
0.0080267601 0.65399998 -0.10664123 1.7142527e-38 327 333
0.0091594132 0.653 -0.10647818 1.705141e-38 328 333
0.01028856 0.65200001 -0.10631512 1.705141e-38 329 333
0.011431733 0.65200001 -0.10631512 1.7047454e-38 330 333
0.012574906 0.65200001 -0.10631512 1.6863423e-38 331 333
0.01371808 0.65200001 -0.10631512 1.6865957e-38 332 333
0.014861252 0.65200001 -0.10631512 1.7326935e-38 333 333
0.016004426 0.65200001 -0.10631512 1.7326234e-38 334 333
0.017095 0.64999998 -0.10598899 1.741843e-38 335 333
0.018234665 0.64999998 -0.10598899 1.7235834e-38 336 333
0.019374331 0.64999998 -0.10598899 1.7051803e-38 337 333
0.020513998 0.64999998 -0.10598899 1.7510623e-38 338 333
0.02158704 0.648 -0.10566287 1.7326232e-38 339 333
0.022688134 0.64700001 -0.10549982 1.741878e-38 340 333
0.023822539 0.64700001 -0.10549982 1.7142552e-38 341 333
0.024956945 0.64700001 -0.10549982 1.6957787e-38 342 333
0.026091354 0.64700001 -0.10549982 1.6773395e-38 343 333
0.02718368 0.64600003 -0.10533676 1.695814e-38 344 333
0.028316336 0.64600003 -0.10533676 1.7142171e-38 345 333
0.029494572 0.64700001 -0.10549982 1.7234369e-38 346 333
0.030628979 0.64700001 -0.10549982 1.7418761e-38 347 333
0.031812482 0.648 -0.10566287 1.7602429e-38 348 333
0.032897793 0.64700001 -0.10549982 1.7694626e-38 349 333
0.0340322 0.64700001 -0.10549982 1.7510586e-38 350 333
0.035166606 0.64700001 -0.10549982 1.7234001e-38 351 333
0.03635712 0.648 -0.10566287 1.695741e-38 352 333
0.037493281 0.648 -0.10566287 1.6681183e-38 353 333
0.038629439 0.648 -0.10566287 1.6496786e-38 354 333
0.0397656 0.648 -0.10566287 1.6312394e-38 355 333
0.040964879 0.64899999 -0.10582593 1.6219476e-38 356 333
0.042102791 0.64899999 -0.10582593 1.6219476e-38 357 333
0.04330733 0.64999998 -0.10598899 1.6585738e-38 358 333
0.044446997 0.64999998 -0.10598899 1.6309511e-38 359 333
0.045516532 0.64899999 -0.10582593 1.6401351e-38 360 333
0.046654444 0.64899999 -0.10582593 1.6216958e-38 361 333
0.047792356 0.64899999 -0.10582593 1.5941094e-38 362 333
0.048930272 0.64899999 -0.10582593 1.5756703e-38 363 333
0.050145328 0.64999998 -0.10598899 1.5572309e-38 364 333
0.051284995 0.64999998 -0.10598899 1.5480112e-38 365 333
0.052424666 0.64999998 -0.10598899 1.492874e-38 366 333
0.053564329 0.64999998 -0.10598899 1.492874e-38 367 333
0.054703996 0.64999998 -0.10598899 1.4376636e-38 368 333
0.055843662 0.64999998 -0.10598899 1.4100409e-38 369 333
0.057158668 0.65200001 -0.10631512 1.4376273e-38 370 333
0.058301836 0.65200001 -0.10631512 1.4283718e-38 371 333
0.059445009 0.65200001 -0.10631512 1.4007857e-38 372 333
0.060681112 0.653 -0.10647818 1.3915662e-38 373 333
0.061826039 0.653 -0.10647818 1.382311e-38 374 333
0.063067392 0.65399998 -0.10664123 1.382311e-38 375 333
0.064214081 0.65399998 -0.10664123 1.3547604e-38 376 333
0.065460697 0.65499997 -0.10680429 1.3455408e-38 377 333
0.066609129 0.65499997 -0.10680429 1.3362491e-38 378 333
0.067757562 0.65499997 -0.10680429 1.3270295e-38 379 333
0.068905994 0.65499997 -0.10680429 1.2993351e-38 380 333
0.070054427 0.65499997 -0.10680429 1.2716765e-38 381 333
0.071420282 0.65700001 -0.10713042 1.2348712e-38 382 333
0.072572216 0.65700001 -0.10713042 1.216396e-38 383 333
0.073724158 0.65700001 -0.10713042 1.2070695e-38 384 333
0.0748761 0.65700001 -0.10713042 1.19785e-38 385 333
0.076143757 0.65799999 -0.10729348 1.1702636e-38 386 333
0.077649876 0.66100001 -0.10778265 1.1702636e-38 387 333
0.078928046 0.662 -0.10794572 1.1427847e-38 388 333
0.080209732 0.66299999 -0.10810877 1.1520042e-38 389 333
0.081494927 0.66399997 -0.10827184 1.1521483e-38 390 333
0.082908116 0.66600001 -0.10859796 1.1521483e-38 391 333
0.084202074 0.667 -0.10876101 1.124455e-38 392 333
0.085371546 0.667 -0.10876101 1.124455e-38 393 333
0.086541019 0.667 -0.10876101 1.0874355e-38 394 333
-0.024669399 0.67000002 -0.11042494 1.5488866e-38 299 334
-0.023494666 0.67000002 -0.11042494 1.5118266e-38 300 334
-0.022253305 0.66799998 -0.1100953 1.3920083e-38 301 334
-0.021082079 0.66799998 -0.1100953 1.2809039e-38 302 334
-0.019910853 0.66799998 -0.1100953 1.0411954e-38 303 334
-0.018739626 0.66799998 -0.1100953 9.2123323e-39 304 334
-0.0175421 0.667 -0.10993049 9.2123323e-39 305 334
-0.016348081 0.66600001 -0.10976568 9.4946631e-39 306 334
-0.015134773 0.66399997 -0.10943604 9.8634456e-39 307 334
-0.013949519 0.66299999 -0.10927124 1.1239543e-38 308 334
-0.012787059 0.66299999 -0.10927124 1.1884913e-38 309 334
-0.011607066 0.662 -0.10910642 1.1061263e-38 310 334
-0.01043058 0.66100001 -0.10894161 1.1430406e-38 311 334
-0.0092716264 0.66100001 -0.10894161 1.180204e-38 312 334
-0.0081126727 0.66100001 -0.10894161 1.2355214e-38 313 334
-0.0069326796 0.65899998 -0.10861198 1.3092776e-38 314 334
-0.0057684663 0.65799999 -0.10844716 1.3738145e-38 315 334
-0.0046147732 0.65799999 -0.10844716 1.4198756e-38 316 334
-0.0034558198 0.65700001 -0.10828236 1.4290953e-38 317 334
-0.0023038799 0.65700001 -0.10828236 1.4842675e-38 318 334
-0.00115194 0.65700001 -0.10828236 1.5027067e-38 319 334
0 0.65499997 -0.10795272 1.5670641e-38 320 334
0.0011484332 0.65499997 -0.10795272 1.5855032e-38 321 334
0.0022968664 0.65499997 -0.10795272 1.6131259e-38 322 334
0.0034400397 0.65399998 -0.10778791 1.6223813e-38 323 334
0.0045867199 0.65399998 -0.10778791 1.6314935e-38 324 334
0.0057246331 0.653 -0.1076231 1.6222738e-38 325 334
0.0068695596 0.653 -0.1076231 1.6314935e-38 326 334
0.0080144862 0.653 -0.1076231 1.6314935e-38 327 334
0.0091453865 0.65200001 -0.10745829 1.6683351e-38 328 334
0.010256999 0.64999998 -0.10712866 1.6959578e-38 329 334
0.011396666 0.64999998 -0.10712866 1.7509161e-38 330 334
0.012574906 0.65200001 -0.10745829 1.7416966e-38 331 334
0.013675999 0.64999998 -0.10712866 1.7693925e-38 332 334
0.014815666 0.64999998 -0.10712866 1.7970512e-38 333 334
0.015955333 0.64999998 -0.10712866 1.7786484e-38 334 334
0.017095 0.64999998 -0.10712866 1.7786484e-38 335 334
0.018206613 0.64899999 -0.10696385 1.7602806e-38 336 334
0.019344525 0.64899999 -0.10696385 1.751061e-38 337 334
0.02048244 0.64899999 -0.10696385 1.7510607e-38 338 334
0.02158704 0.648 -0.10679904 1.7326215e-38 339 334
0.022688134 0.64700001 -0.10663422 1.7051054e-38 340 334
0.023822539 0.64700001 -0.10663422 1.6866663e-38 341 334
0.024956945 0.64700001 -0.10663422 1.6774095e-38 342 334
0.026091354 0.64700001 -0.10663422 1.6774095e-38 343 334
0.02718368 0.64600003 -0.10646942 1.6774462e-38 344 334
0.028316336 0.64600003 -0.10646942 1.6867016e-38 345 334
0.029494572 0.64700001 -0.10663422 1.7050701e-38 346 334
0.030628979 0.64700001 -0.10663422 1.7143256e-38 347 334
0.031763386 0.64700001 -0.10663422 1.7050701e-38 348 334
0.032897793 0.64700001 -0.10663422 1.686631e-38 349 334
0.0340322 0.64700001 -0.10663422 1.6957057e-38 350 334
0.035166606 0.64700001 -0.10663422 1.668083e-38 351 334
0.036301013 0.64700001 -0.10663422 1.6771228e-38 352 334
0.03743542 0.64700001 -0.10663422 1.6679032e-38 353 334
0.038569827 0.64700001 -0.10663422 1.612693e-38 354 334
0.0397656 0.648 -0.10679904 1.594218e-38 355 334
0.040901758 0.648 -0.10679904 1.5941463e-38 356 334
0.042037919 0.648 -0.10679904 1.5941463e-38 357 334
0.043240704 0.64899999 -0.10696385 1.5665602e-38 358 334
0.044378616 0.64899999 -0.10696385 1.5665602e-38 359 334
0.045516532 0.64899999 -0.10696385 1.5113864e-38 360 334
0.046654444 0.64899999 -0.10696385 1.5113864e-38 361 334
0.047718719 0.648 -0.10679904 1.4837992e-38 362 334
0.04885488 0.648 -0.10679904 1.4745438e-38 363 334
0.050068185 0.64899999 -0.10696385 1.4652876e-38 364 334
0.051206097 0.64899999 -0.10696385 1.4560681e-38 365 334
0.052344013 0.64899999 -0.10696385 1.4285173e-38 366 334
0.053481925 0.64899999 -0.10696385 1.4192617e-38 367 334
0.054703996 0.64999998 -0.10712866 1.4100421e-38 368 334
0.055843662 0.64999998 -0.10712866 1.4008226e-38 369 334
0.057158668 0.65200001 -0.10745829 1.3640882e-38 370 334
0.058301836 0.65200001 -0.10745829 1.3640882e-38 371 334
0.059445009 0.65200001 -0.10745829 1.3547968e-38 372 334
0.060588185 0.65200001 -0.10745829 1.3455771e-38 373 334
0.061826039 0.653 -0.1076231 1.3271743e-38 374 334
0.063067392 0.65399998 -0.10778791 1.3179188e-38 375 334
0.064214081 0.65399998 -0.10778791 1.2995519e-38 376 334
0.065460697 0.65499997 -0.10795272 1.2718933e-38 377 334
0.066609129 0.65499997 -0.10795272 1.2534543e-38 378 334
0.067757562 0.65499997 -0.10795272 1.2165762e-38 379 334
0.068905994 0.65499997 -0.10795272 1.2165409e-38 380 334
0.070054427 0.65499997 -0.10795272 1.1888821e-38 381 334
0.071420282 0.65700001 -0.10828236 1.1796272e-38 382 334
0.072572216 0.65700001 -0.10828236 1.1704076e-38 383 334
0.073724158 0.65700001 -0.10828236 1.1519689e-38 384 334
0.074990064 0.65799999 -0.10844716 1.1519689e-38 385 334
0.076259479 0.65899998 -0.10861198 1.1336014e-38 386 334
0.077649876 0.66100001 -0.10894161 1.1336014e-38 387 334
0.078928046 0.662 -0.10910642 1.142821e-38 388 334
0.080209732 0.66299999 -0.10927124 1.142821e-38 389 334
0.081494927 0.66399997 -0.10943604 1.1520774e-38 390 334
0.082908116 0.66600001 -0.10976568 1.1336743e-38 391 334
0.084202074 0.667 -0.10993049 1.1151298e-38 392 334
-0.023494666 0.67000002 -0.11159967 1.8531324e-38 300 335
-0.022253305 0.66799998 -0.11126653 1.8346933e-38 301 335
-0.02057712 0.65200001 -0.10860147 1.8528078e-38 302 335
-0.019433947 0.65200001 -0.10860147 1.7790513e-38 303 335
-0.018290773 0.65200001 -0.10860147 1.7050427e-38 304 335
-0.017147599 0.65200001 -0.10860147 1.5759688e-38 305 335
-0.016028972 0.653 -0.10876803 1.4197366e-38 306 335
-0.014884046 0.653 -0.10876803 1.180028e-38 307 335
-0.01392848 0.662 -0.11026713 1.0504111e-38 308 335
-0.012767773 0.662 -0.11026713 1.0872893e-38 309 335
-0.011607066 0.662 -0.11026713 1.0783939e-38 310 335
-0.01043058 0.66100001 -0.11010057 1.0876135e-38 311 335
-0.0092716264 0.66100001 -0.11010057 1.0235806e-38 312 335
-0.0080881258 0.65899998 -0.10976743 1.0788979e-38 313 335
-0.0069221598 0.65799999 -0.10960086 1.1436144e-38 314 335
-0.0057596997 0.65700001 -0.1094343 1.2265906e-38 315 335
-0.0046077599 0.65700001 -0.1094343 1.3462281e-38 316 335
-0.0034452998 0.65499997 -0.10910116 1.3831062e-38 317 335
-0.0022968664 0.65499997 -0.10910116 1.4657564e-38 318 335
-0.0011484332 0.65499997 -0.10910116 1.5118183e-38 319 335
0 0.65399998 -0.10893459 1.5578072e-38 320 335
0.00114668 0.65399998 -0.10893459 1.6039051e-38 321 335
0.0022898533 0.653 -0.10876803 1.6131249e-38 322 335
0.0034347798 0.653 -0.10876803 1.6223445e-38 323 335
0.0045726933 0.65200001 -0.10860147 1.6406038e-38 324 335
0.0057158666 0.65200001 -0.10860147 1.6313842e-38 325 335
0.0068590399 0.65200001 -0.10860147 1.6497152e-38 326 335
0.0080022132 0.65200001 -0.10860147 1.6589706e-38 327 335
0.0091173323 0.64999998 -0.10826832 1.6682268e-38 328 335
0.01024122 0.64899999 -0.10810176 1.6682268e-38 329 335
0.011379133 0.64899999 -0.10810176 1.7048903e-38 330 335
0.012536332 0.64999998 -0.10826832 1.7325849e-38 331 335
0.013675999 0.64999998 -0.10826832 1.7142902e-38 332 335
0.014792874 0.64899999 -0.10810176 1.7419131e-38 333 335
0.015930785 0.64899999 -0.10810176 1.7326932e-38 334 335
0.017068699 0.64899999 -0.10810176 1.7050704e-38 335 335
0.01817856 0.648 -0.1079352 1.7233653e-38 336 335
0.019284913 0.64700001 -0.10776863 1.7233653e-38 337 335
0.020387759 0.64600003 -0.10760207 1.695779e-38 338 335
0.021520413 0.64600003 -0.10760207 1.695779e-38 339 335
0.022688134 0.64700001 -0.10776863 1.6866313e-38 340 335
0.023785722 0.64600003 -0.10760207 1.6774117e-38 341 335
0.024918374 0.64600003 -0.10760207 1.6590802e-38 342 335
0.026051028 0.64600003 -0.10760207 1.6498606e-38 343 335
0.02718368 0.64600003 -0.10760207 1.6773747e-38 344 335
0.028316336 0.64600003 -0.10760207 1.6773747e-38 345 335
0.029494572 0.64700001 -0.10776863 1.6773391e-38 346 335
0.030628979 0.64700001 -0.10776863 1.6681196e-38 347 335
0.031763386 0.64700001 -0.10776863 1.6771947e-38 348 335
0.032897793 0.64700001 -0.10776863 1.6310968e-38 349 335
0.0340322 0.64700001 -0.10776863 1.6127283e-38 350 335
0.035166606 0.64700001 -0.10776863 1.6034729e-38 351 335
0.036301013 0.64700001 -0.10776863 1.612693e-38 352 335
0.03743542 0.64700001 -0.10776863 1.6034735e-38 353 335
0.038569827 0.64700001 -0.10776863 1.5849267e-38 354 335
0.039704233 0.64700001 -0.10776863 1.5757072e-38 355 335
0.04083864 0.64700001 -0.10776863 1.5573391e-38 356 335
0.041973047 0.64700001 -0.10776863 1.5388641e-38 357 335
0.043174081 0.648 -0.1079352 1.5572309e-38 358 335
0.044310238 0.648 -0.1079352 1.5296081e-38 359 335
0.0454464 0.648 -0.1079352 1.5296081e-38 360 335
0.046582561 0.648 -0.1079352 1.5111331e-38 361 335
0.047718719 0.648 -0.1079352 1.4560681e-38 362 335
0.04885488 0.648 -0.1079352 1.4376288e-38 363 335
0.049991041 0.648 -0.1079352 1.4100424e-38 364 335
0.051127199 0.648 -0.1079352 1.4100424e-38 365 335
0.052344013 0.64899999 -0.10810176 1.4008226e-38 366 335
0.053481925 0.64899999 -0.10810176 1.391603e-38 367 335
0.054619838 0.64899999 -0.10810176 1.3823832e-38 368 335
0.055843662 0.64999998 -0.10826832 1.3639801e-38 369 335
0.056983333 0.64999998 -0.10826832 1.3456127e-38 370 335
0.058301836 0.65200001 -0.10860147 1.3456127e-38 371 335
0.059445009 0.65200001 -0.10860147 1.3455771e-38 372 335
