# .PCD v.7 - Point Cloud Data file format
FIELDS x y z rgb imX imY
SIZE 4 4 4 4 4 4
TYPE F F F F F F
COUNT 1 1 1 1 1 1
WIDTH 846
HEIGHT 1
VIEWPOINT 0 0 0 1 0 0 0
POINTS 846
DATA ascii
0.11602858 0.704 -0.06912341 1.3917495e-38 414 296
0.11726292 0.704 -0.06912341 1.465506e-38 415 296
0.11849727 0.704 -0.06912341 1.5214057e-38 416 296
0.078537062 0.71100003 -0.071057342 1.3086334e-38 383 297
0.079671465 0.70999998 -0.070957392 1.4285578e-38 384 297
0.08091633 0.70999998 -0.070957392 1.5668512e-38 385 297
0.081814043 0.70700002 -0.070657574 1.5852531e-38 386 297
0.083053641 0.70700002 -0.070657574 1.6036922e-38 387 297
0.083935574 0.704 -0.070357755 1.6313858e-38 388 297
0.085169919 0.704 -0.070357755 1.6590446e-38 389 297
0.086281531 0.70300001 -0.070257813 1.7143603e-38 390 297
0.087140664 0.69999999 -0.069957994 1.7419831e-38 391 297
0.088367991 0.69999999 -0.069957994 1.7788244e-38 392 297
0.089339346 0.69800001 -0.069758117 1.7880439e-38 393 297
0.090563171 0.69800001 -0.069758117 1.8156301e-38 394 297
0.091787003 0.69800001 -0.069758117 1.8248855e-38 395 297
0.093010828 0.69800001 -0.069758117 1.8341048e-38 396 297
0.094234653 0.69800001 -0.069758117 1.8341048e-38 397 297
0.095321722 0.69700003 -0.069658175 1.8248852e-38 398 297
0.096543796 0.69700003 -0.069658175 1.8248852e-38 399 297
0.09776587 0.69700003 -0.069658175 1.8155938e-38 400 297
0.098987937 0.69700003 -0.069658175 1.8063742e-38 401 297
0.10021002 0.69700003 -0.069658175 1.7787511e-38 402 297
0.10143209 0.69700003 -0.069658175 1.7602761e-38 403 297
0.10265417 0.69700003 -0.069658175 1.7418004e-38 404 297
0.10387623 0.69700003 -0.069658175 1.7233611e-38 405 297
0.10509831 0.69700003 -0.069658175 1.7047789e-38 406 297
0.10632038 0.69700003 -0.069658175 1.6863398e-38 407 297
0.10769674 0.69800001 -0.069758117 1.6495337e-38 408 297
0.10892057 0.69800001 -0.069758117 1.6403142e-38 409 297
0.11046 0.69999999 -0.069957994 1.5576259e-38 410 297
0.11168733 0.69999999 -0.069957994 1.5391867e-38 411 297
0.11307596 0.70099998 -0.070057929 1.5023807e-38 412 297
0.11479424 0.704 -0.070357755 1.4839057e-38 413 297
0.11602858 0.704 -0.070357755 1.3733829e-38 414 297
0.11726292 0.704 -0.070357755 1.4471394e-38 415 297
0.11849727 0.704 -0.070357755 1.5029307e-38 416 297
0.078537062 0.71100003 -0.072303966 1.3178895e-38 383 298
0.079671465 0.70999998 -0.072202265 1.4286297e-38 384 298
0.08091633 0.70999998 -0.072202265 1.5669231e-38 385 298
0.081698313 0.70599997 -0.071795486 1.5852534e-38 386 298
0.082936168 0.70599997 -0.071795486 1.6036925e-38 387 298
0.083577886 0.70099998 -0.071287021 1.6313855e-38 388 298
0.084806979 0.70099998 -0.071287021 1.6590802e-38 389 298
0.08591333 0.69999999 -0.071185328 1.7051761e-38 390 298
0.086891696 0.69800001 -0.07098195 1.7420184e-38 391 298
0.087989278 0.69700003 -0.070880257 1.7788597e-38 392 298
0.089083351 0.69599998 -0.070778556 1.7880793e-38 393 298
0.090303674 0.69599998 -0.070778556 1.8248852e-38 394 298
0.09152399 0.69599998 -0.070778556 1.8248852e-38 395 298
0.092744313 0.69599998 -0.070778556 1.8432524e-38 396 298
0.094099648 0.69700003 -0.070880257 1.8432524e-38 397 298
0.095321722 0.69700003 -0.070880257 1.834105e-38 398 298
0.096405275 0.69599998 -0.070778556 1.8156301e-38 399 298
0.097625598 0.69599998 -0.070778556 1.8155584e-38 400 298
0.098845914 0.69599998 -0.070778556 1.7971193e-38 401 298
0.10006624 0.69599998 -0.070778556 1.7787155e-38 402 298
0.10128655 0.69599998 -0.070778556 1.7602764e-38 403 298
0.10250687 0.69599998 -0.070778556 1.7418007e-38 404 298
0.1037272 0.69599998 -0.070778556 1.7233255e-38 405 298
0.10494751 0.69599998 -0.070778556 1.6955594e-38 406 298
0.10616783 0.69599998 -0.070778556 1.6863398e-38 407 298
0.10754246 0.69700003 -0.070880257 1.6312025e-38 408 298
0.10876452 0.69700003 -0.070880257 1.6219829e-38 409 298
0.1101444 0.69800001 -0.07098195 1.5484429e-38 410 298
0.11168733 0.69999999 -0.071185328 1.5116006e-38 411 298
0.11307596 0.70099998 -0.071287021 1.4748665e-38 412 298
0.11430506 0.70099998 -0.071287021 1.4379882e-38 413 298
0.11586377 0.70300001 -0.071490414 1.3917141e-38 414 298
0.11726292 0.704 -0.071592107 1.437848e-38 415 298
0.11849727 0.704 -0.071592107 1.4845276e-38 416 298
0.078537062 0.71100003 -0.073550582 1.3732438e-38 383 299
0.079783678 0.71100003 -0.073550582 1.3920041e-38 384 299
0.08091633 0.70999998 -0.073447131 1.521078e-38 385 299
0.081698313 0.70599997 -0.07303334 1.6036925e-38 386 299
0.082701221 0.704 -0.072826453 1.612912e-38 387 299
0.083458662 0.69999999 -0.072412662 1.6865588e-38 388 299
0.084685996 0.69999999 -0.072412662 1.7142174e-38 389 299
0.085667863 0.69800001 -0.072205767 1.7143953e-38 390 299
0.086767212 0.69700003 -0.072102323 1.742054e-38 391 299
0.087610558 0.69400001 -0.071791984 1.7605285e-38 392 299
0.088827372 0.69400001 -0.071791984 1.7789676e-38 393 299
0.089914441 0.69300002 -0.07168854 1.8248852e-38 394 299
0.091129504 0.69300002 -0.07168854 1.8341048e-38 395 299
0.09234456 0.69300002 -0.07168854 1.8341048e-38 396 299
0.093559615 0.69300002 -0.07168854 1.8341048e-38 397 299
0.094911434 0.69400001 -0.071791984 1.8340329e-38 398 299
0.095989741 0.69300002 -0.07168854 1.8248133e-38 399 299
0.097204804 0.69300002 -0.07168854 1.8063386e-38 400 299
0.09841986 0.69300002 -0.07168854 1.797119e-38 401 299
0.099634916 0.69300002 -0.07168854 1.760348e-38 402 299
0.1009955 0.69400001 -0.071791984 1.7327253e-38 403 299
0.10221232 0.69400001 -0.071791984 1.7325451e-38 404 299
0.10342913 0.69400001 -0.071791984 1.7048864e-38 405 299
0.10464595 0.69400001 -0.071791984 1.6955594e-38 406 299
0.10586276 0.69400001 -0.071791984 1.6771201e-38 407 299
0.10707957 0.69400001 -0.071791984 1.6220545e-38 408 299
0.10860847 0.69599998 -0.071998879 1.5944319e-38 409 299
0.1099866 0.69700003 -0.072102323 1.5392229e-38 410 299
0.11136822 0.69800001 -0.072205767 1.5116003e-38 411 299
0.11291467 0.69999999 -0.072412662 1.4747943e-38 412 299
0.11414199 0.69999999 -0.072412662 1.4563551e-38 413 299
0.11586377 0.70300001 -0.072723009 1.3365403e-38 414 299
0.11709637 0.70300001 -0.072723009 1.4010772e-38 415 299
0.11849727 0.704 -0.072826453 1.5029307e-38 416 299
0.078537062 0.71100003 -0.074797198 1.4471449e-38 383 300
0.079783678 0.71100003 -0.074797198 1.4290265e-38 384 300
0.08091633 0.70999998 -0.074691996 1.4843439e-38 385 300
0.080772556 0.69800001 -0.073429599 1.5945082e-38 386 300
0.081996389 0.69800001 -0.073429599 1.64057e-38 387 300
0.082981758 0.69599998 -0.073219195 1.7142171e-38 388 300
0.084202074 0.69599998 -0.073219195 1.7142171e-38 389 300
0.085176937 0.69400001 -0.073008798 1.7419467e-38 390 300
0.086269259 0.69300002 -0.072903603 1.760386e-38 391 300
0.087484315 0.69300002 -0.072903603 1.7880795e-38 392 300
0.088443391 0.69099998 -0.072693199 1.7972991e-38 393 300
0.089654945 0.69099998 -0.072693199 1.8340696e-38 394 300
0.090734996 0.69 -0.072587997 1.8340696e-38 395 300
0.091944791 0.69 -0.072587997 1.8432894e-38 396 300
0.093154602 0.69 -0.072587997 1.8340699e-38 397 300
0.094501153 0.69099998 -0.072693199 1.8340702e-38 398 300
0.095712706 0.69099998 -0.072693199 1.815595e-38 399 300
0.096783996 0.69 -0.072587997 1.7972638e-38 400 300
0.097993799 0.69 -0.072587997 1.7604216e-38 401 300
0.099203594 0.69 -0.072587997 1.741982e-38 402 300
0.10055891 0.69099998 -0.072693199 1.723507e-38 403 300
0.10206504 0.69300002 -0.072903603 1.7233628e-38 404 300
0.1032801 0.69300002 -0.072903603 1.6957041e-38 405 300
0.10449516 0.69300002 -0.072903603 1.6587903e-38 406 300
0.10571022 0.69300002 -0.072903603 1.6587903e-38 407 300
0.10692528 0.69300002 -0.072903603 1.585322e-38 408 300
0.10829638 0.69400001 -0.073008798 1.566847e-38 409 300
0.10982879 0.69599998 -0.073219195 1.5208934e-38 410 300
0.11104912 0.69599998 -0.073219195 1.484051e-38 411 300
0.11259206 0.69800001 -0.073429599 1.4747956e-38 412 300
0.11414199 0.69999999 -0.073639996 1.4287336e-38 413 300
0.11553414 0.70099998 -0.073745191 1.3549083e-38 414 300
0.11676323 0.70099998 -0.073745191 1.4194453e-38 415 300
0.11832895 0.70300001 -0.073955595 1.5120787e-38 416 300
0.079548739 0.69800001 -0.074653424 1.5302622e-38 385 301
0.080772556 0.69800001 -0.074653424 1.6588647e-38 386 301
0.081996389 0.69800001 -0.074653424 1.6680843e-38 387 301
0.082743309 0.69400001 -0.074225612 1.686666e-38 388 301
0.083960123 0.69400001 -0.074225612 1.705141e-38 389 301
0.085054204 0.69300002 -0.074118659 1.7419831e-38 390 301
0.086269259 0.69300002 -0.074118659 1.7604581e-38 391 301
0.087231837 0.69099998 -0.073904753 1.7696774e-38 392 301
0.088315398 0.69 -0.0737978 1.8065557e-38 393 301
0.0895252 0.69 -0.0737978 1.8340702e-38 394 301
0.090734996 0.69 -0.0737978 1.8340702e-38 395 301
0.091678292 0.68800002 -0.073583893 1.8340699e-38 396 301
0.092884585 0.68800002 -0.073583893 1.8340699e-38 397 301
0.094364397 0.69 -0.0737978 1.8339979e-38 398 301
0.095297173 0.68800002 -0.073583893 1.8247783e-38 399 301
0.096503466 0.68800002 -0.073583893 1.7880077e-38 400 301
0.09770976 0.68800002 -0.073583893 1.7695327e-38 401 301
0.098916054 0.68800002 -0.073583893 1.7510934e-38 402 301
0.1004134 0.69 -0.0737978 1.7142512e-38 403 301
0.10162319 0.69 -0.0737978 1.6865567e-38 404 301
0.10298203 0.69099998 -0.073904753 1.6681536e-38 405 301
0.10419358 0.69099998 -0.073904753 1.6496433e-38 406 301
0.10540513 0.69099998 -0.073904753 1.631204e-38 407 301
0.10692528 0.69300002 -0.074118659 1.6036532e-38 408 301
0.10814034 0.69300002 -0.074118659 1.5851783e-38 409 301
0.10951319 0.69400001 -0.074225612 1.5391879e-38 410 301
0.11073001 0.69400001 -0.074225612 1.5115652e-38 411 301
0.11243074 0.69700003 -0.074546471 1.465575e-38 412 301
0.11365282 0.69700003 -0.074546471 1.4470999e-38 413 301
0.1150397 0.69800001 -0.074653424 1.3089907e-38 414 301
0.11626352 0.69800001 -0.074653424 1.3735277e-38 415 301
0.11799231 0.70099998 -0.074974284 1.4844926e-38 416 301
0.080193959 0.69300002 -0.075333714 1.6864511e-38 386 302
0.081409015 0.69300002 -0.075333714 1.7048903e-38 387 302
0.082624078 0.69300002 -0.075333714 1.7142524e-38 388 302
0.083597176 0.69099998 -0.075116299 1.7326915e-38 389 302
0.084685996 0.69 -0.075007595 1.7511664e-38 390 302
0.085895799 0.69 -0.075007595 1.7787891e-38 391 302
0.087105595 0.69 -0.075007595 1.7789326e-38 392 302
0.088315398 0.69 -0.075007595 1.7973357e-38 393 302
0.089265712 0.68800002 -0.074790187 1.8340699e-38 394 302
0.090471998 0.68800002 -0.074790187 1.8340699e-38 395 302
0.091678292 0.68800002 -0.074790187 1.8340699e-38 396 302
0.092884585 0.68800002 -0.074790187 1.8248502e-38 397 302
0.094090879 0.68800002 -0.074790187 1.8156306e-38 398 302
0.095297173 0.68800002 -0.074790187 1.7972275e-38 399 302
0.096503466 0.68800002 -0.074790187 1.7880074e-38 400 302
0.09770976 0.68800002 -0.074790187 1.7603485e-38 401 302
0.098916054 0.68800002 -0.074790187 1.7418019e-38 402 302
0.10012234 0.68800002 -0.074790187 1.7049237e-38 403 302
0.10132864 0.68800002 -0.074790187 1.6772297e-38 404 302
0.102833 0.69 -0.075007595 1.6680101e-38 405 302
0.1040428 0.69 -0.075007595 1.6220928e-38 406 302
0.10525259 0.69 -0.075007595 1.6128731e-38 407 302
0.10661669 0.69099998 -0.075116299 1.6036177e-38 408 302
0.10782824 0.69099998 -0.075116299 1.5851785e-38 409 302
0.1093554 0.69300002 -0.075333714 1.520857e-38 410 302
0.11073001 0.69400001 -0.075442426 1.4839789e-38 411 302
0.11226943 0.69599998 -0.075659841 1.4563915e-38 412 302
0.11365282 0.69700003 -0.075768545 1.4195491e-38 413 302
0.1148749 0.69700003 -0.075768545 1.3180302e-38 414 302
0.11626352 0.69800001 -0.075877249 1.3733476e-38 415 302
0.11782399 0.69999999 -0.076094657 1.475273e-38 416 302
0.079615362 0.68800002 -0.075996481 1.6773391e-38 386 303
0.080821648 0.68800002 -0.075996481 1.6958143e-38 387 303
0.082266398 0.69 -0.076217398 1.7326197e-38 388 303
0.083113261 0.68699998 -0.075886011 1.7602782e-38 389 303
0.084317796 0.68699998 -0.075886011 1.7604216e-38 390 303
0.085522331 0.68699998 -0.075886011 1.7880442e-38 391 303
0.086726874 0.68699998 -0.075886011 1.8064834e-38 392 303
0.087931409 0.68699998 -0.075886011 1.8157031e-38 393 303
0.089135952 0.68699998 -0.075886011 1.8340702e-38 394 303
0.090340495 0.68699998 -0.075886011 1.8248146e-38 395 303
0.09154503 0.68699998 -0.075886011 1.8248149e-38 396 303
0.092749573 0.68699998 -0.075886011 1.7971922e-38 397 303
0.093954116 0.68699998 -0.075886011 1.8155234e-38 398 303
0.095158651 0.68699998 -0.075886011 1.7970843e-38 399 303
0.096363194 0.68699998 -0.075886011 1.7787162e-38 400 303
0.097567737 0.68699998 -0.075886011 1.7510215e-38 401 303
0.098772272 0.68699998 -0.075886011 1.7232908e-38 402 303
0.099976815 0.68699998 -0.075886011 1.7048158e-38 403 303
0.10118135 0.68699998 -0.075886011 1.6587903e-38 404 303
0.10238589 0.68699998 -0.075886011 1.640387e-38 405 303
0.10374123 0.68800002 -0.075996481 1.6128728e-38 406 303
0.10494752 0.68800002 -0.075996481 1.6036532e-38 407 303
0.1064624 0.69 -0.076217398 1.5851788e-38 408 303
0.1076722 0.69 -0.076217398 1.5575203e-38 409 303
0.1093554 0.69300002 -0.076548778 1.5115652e-38 410 303
0.11073001 0.69400001 -0.07665924 1.4930902e-38 411 303
0.11226943 0.69599998 -0.076880157 1.4471355e-38 412 303
0.11348975 0.69599998 -0.076880157 1.4102574e-38 413 303
0.11471007 0.69599998 -0.076880157 1.2903715e-38 414 303
0.11609697 0.69700003 -0.076990619 1.3549083e-38 415 303
0.11748736 0.69800001 -0.077101074 1.4567979e-38 416 303
0.078295097 0.68699998 -0.077090554 1.6404644e-38 385 304
0.079499632 0.68699998 -0.077090554 1.6865941e-38 386 304
0.080821648 0.68800002 -0.077202775 1.7142527e-38 387 304
0.081908718 0.68699998 -0.077090554 1.7602779e-38 388 304
0.083113261 0.68699998 -0.077090554 1.7694976e-38 389 304
0.084317796 0.68699998 -0.077090554 1.7787891e-38 390 304
0.085522331 0.68699998 -0.077090554 1.7972641e-38 391 304
0.086726874 0.68699998 -0.077090554 1.8339993e-38 392 304
0.087931409 0.68699998 -0.077090554 1.8247795e-38 393 304
0.089006208 0.68599999 -0.076978341 1.8247442e-38 394 304
0.090209 0.68599999 -0.076978341 1.8155247e-38 395 304
0.091411777 0.68599999 -0.076978341 1.7879739e-38 396 304
0.092614569 0.68599999 -0.076978341 1.7787543e-38 397 304
0.093817353 0.68599999 -0.076978341 1.7879373e-38 398 304
0.095020145 0.68599999 -0.076978341 1.7694623e-38 399 304
0.096222922 0.68599999 -0.076978341 1.7602413e-38 400 304
0.097425714 0.68599999 -0.076978341 1.7325468e-38 401 304
0.098340958 0.68400002 -0.076753922 1.7140709e-38 402 304
0.099540241 0.68400002 -0.076753922 1.6864483e-38 403 304
0.10073952 0.68400002 -0.076753922 1.6404223e-38 404 304
0.10238589 0.68699998 -0.077090554 1.6312028e-38 405 304
0.10359043 0.68699998 -0.077090554 1.603653e-38 406 304
0.10494752 0.68800002 -0.077202775 1.5944334e-38 407 304
0.10615382 0.68800002 -0.077202775 1.5759587e-38 408 304
0.10736011 0.68800002 -0.077202775 1.5483359e-38 409 304
0.1093554 0.69300002 -0.077763841 1.5023457e-38 410 304
0.11057046 0.69300002 -0.077763841 1.4838707e-38 411 304
0.11194682 0.69400001 -0.077876054 1.4378803e-38 412 304
0.11348975 0.69599998 -0.078100473 1.4102577e-38 413 304
0.11471007 0.69599998 -0.078100473 1.2720047e-38 414 304
0.11593039 0.69599998 -0.078100473 1.3365417e-38 415 304
0.11731904 0.69700003 -0.078212693 1.456726e-38 416 304
0.077090554 0.68699998 -0.078295097 1.704965e-38 384 305
0.078181133 0.68599999 -0.078181133 1.6865259e-38 385 305
0.079383917 0.68599999 -0.078181133 1.7142527e-38 386 305
0.080586702 0.68599999 -0.078181133 1.7326918e-38 387 305
0.081789486 0.68599999 -0.078181133 1.7694976e-38 388 305
0.082992278 0.68599999 -0.078181133 1.7787172e-38 389 305
0.084195063 0.68599999 -0.078181133 1.7971566e-38 390 305
0.085397847 0.68599999 -0.078181133 1.8248151e-38 391 305
0.086348161 0.68400002 -0.077953197 1.8247433e-38 392 305
0.087547436 0.68400002 -0.077953197 1.7786456e-38 393 305
0.088746719 0.68400002 -0.077953197 1.7784654e-38 394 305
0.089946002 0.68400002 -0.077953197 1.7692458e-38 395 305
0.091145277 0.68400002 -0.077953197 1.7326918e-38 396 305
0.092344552 0.68400002 -0.077953197 1.7511311e-38 397 305
0.093543842 0.68400002 -0.077953197 1.7511311e-38 398 305
0.094743125 0.68400002 -0.077953197 1.7419114e-38 399 305
0.0959424 0.68400002 -0.077953197 1.7510581e-38 400 305
0.097141676 0.68400002 -0.077953197 1.7049963e-38 401 305
0.098197185 0.68300003 -0.077839233 1.6864846e-38 402 305
0.099394716 0.68300003 -0.077839233 1.6588259e-38 403 305
0.10059224 0.68300003 -0.077839233 1.6403867e-38 404 305
0.1019388 0.68400002 -0.077953197 1.6219476e-38 405 305
0.10313808 0.68400002 -0.077953197 1.5944334e-38 406 305
0.10479497 0.68699998 -0.078295097 1.5852138e-38 407 305
0.10599951 0.68699998 -0.078295097 1.5484079e-38 408 305
0.10736011 0.68800002 -0.078409068 1.5207851e-38 409 305
0.10903979 0.69099998 -0.078750968 1.4747593e-38 410 305
0.11057046 0.69300002 -0.078978904 1.45632e-38 411 305
0.11178552 0.69300002 -0.078978904 1.4195138e-38 412 305
0.11316364 0.69400001 -0.079092868 1.373416e-38 413 305
0.11438045 0.69400001 -0.079092868 1.2535301e-38 414 305
0.11559726 0.69400001 -0.079092868 1.3365063e-38 415 305
0.11681408 0.69400001 -0.079092868 1.4382871e-38 416 305
0.074246652 0.68300003 -0.079036765 1.7790141e-38 382 306
0.075444184 0.68300003 -0.079036765 1.6684152e-38 383 306
0.076978341 0.68599999 -0.079383917 1.6958168e-38 384 306
0.077953197 0.68400002 -0.07915248 1.6774137e-38 385 306
0.07915248 0.68400002 -0.07915248 1.751023e-38 386 306
0.080351762 0.68400002 -0.07915248 1.751023e-38 387 306
0.081551038 0.68400002 -0.07915248 1.7603862e-38 388 306
0.082750313 0.68400002 -0.07915248 1.7787894e-38 389 306
0.08382687 0.68300003 -0.079036765 1.7788622e-38 390 306
0.085024394 0.68300003 -0.079036765 1.7972653e-38 391 306
0.086095676 0.68199998 -0.078921035 1.8430026e-38 392 306
0.087291449 0.68199998 -0.078921035 1.7415514e-38 393 306
0.088616975 0.68300003 -0.079036765 1.6680805e-38 394 306
0.089814499 0.68300003 -0.079036765 1.6588609e-38 395 306
0.091012023 0.68300003 -0.079036765 1.6774095e-38 396 306
0.092209555 0.68300003 -0.079036765 1.7419464e-38 397 306
0.09340708 0.68300003 -0.079036765 1.7602426e-38 398 306
0.094604604 0.68300003 -0.079036765 1.751023e-38 399 306
0.095802136 0.68300003 -0.079036765 1.7142158e-38 400 306
0.09699966 0.68300003 -0.079036765 1.6957407e-38 401 306
0.098197185 0.68300003 -0.079036765 1.6589691e-38 402 306
0.099394716 0.68300003 -0.079036765 1.6404941e-38 403 306
0.10059224 0.68300003 -0.079036765 1.603688e-38 404 306
0.10178977 0.68300003 -0.079036765 1.5944684e-38 405 306
0.1029873 0.68300003 -0.079036765 1.5668826e-38 406 306
0.10433736 0.68400002 -0.07915248 1.5484076e-38 407 306
0.10553664 0.68400002 -0.07915248 1.5391526e-38 408 306
0.10720405 0.68699998 -0.079499632 1.5115299e-38 409 306
0.108882 0.69 -0.079846799 1.4655395e-38 410 306
0.11025134 0.69099998 -0.079962514 1.4471002e-38 411 306
0.11178552 0.69300002 -0.080193959 1.4010744e-38 412 306
0.11300059 0.69300002 -0.080193959 1.3549766e-38 413 306
0.11421563 0.69300002 -0.080193959 1.2167242e-38 414 306
0.1154307 0.69300002 -0.080193959 1.3365785e-38 415 306
0.11681408 0.69400001 -0.080309682 1.4198477e-38 416 306
0.073049128 0.68300003 -0.080234289 1.788451e-38 381 307
0.074246652 0.68300003 -0.080234289 1.7881242e-38 382 307
0.075444184 0.68300003 -0.080234289 1.6683058e-38 383 307
0.076753922 0.68400002 -0.080351762 1.6958158e-38 384 307
0.077953197 0.68400002 -0.080351762 1.7050354e-38 385 307
0.07915248 0.68400002 -0.080351762 1.7510586e-38 386 307
0.080351762 0.68400002 -0.080351762 1.7602782e-38 387 307
0.081431814 0.68300003 -0.080234289 1.7787172e-38 388 307
0.082629345 0.68300003 -0.080234289 1.7879726e-38 389 307
0.083704129 0.68199998 -0.080116808 1.7970124e-38 390 307
0.084650926 0.68000001 -0.079881869 1.7140003e-38 391 307
0.085716955 0.67900002 -0.079764389 1.6401351e-38 392 307
0.086907476 0.67900002 -0.079764389 1.5479393e-38 393 307
0.088227727 0.68000001 -0.079881869 1.4561753e-38 394 307
0.089419998 0.68000001 -0.079881869 1.5114568e-38 395 307
0.090612262 0.68000001 -0.079881869 1.6497155e-38 396 307
0.092074543 0.68199998 -0.080116808 1.7326915e-38 397 307
0.093270317 0.68199998 -0.080116808 1.7693177e-38 398 307
0.09446609 0.68199998 -0.080116808 1.7509146e-38 399 307
0.095661856 0.68199998 -0.080116808 1.7418019e-38 400 307
0.09685763 0.68199998 -0.080116808 1.6957041e-38 401 307
0.098053411 0.68199998 -0.080116808 1.6313827e-38 402 307
0.099249184 0.68199998 -0.080116808 1.6129076e-38 403 307
0.10044495 0.68199998 -0.080116808 1.5944687e-38 404 307
0.10164072 0.68199998 -0.080116808 1.5852492e-38 405 307
0.1028365 0.68199998 -0.080116808 1.5484076e-38 406 307
0.10418482 0.68300003 -0.080234289 1.5484076e-38 407 307
0.10538235 0.68300003 -0.080234289 1.5115299e-38 408 307
0.10673591 0.68400002 -0.080351762 1.5023104e-38 409 307
0.10825079 0.68599999 -0.080586702 1.4380252e-38 410 307
0.10977269 0.68800002 -0.080821648 1.401147e-38 411 307
0.1114629 0.69099998 -0.081174068 1.3734533e-38 412 307
0.11300059 0.69300002 -0.081409015 1.3181359e-38 413 307
0.11421563 0.69300002 -0.081409015 1.2533879e-38 414 307
0.1154307 0.69300002 -0.081409015 1.3548031e-38 415 307
0.11664575 0.69300002 -0.081409015 1.3922615e-38 416 307
0.071851604 0.68300003 -0.081431814 1.7608997e-38 380 308
0.072942168 0.68199998 -0.081312582 1.7239854e-38 381 308
0.074137948 0.68199998 -0.081312582 1.7512437e-38 382 308
0.075333714 0.68199998 -0.081312582 1.6314253e-38 383 308
0.076641709 0.68300003 -0.081431814 1.6957787e-38 384 308
0.077839233 0.68300003 -0.081431814 1.7326568e-38 385 308
0.079036765 0.68300003 -0.081431814 1.7602426e-38 386 308
0.080234289 0.68300003 -0.081431814 1.7694623e-38 387 308
0.081312582 0.68199998 -0.081312582 1.7602782e-38 388 308
0.082266398 0.68000001 -0.081074134 1.7141805e-38 389 308
0.083335936 0.67900002 -0.080954902 1.7137117e-38 390 308
0.084526442 0.67900002 -0.080954902 1.621516e-38 391 308
0.085716955 0.67900002 -0.080954902 1.5202082e-38 392 308
0.086907476 0.67900002 -0.080954902 1.4648908e-38 393 308
0.08809799 0.67900002 -0.080954902 1.4007154e-38 394 308
0.089288503 0.67900002 -0.080954902 1.5390088e-38 395 308
0.090479009 0.67900002 -0.080954902 1.6679398e-38 396 308
0.091804534 0.68000001 -0.081074134 1.7324767e-38 397 308
0.092996798 0.68000001 -0.081074134 1.7234001e-38 398 308
0.094189063 0.68000001 -0.081074134 1.7141805e-38 399 308
0.095381334 0.68000001 -0.081074134 1.6957763e-38 400 308
0.096573599 0.68000001 -0.081074134 1.6681536e-38 401 308
0.098053411 0.68199998 -0.081312582 1.6129078e-38 402 308
0.099249184 0.68199998 -0.081312582 1.6036883e-38 403 308
0.10044495 0.68199998 -0.081312582 1.5852138e-38 404 308
0.10164072 0.68199998 -0.081312582 1.5575553e-38 405 308
0.1028365 0.68199998 -0.081312582 1.5391882e-38 406 308
0.10403228 0.68199998 -0.081312582 1.5207851e-38 407 308
0.10538235 0.68300003 -0.081431814 1.4840507e-38 408 308
0.10657988 0.68300003 -0.081431814 1.4656116e-38 409 308
0.1079352 0.68400002 -0.081551038 1.4379529e-38 410 308
0.10961314 0.68699998 -0.081908718 1.4195138e-38 411 308
0.1114629 0.69099998 -0.082385622 1.3456872e-38 412 308
0.11300059 0.69300002 -0.082624078 1.3088091e-38 413 308
0.11421563 0.69300002 -0.082624078 1.2258021e-38 414 308
0.1154307 0.69300002 -0.082624078 1.3179617e-38 415 308
0.11664575 0.69300002 -0.082624078 1.38297e-38 416 308
0.071746394 0.68199998 -0.082508355 1.7517506e-38 380 309
0.072728261 0.68000001 -0.082266398 1.6226769e-38 381 309
0.073920533 0.68000001 -0.082266398 1.6774861e-38 382 309
0.075333714 0.68199998 -0.082508355 1.6590111e-38 383 309
0.076529488 0.68199998 -0.082508355 1.7233653e-38 384 309
0.077839233 0.68300003 -0.082629345 1.7602076e-38 385 309
0.078921035 0.68199998 -0.082508355 1.7879726e-38 386 309
0.080116808 0.68199998 -0.082508355 1.7787172e-38 387 309
0.081312582 0.68199998 -0.082508355 1.741622e-38 388 309
0.082266398 0.68000001 -0.082266398 1.594145e-38 389 309
0.083335936 0.67900002 -0.082145423 1.5015898e-38 390 309
0.084526442 0.67900002 -0.082145423 1.4278333e-38 391 309
0.085590713 0.67799997 -0.082024433 1.3726234e-38 392 309
0.086779475 0.67799997 -0.082024433 1.3726234e-38 393 309
0.08809799 0.67900002 -0.082145423 1.4005708e-38 394 309
0.089288503 0.67900002 -0.082145423 1.5757425e-38 395 309
0.090479009 0.67900002 -0.082145423 1.6403171e-38 396 309
0.091669522 0.67900002 -0.082145423 1.7048539e-38 397 309
0.092860043 0.67900002 -0.082145423 1.7049256e-38 398 309
0.094050556 0.67900002 -0.082145423 1.7049256e-38 399 309
0.095241062 0.67900002 -0.082145423 1.695741e-38 400 309
0.096573599 0.68000001 -0.082266398 1.6588987e-38 401 309
0.09776587 0.68000001 -0.082266398 1.6128725e-38 402 309
0.098958135 0.68000001 -0.082266398 1.5944334e-38 403 309
0.10015039 0.68000001 -0.082266398 1.5759943e-38 404 309
0.10164072 0.68199998 -0.082508355 1.5575553e-38 405 309
0.1028365 0.68199998 -0.082508355 1.5207851e-38 406 309
0.10403228 0.68199998 -0.082508355 1.5115296e-38 407 309
0.10522805 0.68199998 -0.082508355 1.4748312e-38 408 309
0.10657988 0.68300003 -0.082629345 1.4563921e-38 409 309
0.1077774 0.68300003 -0.082629345 1.4195141e-38 410 309
0.10945358 0.68599999 -0.082992278 1.4010391e-38 411 309
0.11097898 0.68800002 -0.083234236 1.3271769e-38 412 309
0.11300059 0.69300002 -0.083839141 1.2995541e-38 413 309
0.11421563 0.69300002 -0.083839141 1.2442052e-38 414 309
0.1154307 0.69300002 -0.083839141 1.3179617e-38 415 309
0.11664575 0.69300002 -0.083839141 1.3645306e-38 416 309
0.071535997 0.68000001 -0.083458669 1.7148347e-38 380 310
0.072728261 0.68000001 -0.083458669 1.5673215e-38 381 310
0.073920533 0.68000001 -0.083458669 1.714112e-38 382 310
0.075112797 0.68000001 -0.083458669 1.7233316e-38 383 310
0.076305062 0.68000001 -0.083458669 1.7142547e-38 384 310
0.077725261 0.68199998 -0.083704129 1.7511329e-38 385 310
0.078921035 0.68199998 -0.083704129 1.7785373e-38 386 310
0.080116808 0.68199998 -0.083704129 1.6494634e-38 387 310
0.081074134 0.68000001 -0.083458669 1.5934966e-38 388 310
0.082145423 0.67900002 -0.083335936 1.4920456e-38 389 310
0.083213195 0.67799997 -0.083213195 1.3908124e-38 390 310
0.08440195 0.67799997 -0.083213195 1.400032e-38 391 310
0.085590713 0.67799997 -0.083213195 1.3908493e-38 392 310
0.086779475 0.67799997 -0.083213195 1.4461308e-38 393 310
0.08796823 0.67799997 -0.083213195 1.4466333e-38 394 310
0.089156993 0.67799997 -0.083213195 1.6402441e-38 395 310
0.090345755 0.67799997 -0.083213195 1.6863789e-38 396 310
0.09153451 0.67799997 -0.083213195 1.7232572e-38 397 310
0.092723273 0.67799997 -0.083213195 1.7049259e-38 398 310
0.094050556 0.67900002 -0.083335936 1.6957062e-38 399 310
0.095241062 0.67900002 -0.083335936 1.6680827e-38 400 310
0.096431576 0.67900002 -0.083335936 1.640424e-38 401 310
0.097622089 0.67900002 -0.083335936 1.6128728e-38 402 310
0.098958135 0.68000001 -0.083458669 1.5851783e-38 403 310
0.10015039 0.68000001 -0.083458669 1.5483356e-38 404 310
0.10164072 0.68199998 -0.083704129 1.5483356e-38 405 310
0.1028365 0.68199998 -0.083704129 1.5115296e-38 406 310
0.10403228 0.68199998 -0.083704129 1.4930905e-38 407 310
0.10522805 0.68199998 -0.083704129 1.4655041e-38 408 310
0.10657988 0.68300003 -0.08382687 1.4562844e-38 409 310
0.1077774 0.68300003 -0.08382687 1.4286257e-38 410 310
0.10913448 0.68400002 -0.083949596 1.3825279e-38 411 310
0.11033376 0.68400002 -0.083949596 1.3179209e-38 412 310
0.11300059 0.69300002 -0.085054204 1.3087014e-38 413 310
0.11421563 0.69300002 -0.085054204 1.2258021e-38 414 310
0.1154307 0.69300002 -0.085054204 1.3179617e-38 415 310
0.11664575 0.69300002 -0.085054204 1.3736783e-38 416 310
0.071430802 0.67900002 -0.084526442 1.686815e-38 380 311
0.072621316 0.67900002 -0.084526442 1.6406812e-38 381 311
0.073811822 0.67900002 -0.084526442 1.7049998e-38 382 311
0.075002335 0.67900002 -0.084526442 1.7142552e-38 383 311
0.076192856 0.67900002 -0.084526442 1.7510607e-38 384 311
0.077497333 0.68000001 -0.084650926 1.7602803e-38 385 311
0.078573883 0.67900002 -0.084526442 1.6769431e-38 386 311
0.079764389 0.67900002 -0.084526442 1.5201747e-38 387 311
0.080954902 0.67900002 -0.084526442 1.3536462e-38 388 311
0.082024433 0.67799997 -0.08440195 1.2891092e-38 389 311
0.083213195 0.67799997 -0.08440195 1.2894711e-38 390 311
0.08440195 0.67799997 -0.08440195 1.354008e-38 391 311
0.085590713 0.67799997 -0.08440195 1.4275114e-38 392 311
0.086779475 0.67799997 -0.08440195 1.5934277e-38 393 311
0.08796823 0.67799997 -0.08440195 1.5113129e-38 394 311
0.089156993 0.67799997 -0.08440195 1.6588259e-38 395 311
0.090345755 0.67799997 -0.08440195 1.6589e-38 396 311
0.09153451 0.67799997 -0.08440195 1.6773391e-38 397 311
0.092723273 0.67799997 -0.08440195 1.6497886e-38 398 311
0.093912028 0.67799997 -0.08440195 1.6405332e-38 399 311
0.09510079 0.67799997 -0.08440195 1.631277e-38 400 311
0.096289553 0.67799997 -0.08440195 1.6036182e-38 401 311
0.097622089 0.67900002 -0.084526442 1.5760671e-38 402 311
0.09881261 0.67900002 -0.084526442 1.5483726e-38 403 311
0.10000312 0.67900002 -0.084526442 1.5391163e-38 404 311
0.10134266 0.68000001 -0.084650926 1.5298967e-38 405 311
0.1028365 0.68199998 -0.084899902 1.4930908e-38 406 311
0.10403228 0.68199998 -0.084899902 1.4838712e-38 407 311
0.10522805 0.68199998 -0.084899902 1.4746157e-38 408 311
0.10657988 0.68300003 -0.085024394 1.446993e-38 409 311
0.1077774 0.68300003 -0.085024394 1.4009678e-38 410 311
0.10897493 0.68300003 -0.085024394 1.3640535e-38 411 311
0.11033376 0.68400002 -0.085148886 1.2995188e-38 412 311
0.11300059 0.69300002 -0.086269259 1.2902992e-38 413 311
0.11421563 0.69300002 -0.086269259 1.198252e-38 414 311
0.1154307 0.69300002 -0.086269259 1.2996672e-38 415 311
0.11664575 0.69300002 -0.086269259 1.3369087e-38 416 311
0.071430802 0.67900002 -0.085716955 1.7141849e-38 380 312
0.072621316 0.67900002 -0.085716955 1.7049653e-38 381 312
0.073811822 0.67900002 -0.085716955 1.7142916e-38 382 312
0.075002335 0.67900002 -0.085716955 1.7327666e-38 383 312
0.076192856 0.67900002 -0.085716955 1.7139305e-38 384 312
0.077383369 0.67900002 -0.085716955 1.5940764e-38 385 312
0.078573883 0.67900002 -0.085716955 1.4000323e-38 386 312
0.079646915 0.67799997 -0.085590713 1.2524834e-38 387 312
0.08083567 0.67799997 -0.085590713 1.1419211e-38 388 312
0.081782483 0.676 -0.085338242 1.1972384e-38 389 312
0.082967728 0.676 -0.085338242 1.3076951e-38 390 312
0.084152982 0.676 -0.085338242 1.4644635e-38 391 312
0.085338242 0.676 -0.085338242 1.4831901e-38 392 312
0.086523488 0.676 -0.085338242 1.7228628e-38 393 312
0.087708741 0.676 -0.085338242 1.6405332e-38 394 312
0.088893995 0.676 -0.085338242 1.6313136e-38 395 312
0.090079248 0.676 -0.085338242 1.6221294e-38 396 312
0.091264501 0.676 -0.085338242 1.6313489e-38 397 312
0.092449754 0.676 -0.085338242 1.631277e-38 398 312
0.093635008 0.676 -0.085338242 1.6220575e-38 399 312
0.094820268 0.676 -0.085338242 1.6312043e-38 400 312
0.096005514 0.676 -0.085338242 1.5943262e-38 401 312
0.097478308 0.67799997 -0.085590713 1.5484079e-38 402 312
0.09866707 0.67799997 -0.085590713 1.5207851e-38 403 312
0.099855833 0.67799997 -0.085590713 1.5298967e-38 404 312
0.10119363 0.67900002 -0.085716955 1.5206413e-38 405 312
0.10253493 0.68000001 -0.085843198 1.4838712e-38 406 312
0.10403228 0.68199998 -0.086095676 1.4838712e-38 407 312
0.10522805 0.68199998 -0.086095676 1.4379536e-38 408 312
0.10657988 0.68300003 -0.086221918 1.4194785e-38 409 312
0.1077774 0.68300003 -0.086221918 1.3365753e-38 410 312
0.10897493 0.68300003 -0.086221918 1.2996612e-38 411 312
0.11033376 0.68400002 -0.086348161 1.2993756e-38 412 312
0.11153304 0.68400002 -0.086348161 1.2993756e-38 413 312
0.113886 0.69099998 -0.087231837 1.2258033e-38 414 312
0.1154307 0.69300002 -0.087484315 1.2995599e-38 415 312
0.11664575 0.69300002 -0.087484315 1.3276894e-38 416 312
0.070136838 0.67799997 -0.086779475 1.6039108e-38 379 313
0.0713256 0.67799997 -0.086779475 1.6958874e-38 380 313
0.072514355 0.67799997 -0.086779475 1.6774843e-38 381 313
0.073703118 0.67799997 -0.086779475 1.7326229e-38 382 313
0.075002335 0.67900002 -0.086907476 1.7326229e-38 383 313
0.076192856 0.67900002 -0.086907476 1.6032606e-38 384 313
0.077383369 0.67900002 -0.086907476 1.4096498e-38 385 313
0.078573883 0.67900002 -0.086907476 1.2340468e-38 386 313
0.079646915 0.67799997 -0.086779475 1.1418153e-38 387 313
0.080597222 0.676 -0.086523488 1.2338685e-38 388 313
0.081782483 0.676 -0.086523488 1.2800023e-38 389 313
0.082967728 0.676 -0.086523488 1.3907786e-38 390 313
0.084152982 0.676 -0.086523488 1.5659863e-38 391 313
0.085212 0.67500001 -0.086395502 1.5389738e-38 392 313
0.086395502 0.67500001 -0.086395502 1.7141455e-38 393 313
0.087578997 0.67500001 -0.086395502 1.7050701e-38 394 313
0.088893995 0.676 -0.086523488 1.6313136e-38 395 313
0.089945994 0.67500001 -0.086395502 1.6313136e-38 396 313
0.091129504 0.67500001 -0.086395502 1.6220941e-38 397 313
0.092312999 0.67500001 -0.086395502 1.6036193e-38 398 313
0.093635008 0.676 -0.086523488 1.5852161e-38 399 313
0.094820268 0.676 -0.086523488 1.5484808e-38 400 313
0.096005514 0.676 -0.086523488 1.5392612e-38 401 313
0.097190768 0.676 -0.086523488 1.5208214e-38 402 313
0.098376028 0.676 -0.086523488 1.5023823e-38 403 313
0.099855833 0.67799997 -0.086779475 1.4930908e-38 404 313
0.1010446 0.67799997 -0.086779475 1.4838712e-38 405 313
0.10253493 0.68000001 -0.087035462 1.4746161e-38 406 313
0.1037272 0.68000001 -0.087035462 1.4562128e-38 407 313
0.10522805 0.68199998 -0.087291449 1.4194435e-38 408 313
0.10657988 0.68300003 -0.087419443 1.3917848e-38 409 313
0.1077774 0.68300003 -0.087419443 1.3180655e-38 410 313
0.10897493 0.68300003 -0.087419443 1.2904067e-38 411 313
0.11033376 0.68400002 -0.087547436 1.2443109e-38 412 313
0.11153304 0.68400002 -0.087547436 1.2443109e-38 413 313
0.113886 0.69099998 -0.088443391 1.1523712e-38 414 313
0.1154307 0.69300002 -0.088699378 1.2353113e-38 415 313
0.06705974 0.671 -0.087060012 1.6408632e-38 377 314
0.068643004 0.67500001 -0.087578997 1.668231e-38 378 314
0.069826499 0.67500001 -0.087578997 1.6774505e-38 379 314
0.071115203 0.676 -0.087708741 1.6957802e-38 380 314
0.072514355 0.67799997 -0.08796823 1.7142552e-38 381 314
0.073703118 0.67799997 -0.08796823 1.70482e-38 382 314
0.074891873 0.67799997 -0.08796823 1.5389037e-38 383 314
0.076080635 0.67799997 -0.08796823 1.2896511e-38 384 314
0.077497333 0.68000001 -0.088227727 1.1144796e-38 385 314
0.078689598 0.68000001 -0.088227727 1.1050813e-38 386 314
0.079764389 0.67900002 -0.08809799 1.1512152e-38 387 314
0.080597222 0.676 -0.087708741 1.2432326e-38 388 314
0.081540518 0.67400002 -0.087449253 1.4553185e-38 389 314
0.082722262 0.67400002 -0.087449253 1.5113539e-38 390 314
0.083904013 0.67400002 -0.087449253 1.6035496e-38 391 314
0.085085757 0.67400002 -0.087449253 1.6865244e-38 392 314
0.086267509 0.67400002 -0.087449253 1.7233666e-38 393 314
0.087449253 0.67400002 -0.087449253 1.6681919e-38 394 314
0.088631004 0.67400002 -0.087449253 1.6313136e-38 395 314
0.089812748 0.67400002 -0.087449253 1.6220575e-38 396 314
0.091129504 0.67500001 -0.087578997 1.6128378e-38 397 314
0.092312999 0.67500001 -0.087578997 1.6036182e-38 398 314
0.093496501 0.67500001 -0.087578997 1.5759237e-38 399 314
0.094679996 0.67500001 -0.087578997 1.5576277e-38 400 314
0.095863499 0.67500001 -0.087578997 1.5207495e-38 401 314
0.097047001 0.67500001 -0.087578997 1.5298967e-38 402 314
0.098376028 0.676 -0.087708741 1.5206413e-38 403 314
0.099561274 0.676 -0.087708741 1.4838712e-38 404 314
0.10074653 0.676 -0.087708741 1.4746157e-38 405 314
0.10238414 0.67900002 -0.08809799 1.4195141e-38 406 314
0.1037272 0.68000001 -0.088227727 1.4102586e-38 407 314
0.10538235 0.68300003 -0.088616975 1.3642334e-38 408 314
0.10657988 0.68300003 -0.088616975 1.3181356e-38 409 314
0.1077774 0.68300003 -0.088616975 1.3086658e-38 410 314
0.10897493 0.68300003 -0.088616975 1.2718235e-38 411 314
0.11017245 0.68300003 -0.088616975 1.2166526e-38 412 314
0.11153304 0.68400002 -0.088746719 1.2166526e-38 413 314
0.11421563 0.69300002 -0.089914441 1.1430441e-38 414 314
0.065883249 0.671 -0.088236496 1.6683761e-38 376 315
0.06705974 0.671 -0.088236496 1.6130588e-38 377 315
0.068541311 0.67400002 -0.088631004 1.6864888e-38 378 315
0.069826499 0.67500001 -0.088762499 1.7141114e-38 379 315
0.071010001 0.67500001 -0.088762499 1.6957802e-38 380 315
0.072300449 0.676 -0.088893995 1.7049998e-38 381 315
0.073485702 0.676 -0.088893995 1.5575571e-38 382 315
0.074670963 0.676 -0.088893995 1.262567e-38 383 315
0.075856209 0.676 -0.088893995 1.1238779e-38 384 315
0.077041462 0.676 -0.088893995 1.0778161e-38 385 315
0.078689598 0.68000001 -0.089419998 1.1790897e-38 386 315
0.079881869 0.68000001 -0.089419998 1.2436266e-38 387 315
0.080358773 0.67400002 -0.088631004 1.3636261e-38 388 315
0.08129856 0.67199999 -0.088367991 1.5203587e-38 389 315
0.082476802 0.67199999 -0.088367991 1.603514e-38 390 315
0.083655037 0.67199999 -0.088367991 1.6680509e-38 391 315
0.084833272 0.67199999 -0.088367991 1.6958508e-38 392 315
0.086011514 0.67199999 -0.088367991 1.6774117e-38 393 315
0.087189756 0.67199999 -0.088367991 1.6680833e-38 394 315
0.088367991 0.67199999 -0.088367991 1.6496083e-38 395 315
0.089546233 0.67199999 -0.088367991 1.6036547e-38 396 315
0.090724476 0.67199999 -0.088367991 1.5760318e-38 397 315
0.091902718 0.67199999 -0.088367991 1.566812e-38 398 315
0.093357988 0.67400002 -0.088631004 1.5391533e-38 399 315
0.094539732 0.67400002 -0.088631004 1.5116021e-38 400 315
0.095721483 0.67400002 -0.088631004 1.5023467e-38 401 315
0.097047001 0.67500001 -0.088762499 1.4839791e-38 402 315
0.098230496 0.67500001 -0.088762499 1.4747596e-38 403 315
0.099413998 0.67500001 -0.088762499 1.4655044e-38 404 315
0.10074653 0.676 -0.088893995 1.4562849e-38 405 315
0.10238414 0.67900002 -0.089288503 1.4102592e-38 406 315
0.1037272 0.68000001 -0.089419998 1.3733811e-38 407 315
0.10522805 0.68199998 -0.089682996 1.345687e-38 408 315
0.10642382 0.68199998 -0.089682996 1.2995891e-38 409 315
0.1077774 0.68300003 -0.089814499 1.2626405e-38 410 315
0.10897493 0.68300003 -0.089814499 1.234982e-38 411 315
0.11017245 0.68300003 -0.089814499 1.1798468e-38 412 315
0.11153304 0.68400002 -0.089946002 1.1890665e-38 413 315
0.06598144 0.67199999 -0.089546233 1.6221687e-38 376 316
0.067159683 0.67199999 -0.089546233 1.6313884e-38 377 316
0.068541311 0.67400002 -0.089812748 1.6865962e-38 378 316
0.069516152 0.67199999 -0.089546233 1.7050354e-38 379 316
0.070694394 0.67199999 -0.089546233 1.686631e-38 380 316
0.07208655 0.67400002 -0.089812748 1.6405332e-38 381 316
0.073268294 0.67400002 -0.089812748 1.4561732e-38 382 316
0.074450038 0.67400002 -0.089812748 1.0966101e-38 383 316
0.07563179 0.67400002 -0.089812748 1.0502972e-38 384 316
0.077041462 0.676 -0.090079248 1.096431e-38 385 316
0.078226723 0.676 -0.090079248 1.2900473e-38 386 316
0.079177029 0.67400002 -0.089812748 1.4283766e-38 387 316
0.080358773 0.67400002 -0.089812748 1.5574517e-38 388 316
0.08129856 0.67199999 -0.089546233 1.6496474e-38 389 316
0.082476802 0.67199999 -0.089546233 1.7050001e-38 390 316
0.083655037 0.67199999 -0.089546233 1.7050001e-38 391 316
0.084833272 0.67199999 -0.089546233 1.6774114e-38 392 316
0.086011514 0.67199999 -0.089546233 1.6405332e-38 393 316
0.087189756 0.67199999 -0.089546233 1.6496083e-38 394 316
0.088367991 0.67199999 -0.089546233 1.631169e-38 395 316
0.089546233 0.67199999 -0.089546233 1.6035826e-38 396 316
0.090724476 0.67199999 -0.089546233 1.5759239e-38 397 316
0.091902718 0.67199999 -0.089546233 1.5300416e-38 398 316
0.093080953 0.67199999 -0.089546233 1.5115665e-38 399 316
0.094259195 0.67199999 -0.089546233 1.5115302e-38 400 316
0.095721483 0.67400002 -0.089812748 1.4930552e-38 401 316
0.096903227 0.67400002 -0.089812748 1.4655041e-38 402 316
0.098230496 0.67500001 -0.089945994 1.4655041e-38 403 316
0.099413998 0.67500001 -0.089945994 1.4286981e-38 404 316
0.10074653 0.676 -0.090079248 1.4102589e-38 405 316
0.10223336 0.67799997 -0.090345755 1.3917845e-38 406 316
0.10357466 0.67900002 -0.090479009 1.3456867e-38 407 316
0.10522805 0.68199998 -0.090878762 1.2995897e-38 408 316
0.10642382 0.68199998 -0.090878762 1.2626756e-38 409 316
0.10761959 0.68199998 -0.090878762 1.2166146e-38 410 316
0.10881536 0.68199998 -0.090878762 1.1982115e-38 411 316
0.11017245 0.68300003 -0.091012023 1.1613718e-38 412 316
0.11153304 0.68400002 -0.091145277 1.1705913e-38 413 316
0.06381432 0.67400002 -0.090994492 1.659121e-38 374 317
0.064803198 0.67199999 -0.090724476 1.6130232e-38 375 317
0.06598144 0.67199999 -0.090724476 1.6497183e-38 376 317
0.067159683 0.67199999 -0.090724476 1.6865607e-38 377 317
0.068337917 0.67199999 -0.090724476 1.677484e-38 378 317
0.069412716 0.671 -0.090589471 1.6958871e-38 379 317
0.0705892 0.671 -0.090589471 1.686666e-38 380 317
0.071765684 0.671 -0.090589471 1.6129095e-38 381 317
0.072942175 0.671 -0.090589471 1.5574457e-38 382 317
0.074008204 0.67000002 -0.090454467 1.4007131e-38 383 317
0.074958503 0.66799998 -0.090184443 1.354545e-38 384 317
0.076015763 0.667 -0.090049446 1.37302e-38 385 317
0.077185236 0.667 -0.090049446 1.4468879e-38 386 317
0.078354709 0.667 -0.090049446 1.5482672e-38 387 317
0.080001086 0.671 -0.090589471 1.640535e-38 388 317
0.081177577 0.671 -0.090589471 1.6682297e-38 389 317
0.082354069 0.671 -0.090589471 1.714147e-38 390 317
0.083530545 0.671 -0.090589471 1.6957439e-38 391 317
0.084833272 0.67199999 -0.090724476 1.7048539e-38 392 317
0.086011514 0.67199999 -0.090724476 1.6403171e-38 393 317
0.087189756 0.67199999 -0.090724476 1.631169e-38 394 317
0.088367991 0.67199999 -0.090724476 1.6035463e-38 395 317
0.089546233 0.67199999 -0.090724476 1.5575927e-38 396 317
0.090724476 0.67199999 -0.090724476 1.5483373e-38 397 317
0.091902718 0.67199999 -0.090724476 1.5207142e-38 398 317
0.093080953 0.67199999 -0.090724476 1.5114946e-38 399 317
0.094259195 0.67199999 -0.090724476 1.4930555e-38 400 317
0.095721483 0.67400002 -0.090994492 1.4838359e-38 401 317
0.096903227 0.67400002 -0.090994492 1.4470296e-38 402 317
0.098084971 0.67400002 -0.090994492 1.43781e-38 403 317
0.099413998 0.67500001 -0.091129504 1.4010041e-38 404 317
0.10059749 0.67500001 -0.091129504 1.3917845e-38 405 317
0.10193179 0.676 -0.091264501 1.3548712e-38 406 317
0.10357466 0.67900002 -0.091669522 1.2995897e-38 407 317
0.10491946 0.68000001 -0.091804534 1.2442371e-38 408 317
0.10642382 0.68199998 -0.092074543 1.2073229e-38 409 317
0.10761959 0.68199998 -0.092074543 1.1798089e-38 410 317
0.10881536 0.68199998 -0.092074543 1.1614058e-38 411 317
0.11017245 0.68300003 -0.092209555 1.1337504e-38 412 317
0.11153304 0.68400002 -0.092344552 1.1153112e-38 413 317
0.062632568 0.67400002 -0.092176244 1.6778137e-38 373 318
0.06381432 0.67400002 -0.092176244 1.5761076e-38 374 318
0.064706765 0.671 -0.091765963 1.6129859e-38 375 318
0.065883249 0.671 -0.091765963 1.6590096e-38 376 318
0.06705974 0.671 -0.091765963 1.6774487e-38 377 318
0.068236224 0.671 -0.091765963 1.677484e-38 378 318
0.069309272 0.67000002 -0.0916292 1.6958871e-38 379 318
0.070483997 0.67000002 -0.0916292 1.6866663e-38 380 318
0.071444817 0.66799998 -0.091355674 1.6405685e-38 381 318
0.072616048 0.66799998 -0.091355674 1.6313489e-38 382 318
0.073787279 0.66799998 -0.091355674 1.6036901e-38 383 318
0.07484629 0.667 -0.091218919 1.5942559e-38 384 318
0.076015763 0.667 -0.091218919 1.5758167e-38 385 318
0.077185236 0.667 -0.091218919 1.5850729e-38 386 318
0.078354709 0.667 -0.091218919 1.6496098e-38 387 318
0.079524182 0.667 -0.091218919 1.6590096e-38 388 318
0.081056595 0.67000002 -0.0916292 1.6682291e-38 389 318
0.082231335 0.67000002 -0.0916292 1.6773764e-38 390 318
0.083406061 0.67000002 -0.0916292 1.6497177e-38 391 318
0.084707037 0.671 -0.091765963 1.6312423e-38 392 318
0.085883528 0.671 -0.091765963 1.6035476e-38 393 318
0.087060012 0.671 -0.091765963 1.5943633e-38 394 318
0.088236496 0.671 -0.091765963 1.5758883e-38 395 318
0.089412987 0.671 -0.091765963 1.5207865e-38 396 318
0.090589471 0.671 -0.091765963 1.5115668e-38 397 318
0.091765963 0.671 -0.091765963 1.5022753e-38 398 318
0.093080953 0.67199999 -0.091902718 1.4930558e-38 399 318
0.094259195 0.67199999 -0.091902718 1.4655047e-38 400 318
0.095437437 0.67199999 -0.091902718 1.4562493e-38 401 318
0.096903227 0.67400002 -0.092176244 1.4194788e-38 402 318
0.098084971 0.67400002 -0.092176244 1.3917842e-38 403 318
0.099413998 0.67500001 -0.092312999 1.3549784e-38 404 318
0.10059749 0.67500001 -0.092312999 1.3181362e-38 405 318
0.10193179 0.676 -0.092449754 1.2996259e-38 406 318
0.10342211 0.67799997 -0.092723273 1.2351248e-38 407 318
0.10476518 0.67900002 -0.092860043 1.1798084e-38 408 318
0.10611173 0.68000001 -0.092996798 1.1614053e-38 409 318
0.107304 0.68000001 -0.092996798 1.1613349e-38 410 318
0.10881536 0.68199998 -0.093270317 1.1521154e-38 411 318
0.11001115 0.68199998 -0.093270317 1.1152762e-38 412 318
0.061268479 0.67199999 -0.093080953 1.6408263e-38 372 319
0.062446721 0.67199999 -0.093080953 1.5578501e-38 373 319
0.063624956 0.67199999 -0.093080953 1.5945092e-38 374 319
0.064706765 0.671 -0.092942439 1.6222038e-38 375 319
0.065883249 0.671 -0.092942439 1.6681566e-38 376 319
0.06705974 0.671 -0.092942439 1.6865957e-38 377 319
0.068236224 0.671 -0.092942439 1.6775196e-38 378 319
0.069309272 0.67000002 -0.092803933 1.6775196e-38 379 319
0.070273593 0.66799998 -0.092526905 1.6682995e-38 380 319
0.071337871 0.667 -0.092388391 1.6590799e-38 381 319
0.072507344 0.667 -0.092388391 1.6406051e-38 382 319
0.073676817 0.667 -0.092388391 1.6498606e-38 383 319
0.07484629 0.667 -0.092388391 1.6681566e-38 384 319
0.076015763 0.667 -0.092388391 1.6497533e-38 385 319
0.077185236 0.667 -0.092388391 1.6956711e-38 386 319
0.078354709 0.667 -0.092388391 1.6864514e-38 387 319
0.079524182 0.667 -0.092388391 1.6405335e-38 388 319
0.080693655 0.667 -0.092388391 1.649753e-38 389 319
0.081863128 0.667 -0.092388391 1.6864158e-38 390 319
0.083157085 0.66799998 -0.092526905 1.6587931e-38 391 319
0.084580801 0.67000002 -0.092803933 1.6311341e-38 392 319
0.085883528 0.671 -0.092942439 1.6219144e-38 393 319
0.086930268 0.67000002 -0.092803933 1.5758883e-38 394 319
0.088105001 0.67000002 -0.092803933 1.5574852e-38 395 319
0.089412987 0.671 -0.092942439 1.5023823e-38 396 319
0.090589471 0.671 -0.092942439 1.4655041e-38 397 319
0.091765963 0.671 -0.092942439 1.465575e-38 398 319
0.092942439 0.671 -0.092942439 1.4470999e-38 399 319
0.094259195 0.67199999 -0.093080953 1.4470283e-38 400 319
0.095437437 0.67199999 -0.093080953 1.4378087e-38 401 319
0.09661568 0.67199999 -0.093080953 1.4102224e-38 402 319
0.098084971 0.67400002 -0.093357988 1.3640885e-38 403 319
0.099413998 0.67500001 -0.093496501 1.3271754e-38 404 319
0.10059749 0.67500001 -0.093496501 1.3087361e-38 405 319
0.10193179 0.676 -0.093635008 1.2442369e-38 406 319
0.10342211 0.67799997 -0.093912028 1.1796999e-38 407 319
0.10461088 0.67799997 -0.093912028 1.1704456e-38 408 319
0.10611173 0.68000001 -0.094189063 1.1704456e-38 409 319
0.107304 0.68000001 -0.094189063 1.1337131e-38 410 319
0.10881536 0.68199998 -0.09446609 1.1153098e-38 411 319
0.058824331 0.671 -0.09411893 1.7974886e-38 370 320
0.060000818 0.671 -0.09411893 1.7145125e-38 371 320
0.061177302 0.671 -0.09411893 1.5578117e-38 372 320
0.06235379 0.671 -0.09411893 1.5116779e-38 373 320
0.063530281 0.671 -0.09411893 1.5762133e-38 374 320
0.064610332 0.67000002 -0.093978666 1.5946524e-38 375 320
0.065785065 0.67000002 -0.093978666 1.6130558e-38 376 320
0.066959806 0.67000002 -0.093978666 1.6314951e-38 377 320
0.068134531 0.67000002 -0.093978666 1.6591171e-38 378 320
0.069102369 0.66799998 -0.093698129 1.6498616e-38 379 320
0.070168398 0.667 -0.093557864 1.6590799e-38 380 320
0.071337871 0.667 -0.093557864 1.6406407e-38 381 320
0.072507344 0.667 -0.093557864 1.6313855e-38 382 320
0.073676817 0.667 -0.093557864 1.6313855e-38 383 320
0.07484629 0.667 -0.093557864 1.6130546e-38 384 320
0.076015763 0.667 -0.093557864 1.6130546e-38 385 320
0.077185236 0.667 -0.093557864 1.6314211e-38 386 320
0.078354709 0.667 -0.093557864 1.6129821e-38 387 320
0.079524182 0.667 -0.093557864 1.6036196e-38 388 320
0.080693655 0.667 -0.093557864 1.6128392e-38 389 320
0.081863128 0.667 -0.093557864 1.6036922e-38 390 320
