# .PCD v.7 - Point Cloud Data file format
FIELDS x y z rgb imX imY
SIZE 4 4 4 4 4 4
TYPE F F F F F F
COUNT 1 1 1 1 1 1
WIDTH 835
HEIGHT 1
VIEWPOINT 0 0 0 1 0 0 0
POINTS 835
DATA ascii
-0.057449725 0.76200002 -0.030728921 1.8708055e-38 277 263
-0.056260962 0.764 -0.030809574 1.8247077e-38 278 263
-0.055065181 0.76599997 -0.030890226 1.797049e-38 279 263
-0.053722132 0.76599997 -0.030890226 1.778575e-38 280 263
-0.052379075 0.76599997 -0.030890226 1.7416966e-38 281 263
-0.051102653 0.76700002 -0.030930554 1.6865591e-38 282 263
-0.049757849 0.76700002 -0.030930554 1.6589003e-38 283 263
-0.048413042 0.76700002 -0.030930554 1.631277e-38 284 263
-0.047190964 0.76899999 -0.031011207 1.5759237e-38 285 263
-0.045842651 0.76899999 -0.031011207 1.5207145e-38 286 263
-0.044725779 0.773 -0.03117251 1.4838003e-38 287 263
-0.043370452 0.773 -0.03117251 1.4287e-38 288 263
-0.042069476 0.77399999 -0.031212838 1.3918576e-38 289 263
-0.040712398 0.77399999 -0.031212838 1.2997712e-38 290 263
-0.039457016 0.77600002 -0.031293493 1.3089907e-38 291 263
-0.038096428 0.77600002 -0.031293493 1.3649607e-38 292 263
-0.036830518 0.778 -0.031374145 1.5861942e-38 293 263
-0.035557598 0.77999997 -0.031454798 1.9174555e-38 294 263
-0.078516021 0.759 -0.031938717 1.925512e-38 261 264
-0.076981857 0.75700003 -0.031854562 1.8708755e-38 262 264
-0.075654581 0.75700003 -0.031854562 1.8985701e-38 263 264
-0.074327305 0.75700003 -0.031854562 1.9261565e-38 264 264
-0.073000036 0.75700003 -0.031854562 1.9629989e-38 265 264
-0.07167276 0.75700003 -0.031854562 1.9906215e-38 266 264
-0.070345491 0.75700003 -0.031854562 1.9813661e-38 267 264
-0.069018215 0.75700003 -0.031854562 1.9720019e-38 268 264
-0.067690939 0.75700003 -0.031854562 1.9535628e-38 269 264
-0.06636367 0.75700003 -0.031854562 1.8984266e-38 270 264
-0.065036394 0.75700003 -0.031854562 1.9169016e-38 271 264
-0.063877434 0.759 -0.031938717 1.9445257e-38 272 264
-0.062546656 0.759 -0.031938717 1.9445257e-38 273 264
-0.061215881 0.759 -0.031938717 1.9168663e-38 274 264
-0.060042895 0.76099998 -0.032022879 1.9076467e-38 275 264
-0.058708608 0.76099998 -0.032022879 1.8616207e-38 276 264
-0.057374325 0.76099998 -0.032022879 1.8247783e-38 277 264
-0.056113683 0.76200002 -0.032064959 1.7970487e-38 278 264
-0.054921411 0.764 -0.032149121 1.7786456e-38 279 264
-0.053581864 0.764 -0.032149121 1.7326202e-38 280 264
-0.052379075 0.76599997 -0.032233275 1.6957059e-38 281 264
-0.051036026 0.76599997 -0.032233275 1.658935e-38 282 264
-0.049757849 0.76700002 -0.03227536 1.6220928e-38 283 264
-0.048413042 0.76700002 -0.03227536 1.566812e-38 284 264
-0.047190964 0.76899999 -0.032359518 1.5114946e-38 285 264
-0.045842651 0.76899999 -0.032359518 1.4654344e-38 286 264
-0.044725779 0.773 -0.032527838 1.4469592e-38 287 264
-0.043370452 0.773 -0.032527838 1.4010416e-38 288 264
-0.042069476 0.77399999 -0.032569919 1.3641634e-38 289 264
-0.040712398 0.77399999 -0.032569919 1.3366511e-38 290 264
-0.039355319 0.77399999 -0.032569919 1.4933835e-38 291 264
-0.037998237 0.77399999 -0.032569919 1.7795182e-38 292 264
-0.079636402 0.75700003 -0.033181835 1.8613335e-38 260 265
-0.078309126 0.75700003 -0.033181835 1.8798085e-38 261 265
-0.076981857 0.75700003 -0.033181835 1.8984616e-38 262 265
-0.075654581 0.75700003 -0.033181835 1.9169366e-38 263 265
-0.074327305 0.75700003 -0.033181835 1.9537074e-38 264 265
-0.073000036 0.75700003 -0.033181835 1.9813661e-38 265 265
-0.07167276 0.75700003 -0.033181835 1.9906215e-38 266 265
-0.070345491 0.75700003 -0.033181835 1.9906215e-38 267 265
-0.069018215 0.75700003 -0.033181835 1.9905134e-38 268 265
-0.067690939 0.75700003 -0.033181835 1.9812938e-38 269 265
-0.066188328 0.755 -0.033094164 1.9629273e-38 270 265
-0.064864561 0.755 -0.033094164 1.9536718e-38 271 265
-0.063540794 0.755 -0.033094164 1.9077545e-38 272 265
-0.062217031 0.755 -0.033094164 1.8985348e-38 273 265
-0.060893264 0.755 -0.033094164 1.8984266e-38 274 265
-0.059727304 0.75700003 -0.033181835 1.8800235e-38 275 265
-0.058554318 0.759 -0.033269498 1.8523291e-38 276 265
-0.05722354 0.759 -0.033269498 1.8154868e-38 277 265
-0.056113683 0.76200002 -0.033401001 1.7970121e-38 278 265
-0.054777641 0.76200002 -0.033401001 1.7785729e-38 279 265
-0.053441599 0.76200002 -0.033401001 1.7141805e-38 280 265
-0.052242316 0.764 -0.033488665 1.6588631e-38 281 265
-0.051036026 0.76599997 -0.033576332 1.5851783e-38 282 265
-0.04969297 0.76599997 -0.033576332 1.5483359e-38 283 265
-0.048413042 0.76700002 -0.033620168 1.5206063e-38 284 265
-0.047068235 0.76700002 -0.033620168 1.5113867e-38 285 265
-0.045842651 0.76899999 -0.033707831 1.4561792e-38 286 265
-0.044610061 0.77100003 -0.033795502 1.4377399e-38 287 265
-0.043370452 0.773 -0.033883166 1.3825672e-38 288 265
-0.042015124 0.773 -0.033883166 1.3549083e-38 289 265
-0.0406598 0.773 -0.033883166 1.585509e-38 290 265
-0.039304473 0.773 -0.033883166 1.8528763e-38 291 265
-0.037998237 0.77399999 -0.033927001 1.9819544e-38 292 265
-0.080642812 0.75400001 -0.034372345 1.9528477e-38 259 266
-0.079320803 0.75400001 -0.034372345 1.8431092e-38 260 266
-0.077998787 0.75400001 -0.034372345 1.8615844e-38 261 266
-0.076778464 0.755 -0.034417931 1.8984972e-38 262 266
-0.075454697 0.755 -0.034417931 1.9353756e-38 263 266
-0.074327305 0.75700003 -0.034509107 1.9721465e-38 264 266
-0.07280717 0.755 -0.034417931 1.9906215e-38 265 266
-0.071483396 0.755 -0.034417931 2.0181723e-38 266 266
-0.070159629 0.755 -0.034417931 2.0181723e-38 267 266
-0.068835862 0.755 -0.034417931 2.0180997e-38 268 266
-0.067512102 0.755 -0.034417931 1.9996608e-38 269 266
-0.066100664 0.75400001 -0.034372345 1.9628904e-38 270 266
-0.064778648 0.75400001 -0.034372345 1.9536707e-38 271 266
-0.06345664 0.75400001 -0.034372345 1.9536357e-38 272 266
-0.062134624 0.75400001 -0.034372345 1.9259411e-38 273 266
-0.060812615 0.75400001 -0.034372345 1.898355e-38 274 266
-0.059569497 0.755 -0.034417931 1.8522572e-38 275 266
-0.058400027 0.75700003 -0.034509107 1.7879726e-38 276 266
-0.05722354 0.759 -0.034600276 1.7694976e-38 277 266
-0.056040037 0.76099998 -0.034691449 1.7509149e-38 278 266
-0.05470575 0.76099998 -0.034691449 1.7324399e-38 279 266
-0.053441599 0.76200002 -0.034737039 1.6588997e-38 280 266
-0.052242316 0.764 -0.034828212 1.6128378e-38 281 266
-0.050902773 0.764 -0.034828212 1.5114593e-38 282 266
-0.04969297 0.76599997 -0.034919381 1.5022397e-38 283 266
-0.048349917 0.76599997 -0.034919381 1.4929849e-38 284 266
-0.047068235 0.76700002 -0.034964975 1.4745457e-38 285 266
-0.045723427 0.76700002 -0.034964975 1.428593e-38 286 266
-0.044494338 0.76899999 -0.035056144 1.4193734e-38 287 266
-0.043146025 0.76899999 -0.035056144 1.3549813e-38 288 266
-0.042015124 0.773 -0.035238493 1.4102987e-38 289 266
-0.0406598 0.773 -0.035238493 1.751174e-38 290 266
-0.039304473 0.773 -0.035238493 2.0277609e-38 291 266
-0.081747405 0.75199997 -0.035599679 1.8796282e-38 258 267
-0.080428898 0.75199997 -0.035599679 1.8888836e-38 259 267
-0.079110399 0.75199997 -0.035599679 1.8432878e-38 260 267
-0.077791892 0.75199997 -0.035599679 1.8709106e-38 261 267
-0.076676771 0.75400001 -0.035694357 1.9168645e-38 262 267
-0.075354755 0.75400001 -0.035694357 1.9537427e-38 263 267
-0.074032739 0.75400001 -0.035694357 1.9814017e-38 264 267
-0.07271073 0.75400001 -0.035694357 2.0090244e-38 265 267
-0.071199358 0.75199997 -0.035599679 2.018172e-38 266 267
-0.069880851 0.75199997 -0.035599679 2.018172e-38 267 267
-0.068562344 0.75199997 -0.035599679 1.9906213e-38 268 267
-0.067422673 0.75400001 -0.035694357 1.9814017e-38 269 267
-0.06592533 0.75199997 -0.035599679 1.962927e-38 270 267
-0.064606823 0.75199997 -0.035599679 1.9444877e-38 271 267
-0.063288316 0.75199997 -0.035599679 1.9168292e-38 272 267
-0.061969809 0.75199997 -0.035599679 1.9076096e-38 273 267
-0.060651302 0.75199997 -0.035599679 1.8523644e-38 274 267
-0.059490599 0.75400001 -0.035694357 1.8154863e-38 275 267
-0.058168583 0.75400001 -0.035694357 1.806267e-38 276 267
-0.056921966 0.755 -0.035741698 1.7785723e-38 277 267
-0.055745479 0.75700003 -0.03583638 1.7233275e-38 278 267
-0.054561976 0.759 -0.035931058 1.7049242e-38 279 267
-0.053441599 0.76200002 -0.036073081 1.5943981e-38 280 267
-0.052105557 0.76200002 -0.036073081 1.5483362e-38 281 267
-0.050902773 0.764 -0.036167759 1.4837284e-38 282 267
-0.049563225 0.764 -0.036167759 1.4929839e-38 283 267
-0.048349917 0.76599997 -0.036262438 1.4562145e-38 284 267
-0.047068235 0.76700002 -0.036309779 1.4469948e-38 285 267
-0.045723427 0.76700002 -0.036309779 1.4194087e-38 286 267
-0.04437862 0.76700002 -0.036309779 1.3917141e-38 287 267
-0.043033812 0.76700002 -0.036309779 1.4378513e-38 288 267
-0.041797712 0.76899999 -0.036404461 1.6130232e-38 289 267
-0.0406598 0.773 -0.036593821 1.8064583e-38 290 267
-0.085474998 0.75 -0.036819998 2.0256003e-38 255 268
-0.08416 0.75 -0.036819998 1.9525243e-38 256 268
-0.08306592 0.75199997 -0.036918186 1.9893667e-38 257 268
-0.081747405 0.75199997 -0.036918186 1.8430727e-38 258 268
-0.080428898 0.75199997 -0.036918186 1.8707312e-38 259 268
-0.079110399 0.75199997 -0.036918186 1.8617263e-38 260 268
-0.077791892 0.75199997 -0.036918186 1.8986404e-38 261 268
-0.076269999 0.75 -0.036819998 1.9354112e-38 262 268
-0.074954994 0.75 -0.036819998 1.9630339e-38 263 268
-0.073836371 0.75199997 -0.036918186 1.972254e-38 264 268
-0.072517857 0.75199997 -0.036918186 1.9906931e-38 265 268
-0.071199358 0.75199997 -0.036918186 1.9906931e-38 266 268
-0.069694996 0.75 -0.036819998 1.9814736e-38 267 268
-0.068379998 0.75 -0.036819998 1.9814014e-38 268 268
-0.067243837 0.75199997 -0.036918186 1.9721819e-38 269 268
-0.06592533 0.75199997 -0.036918186 1.9537427e-38 270 268
-0.064606823 0.75199997 -0.036918186 1.9444872e-38 271 268
-0.063288316 0.75199997 -0.036918186 1.9076452e-38 272 268
-0.061969809 0.75199997 -0.036918186 1.8799505e-38 273 268
-0.060651302 0.75199997 -0.036918186 1.8430729e-38 274 268
-0.059332799 0.75199997 -0.036918186 1.8246338e-38 275 268
-0.058168583 0.75400001 -0.037016369 1.7877921e-38 276 268
-0.056846574 0.75400001 -0.037016369 1.7509499e-38 277 268
-0.055598196 0.755 -0.037065465 1.6864492e-38 278 268
-0.054418206 0.75700003 -0.037163652 1.6680101e-38 279 268
-0.053371463 0.76099998 -0.037360024 1.5391529e-38 280 268
-0.052105557 0.76200002 -0.037409119 1.5207498e-38 281 268
-0.050769519 0.76200002 -0.037409119 1.4746892e-38 282 268
-0.049433477 0.76200002 -0.037409119 1.4562142e-38 283 268
-0.048223678 0.764 -0.037507307 1.428628e-38 284 268
-0.047006864 0.76599997 -0.037605491 1.4194084e-38 285 268
-0.045723427 0.76700002 -0.037654586 1.3917867e-38 286 268
-0.04437862 0.76700002 -0.037654586 1.3825672e-38 287 268
-0.043033812 0.76700002 -0.037654586 1.4746947e-38 288 268
-0.041689005 0.76700002 -0.037654586 1.6498663e-38 289 268
-0.08702144 0.75199997 -0.038236689 1.9800417e-38 254 269
-0.085474998 0.75 -0.038135 1.970822e-38 255 269
-0.08416 0.75 -0.038135 1.907036e-38 256 269
-0.082844995 0.75 -0.038135 1.9254392e-38 257 269
-0.081529997 0.75 -0.038135 1.8248486e-38 258 269
-0.080215 0.75 -0.038135 1.861691e-38 259 269
-0.078899994 0.75 -0.038135 1.9077521e-38 260 269
-0.077481553 0.74900001 -0.038084153 1.9354109e-38 261 269
-0.076168306 0.74900001 -0.038084153 1.9354828e-38 262 269
-0.074855059 0.74900001 -0.038084153 1.9539578e-38 263 269
-0.073639996 0.75 -0.038135 1.9631418e-38 264 269
-0.072324999 0.75 -0.038135 1.9631418e-38 265 269
-0.070915319 0.74900001 -0.038084153 1.9814733e-38 266 269
-0.069602072 0.74900001 -0.038084153 1.9722537e-38 267 269
-0.068288825 0.74900001 -0.038084153 1.9446311e-38 268 269
-0.066975579 0.74900001 -0.038084153 1.9353756e-38 269 269
-0.065749995 0.75 -0.038135 1.916972e-38 270 269
-0.064434998 0.75 -0.038135 1.9077165e-38 271 269
-0.06312 0.75 -0.038135 1.8983888e-38 272 269
-0.061804999 0.75 -0.038135 1.8706941e-38 273 269
-0.060651302 0.75199997 -0.038236689 1.8155216e-38 274 269
-0.059332799 0.75199997 -0.038236689 1.7878628e-38 275 269
-0.058168583 0.75400001 -0.038338386 1.7602058e-38 276 269
-0.056846574 0.75400001 -0.038338386 1.7325471e-38 277 269
-0.055524562 0.75400001 -0.038338386 1.6219848e-38 278 269
-0.054274432 0.755 -0.038389232 1.5758871e-38 279 269
-0.053231198 0.759 -0.038592618 1.4838356e-38 280 269
-0.052037176 0.76099998 -0.038694311 1.5022748e-38 281 269
-0.050769519 0.76200002 -0.038745161 1.4563217e-38 282 269
-0.049433477 0.76200002 -0.038745161 1.428663e-38 283 269
-0.048223678 0.764 -0.038846854 1.4194087e-38 284 269
-0.047006864 0.76599997 -0.038948543 1.4101533e-38 285 269
-0.045723427 0.76700002 -0.038999394 1.3918592e-38 286 269
-0.04437862 0.76700002 -0.038999394 1.4010789e-38 287 269
-0.043033812 0.76700002 -0.038999394 1.4655114e-38 288 269
-0.041689005 0.76700002 -0.038999394 1.5393038e-38 289 269
-0.08702144 0.75199997 -0.039555199 1.9164404e-38 254 270
-0.085474998 0.75 -0.039449997 1.8519035e-38 255 270
-0.08416 0.75 -0.039449997 1.8244913e-38 256 270
-0.082844995 0.75 -0.039449997 1.8613335e-38 257 270
-0.081529997 0.75 -0.039449997 1.8432878e-38 258 270
-0.080215 0.75 -0.039449997 1.8893856e-38 259 270
-0.0787948 0.74900001 -0.0393974 1.916972e-38 260 270
-0.077481553 0.74900001 -0.0393974 1.9446308e-38 261 270
-0.07596492 0.74699998 -0.039292198 1.9447746e-38 262 270
-0.074655175 0.74699998 -0.039292198 1.9539941e-38 263 270
-0.073345438 0.74699998 -0.039292198 1.9631424e-38 264 270
-0.072228566 0.74900001 -0.0393974 1.9631424e-38 265 270
-0.070725955 0.74699998 -0.039292198 1.9538869e-38 266 270
-0.069416218 0.74699998 -0.039292198 1.9446674e-38 267 270
-0.068106472 0.74699998 -0.039292198 1.9261559e-38 268 270
-0.066796735 0.74699998 -0.039292198 1.9169364e-38 269 270
-0.065662332 0.74900001 -0.0393974 1.9077165e-38 270 270
-0.064349085 0.74900001 -0.0393974 1.898497e-38 271 270
-0.063035838 0.74900001 -0.0393974 1.8616543e-38 272 270
-0.061804999 0.75 -0.039449997 1.8063371e-38 273 270
-0.060489997 0.75 -0.039449997 1.7970823e-38 274 270
-0.059332799 0.75199997 -0.039555199 1.7786432e-38 275 270
-0.058014289 0.75199997 -0.039555199 1.7142158e-38 276 270
-0.056695782 0.75199997 -0.039555199 1.6957407e-38 277 270
-0.055524562 0.75400001 -0.039660402 1.5759234e-38 278 270
-0.054274432 0.755 -0.039712999 1.5298614e-38 279 270
-0.053090934 0.75700003 -0.039818201 1.5114946e-38 280 270
-0.051900417 0.759 -0.0399234 1.4930555e-38 281 270
-0.050702889 0.76099998 -0.040028598 1.428735e-38 282 270
-0.049433477 0.76200002 -0.040081199 1.4195153e-38 283 270
-0.048097439 0.76200002 -0.040081199 1.4010772e-38 284 270
-0.047006864 0.76599997 -0.040291596 1.4010772e-38 285 270
-0.045723427 0.76700002 -0.040344197 1.3643447e-38 286 270
-0.04437862 0.76700002 -0.040344197 1.3827839e-38 287 270
-0.043033812 0.76700002 -0.040344197 1.4011546e-38 288 270
-0.041689005 0.76700002 -0.040344197 1.4288493e-38 289 270
-0.08833994 0.75199997 -0.040873703 2.0003578e-38 253 271
-0.08702144 0.75199997 -0.040873703 1.8432604e-38 254 271
-0.085474998 0.75 -0.040764999 1.7879431e-38 255 271
-0.084047787 0.74900001 -0.040710647 1.7970843e-38 256 271
-0.08273454 0.74900001 -0.040710647 1.824743e-38 257 271
-0.081421293 0.74900001 -0.040710647 1.8433598e-38 258 271
-0.079894133 0.74699998 -0.040601939 1.8894575e-38 259 271
-0.078584395 0.74699998 -0.040601939 1.9078247e-38 260 271
-0.07727465 0.74699998 -0.040601939 1.944703e-38 261 271
-0.07586322 0.74599999 -0.040547583 1.9447748e-38 262 271
-0.074555233 0.74599999 -0.040547583 1.9539944e-38 263 271
-0.073247254 0.74599999 -0.040547583 1.9631424e-38 264 271
-0.07193926 0.74599999 -0.040547583 1.9631424e-38 265 271
-0.070631281 0.74599999 -0.040547583 1.944703e-38 266 271
-0.069323286 0.74599999 -0.040547583 1.9354475e-38 267 271
-0.068015307 0.74599999 -0.040547583 1.8986049e-38 268 271
-0.066707321 0.74599999 -0.040547583 1.8893853e-38 269 271
-0.065486997 0.74699998 -0.040601939 1.8709459e-38 270 271
-0.06417726 0.74699998 -0.040601939 1.8617263e-38 271 271
-0.063035838 0.74900001 -0.040710647 1.8432152e-38 272 271
-0.061722592 0.74900001 -0.040710647 1.8063371e-38 273 271
-0.060409348 0.74900001 -0.040710647 1.7786432e-38 274 271
-0.059175 0.75 -0.040764999 1.7509846e-38 275 271
-0.058014289 0.75199997 -0.040873703 1.704924e-38 276 271
-0.056695782 0.75199997 -0.040873703 1.6680098e-38 277 271
-0.055377278 0.75199997 -0.040873703 1.5115665e-38 278 271
-0.054202545 0.75400001 -0.040982414 1.5023469e-38 279 271
-0.052880533 0.75400001 -0.040982414 1.4839085e-38 280 271
-0.051763661 0.75700003 -0.041145474 1.4654694e-38 281 271
-0.050569639 0.759 -0.041254178 1.4287353e-38 282 271
-0.049368605 0.76099998 -0.041362885 1.4195156e-38 283 271
-0.048097439 0.76200002 -0.041417241 1.3918586e-38 284 271
-0.046884131 0.764 -0.041525945 1.3918586e-38 285 271
-0.045723427 0.76700002 -0.041689005 1.3734938e-38 286 271
-0.04437862 0.76700002 -0.041689005 1.3827492e-38 287 271
-0.043033812 0.76700002 -0.041689005 1.3919e-38 288 271
-0.090493038 0.759 -0.042584959 1.9362877e-38 252 272
-0.08833994 0.75199997 -0.04219221 1.8533117e-38 253 272
-0.08702144 0.75199997 -0.04219221 1.6868506e-38 254 272
-0.085474998 0.75 -0.04208 1.6868506e-38 255 272
-0.084047787 0.74900001 -0.042023893 1.8155231e-38 256 272
-0.08273454 0.74900001 -0.042023893 1.8432178e-38 257 272
-0.081203878 0.74699998 -0.041911677 1.8801304e-38 258 272
-0.079894133 0.74699998 -0.041911677 1.88935e-38 259 272
-0.078479193 0.74599999 -0.04185557 1.9262635e-38 260 272
-0.077171214 0.74599999 -0.04185557 1.9354831e-38 261 272
-0.075659841 0.74400002 -0.04174336 1.9538869e-38 262 272
-0.074355356 0.74400002 -0.04174336 1.9631424e-38 263 272
-0.073050879 0.74400002 -0.04174336 1.9631068e-38 264 272
-0.071746401 0.74400002 -0.04174336 1.9538872e-38 265 272
-0.070441924 0.74400002 -0.04174336 1.9447748e-38 266 272
-0.069137439 0.74400002 -0.04174336 1.898677e-38 267 272
-0.067832954 0.74400002 -0.04174336 1.8986404e-38 268 272
-0.066528477 0.74400002 -0.04174336 1.8801654e-38 269 272
-0.065399326 0.74599999 -0.04185557 1.8709459e-38 270 272
-0.06417726 0.74699998 -0.041911677 1.8433231e-38 271 272
-0.062867515 0.74699998 -0.041911677 1.8339603e-38 272 272
-0.061557774 0.74699998 -0.041911677 1.8155572e-38 273 272
-0.060409348 0.74900001 -0.042023893 1.7510568e-38 274 272
-0.059175 0.75 -0.04208 1.7418373e-38 275 272
-0.057859998 0.75 -0.04208 1.6313471e-38 276 272
-0.056695782 0.75199997 -0.04219221 1.5759937e-38 277 272
-0.055377278 0.75199997 -0.04219221 1.5022748e-38 278 272
-0.054202545 0.75400001 -0.042304426 1.5022748e-38 279 272
-0.052880533 0.75400001 -0.042304426 1.4746889e-38 280 272
-0.051558517 0.75400001 -0.042304426 1.4562498e-38 281 272
-0.050569639 0.759 -0.042584959 1.4195156e-38 282 272
-0.049368605 0.76099998 -0.042697169 1.4011125e-38 283 272
-0.048097439 0.76200002 -0.042753279 1.3826744e-38 284 272
-0.046761397 0.76200002 -0.042753279 1.3826744e-38 285 272
-0.045723427 0.76700002 -0.043033812 1.3917888e-38 286 272
-0.044494338 0.76899999 -0.043146025 1.4102281e-38 287 272
-0.090493038 0.759 -0.043915741 1.9085202e-38 252 273
-0.088927314 0.75700003 -0.043800019 1.7794463e-38 253 273
-0.08702144 0.75199997 -0.04351072 1.6773414e-38 254 273
-0.085361034 0.74900001 -0.04333714 1.7326229e-38 255 273
-0.083823353 0.74699998 -0.043221418 1.8156301e-38 256 273
-0.082513615 0.74699998 -0.043221418 1.8433248e-38 257 273
-0.081095167 0.74599999 -0.04316356 1.8617639e-38 258 273
-0.079787187 0.74599999 -0.04316356 1.898642e-38 259 273
-0.078268796 0.74400002 -0.043047838 1.9078614e-38 260 273
-0.076964319 0.74400002 -0.043047838 1.9263364e-38 261 273
-0.075456448 0.74199998 -0.042932119 1.944632e-38 262 273
-0.074155472 0.74199998 -0.042932119 1.963107e-38 263 273
-0.072756313 0.741 -0.042874258 1.9538519e-38 264 273
-0.071457103 0.741 -0.042874258 1.9538519e-38 265 273
-0.070157878 0.741 -0.042874258 1.9445955e-38 266 273
-0.068858653 0.741 -0.042874258 1.9261562e-38 267 273
-0.067650609 0.74199998 -0.042932119 1.9077518e-38 268 273
-0.066349633 0.74199998 -0.042932119 1.8985323e-38 269 273
-0.065223999 0.74400002 -0.043047838 1.8709093e-38 270 273
-0.063919522 0.74400002 -0.043047838 1.85247e-38 271 273
-0.062783353 0.74599999 -0.04316356 1.8339237e-38 272 273
-0.06147537 0.74599999 -0.04316356 1.806229e-38 273 273
-0.060248036 0.74699998 -0.043221418 1.778536e-38 274 273
-0.058938295 0.74699998 -0.043221418 1.7416217e-38 275 273
-0.057782855 0.74900001 -0.04333714 1.5761738e-38 276 273
-0.056695782 0.75199997 -0.04351072 1.5208564e-38 277 273
-0.055377278 0.75199997 -0.04351072 1.5298965e-38 278 273
-0.054058768 0.75199997 -0.04351072 1.5206769e-38 279 273
-0.052880533 0.75400001 -0.043626439 1.437918e-38 280 273
-0.051558517 0.75400001 -0.043626439 1.4286983e-38 281 273
-0.050436385 0.75700003 -0.043800019 1.3918571e-38 282 273
-0.049238857 0.759 -0.043915741 1.3826375e-38 283 273
-0.048097439 0.76200002 -0.044089317 1.3458331e-38 284 273
-0.046761397 0.76200002 -0.044089317 1.3182104e-38 285 273
-0.08667428 0.74900001 -0.044650383 1.7050351e-38 254 274
-0.085133098 0.74699998 -0.044531155 1.7603525e-38 255 274
-0.08371114 0.74599999 -0.044471547 1.8339976e-38 256 274
-0.082403161 0.74599999 -0.044471547 1.8708758e-38 257 274
-0.080877759 0.74400002 -0.044352323 1.8893503e-38 258 274
-0.079573281 0.74400002 -0.044352323 1.9077894e-38 259 274
-0.078058399 0.74199998 -0.044233091 1.9445955e-38 260 274
-0.076757424 0.74199998 -0.044233091 1.9445955e-38 261 274
-0.075354755 0.741 -0.044173479 1.9630342e-38 262 274
-0.074055538 0.741 -0.044173479 1.9630342e-38 263 274
-0.072559945 0.73900002 -0.044054255 1.9630342e-38 264 274
-0.07126423 0.73900002 -0.044054255 1.9446311e-38 265 274
-0.069968522 0.73900002 -0.044054255 1.9353756e-38 266 274
-0.068672806 0.73900002 -0.044054255 1.9077168e-38 267 274
-0.06737709 0.73900002 -0.044054255 1.9077521e-38 268 274
-0.066081382 0.73900002 -0.044054255 1.8985325e-38 269 274
-0.064960994 0.741 -0.044173479 1.8433231e-38 270 274
-0.063747689 0.74199998 -0.044233091 1.8341035e-38 271 274
-0.062615044 0.74400002 -0.044352323 1.8338528e-38 272 274
-0.061310563 0.74400002 -0.044352323 1.8154135e-38 273 274
-0.06016738 0.74599999 -0.044471547 1.7418022e-38 274 274
-0.058859397 0.74599999 -0.044471547 1.704924e-38 275 274
-0.057628557 0.74699998 -0.044531155 1.5393678e-38 276 274
-0.056544997 0.75 -0.044709999 1.4840505e-38 277 274
-0.055377278 0.75199997 -0.044829223 1.502382e-38 278 274
-0.054058768 0.75199997 -0.044829223 1.4747593e-38 279 274
-0.052740261 0.75199997 -0.044829223 1.4379902e-38 280 274
-0.051421758 0.75199997 -0.044829223 1.401112e-38 281 274
-0.050236505 0.75400001 -0.044948451 1.3827094e-38 282 274
-0.049238857 0.759 -0.045246519 1.3458672e-38 283 274
-0.086327121 0.74599999 -0.045779534 1.7326212e-38 254 275
-0.085019127 0.74599999 -0.045779534 1.7971581e-38 255 275
-0.08371114 0.74599999 -0.045779534 1.8248855e-38 256 275
-0.082182243 0.74400002 -0.0456568 1.8525443e-38 257 275
-0.080660343 0.74199998 -0.045534063 1.8893503e-38 258 275
-0.079359367 0.74199998 -0.045534063 1.8985698e-38 259 275
-0.077953197 0.741 -0.045472696 1.9261559e-38 260 275
-0.076447085 0.73900002 -0.045349967 1.9353756e-38 261 275
-0.075151369 0.73900002 -0.045349967 1.9353759e-38 262 275
-0.073855661 0.73900002 -0.045349967 1.9445955e-38 263 275
-0.072461754 0.73799998 -0.0452886 1.9445955e-38 264 275
-0.071167797 0.73799998 -0.0452886 1.9353759e-38 265 275
-0.069873832 0.73799998 -0.0452886 1.9261915e-38 266 275
-0.06839402 0.736 -0.045165867 1.916972e-38 267 275
-0.067103572 0.736 -0.045165867 1.9077521e-38 268 275
-0.06599196 0.73799998 -0.0452886 1.8800936e-38 269 275
-0.064785667 0.73900002 -0.045349967 1.861654e-38 270 275
-0.063661776 0.741 -0.045472696 1.8524345e-38 271 275
-0.062362559 0.741 -0.045472696 1.8339237e-38 272 275
-0.061310563 0.74400002 -0.0456568 1.8154486e-38 273 275
-0.060006075 0.74400002 -0.0456568 1.778536e-38 274 275
-0.058859397 0.74599999 -0.045779534 1.7416217e-38 275 275
-0.057551414 0.74599999 -0.045779534 1.6220195e-38 276 275
-0.056469604 0.74900001 -0.045963634 1.5667021e-38 277 275
-0.055229999 0.75 -0.046024997 1.5207845e-38 278 275
-0.053914998 0.75 -0.046024997 1.4931258e-38 279 275
-0.052740261 0.75199997 -0.04614773 1.4287704e-38 280 275
-0.051421758 0.75199997 -0.04614773 1.4011475e-38 281 275
-0.050236505 0.75400001 -0.046270464 1.3550517e-38 282 275
-0.087165214 0.74199998 -0.046835039 1.5674649e-38 253 276
-0.085864238 0.74199998 -0.046835039 1.7694979e-38 254 276
-0.084563263 0.74199998 -0.046835039 1.7971566e-38 255 276
-0.083262287 0.74199998 -0.046835039 1.8248852e-38 256 276
-0.081850857 0.741 -0.046771921 1.852544e-38 257 276
-0.080551639 0.741 -0.046771921 1.8893856e-38 258 276
-0.079252414 0.741 -0.046771921 1.8986051e-38 259 276
-0.0777428 0.73900002 -0.046645679 1.9261194e-38 260 276
-0.076447085 0.73900002 -0.046645679 1.9261194e-38 261 276
-0.075049676 0.73799998 -0.046582557 1.9536701e-38 262 276
-0.073755711 0.73799998 -0.046582557 1.9629257e-38 263 276
-0.072461754 0.73799998 -0.046582557 1.9537427e-38 264 276
-0.070974931 0.736 -0.046456318 1.9444872e-38 265 276
-0.069684476 0.736 -0.046456318 1.9261559e-38 266 276
-0.06839402 0.736 -0.046456318 1.9169364e-38 267 276
-0.067103572 0.736 -0.046456318 1.8894209e-38 268 276
-0.065813117 0.736 -0.046456318 1.8801654e-38 269 276
-0.064785667 0.73900002 -0.046645679 1.8616546e-38 270 276
-0.063489959 0.73900002 -0.046645679 1.8431796e-38 271 276
-0.062194239 0.73900002 -0.046645679 1.8339603e-38 272 276
-0.061063338 0.741 -0.046771921 1.8063376e-38 273 276
-0.059764117 0.741 -0.046771921 1.7693878e-38 274 276
-0.058701597 0.74400002 -0.046961278 1.7233258e-38 275 276
-0.057551414 0.74599999 -0.047087517 1.6587536e-38 276 276
-0.056318816 0.74699998 -0.047150634 1.6034363e-38 277 276
-0.055156358 0.74900001 -0.047276881 1.5207848e-38 278 276
-0.053914998 0.75 -0.047339998 1.5023457e-38 279 276
-0.0526 0.75 -0.047339998 1.4287706e-38 280 276
-0.051284999 0.75 -0.047339998 1.3918924e-38 281 276
-0.087047733 0.741 -0.048071139 1.5857947e-38 253 277
-0.085748516 0.741 -0.048071139 1.7787878e-38 254 277
-0.084449299 0.741 -0.048071139 1.7972269e-38 255 277
-0.082925655 0.73900002 -0.047941394 1.8249202e-38 256 277
-0.081629939 0.73900002 -0.047941394 1.8618345e-38 257 277
-0.080225512 0.73799998 -0.047876518 1.8802373e-38 258 277
-0.078717649 0.736 -0.047746774 1.8894928e-38 259 277
-0.077216797 0.73400003 -0.047617026 1.90786e-38 260 277
-0.07592985 0.73400003 -0.047617026 1.9262633e-38 261 277
-0.074642912 0.73400003 -0.047617026 1.9446305e-38 262 277
-0.073555835 0.736 -0.047746774 1.9446305e-38 263 277
-0.072265387 0.736 -0.047746774 1.9353756e-38 264 277
-0.070782073 0.73400003 -0.047617026 1.9353756e-38 265 277
-0.069495119 0.73400003 -0.047617026 1.926228e-38 266 277
-0.068208173 0.73400003 -0.047617026 1.8986051e-38 267 277
-0.066921227 0.73400003 -0.047617026 1.8893853e-38 268 277
-0.06563428 0.73400003 -0.047617026 1.8709462e-38 269 277
-0.064347334 0.73400003 -0.047617026 1.8432878e-38 270 277
-0.063232213 0.736 -0.047746774 1.8248486e-38 271 277
-0.061941758 0.736 -0.047746774 1.8155216e-38 272 277
-0.060898528 0.73900002 -0.047941394 1.806302e-38 273 277
-0.059602812 0.73900002 -0.047941394 1.7786076e-38 274 277
-0.0584649 0.741 -0.048071139 1.7325458e-38 275 277
-0.057242822 0.74199998 -0.048136011 1.6588259e-38 276 277
-0.05594185 0.74199998 -0.048136011 1.6035085e-38 277 277
-0.055156358 0.74900001 -0.048590127 1.4932703e-38 278 277
-0.053914998 0.75 -0.048655 1.4656116e-38 279 277
-0.0526 0.75 -0.048655 1.4380271e-38 280 277
-0.051284999 0.75 -0.048655 1.3827097e-38 281 277
-0.088466182 0.74199998 -0.049436983 1.6132004e-38 252 278
-0.087047733 0.741 -0.049370356 1.6316754e-38 253 278
-0.085517079 0.73900002 -0.049237106 1.7788228e-38 254 278
-0.084221363 0.73900002 -0.049237106 1.815701e-38 255 278
-0.082925655 0.73900002 -0.049237106 1.8341401e-38 256 278
-0.081519477 0.73799998 -0.049170475 1.8617989e-38 257 278
-0.080008104 0.736 -0.049037226 1.8894575e-38 258 278
-0.07850375 0.73400003 -0.048903972 1.898677e-38 259 278
-0.077216797 0.73400003 -0.048903972 1.9262633e-38 260 278
-0.07592985 0.73400003 -0.048903972 1.9354828e-38 261 278
-0.074642912 0.73400003 -0.048903972 1.9722522e-38 262 278
-0.073355958 0.73400003 -0.048903972 1.9722522e-38 263 278
-0.072069012 0.73400003 -0.048903972 1.9722169e-38 264 278
-0.070782073 0.73400003 -0.048903972 1.9629973e-38 265 278
-0.069495119 0.73400003 -0.048903972 1.9354109e-38 266 278
-0.068115242 0.73299998 -0.048837345 1.9261912e-38 267 278
-0.066830046 0.73299998 -0.048837345 1.9077521e-38 268 278
-0.065544859 0.73299998 -0.048837345 1.8800936e-38 269 278
-0.064259663 0.73299998 -0.048837345 1.8523997e-38 270 278
-0.062974468 0.73299998 -0.048837345 1.8339247e-38 271 278
-0.061773442 0.73400003 -0.048903972 1.8338531e-38 272 278
-0.060486492 0.73400003 -0.048903972 1.8154138e-38 273 278
-0.059522156 0.73799998 -0.049170475 1.7786079e-38 274 278
-0.0583071 0.73900002 -0.049237106 1.7325102e-38 275 278
-0.057165679 0.741 -0.049370356 1.6129081e-38 276 278
-0.05594185 0.74199998 -0.049436983 1.575994e-38 277 278
-0.054935437 0.74599999 -0.04970349 1.5208214e-38 278 278
-0.053699337 0.74699998 -0.049770117 1.4839791e-38 279 278
-0.052389596 0.74699998 -0.049770117 1.428845e-38 280 278
-0.051421758 0.75199997 -0.050103247 1.3643081e-38 281 278
-0.088346958 0.741 -0.050669577 1.6499698e-38 252 279
-0.086812794 0.73900002 -0.050532822 1.6868481e-38 253 279
-0.085517079 0.73900002 -0.050532822 1.7971894e-38 254 279
-0.084221363 0.73900002 -0.050532822 1.8156285e-38 255 279
-0.082813434 0.73799998 -0.050464436 1.8340679e-38 256 279
-0.08129856 0.736 -0.050327681 1.8801657e-38 257 279
-0.079790697 0.73400003 -0.050190922 1.8986051e-38 258 279
-0.07850375 0.73400003 -0.050190922 1.9078247e-38 259 279
-0.077111594 0.73299998 -0.050122537 1.9629623e-38 260 279
-0.075826399 0.73299998 -0.050122537 1.9721819e-38 261 279
-0.074541211 0.73299998 -0.050122537 1.9631418e-38 262 279
-0.073256016 0.73299998 -0.050122537 1.9631418e-38 263 279
-0.071970828 0.73299998 -0.050122537 1.9539578e-38 264 279
-0.070685625 0.73299998 -0.050122537 1.9447024e-38 265 279
-0.069400437 0.73299998 -0.050122537 1.9354828e-38 266 279
-0.068115242 0.73299998 -0.050122537 1.8986404e-38 267 279
-0.066830046 0.73299998 -0.050122537 1.8893853e-38 268 279
-0.065544859 0.73299998 -0.050122537 1.8617266e-38 269 279
-0.064259663 0.73299998 -0.050122537 1.8523994e-38 270 279
-0.062974468 0.73299998 -0.050122537 1.8155572e-38 271 279
-0.061689276 0.73299998 -0.050122537 1.8154138e-38 272 279
-0.060486492 0.73400003 -0.050190922 1.8154138e-38 273 279
-0.059360851 0.736 -0.050327681 1.7234704e-38 274 279
-0.058228195 0.73799998 -0.050464436 1.6865562e-38 275 279
-0.057165679 0.741 -0.050669577 1.6313121e-38 276 279
-0.055866458 0.741 -0.050669577 1.5851783e-38 277 279
-0.054640878 0.74199998 -0.050737958 1.5024197e-38 278 279
-0.05348368 0.74400002 -0.050874721 1.4655413e-38 279 279
-0.052319467 0.74599999 -0.051011477 1.4011508e-38 280 279
-0.051011477 0.74599999 -0.051011477 1.2444182e-38 281 279
-0.049770117 0.74699998 -0.051079858 9.5872287e-39 282 279
-0.08810851 0.73900002 -0.051828533 1.6775912e-38 252 280
-0.086695313 0.73799998 -0.051758397 1.6868108e-38 253 280
-0.085169919 0.736 -0.051618133 1.7971894e-38 254 280
-0.083879463 0.736 -0.051618133 1.8248839e-38 255 280
-0.082589008 0.736 -0.051618133 1.8433598e-38 256 280
-0.081077635 0.73400003 -0.051477864 1.8617989e-38 257 280
-0.079681985 0.73299998 -0.051407732 1.8986054e-38 258 280
-0.07839679 0.73299998 -0.051407732 1.9262282e-38 259 280
-0.077111594 0.73299998 -0.051407732 1.917081e-38 260 280
-0.075619511 0.73100001 -0.051267464 1.9447395e-38 261 280
-0.074337825 0.73100001 -0.051267464 1.9815089e-38 262 280
-0.073056139 0.73100001 -0.051267464 1.9907285e-38 263 280
-0.071774453 0.73100001 -0.051267464 2.0090228e-38 264 280
-0.070492767 0.73100001 -0.051267464 1.9998033e-38 265 280
-0.069211073 0.73100001 -0.051267464 1.9538131e-38 266 280
-0.067836471 0.73000002 -0.051197331 1.9445575e-38 267 280
-0.066556528 0.73000002 -0.051197331 1.8984601e-38 268 280
-0.0652766 0.73000002 -0.051197331 1.8800208e-38 269 280
-0.063996665 0.73000002 -0.051197331 1.8523628e-38 270 280
-0.062802643 0.73100001 -0.051267464 1.8339237e-38 271 280
-0.06152096 0.73100001 -0.051267464 1.8154489e-38 272 280
-0.06023927 0.73100001 -0.051267464 1.7878262e-38 273 280
-0.059199546 0.73400003 -0.051477864 1.7693512e-38 274 280
-0.058228195 0.73799998 -0.051758397 1.7232892e-38 275 280
-0.057011388 0.73900002 -0.051828533 1.6863045e-38 276 280
-0.055866458 0.741 -0.051968798 1.6402426e-38 277 280
-0.054640878 0.74199998 -0.05203893 1.5390807e-38 278 280
-0.05348368 0.74400002 -0.052179199 1.5298612e-38 279 280
-0.052179199 0.74400002 -0.052179199 1.2997712e-38 280 280
-0.051011477 0.74599999 -0.052319467 1.1799168e-38 281 280
-0.049770117 0.74699998 -0.052389596 9.4961148e-39 282 280
-0.087989271 0.73799998 -0.053052358 1.6500404e-38 252 281
-0.086460374 0.736 -0.052908584 1.6961024e-38 253 281
-0.084938474 0.73400003 -0.052764814 1.7971174e-38 254 281
-0.083537564 0.73299998 -0.052692924 1.8524347e-38 255 281
-0.082252368 0.73299998 -0.052692924 1.9077518e-38 256 281
-0.080967173 0.73299998 -0.052692924 1.9077518e-38 257 281
-0.07946457 0.73100001 -0.052549154 1.9169714e-38 258 281
-0.078182884 0.73100001 -0.052549154 1.9354465e-38 259 281
-0.076585598 0.72799999 -0.052333489 1.9630695e-38 260 281
-0.075309172 0.72799999 -0.052333489 1.9722891e-38 261 281
-0.074032739 0.72799999 -0.052333489 1.9907285e-38 262 281
-0.072756313 0.72799999 -0.052333489 1.9907285e-38 263 281
-0.071479887 0.72799999 -0.052333489 1.990656e-38 264 281
-0.070203468 0.72799999 -0.052333489 1.9722169e-38 265 281
-0.06883236 0.727 -0.052261602 1.9629973e-38 266 281
-0.067557678 0.727 -0.052261602 1.9261549e-38 267 281
-0.066374183 0.72799999 -0.052333489 1.898532e-38 268 281
-0.065097757 0.72799999 -0.052333489 1.8616896e-38 269 281
-0.063821331 0.72799999 -0.052333489 1.8432505e-38 270 281
-0.06271673 0.73000002 -0.052477267 1.8155919e-38 271 281
-0.061436798 0.73000002 -0.052477267 1.7971174e-38 272 281
-0.06023927 0.73100001 -0.052549154 1.7878978e-38 273 281
-0.058957584 0.73100001 -0.052549154 1.7235057e-38 274 281
-0.057833698 0.73299998 -0.052692924 1.695811e-38 275 281
-0.057011388 0.73900002 -0.053124249 1.6496433e-38 276 281
-0.055866458 0.741 -0.053268019 1.6035814e-38 277 281
-0.054640878 0.74199998 -0.053339902 1.5207883e-38 278 281
-0.053339902 0.74199998 -0.053339902 1.5207883e-38 279 281
-0.05203893 0.74199998 -0.053339902 1.2628949e-38 280 281
-0.050874721 0.74400002 -0.05348368 1.133821e-38 281 281
-0.087393142 0.73299998 -0.053978115 1.6775546e-38 252 282
-0.085873008 0.73100001 -0.053830836 1.7143969e-38 253 282
-0.084591322 0.73100001 -0.053830836 1.8155566e-38 254 282
-0.083309628 0.73100001 -0.053830836 1.8524347e-38 255 282
-0.082027942 0.73100001 -0.053830836 1.8800941e-38 256 282
-0.080414876 0.72799999 -0.053609919 1.9077168e-38 257 282
-0.07913845 0.72799999 -0.053609919 1.916972e-38 258 282
-0.077755071 0.727 -0.053536277 1.9354112e-38 259 282
-0.076480396 0.727 -0.053536277 1.9446308e-38 260 282
-0.074998833 0.72500002 -0.053388998 1.9630339e-38 261 282
-0.073727667 0.72500002 -0.053388998 1.9906566e-38 262 282
-0.072456501 0.72500002 -0.053388998 1.9906566e-38 263 282
-0.071185336 0.72500002 -0.053388998 1.9814364e-38 264 282
-0.070107035 0.727 -0.053536277 1.9722169e-38 265 282
-0.06883236 0.727 -0.053536277 1.9538131e-38 266 282
-0.067557678 0.727 -0.053536277 1.9261544e-38 267 282
-0.06628301 0.727 -0.053536277 1.907715e-38 268 282
-0.065008335 0.727 -0.053536277 1.8892759e-38 269 282
-0.063821331 0.72799999 -0.053609919 1.8524335e-38 270 282
-0.062544905 0.72799999 -0.053609919 1.8339585e-38 271 282
-0.061268479 0.72799999 -0.053609919 1.7788214e-38 272 282
-0.060156867 0.73000002 -0.053757198 1.7696019e-38 273 282
-0.058876935 0.73000002 -0.053757198 1.7693868e-38 274 282
-0.057833698 0.73299998 -0.053978115 1.7416921e-38 275 282
-0.057011388 0.73900002 -0.054419957 1.6680454e-38 276 282
-0.055715673 0.73900002 -0.054419957 1.6219476e-38 277 282
-0.054567236 0.741 -0.054567236 1.5299357e-38 278 282
-0.053268019 0.741 -0.054567236 1.5391553e-38 279 282
-0.05203893 0.74199998 -0.054640878 1.2536397e-38 280 282
-0.050874721 0.74400002 -0.054788161 1.1430408e-38 281 282
-0.088436373 0.73100001 -0.055112526 1.4752338e-38 251 283
-0.087154694 0.73100001 -0.055112526 1.6958843e-38 252 283
-0.085873008 0.73100001 -0.055112526 1.741982e-38 253 283
-0.084591322 0.73100001 -0.055112526 1.8247036e-38 254 283
-0.083195664 0.73000002 -0.055037133 1.8708013e-38 255 283
-0.081691302 0.72799999 -0.054886345 1.8708387e-38 256 283
-0.080304414 0.727 -0.054810952 1.9077168e-38 257 283
-0.079029746 0.727 -0.054810952 1.9169717e-38 258 283
-0.077541165 0.72500002 -0.054660168 1.9169717e-38 259 283
-0.076059602 0.72299999 -0.054509375 1.9354109e-38 260 283
-0.074688487 0.722 -0.054433983 1.9446305e-38 261 283
-0.073422581 0.722 -0.054433983 1.981437e-38 262 283
-0.072256617 0.72299999 -0.054509375 1.9906566e-38 263 283
-0.070988953 0.72299999 -0.054509375 1.9814367e-38 264 283
-0.069721296 0.72299999 -0.054509375 1.9722172e-38 265 283
-0.06845364 0.72299999 -0.054509375 1.9538131e-38 266 283
-0.067185976 0.72299999 -0.054509375 1.9261544e-38 267 283
-0.065918319 0.72299999 -0.054509375 1.907715e-38 268 283
-0.064829499 0.72500002 -0.054660168 1.8984954e-38 269 283
-0.06373366 0.727 -0.054810952 1.8708366e-38 270 283
-0.062458992 0.727 -0.054810952 1.843178e-38 271 283
-0.061268479 0.72799999 -0.054886345 1.8338513e-38 272 283
-0.059992049 0.72799999 -0.054886345 1.8246316e-38 273 283
-0.058876935 0.73000002 -0.055037133 1.7510197e-38 274 283
-0.057597004 0.73000002 -0.055037133 1.7325804e-38 275 283
-0.057011388 0.73900002 -0.055715673 1.6496789e-38 276 283
-0.055715673 0.73900002 -0.055715673 1.6035811e-38 277 283
-0.054419957 0.73900002 -0.055715673 1.5391555e-38 278 283
-0.053268019 0.741 -0.055866458 1.529936e-38 279 283
-0.05203893 0.74199998 -0.05594185 1.2443834e-38 280 283
-0.088436373 0.73100001 -0.056394216 1.3738538e-38 251 284
-0.087154694 0.73100001 -0.056394216 1.6866645e-38 252 284
-0.085755527 0.73000002 -0.056317069 1.7419817e-38 253 284
-0.084244154 0.72799999 -0.056162767 1.8246686e-38 254 284
-0.082967728 0.72799999 -0.056162767 1.8707662e-38 255 284
-0.081579089 0.727 -0.056085624 1.8708743e-38 256 284
-0.080083504 0.72500002 -0.055931333 1.898497e-38 257 284
-0.078812331 0.72500002 -0.055931333 1.9077165e-38 258 284
-0.077220306 0.722 -0.055699892 1.916972e-38 259 284
-0.0759544 0.722 -0.055699892 1.9169364e-38 260 284
-0.074688487 0.722 -0.055699892 1.9353756e-38 261 284
-0.073422581 0.722 -0.055699892 1.9721821e-38 262 284
-0.072156675 0.722 -0.055699892 1.9814017e-38 263 284
-0.070890769 0.722 -0.055699892 1.981437e-38 264 284
-0.069721296 0.72299999 -0.055777039 1.9721816e-38 265 284
-0.068358958 0.722 -0.055699892 1.9446661e-38 266 284
-0.067093052 0.722 -0.055699892 1.9354465e-38 267 284
-0.065918319 0.72299999 -0.055777039 1.9168995e-38 268 284
-0.064650662 0.72299999 -0.055777039 1.9076799e-38 269 284
-0.063558333 0.72500002 -0.055931333 1.8983885e-38 270 284
-0.062287167 0.72500002 -0.055931333 1.8799492e-38 271 284
-0.061016005 0.72500002 -0.055931333 1.8522549e-38 272 284
-0.059909642 0.727 -0.056085624 1.8338518e-38 273 284
-0.058715623 0.72799999 -0.056162767 1.7694234e-38 274 284
-0.057439197 0.72799999 -0.056162767 1.7510202e-38 275 284
-0.056394216 0.73100001 -0.056394216 1.67723e-38 276 284
-0.055112526 0.73100001 -0.056394216 1.6219126e-38 277 284
-0.054419957 0.73900002 -0.057011388 1.5668138e-38 278 284
-0.053268019 0.741 -0.057165679 1.5484107e-38 279 284
-0.088315405 0.73000002 -0.057597004 1.3737091e-38 251 285
-0.087035462 0.73000002 -0.057597004 1.7049957e-38 252 285
-0.085755527 0.73000002 -0.057597004 1.760313e-38 253 285
-0.084244154 0.72799999 -0.057439197 1.8063023e-38 254 285
-0.082967728 0.72799999 -0.057439197 1.8523641e-38 255 285
-0.08135467 0.72500002 -0.057202499 1.8708392e-38 256 285
-0.080083504 0.72500002 -0.057202499 1.8984619e-38 257 285
-0.078486212 0.722 -0.056965802 1.9076449e-38 258 285
-0.077220306 0.722 -0.056965802 1.9168645e-38 259 285
-0.0759544 0.722 -0.056965802 1.9169364e-38 260 285
-0.074481606 0.72000003 -0.056808002 1.9261559e-38 261 285
-0.073219202 0.72000003 -0.056808002 1.9445955e-38 262 285
-0.071956798 0.72000003 -0.056808002 1.972254e-38 263 285
-0.070694394 0.72000003 -0.056808002 1.9814014e-38 264 285
-0.069432005 0.72000003 -0.056808002 1.9721819e-38 265 285
-0.068169601 0.72000003 -0.056808002 1.962962e-38 266 285
-0.067093052 0.722 -0.056965802 1.9537424e-38 267 285
-0.065827139 0.722 -0.056965802 1.935231e-38 268 285
-0.064561233 0.722 -0.056965802 1.9167919e-38 269 285
-0.063382991 0.72299999 -0.057044696 1.9075e-38 270 285
-0.062115334 0.72299999 -0.057044696 1.8890609e-38 271 285
-0.060847677 0.72299999 -0.057044696 1.8338516e-38 272 285
-0.059580017 0.72299999 -0.057044696 1.8246319e-38 273 285
-0.058473669 0.72500002 -0.057202499 1.815377e-38 274 285
-0.057360299 0.727 -0.057360299 1.7969378e-38 275 285
-0.056394216 0.73100001 -0.057675898 1.7232555e-38 276 285
-0.055112526 0.73100001 -0.057675898 1.6587185e-38 277 285
-0.089349858 0.72799999 -0.058715623 1.5579199e-38 250 286
-0.088073432 0.72799999 -0.058715623 1.4012234e-38 251 286
-0.086797006 0.72799999 -0.058715623 1.6958116e-38 252 286
-0.08552058 0.72799999 -0.058715623 1.7603485e-38 253 286
-0.084128432 0.727 -0.058634974 1.8337812e-38 254 286
-0.082853764 0.727 -0.058634974 1.8798789e-38 255 286
-0.081130236 0.72299999 -0.058312356 1.8799861e-38 256 286
-0.07986258 0.72299999 -0.058312356 1.9076449e-38 257 286
-0.078486212 0.722 -0.058231708 1.9168645e-38 258 286
-0.077220306 0.722 -0.058231708 1.9168645e-38 259 286
-0.075743996 0.72000003 -0.058070403 1.9261194e-38 260 286
-0.074481606 0.72000003 -0.058070403 1.9261194e-38 261 286
-0.073219202 0.72000003 -0.058070403 1.9629254e-38 262 286
-0.071956798 0.72000003 -0.058070403 1.9905481e-38 263 286
-0.070694394 0.72000003 -0.058070403 1.9722535e-38 264 286
-0.069432005 0.72000003 -0.058070403 1.9630339e-38 265 286
-0.068074919 0.71899998 -0.057989739 1.9630342e-38 266 286
-0.066814266 0.71899998 -0.057989739 1.9261559e-38 267 286
-0.065553628 0.71899998 -0.057989739 1.9261196e-38 268 286
-0.064561233 0.722 -0.058231708 1.9076446e-38 269 286
-0.063295327 0.722 -0.058231708 1.8892052e-38 270 286
-0.062029421 0.722 -0.058231708 1.8799855e-38 271 286
-0.060763516 0.722 -0.058231708 1.8431433e-38 272 286
-0.059497613 0.722 -0.058231708 1.8246683e-38 273 286
-0.058312356 0.72299999 -0.058312356 1.7878625e-38 274 286
-0.056965802 0.722 -0.058231708 1.7878625e-38 275 286
-0.055699892 0.722 -0.058231708 1.7324749e-38 276 286
-0.054433983 0.722 -0.058231708 1.6587183e-38 277 286
-0.090626292 0.72799999 -0.059992049 1.8253666e-38 249 287
-0.089349858 0.72799999 -0.059992049 1.5486641e-38 250 287
-0.088073432 0.72799999 -0.059992049 1.4195902e-38 251 287
-0.086677782 0.727 -0.059909642 1.6958113e-38 252 287
-0.085403107 0.727 -0.059909642 1.7511287e-38 253 287
-0.084128432 0.727 -0.059909642 1.7880077e-38 254 287
-0.082397893 0.72299999 -0.059580017 1.8156303e-38 255 287
-0.081018023 0.722 -0.059497613 1.861656e-38 256 287
-0.079752117 0.722 -0.059497613 1.8708755e-38 257 287
-0.078486212 0.722 -0.059497613 1.9077165e-38 258 287
-0.0770064 0.72000003 -0.059332799 1.9261915e-38 259 287
-0.075743996 0.72000003 -0.059332799 1.9169714e-38 260 287
-0.074378148 0.71899998 -0.059250388 1.9354465e-38 261 287
-0.073117502 0.71899998 -0.059250388 1.9446661e-38 262 287
-0.071856856 0.71899998 -0.059250388 1.9630692e-38 263 287
-0.070399836 0.71700001 -0.059085581 1.9722535e-38 264 287
-0.069142699 0.71700001 -0.059085581 1.9630339e-38 265 287
-0.067790881 0.71600002 -0.059003171 1.962962e-38 266 287
-0.066535495 0.71600002 -0.059003171 1.9537424e-38 267 287
-0.065371275 0.71700001 -0.059085581 1.9444862e-38 268 287
-0.064382397 0.72000003 -0.059332799 1.9260112e-38 269 287
-0.06312 0.72000003 -0.059332799 1.8984238e-38 270 287
-0.061857603 0.72000003 -0.059332799 1.8892041e-38 271 287
-0.060595199 0.72000003 -0.059332799 1.8706572e-38 272 287
-0.059332799 0.72000003 -0.059332799 1.8522181e-38 273 287
-0.058231708 0.722 -0.059497613 1.8246672e-38 274 287
-0.056965802 0.722 -0.059497613 1.8061922e-38 275 287
-0.055699892 0.722 -0.059497613 1.7509116e-38 276 287
-0.054433983 0.722 -0.059497613 1.6956303e-38 277 287
-0.053168077 0.722 -0.059497613 1.5853234e-38 278 287
-0.051902171 0.722 -0.059497613 1.5853234e-38 279 287
-0.090501808 0.727 -0.061184317 1.7885952e-38 249 288
-0.089227132 0.727 -0.061184317 1.5762499e-38 250 288
-0.087952457 0.727 -0.061184317 1.447176e-38 251 288
-0.086677782 0.727 -0.061184317 1.6957745e-38 252 288
-0.085168168 0.72500002 -0.061016005 1.7603114e-38 253 288
-0.083549835 0.722 -0.060763516 1.797082e-38 254 288
-0.082283929 0.722 -0.060763516 1.8339603e-38 255 288
-0.081018023 0.722 -0.060763516 1.8523994e-38 256 288
-0.0795312 0.72000003 -0.060595199 1.8800941e-38 257 288
-0.078160092 0.71899998 -0.060511041 1.8985325e-38 258 288
-0.076899439 0.71899998 -0.060511041 1.9077521e-38 259 288
-0.075428396 0.71700001 -0.060342718 1.9262263e-38 260 288
-0.074067809 0.71600002 -0.06025856 1.9262263e-38 261 288
-0.072812423 0.71600002 -0.06025856 1.9447014e-38 262 288
-0.071357153 0.71399999 -0.060090236 1.9631045e-38 263 288
-0.070105277 0.71399999 -0.060090236 1.9722535e-38 264 288
-0.068853401 0.71399999 -0.060090236 1.9630339e-38 265 288
-0.067601517 0.71399999 -0.060090236 1.9630339e-38 266 288
-0.066349633 0.71399999 -0.060090236 1.9354112e-38 267 288
-0.065097757 0.71399999 -0.060090236 1.9261549e-38 268 288
-0.063845873 0.71399999 -0.060090236 1.9076799e-38 269 288
-0.062769331 0.71600002 -0.06025856 1.9167916e-38 270 288
-0.061513945 0.71600002 -0.06025856 1.8891688e-38 271 288
-0.060342718 0.71700001 -0.060342718 1.8707297e-38 272 288
-0.059250388 0.71899998 -0.060511041 1.8614742e-38 273 288
-0.058070403 0.72000003 -0.060595199 1.8246683e-38 274 288
-0.056808002 0.72000003 -0.060595199 1.806229e-38 275 288
-0.055545598 0.72000003 -0.060595199 1.7418373e-38 276 288
-0.054283202 0.72000003 -0.060595199 1.6957394e-38 277 288
-0.053168077 0.722 -0.060763516 1.6038347e-38 278 288
-0.090501808 0.727 -0.062458992 1.7793757e-38 249 289
-0.089227132 0.727 -0.062458992 1.5579184e-38 250 289
-0.0877105 0.72500002 -0.062287167 1.4196249e-38 251 289
-0.086439334 0.72500002 -0.062287167 1.6865546e-38 252 289
-0.084933214 0.72299999 -0.062115334 1.7510916e-38 253 289
-0.083549835 0.722 -0.062029421 1.769531e-38 254 289
-0.082056001 0.72000003 -0.061857603 1.8064092e-38 255 289
-0.080681384 0.71899998 -0.061771683 1.8523994e-38 256 289
-0.079199821 0.71700001 -0.061599858 1.8800941e-38 257 289
-0.077942684 0.71700001 -0.061599858 1.8800938e-38 258 289
-0.076685533 0.71700001 -0.061599858 1.916972e-38 259 289
-0.075323202 0.71600002 -0.061513945 1.8986758e-38 260 289
-0.074067809 0.71600002 -0.061513945 1.9078953e-38 261 289
-0.072812423 0.71600002 -0.061513945 1.9355184e-38 262 289
-0.071257219 0.713 -0.061256204 1.944738e-38 263 289
-0.070007093 0.713 -0.061256204 1.9722535e-38 264 289
-0.068756968 0.713 -0.061256204 1.9722535e-38 265 289
-0.067317478 0.71100003 -0.061084379 1.9630695e-38 266 289
-0.066070862 0.71100003 -0.061084379 1.9354109e-38 267 289
-0.064824238 0.71100003 -0.061084379 1.9444859e-38 268 289
-0.063577622 0.71100003 -0.061084379 1.9260468e-38 269 289
-0.062331002 0.71100003 -0.061084379 1.916755e-38 270 289
-0.061256204 0.713 -0.061256204 1.8983158e-38 271 289
-0.060090236 0.71399999 -0.061342116 1.8707294e-38 272 289
-0.059003171 0.71600002 -0.061513945 1.8615098e-38 273 289
-0.057747785 0.71600002 -0.061513945 1.8339234e-38 274 289
-0.056571297 0.71700001 -0.061599858 1.8062646e-38 275 289
-0.055468451 0.71899998 -0.061771683 1.7877553e-38 276 289
-0.054207806 0.71899998 -0.061771683 1.7600966e-38 277 289
