# .PCD v.7 - Point Cloud Data file format
FIELDS x y z rgb imX imY
SIZE 4 4 4 4 4 4
TYPE F F F F F F
COUNT 1 1 1 1 1 1
WIDTH 839
HEIGHT 1
VIEWPOINT 0 0 0 1 0 0 0
POINTS 839
DATA ascii
0.041913435 0.68300003 -0.033530746 1.7234351e-38 355 268
0.043174081 0.68400002 -0.033579841 1.6867013e-38 356 268
0.044503104 0.68599999 -0.033678025 1.6774818e-38 357 268
0.045705888 0.68599999 -0.033678025 1.6498955e-38 358 268
0.046977058 0.68699998 -0.033727121 1.6498955e-38 359 268
0.048181597 0.68699998 -0.033727121 1.6223445e-38 360 268
0.049458027 0.68800002 -0.033776212 1.6223445e-38 361 268
0.050664321 0.68800002 -0.033776212 1.6039048e-38 362 268
0.051870614 0.68800002 -0.033776212 1.5946852e-38 363 268
0.053308345 0.69099998 -0.033923492 1.5761388e-38 364 268
0.054677699 0.69300002 -0.034021679 1.5392606e-38 365 268
0.055892758 0.69300002 -0.034021679 1.4656492e-38 366 268
0.057190225 0.69400001 -0.034070771 1.4379546e-38 367 268
0.058407038 0.69400001 -0.034070771 1.3735627e-38 368 268
0.05953794 0.69300002 -0.034021679 1.3366486e-38 369 268
0.060752999 0.69300002 -0.034021679 1.4289196e-38 370 268
0.061968062 0.69300002 -0.034021679 1.5948357e-38 371 268
0.0081494926 0.66399997 -0.033762183 1.8252933e-38 327 269
0.0093137063 0.66399997 -0.033762183 1.8434062e-38 328 269
0.01058838 0.671 -0.034118112 1.7973444e-38 329 269
0.011764866 0.671 -0.034118112 1.7971601e-38 330 269
0.012941353 0.671 -0.034118112 1.7602818e-38 331 269
0.01411784 0.671 -0.034118112 1.8154512e-38 332 269
0.015294326 0.671 -0.034118112 1.8154512e-38 333 269
0.01649536 0.67199999 -0.034168959 1.8338884e-38 334 269
0.0177262 0.67400002 -0.034270655 1.843108e-38 335 269
0.018851839 0.67199999 -0.034168959 1.8431433e-38 336 269
0.020000271 0.671 -0.034118112 1.8523628e-38 337 269
0.021176759 0.671 -0.034118112 1.870801e-38 338 269
0.022353247 0.671 -0.034118112 1.870801e-38 339 269
0.023529733 0.671 -0.034118112 1.8800206e-38 340 269
0.024743039 0.67199999 -0.034168959 1.8892761e-38 341 269
0.025921278 0.67199999 -0.034168959 1.870874e-38 342 269
0.027099518 0.67199999 -0.034168959 1.870874e-38 343 269
0.02836192 0.67400002 -0.034270655 1.8523994e-38 344 269
0.029543666 0.67400002 -0.034270655 1.8523994e-38 345 269
0.030771 0.67500001 -0.034321502 1.8431801e-38 346 269
0.031954501 0.67500001 -0.034321502 1.8155216e-38 347 269
0.033187091 0.676 -0.034372345 1.8063386e-38 348 269
0.034372345 0.676 -0.034372345 1.8063386e-38 349 269
0.035715401 0.67900002 -0.034524884 1.7604566e-38 350 269
0.036905911 0.67900002 -0.034524884 1.751237e-38 351 269
0.038152531 0.68000001 -0.034575731 1.7327622e-38 352 269
0.039344799 0.68000001 -0.034575731 1.6958841e-38 353 269
0.040537067 0.68000001 -0.034575731 1.6958846e-38 354 269
0.041852064 0.68199998 -0.034677424 1.6866292e-38 355 269
0.043110959 0.68300003 -0.034728274 1.6682621e-38 356 269
0.04437336 0.68400002 -0.03477912 1.6682621e-38 357 269
0.045705888 0.68599999 -0.034880809 1.6498234e-38 358 269
0.046908677 0.68599999 -0.034880809 1.6498234e-38 359 269
0.048181597 0.68699998 -0.034931656 1.6131246e-38 360 269
0.049386136 0.68699998 -0.034931656 1.6039051e-38 361 269
0.050664321 0.68800002 -0.03498251 1.5854657e-38 362 269
0.051870614 0.68800002 -0.03498251 1.5670624e-38 363 269
0.053308345 0.69099998 -0.035135046 1.5485527e-38 364 269
0.054677699 0.69300002 -0.035236739 1.4932353e-38 365 269
0.055892758 0.69300002 -0.035236739 1.4379915e-38 366 269
0.057107817 0.69300002 -0.035236739 1.3919295e-38 367 269
0.058407038 0.69400001 -0.035287585 1.3643081e-38 368 269
0.05953794 0.69300002 -0.035236739 1.3182104e-38 369 269
0.060752999 0.69300002 -0.035236739 1.4657268e-38 370 269
0.061968062 0.69300002 -0.035236739 1.6408985e-38 371 269
0.0069852793 0.66399997 -0.0349264 1.8434062e-38 326 270
0.0081494926 0.66399997 -0.0349264 1.8065639e-38 327 270
0.0093137063 0.66399997 -0.0349264 1.8248193e-38 328 270
0.010477919 0.66399997 -0.0349264 1.8063443e-38 329 270
0.011642133 0.66399997 -0.0349264 1.8155234e-38 330 270
0.012806346 0.66399997 -0.0349264 1.7970843e-38 331 270
0.013970559 0.66399997 -0.0349264 1.8246683e-38 332 270
0.015134773 0.66399997 -0.0349264 1.8431433e-38 333 270
0.016298985 0.66399997 -0.0349264 1.8523628e-38 334 270
0.017620999 0.67000002 -0.035241999 1.8523628e-38 335 270
0.018795732 0.67000002 -0.035241999 1.8708016e-38 336 270
0.019970467 0.67000002 -0.035241999 1.8800211e-38 337 270
0.0211452 0.67000002 -0.035241999 1.8800206e-38 338 270
0.022319933 0.67000002 -0.035241999 1.8800206e-38 339 270
0.023494666 0.67000002 -0.035241999 1.8708013e-38 340 270
0.024706218 0.671 -0.0352946 1.8800208e-38 341 270
0.025921278 0.67199999 -0.035347197 1.8433231e-38 342 270
0.027099518 0.67199999 -0.035347197 1.8341035e-38 343 270
0.02827776 0.67199999 -0.035347197 1.8340682e-38 344 270
0.029455997 0.67199999 -0.035347197 1.8248486e-38 345 270
0.030725412 0.67400002 -0.035452399 1.7788228e-38 346 270
0.03190716 0.67400002 -0.035452399 1.7788228e-38 347 270
0.033137999 0.67500001 -0.035505001 1.7787155e-38 348 270
0.034321502 0.67500001 -0.035505001 1.7694959e-38 349 270
0.035557602 0.676 -0.035557602 1.7327266e-38 350 270
0.036851559 0.67799997 -0.0356628 1.723507e-38 351 270
0.038040318 0.67799997 -0.0356628 1.6958846e-38 352 270
0.039286941 0.67900002 -0.035715401 1.6866292e-38 353 270
0.040477451 0.67900002 -0.035715401 1.6774098e-38 354 270
0.041729335 0.68000001 -0.035767999 1.6774098e-38 355 270
0.043047838 0.68199998 -0.035873197 1.649859e-38 356 270
0.044243611 0.68199998 -0.035873197 1.6406035e-38 357 270
0.045572639 0.68400002 -0.035978399 1.6313842e-38 358 270
0.046908677 0.68599999 -0.036083598 1.6313842e-38 359 270
0.048111461 0.68599999 -0.036083598 1.5946855e-38 360 270
0.049314249 0.68599999 -0.036083598 1.5854659e-38 361 270
0.050517038 0.68599999 -0.036083598 1.5670624e-38 362 270
0.051870614 0.68800002 -0.0361888 1.5393678e-38 363 270
0.053231198 0.69 -0.036293998 1.5208584e-38 364 270
0.054440998 0.69 -0.036293998 1.4747606e-38 365 270
0.055731449 0.69099998 -0.036346599 1.4103335e-38 366 270
0.056942999 0.69099998 -0.036346599 1.3918942e-38 367 270
0.058154557 0.69099998 -0.036346599 1.3550532e-38 368 270
0.059366114 0.69099998 -0.036346599 1.3181751e-38 369 270
0.060489997 0.69 -0.036293998 1.4566519e-38 370 270
0.061699796 0.69 -0.036293998 1.6502627e-38 371 270
0.0058035329 0.662 -0.035981905 1.7973441e-38 325 271
0.0069642398 0.662 -0.035981905 1.8064147e-38 326 271
0.0081249457 0.662 -0.035981905 1.7511332e-38 327 271
0.009285653 0.662 -0.035981905 1.8154866e-38 328 271
0.01043058 0.66100001 -0.035927553 1.8338897e-38 329 271
0.011589534 0.66100001 -0.035927553 1.8430727e-38 330 271
0.012767773 0.662 -0.035981905 1.8522922e-38 331 271
0.01392848 0.662 -0.035981905 1.8707297e-38 332 271
0.015111978 0.66299999 -0.036036257 1.8799492e-38 333 271
0.016298985 0.66399997 -0.036090612 1.8799489e-38 334 271
0.017515799 0.66600001 -0.03619932 1.8799489e-38 335 271
0.018739626 0.66799998 -0.036308024 1.8891688e-38 336 271
0.019910853 0.66799998 -0.036308024 1.8799492e-38 337 271
0.021082079 0.66799998 -0.036308024 1.870766e-38 338 271
0.022253305 0.66799998 -0.036308024 1.870766e-38 339 271
0.023494666 0.67000002 -0.036416732 1.852435e-38 340 271
0.024669399 0.67000002 -0.036416732 1.8431796e-38 341 271
0.025882706 0.671 -0.036471087 1.8248484e-38 342 271
0.027059194 0.671 -0.036471087 1.8156288e-38 343 271
0.028235679 0.671 -0.036471087 1.7972623e-38 344 271
0.029412165 0.671 -0.036471087 1.7788231e-38 345 271
0.030634239 0.67199999 -0.036525436 1.7603833e-38 346 271
0.031812478 0.67199999 -0.036525436 1.7603833e-38 347 271
0.03299072 0.67199999 -0.036525436 1.7327975e-38 348 271
0.034270655 0.67400002 -0.036634147 1.7235779e-38 349 271
0.035452399 0.67400002 -0.036634147 1.6867013e-38 350 271
0.036688499 0.67500001 -0.036688499 1.6867013e-38 351 271
0.037928104 0.676 -0.036742851 1.6682265e-38 352 271
0.039229076 0.67799997 -0.036851559 1.6498234e-38 353 271
0.040477451 0.67900002 -0.036905911 1.6406038e-38 354 271
0.041667968 0.67900002 -0.036905911 1.6406038e-38 355 271
0.042921599 0.68000001 -0.036960267 1.6313842e-38 356 271
0.044113863 0.68000001 -0.036960267 1.6313842e-38 357 271
0.045439381 0.68199998 -0.037068974 1.6037976e-38 358 271
0.04670354 0.68300003 -0.037123326 1.6037976e-38 359 271
0.0479712 0.68400002 -0.037177678 1.5946136e-38 360 271
0.049314249 0.68599999 -0.037286382 1.5853939e-38 361 271
0.050517038 0.68599999 -0.037286382 1.5393681e-38 362 271
0.051795214 0.68699998 -0.037340738 1.5024899e-38 363 271
0.053076908 0.68800002 -0.037395094 1.4472819e-38 364 271
0.054283202 0.68800002 -0.037395094 1.4196234e-38 365 271
0.055650797 0.69 -0.037503798 1.4011138e-38 366 271
0.0568606 0.69 -0.037503798 1.3826746e-38 367 271
0.058070395 0.69 -0.037503798 1.336722e-38 368 271
0.059108373 0.68800002 -0.037395094 1.318247e-38 369 271
0.060226995 0.68699998 -0.037340738 1.4381773e-38 370 271
0.061342116 0.68599999 -0.037286382 1.6594469e-38 371 271
0.062544905 0.68599999 -0.037286382 1.7148037e-38 372 271
0.0058035329 0.662 -0.037142612 1.7787933e-38 325 272
0.0069642398 0.662 -0.037142612 1.8247079e-38 326 272
0.0081249457 0.662 -0.037142612 1.8154884e-38 327 272
0.0092716264 0.66100001 -0.037086505 1.8430727e-38 328 272
0.01043058 0.66100001 -0.037086505 1.8522922e-38 329 272
0.011589534 0.66100001 -0.037086505 1.870766e-38 330 272
0.012748486 0.66100001 -0.037086505 1.8799855e-38 331 272
0.01392848 0.662 -0.037142612 1.8983882e-38 332 272
0.015089186 0.662 -0.037142612 1.8891685e-38 333 272
0.016274439 0.66299999 -0.037198719 1.8982802e-38 334 272
0.017436899 0.66299999 -0.037198719 1.8982802e-38 335 272
0.018683519 0.66600001 -0.037367038 1.8982805e-38 336 272
0.019881045 0.667 -0.037423145 1.8890609e-38 337 272
0.021050518 0.667 -0.037423145 1.8614748e-38 338 272
0.022253305 0.66799998 -0.037479252 1.8614748e-38 339 272
0.023424532 0.66799998 -0.037479252 1.8431077e-38 340 272
0.024669399 0.67000002 -0.037591465 1.8246686e-38 341 272
0.025882706 0.671 -0.037647571 1.8154842e-38 342 272
0.027059194 0.671 -0.037647571 1.8154842e-38 343 272
0.028235679 0.671 -0.037647571 1.7695313e-38 344 272
0.029412165 0.671 -0.037647571 1.7603117e-38 345 272
0.030588651 0.671 -0.037647571 1.705031e-38 346 272
0.031765141 0.671 -0.037647571 1.723506e-38 347 272
0.032941625 0.671 -0.037647571 1.7325821e-38 348 272
0.034168959 0.67199999 -0.037703678 1.7049593e-38 349 272
0.035347197 0.67199999 -0.037703678 1.6774095e-38 350 272
0.036634147 0.67400002 -0.037815895 1.6681899e-38 351 272
0.037871998 0.67500001 -0.037871998 1.6589706e-38 352 272
0.039113361 0.676 -0.037928104 1.6313121e-38 353 272
0.040417835 0.67799997 -0.038040318 1.6313121e-38 354 272
0.041667968 0.67900002 -0.038096428 1.6313121e-38 355 272
0.042858478 0.67900002 -0.038096428 1.6220922e-38 356 272
0.044113863 0.68000001 -0.038152531 1.6220922e-38 357 272
0.045306131 0.68000001 -0.038152531 1.6129799e-38 358 272
0.046635158 0.68199998 -0.038264744 1.6129799e-38 359 272
0.047901068 0.68300003 -0.038320854 1.6037602e-38 360 272
0.049170479 0.68400002 -0.038376961 1.5576625e-38 361 272
0.050517038 0.68599999 -0.03848917 1.4841224e-38 362 272
0.051719822 0.68599999 -0.03848917 1.4472801e-38 363 272
0.052999757 0.68699998 -0.038545277 1.4012559e-38 364 272
0.054283202 0.68800002 -0.038601387 1.3828526e-38 365 272
0.055650797 0.69 -0.038713597 1.3551599e-38 366 272
0.0568606 0.69 -0.038713597 1.3551599e-38 367 272
0.058070395 0.69 -0.038713597 1.3550542e-38 368 272
0.059108373 0.68800002 -0.038601387 1.3366511e-38 369 272
0.060226995 0.68699998 -0.038545277 1.4105556e-38 370 272
0.061342116 0.68599999 -0.03848917 1.5581046e-38 371 272
0.062544905 0.68599999 -0.03848917 1.6044213e-38 372 272
0.0034663398 0.65899998 -0.038129739 1.7694979e-38 323 273
0.0046217865 0.65899998 -0.038129739 1.7970474e-38 324 273
0.0058035329 0.662 -0.038303319 1.8338897e-38 325 273
0.0069642398 0.662 -0.038303319 1.8523997e-38 326 273
0.0081126727 0.66100001 -0.038245458 1.8339247e-38 327 273
0.0092716264 0.66100001 -0.038245458 1.8707294e-38 328 273
0.01043058 0.66100001 -0.038245458 1.8707294e-38 329 273
0.011589534 0.66100001 -0.038245458 1.8982802e-38 330 273
0.012748486 0.66100001 -0.038245458 1.8890606e-38 331 273
0.01390744 0.66100001 -0.038245458 1.8707291e-38 332 273
0.015089186 0.662 -0.038303319 1.85229e-38 333 273
0.016274439 0.66299999 -0.038361177 1.8522903e-38 334 273
0.017436899 0.66299999 -0.038361177 1.8615098e-38 335 273
0.018627413 0.66399997 -0.038419038 1.843108e-38 336 273
0.019851239 0.66600001 -0.03853476 1.8338884e-38 337 273
0.021050518 0.667 -0.038592618 1.833925e-38 338 273
0.022219993 0.667 -0.038592618 1.8063023e-38 339 273
0.023424532 0.66799998 -0.038650475 1.806302e-38 340 273
0.02459576 0.66799998 -0.038650475 1.7878628e-38 341 273
0.025844134 0.67000002 -0.038766202 1.7603464e-38 342 273
0.027018867 0.67000002 -0.038766202 1.7419073e-38 343 273
0.028193599 0.67000002 -0.038766202 1.7142859e-38 344 273
0.029368332 0.67000002 -0.038766202 1.7142859e-38 345 273
0.030588651 0.671 -0.038824059 1.6774095e-38 346 273
0.031765141 0.671 -0.038824059 1.6774095e-38 347 273
0.032941625 0.671 -0.038824059 1.649859e-38 348 273
0.034118112 0.671 -0.038824059 1.6406035e-38 349 273
0.0352946 0.671 -0.038824059 1.6313487e-38 350 273
0.036471087 0.671 -0.038824059 1.6221291e-38 351 273
0.037815895 0.67400002 -0.038997639 1.6129095e-38 352 273
0.039055496 0.67500001 -0.039055496 1.6129095e-38 353 273
0.040298611 0.676 -0.039113361 1.594578e-38 354 273
0.041606598 0.67799997 -0.039229076 1.5853583e-38 355 273
0.042795356 0.67799997 -0.039229076 1.594578e-38 356 273
0.044113863 0.68000001 -0.039344799 1.594578e-38 357 273
0.045306131 0.68000001 -0.039344799 1.5853583e-38 358 273
0.046498399 0.68000001 -0.039344799 1.5853583e-38 359 273
0.047830928 0.68199998 -0.039460517 1.5484082e-38 360 273
0.049170479 0.68400002 -0.03957624 1.5391526e-38 361 273
0.050517038 0.68599999 -0.039691959 1.4380618e-38 362 273
0.051719822 0.68599999 -0.039691959 1.4196587e-38 363 273
0.052999757 0.68699998 -0.039749816 1.3828179e-38 364 273
0.054283202 0.68800002 -0.039807681 1.3735624e-38 365 273
0.055489492 0.68800002 -0.039807681 1.3643081e-38 366 273
0.056695789 0.68800002 -0.039807681 1.3643081e-38 367 273
0.057902083 0.68800002 -0.039807681 1.3366882e-38 368 273
0.059108373 0.68800002 -0.039807681 1.3551275e-38 369 273
0.060226995 0.68699998 -0.039749816 1.3462357e-38 370 273
0.061431535 0.68699998 -0.039749816 1.4384313e-38 371 273
-0.0046358132 0.66100001 -0.039404415 1.8248209e-38 316 274
-0.00347686 0.66100001 -0.039404415 1.7879428e-38 317 274
-0.0023073866 0.65799999 -0.039225571 1.8063434e-38 318 274
-0.0011536933 0.65799999 -0.039225571 1.7970878e-38 319 274
0 0.65799999 -0.039225571 1.8247077e-38 320 274
0.0011536933 0.65799999 -0.039225571 1.8339272e-38 321 274
0.0023073866 0.65799999 -0.039225571 1.8523644e-38 322 274
0.0034663398 0.65899998 -0.039285187 1.8431448e-38 323 274
0.0046217865 0.65899998 -0.039285187 1.8523631e-38 324 274
0.0057772328 0.65899998 -0.039285187 1.8523631e-38 325 274
0.00695372 0.66100001 -0.039404415 1.8707294e-38 326 274
0.0081126727 0.66100001 -0.039404415 1.8707294e-38 327 274
0.0092716264 0.66100001 -0.039404415 1.8707291e-38 328 274
0.01043058 0.66100001 -0.039404415 1.8799487e-38 329 274
0.011589534 0.66100001 -0.039404415 1.8247036e-38 330 274
0.012748486 0.66100001 -0.039404415 1.7693862e-38 331 274
0.01390744 0.66100001 -0.039404415 1.7418354e-38 332 274
0.015066394 0.66100001 -0.039404415 1.7326157e-38 333 274
0.016274439 0.66299999 -0.039523639 1.7878259e-38 334 274
0.017436899 0.66299999 -0.039523639 1.8246683e-38 335 274
0.018627413 0.66399997 -0.039583251 1.8245968e-38 336 274
0.019791625 0.66399997 -0.039583251 1.8338165e-38 337 274
0.02101896 0.66600001 -0.039702479 1.8245965e-38 338 274
0.02218668 0.66600001 -0.039702479 1.8061574e-38 339 274
0.023354398 0.66600001 -0.039702479 1.7786061e-38 340 274
0.024558939 0.667 -0.039762091 1.7693865e-38 341 274
0.025766984 0.66799998 -0.039821707 1.7417274e-38 342 274
0.026938211 0.66799998 -0.039821707 1.7233243e-38 343 274
0.028193599 0.67000002 -0.039940935 1.6865549e-38 344 274
0.029368332 0.67000002 -0.039940935 1.6773353e-38 345 274
0.030543067 0.67000002 -0.039940935 1.6222347e-38 346 274
0.0317178 0.67000002 -0.039940935 1.6222347e-38 347 274
0.032892533 0.67000002 -0.039940935 1.6313824e-38 348 274
0.034118112 0.671 -0.040000543 1.6221629e-38 349 274
0.0352946 0.671 -0.040000543 1.6129078e-38 350 274
0.036471087 0.671 -0.040000543 1.6036883e-38 351 274
0.037703678 0.67199999 -0.040060159 1.603653e-38 352 274
0.038997639 0.67400002 -0.040179387 1.603653e-38 353 274
0.040238999 0.67500001 -0.040238999 1.6036886e-38 354 274
0.041483864 0.676 -0.040298611 1.6036886e-38 355 274
0.042795356 0.67799997 -0.040417835 1.5853215e-38 356 274
0.043984115 0.67799997 -0.040417835 1.5668823e-38 357 274
0.045239504 0.67900002 -0.040477451 1.5576272e-38 358 274
0.046498399 0.68000001 -0.040537067 1.5207848e-38 359 274
0.047830928 0.68199998 -0.040656291 1.4655044e-38 360 274
0.049170479 0.68400002 -0.040775519 1.474724e-38 361 274
0.050369758 0.68400002 -0.040775519 1.3919646e-38 362 274
0.051719822 0.68599999 -0.040894743 1.4011841e-38 363 274
0.052999757 0.68699998 -0.040954359 1.3735624e-38 364 274
0.054204296 0.68699998 -0.040954359 1.3643429e-38 365 274
0.055408835 0.68699998 -0.040954359 1.3643797e-38 366 274
0.056613375 0.68699998 -0.040954359 1.3551602e-38 367 274
0.057817914 0.68699998 -0.040954359 1.336688e-38 368 274
0.059108373 0.68800002 -0.041013971 1.336688e-38 369 274
0.060314666 0.68800002 -0.041013971 1.2542196e-38 370 274
-0.0092295464 0.65799999 -0.040379263 1.8709927e-38 312 275
-0.0080758529 0.65799999 -0.040379263 1.8341503e-38 313 275
-0.0069642398 0.662 -0.04062473 1.8340039e-38 314 275
-0.0058035329 0.662 -0.04062473 1.8155289e-38 315 275
-0.0046358132 0.66100001 -0.040563367 1.806413e-38 316 275
-0.0034663398 0.65899998 -0.04044063 1.7603512e-38 317 275
-0.0023073866 0.65799999 -0.040379263 1.806302e-38 318 275
-0.00114668 0.65399998 -0.040133797 1.806302e-38 319 275
0 0.65399998 -0.040133797 1.843143e-38 320 275
0.0011484332 0.65499997 -0.040195163 1.843143e-38 321 275
0.0023073866 0.65799999 -0.040379263 1.8708013e-38 322 275
0.0034663398 0.65899998 -0.04044063 1.8708013e-38 323 275
0.0046217865 0.65899998 -0.04044063 1.8983158e-38 324 275
0.0057772328 0.65899998 -0.04044063 1.8983158e-38 325 275
0.00695372 0.66100001 -0.040563367 1.8707647e-38 326 275
0.0081126727 0.66100001 -0.040563367 1.8707647e-38 327 275
0.0092716264 0.66100001 -0.040563367 1.8523982e-38 328 275
0.01043058 0.66100001 -0.040563367 1.8431786e-38 329 275
0.011589534 0.66100001 -0.040563367 1.8154489e-38 330 275
0.012748486 0.66100001 -0.040563367 1.7509119e-38 331 275
0.01390744 0.66100001 -0.040563367 1.7600966e-38 332 275
0.015066394 0.66100001 -0.040563367 1.7693162e-38 333 275
0.016249891 0.662 -0.04062473 1.7786079e-38 334 275
0.017410601 0.662 -0.04062473 1.7878274e-38 335 275
0.018571306 0.662 -0.04062473 1.7878628e-38 336 275
0.019791625 0.66399997 -0.040747464 1.7693878e-38 337 275
0.020955838 0.66399997 -0.040747464 1.7693862e-38 338 275
0.022120051 0.66399997 -0.040747464 1.750947e-38 339 275
0.023354398 0.66600001 -0.040870197 1.7326157e-38 340 275
0.02452212 0.66600001 -0.040870197 1.7141766e-38 341 275
0.025728412 0.667 -0.040931564 1.6865549e-38 342 275
0.026897885 0.667 -0.040931564 1.6773353e-38 343 275
0.028109439 0.66799998 -0.040992931 1.6405297e-38 344 275
0.029280664 0.66799998 -0.040992931 1.6497492e-38 345 275
0.030543067 0.67000002 -0.041115668 1.6037236e-38 346 275
0.0317178 0.67000002 -0.041115668 1.6037236e-38 347 275
0.032892533 0.67000002 -0.041115668 1.5853568e-38 348 275
0.034067266 0.67000002 -0.041115668 1.5761372e-38 349 275
0.035241999 0.67000002 -0.041115668 1.5669545e-38 350 275
0.036471087 0.671 -0.041177034 1.5485155e-38 351 275
0.037703678 0.67199999 -0.041238401 1.5485155e-38 352 275
0.03888192 0.67199999 -0.041238401 1.539296e-38 353 275
0.040179387 0.67400002 -0.041361131 1.5485158e-38 354 275
0.041361131 0.67400002 -0.041361131 1.5392962e-38 355 275
0.042669121 0.676 -0.041483864 1.5300767e-38 356 275
0.043854371 0.676 -0.041483864 1.5116015e-38 357 275
0.045172878 0.67799997 -0.041606598 1.4747956e-38 358 275
0.046430022 0.67900002 -0.041667968 1.4563565e-38 359 275
0.047690667 0.68000001 -0.041729335 1.4104035e-38 360 275
0.049098592 0.68300003 -0.041913435 1.4011838e-38 361 275
0.050369758 0.68400002 -0.041974798 1.3828179e-38 362 275
0.051569041 0.68400002 -0.041974798 1.3735624e-38 363 275
0.05292261 0.68599999 -0.042097531 1.3643431e-38 364 275
0.054204296 0.68699998 -0.042158898 1.3735627e-38 365 275
0.055408835 0.68699998 -0.042158898 1.3551246e-38 366 275
0.056613375 0.68699998 -0.042158898 1.3551246e-38 367 275
0.057817914 0.68699998 -0.042158898 1.3090665e-38 368 275
0.059022456 0.68699998 -0.042158898 1.2445296e-38 369 275
-0.01843104 0.65700001 -0.041469838 1.8436965e-38 304 276
-0.0172791 0.65700001 -0.041469838 1.8436965e-38 305 276
-0.01612716 0.65700001 -0.041469838 1.8620628e-38 306 276
-0.014929632 0.65499997 -0.041343596 1.8251845e-38 307 276
-0.013781199 0.65499997 -0.041343596 1.825147e-38 308 276
-0.01038324 0.65799999 -0.04153296 1.751207e-38 311 276
-0.0092295464 0.65799999 -0.04153296 1.7970139e-38 312 276
-0.0080758529 0.65799999 -0.04153296 1.7970139e-38 313 276
-0.0069221598 0.65799999 -0.04153296 1.806232e-38 314 276
-0.0057684663 0.65799999 -0.04153296 1.8154515e-38 315 276
-0.0046147732 0.65799999 -0.04153296 1.8248133e-38 316 276
-0.0034452998 0.65499997 -0.041343596 1.8248133e-38 317 276
-0.0022968664 0.65499997 -0.041343596 1.8432152e-38 318 276
-0.00114668 0.65399998 -0.041280478 1.8432152e-38 319 276
0 0.65399998 -0.041280478 1.8523979e-38 320 276
0.0011484332 0.65499997 -0.041343596 1.8523979e-38 321 276
0.0022968664 0.65499997 -0.041343596 1.8799843e-38 322 276
0.0034610799 0.65799999 -0.04153296 1.8799843e-38 323 276
0.0046217865 0.65899998 -0.041596077 1.8799487e-38 324 276
0.0057772328 0.65899998 -0.041596077 1.8707291e-38 325 276
0.0069326796 0.65899998 -0.041596077 1.8523979e-38 326 276
0.0081126727 0.66100001 -0.04172232 1.8523979e-38 327 276
0.0092716264 0.66100001 -0.04172232 1.8431786e-38 328 276
0.010399019 0.65899998 -0.041596077 1.8339232e-38 329 276
0.011554466 0.65899998 -0.041596077 1.8062643e-38 330 276
0.012709912 0.65899998 -0.041596077 1.7786417e-38 331 276
0.013865359 0.65899998 -0.041596077 1.7786411e-38 332 276
0.015020805 0.65899998 -0.041596077 1.7786411e-38 333 276
0.016225345 0.66100001 -0.04172232 1.7694581e-38 334 276
0.0173843 0.66100001 -0.04172232 1.751055e-38 335 276
0.018571306 0.662 -0.041785441 1.7418004e-38 336 276
0.019761819 0.66299999 -0.041848559 1.7233611e-38 337 276
0.020924279 0.66299999 -0.041848559 1.7141413e-38 338 276
0.022120051 0.66399997 -0.041911677 1.6864827e-38 339 276
0.023284266 0.66399997 -0.041911677 1.6865549e-38 340 276
0.024448479 0.66399997 -0.041911677 1.6773353e-38 341 276
0.02568984 0.66600001 -0.042037919 1.6404941e-38 342 276
0.026857559 0.66600001 -0.042037919 1.6312744e-38 343 276
0.028067358 0.667 -0.042101037 1.6312747e-38 344 276
0.029236831 0.667 -0.042101037 1.6220192e-38 345 276
0.030451892 0.66799998 -0.042164158 1.5669176e-38 346 276
0.031623118 0.66799998 -0.042164158 1.5669176e-38 347 276
0.032794341 0.66799998 -0.042164158 1.5576625e-38 348 276
0.034067266 0.67000002 -0.042290401 1.5576625e-38 349 276
0.035241999 0.67000002 -0.042290401 1.539331e-38 350 276
0.036416732 0.67000002 -0.042290401 1.5301114e-38 351 276
0.037647571 0.671 -0.042353518 1.5301117e-38 352 276
0.038824059 0.671 -0.042353518 1.520892e-38 353 276
0.040060159 0.67199999 -0.042416636 1.5025255e-38 354 276
0.041361131 0.67400002 -0.042542879 1.4933059e-38 355 276
0.042606 0.67500001 -0.042606 1.474759e-38 356 276
0.043854371 0.676 -0.042669121 1.4563197e-38 357 276
0.045172878 0.67799997 -0.042795356 1.4011473e-38 358 276
0.046430022 0.67900002 -0.042858478 1.4011473e-38 359 276
0.047690667 0.68000001 -0.042921599 1.3459388e-38 360 276
0.049026705 0.68199998 -0.043047838 1.3736333e-38 361 276
0.050369758 0.68400002 -0.043174081 1.3826741e-38 362 276
0.051569041 0.68400002 -0.043174081 1.3826741e-38 363 276
0.05292261 0.68599999 -0.043300316 1.3643431e-38 364 276
0.054204296 0.68699998 -0.043363437 1.3643431e-38 365 276
0.055408835 0.68699998 -0.043363437 1.3367214e-38 366 276
0.056613375 0.68699998 -0.043363437 1.3275019e-38 367 276
0.057817914 0.68699998 -0.043363437 1.2538568e-38 368 276
0.059366114 0.69099998 -0.043615919 1.1893198e-38 369 276
-0.019612785 0.65799999 -0.042686652 1.8067451e-38 303 277
-0.018374931 0.65499997 -0.042492028 1.8434418e-38 304 277
-0.017226499 0.65499997 -0.042492028 1.8342222e-38 305 277
-0.016078066 0.65499997 -0.042492028 1.8341488e-38 306 277
-0.014929632 0.65499997 -0.042492028 1.8064541e-38 307 277
-0.013781199 0.65499997 -0.042492028 1.8155995e-38 308 277
-0.012632766 0.65499997 -0.042492028 1.7971604e-38 309 277
-0.011484332 0.65499997 -0.042492028 1.8155247e-38 310 277
-0.010335899 0.65499997 -0.042492028 1.7971216e-38 311 277
-0.0091874655 0.65499997 -0.042492028 1.8153784e-38 312 277
-0.008039033 0.65499997 -0.042492028 1.8246338e-38 313 277
-0.0068905996 0.65499997 -0.042492028 1.8339237e-38 314 277
-0.0057421662 0.65499997 -0.042492028 1.8431433e-38 315 277
-0.0045937328 0.65499997 -0.042492028 1.8432505e-38 316 277
-0.0034452998 0.65499997 -0.042492028 1.85247e-38 317 277
-0.0022968664 0.65499997 -0.042492028 1.8524698e-38 318 277
-0.00114668 0.65399998 -0.04242716 1.8524698e-38 319 277
0 0.65399998 -0.04242716 1.8708363e-38 320 277
0.00114668 0.65399998 -0.04242716 1.8800559e-38 321 277
0.00229336 0.65399998 -0.04242716 1.870836e-38 322 277
0.0034400397 0.65399998 -0.04242716 1.870836e-38 323 277
0.0045937328 0.65499997 -0.042492028 1.8799843e-38 324 277
0.0057684663 0.65799999 -0.042686652 1.8615451e-38 325 277
0.0069221598 0.65799999 -0.042686652 1.8615095e-38 326 277
0.0080758529 0.65799999 -0.042686652 1.85229e-38 327 277
0.0092435731 0.65899998 -0.042751525 1.8522547e-38 328 277
0.010399019 0.65899998 -0.042751525 1.8246319e-38 329 277
0.011536933 0.65799999 -0.042686652 1.8061924e-38 330 277
0.012690626 0.65799999 -0.042686652 1.7969729e-38 331 277
0.01384432 0.65799999 -0.042686652 1.7694215e-38 332 277
0.015020805 0.65899998 -0.042751525 1.760202e-38 333 277
0.016225345 0.66100001 -0.042881273 1.732616e-38 334 277
0.0173843 0.66100001 -0.042881273 1.7233606e-38 335 277
0.018543253 0.66100001 -0.042881273 1.6957748e-38 336 277
0.019702207 0.66100001 -0.042881273 1.6865552e-38 337 277
0.020924279 0.66299999 -0.043011017 1.6865552e-38 338 277
0.02208674 0.66299999 -0.043011017 1.6680802e-38 339 277
0.0232492 0.66299999 -0.043011017 1.6405293e-38 340 277
0.024448479 0.66399997 -0.043075889 1.6220901e-38 341 277
0.025612691 0.66399997 -0.043075889 1.6220548e-38 342 277
0.026776904 0.66399997 -0.043075889 1.6220548e-38 343 277
0.027941117 0.66399997 -0.043075889 1.5944684e-38 344 277
0.029192999 0.66600001 -0.043205637 1.5760293e-38 345 277
0.030406304 0.667 -0.04327051 1.5576981e-38 346 277
0.03157578 0.667 -0.04327051 1.5484427e-38 347 277
0.032794341 0.66799998 -0.043335386 1.5392232e-38 348 277
0.034067266 0.67000002 -0.043465134 1.5208201e-38 349 277
0.035241999 0.67000002 -0.043465134 1.5024173e-38 350 277
0.036416732 0.67000002 -0.043465134 1.4840142e-38 351 277
0.037647571 0.671 -0.043530006 1.4747593e-38 352 277
0.038824059 0.671 -0.043530006 1.4747593e-38 353 277
0.040060159 0.67199999 -0.043594878 1.4655395e-38 354 277
0.041238401 0.67199999 -0.043594878 1.4378806e-38 355 277
0.042542879 0.67400002 -0.043724626 1.4195491e-38 356 277
0.043854371 0.676 -0.043854371 1.4103296e-38 357 277
0.045172878 0.67799997 -0.043984115 1.3826725e-38 358 277
0.046430022 0.67900002 -0.044048995 1.391928e-38 359 277
0.047690667 0.68000001 -0.044113863 1.3734898e-38 360 277
0.049026705 0.68199998 -0.044243611 1.3734898e-38 361 277
0.050369758 0.68400002 -0.04437336 1.3734901e-38 362 277
0.051569041 0.68400002 -0.04437336 1.3827097e-38 363 277
0.052999757 0.68699998 -0.044567976 1.3367565e-38 364 277
0.054204296 0.68699998 -0.044567976 1.3551955e-38 365 277
0.055489492 0.68800002 -0.044632856 1.3642372e-38 366 277
0.056695789 0.68800002 -0.044632856 1.2904807e-38 367 277
0.058070395 0.69 -0.0447626 1.1251795e-38 368 277
0.059366114 0.69099998 -0.044827472 1.1159599e-38 369 277
-0.020671798 0.65499997 -0.043640465 1.8064891e-38 302 278
-0.019523365 0.65499997 -0.043640465 1.7972695e-38 303 278
-0.018318826 0.653 -0.043507211 1.8154896e-38 304 278
-0.017173899 0.653 -0.043507211 1.7786474e-38 305 278
-0.016028972 0.653 -0.043507211 1.7877924e-38 306 278
-0.014906839 0.65399998 -0.043573838 1.7970121e-38 307 278
-0.013760159 0.65399998 -0.043573838 1.7970118e-38 308 278
-0.012632766 0.65499997 -0.043640465 1.8154868e-38 309 278
-0.011484332 0.65499997 -0.043640465 1.8523647e-38 310 278
-0.01032012 0.65399998 -0.043573838 1.8431092e-38 311 278
-0.0091734398 0.65399998 -0.043573838 1.8523275e-38 312 278
-0.008039033 0.65499997 -0.043640465 1.8707306e-38 313 278
-0.0068905996 0.65499997 -0.043640465 1.8523979e-38 314 278
-0.0057333997 0.65399998 -0.043573838 1.870801e-38 315 278
-0.0045867199 0.65399998 -0.043573838 1.8708366e-38 316 278
-0.0034452998 0.65499997 -0.043640465 1.8708366e-38 317 278
-0.0022968664 0.65499997 -0.043640465 1.85247e-38 318 278
-0.00114668 0.65399998 -0.043573838 1.85247e-38 319 278
0 0.65399998 -0.043573838 1.85247e-38 320 278
0.00114668 0.65399998 -0.043573838 1.85247e-38 321 278
0.00229336 0.65399998 -0.043573838 1.8432502e-38 322 278
0.0034400397 0.65399998 -0.043573838 1.8432502e-38 323 278
0.0045867199 0.65399998 -0.043573838 1.8432136e-38 324 278
0.0057596997 0.65700001 -0.043773718 1.8339941e-38 325 278
0.0069116396 0.65700001 -0.043773718 1.8522178e-38 326 278
0.0080635799 0.65700001 -0.043773718 1.8522178e-38 327 278
0.0092155198 0.65700001 -0.043773718 1.8154836e-38 328 278
0.01036746 0.65700001 -0.043773718 1.7878609e-38 329 278
0.011519399 0.65700001 -0.043773718 1.7786414e-38 330 278
0.01267134 0.65700001 -0.043773718 1.7602022e-38 331 278
0.013823279 0.65700001 -0.043773718 1.7233962e-38 332 278
0.01497522 0.65700001 -0.043773718 1.7049212e-38 333 278
0.016176252 0.65899998 -0.043906972 1.7141057e-38 334 278
0.017331699 0.65899998 -0.043906972 1.686483e-38 335 278
0.018543253 0.66100001 -0.044040225 1.6589685e-38 336 278
0.019702207 0.66100001 -0.044040225 1.6405293e-38 337 278
0.02086116 0.66100001 -0.044040225 1.6588958e-38 338 278
0.022053426 0.662 -0.044106852 1.6312731e-38 339 278
0.023214132 0.662 -0.044106852 1.603687e-38 340 278
0.024374841 0.662 -0.044106852 1.5944316e-38 341 278
0.025535546 0.662 -0.044106852 1.5944321e-38 342 278
0.026696252 0.662 -0.044106852 1.5944321e-38 343 278
0.027899038 0.66299999 -0.044173479 1.5576262e-38 344 278
0.02910533 0.66399997 -0.044240102 1.5576262e-38 345 278
0.030360719 0.66600001 -0.04437336 1.5391879e-38 346 278
0.031528439 0.66600001 -0.04437336 1.5207848e-38 347 278
0.032745253 0.667 -0.044439986 1.502382e-38 348 278
0.033965573 0.66799998 -0.044506609 1.4747593e-38 349 278
0.035136797 0.66799998 -0.044506609 1.4287334e-38 350 278
0.036416732 0.67000002 -0.044639867 1.4195138e-38 351 278
0.037591465 0.67000002 -0.044639867 1.4102586e-38 352 278
0.038824059 0.671 -0.044706494 1.4010391e-38 353 278
0.040000543 0.671 -0.044706494 1.4010394e-38 354 278
0.041238401 0.67199999 -0.044773117 1.3918198e-38 355 278
0.042416636 0.67199999 -0.044773117 1.3550864e-38 356 278
0.043789499 0.67500001 -0.044972997 1.3550864e-38 357 278
0.045039624 0.676 -0.045039624 1.3734177e-38 358 278
0.046361636 0.67799997 -0.045172878 1.3734177e-38 359 278
0.047690667 0.68000001 -0.045306131 1.3551583e-38 360 278
0.049098592 0.68300003 -0.045506012 1.3459388e-38 361 278
0.050369758 0.68400002 -0.045572639 1.3551586e-38 362 278
0.051719822 0.68599999 -0.045705888 1.3551586e-38 363 278
0.052999757 0.68699998 -0.045772515 1.3551599e-38 364 278
0.054283202 0.68800002 -0.045839146 1.3367568e-38 365 278
0.055489492 0.68800002 -0.045839146 1.3274684e-38 366 278
0.0568606 0.69 -0.045972396 1.2168336e-38 367 278
0.058070395 0.69 -0.045972396 1.0606441e-38 368 278
0.059366114 0.69099998 -0.046039023 1.0975583e-38 369 278
-0.033253718 0.65399998 -0.044720516 1.8252933e-38 291 279
-0.032008853 0.65200001 -0.044583756 1.8068173e-38 292 279
-0.030865679 0.65200001 -0.044583756 1.7699749e-38 293 279
-0.022863466 0.65200001 -0.044583756 1.8154899e-38 300 279
-0.021720294 0.65200001 -0.044583756 1.7970868e-38 301 279
-0.02057712 0.65200001 -0.044583756 1.7971218e-38 302 279
-0.019374331 0.64999998 -0.044446997 1.7971218e-38 303 279
-0.018234665 0.64999998 -0.044446997 1.8430023e-38 304 279
-0.017095 0.64999998 -0.044446997 1.8337828e-38 305 279
-0.016004426 0.65200001 -0.044583756 1.8338884e-38 306 279
-0.014861252 0.65200001 -0.044583756 1.843108e-38 307 279
-0.01371808 0.65200001 -0.044583756 1.833995e-38 308 279
-0.012613479 0.65399998 -0.044720516 1.833995e-38 309 279
-0.011466799 0.65399998 -0.044720516 1.8523982e-38 310 279
-0.01032012 0.65399998 -0.044720516 1.8523982e-38 311 279
-0.0091734398 0.65399998 -0.044720516 1.870766e-38 312 279
-0.008039033 0.65499997 -0.044788897 1.870766e-38 313 279
-0.0068905996 0.65499997 -0.044788897 1.8523982e-38 314 279
-0.0057333997 0.65399998 -0.044720516 1.8708013e-38 315 279
-0.0045867199 0.65399998 -0.044720516 1.8707291e-38 316 279
-0.0034400397 0.65399998 -0.044720516 1.8615095e-38 317 279
-0.00229336 0.65399998 -0.044720516 1.8615098e-38 318 279
-0.00114668 0.65399998 -0.044720516 1.8615098e-38 319 279
0 0.65399998 -0.044720516 1.8523982e-38 320 279
0.00114668 0.65399998 -0.044720516 1.8339232e-38 321 279
0.00229336 0.65399998 -0.044720516 1.8339585e-38 322 279
0.0034400397 0.65399998 -0.044720516 1.8247389e-38 323 279
0.0045867199 0.65399998 -0.044720516 1.8062996e-38 324 279
0.0057421662 0.65499997 -0.044788897 1.7694215e-38 325 279
0.0068905996 0.65499997 -0.044788897 1.8061203e-38 326 279
0.008039033 0.65499997 -0.044788897 1.8061203e-38 327 279
0.0091874655 0.65499997 -0.044788897 1.7602017e-38 328 279
0.010335899 0.65499997 -0.044788897 1.7233593e-38 329 279
0.011484332 0.65499997 -0.044788897 1.6865887e-38 330 279
0.012632766 0.65499997 -0.044788897 1.6773691e-38 331 279
0.013781199 0.65499997 -0.044788897 1.6681138e-38 332 279
0.014929632 0.65499997 -0.044788897 1.6496747e-38 333 279
0.01612716 0.65700001 -0.04492566 1.6495678e-38 334 279
0.017305398 0.65799999 -0.044994038 1.6771905e-38 335 279
0.018487146 0.65899998 -0.045062415 1.6312728e-38 336 279
0.019642593 0.65899998 -0.045062415 1.6036142e-38 337 279
0.02086116 0.66100001 -0.045199182 1.5943939e-38 338 279
0.022020113 0.66100001 -0.045199182 1.5759908e-38 339 279
0.023179067 0.66100001 -0.045199182 1.5760276e-38 340 279
0.02433802 0.66100001 -0.045199182 1.5760276e-38 341 279
0.025496973 0.66100001 -0.045199182 1.5943591e-38 342 279
0.026696252 0.662 -0.04526756 1.5759202e-38 343 279
0.027856959 0.662 -0.04526756 1.5575532e-38 344 279
0.029061496 0.66299999 -0.045335937 1.5391501e-38 345 279
0.030269546 0.66399997 -0.045404319 1.5298952e-38 346 279
0.031433757 0.66399997 -0.045404319 1.5114202e-38 347 279
0.032696161 0.66600001 -0.045541082 1.4563551e-38 348 279
0.033914726 0.667 -0.045609459 1.4010378e-38 349 279
0.035084199 0.667 -0.045609459 1.3365012e-38 350 279
0.036416732 0.67000002 -0.0458146 1.2811838e-38 351 279
0.037591465 0.67000002 -0.0458146 1.2260832e-38 352 279
0.038824059 0.671 -0.045882981 1.2906201e-38 353 279
0.040000543 0.671 -0.045882981 1.3182078e-38 354 279
0.041238401 0.67199999 -0.045951359 1.3274273e-38 355 279
0.042416636 0.67199999 -0.045951359 1.3549781e-38 356 279
0.043789499 0.67500001 -0.0461565 1.3642337e-38 357 279
0.045039624 0.676 -0.046224877 1.3459388e-38 358 279
0.046224877 0.676 -0.046224877 1.3459388e-38 359 279
0.047620531 0.67900002 -0.046430022 1.3550867e-38 360 279
0.049026705 0.68199998 -0.046635158 1.3550867e-38 361 279
0.05029612 0.68300003 -0.04670354 1.3368274e-38 362 279
0.051569041 0.68400002 -0.046771921 1.3368274e-38 363 279
0.052999757 0.68699998 -0.046977058 1.3643444e-38 364 279
0.054283202 0.68800002 -0.047045439 1.2998075e-38 365 279
0.055489492 0.68800002 -0.047045439 1.1710252e-38 366 279
0.0568606 0.69 -0.047182199 1.0972687e-38 367 279
0.058154557 0.69099998 -0.047250576 1.1248217e-38 368 279
-0.034347799 0.653 -0.045797065 1.8526968e-38 290 280
-0.033050328 0.64999998 -0.045586664 1.806599e-38 291 280
-0.031910665 0.64999998 -0.045586664 1.806561e-38 292 280
-0.030723657 0.64899999 -0.045516532 1.7789383e-38 293 280
-0.029585747 0.64899999 -0.045516532 1.7971581e-38 294 280
-0.028447833 0.64899999 -0.045516532 1.7603159e-38 295 280
-0.027309919 0.64899999 -0.045516532 1.8062293e-38 296 280
-0.026212333 0.64999998 -0.045586664 1.7601316e-38 297 280
-0.025034092 0.64899999 -0.045516532 1.7969357e-38 298 280
-0.023896178 0.64899999 -0.045516532 1.8245943e-38 299 280
-0.022758266 0.64899999 -0.045516532 1.8061912e-38 300 280
-0.021653665 0.64999998 -0.045586664 1.8245943e-38 301 280
-0.020513998 0.64999998 -0.045586664 1.8338516e-38 302 280
-0.019374331 0.64999998 -0.045586664 1.8614742e-38 303 280
-0.018234665 0.64999998 -0.045586664 1.8614392e-38 304 280
-0.017095 0.64999998 -0.045586664 1.8706588e-38 305 280
-0.015955333 0.64999998 -0.045586664 1.8890962e-38 306 280
-0.014861252 0.65200001 -0.045726933 1.8890962e-38 307 280
-0.01371808 0.65200001 -0.045726933 1.8707641e-38 308 280
-0.012594193 0.653 -0.045797065 1.8707641e-38 309 280
-0.011449266 0.653 -0.045797065 1.8523982e-38 310 280
-0.01032012 0.65399998 -0.045867197 1.8523982e-38 311 280
-0.0091734398 0.65399998 -0.045867197 1.8524347e-38 312 280
-0.008039033 0.65499997 -0.04593733 1.8432152e-38 313 280
-0.0068905996 0.65499997 -0.04593733 1.8523628e-38 314 280
-0.0057333997 0.65399998 -0.045867197 1.8431433e-38 315 280
-0.0045867199 0.65399998 -0.045867197 1.8431433e-38 316 280
-0.0034400397 0.65399998 -0.045867197 1.8431433e-38 317 280
-0.0022898533 0.653 -0.045797065 1.8339237e-38 318 280
-0.0011449266 0.653 -0.045797065 1.8246683e-38 319 280
0 0.653 -0.045797065 1.7971894e-38 320 280
0.0011449266 0.653 -0.045797065 1.7971894e-38 321 280
0.00229336 0.65399998 -0.045867197 1.7878978e-38 322 280
0.0034400397 0.65399998 -0.045867197 1.7694587e-38 323 280
0.0045867199 0.65399998 -0.045867197 1.751055e-38 324 280
0.0057333997 0.65399998 -0.045867197 1.7326157e-38 325 280
0.0068800794 0.65399998 -0.045867197 1.714176e-38 326 280
0.0080267601 0.65399998 -0.045867197 1.7049565e-38 327 280
0.0091734398 0.65399998 -0.045867197 1.7048833e-38 328 280
0.01032012 0.65399998 -0.045867197 1.7048833e-38 329 280
0.011466799 0.65399998 -0.045867197 1.6406702e-38 330 280
0.012613479 0.65399998 -0.045867197 1.6314148e-38 331 280
0.013781199 0.65499997 -0.04593733 1.6220883e-38 332 280
0.014929632 0.65499997 -0.04593733 1.6128687e-38 333 280
0.016078066 0.65499997 -0.04593733 1.5944669e-38 334 280
0.0172791 0.65700001 -0.046077598 1.5944669e-38 335 280
0.018459093 0.65799999 -0.04614773 1.5760293e-38 336 280
0.019612785 0.65799999 -0.04614773 1.5760293e-38 337 280
0.020798039 0.65899998 -0.046217863 1.5576256e-38 338 280
0.021953486 0.65899998 -0.046217863 1.5484059e-38 339 280
0.023108931 0.65899998 -0.046217863 1.5392583e-38 340 280
0.02433802 0.66100001 -0.046358135 1.5208551e-38 341 280
0.025496973 0.66100001 -0.046358135 1.5208554e-38 342 280
0.026655925 0.66100001 -0.046358135 1.5116e-38 343 280
0.027856959 0.662 -0.046428263 1.4748662e-38 344 280
0.029017664 0.662 -0.046428263 1.4564271e-38 345 280
0.030178372 0.662 -0.046428263 1.4470631e-38 346 280
0.031433757 0.66399997 -0.046568532 1.4378435e-38 347 280
0.03259797 0.66399997 -0.046568532 1.3918901e-38 348 280
0.03386388 0.66600001 -0.046708796 1.3457923e-38 349 280
0.035084199 0.667 -0.046778932 1.2259775e-38 350 280
0.036416732 0.67000002 -0.046989333 1.1890633e-38 351 280
0.037591465 0.67000002 -0.046989333 1.1338557e-38 352 280
0.038824059 0.671 -0.047059465 1.2260512e-38 353 280
0.040000543 0.671 -0.047059465 1.2354139e-38 354 280
0.041238401 0.67199999 -0.047129598 1.272292e-38 355 280
0.042416636 0.67199999 -0.047129598 1.2999134e-38 356 280
0.043789499 0.67500001 -0.047339998 1.3183527e-38 357 280
0.045039624 0.676 -0.047410134 1.3366842e-38 358 280
0.046224877 0.676 -0.047410134 1.3459037e-38 359 280
0.047620531 0.67900002 -0.047620531 1.3459037e-38 360 280
0.049026705 0.68199998 -0.047830928 1.3459037e-38 361 280
0.050222475 0.68199998 -0.047830928 1.3275369e-38 362 280
0.051493648 0.68300003 -0.047901068 1.3367565e-38 363 280
0.05292261 0.68599999 -0.048111461 1.3275034e-38 364 280
0.054204296 0.68699998 -0.048181597 1.2537469e-38 365 280
0.055489492 0.68800002 -0.048251733 1.0973781e-38 366 280
-0.039888334 0.64999998 -0.046726331 1.76972e-38 285 281
-0.038689051 0.64899999 -0.046654444 1.7971604e-38 286 281
-0.037551139 0.64899999 -0.046654444 1.7602821e-38 287 281
-0.036469329 0.64999998 -0.046726331 1.7785755e-38 288 281
-0.035329666 0.64999998 -0.046726331 1.7785755e-38 289 281
-0.034189999 0.64999998 -0.046726331 1.7877218e-38 290 281
-0.033050328 0.64999998 -0.046726331 1.8061969e-38 291 281
-0.03186157 0.64899999 -0.046654444 1.8155234e-38 292 281
-0.03067632 0.648 -0.046582561 1.8339625e-38 293 281
-0.029540159 0.648 -0.046582561 1.8523641e-38 294 281
-0.028404001 0.648 -0.046582561 1.833925e-38 295 281
-0.02726784 0.648 -0.046582561 1.8522547e-38 296 281
-0.02613168 0.648 -0.046582561 1.8522547e-38 297 281
-0.024995521 0.648 -0.046582561 1.8523253e-38 298 281
-0.023859359 0.648 -0.046582561 1.8339222e-38 299 281
-0.0227232 0.648 -0.046582561 1.861473e-38 300 281
-0.021620352 0.64899999 -0.046654444 1.8706925e-38 301 281
-0.02048244 0.64899999 -0.046654444 1.8523982e-38 302 281
-0.019344525 0.64899999 -0.046654444 1.8523982e-38 303 281
-0.018206613 0.64899999 -0.046654444 1.8708013e-38 304 281
-0.017068699 0.64899999 -0.046654444 1.8708013e-38 305 281
-0.015930785 0.64899999 -0.046654444 1.8707291e-38 306 281
-0.014815666 0.64999998 -0.046726331 1.8707291e-38 307 281
-0.013675999 0.64999998 -0.046726331 1.8890959e-38 308 281
-0.012536332 0.64999998 -0.046726331 1.8890959e-38 309 281
-0.011431733 0.65200001 -0.046870105 1.8615449e-38 310 281
-0.01028856 0.65200001 -0.046870105 1.8523253e-38 311 281
-0.0091594132 0.653 -0.046941992 1.85229e-38 312 281
-0.0080144862 0.653 -0.046941992 1.8338869e-38 313 281
-0.0068695596 0.653 -0.046941992 1.8522184e-38 314 281
-0.0057246331 0.653 -0.046941992 1.8429628e-38 315 281
-0.0045797066 0.653 -0.046941992 1.8337788e-38 316 281
-0.0034347798 0.653 -0.046941992 1.8337788e-38 317 281
-0.0022863466 0.65200001 -0.046870105 1.8062278e-38 318 281
-0.0011431733 0.65200001 -0.046870105 1.7970082e-38 319 281
0 0.65200001 -0.046870105 1.7969363e-38 320 281
0.0011449266 0.653 -0.046941992 1.7784612e-38 321 281
0.0022898533 0.653 -0.046941992 1.723324e-38 322 281
0.0034347798 0.653 -0.046941992 1.7141044e-38 323 281
0.0045797066 0.653 -0.046941992 1.7048483e-38 324 281
0.0057333997 0.65399998 -0.047013879 1.667934e-38 325 281
0.0068800794 0.65399998 -0.047013879 1.6220164e-38 326 281
0.0080267601 0.65399998 -0.047013879 1.6404195e-38 327 281
0.0091734398 0.65399998 -0.047013879 1.6220164e-38 328 281
0.01032012 0.65399998 -0.047013879 1.6127969e-38 329 281
0.011466799 0.65399998 -0.047013879 1.6404198e-38 330 281
0.012613479 0.65399998 -0.047013879 1.6220167e-38 331 281
0.013760159 0.65399998 -0.047013879 1.5759555e-38 332 281
0.014906839 0.65399998 -0.047013879 1.5759555e-38 333 281
0.016078066 0.65499997 -0.047085766 1.5759911e-38 334 281
0.017226499 0.65499997 -0.047085766 1.5759911e-38 335 281
0.01843104 0.65700001 -0.04722954 1.5668078e-38 336 281
0.019582979 0.65700001 -0.04722954 1.5575882e-38 337 281
0.02076648 0.65799999 -0.047301427 1.5300018e-38 338 281
0.021920172 0.65799999 -0.047301427 1.5300018e-38 339 281
0.023108931 0.65899998 -0.04737331 1.5024155e-38 340 281
0.024264378 0.65899998 -0.04737331 1.5024155e-38 341 281
0.025496973 0.66100001 -0.047517084 1.4931243e-38 342 281
0.026655925 0.66100001 -0.047517084 1.4839046e-38 343 281
0.02781488 0.66100001 -0.047517084 1.4654652e-38 344 281
0.028973831 0.66100001 -0.047517084 1.4193674e-38 345 281
0.030178372 0.662 -0.047588971 1.3734137e-38 346 281
0.031386416 0.66299999 -0.047660857 1.3734137e-38 347 281
0.03259797 0.66399997 -0.047732744 1.299767e-38 348 281
0.03386388 0.66600001 -0.047876518 1.2536693e-38 349 281
0.035084199 0.667 -0.047948405 1.2166852e-38 350 281
0.036416732 0.67000002 -0.048164066 1.1890267e-38 351 281
0.037591465 0.67000002 -0.048164066 1.1797721e-38 352 281
0.038766202 0.67000002 -0.048164066 1.2350895e-38 353 281
0.040000543 0.671 -0.048235953 1.2445239e-38 354 281
0.041238401 0.67199999 -0.04830784 1.2814021e-38 355 281
0.042416636 0.67199999 -0.04830784 1.3090961e-38 356 281
0.043724626 0.67400002 -0.048451614 1.3183157e-38 357 281
0.045039624 0.676 -0.048595384 1.3366472e-38 358 281
0.046224877 0.676 -0.048595384 1.3458669e-38 359 281
0.047620531 0.67900002 -0.048811045 1.3183527e-38 360 281
0.048882935 0.68000001 -0.048882935 1.3367918e-38 361 281
0.050222475 0.68199998 -0.049026705 1.3550527e-38 362 281
0.051418249 0.68199998 -0.049026705 1.3182104e-38 363 281
0.052691177 0.68300003 -0.049098592 1.1802082e-38 364 281
0.054204296 0.68699998 -0.049386136 1.1064517e-38 365 281
-0.050145328 0.64999998 -0.047865998 1.8434792e-38 276 282
-0.048930272 0.64899999 -0.047792356 1.8434792e-38 277 282
-0.047792356 0.64899999 -0.047792356 1.8710283e-38 278 282
-0.046726331 0.64999998 -0.047865998 1.8249305e-38 279 282
-0.045586664 0.64999998 -0.047865998 1.8248209e-38 280 282
-0.044446997 0.64999998 -0.047865998 1.8064178e-38 281 282
-0.04330733 0.64999998 -0.047865998 1.8155998e-38 282 282
-0.042167664 0.64999998 -0.047865998 1.8155998e-38 283 282
-0.041027997 0.64999998 -0.047865998 1.8155252e-38 284 282
-0.039888334 0.64999998 -0.047865998 1.7694276e-38 285 282
-0.038689051 0.64899999 -0.047792356 1.7877909e-38 286 282
-0.037551139 0.64899999 -0.047792356 1.7693159e-38 287 282
-0.036413226 0.64899999 -0.047792356 1.7876809e-38 288 282
-0.03527531 0.64899999 -0.047792356 1.7969363e-38 289 282
-0.034137398 0.64899999 -0.047792356 1.7970076e-38 290 282
-0.032948639 0.648 -0.047718719 1.8339219e-38 291 282
-0.031812482 0.648 -0.047718719 1.8339215e-38 292 282
-0.030628979 0.64700001 -0.047645077 1.8615802e-38 293 282
-0.029494572 0.64700001 -0.047645077 1.8524329e-38 294 282
-0.028360168 0.64700001 -0.047645077 1.8339938e-38 295 282
-0.027225759 0.64700001 -0.047645077 1.8615446e-38 296 282
-0.026091354 0.64700001 -0.047645077 1.8339219e-38 297 282
-0.024956945 0.64700001 -0.047645077 1.8338136e-38 298 282
-0.023822539 0.64700001 -0.047645077 1.8061909e-38 299 282
-0.0227232 0.648 -0.047718719 1.8246672e-38 300 282
-0.02158704 0.648 -0.047718719 1.85229e-38 301 282
-0.020450879 0.648 -0.047718719 1.8614392e-38 302 282
-0.019314719 0.648 -0.047718719 1.8522196e-38 303 282
-0.01817856 0.648 -0.047718719 1.8522194e-38 304 282
-0.017068699 0.64899999 -0.047792356 1.8522194e-38 305 282
-0.015930785 0.64899999 -0.047792356 1.8522549e-38 306 282
-0.014792874 0.64899999 -0.047792356 1.8522549e-38 307 282
-0.013654959 0.64899999 -0.047792356 1.8614379e-38 308 282
-0.012536332 0.64999998 -0.047865998 1.8429628e-38 309 282
-0.011396666 0.64999998 -0.047865998 1.8339222e-38 310 282
-0.010256999 0.64999998 -0.047865998 1.8246666e-38 311 282
-0.0091453865 0.65200001 -0.048013281 1.8061922e-38 312 282
-0.0080022132 0.65200001 -0.048013281 1.8061922e-38 313 282
-0.0068590399 0.65200001 -0.048013281 1.8061571e-38 314 282
-0.0057158666 0.65200001 -0.048013281 1.7969376e-38 315 282
-0.0045586661 0.64999998 -0.047865998 1.7694218e-38 316 282
-0.0034189997 0.64999998 -0.047865998 1.7509467e-38 317 282
-0.0022793331 0.64999998 -0.047865998 1.741798e-38 318 282
-0.0011396665 0.64999998 -0.047865998 1.7141395e-38 319 282
