# .PCD v.7 - Point Cloud Data file format
FIELDS x y z rgb imX imY
SIZE 4 4 4 4 4 4
TYPE F F F F F F
COUNT 1 1 1 1 1 1
WIDTH 847
HEIGHT 1
VIEWPOINT 0 0 0 1 0 0 0
POINTS 847
DATA ascii
0.1138825 0.70599997 -0.066844068 1.4468135e-38 412 294
0.11512035 0.70599997 -0.066844068 1.4744722e-38 413 294
0.11635821 0.70599997 -0.066844068 1.5396279e-38 414 294
0.11759606 0.70599997 -0.066844068 1.6502627e-38 415 294
0.0784266 0.70999998 -0.068467662 1.5852897e-38 383 295
0.079671465 0.70999998 -0.068467662 1.6496448e-38 384 295
0.08091633 0.70999998 -0.068467662 1.6589003e-38 385 295
0.081814043 0.70700002 -0.068178371 1.6866297e-38 386 295
0.082936168 0.70599997 -0.06808193 1.7142524e-38 387 295
0.083935574 0.704 -0.067889065 1.7510215e-38 388 295
0.085169919 0.704 -0.067889065 1.7694606e-38 389 295
0.086281531 0.70300001 -0.067792632 1.7970472e-38 390 295
0.087265149 0.70099998 -0.067599766 1.8062667e-38 391 295
0.088367991 0.69999999 -0.067503333 1.8154863e-38 392 295
0.089595325 0.69999999 -0.067503333 1.8339253e-38 393 295
0.090822659 0.69999999 -0.067503333 1.8340329e-38 394 295
0.092049994 0.69999999 -0.067503333 1.8340329e-38 395 295
0.093010828 0.69800001 -0.06731046 1.8432524e-38 396 295
0.094234653 0.69800001 -0.06731046 1.8432524e-38 397 295
0.095458478 0.69800001 -0.06731046 1.8523997e-38 398 295
0.09668231 0.69800001 -0.06731046 1.8339247e-38 399 295
0.097906128 0.69800001 -0.06731046 1.8155566e-38 400 295
0.09912996 0.69800001 -0.06731046 1.7786782e-38 401 295
0.10035378 0.69800001 -0.06731046 1.7877177e-38 402 295
0.10157761 0.69800001 -0.06731046 1.7600949e-38 403 295
0.10280143 0.69800001 -0.06731046 1.7415483e-38 404 295
0.10402527 0.69800001 -0.06731046 1.7231092e-38 405 295
0.10524909 0.69800001 -0.06731046 1.6955229e-38 406 295
0.106778 0.69999999 -0.067503333 1.6863034e-38 407 295
0.10800533 0.69999999 -0.067503333 1.6403139e-38 408 295
0.1093887 0.70099998 -0.067599766 1.6126912e-38 409 295
0.1109334 0.70300001 -0.067792632 1.5575176e-38 410 295
0.11232555 0.704 -0.067889065 1.5206754e-38 411 295
0.1138825 0.70599997 -0.06808193 1.4468498e-38 412 295
0.11512035 0.70599997 -0.06808193 1.4284467e-38 413 295
0.11635821 0.70599997 -0.06808193 1.4936376e-38 414 295
0.11759606 0.70599997 -0.06808193 1.6042723e-38 415 295
0.11883391 0.70599997 -0.06808193 1.6227876e-38 416 295
0.078205675 0.708 -0.069516152 1.5944373e-38 383 296
0.079447038 0.708 -0.069516152 1.6405335e-38 384 296
0.080688395 0.708 -0.069516152 1.649753e-38 385 296
0.081698313 0.70599997 -0.069319785 1.6958137e-38 386 296
0.082701221 0.704 -0.06912341 1.7234723e-38 387 296
0.083577886 0.70099998 -0.068828844 1.7510937e-38 388 296
0.084806979 0.70099998 -0.068828844 1.7603132e-38 389 296
0.086036064 0.70099998 -0.068828844 1.8062667e-38 390 296
0.087140664 0.69999999 -0.068730667 1.8154863e-38 391 296
0.088367991 0.69999999 -0.068730667 1.8155938e-38 392 296
0.089339346 0.69800001 -0.068534292 1.8248133e-38 393 296
0.090563171 0.69800001 -0.068534292 1.8248852e-38 394 296
0.091787003 0.69800001 -0.068534292 1.8248852e-38 395 296
0.092877567 0.69700003 -0.068436109 1.8248855e-38 396 296
0.094099648 0.69700003 -0.068436109 1.8156301e-38 397 296
0.095321722 0.69700003 -0.068436109 1.8430729e-38 398 296
0.096543796 0.69700003 -0.068436109 1.8338534e-38 399 296
0.09776587 0.69700003 -0.068436109 1.8246686e-38 400 296
0.098987937 0.69700003 -0.068436109 1.7878262e-38 401 296
0.10035378 0.69800001 -0.068534292 1.7876461e-38 402 296
0.10157761 0.69800001 -0.068534292 1.7692069e-38 403 296
0.10280143 0.69800001 -0.068534292 1.732329e-38 404 296
0.10402527 0.69800001 -0.068534292 1.7138539e-38 405 296
0.10524909 0.69800001 -0.068534292 1.6863034e-38 406 296
0.10647292 0.69800001 -0.068534292 1.6770479e-38 407 296
0.10769674 0.69800001 -0.068534292 1.6219108e-38 408 296
0.10923266 0.69999999 -0.068730667 1.6034716e-38 409 296
0.11061779 0.70099998 -0.068828844 1.5391148e-38 410 296
0.11216599 0.70300001 -0.069025226 1.5114202e-38 411 296
0.11355989 0.704 -0.06912341 1.4192271e-38 412 296
0.11512035 0.70599997 -0.069319785 1.400752e-38 413 296
0.11635821 0.70599997 -0.069319785 1.4751985e-38 414 296
0.11759606 0.70599997 -0.069319785 1.5857973e-38 415 296
0.11883391 0.70599997 -0.069319785 1.6502665e-38 416 296
0.078205675 0.708 -0.070757516 1.5394086e-38 383 297
0.079447038 0.708 -0.070757516 1.6404982e-38 384 297
0.080688395 0.708 -0.070757516 1.6773764e-38 385 297
0.081698313 0.70599997 -0.070557632 1.7141818e-38 386 297
0.082583755 0.70300001 -0.070257813 1.7234372e-38 387 297
0.083577886 0.70099998 -0.070057929 1.7786809e-38 388 297
0.084806979 0.70099998 -0.070057929 1.7786809e-38 389 297
0.08591333 0.69999999 -0.069957994 1.8063023e-38 390 297
0.087140664 0.69999999 -0.069957994 1.8155219e-38 391 297
0.088115521 0.69800001 -0.069758117 1.824813e-38 392 297
0.089211352 0.69700003 -0.069658175 1.8340685e-38 393 297
0.090433426 0.69700003 -0.069658175 1.8248849e-38 394 297
0.09152399 0.69599998 -0.069558233 1.8248849e-38 395 297
0.092744313 0.69599998 -0.069558233 1.8248133e-38 396 297
0.094099648 0.69700003 -0.069658175 1.8063742e-38 397 297
0.095321722 0.69700003 -0.069658175 1.8154863e-38 398 297
0.096405275 0.69599998 -0.069558233 1.7970472e-38 399 297
0.097625598 0.69599998 -0.069558233 1.7878272e-38 400 297
0.098845914 0.69599998 -0.069558233 1.7509849e-38 401 297
0.10021002 0.69700003 -0.069658175 1.7692793e-38 402 297
0.10143209 0.69700003 -0.069658175 1.75084e-38 403 297
0.10265417 0.69700003 -0.069658175 1.7231808e-38 404 297
0.10387623 0.69700003 -0.069658175 1.695558e-38 405 297
0.10509831 0.69700003 -0.069658175 1.6495688e-38 406 297
0.10632038 0.69700003 -0.069658175 1.6403492e-38 407 297
0.10769674 0.69800001 -0.069758117 1.5851767e-38 408 297
0.10892057 0.69800001 -0.069758117 1.5759571e-38 409 297
0.11046 0.69999999 -0.069957994 1.5390792e-38 410 297
0.11168733 0.69999999 -0.069957994 1.5114205e-38 411 297
0.11339859 0.70300001 -0.070257813 1.3824576e-38 412 297
0.11479424 0.704 -0.070357755 1.3456153e-38 413 297
0.11602858 0.704 -0.070357755 1.4658717e-38 414 297
0.11726292 0.704 -0.070357755 1.5949456e-38 415 297
0.11883391 0.70599997 -0.070557632 1.6595219e-38 416 297
0.078205675 0.708 -0.071998879 1.5027827e-38 383 298
0.079447038 0.708 -0.071998879 1.6680848e-38 384 298
0.080460466 0.70599997 -0.071795486 1.6957436e-38 385 298
0.081119716 0.70099998 -0.071287021 1.7142174e-38 386 298
0.082231328 0.69999999 -0.071185328 1.7326565e-38 387 298
0.083220214 0.69800001 -0.07098195 1.7695332e-38 388 298
0.084444039 0.69800001 -0.07098195 1.7787528e-38 389 298
0.085667863 0.69800001 -0.07098195 1.8155219e-38 390 298
0.086767212 0.69700003 -0.070880257 1.833925e-38 391 298
0.087989278 0.69700003 -0.070880257 1.8248849e-38 392 298
0.089083351 0.69599998 -0.070778556 1.8156654e-38 393 298
0.090044186 0.69400001 -0.07057517 1.8340685e-38 394 298
0.091260992 0.69400001 -0.07057517 1.824813e-38 395 298
0.092477806 0.69400001 -0.07057517 1.8339603e-38 396 298
0.09369462 0.69400001 -0.07057517 1.8063376e-38 397 298
0.094911434 0.69400001 -0.07057517 1.7878628e-38 398 298
0.096128248 0.69400001 -0.07057517 1.7786432e-38 399 298
0.097345062 0.69400001 -0.07057517 1.7969025e-38 400 298
0.098561876 0.69400001 -0.07057517 1.787683e-38 401 298
0.099778689 0.69400001 -0.07057517 1.7600952e-38 402 298
0.10128655 0.69599998 -0.070778556 1.7416202e-38 403 298
0.10250687 0.69599998 -0.070778556 1.6956297e-38 404 298
0.1037272 0.69599998 -0.070778556 1.6771905e-38 405 298
0.10494751 0.69599998 -0.070778556 1.6220177e-38 406 298
0.10616783 0.69599998 -0.070778556 1.6127981e-38 407 298
0.10754246 0.69700003 -0.070880257 1.5851767e-38 408 298
0.10876452 0.69700003 -0.070880257 1.5575179e-38 409 298
0.1101444 0.69800001 -0.07098195 1.5207122e-38 410 298
0.11168733 0.69999999 -0.071185328 1.483834e-38 411 298
0.11307596 0.70099998 -0.071287021 1.3641264e-38 412 298
0.11479424 0.704 -0.071592107 1.2995894e-38 413 298
0.11602858 0.704 -0.071592107 1.4198814e-38 414 298
0.11726292 0.704 -0.071592107 1.5673945e-38 415 298
0.11883391 0.70599997 -0.071795486 1.6779249e-38 416 298
0.077763841 0.704 -0.072826453 1.5028549e-38 383 299
0.078998186 0.704 -0.072826453 1.6681566e-38 384 299
0.080232531 0.704 -0.072826453 1.6958152e-38 385 299
0.080772556 0.69800001 -0.072205767 1.7510233e-38 386 299
0.081996389 0.69800001 -0.072205767 1.7602429e-38 387 299
0.083100989 0.69700003 -0.072102323 1.7971193e-38 388 299
0.084323063 0.69700003 -0.072102323 1.7971193e-38 389 299
0.08554513 0.69700003 -0.072102323 1.7972623e-38 390 299
0.08664272 0.69599998 -0.071998879 1.8156654e-38 391 299
0.087610558 0.69400001 -0.071791984 1.815701e-38 392 299
0.088699378 0.69300002 -0.07168854 1.8249205e-38 393 299
0.089654945 0.69099998 -0.071481638 1.8340682e-38 394 299
0.090866491 0.69099998 -0.071481638 1.8248486e-38 395 299
0.092078045 0.69099998 -0.071481638 1.8522547e-38 396 299
0.093289606 0.69099998 -0.071481638 1.8246319e-38 397 299
0.094501153 0.69099998 -0.071481638 1.8245237e-38 398 299
0.095712706 0.69099998 -0.071481638 1.8061206e-38 399 299
0.09692426 0.69099998 -0.071481638 1.7418004e-38 400 299
0.098135822 0.69099998 -0.071481638 1.7418004e-38 401 299
0.099347368 0.69099998 -0.071481638 1.7233609e-38 402 299
0.10084998 0.69300002 -0.07168854 1.7049217e-38 403 299
0.10221232 0.69400001 -0.071791984 1.68641e-38 404 299
0.10342913 0.69400001 -0.071791984 1.6771905e-38 405 299
0.10464595 0.69400001 -0.071791984 1.6403848e-38 406 299
0.10586276 0.69400001 -0.071791984 1.6127262e-38 407 299
0.10738815 0.69599998 -0.071998879 1.594324e-38 408 299
0.10876452 0.69700003 -0.072102323 1.5666653e-38 409 299
0.1099866 0.69700003 -0.072102323 1.5206754e-38 410 299
0.11136822 0.69800001 -0.072205767 1.4929807e-38 411 299
0.11291467 0.69999999 -0.072412662 1.3179557e-38 412 299
0.11430506 0.70099998 -0.072516106 1.2718939e-38 413 299
0.11586377 0.70300001 -0.072723009 1.4474675e-38 414 299
0.11726292 0.704 -0.072826453 1.5857611e-38 415 299
0.11849727 0.704 -0.072826453 1.6871081e-38 416 299
0.077763841 0.704 -0.07406079 1.5212224e-38 383 300
0.078998186 0.704 -0.07406079 1.6681563e-38 384 300
0.079890631 0.70099998 -0.073745191 1.6958508e-38 385 300
0.080541112 0.69599998 -0.073219195 1.7510581e-38 386 300
0.081761435 0.69599998 -0.073219195 1.7787528e-38 387 300
0.082743309 0.69400001 -0.073008798 1.7971546e-38 388 300
0.083960123 0.69400001 -0.073008798 1.8063742e-38 389 300
0.085054204 0.69300002 -0.072903603 1.797262e-38 390 300
0.086269259 0.69300002 -0.072903603 1.815701e-38 391 300
0.087231837 0.69099998 -0.072693199 1.8340685e-38 392 300
0.088315398 0.69 -0.072587997 1.8340685e-38 393 300
0.0895252 0.69 -0.072587997 1.8431445e-38 394 300
0.090734996 0.69 -0.072587997 1.8431445e-38 395 300
0.091944791 0.69 -0.072587997 1.8431083e-38 396 300
0.093154602 0.69 -0.072587997 1.8246333e-38 397 300
0.094364397 0.69 -0.072587997 1.7971176e-38 398 300
0.095574193 0.69 -0.072587997 1.7694231e-38 399 300
0.096783996 0.69 -0.072587997 1.741872e-38 400 300
0.097993799 0.69 -0.072587997 1.7050296e-38 401 300
0.099203594 0.69 -0.072587997 1.6958101e-38 402 300
0.1004134 0.69 -0.072587997 1.6773351e-38 403 300
0.10177048 0.69099998 -0.072693199 1.6680082e-38 404 300
0.1032801 0.69300002 -0.072903603 1.649569e-38 405 300
0.10449516 0.69300002 -0.072903603 1.5852123e-38 406 300
0.10571022 0.69300002 -0.072903603 1.5944319e-38 407 300
0.10707957 0.69400001 -0.073008798 1.5667377e-38 408 300
0.10860847 0.69599998 -0.073219195 1.5298596e-38 409 300
0.10982879 0.69599998 -0.073219195 1.4837987e-38 410 300
0.11120867 0.69700003 -0.073324397 1.4745791e-38 411 300
0.11259206 0.69800001 -0.073429599 1.2626037e-38 412 300
0.11414199 0.69999999 -0.073639996 1.2441644e-38 413 300
0.11553414 0.70099998 -0.073745191 1.4566151e-38 414 300
0.11676323 0.70099998 -0.073745191 1.585689e-38 415 300
0.11849727 0.704 -0.07406079 1.6871079e-38 416 300
0.07665924 0.69400001 -0.074225612 1.5762881e-38 383 301
0.078661539 0.70099998 -0.074974284 1.6865241e-38 384 301
0.079890631 0.70099998 -0.074974284 1.7141468e-38 385 301
0.080309682 0.69400001 -0.074225612 1.7694259e-38 386 301
0.081526496 0.69400001 -0.074225612 1.7694259e-38 387 301
0.082624078 0.69300002 -0.074118659 1.7971193e-38 388 301
0.083597176 0.69099998 -0.073904753 1.7971193e-38 389 301
0.08480873 0.69099998 -0.073904753 1.7972269e-38 390 301
0.086020276 0.69099998 -0.073904753 1.8156301e-38 391 301
0.087105595 0.69 -0.0737978 1.8248133e-38 392 301
0.088059418 0.68800002 -0.073583893 1.8340329e-38 393 301
0.089265712 0.68800002 -0.073583893 1.8523278e-38 394 301
0.090471998 0.68800002 -0.073583893 1.8523278e-38 395 301
0.091678292 0.68800002 -0.073583893 1.8339603e-38 396 301
0.092884585 0.68800002 -0.073583893 1.8063376e-38 397 301
0.094090879 0.68800002 -0.073583893 1.8062646e-38 398 301
0.095297173 0.68800002 -0.073583893 1.7786061e-38 399 301
0.096503466 0.68800002 -0.073583893 1.7326878e-38 400 301
0.09770976 0.68800002 -0.073583893 1.7234681e-38 401 301
0.098916054 0.68800002 -0.073583893 1.6958098e-38 402 301
0.10012234 0.68800002 -0.073583893 1.6773707e-38 403 301
0.10162319 0.69 -0.0737978 1.6588242e-38 404 301
0.102833 0.69 -0.0737978 1.6403492e-38 405 301
0.10419358 0.69099998 -0.073904753 1.6035435e-38 406 301
0.10540513 0.69099998 -0.073904753 1.594324e-38 407 301
0.10692528 0.69300002 -0.074118659 1.5666656e-38 408 301
0.10829638 0.69400001 -0.074225612 1.5482264e-38 409 301
0.10951319 0.69400001 -0.074225612 1.5021652e-38 410 301
0.11104912 0.69599998 -0.074439511 1.465323e-38 411 301
0.11243074 0.69700003 -0.074546471 1.2626034e-38 412 301
0.11381588 0.69800001 -0.074653424 1.2441641e-38 413 301
0.11536932 0.69999999 -0.07486733 1.4657265e-38 414 301
0.11659666 0.69999999 -0.07486733 1.5948004e-38 415 301
0.07665924 0.69400001 -0.075442426 1.6129503e-38 383 302
0.077876054 0.69400001 -0.075442426 1.6958143e-38 384 302
0.079092868 0.69400001 -0.075442426 1.7234369e-38 385 302
0.080193959 0.69300002 -0.075333714 1.7602413e-38 386 302
0.081409015 0.69300002 -0.075333714 1.7786806e-38 387 302
0.082385622 0.69099998 -0.075116299 1.806267e-38 388 302
0.083234236 0.68800002 -0.074790187 1.8154866e-38 389 302
0.084440529 0.68800002 -0.074790187 1.7972269e-38 390 302
0.08564683 0.68800002 -0.074790187 1.8156301e-38 391 302
0.086853124 0.68800002 -0.074790187 1.8340685e-38 392 302
0.088059418 0.68800002 -0.074790187 1.8340685e-38 393 302
0.089265712 0.68800002 -0.074790187 1.8340685e-38 394 302
0.090340495 0.68699998 -0.074681476 1.824813e-38 395 302
0.09154503 0.68699998 -0.074681476 1.8155935e-38 396 302
0.092749573 0.68699998 -0.074681476 1.8063739e-38 397 302
0.093954116 0.68699998 -0.074681476 1.7787508e-38 398 302
0.095158651 0.68699998 -0.074681476 1.7510921e-38 399 302
0.096363194 0.68699998 -0.074681476 1.7235411e-38 400 302
0.097567737 0.68699998 -0.074681476 1.6958464e-38 401 302
0.098772272 0.68699998 -0.074681476 1.6865549e-38 402 302
0.099976815 0.68699998 -0.074681476 1.6681158e-38 403 302
0.10132864 0.68800002 -0.074790187 1.6404577e-38 404 302
0.10253493 0.68800002 -0.074790187 1.6219827e-38 405 302
0.1040428 0.69 -0.075007595 1.5942887e-38 406 302
0.10540513 0.69099998 -0.075116299 1.5758854e-38 407 302
0.10692528 0.69300002 -0.075333714 1.5390792e-38 408 302
0.10829638 0.69400001 -0.075442426 1.52064e-38 409 302
0.10951319 0.69400001 -0.075442426 1.4562832e-38 410 302
0.11104912 0.69599998 -0.075659841 1.4285886e-38 411 302
0.11243074 0.69700003 -0.075768545 1.2625317e-38 412 302
0.11365282 0.69700003 -0.075768545 1.2533121e-38 413 302
0.1150397 0.69800001 -0.075877249 1.4932779e-38 414 302
0.11626352 0.69800001 -0.075877249 1.6039486e-38 415 302
0.076548778 0.69300002 -0.076548778 1.6220983e-38 383 303
0.077763841 0.69300002 -0.076548778 1.6957787e-38 384 303
0.078978904 0.69300002 -0.076548778 1.7141818e-38 385 303
0.079962514 0.69099998 -0.076327853 1.7602058e-38 386 303
0.081174068 0.69099998 -0.076327853 1.7786809e-38 387 303
0.081908718 0.68699998 -0.075886011 1.797119e-38 388 303
0.083113261 0.68699998 -0.075886011 1.8063386e-38 389 303
0.084317796 0.68699998 -0.075886011 1.7972269e-38 390 303
0.085397847 0.68599999 -0.075775556 1.8156301e-38 391 303
0.086600631 0.68599999 -0.075775556 1.8248133e-38 392 303
0.087803423 0.68599999 -0.075775556 1.8340329e-38 393 303
0.089135952 0.68699998 -0.075886011 1.8523641e-38 394 303
0.090340495 0.68699998 -0.075886011 1.833925e-38 395 303
0.091411777 0.68599999 -0.075775556 1.8063742e-38 396 303
0.092614569 0.68599999 -0.075775556 1.7787155e-38 397 303
0.093817353 0.68599999 -0.075775556 1.7695315e-38 398 303
0.095020145 0.68599999 -0.075775556 1.7510565e-38 399 303
0.096363194 0.68699998 -0.075886011 1.7326527e-38 400 303
0.097567737 0.68699998 -0.075886011 1.6957745e-38 401 303
0.098772272 0.68699998 -0.075886011 1.686483e-38 402 303
0.099976815 0.68699998 -0.075886011 1.6680438e-38 403 303
0.10118135 0.68699998 -0.075886011 1.6495337e-38 404 303
0.10253493 0.68800002 -0.075996481 1.621911e-38 405 303
0.10374123 0.68800002 -0.075996481 1.5942533e-38 406 303
0.10525259 0.69 -0.076217398 1.5666305e-38 407 303
0.10661669 0.69099998 -0.076327853 1.5298599e-38 408 303
0.10814034 0.69300002 -0.076548778 1.5113849e-38 409 303
0.10951319 0.69400001 -0.07665924 1.4470636e-38 410 303
0.11073001 0.69400001 -0.07665924 1.419369e-38 411 303
0.11226943 0.69599998 -0.076880157 1.2993377e-38 412 303
0.11348975 0.69599998 -0.076880157 1.3269604e-38 413 303
0.11471007 0.69599998 -0.076880157 1.4564719e-38 414 303
0.11626352 0.69800001 -0.077101074 1.5763262e-38 415 303
0.076548778 0.69300002 -0.077763841 1.6221339e-38 383 304
0.077763841 0.69300002 -0.077763841 1.6958506e-38 384 304
0.078750968 0.69099998 -0.077539407 1.7050701e-38 385 304
0.079846799 0.69 -0.077427194 1.7602776e-38 386 304
0.080821648 0.68800002 -0.077202775 1.7695332e-38 387 304
0.081908718 0.68699998 -0.077090554 1.8063386e-38 388 304
0.082992278 0.68599999 -0.076978341 1.8155582e-38 389 304
0.084195063 0.68599999 -0.076978341 1.8156656e-38 390 304
0.085148886 0.68400002 -0.076753922 1.8248852e-38 391 304
0.086348161 0.68400002 -0.076753922 1.8340329e-38 392 304
0.087547436 0.68400002 -0.076753922 1.8340329e-38 393 304
0.088746719 0.68400002 -0.076753922 1.8431448e-38 394 304
0.089946002 0.68400002 -0.076753922 1.8339253e-38 395 304
0.091145277 0.68400002 -0.076753922 1.8154866e-38 396 304
0.092344552 0.68400002 -0.076753922 1.7970474e-38 397 304
0.093543842 0.68400002 -0.076753922 1.7602764e-38 398 304
0.094743125 0.68400002 -0.076753922 1.7418373e-38 399 304
0.096222922 0.68599999 -0.076978341 1.7050662e-38 400 304
0.097425714 0.68599999 -0.076978341 1.6866271e-38 401 304
0.098628499 0.68599999 -0.076978341 1.6773356e-38 402 304
0.099831291 0.68599999 -0.076978341 1.6404574e-38 403 304
0.10103408 0.68599999 -0.076978341 1.6219829e-38 404 304
0.10238589 0.68699998 -0.077090554 1.6035438e-38 405 304
0.10374123 0.68800002 -0.077202775 1.5941813e-38 406 304
0.10525259 0.69 -0.077427194 1.5757422e-38 407 304
0.10661669 0.69099998 -0.077539407 1.5114573e-38 408 304
0.10814034 0.69300002 -0.077763841 1.4930184e-38 409 304
0.10951319 0.69400001 -0.077876054 1.4470633e-38 410 304
0.11073001 0.69400001 -0.077876054 1.4193688e-38 411 304
0.11194682 0.69400001 -0.077876054 1.3271039e-38 412 304
0.11316364 0.69400001 -0.077876054 1.3639463e-38 413 304
0.11471007 0.69599998 -0.078100473 1.4289574e-38 414 304
0.075775556 0.68599999 -0.078181133 1.6405e-38 383 305
0.077202775 0.68800002 -0.078409068 1.6958856e-38 384 305
0.078409068 0.68800002 -0.078409068 1.7143606e-38 385 305
0.079615362 0.68800002 -0.078409068 1.7602776e-38 386 305
0.080704175 0.68699998 -0.078295097 1.7787528e-38 387 305
0.081789486 0.68599999 -0.078181133 1.8155584e-38 388 305
0.082992278 0.68599999 -0.078181133 1.824778e-38 389 305
0.083949596 0.68400002 -0.077953197 1.8248855e-38 390 305
0.085148886 0.68400002 -0.077953197 1.8248855e-38 391 305
0.086221918 0.68300003 -0.077839233 1.8431445e-38 392 305
0.087419443 0.68300003 -0.077839233 1.8431445e-38 393 305
0.088616975 0.68300003 -0.077839233 1.8339253e-38 394 305
0.089814499 0.68300003 -0.077839233 1.8154863e-38 395 305
0.091012023 0.68300003 -0.077839233 1.797119e-38 396 305
0.092209555 0.68300003 -0.077839233 1.7694962e-38 397 305
0.09340708 0.68300003 -0.077839233 1.7511287e-38 398 305
0.094604604 0.68300003 -0.077839233 1.7142506e-38 399 305
0.095802136 0.68300003 -0.077839233 1.7233977e-38 400 305
0.09699966 0.68300003 -0.077839233 1.6773e-38 401 305
0.098340958 0.68400002 -0.077953197 1.6588609e-38 402 305
0.099540241 0.68400002 -0.077953197 1.6312022e-38 403 305
0.10073952 0.68400002 -0.077953197 1.5944321e-38 404 305
0.1019388 0.68400002 -0.077953197 1.5851767e-38 405 305
0.10343964 0.68599999 -0.078181133 1.5390795e-38 406 305
0.10494752 0.68800002 -0.078409068 1.5390795e-38 407 305
0.10615382 0.68800002 -0.078409068 1.4839063e-38 408 305
0.1076722 0.69 -0.078636996 1.4562476e-38 409 305
0.1093554 0.69300002 -0.078978904 1.4286605e-38 410 305
0.11057046 0.69300002 -0.078978904 1.3918181e-38 411 305
0.11178552 0.69300002 -0.078978904 1.3455798e-38 412 305
0.11316364 0.69400001 -0.079092868 1.3455798e-38 413 305
0.11438045 0.69400001 -0.079092868 1.3921871e-38 414 305
0.074572764 0.68599999 -0.079383917 1.7050001e-38 382 306
0.075775556 0.68599999 -0.079383917 1.6865609e-38 383 306
0.076978341 0.68599999 -0.079383917 1.7327269e-38 384 306
0.078181133 0.68599999 -0.079383917 1.7419464e-38 385 306
0.07915248 0.68400002 -0.07915248 1.7970837e-38 386 306
0.080351762 0.68400002 -0.07915248 1.8063392e-38 387 306
0.081551038 0.68400002 -0.07915248 1.8248136e-38 388 306
0.082629345 0.68300003 -0.079036765 1.8340332e-38 389 306
0.08382687 0.68300003 -0.079036765 1.8340329e-38 390 306
0.084899902 0.68199998 -0.078921035 1.8340329e-38 391 306
0.085843198 0.68000001 -0.078689598 1.8523994e-38 392 306
0.087035462 0.68000001 -0.078689598 1.8339603e-38 393 306
0.088487223 0.68199998 -0.078921035 1.843108e-38 394 306
0.089419998 0.68000001 -0.078689598 1.8246688e-38 395 306
0.090612262 0.68000001 -0.078689598 1.7970826e-38 396 306
0.092074543 0.68199998 -0.078921035 1.7786076e-38 397 306
0.093270317 0.68199998 -0.078921035 1.741837e-38 398 306
0.09446609 0.68199998 -0.078921035 1.7233977e-38 399 306
0.095802136 0.68300003 -0.079036765 1.7048864e-38 400 306
0.09699966 0.68300003 -0.079036765 1.6772637e-38 401 306
0.098197185 0.68300003 -0.079036765 1.6404577e-38 402 306
0.099394716 0.68300003 -0.079036765 1.6219827e-38 403 306
0.10059224 0.68300003 -0.079036765 1.5851767e-38 404 306
0.1019388 0.68400002 -0.07915248 1.5667374e-38 405 306
0.10313808 0.68400002 -0.07915248 1.5574828e-38 406 306
0.10464244 0.68599999 -0.079383917 1.5206047e-38 407 306
0.10599951 0.68699998 -0.079499632 1.4563197e-38 408 306
0.10736011 0.68800002 -0.079615362 1.4471002e-38 409 306
0.10903979 0.69099998 -0.079962514 1.4286608e-38 410 306
0.11057046 0.69300002 -0.080193959 1.3917825e-38 411 306
0.11178552 0.69300002 -0.080193959 1.3178853e-38 412 306
0.11316364 0.69400001 -0.080309682 1.3363605e-38 413 306
0.11438045 0.69400001 -0.080309682 1.3921515e-38 414 306
0.073049128 0.68300003 -0.080234289 1.5948007e-38 381 307
0.074246652 0.68300003 -0.080234289 1.7234016e-38 382 307
0.075333714 0.68199998 -0.080116808 1.7326212e-38 383 307
0.076529488 0.68199998 -0.080116808 1.7510934e-38 384 307
0.077839233 0.68300003 -0.080234289 1.7695327e-38 385 307
0.079036765 0.68300003 -0.080234289 1.7787875e-38 386 307
0.080234289 0.68300003 -0.080234289 1.8156656e-38 387 307
0.081312582 0.68199998 -0.080116808 1.8248136e-38 388 307
0.082508355 0.68199998 -0.080116808 1.8340332e-38 389 307
0.083458669 0.68000001 -0.079881869 1.8615844e-38 390 307
0.084650926 0.68000001 -0.079881869 1.8615844e-38 391 307
0.085716955 0.67900002 -0.079764389 1.8431448e-38 392 307
0.086907476 0.67900002 -0.079764389 1.8431448e-38 393 307
0.08809799 0.67900002 -0.079764389 1.8155219e-38 394 307
0.089288503 0.67900002 -0.079764389 1.8063023e-38 395 307
0.090479009 0.67900002 -0.079764389 1.7878272e-38 396 307
0.091804534 0.68000001 -0.079881869 1.769388e-38 397 307
0.092996798 0.68000001 -0.079881869 1.7326177e-38 398 307
0.094189063 0.68000001 -0.079881869 1.6957394e-38 399 307
0.095661856 0.68199998 -0.080116808 1.6865199e-38 400 307
0.09685763 0.68199998 -0.080116808 1.6588253e-38 401 307
0.098053411 0.68199998 -0.080116808 1.6312741e-38 402 307
0.099394716 0.68300003 -0.080234289 1.5944319e-38 403 307
0.10059224 0.68300003 -0.080234289 1.5759925e-38 404 307
0.10178977 0.68300003 -0.080234289 1.5575532e-38 405 307
0.10313808 0.68400002 -0.080351762 1.5114571e-38 406 307
0.10433736 0.68400002 -0.080351762 1.5114571e-38 407 307
0.10584522 0.68599999 -0.080586702 1.45632e-38 408 307
0.10720405 0.68699998 -0.080704175 1.437845e-38 409 307
0.1085664 0.68800002 -0.080821648 1.3918548e-38 410 307
0.1100918 0.69 -0.081056595 1.3549766e-38 411 307
0.11130159 0.69 -0.081056595 1.3271053e-38 412 307
0.11316364 0.69400001 -0.081526496 1.3455444e-38 413 307
0.11438045 0.69400001 -0.081526496 1.3921518e-38 414 307
0.072728261 0.68000001 -0.081074134 1.6039105e-38 381 308
0.073920533 0.68000001 -0.081074134 1.7326199e-38 382 308
0.075002335 0.67900002 -0.080954902 1.751023e-38 383 308
0.076192856 0.67900002 -0.080954902 1.760313e-38 384 308
0.077383369 0.67900002 -0.080954902 1.7880077e-38 385 308
0.078573883 0.67900002 -0.080954902 1.8339247e-38 386 308
0.079764389 0.67900002 -0.080954902 1.8431801e-38 387 308
0.081074134 0.68000001 -0.081074134 1.8340332e-38 388 308
0.082145423 0.67900002 -0.080954902 1.8340332e-38 389 308
0.083335936 0.67900002 -0.080954902 1.8432527e-38 390 308
0.084526442 0.67900002 -0.080954902 1.8340332e-38 391 308
0.085716955 0.67900002 -0.080954902 1.8522928e-38 392 308
0.086779475 0.67799997 -0.08083567 1.8430373e-38 393 308
0.08796823 0.67799997 -0.08083567 1.8154866e-38 394 308
0.089156993 0.67799997 -0.08083567 1.7970474e-38 395 308
0.090345755 0.67799997 -0.08083567 1.7785723e-38 396 308
0.091669522 0.67900002 -0.080954902 1.7509496e-38 397 308
0.092860043 0.67900002 -0.080954902 1.7232905e-38 398 308
0.094189063 0.68000001 -0.081074134 1.7048514e-38 399 308
0.095381334 0.68000001 -0.081074134 1.6313824e-38 400 308
0.096573599 0.68000001 -0.081074134 1.6129432e-38 401 308
0.098053411 0.68199998 -0.081312582 1.6219827e-38 402 308
0.099249184 0.68199998 -0.081312582 1.6035435e-38 403 308
0.10044495 0.68199998 -0.081312582 1.5759207e-38 404 308
0.10178977 0.68300003 -0.081431814 1.5574457e-38 405 308
0.1029873 0.68300003 -0.081431814 1.5206403e-38 406 308
0.10433736 0.68400002 -0.081551038 1.5021652e-38 407 308
0.10553664 0.68400002 -0.081551038 1.4470999e-38 408 308
0.10704801 0.68599999 -0.081789486 1.4286608e-38 409 308
0.10840859 0.68699998 -0.081908718 1.3734516e-38 410 308
0.10977269 0.68800002 -0.082027942 1.3549766e-38 411 308
0.11130159 0.69 -0.082266398 1.2810444e-38 412 308
0.11300059 0.69300002 -0.082624078 1.3363617e-38 413 308
0.11438045 0.69400001 -0.082743309 1.3737133e-38 414 308
0.071746394 0.68199998 -0.082508355 1.7052168e-38 380 309
0.072728261 0.68000001 -0.082266398 1.659119e-38 381 309
0.073811822 0.67900002 -0.082145423 1.751023e-38 382 309
0.074891873 0.67799997 -0.082024433 1.7602426e-38 383 309
0.076080635 0.67799997 -0.082024433 1.7787525e-38 384 309
0.077269398 0.67799997 -0.082024433 1.7972275e-38 385 309
0.078573883 0.67900002 -0.082145423 1.8339253e-38 386 309
0.079764389 0.67900002 -0.082145423 1.8523644e-38 387 309
0.08083567 0.67799997 -0.082024433 1.8339976e-38 388 309
0.082024433 0.67799997 -0.082024433 1.8339976e-38 389 309
0.083213195 0.67799997 -0.082024433 1.8339976e-38 390 309
0.08440195 0.67799997 -0.082024433 1.8339976e-38 391 309
0.085590713 0.67799997 -0.082024433 1.83389e-38 392 309
0.086779475 0.67799997 -0.082024433 1.8154868e-38 393 309
0.08796823 0.67799997 -0.082024433 1.7970837e-38 394 309
0.089156993 0.67799997 -0.082024433 1.7694609e-38 395 309
0.090345755 0.67799997 -0.082024433 1.7509143e-38 396 309
0.09153451 0.67799997 -0.082024433 1.7324752e-38 397 309
0.092723273 0.67799997 -0.082024433 1.7140356e-38 398 309
0.094050556 0.67900002 -0.082145423 1.6771934e-38 399 309
0.095241062 0.67900002 -0.082145423 1.6129078e-38 400 309
0.096573599 0.68000001 -0.082266398 1.6036883e-38 401 309
0.09776587 0.68000001 -0.082266398 1.5943966e-38 402 309
0.098958135 0.68000001 -0.082266398 1.5759574e-38 403 309
0.10044495 0.68199998 -0.082508355 1.5575179e-38 404 309
0.10164072 0.68199998 -0.082508355 1.5298952e-38 405 309
0.1028365 0.68199998 -0.082508355 1.4930537e-38 406 309
0.10418482 0.68300003 -0.082629345 1.483834e-38 407 309
0.10538235 0.68300003 -0.082629345 1.4378803e-38 408 309
0.10673591 0.68400002 -0.082750313 1.4010381e-38 409 309
0.10840859 0.68699998 -0.083113261 1.3549771e-38 410 309
0.10977269 0.68800002 -0.083234236 1.3272826e-38 411 309
0.11130159 0.69 -0.083476201 1.2903362e-38 412 309
0.11300059 0.69300002 -0.083839141 1.3272504e-38 413 309
0.11438045 0.69400001 -0.083960123 1.3552738e-38 414 309
0.070343733 0.68000001 -0.083458669 1.677597e-38 379 310
0.071535997 0.68000001 -0.083458669 1.7326585e-38 380 310
0.072621316 0.67900002 -0.083335936 1.741878e-38 381 310
0.073703118 0.67799997 -0.083213195 1.7602426e-38 382 310
0.074891873 0.67799997 -0.083213195 1.7694623e-38 383 310
0.075856209 0.676 -0.082967728 1.7879721e-38 384 310
0.077041462 0.676 -0.082967728 1.8156306e-38 385 310
0.078458153 0.67799997 -0.083213195 1.8431092e-38 386 310
0.079646915 0.67799997 -0.083213195 1.8523647e-38 387 310
0.080597222 0.676 -0.082967728 1.8431092e-38 388 310
0.081782483 0.676 -0.082967728 1.8431092e-38 389 310
0.082967728 0.676 -0.082967728 1.8431095e-38 390 310
0.084152982 0.676 -0.082967728 1.83389e-38 391 310
0.085338242 0.676 -0.082967728 1.8154512e-38 392 310
0.086523488 0.676 -0.082967728 1.8062317e-38 393 310
0.087708741 0.676 -0.082967728 1.7694609e-38 394 310
0.088893995 0.676 -0.082967728 1.7510218e-38 395 310
0.090079248 0.676 -0.082967728 1.7324749e-38 396 310
0.09153451 0.67799997 -0.083213195 1.7140356e-38 397 310
0.092723273 0.67799997 -0.083213195 1.6771931e-38 398 310
0.093912028 0.67799997 -0.083213195 1.6587538e-38 399 310
0.09510079 0.67799997 -0.083213195 1.6403867e-38 400 310
0.096431576 0.67900002 -0.083335936 1.6219476e-38 401 310
0.09776587 0.68000001 -0.083458669 1.5759937e-38 402 310
0.098958135 0.68000001 -0.083458669 1.5483709e-38 403 310
0.10044495 0.68199998 -0.083704129 1.5207119e-38 404 310
0.10164072 0.68199998 -0.083704129 1.4930893e-38 405 310
0.1028365 0.68199998 -0.083704129 1.483834e-38 406 310
0.10418482 0.68300003 -0.08382687 1.4746144e-38 407 310
0.10538235 0.68300003 -0.08382687 1.4102577e-38 408 310
0.10673591 0.68400002 -0.083949596 1.3917825e-38 409 310
0.10825079 0.68599999 -0.084195063 1.3364308e-38 410 310
0.10961314 0.68699998 -0.084317796 1.3179557e-38 411 310
0.11097898 0.68800002 -0.084440529 1.2810815e-38 412 310
0.11300059 0.69300002 -0.085054204 1.3179599e-38 413 310
0.11421563 0.69300002 -0.085054204 1.3459826e-38 414 310
0.067859262 0.67900002 -0.084526442 1.7329889e-38 377 311
0.069049768 0.67900002 -0.084526442 1.7235481e-38 378 311
0.070240289 0.67900002 -0.084526442 1.6682307e-38 379 311
0.071430802 0.67900002 -0.084526442 1.7694623e-38 380 311
0.072514355 0.67799997 -0.08440195 1.7694623e-38 381 311
0.073703118 0.67799997 -0.08440195 1.760386e-38 382 311
0.074670963 0.676 -0.084152982 1.7787891e-38 383 311
0.075856209 0.676 -0.084152982 1.7880445e-38 384 311
0.077041462 0.676 -0.084152982 1.7880445e-38 385 311
0.078458153 0.67799997 -0.08440195 1.8338544e-38 386 311
0.079646915 0.67799997 -0.08440195 1.8431098e-38 387 311
0.080597222 0.676 -0.084152982 1.8338544e-38 388 311
0.081782483 0.676 -0.084152982 1.8338544e-38 389 311
0.082844995 0.67500001 -0.084028497 1.8154518e-38 390 311
0.084028497 0.67500001 -0.084028497 1.8061964e-38 391 311
0.085212 0.67500001 -0.084028497 1.806232e-38 392 311
0.086395502 0.67500001 -0.084028497 1.7970124e-38 393 311
0.087578997 0.67500001 -0.084028497 1.7693533e-38 394 311
0.088893995 0.676 -0.084152982 1.7324752e-38 395 311
0.090079248 0.676 -0.084152982 1.7140356e-38 396 311
0.091264501 0.676 -0.084152982 1.6771934e-38 397 311
0.092449754 0.676 -0.084152982 1.6587183e-38 398 311
0.093635008 0.676 -0.084152982 1.6494987e-38 399 311
0.094820268 0.676 -0.084152982 1.6036167e-38 400 311
0.096289553 0.67799997 -0.08440195 1.5851417e-38 401 311
0.097622089 0.67900002 -0.084526442 1.5484432e-38 402 311
0.098958135 0.68000001 -0.084650926 1.5207845e-38 403 311
0.10015039 0.68000001 -0.084650926 1.5114571e-38 404 311
0.10164072 0.68199998 -0.084899902 1.4838342e-38 405 311
0.1028365 0.68199998 -0.084899902 1.447028e-38 406 311
0.10418482 0.68300003 -0.085024394 1.4378085e-38 407 311
0.10538235 0.68300003 -0.085024394 1.4010028e-38 408 311
0.10673591 0.68400002 -0.085148886 1.3640885e-38 409 311
0.10825079 0.68599999 -0.085397847 1.2903343e-38 410 311
0.10961314 0.68699998 -0.085522331 1.2811147e-38 411 311
0.11097898 0.68800002 -0.08564683 1.2352005e-38 412 311
0.11300059 0.69300002 -0.086269259 1.2628593e-38 413 311
0.11421563 0.69300002 -0.086269259 1.3275795e-38 414 311
0.0669633 0.68199998 -0.086095676 1.7789401e-38 376 312
0.06775932 0.67799997 -0.085590713 1.6867446e-38 377 312
0.068948075 0.67799997 -0.085590713 1.7233663e-38 378 312
0.070136838 0.67799997 -0.085590713 1.7326218e-38 379 312
0.071430802 0.67900002 -0.085716955 1.7602779e-38 380 312
0.072514355 0.67799997 -0.085590713 1.7694976e-38 381 312
0.073703118 0.67799997 -0.085590713 1.7787528e-38 382 312
0.074670963 0.676 -0.085338242 1.7879723e-38 383 312
0.075856209 0.676 -0.085338242 1.8063392e-38 384 312
0.077041462 0.676 -0.085338242 1.7970837e-38 385 312
0.078226723 0.676 -0.085338242 1.7968319e-38 386 312
0.079411969 0.676 -0.085338242 1.7876123e-38 387 312
0.080597222 0.676 -0.085338242 1.7784654e-38 388 312
0.0816615 0.67500001 -0.085212 1.8153436e-38 389 312
0.082722262 0.67400002 -0.085085757 1.8244913e-38 390 312
0.083904013 0.67400002 -0.085085757 1.8244913e-38 391 312
0.085085757 0.67400002 -0.085085757 1.7694256e-38 392 312
0.086267509 0.67400002 -0.085085757 1.760206e-38 393 312
0.087449253 0.67400002 -0.085085757 1.760026e-38 394 312
0.088631004 0.67400002 -0.085085757 1.7231836e-38 395 312
0.089945994 0.67500001 -0.085212 1.704672e-38 396 312
0.091129504 0.67500001 -0.085212 1.6770132e-38 397 312
0.092312999 0.67500001 -0.085212 1.6403142e-38 398 312
0.093635008 0.676 -0.085338242 1.621911e-38 399 312
0.094820268 0.676 -0.085338242 1.6035082e-38 400 312
0.096005514 0.676 -0.085338242 1.5942887e-38 401 312
0.097478308 0.67799997 -0.085590713 1.5391882e-38 402 312
0.09866707 0.67799997 -0.085590713 1.5115296e-38 403 312
0.10000312 0.67900002 -0.085716955 1.4930189e-38 404 312
0.10134266 0.68000001 -0.085843198 1.4745438e-38 405 312
0.1028365 0.68199998 -0.086095676 1.4286252e-38 406 312
0.10403228 0.68199998 -0.086095676 1.4102221e-38 407 312
0.10538235 0.68300003 -0.086221918 1.3732728e-38 408 312
0.10673591 0.68400002 -0.086348161 1.3179913e-38 409 312
0.10825079 0.68599999 -0.086600631 1.2901194e-38 410 312
0.10961314 0.68699998 -0.086726874 1.2624968e-38 411 312
0.11097898 0.68800002 -0.086853124 1.2166541e-38 412 312
0.11267446 0.69099998 -0.087231837 1.2535325e-38 413 312
0.11421563 0.69300002 -0.087484315 1.2999931e-38 414 312
0.065381795 0.67799997 -0.086779475 1.7329519e-38 375 313
0.066570558 0.67799997 -0.086779475 1.7327311e-38 376 313
0.06775932 0.67799997 -0.086779475 1.6774137e-38 377 313
0.068948075 0.67799997 -0.086779475 1.7417316e-38 378 313
0.070136838 0.67799997 -0.086779475 1.7693903e-38 379 313
0.0713256 0.67799997 -0.086779475 1.7602426e-38 380 313
0.072514355 0.67799997 -0.086779475 1.7879373e-38 381 313
0.073703118 0.67799997 -0.086779475 1.797084e-38 382 313
0.074670963 0.676 -0.086523488 1.7786809e-38 383 313
0.075856209 0.676 -0.086523488 1.8060499e-38 384 313
0.077041462 0.676 -0.086523488 1.7691715e-38 385 313
0.078226723 0.676 -0.086523488 1.6955597e-38 386 313
0.079411969 0.676 -0.086523488 1.6863401e-38 387 313
0.080477998 0.67500001 -0.086395502 1.695741e-38 388 313
0.081540518 0.67400002 -0.086267509 1.7234357e-38 389 313
0.082476802 0.67199999 -0.086011514 1.7602782e-38 390 313
0.083655037 0.67199999 -0.086011514 1.7602782e-38 391 313
0.084833272 0.67199999 -0.086011514 1.7876849e-38 392 313
0.086011514 0.67199999 -0.086011514 1.7600262e-38 393 313
0.087189756 0.67199999 -0.086011514 1.7415864e-38 394 313
0.088367991 0.67199999 -0.086011514 1.7047442e-38 395 313
0.089812748 0.67400002 -0.086267509 1.6770848e-38 396 313
0.090994492 0.67400002 -0.086267509 1.6494621e-38 397 313
0.092176244 0.67400002 -0.086267509 1.6127278e-38 398 313
0.093496501 0.67500001 -0.086395502 1.6035082e-38 399 313
0.094679996 0.67500001 -0.086395502 1.5484076e-38 400 313
0.095863499 0.67500001 -0.086395502 1.5391879e-38 401 313
0.097190768 0.676 -0.086523488 1.5114946e-38 402 313
0.09866707 0.67799997 -0.086779475 1.4930555e-38 403 313
0.099855833 0.67799997 -0.086779475 1.4746161e-38 404 313
0.10119363 0.67900002 -0.086907476 1.4469933e-38 405 313
0.10253493 0.68000001 -0.087035462 1.4285539e-38 406 313
0.10403228 0.68199998 -0.087291449 1.3916756e-38 407 313
0.10522805 0.68199998 -0.087291449 1.3731659e-38 408 313
0.10673591 0.68400002 -0.087547436 1.3178844e-38 409 313
0.1079352 0.68400002 -0.087547436 1.2625331e-38 410 313
0.10961314 0.68699998 -0.087931409 1.2625331e-38 411 313
0.11097898 0.68800002 -0.088059418 1.170593e-38 412 313
0.1125114 0.69 -0.088315398 1.2075072e-38 413 313
0.11421563 0.69300002 -0.088699378 1.290882e-38 414 313
0.06419304 0.67799997 -0.08796823 1.7143307e-38 374 314
0.065188929 0.676 -0.087708741 1.6590492e-38 375 314
0.066177815 0.67400002 -0.087449253 1.7325146e-38 376 314
0.067359567 0.67400002 -0.087449253 1.7601374e-38 377 314
0.068744689 0.676 -0.087708741 1.7510233e-38 378 314
0.069929942 0.676 -0.087708741 1.7694626e-38 379 314
0.071115203 0.676 -0.087708741 1.8062673e-38 380 314
0.072300449 0.676 -0.087708741 1.7785726e-38 381 314
0.073376998 0.67500001 -0.087578997 1.7598082e-38 382 314
0.074560501 0.67500001 -0.087578997 1.6860158e-38 383 314
0.075743996 0.67500001 -0.087578997 1.6215495e-38 384 314
0.076927498 0.67500001 -0.087578997 1.5662321e-38 385 314
0.078226723 0.676 -0.087708741 1.4467033e-38 386 314
0.079411969 0.676 -0.087708741 1.5757772e-38 387 314
0.080477998 0.67500001 -0.087578997 1.6680827e-38 388 314
0.08129856 0.67199999 -0.087189756 1.704961e-38 389 314
0.082476802 0.67199999 -0.087189756 1.769318e-38 390 314
0.083655037 0.67199999 -0.087189756 1.7785375e-38 391 314
0.084833272 0.67199999 -0.087189756 1.7417313e-38 392 314
0.086011514 0.67199999 -0.087189756 1.7232922e-38 393 314
0.087189756 0.67199999 -0.087189756 1.7139637e-38 394 314
0.088367991 0.67199999 -0.087189756 1.6863051e-38 395 314
0.089546233 0.67199999 -0.087189756 1.6494621e-38 396 314
0.090724476 0.67199999 -0.087189756 1.6402426e-38 397 314
0.092176244 0.67400002 -0.087449253 1.6035082e-38 398 314
0.093357988 0.67400002 -0.087449253 1.5666658e-38 399 314
0.094539732 0.67400002 -0.087449253 1.5574473e-38 400 314
0.095863499 0.67500001 -0.087578997 1.5298246e-38 401 314
0.097047001 0.67500001 -0.087578997 1.5113864e-38 402 314
0.098376028 0.676 -0.087708741 1.4929833e-38 403 314
0.099561274 0.676 -0.087708741 1.4469933e-38 404 314
0.10074653 0.676 -0.087708741 1.4377378e-38 405 314
0.10238414 0.67900002 -0.08809799 1.3916759e-38 406 314
0.10357466 0.67900002 -0.08809799 1.3732009e-38 407 314
0.10522805 0.68199998 -0.088487223 1.3178844e-38 408 314
0.10657988 0.68300003 -0.088616975 1.2901898e-38 409 314
0.1079352 0.68400002 -0.088746719 1.2349823e-38 410 314
0.10945358 0.68599999 -0.089006208 1.2349823e-38 411 314
0.11081767 0.68699998 -0.089135952 1.1705566e-38 412 314
0.1125114 0.69 -0.0895252 1.1705566e-38 413 314
0.062725499 0.67500001 -0.088762499 1.7603938e-38 373 315
0.06381432 0.67400002 -0.088631004 1.6774142e-38 374 315
0.064996064 0.67400002 -0.088631004 1.6681588e-38 375 315
0.06598144 0.67199999 -0.088367991 1.7509883e-38 376 315
0.067159683 0.67199999 -0.088367991 1.760208e-38 377 315
0.068541311 0.67400002 -0.088631004 1.8061239e-38 378 315
0.069516152 0.67199999 -0.088367991 1.7784654e-38 379 315
0.070694394 0.67199999 -0.088367991 1.7873587e-38 380 315
0.071872637 0.67199999 -0.088367991 1.6859434e-38 381 315
0.073268294 0.67400002 -0.088631004 1.5938901e-38 382 315
0.074450038 0.67400002 -0.088631004 1.5386086e-38 383 315
0.07563179 0.67400002 -0.088631004 1.4740731e-38 384 315
0.076813534 0.67400002 -0.088631004 1.4556698e-38 385 315
0.078226723 0.676 -0.088893995 1.4375569e-38 386 315
0.079294503 0.67500001 -0.088762499 1.5389362e-38 387 315
0.080477998 0.67500001 -0.088762499 1.6496802e-38 388 315
0.08129856 0.67199999 -0.088367991 1.6865944e-38 389 315
0.082354069 0.671 -0.088236496 1.7233648e-38 390 315
0.083530545 0.671 -0.088236496 1.7326202e-38 391 315
0.084707037 0.671 -0.088236496 1.741695e-38 392 315
0.085883528 0.671 -0.088236496 1.7140003e-38 393 315
0.087060012 0.671 -0.088236496 1.6955243e-38 394 315
0.088236496 0.671 -0.088236496 1.6770851e-38 395 315
0.089546233 0.67199999 -0.088367991 1.6219113e-38 396 315
0.090724476 0.67199999 -0.088367991 1.6126559e-38 397 315
0.091902718 0.67199999 -0.088367991 1.5667021e-38 398 315
0.093080953 0.67199999 -0.088367991 1.5390795e-38 399 315
0.094539732 0.67400002 -0.088631004 1.5298965e-38 400 315
0.095721483 0.67400002 -0.088631004 1.5114573e-38 401 315
0.097047001 0.67500001 -0.088762499 1.4746157e-38 402 315
0.098230496 0.67500001 -0.088762499 1.4562125e-38 403 315
0.099561274 0.676 -0.088893995 1.4377378e-38 404 315
0.10074653 0.676 -0.088893995 1.4192987e-38 405 315
0.10223336 0.67799997 -0.089156993 1.4099352e-38 406 315
0.10342211 0.67799997 -0.089156993 1.3638014e-38 407 315
0.10538235 0.68300003 -0.089814499 1.2718586e-38 408 315
0.10657988 0.68300003 -0.089814499 1.2441639e-38 409 315
0.1077774 0.68300003 -0.089814499 1.1890285e-38 410 315
0.10945358 0.68599999 -0.090209 1.1982481e-38 411 315
0.11081767 0.68699998 -0.090340495 1.1612296e-38 412 315
0.057390101 0.66799998 -0.089013219 1.8069623e-38 369 316
0.061542001 0.67500001 -0.089945994 1.7049653e-38 372 316
0.062632568 0.67400002 -0.089812748 1.6772707e-38 373 316
0.063530281 0.671 -0.089412987 1.7325493e-38 374 316
0.064706765 0.671 -0.089412987 1.7509883e-38 375 316
0.065883249 0.671 -0.089412987 1.7969768e-38 376 316
0.06705974 0.671 -0.089412987 1.7969768e-38 377 316
0.068236224 0.671 -0.089412987 1.8060149e-38 378 316
0.069412716 0.671 -0.089412987 1.6585019e-38 379 316
0.0705892 0.671 -0.089412987 1.5751286e-38 380 316
0.071765684 0.671 -0.089412987 1.4460547e-38 381 316
0.072942175 0.671 -0.089412987 1.3726582e-38 382 316
0.074118659 0.671 -0.089412987 1.3726582e-38 383 316
0.075295143 0.671 -0.089412987 1.3450386e-38 384 316
0.076813534 0.67400002 -0.089812748 1.400356e-38 385 316
0.078226723 0.676 -0.090079248 1.4467779e-38 386 316
0.079294503 0.67500001 -0.089945994 1.5574125e-38 387 316
0.080001086 0.671 -0.089412987 1.668083e-38 388 316
0.081177577 0.671 -0.089412987 1.6957057e-38 389 316
0.082354069 0.671 -0.089412987 1.7232925e-38 390 316
0.083530545 0.671 -0.089412987 1.732512e-38 391 316
0.084707037 0.671 -0.089412987 1.7232555e-38 392 316
0.085883528 0.671 -0.089412987 1.6863774e-38 393 316
0.087060012 0.671 -0.089412987 1.6679735e-38 394 316
0.088236496 0.671 -0.089412987 1.6402788e-38 395 316
0.089412987 0.671 -0.089412987 1.5942533e-38 396 316
0.090589471 0.671 -0.089412987 1.5758501e-38 397 316
0.091902718 0.67199999 -0.089546233 1.5391516e-38 398 316
0.093080953 0.67199999 -0.089546233 1.5206766e-38 399 316
0.094539732 0.67400002 -0.089812748 1.5114568e-38 400 316
0.095721483 0.67400002 -0.089812748 1.483834e-38 401 316
0.097047001 0.67500001 -0.089945994 1.4562479e-38 402 316
0.098230496 0.67500001 -0.089945994 1.4378087e-38 403 316
0.099561274 0.676 -0.090079248 1.4285183e-38 404 316
0.10074653 0.676 -0.090079248 1.4100791e-38 405 316
0.10223336 0.67799997 -0.090345755 1.36391e-38 406 316
0.10342211 0.67799997 -0.090345755 1.3177762e-38 407 316
0.10461088 0.67799997 -0.090345755 1.2624963e-38 408 316
0.10657988 0.68300003 -0.091012023 1.2255822e-38 409 316
0.1077774 0.68300003 -0.091012023 1.188886e-38 410 316
0.056134716 0.667 -0.090049446 1.8068173e-38 368 317
0.057304189 0.667 -0.090049446 1.7699749e-38 369 317
0.058561329 0.66799998 -0.090184443 1.7421689e-38 370 317
0.05973256 0.66799998 -0.090184443 1.6684124e-38 371 317
0.060903784 0.66799998 -0.090184443 1.6865238e-38 372 317
0.062075011 0.66799998 -0.090184443 1.6865238e-38 373 317
0.063246235 0.66799998 -0.090184443 1.7693903e-38 374 317
0.064417459 0.66799998 -0.090184443 1.7786459e-38 375 317
0.065785065 0.67000002 -0.090454467 1.7782486e-38 376 317
0.066759922 0.66799998 -0.090184443 1.6768334e-38 377 317
0.067931145 0.66799998 -0.090184443 1.5936753e-38 378 317
0.069102369 0.66799998 -0.090184443 1.3724417e-38 379 317
0.070273593 0.66799998 -0.090184443 1.280283e-38 380 317
0.071444817 0.66799998 -0.090184443 1.3171613e-38 381 317
0.072616048 0.66799998 -0.090184443 1.3540433e-38 382 317
0.073676817 0.667 -0.090049446 1.3724824e-38 383 317
0.07484629 0.667 -0.090049446 1.4003949e-38 384 317
0.076015763 0.667 -0.090049446 1.4649318e-38 385 317
0.077185236 0.667 -0.090049446 1.5757451e-38 386 317
0.078354709 0.667 -0.090049446 1.6586852e-38 387 317
0.079643413 0.66799998 -0.090184443 1.6957059e-38 388 317
0.080814637 0.66799998 -0.090184443 1.7049256e-38 389 317
0.081985861 0.66799998 -0.090184443 1.7049607e-38 390 317
0.083157085 0.66799998 -0.090184443 1.695741e-38 391 317
0.084580801 0.67000002 -0.090454467 1.7048158e-38 392 317
0.085755527 0.67000002 -0.090454467 1.6494984e-38 393 317
0.087060012 0.671 -0.090589471 1.6403144e-38 394 317
0.088236496 0.671 -0.090589471 1.6126559e-38 395 317
0.089412987 0.671 -0.090589471 1.5758501e-38 396 317
0.090589471 0.671 -0.090589471 1.557411e-38 397 317
0.091765963 0.671 -0.090589471 1.5206766e-38 398 317
0.093080953 0.67199999 -0.090724476 1.4930539e-38 399 317
0.094259195 0.67199999 -0.090724476 1.4746866e-38 400 317
0.095721483 0.67400002 -0.090994492 1.4562476e-38 401 317
0.096903227 0.67400002 -0.090994492 1.4378806e-38 402 317
0.098230496 0.67500001 -0.091129504 1.4102221e-38 403 317
0.099413998 0.67500001 -0.091129504 1.3917479e-38 404 317
0.10059749 0.67500001 -0.091129504 1.3364305e-38 405 317
0.10193179 0.676 -0.091264501 1.33618e-38 406 317
0.10342211 0.67799997 -0.09153451 1.2993377e-38 407 317
0.10461088 0.67799997 -0.09153451 1.2348386e-38 408 317
0.10657988 0.68300003 -0.092209555 1.1979964e-38 409 317
0.1077774 0.68300003 -0.092209555 1.152045e-38 410 317
0.054882839 0.66600001 -0.091082163 1.7793757e-38 367 318
0.056050558 0.66600001 -0.091082163 1.7332387e-38 368 318
0.057304189 0.667 -0.091218919 1.641043e-38 369 318
0.058561329 0.66799998 -0.091355674 1.6774493e-38 370 318
0.05973256 0.66799998 -0.091355674 1.6497547e-38 371 318
0.060812607 0.667 -0.091218919 1.6958143e-38 372 318
0.06198208 0.667 -0.091218919 1.7326565e-38 373 318
0.063246235 0.66799998 -0.091355674 1.8061613e-38 374 318
0.064417459 0.66799998 -0.091355674 1.750844e-38 375 318
0.065588683 0.66799998 -0.091355674 1.6307006e-38 376 318
0.066759922 0.66799998 -0.091355674 1.4463093e-38 377 318
0.067931145 0.66799998 -0.091355674 1.3169104e-38 378 318
0.068998925 0.667 -0.091218919 1.1970921e-38 379 318
0.070168398 0.667 -0.091218919 1.1603956e-38 380 318
0.071337871 0.667 -0.091218919 1.2894695e-38 381 318
0.072507344 0.667 -0.091218919 1.3264582e-38 382 318
0.073566355 0.66600001 -0.091082163 1.4002506e-38 383 318
0.074734077 0.66600001 -0.091082163 1.4466728e-38 384 318
0.075901799 0.66600001 -0.091082163 1.5204293e-38 385 318
0.077069521 0.66600001 -0.091082163 1.6586499e-38 386 318
0.078237243 0.66600001 -0.091082163 1.6863086e-38 387 318
0.079404958 0.66600001 -0.091082163 1.6773395e-38 388 318
0.08057268 0.66600001 -0.091082163 1.6773395e-38 389 318
0.081863128 0.667 -0.091218919 1.6864861e-38 390 318
