# .PCD v.7 - Point Cloud Data file format
FIELDS x y z rgb imX imY
SIZE 4 4 4 4 4 4
TYPE F F F F F F
COUNT 1 1 1 1 1 1
WIDTH 844
HEIGHT 1
VIEWPOINT 0 0 0 1 0 0 0
POINTS 844
DATA ascii
-0.064934701 0.82300001 0.036074832 1.1425697e-38 275 215
-0.063645996 0.82499999 0.036162499 1.0875042e-38 276 215
-0.062199496 0.82499999 0.036162499 1.050626e-38 277 215
-0.060900278 0.82700002 0.036250167 1.0046007e-38 278 215
-0.10405682 0.80199999 0.033748157 1.7795924e-38 246 216
-0.10265064 0.80199999 0.033748157 1.7519336e-38 247 216
-0.10137071 0.80299997 0.033790238 1.6229986e-38 248 216
-0.099962786 0.80299997 0.033790238 1.4201682e-38 249 216
-0.099782199 0.81300002 0.03421104 1.6038332e-38 250 216
-0.098356739 0.81300002 0.03421104 1.6314559e-38 251 216
-0.097169727 0.815 0.034295198 1.6682953e-38 252 216
-0.095975704 0.81699997 0.034379359 1.69599e-38 253 216
-0.094543234 0.81699997 0.034379359 1.7328678e-38 254 216
-0.092882827 0.815 0.034295198 1.7420874e-38 255 216
-0.091229439 0.81300002 0.03421104 1.7788579e-38 256 216
-0.089803979 0.81300002 0.03421104 1.7696382e-38 257 216
-0.088378519 0.81300002 0.03421104 1.7695663e-38 258 216
-0.086953059 0.81300002 0.03421104 1.7511272e-38 259 216
-0.085527599 0.81300002 0.03421104 1.7510918e-38 260 216
-0.084102139 0.81300002 0.03421104 1.7418723e-38 261 216
-0.082676686 0.81300002 0.03421104 1.7051015e-38 262 216
-0.081251219 0.81300002 0.03421104 1.6682234e-38 263 216
-0.079825759 0.81300002 0.03421104 1.6405646e-38 264 216
-0.078593165 0.815 0.034295198 1.6036865e-38 265 216
-0.077164195 0.815 0.034295198 1.5576608e-38 266 216
-0.075735234 0.815 0.034295198 1.5392217e-38 267 216
-0.074306265 0.815 0.034295198 1.5207107e-38 268 216
-0.072877295 0.815 0.034295198 1.493016e-38 269 216
-0.071623661 0.81699997 0.034379359 1.4375917e-38 270 216
-0.07019119 0.81699997 0.034379359 1.3177374e-38 271 216
-0.068758719 0.81699997 0.034379359 1.2439475e-38 272 216
-0.06732624 0.81699997 0.034379359 1.2071051e-38 273 216
-0.066055074 0.81900001 0.034463517 1.1517894e-38 274 216
-0.064934701 0.82300001 0.034631841 1.1425697e-38 275 216
-0.063645996 0.82499999 0.034715999 1.0782846e-38 276 216
-0.062199496 0.82499999 0.034715999 1.0414065e-38 277 216
-0.060752995 0.82499999 0.034715999 9.3988521e-39 278 216
-0.10546299 0.80199999 0.032341983 1.770445e-38 245 217
-0.10405682 0.80199999 0.032341983 1.7704445e-38 246 217
-0.10265064 0.80199999 0.032341983 1.6137479e-38 247 217
-0.10137071 0.80299997 0.032382313 1.5858311e-38 248 217
-0.10145663 0.815 0.032866232 1.4567572e-38 249 217
-0.099782199 0.81300002 0.03278558 1.6498934e-38 250 217
-0.098356739 0.81300002 0.03278558 1.6683324e-38 251 217
-0.097169727 0.815 0.032866232 1.68677e-38 252 217
-0.095975704 0.81699997 0.032946885 1.7236124e-38 253 217
-0.094311796 0.815 0.032866232 1.7420871e-38 254 217
-0.092654899 0.81300002 0.03278558 1.7605622e-38 255 217
-0.091229439 0.81300002 0.03278558 1.7605267e-38 256 217
-0.089803979 0.81300002 0.03278558 1.7513069e-38 257 217
-0.088378519 0.81300002 0.03278558 1.7696738e-38 258 217
-0.086739153 0.81099999 0.032704927 1.7604183e-38 259 217
-0.085317194 0.81099999 0.032704927 1.7327959e-38 260 217
-0.084102139 0.81300002 0.03278558 1.7143209e-38 261 217
-0.082676686 0.81300002 0.03278558 1.6958819e-38 262 217
-0.081251219 0.81300002 0.03278558 1.6590038e-38 263 217
-0.079825759 0.81300002 0.03278558 1.631345e-38 264 217
-0.078593165 0.815 0.032866232 1.5852473e-38 265 217
-0.077164195 0.815 0.032866232 1.5392214e-38 266 217
-0.075735234 0.815 0.032866232 1.5207823e-38 267 217
-0.074306265 0.815 0.032866232 1.5022358e-38 268 217
-0.072877295 0.815 0.032866232 1.4561381e-38 269 217
-0.071448334 0.815 0.032866232 1.391603e-38 270 217
-0.07019119 0.81699997 0.032946885 1.2717487e-38 271 217
-0.068758719 0.81699997 0.032946885 1.2070695e-38 272 217
-0.06732624 0.81699997 0.032946885 1.1886304e-38 273 217
-0.066055074 0.81900001 0.033027537 1.1242382e-38 274 217
-0.064934701 0.82300001 0.033188846 1.1057632e-38 275 217
-0.063645996 0.82499999 0.033269498 1.0597027e-38 276 217
-0.062199496 0.82499999 0.033269498 1.0043853e-38 277 217
-0.060752995 0.82499999 0.033269498 8.4772686e-39 278 217
-0.1052 0.80000001 0.030858666 1.7613334e-38 245 218
-0.10379733 0.80000001 0.030858666 1.7796275e-38 246 218
-0.10265064 0.80199999 0.030935811 1.4846013e-38 247 218
-0.10137071 0.80299997 0.030974386 1.5028178e-38 248 218
-0.10095868 0.81099999 0.031282969 1.4843786e-38 249 218
-0.10002767 0.815 0.031437267 1.6407092e-38 250 218
-0.098114774 0.81099999 0.031282969 1.6683319e-38 251 218
-0.096692823 0.81099999 0.031282969 1.7235405e-38 252 218
-0.095270865 0.81099999 0.031282969 1.7604186e-38 253 218
-0.093848921 0.81099999 0.031282969 1.7513069e-38 254 218
-0.092426963 0.81099999 0.031282969 1.7789298e-38 255 218
-0.091005012 0.81099999 0.031282969 1.7605988e-38 256 218
-0.089583054 0.81099999 0.031282969 1.7605988e-38 257 218
-0.088161096 0.81099999 0.031282969 1.7605269e-38 258 218
-0.086525239 0.80900002 0.031205826 1.7513072e-38 259 218
-0.085106798 0.80900002 0.031205826 1.7236129e-38 260 218
-0.083895244 0.81099999 0.031282969 1.7143934e-38 261 218
-0.082473285 0.81099999 0.031282969 1.6682956e-38 262 218
-0.081051342 0.81099999 0.031282969 1.6221978e-38 263 218
-0.079825759 0.81300002 0.03136012 1.5945391e-38 264 218
-0.078593165 0.815 0.031437267 1.5576608e-38 265 218
-0.076974839 0.81300002 0.03136012 1.5300021e-38 266 218
-0.075549379 0.81300002 0.03136012 1.493124e-38 267 218
-0.074123919 0.81300002 0.03136012 1.4746497e-38 268 218
-0.072877295 0.815 0.031437267 1.4101128e-38 269 218
-0.071448334 0.815 0.031437267 1.3087711e-38 270 218
-0.07019119 0.81699997 0.03151441 1.207392e-38 271 218
-0.068758719 0.81699997 0.03151441 1.1887023e-38 272 218
-0.06732624 0.81699997 0.03151441 1.1610437e-38 273 218
-0.065893769 0.81699997 0.03151441 1.087432e-38 274 218
-0.064934701 0.82300001 0.031745855 1.0782124e-38 275 218
-0.063645996 0.82499999 0.031822998 9.6757977e-39 276 218
-0.062199496 0.82499999 0.031822998 8.3850603e-39 277 218
-0.1052 0.80000001 0.029456001 1.7705173e-38 245 219
-0.10379733 0.80000001 0.029456001 1.7061933e-38 246 219
-0.10265064 0.80199999 0.029529637 1.3374109e-38 247 219
-0.10238063 0.81099999 0.02986102 1.4841268e-38 248 219
-0.10095868 0.81099999 0.02986102 1.5394442e-38 249 219
-0.099536732 0.81099999 0.02986102 1.6314914e-38 250 219
-0.098114774 0.81099999 0.02986102 1.6591503e-38 251 219
-0.096692823 0.81099999 0.02986102 1.7052461e-38 252 219
-0.095270865 0.81099999 0.02986102 1.7328688e-38 253 219
-0.093848921 0.81099999 0.02986102 1.7513439e-38 254 219
-0.092426963 0.81099999 0.02986102 1.7605635e-38 255 219
-0.091005012 0.81099999 0.02986102 1.7881499e-38 256 219
-0.089583054 0.81099999 0.02986102 1.7788945e-38 257 219
-0.087943695 0.80900002 0.02978738 1.7788582e-38 258 219
-0.086525239 0.80900002 0.02978738 1.7511635e-38 259 219
-0.085106798 0.80900002 0.02978738 1.7510921e-38 260 219
-0.083688356 0.80900002 0.02978738 1.7233974e-38 261 219
-0.082473285 0.81099999 0.02986102 1.6773356e-38 262 219
-0.081051342 0.81099999 0.02986102 1.6312378e-38 263 219
-0.079629384 0.81099999 0.02986102 1.5852476e-38 264 219
-0.078400299 0.81300002 0.02993466 1.5575529e-38 265 219
-0.076974839 0.81300002 0.02993466 1.493124e-38 266 219
-0.075549379 0.81300002 0.02993466 1.4746847e-38 267 219
-0.074123919 0.81300002 0.02993466 1.4744694e-38 268 219
-0.072698459 0.81300002 0.02993466 1.4099324e-38 269 219
-0.071448334 0.815 0.030008299 1.2534891e-38 270 219
-0.07019119 0.81699997 0.030081939 1.1889521e-38 271 219
-0.068758719 0.81699997 0.030081939 1.2162165e-38 272 219
-0.06732624 0.81699997 0.030081939 1.1608991e-38 273 219
-0.065893769 0.81699997 0.030081939 1.1058338e-38 274 219
-0.064619094 0.81900001 0.030155579 1.059736e-38 275 219
-0.063183114 0.81900001 0.030155579 9.4892499e-39 276 219
-0.10546299 0.80199999 0.028123464 1.7335315e-38 245 220
-0.10405682 0.80199999 0.028123464 1.6047393e-38 246 220
-0.10303463 0.80500001 0.028228667 1.2912741e-38 247 220
-0.10162319 0.80500001 0.028228667 1.5392606e-38 248 220
-0.10095868 0.81099999 0.028439065 1.6037976e-38 249 220
-0.099536732 0.81099999 0.028439065 1.6682603e-38 250 220
-0.098114774 0.81099999 0.028439065 1.7143581e-38 251 220
-0.096931279 0.81300002 0.0285092 1.7327603e-38 252 220
-0.095270865 0.81099999 0.028439065 1.7696385e-38 253 220
-0.093848921 0.81099999 0.028439065 1.7788228e-38 254 220
-0.092426963 0.81099999 0.028439065 1.797262e-38 255 220
-0.091005012 0.81099999 0.028439065 1.7788594e-38 256 220
-0.089362144 0.80900002 0.028368933 1.788079e-38 257 220
-0.087943695 0.80900002 0.028368933 1.788043e-38 258 220
-0.086311333 0.80699998 0.028298797 1.7695678e-38 259 220
-0.084896393 0.80699998 0.028298797 1.723506e-38 260 220
-0.083688356 0.80900002 0.028368933 1.705031e-38 261 220
-0.082269907 0.80900002 0.028368933 1.649749e-38 262 220
-0.080851458 0.80900002 0.028368933 1.5944316e-38 263 220
-0.079433009 0.80900002 0.028368933 1.5759557e-38 264 220
-0.078207433 0.81099999 0.028439065 1.5390416e-38 265 220
-0.076785475 0.81099999 0.028439065 1.5114552e-38 266 220
-0.075363517 0.81099999 0.028439065 1.4653933e-38 267 220
-0.074123919 0.81300002 0.0285092 1.4376633e-38 268 220
-0.072698459 0.81300002 0.0285092 1.3270645e-38 269 220
-0.071448334 0.815 0.028579332 1.2531658e-38 270 220
-0.070019364 0.815 0.028579332 1.2346907e-38 271 220
-0.068590395 0.815 0.028579332 1.1611156e-38 272 220
-0.06732624 0.81699997 0.028649466 1.1426764e-38 273 220
-0.065893769 0.81699997 0.028649466 1.0599175e-38 274 220
-0.064461298 0.81699997 0.028649466 9.9541643e-39 275 220
-0.06302882 0.81699997 0.028649466 8.3843541e-39 276 220
-0.10546299 0.80199999 0.026717292 1.6873618e-38 245 221
-0.10405682 0.80199999 0.026717292 1.5676787e-38 246 221
-0.10303463 0.80500001 0.026817232 1.3187505e-38 247 221
-0.10162319 0.80500001 0.026817232 1.5853192e-38 248 221
-0.10095868 0.81099999 0.027017111 1.6498562e-38 249 221
-0.099782199 0.81300002 0.02708374 1.6500006e-38 250 221
-0.098114774 0.81099999 0.027017111 1.6776953e-38 251 221
-0.096692823 0.81099999 0.027017111 1.7144657e-38 252 221
-0.095270865 0.81099999 0.027017111 1.7421242e-38 253 221
-0.093848921 0.81099999 0.027017111 1.7788231e-38 254 221
-0.092199028 0.80900002 0.026950486 1.7972623e-38 255 221
-0.090780586 0.80900002 0.026950486 1.7881146e-38 256 221
-0.08914122 0.80699998 0.026883857 1.778895e-38 257 221
-0.08772628 0.80699998 0.026883857 1.7971544e-38 258 221
-0.086097427 0.80500001 0.026817232 1.7602761e-38 259 221
-0.084685996 0.80500001 0.026817232 1.75102e-38 260 221
-0.083481453 0.80699998 0.026883857 1.7141057e-38 261 221
-0.082066514 0.80699998 0.026883857 1.6680788e-38 262 221
-0.080851458 0.80900002 0.026950486 1.6127615e-38 263 221
-0.079433009 0.80900002 0.026950486 1.5575517e-38 264 221
-0.078014567 0.80900002 0.026950486 1.5390767e-38 265 221
-0.076785475 0.81099999 0.027017111 1.4746482e-38 266 221
-0.075363517 0.81099999 0.027017111 1.4561732e-38 267 221
-0.073941574 0.81099999 0.027017111 1.3916734e-38 268 221
-0.072698459 0.81300002 0.02708374 1.2902582e-38 269 221
-0.071448334 0.815 0.027150365 1.1796973e-38 270 221
-0.070019364 0.815 0.027150365 1.1704777e-38 271 221
-0.068590395 0.815 0.027150365 1.1335646e-38 272 221
-0.067161433 0.815 0.027150365 1.1151253e-38 273 221
-0.065732464 0.815 0.027150365 1.050591e-38 274 221
-0.064461298 0.81699997 0.027216991 9.5839524e-39 275 221
-0.10559449 0.80299997 0.025342679 1.5952012e-38 245 222
-0.10418656 0.80299997 0.025342679 1.5030334e-38 246 222
-0.10303463 0.80500001 0.025405798 1.3923628e-38 247 222
-0.10162319 0.80500001 0.025405798 1.6129782e-38 248 222
-0.10095868 0.81099999 0.025595158 1.659076e-38 249 222
-0.099536732 0.81099999 0.025595158 1.6775151e-38 250 222
-0.098114774 0.81099999 0.025595158 1.7236129e-38 251 222
-0.096692823 0.81099999 0.025595158 1.7604189e-38 252 222
-0.095035926 0.80900002 0.025532039 1.7604189e-38 253 222
-0.093617477 0.80900002 0.025532039 1.7787861e-38 254 222
-0.092199028 0.80900002 0.025532039 1.8064089e-38 255 222
-0.090556152 0.80699998 0.025468919 1.7880424e-38 256 222
-0.088920295 0.80500001 0.025405798 1.797262e-38 257 222
-0.087508865 0.80500001 0.025405798 1.7971546e-38 258 222
-0.086097427 0.80500001 0.025405798 1.7602764e-38 259 222
-0.084685996 0.80500001 0.025405798 1.7326177e-38 260 222
-0.083274566 0.80500001 0.025405798 1.6957394e-38 261 222
-0.082066514 0.80699998 0.025468919 1.6404924e-38 262 222
-0.080851458 0.80900002 0.025532039 1.6036142e-38 263 222
-0.079433009 0.80900002 0.025532039 1.5575511e-38 264 222
-0.078014567 0.80900002 0.025532039 1.5114891e-38 265 222
-0.076785475 0.81099999 0.025595158 1.4655355e-38 266 222
-0.075363517 0.81099999 0.025595158 1.4194377e-38 267 222
-0.073941574 0.81099999 0.025595158 1.3365009e-38 268 222
-0.072519615 0.81099999 0.025595158 1.2442692e-38 269 222
-0.071272999 0.81300002 0.02565828 1.2071417e-38 270 222
-0.070019364 0.815 0.025721399 1.1886667e-38 271 222
-0.068590395 0.815 0.025721399 1.1335651e-38 272 222
-0.067161433 0.815 0.025721399 1.11509e-38 273 222
-0.065732464 0.815 0.025721399 1.0596674e-38 274 222
-0.10303463 0.80500001 0.023994366 1.4383517e-38 247 223
-0.10162319 0.80500001 0.023994366 1.6405646e-38 248 223
-0.10095868 0.81099999 0.024173206 1.6682234e-38 249 223
-0.099536732 0.81099999 0.024173206 1.7050659e-38 250 223
-0.098114774 0.81099999 0.024173206 1.7327606e-38 251 223
-0.096692823 0.81099999 0.024173206 1.7603833e-38 252 223
-0.095035926 0.80900002 0.024113594 1.7603833e-38 253 223
-0.093617477 0.80900002 0.024113594 1.7787864e-38 254 223
-0.091971092 0.80699998 0.02405398 1.7971897e-38 255 223
-0.090331733 0.80500001 0.023994366 1.7788584e-38 256 223
-0.088920295 0.80500001 0.023994366 1.788078e-38 257 223
-0.087508865 0.80500001 0.023994366 1.7787511e-38 258 223
-0.086097427 0.80500001 0.023994366 1.7602761e-38 259 223
-0.084685996 0.80500001 0.023994366 1.7325451e-38 260 223
-0.083274566 0.80500001 0.023994366 1.7048864e-38 261 223
-0.082066514 0.80699998 0.02405398 1.640528e-38 262 223
-0.080651581 0.80699998 0.02405398 1.5943942e-38 263 223
-0.079236634 0.80699998 0.02405398 1.5392199e-38 264 223
-0.078014567 0.80900002 0.024113594 1.5023415e-38 265 223
-0.076785475 0.81099999 0.024173206 1.4562451e-38 266 223
-0.075363517 0.81099999 0.024173206 1.4194027e-38 267 223
-0.073941574 0.81099999 0.024173206 1.2995516e-38 268 223
-0.072519615 0.81099999 0.024173206 1.2442342e-38 269 223
-0.071272999 0.81300002 0.02423282 1.2439122e-38 270 223
-0.069847539 0.81300002 0.02423282 1.2070698e-38 271 223
-0.068422079 0.81300002 0.02423282 1.1335651e-38 272 223
-0.066996619 0.81300002 0.02423282 1.1058704e-38 273 223
-0.065571159 0.81300002 0.02423282 9.9520259e-39 274 223
-0.1035466 0.80900002 0.022695147 1.5027088e-38 247 224
-0.10212816 0.80900002 0.022695147 1.6130149e-38 248 224
-0.10070971 0.80900002 0.022695147 1.649929e-38 249 224
-0.099291265 0.80900002 0.022695147 1.69599e-38 250 224
-0.097630851 0.80699998 0.022639038 1.7236127e-38 251 224
-0.096215919 0.80699998 0.022639038 1.7604189e-38 252 224
-0.094566032 0.80500001 0.022582933 1.7604189e-38 253 224
-0.093154602 0.80500001 0.022582933 1.7788582e-38 254 224
-0.091743164 0.80500001 0.022582933 1.7788582e-38 255 224
-0.090107299 0.80299997 0.022526825 1.7604913e-38 256 224
-0.088699371 0.80299997 0.022526825 1.7604913e-38 257 224
-0.087291449 0.80299997 0.022526825 1.7695313e-38 258 224
-0.086097427 0.80500001 0.022582933 1.7510921e-38 259 224
-0.084685996 0.80500001 0.022582933 1.7233611e-38 260 224
-0.083274566 0.80500001 0.022582933 1.686483e-38 261 224
-0.081863128 0.80500001 0.022582933 1.622053e-38 262 224
-0.080651581 0.80699998 0.022639038 1.5759911e-38 263 224
-0.079236634 0.80699998 0.022639038 1.5208529e-38 264 224
-0.078014567 0.80900002 0.022695147 1.4747551e-38 265 224
-0.076596119 0.80900002 0.022695147 1.4286236e-38 266 224
-0.07517767 0.80900002 0.022695147 1.4194041e-38 267 224
-0.073941574 0.81099999 0.022751253 1.2626387e-38 268 224
-0.072519615 0.81099999 0.022751253 1.2165409e-38 269 224
-0.071097665 0.81099999 0.022751253 1.2164333e-38 270 224
-0.069675706 0.81099999 0.022751253 1.179555e-38 271 224
-0.068253763 0.81099999 0.022751253 1.1335298e-38 272 224
-0.066831805 0.81099999 0.022751253 1.0689929e-38 273 224
-0.065409854 0.81099999 0.022751253 1.0041353e-38 274 224
-0.10470556 0.80699998 0.021224098 1.4656857e-38 246 225
-0.10329062 0.80699998 0.021224098 1.548662e-38 247 225
-0.10187568 0.80699998 0.021224098 1.6222345e-38 248 225
-0.10046073 0.80699998 0.021224098 1.649929e-38 249 225
-0.099045791 0.80699998 0.021224098 1.7143565e-38 250 225
-0.097630851 0.80699998 0.021224098 1.7511988e-38 251 225
-0.096215919 0.80699998 0.021224098 1.7604189e-38 252 225
-0.094566032 0.80500001 0.021171499 1.7788582e-38 253 225
-0.093154602 0.80500001 0.021171499 1.7788231e-38 254 225
-0.091515228 0.80299997 0.0211189 1.7880427e-38 255 225
-0.090107299 0.80299997 0.0211189 1.778895e-38 256 225
-0.088699371 0.80299997 0.0211189 1.7604919e-38 257 225
-0.087291449 0.80299997 0.0211189 1.7511284e-38 258 225
-0.085883521 0.80299997 0.0211189 1.7235057e-38 259 225
-0.084685996 0.80500001 0.021171499 1.7048864e-38 260 225
-0.083274566 0.80500001 0.021171499 1.6864833e-38 261 225
-0.081863128 0.80500001 0.021171499 1.6036867e-38 262 225
-0.080651581 0.80699998 0.021224098 1.5667725e-38 263 225
-0.079236634 0.80699998 0.021224098 1.5024511e-38 264 225
-0.078014567 0.80900002 0.021276699 1.4747564e-38 265 225
-0.076596119 0.80900002 0.021276699 1.4286242e-38 266 225
-0.07517767 0.80900002 0.021276699 1.391746e-38 267 225
-0.073941574 0.81099999 0.021329299 1.2533469e-38 268 225
-0.072519615 0.81099999 0.021329299 1.2256882e-38 269 225
-0.071097665 0.81099999 0.021329299 1.1797352e-38 270 225
-0.069675706 0.81099999 0.021329299 1.161296e-38 271 225
-0.068253763 0.81099999 0.021329299 1.1427506e-38 272 225
-0.066831805 0.81099999 0.021329299 1.0044572e-38 273 225
-0.065409854 0.81099999 0.021329299 9.7626194e-39 274 225
-0.10444606 0.80500001 0.019760067 1.5391879e-38 246 226
-0.10303463 0.80500001 0.019760067 1.6129446e-38 247 226
-0.10162319 0.80500001 0.019760067 1.6314896e-38 248 226
-0.10046073 0.80699998 0.019809159 1.6683319e-38 249 226
-0.099045791 0.80699998 0.019809159 1.7143931e-38 250 226
-0.097388901 0.80500001 0.019760067 1.7420518e-38 251 226
-0.095977463 0.80500001 0.019760067 1.7696385e-38 252 226
-0.094331078 0.80299997 0.019710973 1.7788582e-38 253 226
-0.092923149 0.80299997 0.019710973 1.778895e-38 254 226
-0.091515228 0.80299997 0.019710973 1.778895e-38 255 226
-0.089995086 0.80199999 0.019686425 1.7604916e-38 256 226
-0.088588916 0.80199999 0.019686425 1.7512719e-38 257 226
-0.087182745 0.80199999 0.019686425 1.760347e-38 258 226
-0.085883521 0.80299997 0.019710973 1.7326524e-38 259 226
-0.084685996 0.80500001 0.019760067 1.7416558e-38 260 226
-0.083274566 0.80500001 0.019760067 1.6863384e-38 261 226
-0.081863128 0.80500001 0.019760067 1.6403126e-38 262 226
-0.080651581 0.80699998 0.019809159 1.5942148e-38 263 226
-0.079236634 0.80699998 0.019809159 1.5207457e-38 264 226
-0.078014567 0.80900002 0.019858252 1.493051e-38 265 226
-0.076596119 0.80900002 0.019858252 1.4469189e-38 266 226
-0.07517767 0.80900002 0.019858252 1.400821e-38 267 226
-0.073759228 0.80900002 0.019858252 1.3176672e-38 268 226
-0.072340779 0.80900002 0.019858252 1.2807888e-38 269 226
-0.071097665 0.81099999 0.019907346 1.1981724e-38 270 226
-0.069675706 0.81099999 0.019907346 1.1704777e-38 271 226
-0.068253763 0.81099999 0.019907346 1.1244913e-38 272 226
-0.066831805 0.81099999 0.019907346 9.0325779e-39 273 226
-0.1058575 0.80500001 0.018348632 1.3924722e-38 245 227
-0.10444606 0.80500001 0.018348632 1.6219832e-38 246 227
-0.10303463 0.80500001 0.018348632 1.6588256e-38 247 227
-0.10162319 0.80500001 0.018348632 1.6682237e-38 248 227
-0.10046073 0.80699998 0.018394221 1.7050659e-38 249 227
-0.098554865 0.80299997 0.018303044 1.7236129e-38 250 227
-0.097146936 0.80299997 0.018303044 1.7420521e-38 251 227
-0.095739007 0.80299997 0.018303044 1.7604913e-38 252 227
-0.094331078 0.80299997 0.018303044 1.7604913e-38 253 227
-0.092807434 0.80199999 0.018280253 1.7604916e-38 254 227
-0.091401257 0.80199999 0.018280253 1.7604916e-38 255 227
-0.089995086 0.80199999 0.018280253 1.7604919e-38 256 227
-0.088588916 0.80199999 0.018280253 1.7512363e-38 257 227
-0.087182745 0.80199999 0.018280253 1.7510568e-38 258 227
-0.085883521 0.80299997 0.018303044 1.7326177e-38 259 227
-0.084475599 0.80299997 0.018303044 1.6773e-38 260 227
-0.08306767 0.80299997 0.018303044 1.6588609e-38 261 227
-0.081863128 0.80500001 0.018348632 1.6035786e-38 262 227
-0.080451705 0.80500001 0.018348632 1.5759557e-38 263 227
-0.079236634 0.80699998 0.018394221 1.5024508e-38 264 227
-0.077821694 0.80699998 0.018394221 1.456353e-38 265 227
-0.076406755 0.80699998 0.018394221 1.4286955e-38 266 227
-0.07517767 0.80900002 0.018439807 1.3457555e-38 267 227
-0.073759228 0.80900002 0.018439807 1.2532743e-38 268 227
-0.072340779 0.80900002 0.018439807 1.2532743e-38 269 227
-0.071097665 0.81099999 0.018485393 1.1705155e-38 270 227
-0.069675706 0.81099999 0.018485393 1.161296e-38 271 227
-0.068253763 0.81099999 0.018485393 1.1152367e-38 272 227
-0.067161433 0.815 0.018576566 8.0177155e-39 273 227
-0.1058575 0.80500001 0.0169372 1.4292781e-38 245 228
-0.10444606 0.80500001 0.0169372 1.6037955e-38 246 228
-0.10303463 0.80500001 0.0169372 1.6222347e-38 247 228
-0.10162319 0.80500001 0.0169372 1.6407095e-38 248 228
-0.10021176 0.80500001 0.0169372 1.6867714e-38 249 228
-0.098554865 0.80299997 0.016895119 1.714466e-38 250 228
-0.097025953 0.80199999 0.016874079 1.7420886e-38 251 228
-0.095619783 0.80199999 0.016874079 1.7604916e-38 252 228
-0.094213605 0.80199999 0.016874079 1.7604916e-38 253 228
-0.092807434 0.80199999 0.016874079 1.7604916e-38 254 228
-0.091401257 0.80199999 0.016874079 1.7604916e-38 255 228
-0.089995086 0.80199999 0.016874079 1.7788228e-38 256 228
-0.088588916 0.80199999 0.016874079 1.7603836e-38 257 228
-0.087182745 0.80199999 0.016874079 1.7418367e-38 258 228
-0.085776575 0.80199999 0.016874079 1.7049943e-38 259 228
-0.084475599 0.80299997 0.016895119 1.7048496e-38 260 228
-0.08306767 0.80299997 0.016895119 1.6587517e-38 261 228
-0.081659742 0.80299997 0.016895119 1.6036492e-38 262 228
-0.080451705 0.80500001 0.0169372 1.5667709e-38 263 228
-0.079040267 0.80500001 0.0169372 1.539112e-38 264 228
-0.077628836 0.80500001 0.0169372 1.5022696e-38 265 228
-0.076406755 0.80699998 0.016979279 1.4286576e-38 266 228
-0.074991815 0.80699998 0.016979279 1.3549011e-38 267 228
-0.073759228 0.80900002 0.01702136 1.2902582e-38 268 228
-0.072340779 0.80900002 0.01702136 1.2625995e-38 269 228
-0.071097665 0.81099999 0.017063441 1.1981021e-38 270 228
-0.069675706 0.81099999 0.017063441 1.1427847e-38 271 228
-0.068253763 0.81099999 0.017063441 1.04166e-38 272 228
-0.10559449 0.80299997 0.015487193 1.4016903e-38 245 229
-0.10418656 0.80299997 0.015487193 1.5853918e-38 246 229
-0.10277864 0.80299997 0.015487193 1.6222701e-38 247 229
-0.10162319 0.80500001 0.015525767 1.6499287e-38 248 229
-0.099962786 0.80299997 0.015487193 1.686807e-38 249 229
-0.098554865 0.80299997 0.015487193 1.7328325e-38 250 229
-0.097025953 0.80199999 0.015467905 1.7420521e-38 251 229
-0.095619783 0.80199999 0.015467905 1.7696029e-38 252 229
-0.094213605 0.80199999 0.015467905 1.7788584e-38 253 229
-0.092807434 0.80199999 0.015467905 1.7604913e-38 254 229
-0.091173328 0.80000001 0.015429333 1.7604913e-38 255 229
-0.089770667 0.80000001 0.015429333 1.7604913e-38 256 229
-0.088367999 0.80000001 0.015429333 1.7420521e-38 257 229
-0.087182745 0.80199999 0.015467905 1.7326171e-38 258 229
-0.085776575 0.80199999 0.015467905 1.7049943e-38 259 229
-0.084370397 0.80199999 0.015467905 1.6955947e-38 260 229
-0.082964227 0.80199999 0.015467905 1.6587523e-38 261 229
-0.081558049 0.80199999 0.015467905 1.6036136e-38 262 229
-0.08025182 0.80299997 0.015487193 1.5667712e-38 263 229
-0.078843892 0.80299997 0.015487193 1.5391122e-38 264 229
-0.077628836 0.80500001 0.015525767 1.4930144e-38 265 229
-0.076217398 0.80500001 0.015525767 1.4194024e-38 266 229
-0.074805968 0.80500001 0.015525767 1.3456459e-38 267 229
-0.073576882 0.80699998 0.015564339 1.2810755e-38 268 229
-0.072161935 0.80699998 0.015564339 1.2349778e-38 269 229
-0.07092233 0.80900002 0.015602913 1.1980665e-38 270 229
-0.069675706 0.81099999 0.015641484 1.1243098e-38 271 229
-0.068422079 0.81300002 0.01568006 9.8630631e-39 272 229
-0.10546299 0.80199999 0.014061732 1.419877e-38 245 230
-0.10405682 0.80199999 0.014061732 1.5945388e-38 246 230
-0.10277864 0.80299997 0.014079265 1.631453e-38 247 230
-0.10137071 0.80299997 0.014079265 1.6683675e-38 248 230
-0.099838302 0.80199999 0.014061732 1.6868067e-38 249 230
-0.098432131 0.80199999 0.014061732 1.7327969e-38 250 230
-0.096783996 0.80000001 0.014026666 1.7420524e-38 251 230
-0.095381334 0.80000001 0.014026666 1.7696029e-38 252 230
-0.093978666 0.80000001 0.014026666 1.7788584e-38 253 230
-0.092807434 0.80199999 0.014061732 1.7513437e-38 254 230
-0.091173328 0.80000001 0.014026666 1.7513437e-38 255 230
-0.089770667 0.80000001 0.014026666 1.7788584e-38 256 230
-0.088367999 0.80000001 0.014026666 1.7511637e-38 257 230
-0.086965337 0.80000001 0.014026666 1.7418007e-38 258 230
-0.085562661 0.80000001 0.014026666 1.7233255e-38 259 230
-0.084370397 0.80199999 0.014061732 1.7047424e-38 260 230
-0.082964227 0.80199999 0.014061732 1.6770835e-38 261 230
-0.081558049 0.80199999 0.014061732 1.6036139e-38 262 230
-0.080151878 0.80199999 0.014061732 1.5667356e-38 263 230
-0.078843892 0.80299997 0.014079265 1.539112e-38 264 230
-0.077435955 0.80299997 0.014079265 1.4930141e-38 265 230
-0.076217398 0.80500001 0.014114333 1.4101826e-38 266 230
-0.074805968 0.80500001 0.014114333 1.3364261e-38 267 230
-0.07339453 0.80500001 0.014114333 1.2810755e-38 268 230
-0.072161935 0.80699998 0.014149399 1.2441974e-38 269 230
-0.07092233 0.80900002 0.014184467 1.2072863e-38 270 230
-0.069503881 0.80900002 0.014184467 1.1243101e-38 271 230
-0.068422079 0.81300002 0.0142546 9.677597e-39 272 230
-0.10546299 0.80199999 0.01265556 1.4381362e-38 245 231
-0.10405682 0.80199999 0.01265556 1.5761722e-38 246 231
-0.10265064 0.80199999 0.01265556 1.6222701e-38 247 231
-0.10124448 0.80199999 0.01265556 1.6498934e-38 248 231
-0.099838302 0.80199999 0.01265556 1.6959913e-38 249 231
-0.098186664 0.80000001 0.012624 1.7144657e-38 250 231
-0.096783996 0.80000001 0.012624 1.7328688e-38 251 231
-0.095142879 0.79799998 0.012592439 1.7788584e-38 252 231
-0.093743719 0.79799998 0.012592439 1.7788584e-38 253 231
-0.092344552 0.79799998 0.012592439 1.7604913e-38 254 231
-0.090945393 0.79799998 0.012592439 1.7604913e-38 255 231
-0.089546233 0.79799998 0.012592439 1.7696029e-38 256 231
-0.088147074 0.79799998 0.012592439 1.7511637e-38 257 231
-0.086747915 0.79799998 0.012592439 1.7601316e-38 258 231
-0.085348755 0.79799998 0.012592439 1.7232892e-38 259 231
-0.083949596 0.79799998 0.012592439 1.7047426e-38 260 231
-0.082550429 0.79799998 0.012592439 1.6770479e-38 261 231
-0.081151277 0.79799998 0.012592439 1.6036142e-38 262 231
-0.079952002 0.80000001 0.012624 1.5575163e-38 263 231
-0.0787457 0.80199999 0.01265556 1.5390755e-38 264 231
-0.07733953 0.80199999 0.01265556 1.4929779e-38 265 231
-0.076028034 0.80299997 0.012671339 1.4009282e-38 266 231
-0.074805968 0.80500001 0.012702899 1.3179163e-38 267 231
-0.07339453 0.80500001 0.012702899 1.2810053e-38 268 231
-0.071983099 0.80500001 0.012702899 1.2533824e-38 269 231
-0.070746996 0.80699998 0.01273446 1.2072866e-38 270 231
-0.069503881 0.80900002 0.012766019 1.0874323e-38 271 231
-0.068422079 0.81300002 0.01282914 9.1251421e-39 272 231
-0.10546299 0.80199999 0.011249386 1.4105135e-38 245 232
-0.10405682 0.80199999 0.011249386 1.5944669e-38 246 232
-0.10265064 0.80199999 0.011249386 1.631345e-38 247 232
-0.10124448 0.80199999 0.011249386 1.6775149e-38 248 232
-0.099838302 0.80199999 0.011249386 1.7143931e-38 249 232
-0.098186664 0.80000001 0.011221333 1.7420524e-38 250 232
-0.096542038 0.79799998 0.011193279 1.7512719e-38 251 232
-0.095142879 0.79799998 0.011193279 1.7696031e-38 252 232
-0.093743719 0.79799998 0.011193279 1.7788228e-38 253 232
-0.092113115 0.796 0.011165227 1.7788231e-38 254 232
-0.090717465 0.796 0.011165227 1.7880427e-38 255 232
-0.089321814 0.796 0.011165227 1.7788231e-38 256 232
-0.087926157 0.796 0.011165227 1.7511284e-38 257 232
-0.086530507 0.796 0.011165227 1.7325454e-38 258 232
-0.085134849 0.796 0.011165227 1.7141063e-38 259 232
-0.083739199 0.796 0.011165227 1.6587533e-38 260 232
-0.082343549 0.796 0.011165227 1.6495337e-38 261 232
-0.080947891 0.796 0.011165227 1.6035435e-38 262 232
-0.079752117 0.79799998 0.011193279 1.5666653e-38 263 232
-0.078549333 0.80000001 0.011221333 1.5390416e-38 264 232
-0.07733953 0.80199999 0.011249386 1.4837242e-38 265 232
-0.075933352 0.80199999 0.011249386 1.364087e-38 266 232
-0.074620105 0.80299997 0.011263412 1.3087696e-38 267 232
-0.073212177 0.80299997 0.011263412 1.2718583e-38 268 232
-0.071983099 0.80500001 0.011291467 1.2441995e-38 269 232
-0.070746996 0.80699998 0.011319519 1.1981762e-38 270 232
-0.069503881 0.80900002 0.011347573 1.0321882e-38 271 232
-0.10686917 0.80199999 0.0098432126 1.419518e-38 244 233
-0.10546299 0.80199999 0.0098432126 1.4748354e-38 245 233
-0.10405682 0.80199999 0.0098432126 1.5393681e-38 246 233
-0.10239466 0.80000001 0.0098186666 1.5854659e-38 247 233
-0.100992 0.80000001 0.0098186666 1.6132315e-38 248 233
-0.099589325 0.80000001 0.0098186666 1.6501458e-38 249 233
-0.09794119 0.79799998 0.0097941197 1.7052827e-38 250 233
-0.096542038 0.79799998 0.0097941197 1.7145023e-38 251 233
-0.095142879 0.79799998 0.0097941197 1.7512366e-38 252 233
-0.093508773 0.796 0.0097695729 1.7604563e-38 253 233
-0.092113115 0.796 0.0097695729 1.788043e-38 254 233
-0.090717465 0.796 0.0097695729 1.7787875e-38 255 233
-0.089321814 0.796 0.0097695729 1.797082e-38 256 233
-0.087926157 0.796 0.0097695729 1.7694234e-38 257 233
-0.086530507 0.796 0.0097695729 1.7509122e-38 258 233
-0.085134849 0.796 0.0097695729 1.7048145e-38 259 233
-0.083739199 0.796 0.0097695729 1.6954875e-38 260 233
-0.082343549 0.796 0.0097695729 1.6678287e-38 261 233
-0.080947891 0.796 0.0097695729 1.621838e-38 262 233
-0.079752117 0.79799998 0.0097941197 1.5942154e-38 263 233
-0.078352958 0.79799998 0.0097941197 1.5390046e-38 264 233
-0.077146664 0.80000001 0.0098186666 1.5113459e-38 265 233
-0.075933352 0.80199999 0.0098432126 1.3824538e-38 266 233
-0.074527182 0.80199999 0.0098432126 1.3271364e-38 267 233
-0.073212177 0.80299997 0.0098554865 1.2810055e-38 268 233
-0.072161935 0.80699998 0.0099045793 1.2441273e-38 269 233
-0.070746996 0.80699998 0.0099045793 1.1889563e-38 270 233
-0.069503881 0.80900002 0.0099291261 1.0045651e-38 271 233
-0.10686917 0.80199999 0.0084370393 1.4286297e-38 244 234
-0.10546299 0.80199999 0.0084370393 1.4931666e-38 245 234
-0.10379733 0.80000001 0.0084159998 1.5668821e-38 246 234
-0.10239466 0.80000001 0.0084159998 1.5853571e-38 247 234
-0.100992 0.80000001 0.0084159998 1.6316691e-38 248 234
-0.099091381 0.796 0.0083739199 1.6685474e-38 249 234
-0.097695731 0.796 0.0083739199 1.7329044e-38 250 234
-0.096300073 0.796 0.0083739199 1.742124e-38 251 234
-0.094904423 0.796 0.0083739199 1.7512719e-38 252 234
-0.093508773 0.796 0.0083739199 1.7512719e-38 253 234
-0.092113115 0.796 0.0083739199 1.7788231e-38 254 234
-0.090717465 0.796 0.0083739199 1.7788231e-38 255 234
-0.089321814 0.796 0.0083739199 1.7787159e-38 256 234
-0.087926157 0.796 0.0083739199 1.7510212e-38 257 234
-0.086530507 0.796 0.0083739199 1.704959e-38 258 234
-0.085134849 0.796 0.0083739199 1.6865199e-38 259 234
-0.083739199 0.796 0.0083739199 1.6312378e-38 260 234
-0.082343549 0.796 0.0083739199 1.6220182e-38 261 234
-0.080947891 0.796 0.0083739199 1.5943591e-38 262 234
-0.079552241 0.796 0.0083739199 1.5667006e-38 263 234
-0.078352958 0.79799998 0.0083949603 1.5207119e-38 264 234
-0.077146664 0.80000001 0.0084159998 1.4838696e-38 265 234
-0.075743996 0.80000001 0.0084159998 1.3456857e-38 266 234
-0.074527182 0.80199999 0.0084370393 1.2995519e-38 267 234
-0.073121011 0.80199999 0.0084370393 1.262639e-38 268 234
-0.071804255 0.80299997 0.0084475596 1.2349443e-38 269 234
-0.070746996 0.80699998 0.0084896395 1.1797371e-38 270 234
-0.069503881 0.80900002 0.0085106799 9.8612624e-39 271 234
-0.10686917 0.80199999 0.0070308661 1.428665e-38 244 235
-0.1052 0.80000001 0.007013333 1.4932019e-38 245 235
-0.10379733 0.80000001 0.007013333 1.530148e-38 246 235
-0.10239466 0.80000001 0.007013333 1.5578426e-38 247 235
-0.10048704 0.796 0.0069782664 1.6131947e-38 248 235
-0.099091381 0.796 0.0069782664 1.6592925e-38 249 235
-0.097695731 0.796 0.0069782664 1.7053183e-38 250 235
-0.096300073 0.796 0.0069782664 1.7145379e-38 251 235
-0.094904423 0.796 0.0069782664 1.7512366e-38 252 235
-0.093508773 0.796 0.0069782664 1.7512366e-38 253 235
-0.092113115 0.796 0.0069782664 1.7787875e-38 254 235
-0.090717465 0.796 0.0069782664 1.7695678e-38 255 235
-0.089321814 0.796 0.0069782664 1.7878628e-38 256 235
-0.087926157 0.796 0.0069782664 1.7693878e-38 257 235
-0.086530507 0.796 0.0069782664 1.7233611e-38 258 235
-0.085134849 0.796 0.0069782664 1.686483e-38 259 235
-0.083739199 0.796 0.0069782664 1.6588239e-38 260 235
-0.082343549 0.796 0.0069782664 1.6219458e-38 261 235
-0.080947891 0.796 0.0069782664 1.5759557e-38 262 235
-0.079552241 0.796 0.0069782664 1.5574807e-38 263 235
-0.078156583 0.796 0.0069782664 1.5114904e-38 264 235
-0.076953799 0.79799998 0.0069957995 1.4930513e-38 265 235
-0.075554639 0.79799998 0.0069957995 1.3457202e-38 266 235
-0.074341334 0.80000001 0.007013333 1.2719637e-38 267 235
-0.072938666 0.80000001 0.007013333 1.2625664e-38 268 235
-0.071535997 0.80000001 0.007013333 1.2441273e-38 269 235
-0.070133328 0.80000001 0.007013333 1.1981033e-38 270 235
-0.10633615 0.79799998 0.0055966396 1.4010772e-38 244 236
-0.10493699 0.79799998 0.0055966396 1.4840173e-38 245 236
-0.10353784 0.79799998 0.0055966396 1.5576978e-38 246 236
-0.1018827 0.796 0.0055826134 1.5761369e-38 247 236
-0.10048704 0.796 0.0055826134 1.6407445e-38 248 236
-0.099091381 0.796 0.0055826134 1.6775867e-38 249 236
-0.097695731 0.796 0.0055826134 1.7052461e-38 250 236
-0.096300073 0.796 0.0055826134 1.7144657e-38 251 236
-0.094904423 0.796 0.0055826134 1.7511284e-38 252 236
-0.093508773 0.796 0.0055826134 1.760348e-38 253 236
-0.092113115 0.796 0.0055826134 1.7787508e-38 254 236
-0.090717465 0.796 0.0055826134 1.7787508e-38 255 236
-0.089321814 0.796 0.0055826134 1.7695313e-38 256 236
-0.087926157 0.796 0.0055826134 1.7418367e-38 257 236
-0.086313091 0.79400003 0.0055685868 1.7141057e-38 258 236
-0.08492095 0.79400003 0.0055685868 1.686483e-38 259 236
-0.083528802 0.79400003 0.0055685868 1.6496043e-38 260 236
-0.082136653 0.79400003 0.0055685868 1.6219458e-38 261 236
-0.080744505 0.79400003 0.0055685868 1.5943586e-38 262 236
-0.079352364 0.79400003 0.0055685868 1.5575163e-38 263 236
-0.077960216 0.79400003 0.0055685868 1.5114555e-38 264 236
-0.076760925 0.796 0.0055826134 1.5114555e-38 265 236
-0.075554639 0.79799998 0.0055966396 1.3273182e-38 266 236
-0.074155472 0.79799998 0.0055966396 1.2720008e-38 267 236
-0.072756313 0.79799998 0.0055966396 1.2626384e-38 268 236
-0.071357153 0.79799998 0.0055966396 1.2165765e-38 269 236
-0.069957994 0.79799998 0.0055966396 1.1796999e-38 270 236
-0.10633615 0.79799998 0.0041974802 1.4194435e-38 244 237
-0.10493699 0.79799998 0.0041974802 1.4839804e-38 245 237
-0.10353784 0.79799998 0.0041974802 1.5577328e-38 246 237
-0.1018827 0.796 0.0041869599 1.5854274e-38 247 237
-0.10023456 0.79400003 0.0041764397 1.6315247e-38 248 237
-0.098842412 0.79400003 0.0041764397 1.6776223e-38 249 237
-0.097450264 0.79400003 0.0041764397 1.7236127e-38 250 237
-0.096058123 0.79400003 0.0041764397 1.7236127e-38 251 237
-0.094665974 0.79400003 0.0041764397 1.732725e-38 252 237
-0.093508773 0.796 0.0041869599 1.751164e-38 253 237
-0.092113115 0.796 0.0041869599 1.7695313e-38 254 237
-0.090717465 0.796 0.0041869599 1.7695313e-38 255 237
-0.089321814 0.796 0.0041869599 1.7511637e-38 256 237
-0.08770524 0.79400003 0.0041764397 1.7235411e-38 257 237
-0.086313091 0.79400003 0.0041764397 1.714141e-38 258 237
-0.08492095 0.79400003 0.0041764397 1.6865183e-38 259 237
-0.083528802 0.79400003 0.0041764397 1.6588236e-38 260 237
-0.082136653 0.79400003 0.0041764397 1.6403845e-38 261 237
-0.080744505 0.79400003 0.0041764397 1.5759557e-38 262 237
-0.079352364 0.79400003 0.0041764397 1.5574807e-38 263 237
-0.077960216 0.79400003 0.0041764397 1.5114555e-38 264 237
-0.076760925 0.796 0.0041869599 1.5022358e-38 265 237
-0.075365283 0.796 0.0041869599 1.3272459e-38 266 237
-0.073969625 0.796 0.0041869599 1.2811482e-38 267 237
-0.072573967 0.796 0.0041869599 1.262674e-38 268 237
-0.071178317 0.796 0.0041869599 1.2349793e-38 269 237
-0.10633615 0.79799998 0.0027983198 1.4194435e-38 244 238
-0.104674 0.796 0.0027913067 1.4932e-38 245 238
-0.10327834 0.796 0.0027913067 1.5301465e-38 246 238
-0.1018827 0.796 0.0027913067 1.5762441e-38 247 238
-0.10023456 0.79400003 0.0027842934 1.6222701e-38 248 238
-0.098842412 0.79400003 0.0027842934 1.6683319e-38 249 238
-0.097450264 0.79400003 0.0027842934 1.695955e-38 250 238
-0.096058123 0.79400003 0.0027842934 1.7235776e-38 251 238
-0.094665974 0.79400003 0.0027842934 1.7327253e-38 252 238
-0.093273826 0.79400003 0.0027842934 1.7511284e-38 253 238
-0.091881685 0.79400003 0.0027842934 1.760348e-38 254 238
-0.090489529 0.79400003 0.0027842934 1.760348e-38 255 238
-0.089097388 0.79400003 0.0027842934 1.7511635e-38 256 238
-0.08770524 0.79400003 0.0027842934 1.7143212e-38 257 238
-0.086313091 0.79400003 0.0027842934 1.7417274e-38 258 238
-0.08492095 0.79400003 0.0027842934 1.6956297e-38 259 238
-0.083528802 0.79400003 0.0027842934 1.6588592e-38 260 238
-0.082136653 0.79400003 0.0027842934 1.6219811e-38 261 238
-0.080744505 0.79400003 0.0027842934 1.5943223e-38 262 238
-0.079352364 0.79400003 0.0027842934 1.5574442e-38 263 238
-0.077960216 0.79400003 0.0027842934 1.5114555e-38 264 238
-0.076568067 0.79400003 0.0027842934 1.4746131e-38 265 238
-0.075365283 0.796 0.0027913067 1.3456127e-38 266 238
-0.07378377 0.79400003 0.0027842934 1.2902954e-38 267 238
-0.072391629 0.79400003 0.0027842934 1.281005e-38 268 238
-0.071178317 0.796 0.0027913067 1.2441626e-38 269 238
-0.104674 0.796 0.0013956534 1.4747606e-38 245 239
-0.10327834 0.796 0.0013956534 1.5485129e-38 246 239
-0.10162671 0.79400003 0.0013921467 1.566988e-38 247 239
-0.10023456 0.79400003 0.0013921467 1.6405996e-38 248 239
-0.098842412 0.79400003 0.0013921467 1.6682584e-38 249 239
-0.097450264 0.79400003 0.0013921467 1.7234327e-38 250 239
-0.095816158 0.792 0.0013886399 1.7326524e-38 251 239
-0.094427519 0.792 0.0013886399 1.7694234e-38 252 239
-0.093273826 0.79400003 0.0013921467 1.7694234e-38 253 239
-0.091881685 0.79400003 0.0013921467 1.7510565e-38 254 239
-0.090261593 0.792 0.0013886399 1.7602761e-38 255 239
-0.088872954 0.792 0.0013886399 1.732725e-38 256 239
-0.087484315 0.792 0.0013886399 1.7235055e-38 257 239
-0.086095676 0.792 0.0013886399 1.7049943e-38 258 239
-0.08492095 0.79400003 0.0013921467 1.6865552e-38 259 239
-0.083528802 0.79400003 0.0013921467 1.6404574e-38 260 239
-0.082136653 0.79400003 0.0013921467 1.6220182e-38 261 239
-0.080744505 0.79400003 0.0013921467 1.5667725e-38 262 239
-0.079352364 0.79400003 0.0013921467 1.5391498e-38 263 239
-0.077960216 0.79400003 0.0013921467 1.5206751e-38 264 239
-0.076568067 0.79400003 0.0013921467 1.5022358e-38 265 239
-0.075175926 0.79400003 0.0013921467 1.3730916e-38 266 239
-0.07378377 0.79400003 0.0013921467 1.3362135e-38 267 239
-0.072391629 0.79400003 0.0013921467 1.2536343e-38 268 239
-0.104411 0.79400003 -0 1.4747961e-38 245 240
-0.10301885 0.79400003 -0 1.5025602e-38 246 240
-0.10162671 0.79400003 -0 1.548658e-38 247 240
-0.10023456 0.79400003 -0 1.594684e-38 248 240
-0.098593436 0.792 -0 1.6407458e-38 249 240
-0.097204797 0.792 -0 1.6867001e-38 250 240
-0.0955742 0.79000002 -0 1.7143228e-38 251 240
-0.094189063 0.79000002 -0 1.7418017e-38 252 240
-0.093038872 0.792 -0 1.7510212e-38 253 240
-0.091650233 0.792 -0 1.7327256e-38 254 240
-0.090261593 0.792 -0 1.7511287e-38 255 240
-0.088872954 0.792 -0 1.7510565e-38 256 240
-0.087484315 0.792 -0 1.741837e-38 257 240
-0.086095676 0.792 -0 1.7325807e-38 258 240
-0.084707037 0.792 -0 1.686483e-38 259 240
-0.083318397 0.792 -0 1.6955577e-38 260 240
-0.082136653 0.79400003 -0 1.6586794e-38 261 240
-0.080744505 0.79400003 -0 1.6126888e-38 262 240
-0.079352364 0.79400003 -0 1.5850303e-38 263 240
-0.077960216 0.79400003 -0 1.5390046e-38 264 240
-0.076568067 0.79400003 -0 1.5297851e-38 265 240
-0.075175926 0.79400003 -0 1.428444e-38 266 240
-0.073597915 0.792 -0 1.3639071e-38 267 240
-0.071935758 0.78899997 -0 1.317739e-38 268 240
-0.070552371 0.78899997 -0 1.2992998e-38 269 240
-0.10580315 0.79400003 -0.0013921467 1.3826728e-38 244 241
-0.104411 0.79400003 -0.0013921467 1.4564293e-38 245 241
-0.10301885 0.79400003 -0.0013921467 1.5392936e-38 246 241
-0.10137071 0.792 -0.0013886399 1.5577328e-38 247 241
-0.099982075 0.792 -0.0013886399 1.631345e-38 248 241
-0.09834446 0.79000002 -0.0013851334 1.6590038e-38 249 241
-0.096959338 0.79000002 -0.0013851334 1.7049943e-38 250 241
-0.0955742 0.79000002 -0.0013851334 1.7233974e-38 251 241
-0.094189063 0.79000002 -0.0013851334 1.7326527e-38 252 241
-0.092803933 0.79000002 -0.0013851334 1.7326527e-38 253 241
-0.091418803 0.79000002 -0.0013851334 1.7418723e-38 254 241
-0.089919694 0.78899997 -0.0013833799 1.7510918e-38 255 241
-0.088536315 0.78899997 -0.0013833799 1.7510565e-38 256 241
-0.087152928 0.78899997 -0.0013833799 1.7326174e-38 257 241
-0.08587826 0.79000002 -0.0013851334 1.7049946e-38 258 241
-0.084493138 0.79000002 -0.0013851334 1.6865196e-38 259 241
-0.083318397 0.792 -0.0013886399 1.6588236e-38 260 241
-0.081929758 0.792 -0.0013886399 1.6496041e-38 261 241
-0.080541119 0.792 -0.0013886399 1.6036139e-38 262 241
-0.07915248 0.792 -0.0013886399 1.5667356e-38 263 241
-0.077960216 0.79400003 -0.0013921467 1.529965e-38 264 241
-0.076568067 0.79400003 -0.0013921467 1.5023062e-38 265 241
-0.075175926 0.79400003 -0.0013921467 1.4103996e-38 266 241
-0.073597915 0.792 -0.0013886399 1.3090203e-38 267 241
-0.071753412 0.787 -0.0013798733 1.3178115e-38 268 241
-0.070373543 0.787 -0.0013798733 1.2901529e-38 269 241
-0.10580315 0.79400003 -0.0027842934 1.3918927e-38 244 242
-0.104411 0.79400003 -0.0027842934 1.4564296e-38 245 242
-0.10301885 0.79400003 -0.0027842934 1.5117075e-38 246 242
-0.10137071 0.792 -0.0027772798 1.5393663e-38 247 242
-0.099729598 0.79000002 -0.0027702667 1.6037949e-38 248 242
-0.09834446 0.79000002 -0.0027702667 1.6314896e-38 249 242
-0.096959338 0.79000002 -0.0027702667 1.6865915e-38 250 242
-0.09545321 0.78899997 -0.0027667598 1.7050665e-38 251 242
-0.094069831 0.78899997 -0.0027667598 1.7233974e-38 252 242
-0.092686452 0.78899997 -0.0027667598 1.7326171e-38 253 242
-0.091303073 0.78899997 -0.0027667598 1.7326171e-38 254 242
-0.089919694 0.78899997 -0.0027667598 1.7510921e-38 255 242
-0.088536315 0.78899997 -0.0027667598 1.7418723e-38 256 242
-0.087152928 0.78899997 -0.0027667598 1.7326527e-38 257 242
-0.085769556 0.78899997 -0.0027667598 1.7233606e-38 258 242
-0.08438617 0.78899997 -0.0027667598 1.7049214e-38 259 242
-0.083108 0.79000002 -0.0027702667 1.6864453e-38 260 242
-0.081722863 0.79000002 -0.0027702667 1.6588227e-38 261 242
-0.080337733 0.79000002 -0.0027702667 1.6127966e-38 262 242
-0.07915248 0.792 -0.0027772798 1.5943573e-38 263 242
-0.077763841 0.792 -0.0027772798 1.5759182e-38 264 242
-0.076375201 0.792 -0.0027772798 1.5482596e-38 265 242
-0.074986562 0.792 -0.0027772798 1.4745047e-38 266 242
-0.073597915 0.792 -0.0027772798 1.4099677e-38 267 242
-0.071753412 0.787 -0.0027597465 1.345398e-38 268 242
-0.070373543 0.787 -0.0027597465 1.3269589e-38 269 242
-0.10580315 0.79400003 -0.0041764397 1.3641981e-38 244 243
-0.104411 0.79400003 -0.0041764397 1.44721e-38 245 243
-0.10275935 0.792 -0.00416592 1.5117072e-38 246 243
-0.10137071 0.792 -0.00416592 1.5394019e-38 247 243
-0.099729598 0.79000002 -0.0041554002 1.6037586e-38 248 243
-0.09834446 0.79000002 -0.0041554002 1.6314175e-38 249 243
-0.096959338 0.79000002 -0.0041554002 1.6866271e-38 250 243
-0.09545321 0.78899997 -0.0041501396 1.6958466e-38 251 243
-0.094069831 0.78899997 -0.0041501396 1.7418007e-38 252 243
-0.092686452 0.78899997 -0.0041501396 1.7418007e-38 253 243
-0.091071643 0.787 -0.0041396199 1.7418367e-38 254 243
-0.089691758 0.787 -0.0041396199 1.7418367e-38 255 243
-0.088311888 0.787 -0.0041396199 1.732725e-38 256 243
-0.086932018 0.787 -0.0041396199 1.7142859e-38 257 243
-0.085552141 0.787 -0.0041396199 1.7325804e-38 258 243
-0.084172271 0.787 -0.0041396199 1.7141413e-38 259 243
-0.082792401 0.787 -0.0041396199 1.6772985e-38 260 243
-0.081619412 0.78899997 -0.0041501396 1.6588592e-38 261 243
-0.080236033 0.78899997 -0.0041501396 1.6220164e-38 262 243
-0.078852654 0.78899997 -0.0041501396 1.6035772e-38 263 243
-0.077567466 0.79000002 -0.0041554002 1.5758826e-38 264 243
-0.076375201 0.792 -0.00416592 1.5482599e-38 265 243
-0.074986562 0.792 -0.00416592 1.4837248e-38 266 243
-0.073412068 0.79000002 -0.0041554002 1.4191879e-38 267 243
-0.071753412 0.787 -0.0041396199 1.336215e-38 268 243
-0.070373543 0.787 -0.0041396199 1.3269955e-38 269 243
-0.068993665 0.787 -0.0041396199 1.2258722e-38 270 243
-0.10580315 0.79400003 -0.0055685868 1.3458672e-38 244 244
-0.104148 0.792 -0.0055545596 1.4196237e-38 245 244
-0.10275935 0.792 -0.0055545596 1.5116356e-38 246 244
-0.10111474 0.79000002 -0.0055405335 1.548478e-38 247 244
-0.099729598 0.79000002 -0.0055405335 1.5945391e-38 248 244
-0.098219968 0.78899997 -0.0055335197 1.6221978e-38 249 244
-0.096836597 0.78899997 -0.0055335197 1.6773353e-38 250 244
-0.09545321 0.78899997 -0.0055335197 1.704994e-38 251 244
-0.094069831 0.78899997 -0.0055335197 1.7325454e-38 252 244
-0.092451513 0.787 -0.005519493 1.7509846e-38 253 244
-0.091071643 0.787 -0.005519493 1.7235776e-38 254 244
-0.089691758 0.787 -0.005519493 1.7235776e-38 255 244
-0.088311888 0.787 -0.005519493 1.7327606e-38 256 244
-0.086932018 0.787 -0.005519493 1.7235411e-38 257 244
-0.085334733 0.78500003 -0.0055054668 1.723433e-38 258 244
-0.083958365 0.78500003 -0.0055054668 1.6957745e-38 259 244
-0.082792401 0.787 -0.005519493 1.6772632e-38 260 244
-0.081619412 0.78899997 -0.0055335197 1.6588239e-38 261 244
-0.080236033 0.78899997 -0.0055335197 1.6220167e-38 262 244
-0.078852654 0.78899997 -0.0055335197 1.6035416e-38 263 244
-0.077469274 0.78899997 -0.0055335197 1.5759182e-38 264 244
-0.076182336 0.79000002 -0.0055405335 1.5482596e-38 265 244
-0.074797198 0.79000002 -0.0055405335 1.4837242e-38 266 244
-0.073412068 0.79000002 -0.0055405335 1.4284427e-38 267 244
-0.071935758 0.78899997 -0.0055335197 1.3454699e-38 268 244
-0.070373543 0.787 -0.005519493 1.3362503e-38 269 244
-0.068993665 0.787 -0.005519493 1.2442753e-38 270 244
-0.1074653 0.796 -0.0069782664 1.3924762e-38 243 245
-0.10580315 0.79400003 -0.0069607338 1.3366489e-38 244 245
-0.104148 0.792 -0.0069431998 1.4104054e-38 245 245
-0.10249986 0.79000002 -0.0069256667 1.4840142e-38 246 245
-0.10111474 0.79000002 -0.0069256667 1.5300761e-38 247 245
-0.099729598 0.79000002 -0.0069256667 1.5761725e-38 248 245
-0.098219968 0.78899997 -0.0069168997 1.6037952e-38 249 245
-0.096836597 0.78899997 -0.0069168997 1.6589688e-38 250 245
-0.09545321 0.78899997 -0.0069168997 1.695811e-38 251 245
-0.094069831 0.78899997 -0.0069168997 1.7142506e-38 252 245
-0.092451513 0.787 -0.0068993662 1.723506e-38 253 245
-0.091071643 0.787 -0.0068993662 1.7143225e-38 254 245
-0.089691758 0.787 -0.0068993662 1.7235779e-38 255 245
-0.088087469 0.78500003 -0.0068818335 1.7143578e-38 256 245
-0.086711101 0.78500003 -0.0068818335 1.6959547e-38 257 245
-0.085334733 0.78500003 -0.0068818335 1.7325807e-38 258 245
-0.083958365 0.78500003 -0.0068818335 1.7141057e-38 259 245
