# .PCD v.7 - Point Cloud Data file format
FIELDS x y z rgb imX imY
SIZE 4 4 4 4 4 4
TYPE F F F F F F
COUNT 1 1 1 1 1 1
WIDTH 851
HEIGHT 1
VIEWPOINT 0 0 0 1 0 0 0
POINTS 851
DATA ascii
0.048981119 0.77600002 -0.032654081 1.613053e-38 356 264
0.050211959 0.77399999 -0.032569919 1.613053e-38 357 264
0.05136916 0.77100003 -0.032443684 1.6589701e-38 358 264
0.052584216 0.76899999 -0.032359518 1.6682255e-38 359 264
0.053932533 0.76899999 -0.032359518 1.7049957e-38 360 264
0.055137072 0.76700002 -0.03227536 1.7049957e-38 361 264
0.056481879 0.76700002 -0.03227536 1.6959196e-38 362 264
0.057826683 0.76700002 -0.03227536 1.6959196e-38 363 264
0.059171494 0.76700002 -0.03227536 1.6958841e-38 364 264
0.060516298 0.76700002 -0.03227536 1.6958841e-38 365 264
0.061861109 0.76700002 -0.03227536 1.7142156e-38 366 264
0.063205913 0.76700002 -0.03227536 1.6957763e-38 367 264
0.064719036 0.76899999 -0.032359518 1.6589335e-38 368 264
0.066067353 0.76899999 -0.032359518 1.6312747e-38 369 264
0.067415662 0.76899999 -0.032359518 1.5943591e-38 370 264
0.068763971 0.76899999 -0.032359518 1.557481e-38 371 264
0.070112288 0.76899999 -0.032359518 1.5114538e-38 372 264
0.071460605 0.76899999 -0.032359518 1.4745397e-38 373 264
0.072808921 0.76899999 -0.032359518 1.4560283e-38 374 264
0.074157231 0.76899999 -0.032359518 1.4007468e-38 375 264
0.075701922 0.77100003 -0.032443684 1.3546138e-38 376 264
0.077053741 0.77100003 -0.032443684 1.3177354e-38 377 264
0.078405559 0.77100003 -0.032443684 1.253236e-38 378 264
0.079757385 0.77100003 -0.032443684 1.2163219e-38 379 264
0.0813196 0.773 -0.032527838 1.1609357e-38 380 264
0.082674921 0.773 -0.032527838 1.1056183e-38 381 264
0.084030248 0.773 -0.032527838 1.0877967e-38 382 264
0.047620531 0.77600002 -0.034014668 1.5486638e-38 355 265
0.048981119 0.77600002 -0.034014668 1.6130527e-38 356 265
0.050211959 0.77399999 -0.033927001 1.6314559e-38 357 265
0.05136916 0.77100003 -0.033795502 1.6590054e-38 358 265
0.052584216 0.76899999 -0.033707831 1.6774445e-38 359 265
0.053932533 0.76899999 -0.033707831 1.6958116e-38 360 265
0.055137072 0.76700002 -0.033620168 1.7050313e-38 361 265
0.056481879 0.76700002 -0.033620168 1.7050665e-38 362 265
0.057751291 0.76599997 -0.033576332 1.7050665e-38 363 265
0.059094343 0.76599997 -0.033576332 1.705031e-38 364 265
0.060516298 0.76700002 -0.033620168 1.705031e-38 365 265
0.061780453 0.76599997 -0.033576332 1.7049237e-38 366 265
0.063123502 0.76599997 -0.033576332 1.6864846e-38 367 265
0.06455072 0.76700002 -0.033620168 1.6588259e-38 368 265
0.065895528 0.76700002 -0.033620168 1.6311672e-38 369 265
0.067240335 0.76700002 -0.033620168 1.5943591e-38 370 265
0.068585135 0.76700002 -0.033620168 1.5482615e-38 371 265
0.06992995 0.76700002 -0.033620168 1.5023062e-38 372 265
0.071460605 0.76899999 -0.033707831 1.4469888e-38 373 265
0.072808921 0.76899999 -0.033707831 1.4376973e-38 374 265
0.074157231 0.76899999 -0.033707831 1.3731604e-38 375 265
0.07550554 0.76899999 -0.033707831 1.3453589e-38 376 265
0.076853856 0.76899999 -0.033707831 1.3084805e-38 377 265
0.078202173 0.76899999 -0.033707831 1.225578e-38 378 265
0.079757385 0.77100003 -0.033795502 1.1887358e-38 379 265
0.081109203 0.77100003 -0.033795502 1.1425692e-38 380 265
0.082461022 0.77100003 -0.033795502 1.0965074e-38 381 265
0.045015078 0.778 -0.035466425 1.4568682e-38 353 266
0.046259947 0.77600002 -0.035375252 1.5853252e-38 354 266
0.047620531 0.77600002 -0.035375252 1.6037644e-38 355 266
0.048981119 0.77600002 -0.035375252 1.6313842e-38 356 266
0.050211959 0.77399999 -0.03528408 1.6406038e-38 357 266
0.051235907 0.76899999 -0.035056144 1.6865564e-38 358 266
0.052447457 0.76700002 -0.034964975 1.695776e-38 359 266
0.053792264 0.76700002 -0.034964975 1.6958116e-38 360 266
0.055137072 0.76700002 -0.034964975 1.7050313e-38 361 266
0.056408234 0.76599997 -0.034919381 1.705031e-38 362 266
0.057751291 0.76599997 -0.034919381 1.705031e-38 363 266
0.059094343 0.76599997 -0.034919381 1.7050665e-38 364 266
0.060437392 0.76599997 -0.034919381 1.695811e-38 365 266
0.061780453 0.76599997 -0.034919381 1.6957397e-38 366 266
0.063123502 0.76599997 -0.034919381 1.6772647e-38 367 266
0.064466551 0.76599997 -0.034919381 1.6404221e-38 368 266
0.065895528 0.76700002 -0.034964975 1.6035438e-38 369 266
0.067240335 0.76700002 -0.034964975 1.5667359e-38 370 266
0.068585135 0.76700002 -0.034964975 1.5390772e-38 371 266
0.06992995 0.76700002 -0.034964975 1.5113457e-38 372 266
0.07127475 0.76700002 -0.034964975 1.4745033e-38 373 266
0.072619557 0.76700002 -0.034964975 1.4100381e-38 374 266
0.074157231 0.76899999 -0.035056144 1.3639403e-38 375 266
0.07550554 0.76899999 -0.035056144 1.336067e-38 376 266
0.076853856 0.76899999 -0.035056144 1.2991888e-38 377 266
0.078202173 0.76899999 -0.035056144 1.2529859e-38 378 266
0.079757385 0.77100003 -0.03514732 1.2068881e-38 379 266
0.081109203 0.77100003 -0.03514732 1.1241326e-38 380 266
0.082461022 0.77100003 -0.03514732 1.1056934e-38 381 266
0.043538772 0.77600002 -0.036735836 1.6135638e-38 352 267
0.044899363 0.77600002 -0.036735836 1.4383922e-38 353 267
0.046140719 0.77399999 -0.036641158 1.6495379e-38 354 267
0.047497798 0.77399999 -0.036641158 1.6587575e-38 355 267
0.048791755 0.773 -0.036593821 1.6497155e-38 356 267
0.050017338 0.77100003 -0.036499143 1.658935e-38 357 267
0.051102653 0.76700002 -0.036309779 1.6957394e-38 358 267
0.052379075 0.76599997 -0.036262438 1.6957394e-38 359 267
0.053722132 0.76599997 -0.036262438 1.6957745e-38 360 267
0.055065181 0.76599997 -0.036262438 1.704994e-38 361 267
0.056260962 0.764 -0.036167759 1.6958819e-38 362 267
0.057600506 0.764 -0.036167759 1.6958819e-38 363 267
0.058940053 0.764 -0.036167759 1.7049943e-38 364 267
0.0602796 0.764 -0.036167759 1.6957748e-38 365 267
0.061619148 0.764 -0.036167759 1.6772647e-38 366 267
0.062958695 0.764 -0.036167759 1.6588256e-38 367 267
0.064466551 0.76599997 -0.036262438 1.6403142e-38 368 267
0.065809615 0.76599997 -0.036262438 1.6034719e-38 369 267
0.067240335 0.76700002 -0.036309779 1.5574813e-38 370 267
0.068585135 0.76700002 -0.036309779 1.5297867e-38 371 267
0.06992995 0.76700002 -0.036309779 1.4929797e-38 372 267
0.07127475 0.76700002 -0.036309779 1.4284427e-38 373 267
0.072619557 0.76700002 -0.036309779 1.3916365e-38 374 267
0.073964365 0.76700002 -0.036309779 1.3363191e-38 375 267
0.07550554 0.76899999 -0.036404461 1.3085178e-38 376 267
0.076853856 0.76899999 -0.036404461 1.2532004e-38 377 267
0.078202173 0.76899999 -0.036404461 1.2070317e-38 378 267
0.079550482 0.76899999 -0.036404461 1.1609698e-38 379 267
0.081109203 0.77100003 -0.036499143 1.1240594e-38 380 267
0.082461022 0.77100003 -0.036499143 1.1056563e-38 381 267
0.042069476 0.77399999 -0.037998237 1.5860172e-38 351 268
0.043426558 0.77399999 -0.037998237 1.6040556e-38 352 268
0.044899363 0.77600002 -0.038096428 1.4934209e-38 353 268
0.046140719 0.77399999 -0.037998237 1.6128745e-38 354 268
0.047436431 0.773 -0.037949149 1.6220941e-38 355 268
0.04866552 0.77100003 -0.037850961 1.6313477e-38 356 268
0.04988759 0.76899999 -0.03775277 1.6589703e-38 357 268
0.051036026 0.76599997 -0.037605491 1.6957394e-38 358 268
0.052242316 0.764 -0.037507307 1.6957394e-38 359 268
0.053581864 0.764 -0.037507307 1.6958466e-38 360 268
0.054777641 0.76200002 -0.037409119 1.6958466e-38 361 268
0.056113683 0.76200002 -0.037409119 1.6958464e-38 362 268
0.057449725 0.76200002 -0.037409119 1.7050659e-38 363 268
0.058785759 0.76200002 -0.037409119 1.6958466e-38 364 268
0.060121801 0.76200002 -0.037409119 1.6866271e-38 365 268
0.061457843 0.76200002 -0.037409119 1.6772284e-38 366 268
0.062793881 0.76200002 -0.037409119 1.6495337e-38 367 268
0.064129919 0.76200002 -0.037409119 1.6219108e-38 368 268
0.06563779 0.764 -0.037507307 1.5850324e-38 369 268
0.06697733 0.764 -0.037507307 1.5390419e-38 370 268
0.068495713 0.76599997 -0.037605491 1.5021636e-38 371 268
0.069838762 0.76599997 -0.037605491 1.474505e-38 372 268
0.071181826 0.76599997 -0.037605491 1.4191876e-38 373 268
0.072619557 0.76700002 -0.037654586 1.4006764e-38 374 268
0.073964365 0.76700002 -0.037654586 1.3453592e-38 375 268
0.075309172 0.76700002 -0.037654586 1.290114e-38 376 268
0.076853856 0.76899999 -0.03775277 1.2347966e-38 377 268
0.078202173 0.76899999 -0.03775277 1.2069604e-38 378 268
0.079550482 0.76899999 -0.03775277 1.1608626e-38 379 268
0.081109203 0.77100003 -0.037850961 1.1057297e-38 380 268
0.082461022 0.77100003 -0.037850961 1.1057297e-38 381 268
0.042015124 0.773 -0.039304473 1.5491017e-38 351 269
0.043370452 0.773 -0.039304473 1.5210424e-38 352 269
0.044783637 0.77399999 -0.039355319 1.5118228e-38 353 269
0.046081103 0.773 -0.039304473 1.631277e-38 354 269
0.047313701 0.77100003 -0.03920278 1.6220575e-38 355 269
0.048539277 0.76899999 -0.039101087 1.6313827e-38 356 269
0.049757849 0.76700002 -0.038999394 1.6590054e-38 357 269
0.050902773 0.764 -0.038846854 1.6865552e-38 358 269
0.052105557 0.76200002 -0.038745161 1.6957748e-38 359 269
0.053441599 0.76200002 -0.038745161 1.6775154e-38 360 269
0.054777641 0.76200002 -0.038745161 1.6775154e-38 361 269
0.056113683 0.76200002 -0.038745161 1.6958466e-38 362 269
0.057449725 0.76200002 -0.038745161 1.7050662e-38 363 269
0.058785759 0.76200002 -0.038745161 1.6775154e-38 364 269
0.060121801 0.76200002 -0.038745161 1.6590404e-38 365 269
0.061457843 0.76200002 -0.038745161 1.6588609e-38 366 269
0.062793881 0.76200002 -0.038745161 1.6219827e-38 367 269
0.064129919 0.76200002 -0.038745161 1.6034714e-38 368 269
0.06563779 0.764 -0.038846854 1.5758125e-38 369 269
0.06697733 0.764 -0.038846854 1.5114552e-38 370 269
0.068316877 0.764 -0.038846854 1.4746129e-38 371 269
0.069656424 0.764 -0.038846854 1.4469186e-38 372 269
0.071181826 0.76599997 -0.038948543 1.3916012e-38 373 269
0.072524875 0.76599997 -0.038948543 1.3730903e-38 374 269
0.073867925 0.76599997 -0.038948543 1.3177729e-38 375 269
0.075309172 0.76700002 -0.038999394 1.2349415e-38 376 269
0.076853856 0.76899999 -0.039101087 1.1888077e-38 377 269
0.078202173 0.76899999 -0.039101087 1.1701906e-38 378 269
0.079550482 0.76899999 -0.039101087 1.1333483e-38 379 269
0.080898799 0.76899999 -0.039101087 1.0690673e-38 380 269
0.041797712 0.76899999 -0.0404494 1.4845995e-38 351 270
0.043146025 0.76899999 -0.0404494 1.5576318e-38 352 270
0.044494338 0.76899999 -0.0404494 1.5944742e-38 353 270
0.045842651 0.76899999 -0.0404494 1.631277e-38 354 270
0.047068235 0.76700002 -0.040344197 1.631277e-38 355 270
0.048349917 0.76599997 -0.040291596 1.6497139e-38 356 270
0.049433477 0.76200002 -0.040081199 1.6681531e-38 357 270
0.050769519 0.76200002 -0.040081199 1.6865918e-38 358 270
0.052105557 0.76200002 -0.040081199 1.6958113e-38 359 270
0.053441599 0.76200002 -0.040081199 1.6958113e-38 360 270
0.054777641 0.76200002 -0.040081199 1.6958113e-38 361 270
0.056113683 0.76200002 -0.040081199 1.695811e-38 362 270
0.057449725 0.76200002 -0.040081199 1.7050665e-38 363 270
0.058785759 0.76200002 -0.040081199 1.695811e-38 364 270
0.060121801 0.76200002 -0.040081199 1.6681884e-38 365 270
0.061457843 0.76200002 -0.040081199 1.6588253e-38 366 270
0.062793881 0.76200002 -0.040081199 1.6127634e-38 367 270
0.064129919 0.76200002 -0.040081199 1.5759204e-38 368 270
0.065465957 0.76200002 -0.040081199 1.5390063e-38 369 270
0.066802002 0.76200002 -0.040081199 1.4930157e-38 370 270
0.068316877 0.764 -0.040186398 1.4561735e-38 371 270
0.069656424 0.764 -0.040186398 1.4284787e-38 372 270
0.070995972 0.764 -0.040186398 1.3731972e-38 373 270
0.072335519 0.764 -0.040186398 1.3362841e-38 374 270
0.073675066 0.764 -0.040186398 1.2901503e-38 375 270
0.075210981 0.76599997 -0.040291596 1.2164666e-38 376 270
0.07665398 0.76700002 -0.040344197 1.170369e-38 377 270
0.077998787 0.76700002 -0.040344197 1.1609713e-38 378 270
0.079550482 0.76899999 -0.0404494 1.1240932e-38 379 270
0.080898799 0.76899999 -0.0404494 1.0781436e-38 380 270
0.041689005 0.76700002 -0.041689005 1.4844902e-38 351 271
0.043033812 0.76700002 -0.041689005 1.5945082e-38 352 271
0.04437862 0.76700002 -0.041689005 1.6037278e-38 353 271
0.045663811 0.76599997 -0.041634649 1.6221644e-38 354 271
0.047006864 0.76599997 -0.041634649 1.631384e-38 355 271
0.048223678 0.764 -0.041525945 1.6681531e-38 356 271
0.049433477 0.76200002 -0.041417241 1.6681531e-38 357 271
0.050769519 0.76200002 -0.041417241 1.6957397e-38 358 271
0.052037176 0.76099998 -0.041362885 1.7049593e-38 359 271
0.053371463 0.76099998 -0.041362885 1.705031e-38 360 271
0.05470575 0.76099998 -0.041362885 1.705031e-38 361 271
0.056040037 0.76099998 -0.041362885 1.6866994e-38 362 271
0.057374325 0.76099998 -0.041362885 1.6774798e-38 363 271
0.058708608 0.76099998 -0.041362885 1.6865918e-38 364 271
0.060121801 0.76200002 -0.041417241 1.6589691e-38 365 271
0.061457843 0.76200002 -0.041417241 1.6587533e-38 366 271
0.062793881 0.76200002 -0.041417241 1.6034719e-38 367 271
0.064129919 0.76200002 -0.041417241 1.5574457e-38 368 271
0.065465957 0.76200002 -0.041417241 1.529787e-38 369 271
0.066802002 0.76200002 -0.041417241 1.4837242e-38 370 271
0.068138041 0.76200002 -0.041417241 1.4468819e-38 371 271
0.069474079 0.76200002 -0.041417241 1.4100033e-38 372 271
0.070995972 0.764 -0.041525945 1.3639055e-38 373 271
0.072335519 0.764 -0.041525945 1.3178447e-38 374 271
0.073675066 0.764 -0.041525945 1.2625273e-38 375 271
0.075014614 0.764 -0.041525945 1.2255783e-38 376 271
0.076554038 0.76599997 -0.041634649 1.1794806e-38 377 271
0.077897087 0.76599997 -0.041634649 1.1332777e-38 378 271
0.079550482 0.76899999 -0.041797712 1.1056189e-38 379 271
0.080898799 0.76899999 -0.041797712 1.0321557e-38 380 271
0.040344197 0.76700002 -0.043033812 1.5488099e-38 350 272
0.041689005 0.76700002 -0.043033812 1.502748e-38 351 272
0.042977702 0.76599997 -0.042977702 1.6129824e-38 352 272
0.044320758 0.76599997 -0.042977702 1.6313855e-38 353 272
0.045544583 0.764 -0.042865492 1.6589703e-38 354 272
0.046884131 0.764 -0.042865492 1.6589703e-38 355 272
0.048097439 0.76200002 -0.042753279 1.6957044e-38 356 272
0.049433477 0.76200002 -0.042753279 1.704924e-38 357 272
0.050702889 0.76099998 -0.042697169 1.695776e-38 358 272
0.052037176 0.76099998 -0.042697169 1.7049957e-38 359 272
0.053371463 0.76099998 -0.042697169 1.6866998e-38 360 272
0.05470575 0.76099998 -0.042697169 1.6866998e-38 361 272
0.056040037 0.76099998 -0.042697169 1.7050313e-38 362 272
0.057374325 0.76099998 -0.042697169 1.7050313e-38 363 272
0.058708608 0.76099998 -0.042697169 1.6682252e-38 364 272
0.060121801 0.76200002 -0.042753279 1.6497861e-38 365 272
0.061457843 0.76200002 -0.042753279 1.6036517e-38 366 272
0.062793881 0.76200002 -0.042753279 1.5391148e-38 367 272
0.064129919 0.76200002 -0.042753279 1.5481899e-38 368 272
0.065465957 0.76200002 -0.042753279 1.5204952e-38 369 272
0.066802002 0.76200002 -0.042753279 1.4561735e-38 370 272
0.068138041 0.76200002 -0.042753279 1.4100756e-38 371 272
0.069474079 0.76200002 -0.042753279 1.3824167e-38 372 272
0.070995972 0.764 -0.042865492 1.3270993e-38 373 272
0.072335519 0.764 -0.042865492 1.2993698e-38 374 272
0.073675066 0.764 -0.042865492 1.2440883e-38 375 272
0.075014614 0.764 -0.042865492 1.1887726e-38 376 272
0.076554038 0.76599997 -0.042977702 1.1426748e-38 377 272
0.077897087 0.76599997 -0.042977702 1.0965074e-38 378 272
0.079343595 0.76700002 -0.043033812 1.0688127e-38 379 272
0.080688395 0.76700002 -0.043033812 1.0137165e-38 380 272
0.040344197 0.76700002 -0.04437862 1.502603e-38 350 273
0.041634649 0.76599997 -0.044320758 1.5302975e-38 351 273
0.042977702 0.76599997 -0.044320758 1.6314205e-38 352 273
0.04420504 0.764 -0.04420504 1.6314205e-38 353 273
0.045425359 0.76200002 -0.044089317 1.6681536e-38 354 273
0.046761397 0.76200002 -0.044089317 1.6865567e-38 355 273
0.048097439 0.76200002 -0.044089317 1.6865211e-38 356 273
0.049368605 0.76099998 -0.044031456 1.6957407e-38 357 273
0.050702889 0.76099998 -0.044031456 1.6867001e-38 358 273
0.052037176 0.76099998 -0.044031456 1.6867001e-38 359 273
0.053371463 0.76099998 -0.044031456 1.7142506e-38 360 273
0.05470575 0.76099998 -0.044031456 1.705031e-38 361 273
0.056040037 0.76099998 -0.044031456 1.6867001e-38 362 273
0.057374325 0.76099998 -0.044031456 1.6774445e-38 363 273
0.058708608 0.76099998 -0.044031456 1.6865202e-38 364 273
0.060042895 0.76099998 -0.044031456 1.6404223e-38 365 273
0.061457843 0.76200002 -0.044089317 1.6219464e-38 366 273
0.062793881 0.76200002 -0.044089317 1.5574094e-38 367 273
0.064129919 0.76200002 -0.044089317 1.5114188e-38 368 273
0.065465957 0.76200002 -0.044089317 1.4929797e-38 369 273
0.066802002 0.76200002 -0.044089317 1.4652484e-38 370 273
0.068138041 0.76200002 -0.044089317 1.4375538e-38 371 273
0.069474079 0.76200002 -0.044089317 1.3639052e-38 372 273
0.070810117 0.76200002 -0.044089317 1.3178433e-38 373 273
0.072146162 0.76200002 -0.044089317 1.2900065e-38 374 273
0.073675066 0.764 -0.04420504 1.2531281e-38 375 273
0.075014614 0.764 -0.04420504 1.2069604e-38 376 273
0.076354161 0.764 -0.04420504 1.1792657e-38 377 273
0.077897087 0.76599997 -0.044320758 1.0872184e-38 378 273
0.079343595 0.76700002 -0.04437862 1.0411565e-38 379 273
0.080688395 0.76700002 -0.04437862 9.3110173e-39 380 273
0.038745161 0.76200002 -0.045425359 1.5213336e-38 349 274
0.040081199 0.76200002 -0.045425359 1.5853981e-38 350 274
0.041417241 0.76200002 -0.045425359 1.6130208e-38 351 274
0.042753279 0.76200002 -0.045425359 1.640676e-38 352 274
0.044089317 0.76200002 -0.045425359 1.640676e-38 353 274
0.045425359 0.76200002 -0.045425359 1.6681533e-38 354 274
0.046761397 0.76200002 -0.045425359 1.6865564e-38 355 274
0.048034318 0.76099998 -0.045365743 1.695776e-38 356 274
0.049368605 0.76099998 -0.045365743 1.7049957e-38 357 274
0.050702889 0.76099998 -0.045365743 1.6866645e-38 358 274
0.051900417 0.759 -0.045246519 1.6958841e-38 359 274
0.053231198 0.759 -0.045246519 1.705031e-38 360 274
0.05470575 0.76099998 -0.045365743 1.7142506e-38 361 274
0.056040037 0.76099998 -0.045365743 1.6775165e-38 362 274
0.057374325 0.76099998 -0.045365743 1.6682968e-38 363 274
0.058708608 0.76099998 -0.045365743 1.6588985e-38 364 274
0.060042895 0.76099998 -0.045365743 1.6312038e-38 365 274
0.061377186 0.76099998 -0.045365743 1.5576978e-38 366 274
0.062793881 0.76200002 -0.045425359 1.4931609e-38 367 274
0.064045757 0.76099998 -0.045365743 1.502199e-38 368 274
0.065380037 0.76099998 -0.045365743 1.4837598e-38 369 274
0.066802002 0.76200002 -0.045425359 1.437662e-38 370 274
0.068138041 0.76200002 -0.045425359 1.3823446e-38 371 274
0.069474079 0.76200002 -0.045425359 1.3454311e-38 372 274
0.070810117 0.76200002 -0.045425359 1.2993333e-38 373 274
0.072146162 0.76200002 -0.045425359 1.2716393e-38 374 274
0.073675066 0.764 -0.045544583 1.2163219e-38 375 274
0.075014614 0.764 -0.045544583 1.1702256e-38 376 274
0.076354161 0.764 -0.045544583 1.1241638e-38 377 274
0.077693708 0.764 -0.045544583 1.0504464e-38 378 274
0.079033248 0.764 -0.045544583 1.0135323e-38 379 274
0.038745161 0.76200002 -0.046761397 1.5395553e-38 349 275
0.040081199 0.76200002 -0.046761397 1.613019e-38 350 275
0.041417241 0.76200002 -0.046761397 1.6222385e-38 351 275
0.042697169 0.76099998 -0.046700031 1.6498587e-38 352 275
0.044031456 0.76099998 -0.046700031 1.6498587e-38 353 275
0.045365743 0.76099998 -0.046700031 1.6682252e-38 354 275
0.046700031 0.76099998 -0.046700031 1.6682252e-38 355 275
0.048034318 0.76099998 -0.046700031 1.6774451e-38 356 275
0.049368605 0.76099998 -0.046700031 1.6866648e-38 357 275
0.050569639 0.759 -0.046577301 1.6866648e-38 358 275
0.051900417 0.759 -0.046577301 1.6958843e-38 359 275
0.053231198 0.759 -0.046577301 1.6959194e-38 360 275
0.054561976 0.759 -0.046577301 1.6866998e-38 361 275
0.055892758 0.759 -0.046577301 1.6867001e-38 362 275
0.05722354 0.759 -0.046577301 1.6682249e-38 363 275
0.058708608 0.76099998 -0.046700031 1.6680454e-38 364 275
0.060042895 0.76099998 -0.046700031 1.6035085e-38 365 275
0.061377186 0.76099998 -0.046700031 1.5667009e-38 366 275
0.06271147 0.76099998 -0.046700031 1.5297867e-38 367 275
0.064045757 0.76099998 -0.046700031 1.4929075e-38 368 275
0.065380037 0.76099998 -0.046700031 1.4652128e-38 369 275
0.066714332 0.76099998 -0.046700031 1.4007482e-38 370 275
0.068048611 0.76099998 -0.046700031 1.3639058e-38 371 275
0.069474079 0.76200002 -0.046761397 1.3086247e-38 372 275
0.070810117 0.76200002 -0.046761397 1.2717825e-38 373 275
0.072146162 0.76200002 -0.046761397 1.2440164e-38 374 275
0.073482201 0.76200002 -0.046761397 1.1886991e-38 375 275
0.074818239 0.76200002 -0.046761397 1.1426032e-38 376 275
0.076154284 0.76200002 -0.046761397 1.1056889e-38 377 275
0.077490322 0.76200002 -0.046761397 1.0412281e-38 378 275
0.07882636 0.76200002 -0.046761397 9.9513042e-39 379 275
0.036025736 0.76099998 -0.048034318 1.5767608e-38 347 276
0.037360024 0.76099998 -0.048034318 1.5485931e-38 348 276
0.038745161 0.76200002 -0.048097439 1.5578486e-38 349 276
0.040028598 0.76099998 -0.048034318 1.6314208e-38 350 276
0.041362885 0.76099998 -0.048034318 1.6314208e-38 351 276
0.042697169 0.76099998 -0.048034318 1.6682255e-38 352 276
0.043915741 0.759 -0.047908079 1.6682255e-38 353 276
0.045246519 0.759 -0.047908079 1.6682971e-38 354 276
0.046577301 0.759 -0.047908079 1.6775168e-38 355 276
0.04778184 0.75700003 -0.04778184 1.6866648e-38 356 276
0.049109112 0.75700003 -0.04778184 1.6958843e-38 357 276
0.050436385 0.75700003 -0.04778184 1.6958841e-38 358 276
0.051763661 0.75700003 -0.04778184 1.6958841e-38 359 276
0.053090934 0.75700003 -0.04778184 1.6959196e-38 360 276
0.054561976 0.759 -0.047908079 1.6774445e-38 361 276
0.055892758 0.759 -0.047908079 1.6865562e-38 362 276
0.057072755 0.75700003 -0.04778184 1.6589335e-38 363 276
0.058400027 0.75700003 -0.04778184 1.6312744e-38 364 276
0.060042895 0.76099998 -0.048034318 1.5575179e-38 365 276
0.061377186 0.76099998 -0.048034318 1.5481896e-38 366 276
0.06271147 0.76099998 -0.048034318 1.5112753e-38 367 276
0.064045757 0.76099998 -0.048034318 1.4468819e-38 368 276
0.065380037 0.76099998 -0.048034318 1.4284427e-38 369 276
0.066714332 0.76099998 -0.048034318 1.3731251e-38 370 276
0.068048611 0.76099998 -0.048034318 1.3454664e-38 371 276
0.069474079 0.76200002 -0.048097439 1.2994051e-38 372 276
0.070810117 0.76200002 -0.048097439 1.2440878e-38 373 276
0.072146162 0.76200002 -0.048097439 1.1980272e-38 374 276
0.073482201 0.76200002 -0.048097439 1.1427099e-38 375 276
0.074818239 0.76200002 -0.048097439 1.105762e-38 376 276
0.076154284 0.76200002 -0.048097439 1.0781031e-38 377 276
0.077490322 0.76200002 -0.048097439 1.0043868e-38 378 276
0.07882636 0.76200002 -0.048097439 9.675446e-39 379 276
0.034691449 0.76099998 -0.049368605 1.6318964e-38 346 277
0.035931058 0.759 -0.049238857 1.5581399e-38 347 277
0.03726184 0.759 -0.049238857 1.6037647e-38 348 277
0.038592618 0.759 -0.049238857 1.6129842e-38 349 277
0.0399234 0.759 -0.049238857 1.640711e-38 350 277
0.041254178 0.759 -0.049238857 1.640711e-38 351 277
0.042584959 0.759 -0.049238857 1.6683324e-38 352 277
0.043915741 0.759 -0.049238857 1.6775521e-38 353 277
0.045246519 0.759 -0.049238857 1.6684049e-38 354 277
0.046454567 0.75700003 -0.049109112 1.6684049e-38 355 277
0.04778184 0.75700003 -0.049109112 1.6958843e-38 356 277
0.049109112 0.75700003 -0.049109112 1.6958843e-38 357 277
0.050436385 0.75700003 -0.049109112 1.6867364e-38 358 277
0.051763661 0.75700003 -0.049109112 1.6867364e-38 359 277
0.053090934 0.75700003 -0.049109112 1.6867001e-38 360 277
0.054561976 0.759 -0.049238857 1.6682249e-38 361 277
0.055892758 0.759 -0.049238857 1.6681886e-38 362 277
0.056921966 0.755 -0.048979364 1.6404941e-38 363 277
0.058245733 0.755 -0.048979364 1.5944321e-38 364 277
0.059727304 0.75700003 -0.049109112 1.5298952e-38 365 277
0.061377186 0.76099998 -0.049368605 1.5204952e-38 366 277
0.06271147 0.76099998 -0.049368605 1.4743975e-38 367 277
0.064045757 0.76099998 -0.049368605 1.4284071e-38 368 277
0.065380037 0.76099998 -0.049368605 1.4007485e-38 369 277
0.066714332 0.76099998 -0.049368605 1.3729821e-38 370 277
0.068048611 0.76099998 -0.049368605 1.3361039e-38 371 277
0.069474079 0.76200002 -0.049433477 1.2625276e-38 372 277
0.070810117 0.76200002 -0.049433477 1.2256133e-38 373 277
0.072146162 0.76200002 -0.049433477 1.1520017e-38 374 277
0.073482201 0.76200002 -0.049433477 1.1059039e-38 375 277
0.074818239 0.76200002 -0.049433477 1.0781397e-38 376 277
0.076154284 0.76200002 -0.049433477 1.032042e-38 377 277
0.077490322 0.76200002 -0.049433477 9.7680074e-39 378 277
0.07882636 0.76200002 -0.049433477 9.307388e-39 379 277
0.034600276 0.759 -0.050569639 1.6130951e-38 346 278
0.03583638 0.75700003 -0.050436385 1.5670331e-38 347 278
0.037163652 0.75700003 -0.050436385 1.6314935e-38 348 278
0.038490929 0.75700003 -0.050436385 1.6222738e-38 349 278
0.039818201 0.75700003 -0.050436385 1.649894e-38 350 278
0.041145474 0.75700003 -0.050436385 1.6682971e-38 351 278
0.042472746 0.75700003 -0.050436385 1.6683321e-38 352 278
0.043800019 0.75700003 -0.050436385 1.6867714e-38 353 278
0.045127295 0.75700003 -0.050436385 1.686772e-38 354 278
0.046454567 0.75700003 -0.050436385 1.686772e-38 355 278
0.04778184 0.75700003 -0.050436385 1.7142874e-38 356 278
0.049109112 0.75700003 -0.050436385 1.6958843e-38 357 278
0.050436385 0.75700003 -0.050436385 1.6958843e-38 358 278
0.051763661 0.75700003 -0.050436385 1.6866648e-38 359 278
0.053090934 0.75700003 -0.050436385 1.6682968e-38 360 278
0.054418206 0.75700003 -0.050436385 1.6406742e-38 361 278
0.055745479 0.75700003 -0.050436385 1.6497492e-38 362 278
0.056921966 0.755 -0.050303131 1.6220545e-38 363 278
0.058245733 0.755 -0.050303131 1.5759925e-38 364 278
0.059569497 0.755 -0.050303131 1.5114555e-38 365 278
0.060893264 0.755 -0.050303131 1.520423e-38 366 278
0.062381849 0.75700003 -0.050436385 1.4835446e-38 367 278
0.063709125 0.75700003 -0.050436385 1.4375188e-38 368 278
0.065036394 0.75700003 -0.050436385 1.391421e-38 369 278
0.066714332 0.76099998 -0.050702889 1.3361759e-38 370 278
0.068048611 0.76099998 -0.050702889 1.2993335e-38 371 278
0.069474079 0.76200002 -0.050769519 1.2348332e-38 372 278
0.070810117 0.76200002 -0.050769519 1.1979551e-38 373 278
0.072146162 0.76200002 -0.050769519 1.1244152e-38 374 278
0.073482201 0.76200002 -0.050769519 1.069098e-38 375 278
0.074818239 0.76200002 -0.050769519 1.0504461e-38 376 278
0.076154284 0.76200002 -0.050769519 1.0135679e-38 377 278
0.077490322 0.76200002 -0.050769519 9.3999535e-39 378 278
0.07882636 0.76200002 -0.050769519 9.3073978e-39 379 278
0.034600276 0.759 -0.051900417 1.6036937e-38 346 279
0.03583638 0.75700003 -0.051763661 1.6221687e-38 347 279
0.037163652 0.75700003 -0.051763661 1.6406757e-38 348 279
0.038490929 0.75700003 -0.051763661 1.6406757e-38 349 279
0.039818201 0.75700003 -0.051763661 1.6682968e-38 350 279
0.041145474 0.75700003 -0.051763661 1.6682968e-38 351 279
0.042472746 0.75700003 -0.051763661 1.686772e-38 352 279
0.043684296 0.755 -0.051626898 1.686772e-38 353 279
0.045008067 0.755 -0.051626898 1.6959559e-38 354 279
0.04633183 0.755 -0.051626898 1.6959559e-38 355 279
0.047655597 0.755 -0.051626898 1.7142874e-38 356 279
0.048979364 0.755 -0.051626898 1.6958843e-38 357 279
0.050303131 0.755 -0.051626898 1.6867367e-38 358 279
0.051626898 0.755 -0.051626898 1.6682615e-38 359 279
0.052950665 0.755 -0.051626898 1.6774445e-38 360 279
0.054274432 0.755 -0.051626898 1.6313827e-38 361 279
0.055745479 0.75700003 -0.051763661 1.6220901e-38 362 279
0.056921966 0.755 -0.051626898 1.585212e-38 363 279
0.058245733 0.755 -0.051626898 1.5482615e-38 364 279
0.059569497 0.755 -0.051626898 1.5298223e-38 365 279
0.060893264 0.755 -0.051626898 1.4744694e-38 366 279
0.062381849 0.75700003 -0.051763661 1.4468465e-38 367 279
0.063709125 0.75700003 -0.051763661 1.3823099e-38 368 279
0.065036394 0.75700003 -0.051763661 1.3546153e-38 369 279
0.066714332 0.76099998 -0.052037176 1.2992979e-38 370 279
0.068048611 0.76099998 -0.052037176 1.2716393e-38 371 279
0.069474079 0.76200002 -0.052105557 1.2071749e-38 372 279
0.070810117 0.76200002 -0.052105557 1.1702965e-38 373 279
0.072146162 0.76200002 -0.052105557 1.1058689e-38 374 279
0.073482201 0.76200002 -0.052105557 1.0598069e-38 375 279
0.074818239 0.76200002 -0.052105557 1.0044206e-38 376 279
0.076154284 0.76200002 -0.052105557 9.7676178e-39 377 279
0.077490322 0.76200002 -0.052105557 9.4903499e-39 378 279
0.07882636 0.76200002 -0.052105557 9.5825455e-39 379 279
0.034509107 0.75700003 -0.053090934 1.6037631e-38 346 280
0.03583638 0.75700003 -0.053090934 1.6406053e-38 347 280
0.037065465 0.755 -0.052950665 1.6223442e-38 348 280
0.038389232 0.755 -0.052950665 1.6223442e-38 349 280
0.039712999 0.755 -0.052950665 1.6315991e-38 350 280
0.041036766 0.755 -0.052950665 1.6500023e-38 351 280
0.042360533 0.755 -0.052950665 1.6867364e-38 352 280
0.043684296 0.755 -0.052950665 1.6867364e-38 353 280
0.044948451 0.75400001 -0.052880533 1.714323e-38 354 280
0.046270464 0.75400001 -0.052880533 1.714323e-38 355 280
0.04759248 0.75400001 -0.052880533 1.7234351e-38 356 280
0.048979364 0.755 -0.052950665 1.7142156e-38 357 280
0.050303131 0.755 -0.052950665 1.6866292e-38 358 280
0.051626898 0.755 -0.052950665 1.6774095e-38 359 280
0.052950665 0.755 -0.052950665 1.6314193e-38 360 280
0.054274432 0.755 -0.052950665 1.6037604e-38 361 280
0.055598196 0.755 -0.052950665 1.6035438e-38 362 280
0.056921966 0.755 -0.052950665 1.5666656e-38 363 280
0.058245733 0.755 -0.052950665 1.5481893e-38 364 280
0.059569497 0.755 -0.052950665 1.4929078e-38 365 280
0.060893264 0.755 -0.052950665 1.4285871e-38 366 280
0.062217031 0.755 -0.052950665 1.3824532e-38 367 280
0.063709125 0.75700003 -0.053090934 1.3638352e-38 368 280
0.065036394 0.75700003 -0.053090934 1.3085178e-38 369 280
0.066538997 0.759 -0.053231198 1.2808235e-38 370 280
0.068048611 0.76099998 -0.053371463 1.2347616e-38 371 280
0.069382899 0.76099998 -0.053371463 1.1611141e-38 372 280
0.070810117 0.76200002 -0.053441599 1.1334553e-38 373 280
0.072051473 0.76099998 -0.053371463 1.0598079e-38 374 280
0.07338576 0.76099998 -0.053371463 1.0137461e-38 375 280
0.074720047 0.76099998 -0.053371463 9.6757921e-39 376 280
0.076054335 0.76099998 -0.053371463 9.1229785e-39 377 280
0.077388622 0.76099998 -0.053371463 8.2964927e-39 378 280
0.034417931 0.755 -0.054274432 1.6130893e-38 346 281
0.035741698 0.755 -0.054274432 1.6130893e-38 347 281
0.037065465 0.755 -0.054274432 1.6314912e-38 348 281
0.038389232 0.755 -0.054274432 1.6407107e-38 349 281
0.039712999 0.755 -0.054274432 1.6499659e-38 350 281
0.040982414 0.75400001 -0.054202545 1.6684051e-38 351 281
0.042304426 0.75400001 -0.054202545 1.6959559e-38 352 281
0.043626439 0.75400001 -0.054202545 1.6959559e-38 353 281
0.044948451 0.75400001 -0.054202545 1.714323e-38 354 281
0.046270464 0.75400001 -0.054202545 1.714323e-38 355 281
0.04759248 0.75400001 -0.054202545 1.7142512e-38 356 281
0.048914492 0.75400001 -0.054202545 1.7049957e-38 357 281
0.050236505 0.75400001 -0.054202545 1.6774451e-38 358 281
0.051558517 0.75400001 -0.054202545 1.6497505e-38 359 281
0.052880533 0.75400001 -0.054202545 1.6220198e-38 360 281
0.054274432 0.755 -0.054274432 1.5943612e-38 361 281
0.055598196 0.755 -0.054274432 1.5942887e-38 362 281
0.056921966 0.755 -0.054274432 1.5574463e-38 363 281
0.058245733 0.755 -0.054274432 1.5113838e-38 364 281
0.059569497 0.755 -0.054274432 1.4468468e-38 365 281
0.060893264 0.755 -0.054274432 1.4374838e-38 366 281
0.062217031 0.755 -0.054274432 1.4098611e-38 367 281
0.063709125 0.75700003 -0.054418206 1.3453251e-38 368 281
0.065036394 0.75700003 -0.054418206 1.2900436e-38 369 281
0.066538997 0.759 -0.054561976 1.2346907e-38 370 281
0.067869775 0.759 -0.054561976 1.1886289e-38 371 281
0.069382899 0.76099998 -0.05470575 1.1426032e-38 372 281
0.070717193 0.76099998 -0.05470575 1.1056889e-38 373 281
0.072051473 0.76099998 -0.05470575 1.0412616e-38 374 281
0.07338576 0.76099998 -0.05470575 1.0136028e-38 375 281
0.074720047 0.76099998 -0.05470575 9.5832462e-39 376 281
0.076054335 0.76099998 -0.05470575 9.0300738e-39 377 281
0.033050332 0.75400001 -0.055524562 1.5854682e-38 345 282
0.034372345 0.75400001 -0.055524562 1.6131243e-38 346 282
0.035741698 0.755 -0.055598196 1.6131243e-38 347 282
0.037016369 0.75400001 -0.055524562 1.649894e-38 348 282
0.038338386 0.75400001 -0.055524562 1.6682971e-38 349 282
0.039660402 0.75400001 -0.055524562 1.6775168e-38 350 282
0.040982414 0.75400001 -0.055524562 1.6867364e-38 351 282
0.042304426 0.75400001 -0.055524562 1.6959559e-38 352 282
0.04351072 0.75199997 -0.055377278 1.6959559e-38 353 282
0.044829223 0.75199997 -0.055377278 1.7143228e-38 354 282
0.04614773 0.75199997 -0.055377278 1.6959196e-38 355 282
0.047466237 0.75199997 -0.055377278 1.7050313e-38 356 282
0.048784744 0.75199997 -0.055377278 1.6865562e-38 357 282
0.050236505 0.75400001 -0.055524562 1.6497861e-38 358 282
0.051558517 0.75400001 -0.055524562 1.6221275e-38 359 282
0.052880533 0.75400001 -0.055524562 1.5944684e-38 360 282
0.054202545 0.75400001 -0.055524562 1.5576262e-38 361 282
0.055524562 0.75400001 -0.055524562 1.5390792e-38 362 282
0.056921966 0.755 -0.055598196 1.5114205e-38 363 282
0.058245733 0.755 -0.055598196 1.4470636e-38 364 282
0.059569497 0.755 -0.055598196 1.3825267e-38 365 282
0.060893264 0.755 -0.055598196 1.4097902e-38 366 282
0.062217031 0.755 -0.055598196 1.3821314e-38 367 282
0.063709125 0.75700003 -0.055745479 1.3175947e-38 368 282
0.065036394 0.75700003 -0.055745479 1.2530578e-38 369 282
0.066538997 0.759 -0.055892758 1.2070323e-38 370 282
0.067869775 0.759 -0.055892758 1.170154e-38 371 282
0.069382899 0.76099998 -0.056040037 1.1057973e-38 372 282
0.070717193 0.76099998 -0.056040037 1.068883e-38 373 282
0.072051473 0.76099998 -0.056040037 1.0135673e-38 374 282
0.07338576 0.76099998 -0.056040037 9.8594449e-39 375 282
0.074720047 0.76099998 -0.056040037 9.2151895e-39 376 282
0.033050332 0.75400001 -0.056846574 1.6406035e-38 345 283
0.034372345 0.75400001 -0.056846574 1.6314912e-38 346 283
0.035694357 0.75400001 -0.056846574 1.6407107e-38 347 283
0.037016369 0.75400001 -0.056846574 1.6682971e-38 348 283
0.038338386 0.75400001 -0.056846574 1.6775168e-38 349 283
0.039660402 0.75400001 -0.056846574 1.686772e-38 350 283
0.040873703 0.75199997 -0.056695782 1.686772e-38 351 283
0.04219221 0.75199997 -0.056695782 1.6959915e-38 352 283
0.04351072 0.75199997 -0.056695782 1.6959915e-38 353 283
0.044709999 0.75 -0.056544997 1.6959194e-38 354 283
0.046024997 0.75 -0.056544997 1.6866998e-38 355 283
0.047466237 0.75199997 -0.056695782 1.6865918e-38 356 283
0.048784744 0.75199997 -0.056695782 1.6589691e-38 357 283
0.050103247 0.75199997 -0.056695782 1.6404944e-38 358 283
0.051421758 0.75199997 -0.056695782 1.6036161e-38 359 283
0.052880533 0.75400001 -0.056846574 1.5759574e-38 360 283
0.054202545 0.75400001 -0.056846574 1.5390792e-38 361 283
0.055524562 0.75400001 -0.056846574 1.5206047e-38 362 283
0.056846574 0.75400001 -0.056846574 1.4745428e-38 363 283
0.058168583 0.75400001 -0.056846574 1.410114e-38 364 283
0.059490599 0.75400001 -0.056846574 1.3547968e-38 365 283
0.060893264 0.755 -0.056921966 1.3821314e-38 366 283
0.062217031 0.755 -0.056921966 1.3452533e-38 367 283
0.063540794 0.755 -0.056921966 1.2990478e-38 368 283
0.065036394 0.75700003 -0.057072755 1.2345109e-38 369 283
0.066538997 0.759 -0.05722354 1.1977404e-38 370 283
0.067869775 0.759 -0.05722354 1.1608623e-38 371 283
0.069200553 0.759 -0.05722354 1.0873221e-38 372 283
0.070531338 0.759 -0.05722354 1.0320408e-38 373 283
0.071862116 0.759 -0.05722354 9.8590946e-39 374 283
0.07338576 0.76099998 -0.057374325 9.6747033e-39 375 283
0.074720047 0.76099998 -0.057374325 9.030092e-39 376 283
0.026440267 0.75400001 -0.058168583 1.668485e-38 340 284
0.027762281 0.75400001 -0.058168583 1.5762894e-38 341 284
0.029084291 0.75400001 -0.058168583 1.6406051e-38 342 284
0.030406307 0.75400001 -0.058168583 1.6313855e-38 343 284
0.031644158 0.75199997 -0.058014289 1.6314912e-38 344 284
0.032962665 0.75199997 -0.058014289 1.6407107e-38 345 284
0.034281172 0.75199997 -0.058014289 1.6498584e-38 346 284
0.035599679 0.75199997 -0.058014289 1.6775171e-38 347 284
0.036918186 0.75199997 -0.058014289 1.6867364e-38 348 284
0.038236689 0.75199997 -0.058014289 1.6867364e-38 349 284
0.039449997 0.75 -0.057859998 1.6959915e-38 350 284
0.040764999 0.75 -0.057859998 1.6959915e-38 351 284
0.04208 0.75 -0.057859998 1.6959915e-38 352 284
0.043394998 0.75 -0.057859998 1.6959915e-38 353 284
0.044709999 0.75 -0.057859998 1.6775165e-38 354 284
0.046024997 0.75 -0.057859998 1.6682968e-38 355 284
0.047339998 0.75 -0.057859998 1.6681533e-38 356 284
0.048655 0.75 -0.057859998 1.6404588e-38 357 284
0.050103247 0.75199997 -0.058014289 1.6220192e-38 358 284
0.051421758 0.75199997 -0.058014289 1.5759574e-38 359 284
0.052740261 0.75199997 -0.058014289 1.5298596e-38 360 284
0.054058768 0.75199997 -0.058014289 1.5114205e-38 361 284
0.055524562 0.75400001 -0.058168583 1.5020936e-38 362 284
0.056846574 0.75400001 -0.058168583 1.4467762e-38 363 284
0.058168583 0.75400001 -0.058168583 1.3915311e-38 364 284
0.059490599 0.75400001 -0.058168583 1.3638364e-38 365 284
0.060812615 0.75400001 -0.058168583 1.3635848e-38 366 284
0.062217031 0.755 -0.058245733 1.3175228e-38 367 284
0.063540794 0.755 -0.058245733 1.2714253e-38 368 284
0.064864561 0.755 -0.058245733 1.2252916e-38 369 284
0.06636367 0.75700003 -0.058400027 1.1608628e-38 370 284
0.067869775 0.759 -0.058554318 1.1331681e-38 371 284
0.069200553 0.759 -0.058554318 1.0687761e-38 372 284
0.070531338 0.759 -0.058554318 1.0318618e-38 373 284
0.071862116 0.759 -0.058554318 9.5814455e-39 374 284
0.07338576 0.76099998 -0.058708608 9.3052174e-39 375 284
0.074720047 0.76099998 -0.058708608 8.1103063e-39 376 284
0.022355 0.75 -0.059175 1.7241674e-38 337 285
0.023669999 0.75 -0.059175 1.7515355e-38 338 285
0.024984999 0.75 -0.059175 1.6132062e-38 339 285
0.02637013 0.75199997 -0.059332799 1.5946527e-38 340 285
0.027762281 0.75400001 -0.059490599 1.5762136e-38 341 285
0.029084291 0.75400001 -0.059490599 1.6589701e-38 342 285
0.030325651 0.75199997 -0.059332799 1.6589701e-38 343 285
0.03156 0.75 -0.059175 1.6498584e-38 344 285
0.032874998 0.75 -0.059175 1.6498584e-38 345 285
0.034189999 0.75 -0.059175 1.6775171e-38 346 285
0.035505001 0.75 -0.059175 1.6775171e-38 347 285
0.036819998 0.75 -0.059175 1.6959196e-38 348 285
0.038135 0.75 -0.059175 1.6959196e-38 349 285
0.039449997 0.75 -0.059175 1.6959913e-38 350 285
0.040710647 0.74900001 -0.059096102 1.6867717e-38 351 285
0.042023893 0.74900001 -0.059096102 1.6959913e-38 352 285
0.043394998 0.75 -0.059175 1.6867717e-38 353 285
0.044650383 0.74900001 -0.059096102 1.6958116e-38 354 285
0.045963634 0.74900001 -0.059096102 1.6865562e-38 355 285
0.047339998 0.75 -0.059175 1.6496786e-38 356 285
0.048655 0.75 -0.059175 1.6220198e-38 357 285
0.049969997 0.75 -0.059175 1.5942889e-38 358 285
0.051284999 0.75 -0.059175 1.5481911e-38 359 285
0.052740261 0.75199997 -0.059332799 1.5114205e-38 360 285
0.054058768 0.75199997 -0.059332799 1.4929812e-38 361 285
0.055377278 0.75199997 -0.059332799 1.4561034e-38 362 285
0.056846574 0.75400001 -0.059490599 1.400786e-38 363 285
0.058168583 0.75400001 -0.059490599 1.4006061e-38 364 285
0.059490599 0.75400001 -0.059490599 1.3545084e-38 365 285
0.060812615 0.75400001 -0.059490599 1.3359973e-38 366 285
0.062217031 0.755 -0.059569497 1.2898634e-38 367 285
0.063540794 0.755 -0.059569497 1.2253992e-38 368 285
0.064864561 0.755 -0.059569497 1.1885208e-38 369 285
0.06636367 0.75700003 -0.059727304 1.1056536e-38 370 285
0.067690939 0.75700003 -0.059727304 1.0688114e-38 371 285
0.069018215 0.75700003 -0.059727304 1.0227155e-38 372 285
0.070345491 0.75700003 -0.059727304 9.9502084e-39 373 285
0.07167276 0.75700003 -0.059727304 9.122275e-39 374 285
0.07338576 0.76099998 -0.060042895 8.845328e-39 375 285
0.021096105 0.75199997 -0.060651302 1.7056545e-38 336 286
0.022355 0.75 -0.060489997 1.631898e-38 337 286
0.023669999 0.75 -0.060489997 1.613275e-38 338 286
0.024984999 0.75 -0.060489997 1.548738e-38 339 286
0.02637013 0.75199997 -0.060651302 1.6497881e-38 340 286
0.027688639 0.75199997 -0.060651302 1.6313489e-38 341 286
0.029007144 0.75199997 -0.060651302 1.6590054e-38 342 286
0.030244999 0.75 -0.060489997 1.6682249e-38 343 286
0.03156 0.75 -0.060489997 1.640746e-38 344 286
0.032874998 0.75 -0.060489997 1.6499656e-38 345 286
0.034189999 0.75 -0.060489997 1.6682968e-38 346 286
0.035505001 0.75 -0.060489997 1.686772e-38 347 286
0.036770906 0.74900001 -0.060409348 1.6867367e-38 348 286
0.038084153 0.74900001 -0.060409348 1.6959562e-38 349 286
0.0393974 0.74900001 -0.060409348 1.6959559e-38 350 286
0.040710647 0.74900001 -0.060409348 1.6959559e-38 351 286
0.042023893 0.74900001 -0.060409348 1.6958843e-38 352 286
0.04333714 0.74900001 -0.060409348 1.6866648e-38 353 286
0.044650383 0.74900001 -0.060409348 1.6589701e-38 354 286
0.045963634 0.74900001 -0.060409348 1.6313474e-38 355 286
0.047276881 0.74900001 -0.060409348 1.6494984e-38 356 286
0.048590127 0.74900001 -0.060409348 1.6034366e-38 357 286
0.049969997 0.75 -0.060489997 1.5390066e-38 358 286
0.051284999 0.75 -0.060489997 1.5113838e-38 359 286
0.052740261 0.75199997 -0.060651302 1.5021636e-38 360 286
0.054058768 0.75199997 -0.060651302 1.4652854e-38 361 286
0.055377278 0.75199997 -0.060651302 1.4376273e-38 362 286
0.056695782 0.75199997 -0.060651302 1.4099327e-38 363 286
0.058014289 0.75199997 -0.060651302 1.3729466e-38 364 286
0.059490599 0.75400001 -0.060812615 1.3361042e-38 365 286
0.060812615 0.75400001 -0.060812615 1.2991184e-38 366 286
0.062217031 0.755 -0.060893264 1.2622402e-38 367 286
0.063540794 0.755 -0.060893264 1.1701893e-38 368 286
0.064864561 0.755 -0.060893264 1.1517502e-38 369 286
0.066188328 0.755 -0.060893264 1.0963625e-38 370 286
0.067512102 0.755 -0.060893264 1.0594844e-38 371 286
0.068835862 0.755 -0.060893264 1.0041338e-38 372 286
0.070345491 0.75700003 -0.061054576 9.764392e-39 373 286
0.07167276 0.75700003 -0.061054576 9.1204856e-39 374 286
0.018385453 0.74900001 -0.061722592 1.7148387e-38 334 287
0.0196987 0.74900001 -0.061722592 1.6963996e-38 335 287
0.02104 0.75 -0.061804999 1.6963235e-38 336 287
0.022414612 0.75199997 -0.061969809 1.5856887e-38 337 287
0.023733119 0.75199997 -0.061969809 1.6130546e-38 338 287
0.024984999 0.75 -0.061804999 1.6130546e-38 339 287
0.0263 0.75 -0.061804999 1.6682252e-38 340 287
0.027688639 0.75199997 -0.061969809 1.6682252e-38 341 287
0.029007144 0.75199997 -0.061969809 1.649929e-38 342 287
0.030244999 0.75 -0.061804999 1.649929e-38 343 287
0.031517919 0.74900001 -0.061722592 1.6775154e-38 344 287
0.032831166 0.74900001 -0.061722592 1.6775154e-38 345 287
0.034144413 0.74900001 -0.061722592 1.6775165e-38 346 287
0.03545766 0.74900001 -0.061722592 1.686772e-38 347 287
0.036770906 0.74900001 -0.061722592 1.6867011e-38 348 287
0.038084153 0.74900001 -0.061722592 1.6959565e-38 349 287
0.0393974 0.74900001 -0.061722592 1.7142877e-38 350 287
0.040601939 0.74699998 -0.061557774 1.6958846e-38 351 287
0.041911677 0.74699998 -0.061557774 1.6866295e-38 352 287
0.04333714 0.74900001 -0.061722592 1.6681902e-38 353 287
0.044650383 0.74900001 -0.061722592 1.6496433e-38 354 287
0.045963634 0.74900001 -0.061722592 1.6219845e-38 355 287
0.047276881 0.74900001 -0.061722592 1.5942889e-38 356 287
0.048590127 0.74900001 -0.061722592 1.5481911e-38 357 287
0.049969997 0.75 -0.061804999 1.4930887e-38 358 287
0.051284999 0.75 -0.061804999 1.4654299e-38 359 287
0.0526 0.75 -0.061804999 1.4469907e-38 360 287
0.053914998 0.75 -0.061804999 1.4101125e-38 361 287
0.055377278 0.75199997 -0.061969809 1.4098974e-38 362 287
0.056695782 0.75199997 -0.061969809 1.373055e-38 363 287
0.058014289 0.75199997 -0.061969809 1.3452888e-38 364 287
0.059332799 0.75199997 -0.061969809 1.3083746e-38 365 287
0.060812615 0.75400001 -0.062134624 1.2714603e-38 366 287
0.062134624 0.75400001 -0.062134624 1.2345462e-38 367 287
0.063540794 0.755 -0.062217031 1.1792654e-38 368 287
0.064864561 0.755 -0.062217031 1.1332034e-38 369 287
0.066188328 0.755 -0.062217031 1.0595212e-38 370 287
0.067512102 0.755 -0.062217031 1.0318624e-38 371 287
0.068835862 0.755 -0.062217031 9.3984892e-39 372 287
0.070159629 0.755 -0.062217031 9.3059348e-39 373 287
0.017072206 0.74900001 -0.063035838 1.6872882e-38 333 288
0.018385453 0.74900001 -0.063035838 1.6870333e-38 334 288
0.0196987 0.74900001 -0.063035838 1.6317159e-38 335 288
0.021011947 0.74900001 -0.063035838 1.6131288e-38 336 288
0.022414612 0.75199997 -0.063288316 1.58547e-38 337 288
0.023669999 0.75 -0.06312 1.6498606e-38 338 288
0.024984999 0.75 -0.06312 1.6498606e-38 339 288
0.0263 0.75 -0.06312 1.6499306e-38 340 288
0.027615 0.75 -0.06312 1.6499306e-38 341 288
0.028929999 0.75 -0.06312 1.6683324e-38 342 288
0.030244999 0.75 -0.06312 1.6683324e-38 343 288
0.031517919 0.74900001 -0.063035838 1.6592209e-38 344 288
0.032831166 0.74900001 -0.063035838 1.6592209e-38 345 288
0.034144413 0.74900001 -0.063035838 1.6866645e-38 346 288
0.03545766 0.74900001 -0.063035838 1.6958841e-38 347 288
0.036770906 0.74900001 -0.063035838 1.6867013e-38 348 288
0.03798246 0.74699998 -0.062867515 1.6959209e-38 349 288
0.039292198 0.74699998 -0.062867515 1.695849e-38 350 288
0.040601939 0.74699998 -0.062867515 1.6866295e-38 351 288
0.041911677 0.74699998 -0.062867515 1.6865217e-38 352 288
0.043221418 0.74699998 -0.062867515 1.6588631e-38 353 288
0.044531155 0.74699998 -0.062867515 1.6403523e-38 354 288
0.045840897 0.74699998 -0.062867515 1.6034382e-38 355 288
0.047276881 0.74900001 -0.063035838 1.5207122e-38 356 288
0.048590127 0.74900001 -0.063035838 1.483834e-38 357 288
0.049969997 0.75 -0.06312 1.4929441e-38 358 288
0.051284999 0.75 -0.06312 1.4652854e-38 359 288
0.0526 0.75 -0.06312 1.4284437e-38 360 288
0.053914998 0.75 -0.06312 1.3916015e-38 361 288
0.055229999 0.75 -0.06312 1.3821314e-38 362 288
0.056544997 0.75 -0.06312 1.3452533e-38 363 288
0.058014289 0.75199997 -0.063288316 1.3267068e-38 364 288
0.059332799 0.75199997 -0.063288316 1.2990481e-38 365 288
0.060651302 0.75199997 -0.063288316 1.2437307e-38 366 288
0.062134624 0.75400001 -0.06345664 1.2068883e-38 367 288
0.06345664 0.75400001 -0.06345664 1.1240569e-38 368 288
0.064778648 0.75400001 -0.06345664 1.0963622e-38 369 288
0.066100664 0.75400001 -0.06345664 1.0318271e-38 370 288
0.067422673 0.75400001 -0.06345664 9.8572939e-39 371 288
0.068744689 0.75400001 -0.06345664 9.1211918e-39 372 288
0.01575896 0.74900001 -0.064349085 1.6594838e-38 332 289
0.017072206 0.74900001 -0.064349085 1.6226415e-38 333 289
0.018385453 0.74900001 -0.064349085 1.64086e-38 334 289
0.0196987 0.74900001 -0.064349085 1.6039458e-38 335 289
0.021011947 0.74900001 -0.064349085 1.5946152e-38 336 289
0.022414612 0.75199997 -0.064606823 1.6130543e-38 337 289
0.023669999 0.75 -0.064434998 1.6682265e-38 338 289
0.024984999 0.75 -0.064434998 1.6774462e-38 339 289
0.0263 0.75 -0.064434998 1.6775171e-38 340 289
0.027615 0.75 -0.064434998 1.6775171e-38 341 289
0.028891427 0.74900001 -0.064349085 1.6682968e-38 342 289
0.030204674 0.74900001 -0.064349085 1.6775165e-38 343 289
0.031517919 0.74900001 -0.064349085 1.6775168e-38 344 289
0.032831166 0.74900001 -0.064349085 1.6775168e-38 345 289
0.034144413 0.74900001 -0.064349085 1.6774818e-38 346 289
0.035362978 0.74699998 -0.06417726 1.6774818e-38 347 289
0.036672719 0.74699998 -0.06417726 1.6774462e-38 348 289
0.03798246 0.74699998 -0.06417726 1.6774462e-38 349 289
0.039292198 0.74699998 -0.06417726 1.6682621e-38 350 289
0.040601939 0.74699998 -0.06417726 1.649859e-38 351 289
0.041911677 0.74699998 -0.06417726 1.6588987e-38 352 289
0.043221418 0.74699998 -0.06417726 1.631204e-38 353 289
0.044531155 0.74699998 -0.06417726 1.612693e-38 354 289
0.045840897 0.74699998 -0.06417726 1.5573756e-38 355 289
0.047276881 0.74900001 -0.064349085 1.529752e-38 356 289
0.048590127 0.74900001 -0.064349085 1.4928737e-38 357 289
0.04990337 0.74900001 -0.064349085 1.4469189e-38 358 289
0.051216617 0.74900001 -0.064349085 1.4284437e-38 359 289
0.0526 0.75 -0.064434998 1.3823466e-38 360 289
0.053914998 0.75 -0.064434998 1.3639073e-38 361 289
0.055229999 0.75 -0.064434998 1.3453251e-38 362 289
0.056544997 0.75 -0.064434998 1.3084828e-38 363 289
0.057859998 0.75 -0.064434998 1.2807166e-38 364 289
0.059332799 0.75199997 -0.064606823 1.2530578e-38 365 289
