# .PCD v.7 - Point Cloud Data file format
FIELDS x y z rgb imX imY
SIZE 4 4 4 4 4 4
TYPE F F F F F F
COUNT 1 1 1 1 1 1
WIDTH 849
HEIGHT 1
VIEWPOINT 0 0 0 1 0 0 0
POINTS 849
DATA ascii
-0.10585223 0.77399999 -0.037998237 1.5853956e-38 242 268
-0.10449515 0.77399999 -0.037998237 1.6038347e-38 243 268
-0.10300483 0.773 -0.037949149 1.6314208e-38 244 268
-0.10164949 0.773 -0.037949149 1.6314208e-38 245 268
-0.10029417 0.773 -0.037949149 1.6405332e-38 246 268
-0.098938845 0.773 -0.037949149 1.6681919e-38 247 268
-0.09758351 0.773 -0.037949149 1.6220572e-38 248 268
-0.09622819 0.773 -0.037949149 1.4468854e-38 249 268
-0.094627403 0.77100003 -0.037850961 1.345002e-38 250 268
-0.093275577 0.77100003 -0.037850961 1.1882336e-38 251 268
-0.092162207 0.773 -0.037949149 1.1329886e-38 252 268
-0.090806887 0.773 -0.037949149 1.1053301e-38 253 268
-0.089220122 0.77100003 -0.037850961 1.3546902e-38 254 268
-0.087640367 0.76899999 -0.03775277 1.4929836e-38 255 268
-0.086292051 0.76899999 -0.03775277 1.6129095e-38 256 268
-0.085164659 0.77100003 -0.037850961 1.5852867e-38 257 268
-0.08381284 0.77100003 -0.037850961 1.6035082e-38 258 268
-0.082247108 0.76899999 -0.03775277 1.5758854e-38 259 268
-0.080898799 0.76899999 -0.03775277 1.5574828e-38 260 268
-0.079550482 0.76899999 -0.03775277 1.5298243e-38 261 268
-0.078202173 0.76899999 -0.03775277 1.4378845e-38 262 268
-0.11113679 0.773 -0.039304473 1.2358839e-38 238 269
-0.10978145 0.773 -0.039304473 1.1805665e-38 239 269
-0.10842613 0.773 -0.039304473 1.4656842e-38 240 269
-0.1070708 0.773 -0.039304473 1.5210016e-38 241 269
-0.10571548 0.773 -0.039304473 1.5853586e-38 242 269
-0.10436015 0.773 -0.039304473 1.6037979e-38 243 269
-0.10300483 0.773 -0.039304473 1.6313489e-38 244 269
-0.10164949 0.773 -0.039304473 1.6313489e-38 245 269
-0.10029417 0.773 -0.039304473 1.6130177e-38 246 269
-0.098938845 0.773 -0.039304473 1.6130177e-38 247 269
-0.09758351 0.773 -0.039304473 1.6313121e-38 248 269
-0.09622819 0.773 -0.039304473 1.5206413e-38 249 269
-0.094627403 0.77100003 -0.03920278 1.4280497e-38 250 269
-0.093275577 0.77100003 -0.03920278 1.3081955e-38 251 269
-0.091923758 0.77100003 -0.03920278 1.2712102e-38 252 269
-0.09057194 0.77100003 -0.03920278 1.2342959e-38 253 269
-0.088988677 0.76899999 -0.039101087 1.3084847e-38 254 269
-0.087640367 0.76899999 -0.039101087 1.4467782e-38 255 269
-0.086292051 0.76899999 -0.039101087 1.5852511e-38 256 269
-0.084943734 0.76899999 -0.039101087 1.6036901e-38 257 269
-0.083595425 0.76899999 -0.039101087 1.5852492e-38 258 269
-0.082247108 0.76899999 -0.039101087 1.5852492e-38 259 269
-0.080688395 0.76700002 -0.038999394 1.5759571e-38 260 269
-0.079343595 0.76700002 -0.038999394 1.5667374e-38 261 269
-0.077897087 0.76599997 -0.038948543 1.5022751e-38 262 269
-0.076554038 0.76599997 -0.038948543 1.5022751e-38 263 269
-0.075014614 0.764 -0.038846854 1.3922218e-38 264 269
-0.11113679 0.773 -0.0406598 1.2450315e-38 238 270
-0.10978145 0.773 -0.0406598 1.1804946e-38 239 270
-0.10842613 0.773 -0.0406598 1.4657564e-38 240 270
-0.1070708 0.773 -0.0406598 1.5025988e-38 241 270
-0.10571548 0.773 -0.0406598 1.5485524e-38 242 270
-0.10436015 0.773 -0.0406598 1.5854306e-38 243 270
-0.10300483 0.773 -0.0406598 1.6037979e-38 244 270
-0.10164949 0.773 -0.0406598 1.6037979e-38 245 270
-0.10003468 0.77100003 -0.040554602 1.5946499e-38 246 270
-0.098682858 0.77100003 -0.040554602 1.5946499e-38 247 270
-0.09758351 0.773 -0.0406598 1.6129448e-38 248 270
-0.09622819 0.773 -0.0406598 1.5576275e-38 249 270
-0.094627403 0.77100003 -0.040554602 1.4926586e-38 250 270
-0.093275577 0.77100003 -0.040554602 1.3543652e-38 251 270
-0.091685303 0.76899999 -0.0404494 1.308088e-38 252 270
-0.090336986 0.76899999 -0.0404494 1.2804295e-38 253 270
-0.088988677 0.76899999 -0.0404494 1.3174169e-38 254 270
-0.087412432 0.76700002 -0.040344197 1.4464908e-38 255 270
-0.086067624 0.76700002 -0.040344197 1.5943265e-38 256 270
-0.084722824 0.76700002 -0.040344197 1.6311687e-38 257 270
-0.083378009 0.76700002 -0.040344197 1.6036883e-38 258 270
-0.08203321 0.76700002 -0.040344197 1.5944687e-38 259 270
-0.080688395 0.76700002 -0.040344197 1.5944319e-38 260 270
-0.079240143 0.76599997 -0.040291596 1.5759927e-38 261 270
-0.077897087 0.76599997 -0.040291596 1.5483356e-38 262 270
-0.076354161 0.764 -0.040186398 1.5298965e-38 263 270
-0.075014614 0.764 -0.040186398 1.4195902e-38 264 270
-0.073675066 0.764 -0.040186398 1.4656521e-38 265 270
-0.10978145 0.773 -0.042015124 1.1710955e-38 239 271
-0.10842613 0.773 -0.042015124 1.4381347e-38 240 271
-0.1070708 0.773 -0.042015124 1.4750129e-38 241 271
-0.10571548 0.773 -0.042015124 1.5118189e-38 242 271
-0.10436015 0.773 -0.042015124 1.5394777e-38 243 271
-0.10273832 0.77100003 -0.04190642 1.585395e-38 244 271
-0.1011235 0.76899999 -0.041797712 1.585395e-38 245 271
-0.09977518 0.76899999 -0.041797712 1.5946502e-38 246 271
-0.098426871 0.76899999 -0.041797712 1.5854306e-38 247 271
-0.09758351 0.773 -0.042015124 1.6129098e-38 248 271
-0.09622819 0.773 -0.042015124 1.6036901e-38 249 271
-0.094627403 0.77100003 -0.04190642 1.5480839e-38 250 271
-0.093275577 0.77100003 -0.04190642 1.4097905e-38 251 271
-0.091446854 0.76700002 -0.041689005 1.335819e-38 252 271
-0.090102047 0.76700002 -0.041689005 1.2897212e-38 253 271
-0.088757239 0.76700002 -0.041689005 1.3081976e-38 254 271
-0.087412432 0.76700002 -0.041689005 1.4280519e-38 255 271
-0.086067624 0.76700002 -0.041689005 1.5758871e-38 256 271
-0.084722824 0.76700002 -0.041689005 1.6312043e-38 257 271
-0.083378009 0.76700002 -0.041689005 1.6129799e-38 258 271
-0.081926249 0.76599997 -0.041634649 1.6037602e-38 259 271
-0.080583192 0.76599997 -0.041634649 1.6312731e-38 260 271
-0.079240143 0.76599997 -0.041634649 1.6127981e-38 261 271
-0.077897087 0.76599997 -0.041634649 1.575992e-38 262 271
-0.076354161 0.764 -0.041525945 1.5667725e-38 263 271
-0.075014614 0.764 -0.041525945 1.5023119e-38 264 271
-0.073675066 0.764 -0.041525945 1.4839088e-38 265 271
-0.072335519 0.764 -0.041525945 1.4199178e-38 266 271
0.063782752 0.77399999 -0.042069476 1.5303736e-38 367 271
0.065139838 0.77399999 -0.042069476 1.4473605e-38 368 271
0.066496916 0.77399999 -0.042069476 1.3182867e-38 369 271
0.068029337 0.77600002 -0.042178184 1.1344006e-38 370 271
0.069389917 0.77600002 -0.042178184 1.2542549e-38 371 271
-0.10842613 0.773 -0.043370452 1.3829615e-38 240 272
-0.1070708 0.773 -0.043370452 1.4198756e-38 241 272
-0.10571548 0.773 -0.043370452 1.530006e-38 242 272
-0.10436015 0.773 -0.043370452 1.5668842e-38 243 272
-0.10273832 0.77100003 -0.043258239 1.5852511e-38 244 272
-0.1008605 0.76700002 -0.043033812 1.6129098e-38 245 272
-0.099515699 0.76700002 -0.043033812 1.585395e-38 246 272
-0.098170884 0.76700002 -0.043033812 1.585395e-38 247 272
-0.096826084 0.76700002 -0.043033812 1.5853586e-38 248 272
-0.095481269 0.76700002 -0.043033812 1.5853586e-38 249 272
-0.094136469 0.76700002 -0.043033812 1.6034732e-38 250 272
-0.092670672 0.76599997 -0.042977702 1.5020939e-38 251 272
-0.091327623 0.76599997 -0.042977702 1.4004989e-38 252 272
-0.090102047 0.76700002 -0.043033812 1.3635848e-38 253 272
-0.088757239 0.76700002 -0.043033812 1.317739e-38 254 272
-0.087412432 0.76700002 -0.043033812 1.400751e-38 255 272
-0.086067624 0.76700002 -0.043033812 1.5390795e-38 256 272
-0.084722824 0.76700002 -0.043033812 1.6036164e-38 257 272
-0.083269298 0.76599997 -0.042977702 1.6222347e-38 258 272
-0.081926249 0.76599997 -0.042977702 1.6222347e-38 259 272
-0.080583192 0.76599997 -0.042977702 1.6405297e-38 260 272
-0.079033248 0.764 -0.042865492 1.6220545e-38 261 272
-0.077693708 0.764 -0.042865492 1.5944319e-38 262 272
-0.076354161 0.764 -0.042865492 1.5852123e-38 263 272
-0.075014614 0.764 -0.042865492 1.4932703e-38 264 272
-0.073675066 0.764 -0.042865492 1.4932703e-38 265 272
-0.072335519 0.764 -0.042865492 1.4105151e-38 266 272
0.06234502 0.773 -0.043370452 1.4101182e-38 366 272
0.063700356 0.773 -0.043370452 1.3363617e-38 367 272
0.065055676 0.773 -0.043370452 1.1894233e-38 368 272
0.066496916 0.77399999 -0.043426558 1.0603494e-38 369 272
0.067854002 0.77399999 -0.043426558 9.8576877e-39 370 272
0.069211073 0.77399999 -0.043426558 1.0779285e-38 371 272
0.070568159 0.77399999 -0.043426558 1.0891685e-38 372 272
-0.10842613 0.773 -0.044725779 1.3645233e-38 240 273
-0.1070708 0.773 -0.044725779 1.4105851e-38 241 273
-0.10571548 0.773 -0.044725779 1.4749057e-38 242 273
-0.10436015 0.773 -0.044725779 1.511748e-38 243 273
-0.10273832 0.77100003 -0.044610061 1.5302227e-38 244 273
-0.1008605 0.76700002 -0.04437862 1.5394424e-38 245 273
-0.099515699 0.76700002 -0.04437862 1.5670274e-38 246 273
-0.09804289 0.76599997 -0.044320758 1.5854306e-38 247 273
-0.096699834 0.76599997 -0.044320758 1.6037599e-38 248 273
-0.095356777 0.76599997 -0.044320758 1.5853568e-38 249 273
-0.094013728 0.76599997 -0.044320758 1.6403139e-38 250 273
-0.092670672 0.76599997 -0.044320758 1.5942519e-38 251 273
-0.091327623 0.76599997 -0.044320758 1.5571591e-38 252 273
-0.089984566 0.76599997 -0.044320758 1.4926222e-38 253 273
-0.088641517 0.76599997 -0.044320758 1.4098999e-38 254 273
-0.08729846 0.76599997 -0.044320758 1.4467782e-38 255 273
-0.085955404 0.76599997 -0.044320758 1.4930184e-38 256 273
-0.084612355 0.76599997 -0.044320758 1.5852138e-38 257 273
-0.083269298 0.76599997 -0.044320758 1.6865183e-38 258 273
-0.081926249 0.76599997 -0.044320758 1.6772988e-38 259 273
-0.080583192 0.76599997 -0.044320758 1.6681155e-38 260 273
-0.079033248 0.764 -0.04420504 1.6404927e-38 261 273
-0.077693708 0.764 -0.04420504 1.6403842e-38 262 273
-0.076354161 0.764 -0.04420504 1.6127615e-38 263 273
-0.074818239 0.76200002 -0.044089317 1.5943586e-38 264 273
-0.073482201 0.76200002 -0.044089317 1.6036142e-38 265 273
-0.072146162 0.76200002 -0.044089317 1.5023467e-38 266 273
-0.070810117 0.76200002 -0.044089317 1.474724e-38 267 273
0.053722132 0.76599997 -0.044320758 1.613019e-38 360 273
0.055065181 0.76599997 -0.044320758 1.5577016e-38 361 273
0.056408234 0.76599997 -0.044320758 1.5299668e-38 362 273
0.057826683 0.76700002 -0.04437862 1.4654299e-38 363 273
0.059171494 0.76700002 -0.04437862 1.4285141e-38 364 273
0.060674097 0.76899999 -0.044494338 1.4008914e-38 365 273
0.062183715 0.77100003 -0.044610061 1.3366075e-38 366 273
0.063535534 0.77100003 -0.044610061 1.2444478e-38 367 273
0.065055676 0.773 -0.044725779 1.143357e-38 368 273
0.066496916 0.77399999 -0.044783637 1.0603808e-38 369 273
0.067854002 0.77399999 -0.044783637 8.2110695e-39 370 273
0.069211073 0.77399999 -0.044783637 7.2894733e-39 371 273
0.070568159 0.77399999 -0.044783637 7.758806e-39 372 273
0.071925238 0.77399999 -0.044783637 1.0893457e-38 373 273
-0.1070708 0.773 -0.046081103 1.3736346e-38 241 274
-0.10544196 0.77100003 -0.045961879 1.4930555e-38 242 274
-0.10409014 0.77100003 -0.045961879 1.5483729e-38 243 274
-0.10247181 0.76899999 -0.045842651 1.5392609e-38 244 274
-0.1008605 0.76700002 -0.045723427 1.5668836e-38 245 274
-0.09938594 0.76599997 -0.045663811 1.5853939e-38 246 274
-0.09804289 0.76599997 -0.045663811 1.5761385e-38 247 274
-0.096699834 0.76599997 -0.045663811 1.6129802e-38 248 274
-0.095356777 0.76599997 -0.045663811 1.6129802e-38 249 274
-0.094013728 0.76599997 -0.045663811 1.6404588e-38 250 274
-0.092428714 0.764 -0.045544583 1.6312391e-38 251 274
-0.091089167 0.764 -0.045544583 1.6585385e-38 252 274
-0.089984566 0.76599997 -0.045663811 1.6585385e-38 253 274
-0.088641517 0.76599997 -0.045663811 1.6034379e-38 254 274
-0.08729846 0.76599997 -0.045663811 1.6034379e-38 255 274
-0.085955404 0.76599997 -0.045663811 1.5852136e-38 256 274
-0.084612355 0.76599997 -0.045663811 1.6036886e-38 257 274
-0.083269298 0.76599997 -0.045663811 1.6498208e-38 258 274
-0.081926249 0.76599997 -0.045663811 1.6590404e-38 259 274
-0.080372795 0.764 -0.045544583 1.6498211e-38 260 274
-0.079033248 0.764 -0.045544583 1.631418e-38 261 274
-0.077693708 0.764 -0.045544583 1.6220901e-38 262 274
-0.076354161 0.764 -0.045544583 1.6220901e-38 263 274
-0.074818239 0.76200002 -0.045425359 1.5945025e-38 264 274
-0.073482201 0.76200002 -0.045425359 1.5760274e-38 265 274
-0.072051473 0.76099998 -0.045365743 1.5025602e-38 266 274
-0.070717193 0.76099998 -0.045365743 1.5209635e-38 267 274
-0.069382899 0.76099998 -0.045365743 1.5024215e-38 268 274
-0.068048611 0.76099998 -0.045365743 1.511641e-38 269 274
0.038694311 0.76099998 -0.045365743 1.6409021e-38 349 274
0.040028598 0.76099998 -0.045365743 1.5764709e-38 350 274
0.041362885 0.76099998 -0.045365743 1.548848e-38 351 274
0.042753279 0.76200002 -0.045425359 1.6038389e-38 352 274
0.04420504 0.764 -0.045544583 1.5761442e-38 353 274
0.045544583 0.764 -0.045544583 1.5852534e-38 354 274
0.046884131 0.764 -0.045544583 1.5667782e-38 355 274
0.048349917 0.76599997 -0.045663811 1.5575574e-38 356 274
0.04969297 0.76599997 -0.045663811 1.5206791e-38 357 274
0.051036026 0.76599997 -0.045663811 1.5206063e-38 358 274
0.052379075 0.76599997 -0.045663811 1.483764e-38 359 274
0.053722132 0.76599997 -0.045663811 1.5022008e-38 360 274
0.055065181 0.76599997 -0.045663811 1.5022008e-38 361 274
0.056408234 0.76599997 -0.045663811 1.4746482e-38 362 274
0.057826683 0.76700002 -0.045723427 1.4561732e-38 363 274
0.059171494 0.76700002 -0.045723427 1.4469891e-38 364 274
0.060674097 0.76899999 -0.045842651 1.4377336e-38 365 274
0.062183715 0.77100003 -0.045961879 1.3457911e-38 366 274
0.063535534 0.77100003 -0.045961879 1.3273159e-38 367 274
0.064887367 0.77100003 -0.045961879 1.1984941e-38 368 274
0.066411003 0.773 -0.046081103 1.1616519e-38 369 274
0.067854002 0.77399999 -0.046140719 1.0420875e-38 370 274
0.069211073 0.77399999 -0.046140719 1.0236844e-38 371 274
0.070568159 0.77399999 -0.046140719 4.7159747e-39 372 274
0.071832314 0.773 -0.046081103 7.2056168e-39 373 274
0.073187642 0.773 -0.046081103 1.4663809e-38 374 274
-0.10679378 0.77100003 -0.047313701 1.3734195e-38 241 275
-0.10544196 0.77100003 -0.047313701 1.4104754e-38 242 275
-0.10382012 0.76899999 -0.047190964 1.4473896e-38 243 275
-0.10220531 0.76700002 -0.047068235 1.4749405e-38 244 275
-0.10072899 0.76599997 -0.047006864 1.4841959e-38 245 275
-0.09938594 0.76599997 -0.047006864 1.5393328e-38 246 275
-0.09804289 0.76599997 -0.047006864 1.5485524e-38 247 275
-0.096447356 0.764 -0.046884131 1.6037249e-38 248 275
-0.095107809 0.764 -0.046884131 1.6129446e-38 249 275
-0.093768261 0.764 -0.046884131 1.6221278e-38 250 275
-0.092428714 0.764 -0.046884131 1.6589701e-38 251 275
-0.091089167 0.764 -0.046884131 1.6772297e-38 252 275
-0.089749627 0.764 -0.046884131 1.6772297e-38 253 275
-0.088641517 0.76599997 -0.047006864 1.6036532e-38 254 275
-0.08729846 0.76599997 -0.047006864 1.6036532e-38 255 275
-0.085955404 0.76599997 -0.047006864 1.6036883e-38 256 275
-0.084612355 0.76599997 -0.047006864 1.6313471e-38 257 275
-0.08305189 0.764 -0.046884131 1.6590404e-38 258 275
-0.081712343 0.764 -0.046884131 1.66826e-38 259 275
-0.080372795 0.764 -0.046884131 1.6957745e-38 260 275
-0.079033248 0.764 -0.046884131 1.6865549e-38 261 275
-0.077693708 0.764 -0.046884131 1.6681508e-38 262 275
-0.076154284 0.76200002 -0.046761397 1.6589311e-38 263 275
-0.074818239 0.76200002 -0.046761397 1.6313429e-38 264 275
-0.07338576 0.76099998 -0.046700031 1.6129038e-38 265 275
-0.072051473 0.76099998 -0.046700031 1.5945019e-38 266 275
-0.070717193 0.76099998 -0.046700031 1.5852824e-38 267 275
-0.069382899 0.76099998 -0.046700031 1.5209284e-38 268 275
-0.068048611 0.76099998 -0.046700031 1.5025252e-38 269 275
-0.066714332 0.76099998 -0.046700031 1.4473212e-38 270 275
0.037360024 0.76099998 -0.046700031 1.6589055e-38 348 275
0.038694311 0.76099998 -0.046700031 1.603624e-38 349 275
0.040028598 0.76099998 -0.046700031 1.5484473e-38 350 275
0.041362885 0.76099998 -0.046700031 1.5392277e-38 351 275
0.042697169 0.76099998 -0.046700031 1.5576275e-38 352 275
0.044089317 0.76200002 -0.046761397 1.5484079e-38 353 275
0.045425359 0.76200002 -0.046761397 1.5667359e-38 354 275
0.046884131 0.764 -0.046884131 1.5482968e-38 355 275
0.048223678 0.764 -0.046884131 1.529965e-38 356 275
0.049563225 0.764 -0.046884131 1.5115257e-38 357 275
0.050902773 0.764 -0.046884131 1.5114904e-38 358 275
0.052242316 0.764 -0.046884131 1.4930513e-38 359 275
0.053581864 0.764 -0.046884131 1.5022708e-38 360 275
0.055065181 0.76599997 -0.047006864 1.4930513e-38 361 275
0.056408234 0.76599997 -0.047006864 1.4837596e-38 362 275
0.057826683 0.76700002 -0.047068235 1.4653203e-38 363 275
0.059171494 0.76700002 -0.047068235 1.4469169e-38 364 275
0.060674097 0.76899999 -0.047190964 1.4192582e-38 365 275
0.062183715 0.77100003 -0.047313701 1.3641206e-38 366 275
0.063535534 0.77100003 -0.047313701 1.3272065e-38 367 275
0.064887367 0.77100003 -0.047313701 1.2536301e-38 368 275
0.066239186 0.77100003 -0.047313701 1.1983127e-38 369 275
0.067766331 0.773 -0.047436431 1.0788919e-38 370 275
0.069121659 0.773 -0.047436431 1.0696724e-38 371 275
0.070476986 0.773 -0.047436431 6.6448648e-39 372 275
0.071646459 0.77100003 -0.047313701 6.5526692e-39 373 275
0.072998285 0.77100003 -0.047313701 1.263873e-38 374 275
-0.10651675 0.76899999 -0.048539277 1.2997003e-38 241 276
-0.10516843 0.76899999 -0.048539277 1.3828529e-38 242 276
-0.10382012 0.76899999 -0.048539277 1.4196953e-38 243 276
-0.10220531 0.76700002 -0.048413042 1.4839791e-38 244 276
-0.10072899 0.76599997 -0.048349917 1.5116018e-38 245 276
-0.09938594 0.76599997 -0.048349917 1.5300411e-38 246 276
-0.097786903 0.764 -0.048223678 1.5392606e-38 247 276
-0.096447356 0.764 -0.048223678 1.5852864e-38 248 276
-0.095107809 0.764 -0.048223678 1.6036895e-38 249 276
-0.093768261 0.764 -0.048223678 1.6038329e-38 250 276
-0.092428714 0.764 -0.048223678 1.6130525e-38 251 276
-0.091089167 0.764 -0.048223678 1.631419e-38 252 276
-0.089749627 0.764 -0.048223678 1.6221994e-38 253 276
-0.088410079 0.764 -0.048223678 1.631419e-38 254 276
-0.087070532 0.764 -0.048223678 1.6406744e-38 255 276
-0.085955404 0.76599997 -0.048349917 1.631419e-38 256 276
-0.084612355 0.76599997 -0.048349917 1.6406744e-38 257 276
-0.08305189 0.764 -0.048223678 1.6682249e-38 258 276
-0.081712343 0.764 -0.048223678 1.6867001e-38 259 276
-0.080372795 0.764 -0.048223678 1.6958113e-38 260 276
-0.079033248 0.764 -0.048223678 1.6958113e-38 261 276
-0.077693708 0.764 -0.048223678 1.6682234e-38 262 276
-0.076154284 0.76200002 -0.048097439 1.6682234e-38 263 276
-0.074818239 0.76200002 -0.048097439 1.6498549e-38 264 276
-0.07338576 0.76099998 -0.048034318 1.6313798e-38 265 276
-0.072051473 0.76099998 -0.048034318 1.6037934e-38 266 276
-0.070717193 0.76099998 -0.048034318 1.5945738e-38 267 276
-0.069382899 0.76099998 -0.048034318 1.566988e-38 268 276
-0.068048611 0.76099998 -0.048034318 1.5577684e-38 269 276
-0.066538997 0.759 -0.047908079 1.520857e-38 270 276
-0.065208219 0.759 -0.047908079 1.502382e-38 271 276
0.030688593 0.76099998 -0.048034318 1.6319333e-38 343 276
0.032022879 0.76099998 -0.048034318 1.6683052e-38 344 276
0.035931058 0.759 -0.047908079 1.5482306e-38 347 276
0.03726184 0.759 -0.047908079 1.5663433e-38 348 276
0.038592618 0.759 -0.047908079 1.5663433e-38 349 276
0.040028598 0.76099998 -0.048034318 1.5666305e-38 350 276
0.041362885 0.76099998 -0.048034318 1.5942533e-38 351 276
0.042697169 0.76099998 -0.048034318 1.5852489e-38 352 276
0.044031456 0.76099998 -0.048034318 1.5852489e-38 353 276
0.045425359 0.76200002 -0.048097439 1.5852476e-38 354 276
0.046884131 0.764 -0.048223678 1.575992e-38 355 276
0.048223678 0.764 -0.048223678 1.5668081e-38 356 276
0.049563225 0.764 -0.048223678 1.5575526e-38 357 276
0.050902773 0.764 -0.048223678 1.5300018e-38 358 276
0.052242316 0.764 -0.048223678 1.4931595e-38 359 276
0.053581864 0.764 -0.048223678 1.5022708e-38 360 276
0.055065181 0.76599997 -0.048349917 1.4746482e-38 361 276
0.056408234 0.76599997 -0.048349917 1.4745397e-38 362 276
0.057826683 0.76700002 -0.048413042 1.4469169e-38 363 276
0.059171494 0.76700002 -0.048413042 1.4009267e-38 364 276
0.060516298 0.76700002 -0.048413042 1.3824516e-38 365 276
0.062022414 0.76899999 -0.048539277 1.3456456e-38 366 276
0.063535534 0.77100003 -0.04866552 1.3179869e-38 367 276
0.064887367 0.77100003 -0.04866552 1.226044e-38 368 276
0.066239186 0.77100003 -0.04866552 1.1983494e-38 369 276
0.067591004 0.77100003 -0.04866552 1.0880762e-38 370 276
0.069121659 0.773 -0.048791755 1.0327947e-38 371 276
0.070476986 0.773 -0.048791755 7.3788173e-39 372 276
0.071646459 0.77100003 -0.04866552 6.0880785e-39 373 276
0.072998285 0.77100003 -0.04866552 1.1532717e-38 374 276
-0.10651675 0.76899999 -0.04988759 1.1800986e-38 241 277
-0.10516843 0.76899999 -0.04988759 1.3368274e-38 242 277
-0.10382012 0.76899999 -0.04988759 1.3828893e-38 243 277
-0.10220531 0.76700002 -0.049757849 1.4563565e-38 244 277
-0.10072899 0.76599997 -0.04969297 1.465576e-38 245 277
-0.09938594 0.76599997 -0.04969297 1.4840507e-38 246 277
-0.097786903 0.764 -0.049563225 1.5024899e-38 247 277
-0.096447356 0.764 -0.049563225 1.5484805e-38 248 277
-0.095107809 0.764 -0.049563225 1.576139e-38 249 277
-0.093768261 0.764 -0.049563225 1.594578e-38 250 277
-0.092186764 0.76200002 -0.049433477 1.594578e-38 251 277
-0.090850718 0.76200002 -0.049433477 1.6313474e-38 252 277
-0.08951468 0.76200002 -0.049433477 1.6497505e-38 253 277
-0.088410079 0.764 -0.049563225 1.6589701e-38 254 277
-0.087070532 0.764 -0.049563225 1.6682255e-38 255 277
-0.085730985 0.764 -0.049563225 1.6682618e-38 256 277
-0.084391437 0.764 -0.049563225 1.6682618e-38 257 277
-0.082834482 0.76200002 -0.049433477 1.6775171e-38 258 277
-0.081498444 0.76200002 -0.049433477 1.6867367e-38 259 277
-0.080162399 0.76200002 -0.049433477 1.6867001e-38 260 277
-0.07882636 0.76200002 -0.049433477 1.6867001e-38 261 277
-0.077490322 0.76200002 -0.049433477 1.6775151e-38 262 277
-0.076054335 0.76099998 -0.049368605 1.6682956e-38 263 277
-0.074720047 0.76099998 -0.049368605 1.659111e-38 264 277
-0.07338576 0.76099998 -0.049368605 1.6498915e-38 265 277
-0.072051473 0.76099998 -0.049368605 1.6223048e-38 266 277
-0.070717193 0.76099998 -0.049368605 1.6038655e-38 267 277
-0.069382899 0.76099998 -0.049368605 1.5762426e-38 268 277
-0.068048611 0.76099998 -0.049368605 1.5762426e-38 269 277
-0.066538997 0.759 -0.049238857 1.5485484e-38 270 277
-0.065208219 0.759 -0.049238857 1.5208899e-38 271 277
-0.063877434 0.759 -0.049238857 1.5208934e-38 272 277
0.02389092 0.75700003 -0.049109112 1.6871797e-38 338 277
0.025151566 0.755 -0.048979364 1.6410819e-38 339 277
0.026475333 0.755 -0.048979364 1.6869617e-38 340 277
0.027872739 0.75700003 -0.049109112 1.659267e-38 341 277
0.029277159 0.759 -0.049238857 1.659121e-38 342 277
0.030607941 0.759 -0.049238857 1.6130232e-38 343 277
0.031938717 0.759 -0.049238857 1.6222035e-38 344 277
0.033269498 0.759 -0.049238857 1.5853252e-38 345 277
0.034600276 0.759 -0.049238857 1.6035082e-38 346 277
0.035931058 0.759 -0.049238857 1.5758854e-38 347 277
0.03726184 0.759 -0.049238857 1.5758473e-38 348 277
0.038592618 0.759 -0.049238857 1.5758473e-38 349 277
0.0399234 0.759 -0.049238857 1.5758123e-38 350 277
0.041254178 0.759 -0.049238857 1.5758123e-38 351 277
0.042697169 0.76099998 -0.049368605 1.5667372e-38 352 277
0.044031456 0.76099998 -0.049368605 1.5667372e-38 353 277
0.045365743 0.76099998 -0.049368605 1.5577684e-38 354 277
0.046761397 0.76200002 -0.049433477 1.5485129e-38 355 277
0.048097439 0.76200002 -0.049433477 1.5668081e-38 356 277
0.049433477 0.76200002 -0.049433477 1.5391495e-38 357 277
0.050902773 0.764 -0.049563225 1.52993e-38 358 277
0.052242316 0.764 -0.049563225 1.5022711e-38 359 277
0.053581864 0.764 -0.049563225 1.493051e-38 360 277
0.055065181 0.76599997 -0.04969297 1.4562088e-38 361 277
0.056408234 0.76599997 -0.04969297 1.4469172e-38 362 277
0.057751291 0.76599997 -0.04969297 1.4284422e-38 363 277
0.059094343 0.76599997 -0.04969297 1.3824518e-38 364 277
0.060516298 0.76700002 -0.049757849 1.3732323e-38 365 277
0.062022414 0.76899999 -0.04988759 1.30884e-38 366 277
0.063370727 0.76899999 -0.04988759 1.2904008e-38 367 277
0.064719036 0.76899999 -0.04988759 1.2260086e-38 368 277
0.066067353 0.76899999 -0.04988759 1.1983141e-38 369 277
0.067591004 0.77100003 -0.050017338 1.0878967e-38 370 277
0.068942823 0.77100003 -0.050017338 1.0417988e-38 371 277
0.070294641 0.77100003 -0.050017338 7.0103809e-39 372 277
0.071460605 0.76899999 -0.04988759 5.8118377e-39 373 277
0.072808921 0.76899999 -0.04988759 1.2910961e-38 374 277
-0.10651675 0.76899999 -0.051235907 1.1063787e-38 241 278
-0.10516843 0.76899999 -0.051235907 1.2815463e-38 242 278
-0.10355011 0.76700002 -0.051102653 1.3368637e-38 243 278
-0.10207205 0.76599997 -0.051036026 1.4195504e-38 244 278
-0.10072899 0.76599997 -0.051036026 1.4287701e-38 245 278
-0.099126451 0.764 -0.050902773 1.4472095e-38 246 278
-0.097786903 0.764 -0.050902773 1.4564649e-38 247 278
-0.096447356 0.764 -0.050902773 1.5208587e-38 248 278
-0.09485884 0.76200002 -0.050769519 1.5392978e-38 249 278
-0.093522795 0.76200002 -0.050769519 1.5577372e-38 250 278
-0.092186764 0.76200002 -0.050769519 1.5669569e-38 251 278
-0.090850718 0.76200002 -0.050769519 1.5945433e-38 252 278
-0.08951468 0.76200002 -0.050769519 1.6037628e-38 253 278
-0.088178635 0.76200002 -0.050769519 1.6129821e-38 254 278
-0.087070532 0.764 -0.050902773 1.6314211e-38 255 278
-0.085730985 0.764 -0.050902773 1.6406404e-38 256 278
-0.08417052 0.76200002 -0.050769519 1.6498599e-38 257 278
-0.082834482 0.76200002 -0.050769519 1.6774818e-38 258 278
-0.081498444 0.76200002 -0.050769519 1.6867013e-38 259 278
-0.080057196 0.76099998 -0.050702889 1.6958843e-38 260 278
-0.078722909 0.76099998 -0.050702889 1.6958843e-38 261 278
-0.077490322 0.76200002 -0.050769519 1.6775517e-38 262 278
-0.076054335 0.76099998 -0.050702889 1.6683321e-38 263 278
-0.074720047 0.76099998 -0.050702889 1.6683309e-38 264 278
-0.07338576 0.76099998 -0.050702889 1.6590754e-38 265 278
-0.072051473 0.76099998 -0.050702889 1.6407793e-38 266 278
-0.070717193 0.76099998 -0.050702889 1.6223401e-38 267 278
-0.069200553 0.759 -0.050569639 1.6130836e-38 268 278
-0.067869775 0.759 -0.050569639 1.603864e-38 269 278
-0.066538997 0.759 -0.050569639 1.6037924e-38 270 278
-0.065208219 0.759 -0.050569639 1.594537e-38 271 278
-0.063709125 0.75700003 -0.050436385 1.6129076e-38 272 278
-0.062381849 0.75700003 -0.050436385 1.6129076e-38 273 278
0.02262326 0.759 -0.050569639 1.7146226e-38 337 278
0.02389092 0.75700003 -0.050436385 1.7052914e-38 338 278
0.025151566 0.755 -0.050303131 1.6407544e-38 339 278
0.026475333 0.755 -0.050303131 1.6406056e-38 340 278
0.027872739 0.75700003 -0.050436385 1.5852884e-38 341 278
0.029277159 0.759 -0.050569639 1.6219845e-38 342 278
0.030607941 0.759 -0.050569639 1.6404237e-38 343 278
0.031938717 0.759 -0.050569639 1.5946136e-38 344 278
0.033269498 0.759 -0.050569639 1.5761385e-38 345 278
0.034600276 0.759 -0.050569639 1.6127281e-38 346 278
0.035931058 0.759 -0.050569639 1.6127281e-38 347 278
0.037163652 0.75700003 -0.050436385 1.6402779e-38 348 278
0.038490929 0.75700003 -0.050436385 1.5941801e-38 349 278
0.0399234 0.759 -0.050569639 1.5481195e-38 350 278
0.041254178 0.759 -0.050569639 1.5481195e-38 351 278
0.042584959 0.759 -0.050569639 1.5390441e-38 352 278
0.043915741 0.759 -0.050569639 1.5574473e-38 353 278
0.045365743 0.76099998 -0.050702889 1.5485131e-38 354 278
0.046700031 0.76099998 -0.050702889 1.5485131e-38 355 278
0.048097439 0.76200002 -0.050769519 1.5759911e-38 356 278
0.049433477 0.76200002 -0.050769519 1.5575161e-38 357 278
0.050769519 0.76200002 -0.050769519 1.5207457e-38 358 278
0.052105557 0.76200002 -0.050769519 1.5022706e-38 359 278
0.053581864 0.764 -0.050902773 1.4746479e-38 360 278
0.054921411 0.764 -0.050902773 1.4469891e-38 361 278
0.056260962 0.764 -0.050902773 1.437662e-38 362 278
0.057751291 0.76599997 -0.051036026 1.4100033e-38 363 278
0.059094343 0.76599997 -0.051036026 1.3731972e-38 364 278
0.060516298 0.76700002 -0.051102653 1.3455387e-38 365 278
0.061861109 0.76700002 -0.051102653 1.3179163e-38 366 278
0.063370727 0.76899999 -0.051235907 1.2902935e-38 367 278
0.064719036 0.76899999 -0.051235907 1.2167535e-38 368 278
0.066067353 0.76899999 -0.051235907 1.1706915e-38 369 278
0.067415662 0.76899999 -0.051235907 1.0694574e-38 370 278
0.068942823 0.77100003 -0.05136916 9.5882278e-39 371 278
0.070294641 0.77100003 -0.05136916 6.3642926e-39 372 278
0.071460605 0.76899999 -0.051235907 6.3642926e-39 373 278
0.072808921 0.76899999 -0.051235907 1.4200626e-38 374 278
-0.10651675 0.76899999 -0.052584216 1.0603176e-38 241 279
-0.10516843 0.76899999 -0.052584216 1.2811869e-38 242 279
-0.10355011 0.76700002 -0.052447457 1.3365403e-38 243 279
-0.10207205 0.76599997 -0.052379075 1.3734883e-38 244 279
-0.10072899 0.76599997 -0.052379075 1.3919274e-38 245 279
-0.099126451 0.764 -0.052242316 1.4379882e-38 246 279
-0.097786903 0.764 -0.052242316 1.4379882e-38 247 279
-0.096447356 0.764 -0.052242316 1.5206413e-38 248 279
-0.09485884 0.76200002 -0.052105557 1.5391163e-38 249 279
-0.093522795 0.76200002 -0.052105557 1.5575203e-38 250 279
-0.092186764 0.76200002 -0.052105557 1.5759234e-38 251 279
-0.090850718 0.76200002 -0.052105557 1.5943984e-38 252 279
-0.08951468 0.76200002 -0.052105557 1.6128375e-38 253 279
-0.088178635 0.76200002 -0.052105557 1.6311687e-38 254 279
-0.086842604 0.76200002 -0.052105557 1.6496439e-38 255 279
-0.085506558 0.76200002 -0.052105557 1.668083e-38 256 279
-0.08417052 0.76200002 -0.052105557 1.6864861e-38 257 279
-0.082834482 0.76200002 -0.052105557 1.67741e-38 258 279
-0.081498444 0.76200002 -0.052105557 1.6866297e-38 259 279
-0.080057196 0.76099998 -0.052037176 1.695849e-38 260 279
-0.078722909 0.76099998 -0.052037176 1.695849e-38 261 279
-0.077388622 0.76099998 -0.052037176 1.6684051e-38 262 279
-0.076054335 0.76099998 -0.052037176 1.6684051e-38 263 279
-0.074720047 0.76099998 -0.052037176 1.6592205e-38 264 279
-0.073192894 0.759 -0.051900417 1.6500009e-38 265 279
-0.071862116 0.759 -0.051900417 1.6317047e-38 266 279
-0.070531338 0.759 -0.051900417 1.6132656e-38 267 279
-0.069200553 0.759 -0.051900417 1.6315247e-38 268 279
-0.067869775 0.759 -0.051900417 1.6223051e-38 269 279
-0.066538997 0.759 -0.051900417 1.6038302e-38 270 279
-0.065208219 0.759 -0.051900417 1.6038302e-38 271 279
-0.063709125 0.75700003 -0.051763661 1.6221626e-38 272 279
-0.062381849 0.75700003 -0.051763661 1.6129429e-38 273 279
-0.061054576 0.75700003 -0.051763661 1.5853571e-38 274 279
-0.059727304 0.75700003 -0.051763661 1.5853571e-38 275 279
0.021236373 0.75700003 -0.051763661 1.6867074e-38 336 279
0.022563647 0.75700003 -0.051763661 1.6406096e-38 337 279
0.02389092 0.75700003 -0.051763661 1.6865244e-38 338 279
0.025218192 0.75700003 -0.051763661 1.6680492e-38 339 279
0.026545467 0.75700003 -0.051763661 1.668083e-38 340 279
0.027872739 0.75700003 -0.051763661 1.6496439e-38 341 279
0.029200014 0.75700003 -0.051763661 1.6312391e-38 342 279
0.030527288 0.75700003 -0.051763661 1.6404588e-38 343 279
0.031854562 0.75700003 -0.051763661 1.6404577e-38 344 279
0.033181835 0.75700003 -0.051763661 1.6127631e-38 345 279
0.034600276 0.759 -0.051900417 1.6308781e-38 346 279
0.035931058 0.759 -0.051900417 1.5847804e-38 347 279
0.037163652 0.75700003 -0.051763661 1.538575e-38 348 279
0.038490929 0.75700003 -0.051763661 1.5109163e-38 349 279
0.0399234 0.759 -0.051900417 1.5384323e-38 350 279
0.041254178 0.759 -0.051900417 1.566127e-38 351 279
0.042584959 0.759 -0.051900417 1.5113131e-38 352 279
0.043915741 0.759 -0.051900417 1.538936e-38 353 279
0.045246519 0.759 -0.051900417 1.5484412e-38 354 279
0.046700031 0.76099998 -0.052037176 1.5484412e-38 355 279
0.048034318 0.76099998 -0.052037176 1.5575882e-38 356 279
0.049368605 0.76099998 -0.052037176 1.5299655e-38 357 279
0.050769519 0.76200002 -0.052105557 1.5207454e-38 358 279
0.052105557 0.76200002 -0.052105557 1.4746476e-38 359 279
0.053441599 0.76200002 -0.052105557 1.4837949e-38 360 279
0.054921411 0.764 -0.052242316 1.4376971e-38 361 279
0.056260962 0.764 -0.052242316 1.4191507e-38 362 279
0.057600506 0.764 -0.052242316 1.3914919e-38 363 279
0.059094343 0.76599997 -0.052379075 1.3546504e-38 364 279
0.060437392 0.76599997 -0.052379075 1.3454308e-38 365 279
0.061861109 0.76700002 -0.052447457 1.2902935e-38 366 279
0.063205913 0.76700002 -0.052447457 1.2718544e-38 367 279
0.06455072 0.76700002 -0.052447457 1.1983146e-38 368 279
0.065895528 0.76700002 -0.052447457 1.1614364e-38 369 279
0.067415662 0.76899999 -0.052584216 9.6815206e-39 370 279
0.068763971 0.76899999 -0.052584216 8.7592056e-39 371 279
0.070112288 0.76899999 -0.052584216 7.6467904e-39 372 279
0.071460605 0.76899999 -0.052584216 1.0135714e-38 373 279
0.072808921 0.76899999 -0.052584216 1.5950564e-38 374 279
-0.10651675 0.76899999 -0.053932533 1.0694658e-38 241 280
-0.10516843 0.76899999 -0.053932533 1.1798089e-38 242 280
-0.10355011 0.76700002 -0.053792264 1.2443459e-38 243 280
-0.10220531 0.76700002 -0.053792264 1.3274276e-38 244 280
-0.10072899 0.76599997 -0.053722132 1.3550864e-38 245 280
-0.099126451 0.764 -0.053581864 1.3644135e-38 246 280
-0.097786903 0.764 -0.053581864 1.3828526e-38 247 280
-0.096447356 0.764 -0.053581864 1.4562864e-38 248 280
-0.09485884 0.76200002 -0.053441599 1.465506e-38 249 280
-0.093522795 0.76200002 -0.053441599 1.4839454e-38 250 280
-0.092186764 0.76200002 -0.053441599 1.5023846e-38 251 280
-0.090850718 0.76200002 -0.053441599 1.5392256e-38 252 280
-0.089397199 0.76099998 -0.053371463 1.5668842e-38 253 280
-0.088062912 0.76099998 -0.053371463 1.5760318e-38 254 280
-0.086728632 0.76099998 -0.053371463 1.6036547e-38 255 280
-0.085394338 0.76099998 -0.053371463 1.6128748e-38 256 280
-0.084060051 0.76099998 -0.053371463 1.6313139e-38 257 280
-0.082725771 0.76099998 -0.053371463 1.6497881e-38 258 280
-0.081391476 0.76099998 -0.053371463 1.6774467e-38 259 280
-0.079846799 0.759 -0.053231198 1.6499673e-38 260 280
-0.078516021 0.759 -0.053231198 1.6499673e-38 261 280
-0.077185236 0.759 -0.053231198 1.6774815e-38 262 280
-0.075854458 0.759 -0.053231198 1.6774815e-38 263 280
-0.07452368 0.759 -0.053231198 1.6592209e-38 264 280
-0.073000036 0.75700003 -0.053090934 1.6499653e-38 265 280
-0.07167276 0.75700003 -0.053090934 1.6683675e-38 266 280
-0.070531338 0.759 -0.053231198 1.6407448e-38 267 280
-0.069200553 0.759 -0.053231198 1.6498912e-38 268 280
-0.067690939 0.75700003 -0.053090934 1.6498912e-38 269 280
-0.06636367 0.75700003 -0.053090934 1.6498196e-38 270 280
-0.065036394 0.75700003 -0.053090934 1.6498196e-38 271 280
-0.063709125 0.75700003 -0.053090934 1.649784e-38 272 280
-0.062381849 0.75700003 -0.053090934 1.649784e-38 273 280
-0.061054576 0.75700003 -0.053090934 1.640529e-38 274 280
-0.059727304 0.75700003 -0.053090934 1.640529e-38 275 280
-0.058400027 0.75700003 -0.053090934 1.6404944e-38 276 280
-0.057072755 0.75700003 -0.053090934 1.6220192e-38 277 280
-0.055745479 0.75700003 -0.053090934 1.5484452e-38 278 280
0.019909101 0.75700003 -0.053090934 1.613019e-38 335 280
0.021236373 0.75700003 -0.053090934 1.6497139e-38 336 280
0.022563647 0.75700003 -0.053090934 1.6312747e-38 337 280
0.023827799 0.755 -0.052950665 1.6680452e-38 338 280
0.025151566 0.755 -0.052950665 1.6865202e-38 339 280
0.026475333 0.755 -0.052950665 1.6681533e-38 340 280
0.027799098 0.755 -0.052950665 1.6404588e-38 341 280
0.029122867 0.755 -0.052950665 1.6312378e-38 342 280
0.030527288 0.75700003 -0.053090934 1.6127987e-38 343 280
0.031770397 0.755 -0.052950665 1.5942154e-38 344 280
0.033094164 0.755 -0.052950665 1.5757404e-38 345 280
0.034509107 0.75700003 -0.053090934 1.4929428e-38 346 280
0.03583638 0.75700003 -0.053090934 1.4560286e-38 347 280
0.037163652 0.75700003 -0.053090934 1.4097512e-38 348 280
0.038490929 0.75700003 -0.053090934 1.4005317e-38 349 280
0.039818201 0.75700003 -0.053090934 1.4466686e-38 350 280
0.041145474 0.75700003 -0.053090934 1.483547e-38 351 280
0.042472746 0.75700003 -0.053090934 1.5021655e-38 352 280
0.043915741 0.759 -0.053231198 1.5298243e-38 353 280
0.045246519 0.759 -0.053231198 1.5208551e-38 354 280
0.046577301 0.759 -0.053231198 1.5208551e-38 355 280
0.047908079 0.759 -0.053231198 1.5391495e-38 356 280
0.049368605 0.76099998 -0.053371463 1.5207104e-38 357 280
0.050702889 0.76099998 -0.053371463 1.4930157e-38 358 280
0.052037176 0.76099998 -0.053371463 1.465393e-38 359 280
0.053441599 0.76200002 -0.053441599 1.4377342e-38 360 280
0.054777641 0.76200002 -0.053441599 1.4008561e-38 361 280
0.056113683 0.76200002 -0.053441599 1.3823093e-38 362 280
0.057600506 0.764 -0.053581864 1.3638702e-38 363 280
0.058940053 0.764 -0.053581864 1.3178447e-38 364 280
0.0602796 0.764 -0.053581864 1.308625e-38 365 280
0.061619148 0.764 -0.053581864 1.2994054e-38 366 280
0.063123502 0.76599997 -0.053722132 1.2533078e-38 367 280
0.06455072 0.76700002 -0.053792264 1.1797676e-38 368 280
0.065895528 0.76700002 -0.053792264 1.1152307e-38 369 280
0.067240335 0.76700002 -0.053792264 9.3113074e-39 370 280
0.068763971 0.76899999 -0.053932533 8.4815453e-39 371 280
0.070112288 0.76899999 -0.053932533 9.3095656e-39 372 280
0.071460605 0.76899999 -0.053932533 1.2075793e-38 373 280
-0.10623973 0.76700002 -0.055137072 1.1247479e-38 241 281
-0.10489491 0.76700002 -0.055137072 1.1427512e-38 242 281
-0.10355011 0.76700002 -0.055137072 1.2257273e-38 243 281
-0.10207205 0.76599997 -0.055065181 1.2904417e-38 244 281
-0.10072899 0.76599997 -0.055065181 1.3273201e-38 245 281
-0.099126451 0.764 -0.054921411 1.3642687e-38 246 281
-0.097786903 0.764 -0.054921411 1.3734883e-38 247 281
-0.096447356 0.764 -0.054921411 1.4652879e-38 248 281
-0.095107809 0.764 -0.054921411 1.4745075e-38 249 281
-0.093522795 0.76200002 -0.054777641 1.4837989e-38 250 281
-0.092186764 0.76200002 -0.054777641 1.5114217e-38 251 281
-0.090850718 0.76200002 -0.054777641 1.502382e-38 252 281
-0.089397199 0.76099998 -0.05470575 1.520857e-38 253 281
-0.088062912 0.76099998 -0.05470575 1.5942186e-38 254 281
-0.086728632 0.76099998 -0.05470575 1.6034382e-38 255 281
-0.085394338 0.76099998 -0.05470575 1.6035463e-38 256 281
-0.084060051 0.76099998 -0.05470575 1.631169e-38 257 281
-0.082508355 0.759 -0.054561976 1.5946499e-38 258 281
-0.081177577 0.759 -0.054561976 1.6131249e-38 259 281
-0.079846799 0.759 -0.054561976 1.6224517e-38 260 281
-0.078516021 0.759 -0.054561976 1.6224517e-38 261 281
-0.077185236 0.759 -0.054561976 1.6591503e-38 262 281
-0.075654581 0.75700003 -0.054418206 1.6591503e-38 263 281
-0.074327305 0.75700003 -0.054418206 1.65915e-38 264 281
-0.073000036 0.75700003 -0.054418206 1.65915e-38 265 281
-0.07167276 0.75700003 -0.054418206 1.6775165e-38 266 281
-0.070345491 0.75700003 -0.054418206 1.6682968e-38 267 281
-0.068835862 0.755 -0.054274432 1.6224498e-38 268 281
-0.067512102 0.755 -0.054274432 1.6132303e-38 269 281
-0.066188328 0.755 -0.054274432 1.6314893e-38 270 281
-0.065036394 0.75700003 -0.054418206 1.6314893e-38 271 281
-0.063709125 0.75700003 -0.054418206 1.6407092e-38 272 281
-0.062381849 0.75700003 -0.054418206 1.6314896e-38 273 281
-0.061054576 0.75700003 -0.054418206 1.6223054e-38 274 281
-0.059569497 0.755 -0.054274432 1.6223054e-38 275 281
-0.058245733 0.755 -0.054274432 1.6221978e-38 276 281
-0.057072755 0.75700003 -0.054418206 1.6221978e-38 277 281
-0.055745479 0.75700003 -0.054418206 1.6220925e-38 278 281
-0.054418206 0.75700003 -0.054418206 1.6313121e-38 279 281
-0.050236505 0.75400001 -0.054202545 1.5760723e-38 282 281
-0.048914492 0.75400001 -0.054202545 1.6406093e-38 283 281
0.018581826 0.75700003 -0.054418206 1.6406038e-38 334 281
0.019909101 0.75700003 -0.054418206 1.6498234e-38 335 281
0.021236373 0.75700003 -0.054418206 1.6865564e-38 336 281
0.022504034 0.755 -0.054274432 1.6681533e-38 337 281
0.023827799 0.755 -0.054274432 1.6773e-38 338 281
0.025151566 0.755 -0.054274432 1.6773e-38 339 281
0.026475333 0.755 -0.054274432 1.6588609e-38 340 281
0.027799098 0.755 -0.054274432 1.6312022e-38 341 281
0.029122867 0.755 -0.054274432 1.5759927e-38 342 281
0.030527288 0.75700003 -0.054418206 1.4745775e-38 343 281
0.031770397 0.755 -0.054274432 1.4559229e-38 344 281
0.033094164 0.755 -0.054274432 1.4559229e-38 345 281
0.034509107 0.75700003 -0.054418206 1.3636554e-38 346 281
0.035741698 0.755 -0.054274432 1.3636554e-38 347 281
0.037065465 0.755 -0.054274432 1.3726597e-38 348 281
0.038389232 0.755 -0.054274432 1.4187935e-38 349 281
0.039712999 0.755 -0.054274432 1.4558516e-38 350 281
0.041036766 0.755 -0.054274432 1.5111331e-38 351 281
0.042472746 0.75700003 -0.054418206 1.4839043e-38 352 281
0.043800019 0.75700003 -0.054418206 1.5207826e-38 353 281
0.045127295 0.75700003 -0.054418206 1.5300018e-38 354 281
0.046454567 0.75700003 -0.054418206 1.5207823e-38 355 281
0.047908079 0.759 -0.054561976 1.5114904e-38 356 281
0.049238857 0.759 -0.054561976 1.4930513e-38 357 281
0.050702889 0.76099998 -0.05470575 1.47454e-38 358 281
0.052037176 0.76099998 -0.05470575 1.4376617e-38 359 281
0.053371463 0.76099998 -0.05470575 1.4375538e-38 360 281
0.05470575 0.76099998 -0.05470575 1.3914919e-38 361 281
0.056113683 0.76200002 -0.054777641 1.3730175e-38 362 281
0.057449725 0.76200002 -0.054777641 1.3453589e-38 363 281
0.058940053 0.764 -0.054921411 1.3085181e-38 364 281
0.0602796 0.764 -0.054921411 1.2900431e-38 365 281
0.061619148 0.764 -0.054921411 1.2624926e-38 366 281
0.062958695 0.764 -0.054921411 1.2347979e-38 367 281
0.064466551 0.76599997 -0.055065181 1.1151959e-38 368 281
0.065895528 0.76700002 -0.055137072 1.0414394e-38 369 281
0.067240335 0.76700002 -0.055137072 9.5832336e-39 370 281
0.068585135 0.76700002 -0.055137072 8.8456685e-39 371 281
0.070112288 0.76899999 -0.055280842 1.0968744e-38 372 281
0.071460605 0.76899999 -0.055280842 1.2720459e-38 373 281
-0.10623973 0.76700002 -0.056481879 1.1616633e-38 241 282
-0.10489491 0.76700002 -0.056481879 1.1244209e-38 242 282
-0.10355011 0.76700002 -0.056481879 1.1521156e-38 243 282
-0.10207205 0.76599997 -0.056408234 1.1892068e-38 244 282
-0.10072899 0.76599997 -0.056408234 1.2537437e-38 245 282
-0.099126451 0.764 -0.056260962 1.2907286e-38 246 282
-0.097786903 0.764 -0.056260962 1.2999482e-38 247 282
-0.096447356 0.764 -0.056260962 1.3918198e-38 248 282
-0.09485884 0.76200002 -0.056113683 1.4010394e-38 249 282
-0.093400061 0.76099998 -0.056040037 1.446993e-38 250 282
-0.092065774 0.76099998 -0.056040037 1.446993e-38 251 282
-0.090731487 0.76099998 -0.056040037 1.4746157e-38 252 282
-0.089397199 0.76099998 -0.056040037 1.5023104e-38 253 282
-0.088062912 0.76099998 -0.056040037 1.5298261e-38 254 282
-0.086500697 0.759 -0.055892758 1.5482654e-38 255 282
-0.085169919 0.759 -0.055892758 1.5483729e-38 256 282
-0.083839141 0.759 -0.055892758 1.566812e-38 257 282
-0.082508355 0.759 -0.055892758 1.5761388e-38 258 282
-0.080963671 0.75700003 -0.055745479 1.594578e-38 259 282
-0.079636402 0.75700003 -0.055745479 1.6039048e-38 260 282
-0.078309126 0.75700003 -0.055745479 1.6131243e-38 261 282
-0.076981857 0.75700003 -0.055745479 1.640711e-38 262 282
-0.075454697 0.755 -0.055598196 1.6591503e-38 263 282
-0.07413093 0.755 -0.055598196 1.6682618e-38 264 282
-0.07280717 0.755 -0.055598196 1.6774815e-38 265 282
-0.071483396 0.755 -0.055598196 1.6591853e-38 266 282
-0.070159629 0.755 -0.055598196 1.6499656e-38 267 282
-0.068835862 0.755 -0.055598196 1.6683675e-38 268 282
-0.067512102 0.755 -0.055598196 1.6499643e-38 269 282
-0.066188328 0.755 -0.055598196 1.6590757e-38 270 282
-0.064864561 0.755 -0.055598196 1.6590757e-38 271 282
-0.063540794 0.755 -0.055598196 1.6590757e-38 272 282
-0.062381849 0.75700003 -0.055745479 1.6590757e-38 273 282
-0.061054576 0.75700003 -0.055745479 1.6590392e-38 274 282
-0.059569497 0.755 -0.055598196 1.6590392e-38 275 282
-0.058245733 0.755 -0.055598196 1.649784e-38 276 282
-0.057072755 0.75700003 -0.055745479 1.649784e-38 277 282
-0.055745479 0.75700003 -0.055745479 1.6221631e-38 278 282
-0.054418206 0.75700003 -0.055745479 1.6313827e-38 279 282
-0.052950665 0.755 -0.055598196 1.6129078e-38 280 282
-0.051626898 0.755 -0.055598196 1.5944687e-38 281 282
-0.050236505 0.75400001 -0.055524562 1.5760666e-38 282 282
-0.048914492 0.75400001 -0.055524562 1.6129448e-38 283 282
-0.04759248 0.75400001 -0.055524562 1.5853625e-38 284 282
-0.046270464 0.75400001 -0.055524562 1.6314603e-38 285 282
-0.044948451 0.75400001 -0.055524562 1.6315715e-38 286 282
-0.043626439 0.75400001 -0.055524562 1.659266e-38 287 282
-0.042304426 0.75400001 -0.055524562 1.6685241e-38 288 282
-0.040873703 0.75199997 -0.055377278 1.6869632e-38 289 282
-0.039449997 0.75 -0.055229999 1.67814e-38 290 282
-0.038135 0.75 -0.055229999 1.6873595e-38 291 282
-0.036770906 0.74900001 -0.055156358 1.7332053e-38 292 282
-0.03545766 0.74900001 -0.055156358 1.7424248e-38 293 282
-0.034189999 0.75 -0.055229999 1.6873964e-38 294 282
0.0079425992 0.755 -0.055598196 1.6591909e-38 326 282
0.0092663663 0.755 -0.055598196 1.6499713e-38 327 282
0.010590133 0.755 -0.055598196 1.6683361e-38 328 282
0.017208965 0.755 -0.055598196 1.6682605e-38 333 282
0.018532733 0.755 -0.055598196 1.6682605e-38 334 282
0.0198565 0.755 -0.055598196 1.6682605e-38 335 282
0.021180267 0.755 -0.055598196 1.6681886e-38 336 282
0.022504034 0.755 -0.055598196 1.6589691e-38 337 282
0.023827799 0.755 -0.055598196 1.6773e-38 338 282
0.025151566 0.755 -0.055598196 1.6680805e-38 339 282
0.026475333 0.755 -0.055598196 1.6587889e-38 340 282
0.027799098 0.755 -0.055598196 1.6219108e-38 341 282
0.029122867 0.755 -0.055598196 1.5390066e-38 342 282
0.030446632 0.755 -0.055598196 1.4283718e-38 343 282
0.031770397 0.755 -0.055598196 1.4190453e-38 344 282
0.033094164 0.755 -0.055598196 1.3913865e-38 345 282
0.034417931 0.755 -0.055598196 1.3911005e-38 346 282
0.035741698 0.755 -0.055598196 1.3911005e-38 347 282
0.037065465 0.755 -0.055598196 1.3911008e-38 348 282
0.038389232 0.755 -0.055598196 1.4648573e-38 349 282
0.039712999 0.755 -0.055598196 1.4745422e-38 350 282
0.041036766 0.755 -0.055598196 1.5022008e-38 351 282
0.042360533 0.755 -0.055598196 1.5115271e-38 352 282
0.043684296 0.755 -0.055598196 1.5115271e-38 353 282
0.045127295 0.75700003 -0.055745479 1.5206754e-38 354 282
0.046454567 0.75700003 -0.055745479 1.5022002e-38 355 282
0.04778184 0.75700003 -0.055745479 1.4654286e-38 356 282
0.049238857 0.759 -0.055892758 1.4377339e-38 357 282
0.050569639 0.759 -0.055892758 1.4560288e-38 358 282
0.051900417 0.759 -0.055892758 1.4191507e-38 359 282
0.053371463 0.76099998 -0.056040037 1.3731254e-38 360 282
0.05470575 0.76099998 -0.056040037 1.3454308e-38 361 282
0.056040037 0.76099998 -0.056040037 1.3361039e-38 362 282
0.057449725 0.76200002 -0.056113683 1.3176648e-38 363 282
0.058785759 0.76200002 -0.056113683 1.2807885e-38 364 282
0.0602796 0.764 -0.056260962 1.2531658e-38 365 282
0.061619148 0.764 -0.056260962 1.2255433e-38 366 282
0.062958695 0.764 -0.056260962 1.1794456e-38 367 282
0.064466551 0.76599997 -0.056408234 1.1240579e-38 368 282
0.065895528 0.76700002 -0.056481879 1.0687764e-38 369 282
0.067240335 0.76700002 -0.056481879 9.3985046e-39 370 282
0.068585135 0.76700002 -0.056481879 9.0297235e-39 371 282
0.070476986 0.773 -0.056923717 1.0325545e-38 372 282
0.072111093 0.77600002 -0.057144642 1.2169097e-38 373 282
-0.10489491 0.76700002 -0.057826683 1.1336425e-38 242 283
-0.10355011 0.76700002 -0.057826683 1.0968001e-38 243 283
-0.10207205 0.76599997 -0.057751291 1.1246712e-38 244 283
-0.10072899 0.76599997 -0.057751291 1.1892082e-38 245 283
-0.099126451 0.764 -0.057600506 1.2905848e-38 246 283
-0.097786903 0.764 -0.057600506 1.3089879e-38 247 283
-0.096447356 0.764 -0.057600506 1.3549769e-38 248 283
-0.09485884 0.76200002 -0.057449725 1.373416e-38 249 283
-0.093400061 0.76099998 -0.057374325 1.4284817e-38 250 283
-0.092065774 0.76099998 -0.057374325 1.4468848e-38 251 283
-0.090731487 0.76099998 -0.057374325 1.4744719e-38 252 283
-0.089397199 0.76099998 -0.057374325 1.5021304e-38 253 283
-0.087831482 0.759 -0.05722354 1.511422e-38 254 283
-0.086500697 0.759 -0.05722354 1.5298612e-38 255 283
-0.085169919 0.759 -0.05722354 1.5298965e-38 256 283
-0.083618224 0.75700003 -0.057072755 1.5483356e-38 257 283
-0.082290947 0.75700003 -0.057072755 1.5484432e-38 258 283
-0.080963671 0.75700003 -0.057072755 1.5761019e-38 259 283
-0.079636402 0.75700003 -0.057072755 1.5946133e-38 260 283
-0.078309126 0.75700003 -0.057072755 1.6038329e-38 261 283
-0.076778464 0.755 -0.056921966 1.6130525e-38 262 283
