# .PCD v.7 - Point Cloud Data file format
FIELDS x y z rgb imX imY
SIZE 4 4 4 4 4 4
TYPE F F F F F F
COUNT 1 1 1 1 1 1
WIDTH 845
HEIGHT 1
VIEWPOINT 0 0 0 1 0 0 0
POINTS 845
DATA ascii
0.039623581 0.83700001 0.036688499 7.187278e-39 347 215
0.040992931 0.83499998 0.036600832 7.373463e-39 348 215
0.042355273 0.833 0.036513168 7.7422469e-39 349 215
0.043710597 0.83099997 0.036425497 8.2968402e-39 350 215
0.045167617 0.83099997 0.036425497 9.0347639e-39 351 215
0.046512425 0.829 0.036337834 1.0599899e-38 352 215
0.04796594 0.829 0.036337834 1.0599899e-38 353 215
0.049419452 0.829 0.036337834 1.0876114e-38 354 215
0.050750233 0.82700002 0.036250167 1.0968309e-38 355 215
0.052200239 0.82700002 0.036250167 1.0969036e-38 356 215
0.053650245 0.82700002 0.036250167 1.1337818e-38 357 215
0.054966997 0.82499999 0.036162499 1.1705878e-38 358 215
0.056413498 0.82499999 0.036162499 1.189027e-38 359 215
0.057859998 0.82499999 0.036162499 1.2716433e-38 360 215
0.059162725 0.82300001 0.036074832 1.3269607e-38 361 215
0.060458437 0.82099998 0.035987165 1.3089529e-38 362 215
0.061897919 0.82099998 0.035987165 1.3366475e-38 363 215
0.063183114 0.81900001 0.035899501 1.4377384e-38 364 215
0.064619094 0.81900001 0.035899501 1.4561775e-38 365 215
0.066055074 0.81900001 0.035899501 1.4654691e-38 366 215
0.067161433 0.815 0.035724167 1.4746887e-38 367 215
0.068590395 0.815 0.035724167 1.4932356e-38 368 215
0.070019364 0.815 0.035724167 1.5208584e-38 369 215
0.071448334 0.815 0.035724167 1.5664157e-38 370 215
0.072698459 0.81300002 0.0356365 1.4373418e-38 371 215
0.074123919 0.81300002 0.0356365 1.3170188e-38 372 215
0.075549379 0.81300002 0.0356365 1.2801404e-38 373 215
0.076974839 0.81300002 0.0356365 1.3272463e-38 374 215
0.078400299 0.81300002 0.0356365 1.4102224e-38 375 215
0.079825759 0.81300002 0.0356365 1.4747961e-38 376 215
0.081251219 0.81300002 0.0356365 1.4286983e-38 377 215
0.082676686 0.81300002 0.0356365 1.4285536e-38 378 215
0.084102139 0.81300002 0.0356365 1.4101143e-38 379 215
0.085527599 0.81300002 0.0356365 1.3733084e-38 380 215
0.087166965 0.815 0.035724167 1.3640888e-38 381 215
0.088378519 0.81300002 0.0356365 1.2904064e-38 382 215
0.089803979 0.81300002 0.0356365 1.2627838e-38 383 215
0.091005012 0.81099999 0.035548832 1.3742521e-38 384 215
0.092426963 0.81099999 0.035548832 1.5401684e-38 385 215
-0.083693616 0.82300001 0.034631841 1.5208934e-38 262 216
-0.082250617 0.82300001 0.034631841 1.5393325e-38 263 216
-0.080807626 0.82300001 0.034631841 1.5944321e-38 264 216
-0.079364628 0.82300001 0.034631841 1.5944321e-38 265 216
-0.077542923 0.81900001 0.034463517 1.6036517e-38 266 216
-0.075921081 0.81699997 0.034379359 1.6220548e-38 267 216
-0.074488603 0.81699997 0.034379359 1.6037236e-38 268 216
-0.073056139 0.81699997 0.034379359 1.594504e-38 269 216
-0.071623661 0.81699997 0.034379359 1.5944321e-38 270 216
-0.070019364 0.815 0.034295198 1.5851767e-38 271 216
-0.068590395 0.815 0.034295198 1.5759574e-38 272 216
-0.067161433 0.815 0.034295198 1.5667377e-38 273 216
-0.065893769 0.81699997 0.034379359 1.5206754e-38 274 216
-0.064461298 0.81699997 0.034379359 1.4469189e-38 275 216
-0.06302882 0.81699997 0.034379359 1.3639424e-38 276 216
-0.061596353 0.81699997 0.034379359 1.2533078e-38 277 216
-0.060163878 0.81699997 0.034379359 1.2437645e-38 278 216
-0.058875177 0.81900001 0.034463517 1.2253252e-38 279 216
-0.057439201 0.81900001 0.034463517 1.2069954e-38 280 216
-0.056003217 0.81900001 0.034463517 1.1793007e-38 281 216
-0.054567236 0.81900001 0.034463517 1.1516798e-38 282 216
-0.053131256 0.81900001 0.034463517 1.1424244e-38 283 216
-0.05169528 0.81900001 0.034463517 1.1148386e-38 284 216
-0.0502593 0.81900001 0.034463517 1.1056189e-38 285 216
-0.048823319 0.81900001 0.034463517 1.0596657e-38 286 216
-0.047503054 0.82099998 0.034547675 1.0596657e-38 287 216
-0.046063572 0.82099998 0.034547675 1.0596657e-38 288 216
-0.044732794 0.82300001 0.034631841 1.0596657e-38 289 216
-0.043289799 0.82300001 0.034631841 1.0597013e-38 290 216
-0.041846808 0.82300001 0.034631841 1.0597013e-38 291 216
-0.040403813 0.82300001 0.034631841 1.0229672e-38 292 216
-0.039055496 0.82499999 0.034715999 1.0137477e-38 293 216
-0.037608996 0.82499999 0.034715999 1.0136405e-38 294 216
-0.036162499 0.82499999 0.034715999 9.8594575e-39 295 216
-0.034800157 0.82700002 0.034800157 9.5828776e-39 296 216
-0.033350151 0.82700002 0.034800157 9.1218981e-39 297 216
-0.03220873 0.83499998 0.035136797 9.0275585e-39 298 216
-0.030744698 0.83499998 0.035136797 8.8431672e-39 299 216
-0.029350799 0.83700001 0.035220962 8.1070623e-39 300 216
0.043920998 0.83499998 0.035136797 7.4649397e-39 350 216
0.045276325 0.833 0.035052639 7.9255591e-39 351 216
0.046624638 0.83099997 0.03496848 8.667052e-39 352 216
0.04796594 0.829 0.034884319 9.2202244e-39 353 216
0.049419452 0.829 0.034884319 1.0230765e-38 354 216
0.050872963 0.829 0.034884319 1.0507351e-38 355 216
0.052200239 0.82700002 0.034800157 1.0601699e-38 356 216
0.053650245 0.82700002 0.034800157 1.0970121e-38 357 216
0.054966997 0.82499999 0.034715999 1.1430013e-38 358 216
0.056413498 0.82499999 0.034715999 1.152221e-38 359 216
0.057859998 0.82499999 0.034715999 1.2073232e-38 360 216
0.059162725 0.82300001 0.034631841 1.234982e-38 361 216
0.060458437 0.82099998 0.034547675 1.2536008e-38 362 216
0.061897919 0.82099998 0.034547675 1.3088823e-38 363 216
0.063183114 0.81900001 0.034463517 1.3733826e-38 364 216
0.064619094 0.81900001 0.034463517 1.3918576e-38 365 216
0.065893769 0.81699997 0.034379359 1.4195156e-38 366 216
0.067161433 0.815 0.034295198 1.4379549e-38 367 216
0.068590395 0.815 0.034295198 1.4472098e-38 368 216
0.070019364 0.815 0.034295198 1.4656489e-38 369 216
0.071272999 0.81300002 0.03421104 1.5114946e-38 370 216
0.072698459 0.81300002 0.03421104 1.4746164e-38 371 216
0.074123919 0.81300002 0.03421104 1.4099718e-38 372 216
0.075549379 0.81300002 0.03421104 1.3454349e-38 373 216
0.076974839 0.81300002 0.03421104 1.401112e-38 374 216
0.078400299 0.81300002 0.03421104 1.4195151e-38 375 216
0.079825759 0.81300002 0.03421104 1.4104389e-38 376 216
0.081251219 0.81300002 0.03421104 1.3919996e-38 377 216
0.082676686 0.81300002 0.03421104 1.4285536e-38 378 216
0.084102139 0.81300002 0.03421104 1.4101143e-38 379 216
0.085527599 0.81300002 0.03421104 1.382456e-38 380 216
0.086953059 0.81300002 0.03421104 1.3640169e-38 381 216
0.088378519 0.81300002 0.03421104 1.2076456e-38 382 216
0.089583054 0.81099999 0.034126882 1.0970108e-38 383 216
0.091005012 0.81099999 0.034126882 1.2545047e-38 384 216
0.092426963 0.81099999 0.034126882 1.5034329e-38 385 216
-0.085527599 0.81300002 0.03278558 1.4938136e-38 260 217
-0.085343495 0.82499999 0.033269498 1.3555201e-38 261 217
-0.083896995 0.82499999 0.033269498 1.5392583e-38 262 217
-0.082250617 0.82300001 0.033188846 1.548478e-38 263 217
-0.080807626 0.82300001 0.033188846 1.585177e-38 264 217
-0.079364628 0.82300001 0.033188846 1.585177e-38 265 217
-0.077542923 0.81900001 0.033027537 1.5943968e-38 266 217
-0.075921081 0.81699997 0.032946885 1.5943968e-38 267 217
-0.074488603 0.81699997 0.032946885 1.5852492e-38 268 217
-0.073056139 0.81699997 0.032946885 1.5575906e-38 269 217
-0.071623661 0.81699997 0.032946885 1.5484062e-38 270 217
-0.070019364 0.815 0.032866232 1.5484062e-38 271 217
-0.068590395 0.815 0.032866232 1.5759202e-38 272 217
-0.067161433 0.815 0.032866232 1.5298223e-38 273 217
-0.065893769 0.81699997 0.032946885 1.4652484e-38 274 217
-0.064461298 0.81699997 0.032946885 1.3546138e-38 275 217
-0.06302882 0.81699997 0.032946885 1.253308e-38 276 217
-0.061596353 0.81699997 0.032946885 1.170296e-38 277 217
-0.060163878 0.81699997 0.032946885 1.1608272e-38 278 217
-0.058875177 0.81900001 0.033027537 1.1792304e-38 279 217
-0.057439201 0.81900001 0.033027537 1.1607922e-38 280 217
-0.056003217 0.81900001 0.033027537 1.1423531e-38 281 217
-0.054567236 0.81900001 0.033027537 1.1056186e-38 282 217
-0.053131256 0.81900001 0.033027537 1.1056186e-38 283 217
-0.051821519 0.82099998 0.03310819 1.0872877e-38 284 217
-0.050382029 0.82099998 0.03310819 1.0780322e-38 285 217
-0.048942544 0.82099998 0.03310819 1.050518e-38 286 217
-0.04761878 0.82300001 0.033188846 1.050518e-38 287 217
-0.046175785 0.82300001 0.033188846 1.0412987e-38 288 217
-0.044732794 0.82300001 0.033188846 1.0412987e-38 289 217
-0.043289799 0.82300001 0.033188846 1.0137123e-38 290 217
-0.041846808 0.82300001 0.033188846 1.0137123e-38 291 217
-0.040403813 0.82300001 0.033188846 9.5853958e-39 292 217
-0.039055496 0.82499999 0.033269498 9.4010031e-39 293 217
-0.037608996 0.82499999 0.033269498 9.3063034e-39 294 217
-0.036162499 0.82499999 0.033269498 8.8456839e-39 295 217
0.046849065 0.83499998 0.033672765 6.6391391e-39 352 217
0.048081655 0.83099997 0.033511456 7.6532911e-39 353 217
0.049419452 0.829 0.033430804 9.0326059e-39 354 217
0.050872963 0.829 0.033430804 9.6779754e-39 355 217
0.052200239 0.82700002 0.033350151 1.0324754e-38 356 217
0.053650245 0.82700002 0.033350151 1.0693897e-38 357 217
0.055100251 0.82700002 0.033350151 1.1336743e-38 358 217
0.056413498 0.82499999 0.033269498 1.161333e-38 359 217
0.057859998 0.82499999 0.033269498 1.1797005e-38 360 217
0.059162725 0.82300001 0.033188846 1.2165427e-38 361 217
0.060458437 0.82099998 0.03310819 1.2166873e-38 362 217
0.061897919 0.82099998 0.03310819 1.262785e-38 363 217
0.063183114 0.81900001 0.033027537 1.3273573e-38 364 217
0.064461298 0.81699997 0.032946885 1.3457965e-38 365 217
0.065893769 0.81699997 0.032946885 1.4101167e-38 366 217
0.067161433 0.815 0.032866232 1.4377752e-38 367 217
0.068590395 0.815 0.032866232 1.4287353e-38 368 217
0.069847539 0.81300002 0.03278558 1.4379549e-38 369 217
0.071272999 0.81300002 0.03278558 1.4471745e-38 370 217
0.072698459 0.81300002 0.03278558 1.456394e-38 371 217
0.074123919 0.81300002 0.03278558 1.4839451e-38 372 217
0.075549379 0.81300002 0.03278558 1.4562864e-38 373 217
0.076974839 0.81300002 0.03278558 1.4564296e-38 374 217
0.078400299 0.81300002 0.03278558 1.4379546e-38 375 217
0.079825759 0.81300002 0.03278558 1.4288055e-38 376 217
0.081251219 0.81300002 0.03278558 1.401147e-38 377 217
0.082676686 0.81300002 0.03278558 1.4010028e-38 378 217
0.084102139 0.81300002 0.03278558 1.3825277e-38 379 217
0.085527599 0.81300002 0.03278558 1.3733081e-38 380 217
0.086953059 0.81300002 0.03278558 1.3456854e-38 381 217
0.088378519 0.81300002 0.03278558 1.1890986e-38 382 217
0.089583054 0.81099999 0.032704927 1.032402e-38 383 217
0.091005012 0.81099999 0.032704927 1.1898959e-38 384 217
0.092426963 0.81099999 0.032704927 1.4757022e-38 385 217
-0.086953059 0.81300002 0.03136012 1.4017316e-38 259 218
-0.085527599 0.81300002 0.03136012 1.3923245e-38 260 218
-0.084929712 0.82099998 0.031668708 1.3830691e-38 261 218
-0.083490223 0.82099998 0.031668708 1.5392214e-38 262 218
-0.082250617 0.82300001 0.031745855 1.548441e-38 263 218
-0.080807626 0.82300001 0.031745855 1.5759925e-38 264 218
-0.079364628 0.82300001 0.031745855 1.5759925e-38 265 218
-0.077542923 0.81900001 0.031591557 1.576029e-38 266 218
-0.075921081 0.81699997 0.03151441 1.5576259e-38 267 218
-0.074488603 0.81699997 0.03151441 1.5575179e-38 268 218
-0.073056139 0.81699997 0.03151441 1.5575179e-38 269 218
-0.071623661 0.81699997 0.03151441 1.5299302e-38 270 218
-0.070019364 0.815 0.031437267 1.4746129e-38 271 218
-0.068590395 0.815 0.031437267 1.474503e-38 272 218
-0.067161433 0.815 0.031437267 1.3546488e-38 273 218
-0.065893769 0.81699997 0.03151441 1.3268099e-38 274 218
-0.064461298 0.81699997 0.03151441 1.262273e-38 275 218
-0.06302882 0.81699997 0.03151441 1.1702597e-38 276 218
-0.061596353 0.81699997 0.03151441 1.1517847e-38 277 218
-0.060163878 0.81699997 0.03151441 1.1516077e-38 278 218
-0.058875177 0.81900001 0.031591557 1.1423881e-38 279 218
-0.057439201 0.81900001 0.031591557 1.1147663e-38 280 218
-0.05613998 0.82099998 0.031668708 1.1147663e-38 281 218
-0.05470049 0.82099998 0.031668708 1.0963637e-38 282 218
-0.053261004 0.82099998 0.031668708 1.0963637e-38 283 218
-0.051821519 0.82099998 0.031668708 1.0687776e-38 284 218
-0.050382029 0.82099998 0.031668708 1.0687776e-38 285 218
-0.049061771 0.82300001 0.031745855 1.0504461e-38 286 218
-0.04761878 0.82300001 0.031745855 1.0504461e-38 287 218
-0.046175785 0.82300001 0.031745855 1.0228953e-38 288 218
-0.044732794 0.82300001 0.031745855 1.0136758e-38 289 218
-0.043289799 0.82300001 0.031745855 9.7686982e-39 290 218
-0.041846808 0.82300001 0.031745855 9.4917512e-39 291 218
-0.040403813 0.82300001 0.031745855 9.5807294e-39 292 218
-0.039055496 0.82499999 0.031822998 8.93536e-39 293 218
-0.037608996 0.82499999 0.031822998 8.747757e-39 294 218
0.049657907 0.833 0.032131586 7.7411539e-39 354 218
0.050995696 0.83099997 0.032054439 7.8333495e-39 355 218
0.052326478 0.829 0.031977292 8.7610455e-39 356 218
0.053650245 0.82700002 0.031900145 1.0051784e-38 357 218
0.055100251 0.82700002 0.031900145 1.1427509e-38 358 218
0.056413498 0.82499999 0.031822998 1.16119e-38 359 218
0.057719734 0.82300001 0.031745855 1.1704451e-38 360 218
0.059162725 0.82300001 0.031745855 1.1797005e-38 361 218
0.060458437 0.82099998 0.031668708 1.1982112e-38 362 218
0.061897919 0.82099998 0.031668708 1.2350895e-38 363 218
0.063183114 0.81900001 0.031591557 1.308666e-38 364 218
0.064461298 0.81699997 0.03151441 1.373203e-38 365 218
0.065893769 0.81699997 0.03151441 1.3640908e-38 366 218
0.067161433 0.815 0.031437267 1.3733463e-38 367 218
0.068590395 0.815 0.031437267 1.4102236e-38 368 218
0.069847539 0.81300002 0.03136012 1.4286986e-38 369 218
0.071272999 0.81300002 0.03136012 1.4838006e-38 370 218
0.072698459 0.81300002 0.03136012 1.4930202e-38 371 218
0.074123919 0.81300002 0.03136012 1.4746889e-38 372 218
0.075549379 0.81300002 0.03136012 1.4746889e-38 373 218
0.076974839 0.81300002 0.03136012 1.4380621e-38 374 218
0.078400299 0.81300002 0.03136012 1.419659e-38 375 218
0.079825759 0.81300002 0.03136012 1.4287701e-38 376 218
0.081251219 0.81300002 0.03136012 1.3919277e-38 377 218
0.082676686 0.81300002 0.03136012 1.3918195e-38 378 218
0.084102139 0.81300002 0.03136012 1.3641967e-38 379 218
0.085527599 0.81300002 0.03136012 1.3457573e-38 380 218
0.086953059 0.81300002 0.03136012 1.3273182e-38 381 218
0.088378519 0.81300002 0.03136012 1.1247416e-38 382 218
0.089583054 0.81099999 0.031282969 9.6800885e-39 383 218
0.091005012 0.81099999 0.031282969 1.1712769e-38 384 218
0.092426963 0.81099999 0.031282969 1.484742e-38 385 218
-0.088378519 0.81300002 0.02993466 1.5769358e-38 258 219
-0.086953059 0.81300002 0.02993466 1.254287e-38 259 219
-0.085527599 0.81300002 0.02993466 1.3368972e-38 260 219
-0.084929712 0.82099998 0.030229218 1.4106895e-38 261 219
-0.083490223 0.82099998 0.030229218 1.4565347e-38 262 219
-0.082050733 0.82099998 0.030229218 1.4841933e-38 263 219
-0.080611244 0.82099998 0.030229218 1.5392585e-38 264 219
-0.079171762 0.82099998 0.030229218 1.5392585e-38 265 219
-0.07773228 0.82099998 0.030229218 1.5391513e-38 266 219
-0.076106943 0.81900001 0.030155579 1.5391513e-38 267 219
-0.074488603 0.81699997 0.030081939 1.4931611e-38 268 219
-0.073056139 0.81699997 0.030081939 1.4839057e-38 269 219
-0.071623661 0.81699997 0.030081939 1.4837233e-38 270 219
-0.07019119 0.81699997 0.030081939 1.4191863e-38 271 219
-0.068758719 0.81699997 0.030081939 1.3455365e-38 272 219
-0.06732624 0.81699997 0.030081939 1.2441213e-38 273 219
-0.065893769 0.81699997 0.030081939 1.2070306e-38 274 219
-0.064461298 0.81699997 0.030081939 1.1977751e-38 275 219
-0.063183114 0.81900001 0.030155579 1.1608638e-38 276 219
-0.061747137 0.81900001 0.030155579 1.1424247e-38 277 219
-0.060311157 0.81900001 0.030155579 1.1148383e-38 278 219
-0.058875177 0.81900001 0.030155579 1.1056186e-38 279 219
-0.057439201 0.81900001 0.030155579 1.059701e-38 280 219
-0.05613998 0.82099998 0.030229218 1.059701e-38 281 219
-0.05470049 0.82099998 0.030229218 1.0504464e-38 282 219
-0.053261004 0.82099998 0.030229218 1.0504464e-38 283 219
-0.051821519 0.82099998 0.030229218 1.0228966e-38 284 219
-0.050504766 0.82300001 0.03030286 1.0044575e-38 285 219
-0.049180996 0.82499999 0.030376498 9.8616155e-39 286 219
-0.047734499 0.82499999 0.030376498 9.6768655e-39 287 219
-0.046287999 0.82499999 0.030376498 9.3999311e-39 288 219
-0.044841498 0.82499999 0.030376498 9.1233442e-39 289 219
-0.043394998 0.82499999 0.030376498 8.4787189e-39 290 219
-0.041948497 0.82499999 0.030376498 7.9255465e-39 291 219
0.052452717 0.83099997 0.030597419 6.9164491e-39 356 219
0.053779993 0.829 0.030523779 8.9447529e-39 357 219
0.055100251 0.82700002 0.030450139 1.0601008e-38 358 219
0.056550261 0.82700002 0.030450139 1.0693203e-38 359 219
0.057719734 0.82300001 0.03030286 1.1153799e-38 360 219
0.059162725 0.82300001 0.03030286 1.1337832e-38 361 219
0.060458437 0.82099998 0.030229218 1.1522223e-38 362 219
0.061747137 0.81900001 0.030155579 1.1706973e-38 363 219
0.063183114 0.81900001 0.030155579 1.1891731e-38 364 219
0.064461298 0.81699997 0.030081939 1.2352708e-38 365 219
0.065732464 0.815 0.030008299 1.2630005e-38 366 219
0.066996619 0.81300002 0.02993466 1.2998428e-38 367 219
0.068422079 0.81300002 0.02993466 1.3183176e-38 368 219
0.069847539 0.81300002 0.02993466 1.3367568e-38 369 219
0.071272999 0.81300002 0.02993466 1.4010066e-38 370 219
0.072698459 0.81300002 0.02993466 1.4194097e-38 371 219
0.074123919 0.81300002 0.02993466 1.419553e-38 372 219
0.075549379 0.81300002 0.02993466 1.419553e-38 373 219
0.076974839 0.81300002 0.02993466 1.4380271e-38 374 219
0.078400299 0.81300002 0.02993466 1.4103685e-38 375 219
0.079825759 0.81300002 0.02993466 1.3919999e-38 376 219
0.081051342 0.81099999 0.02986102 1.3735249e-38 377 219
0.082473285 0.81099999 0.02986102 1.373416e-38 378 219
0.084102139 0.81300002 0.02993466 1.3549769e-38 379 219
0.085527599 0.81300002 0.02993466 1.336573e-38 380 219
0.086953059 0.81300002 0.02993466 1.2812557e-38 381 219
0.088378519 0.81300002 0.02993466 1.0879708e-38 382 219
0.089583054 0.81099999 0.02986102 9.2201866e-39 383 219
0.091005012 0.81099999 0.02986102 1.1527303e-38 384 219
0.092426963 0.81099999 0.02986102 1.475415e-38 385 219
-0.088378519 0.81300002 0.0285092 1.2268072e-38 258 220
-0.086953059 0.81300002 0.0285092 1.1622703e-38 259 220
-0.085527599 0.81300002 0.0285092 1.382958e-38 260 220
-0.084515922 0.81699997 0.028649466 1.4013611e-38 261 220
-0.083286837 0.81900001 0.0287196 1.4564974e-38 262 220
-0.082050733 0.82099998 0.028789733 1.4749366e-38 263 220
-0.080611244 0.82099998 0.028789733 1.5300018e-38 264 220
-0.079171762 0.82099998 0.028789733 1.5207823e-38 265 220
-0.077542923 0.81900001 0.0287196 1.5574807e-38 266 220
-0.076106943 0.81900001 0.0287196 1.5390416e-38 267 220
-0.074488603 0.81699997 0.028649466 1.5021987e-38 268 220
-0.073056139 0.81699997 0.028649466 1.4007833e-38 269 220
-0.071623661 0.81699997 0.028649466 1.3177704e-38 270 220
-0.07019119 0.81699997 0.028649466 1.2163552e-38 271 220
-0.068758719 0.81699997 0.028649466 1.1702947e-38 272 220
-0.06732624 0.81699997 0.028649466 1.1426001e-38 273 220
-0.065893769 0.81699997 0.028649466 1.1976685e-38 274 220
-0.064461298 0.81699997 0.028649466 1.1699739e-38 275 220
-0.063183114 0.81900001 0.0287196 1.1240569e-38 276 220
-0.061747137 0.81900001 0.0287196 1.1055817e-38 277 220
-0.060311157 0.81900001 0.0287196 1.0964341e-38 278 220
-0.059018951 0.82099998 0.028789733 1.078031e-38 279 220
-0.057719734 0.82300001 0.028859867 1.0504812e-38 280 220
-0.056276739 0.82300001 0.028859867 1.0412616e-38 281 220
-0.054833744 0.82300001 0.028859867 1.0136758e-38 282 220
-0.053390753 0.82300001 0.028859867 1.0044562e-38 283 220
-0.052073997 0.82499999 0.028929999 9.9520133e-39 284 220
-0.0506275 0.82499999 0.028929999 9.8594575e-39 285 220
-0.049180996 0.82499999 0.028929999 9.4888855e-39 286 220
-0.047734499 0.82499999 0.028929999 8.7513205e-39 287 220
-0.046287999 0.82499999 0.028929999 8.7495423e-39 288 220
0.053909738 0.83099997 0.029140398 7.0975991e-39 357 220
0.055233505 0.829 0.029070266 8.2082571e-39 358 220
0.056550261 0.82700002 0.029000133 9.4068003e-39 359 220
0.057859998 0.82499999 0.028929999 1.1518638e-38 360 220
0.059162725 0.82300001 0.028859867 1.1979258e-38 361 220
0.060458437 0.82099998 0.028789733 1.1521857e-38 362 220
0.061747137 0.81900001 0.0287196 1.1614053e-38 363 220
0.063183114 0.81900001 0.0287196 1.1889919e-38 364 220
0.064461298 0.81699997 0.028649466 1.1982115e-38 365 220
0.065732464 0.815 0.028579332 1.2627838e-38 366 220
0.066996619 0.81300002 0.0285092 1.2996261e-38 367 220
0.068422079 0.81300002 0.0285092 1.3273201e-38 368 220
0.069847539 0.81300002 0.0285092 1.3549787e-38 369 220
0.071272999 0.81300002 0.0285092 1.4100091e-38 370 220
0.072698459 0.81300002 0.0285092 1.4192286e-38 371 220
0.074123919 0.81300002 0.0285092 1.4376678e-38 372 220
0.075549379 0.81300002 0.0285092 1.4561069e-38 373 220
0.076974839 0.81300002 0.0285092 1.4469945e-38 374 220
0.078400299 0.81300002 0.0285092 1.437775e-38 375 220
0.079825759 0.81300002 0.0285092 1.4102592e-38 376 220
0.081051342 0.81099999 0.028439065 1.3733811e-38 377 220
0.082473285 0.81099999 0.028439065 1.3549415e-38 378 220
0.084102139 0.81300002 0.0285092 1.345722e-38 379 220
0.085527599 0.81300002 0.0285092 1.2629254e-38 380 220
0.086953059 0.81300002 0.0285092 1.2260832e-38 381 220
0.088378519 0.81300002 0.0285092 1.0969753e-38 382 220
0.089583054 0.81099999 0.028439065 9.4946225e-39 383 220
0.091005012 0.81099999 0.028439065 1.1251795e-38 384 220
0.092426963 0.81099999 0.028439065 1.4570837e-38 385 220
-0.090024896 0.815 0.027150365 1.2639063e-38 257 221
-0.088378519 0.81300002 0.02708374 1.1529046e-38 258 221
-0.086953059 0.81300002 0.02708374 1.208222e-38 259 221
-0.085527599 0.81300002 0.02708374 1.3095252e-38 260 221
-0.084515922 0.81699997 0.027216991 1.3187447e-38 261 221
-0.083286837 0.81900001 0.027283618 1.3922849e-38 262 221
-0.082050733 0.82099998 0.027350245 1.410724e-38 263 221
-0.080414876 0.81900001 0.027283618 1.474865e-38 264 221
-0.078978904 0.81900001 0.027283618 1.474865e-38 265 221
-0.077542923 0.81900001 0.027283618 1.5114552e-38 266 221
-0.076106943 0.81900001 0.027283618 1.4653933e-38 267 221
-0.074488603 0.81699997 0.027216991 1.3639052e-38 268 221
-0.073056139 0.81699997 0.027216991 1.2993683e-38 269 221
-0.071623661 0.81699997 0.027216991 1.2438732e-38 270 221
-0.07019119 0.81699997 0.027216991 1.2162147e-38 271 221
-0.068758719 0.81699997 0.027216991 1.1793755e-38 272 221
-0.06732624 0.81699997 0.027216991 1.1240581e-38 273 221
-0.065893769 0.81699997 0.027216991 1.1240581e-38 274 221
-0.064461298 0.81699997 0.027216991 1.1148386e-38 275 221
-0.063183114 0.81900001 0.027283618 1.1056539e-38 276 221
-0.061747137 0.81900001 0.027283618 1.0964344e-38 277 221
-0.060458437 0.82099998 0.027350245 1.0505167e-38 278 221
-0.059018951 0.82099998 0.027350245 1.0412972e-38 279 221
-0.057719734 0.82300001 0.027416872 1.0045281e-38 280 221
-0.056276739 0.82300001 0.027416872 9.7686954e-39 281 221
-0.054833744 0.82300001 0.027416872 9.3088103e-39 282 221
-0.053520497 0.82499999 0.027483499 8.9400292e-39 283 221
-0.052073997 0.82499999 0.027483499 8.2039117e-39 284 221
-0.0506275 0.82499999 0.027483499 7.7425734e-39 285 221
-0.049300224 0.82700002 0.027550125 7.2801771e-39 286 221
0.05668702 0.829 0.027616752 8.114272e-39 359 221
0.058000267 0.82700002 0.027550125 9.8641715e-39 360 221
0.059306499 0.82499999 0.027483499 1.0601737e-38 361 221
0.060458437 0.82099998 0.027350245 1.0878304e-38 362 221
0.061747137 0.81900001 0.027283618 1.0970501e-38 363 221
0.06302882 0.81699997 0.027216991 1.152151e-38 364 221
0.064461298 0.81699997 0.027216991 1.1797736e-38 365 221
0.065732464 0.815 0.027150365 1.1615867e-38 366 221
0.067161433 0.815 0.027150365 1.1984649e-38 367 221
0.068422079 0.81300002 0.02708374 1.2536738e-38 368 221
0.069847539 0.81300002 0.02708374 1.2812964e-38 369 221
0.071272999 0.81300002 0.02708374 1.3180668e-38 370 221
0.072698459 0.81300002 0.02708374 1.3273222e-38 371 221
0.074123919 0.81300002 0.02708374 1.3640574e-38 372 221
0.075549379 0.81300002 0.02708374 1.3733129e-38 373 221
0.076974839 0.81300002 0.02708374 1.3733479e-38 374 221
0.078400299 0.81300002 0.02708374 1.3641283e-38 375 221
0.079825759 0.81300002 0.02708374 1.3549431e-38 376 221
0.081051342 0.81099999 0.027017111 1.33654e-38 377 221
0.082473285 0.81099999 0.027017111 1.3181356e-38 378 221
0.084102139 0.81300002 0.02708374 1.2904768e-38 379 221
0.085527599 0.81300002 0.02708374 1.2444866e-38 380 221
0.086953059 0.81300002 0.02708374 1.1615107e-38 381 221
0.088378519 0.81300002 0.02708374 9.5900677e-39 382 221
0.089583054 0.81099999 0.027017111 7.9301862e-39 383 221
0.091005012 0.81099999 0.027017111 1.1526231e-38 384 221
0.092426963 0.81099999 0.027017111 1.5121859e-38 385 221
-0.090024896 0.815 0.025721399 1.1162113e-38 257 222
-0.088595927 0.815 0.025721399 1.1803459e-38 258 222
-0.087166965 0.815 0.025721399 1.2356633e-38 259 222
-0.085948393 0.81699997 0.025784519 1.2910138e-38 260 222
-0.084722817 0.81900001 0.02584764 1.3094889e-38 261 222
-0.083286837 0.81900001 0.02584764 1.4289462e-38 262 222
-0.082050733 0.82099998 0.025910759 1.4566051e-38 263 222
-0.080414876 0.81900001 0.02584764 1.5115271e-38 264 222
-0.078978904 0.81900001 0.02584764 1.4654652e-38 265 222
-0.077542923 0.81900001 0.02584764 1.4191879e-38 266 222
-0.076106943 0.81900001 0.02584764 1.3361759e-38 267 222
-0.074670963 0.81900001 0.02584764 1.1977751e-38 268 222
-0.073234983 0.81900001 0.02584764 1.1609329e-38 269 222
-0.071799003 0.81900001 0.02584764 1.1791941e-38 270 222
-0.07019119 0.81699997 0.025784519 1.1791941e-38 271 222
-0.068758719 0.81699997 0.025784519 1.1423897e-38 272 222
-0.06732624 0.81699997 0.025784519 1.1239865e-38 273 222
-0.065893769 0.81699997 0.025784519 1.1148386e-38 274 222
-0.064619094 0.81900001 0.02584764 1.1056189e-38 275 222
-0.063183114 0.81900001 0.02584764 1.096399e-38 276 222
-0.061747137 0.81900001 0.02584764 1.0779959e-38 277 222
-0.060458437 0.82099998 0.025910759 1.0411547e-38 278 222
-0.059162725 0.82300001 0.025973879 1.0227155e-38 279 222
-0.057719734 0.82300001 0.025973879 9.7672647e-39 280 222
-0.056276739 0.82300001 0.025973879 9.3062879e-39 281 222
-0.054966997 0.82499999 0.026036998 8.8438833e-39 282 222
-0.053650245 0.82700002 0.02610012 8.2907095e-39 283 222
-0.052200239 0.82700002 0.02610012 7.1854606e-39 284 222
-0.050872963 0.829 0.026163239 6.5400911e-39 285 222
0.060458437 0.82099998 0.025910759 1.0692485e-38 362 222
0.061747137 0.81900001 0.02584764 1.096907e-38 363 222
0.06302882 0.81699997 0.025784519 1.1336392e-38 364 222
0.064461298 0.81699997 0.025784519 1.1612621e-38 365 222
0.065732464 0.815 0.025721399 1.1614777e-38 366 222
0.067161433 0.815 0.025721399 1.1799168e-38 367 222
0.068422079 0.81300002 0.02565828 1.2626049e-38 368 222
0.069847539 0.81300002 0.02565828 1.2810799e-38 369 222
0.071272999 0.81300002 0.02565828 1.2903348e-38 370 222
0.072698459 0.81300002 0.02565828 1.3087741e-38 371 222
0.074123919 0.81300002 0.02565828 1.3363252e-38 372 222
0.075549379 0.81300002 0.02565828 1.3455447e-38 373 222
0.076785475 0.81099999 0.025595158 1.3731311e-38 374 222
0.078207433 0.81099999 0.025595158 1.3731311e-38 375 222
0.079629384 0.81099999 0.025595158 1.3456151e-38 376 222
0.081051342 0.81099999 0.025595158 1.3363955e-38 377 222
0.082473285 0.81099999 0.025595158 1.2904765e-38 378 222
0.083895244 0.81099999 0.025595158 1.2812569e-38 379 222
0.085317194 0.81099999 0.025595158 1.1800938e-38 380 222
0.086953059 0.81300002 0.02565828 1.0971178e-38 381 222
0.088378519 0.81300002 0.02565828 8.9443452e-39 382 222
0.089583054 0.81099999 0.025595158 7.7454418e-39 383 222
0.091005012 0.81099999 0.025595158 1.2170522e-38 384 222
0.092426963 0.81099999 0.025595158 1.5489566e-38 385 222
-0.090024896 0.815 0.024292432 9.4136232e-39 257 223
-0.088595927 0.815 0.024292432 1.1435034e-38 258 223
-0.087166965 0.815 0.024292432 1.1988206e-38 259 223
-0.085948393 0.81699997 0.024352046 1.1806678e-38 260 223
-0.084722817 0.81900001 0.02441166 1.2452047e-38 261 223
-0.083286837 0.81900001 0.02441166 1.3920697e-38 262 223
-0.082050733 0.82099998 0.024471272 1.3920697e-38 263 223
-0.080414876 0.81900001 0.02441166 1.4284793e-38 264 223
-0.078978904 0.81900001 0.02441166 1.3362838e-38 265 223
-0.077542923 0.81900001 0.02441166 1.2440883e-38 266 223
-0.076106943 0.81900001 0.02441166 1.1887711e-38 267 223
-0.074670963 0.81900001 0.02441166 1.1240932e-38 268 223
-0.073234983 0.81900001 0.02441166 1.1240932e-38 269 223
-0.071799003 0.81900001 0.02441166 1.1423894e-38 270 223
-0.070363015 0.81900001 0.02441166 1.1239863e-38 271 223
-0.068927035 0.81900001 0.02441166 1.1148383e-38 272 223
-0.067491055 0.81900001 0.02441166 1.1148383e-38 273 223
-0.066055074 0.81900001 0.02441166 1.0965071e-38 274 223
-0.064619094 0.81900001 0.02441166 1.0872874e-38 275 223
-0.063183114 0.81900001 0.02441166 1.0688127e-38 276 223
-0.061747137 0.81900001 0.02441166 1.04119e-38 277 223
-0.060458437 0.82099998 0.024471272 1.0317915e-38 278 223
-0.059306499 0.82499999 0.024590498 9.6725453e-39 279 223
-0.057859998 0.82499999 0.024590498 8.0159205e-39 280 223
-0.056550261 0.82700002 0.024650112 7.5549423e-39 281 223
-0.055233505 0.829 0.024709726 6.7259229e-39 282 223
0.061596353 0.81699997 0.024352046 8.945462e-39 363 223
0.06302882 0.81699997 0.024352046 1.0508449e-38 364 223
0.064461298 0.81699997 0.024352046 1.0692841e-38 365 223
0.065732464 0.815 0.024292432 1.1062322e-38 366 223
0.067161433 0.815 0.024292432 1.1246715e-38 367 223
0.068422079 0.81300002 0.02423282 1.1890638e-38 368 223
0.069847539 0.81300002 0.02423282 1.2075031e-38 369 223
0.071272999 0.81300002 0.02423282 1.2626403e-38 370 223
0.072698459 0.81300002 0.02423282 1.2810794e-38 371 223
0.074123919 0.81300002 0.02423282 1.2903348e-38 372 223
0.075549379 0.81300002 0.02423282 1.2995544e-38 373 223
0.076785475 0.81099999 0.024173206 1.3178853e-38 374 223
0.078207433 0.81099999 0.024173206 1.3178853e-38 375 223
0.079629384 0.81099999 0.024173206 1.2995891e-38 376 223
0.081051342 0.81099999 0.024173206 1.2995891e-38 377 223
0.082473285 0.81099999 0.024173206 1.2628541e-38 378 223
0.083895244 0.81099999 0.024173206 1.2443791e-38 379 223
0.085317194 0.81099999 0.024173206 1.1432882e-38 380 223
0.086953059 0.81300002 0.02423282 1.0603121e-38 381 223
0.088378519 0.81300002 0.02423282 9.0354618e-39 382 223
0.089803979 0.81300002 0.02423282 8.482288e-39 383 223
0.091005012 0.81099999 0.024173206 1.2722621e-38 384 223
0.092426963 0.81099999 0.024173206 1.5581046e-38 385 223
-0.090245813 0.81699997 0.022919571 7.3900011e-39 257 224
-0.088813342 0.81699997 0.022919571 1.0882232e-38 258 224
-0.087380864 0.81699997 0.022919571 1.1342851e-38 259 224
-0.086158797 0.81900001 0.022975679 1.1437548e-38 260 224
-0.084722817 0.81900001 0.022975679 1.1990722e-38 261 224
-0.083286837 0.81900001 0.022975679 1.3551191e-38 262 224
-0.082050733 0.82099998 0.023031786 1.3090214e-38 263 224
-0.080414876 0.81900001 0.022975679 1.2810736e-38 264 224
-0.078978904 0.81900001 0.022975679 1.1980976e-38 265 224
-0.077542923 0.81900001 0.022975679 1.1243436e-38 266 224
-0.076106943 0.81900001 0.022975679 1.1059045e-38 267 224
-0.074670963 0.81900001 0.022975679 1.0872877e-38 268 224
-0.073234983 0.81900001 0.022975679 1.0965074e-38 269 224
-0.071799003 0.81900001 0.022975679 1.1056183e-38 270 224
-0.070363015 0.81900001 0.022975679 1.1056183e-38 271 224
-0.068927035 0.81900001 0.022975679 1.0873227e-38 272 224
-0.067491055 0.81900001 0.022975679 1.0873227e-38 273 224
-0.066055074 0.81900001 0.022975679 1.059701e-38 274 224
-0.064619094 0.81900001 0.022975679 1.0504814e-38 275 224
-0.063337415 0.82099998 0.023031786 1.0319351e-38 276 224
-0.061047558 0.829 0.023256212 9.1211792e-39 278 224
-0.059594043 0.829 0.023256212 8.3832555e-39 279 224
0.063183114 0.81900001 0.022975679 9.1273253e-39 364 224
0.064461298 0.81699997 0.022919571 9.5886636e-39 365 224
0.065732464 0.815 0.022863466 1.0785387e-38 366 224
0.067161433 0.815 0.022863466 1.0969418e-38 367 224
0.068422079 0.81300002 0.02280736 1.1063756e-38 368 224
0.069847539 0.81300002 0.02280736 1.1432178e-38 369 224
0.071272999 0.81300002 0.02280736 1.2075027e-38 370 224
0.072698459 0.81300002 0.02280736 1.2259778e-38 371 224
0.074123919 0.81300002 0.02280736 1.2535639e-38 372 224
0.075363517 0.81099999 0.022751253 1.2627835e-38 373 224
0.076785475 0.81099999 0.022751253 1.2811497e-38 374 224
0.078207433 0.81099999 0.022751253 1.2811497e-38 375 224
0.079629384 0.81099999 0.022751253 1.2628541e-38 376 224
0.081051342 0.81099999 0.022751253 1.2628541e-38 377 224
0.082473285 0.81099999 0.022751253 1.2444866e-38 378 224
0.083895244 0.81099999 0.022751253 1.2076083e-38 379 224
0.085317194 0.81099999 0.022751253 1.1799143e-38 380 224
0.086953059 0.81300002 0.02280736 1.0508404e-38 381 224
0.088378519 0.81300002 0.02280736 8.3926119e-39 382 224
0.089803979 0.81300002 0.02280736 8.9457857e-39 383 224
0.091229439 0.81300002 0.02280736 1.3368347e-38 384 224
0.092654899 0.81300002 0.02280736 1.5396651e-38 385 224
-0.090245813 0.81699997 0.021487098 4.7224487e-39 257 225
-0.088813342 0.81699997 0.021487098 9.9595635e-39 258 225
-0.087380864 0.81699997 0.021487098 1.0974074e-38 259 225
-0.086158797 0.81900001 0.021539699 1.1526147e-38 260 225
-0.084722817 0.81900001 0.021539699 1.1526147e-38 261 225
-0.083286837 0.81900001 0.021539699 1.2075692e-38 262 225
-0.082050733 0.82099998 0.021592299 1.1430323e-38 263 225
-0.080414876 0.81900001 0.021539699 1.1059743e-38 264 225
-0.078978904 0.81900001 0.021539699 1.087535e-38 265 225
-0.077542923 0.81900001 0.021539699 1.151643e-38 266 225
-0.076106943 0.81900001 0.021539699 1.1331679e-38 267 225
-0.074670963 0.81900001 0.021539699 1.0781031e-38 268 225
-0.073234983 0.81900001 0.021539699 1.0781031e-38 269 225
-0.071799003 0.81900001 0.021539699 1.0873221e-38 270 225
-0.070363015 0.81900001 0.021539699 1.0873221e-38 271 225
-0.068927035 0.81900001 0.021539699 1.0781745e-38 272 225
-0.067655869 0.82099998 0.021592299 1.0781745e-38 273 225
-0.066216379 0.82099998 0.021592299 1.0411897e-38 274 225
-0.064776897 0.82099998 0.021592299 1.0227504e-38 275 225
-0.06349171 0.82300001 0.0216449 9.3966843e-39 276 225
0.064619094 0.81900001 0.021539699 8.3912036e-39 365 225
0.065893769 0.81699997 0.021487098 1.0047468e-38 366 225
0.067161433 0.815 0.021434501 1.0600642e-38 367 225
0.068422079 0.81300002 0.0213819 1.1154152e-38 368 225
0.069847539 0.81300002 0.0213819 1.1154152e-38 369 225
0.071272999 0.81300002 0.0213819 1.2072866e-38 370 225
0.072698459 0.81300002 0.0213819 1.2441288e-38 371 225
0.074123919 0.81300002 0.0213819 1.262639e-38 372 225
0.075363517 0.81099999 0.021329299 1.2994812e-38 373 225
0.076785475 0.81099999 0.021329299 1.2537059e-38 374 225
0.078207433 0.81099999 0.021329299 1.2444863e-38 375 225
0.079629384 0.81099999 0.021329299 1.2444863e-38 376 225
0.081051342 0.81099999 0.021329299 1.2168636e-38 377 225
0.082473285 0.81099999 0.021329299 1.207645e-38 378 225
0.083895244 0.81099999 0.021329299 1.1892418e-38 379 225
0.085317194 0.81099999 0.021329299 1.087936e-38 380 225
0.086739153 0.81099999 0.021329299 9.3116759e-39 381 225
0.088161096 0.81099999 0.021329299 7.4760674e-39 382 225
0.089583054 0.81099999 0.021329299 8.8590019e-39 383 225
0.091005012 0.81099999 0.021329299 1.38279e-38 384 225
-0.090245813 0.81699997 0.020054625 3.7061458e-39 257 226
-0.088813342 0.81699997 0.020054625 8.0270706e-39 258 226
-0.087380864 0.81699997 0.020054625 9.2256138e-39 259 226
-0.086158797 0.81900001 0.020103719 1.1338871e-38 260 226
-0.084722817 0.81900001 0.020103719 1.097009e-38 261 226
-0.083286837 0.81900001 0.020103719 1.0877152e-38 262 226
-0.082050733 0.82099998 0.020152811 1.0416174e-38 263 226
-0.080611244 0.82099998 0.020152811 1.0231092e-38 264 226
-0.079171762 0.82099998 0.020152811 1.0231092e-38 265 226
-0.07773228 0.82099998 0.020152811 1.0413338e-38 266 226
-0.07629279 0.82099998 0.020152811 1.0413338e-38 267 226
-0.074853301 0.82099998 0.020152811 1.0781028e-38 268 226
-0.073413812 0.82099998 0.020152811 1.0781028e-38 269 226
-0.07197433 0.82099998 0.020152811 1.0781747e-38 270 226
-0.070534848 0.82099998 0.020152811 1.0597716e-38 271 226
-0.069095351 0.82099998 0.020152811 1.0413688e-38 272 226
-0.067820683 0.82300001 0.020201907 1.0045265e-38 273 226
-0.066377692 0.82300001 0.020201907 9.7672647e-39 274 226
-0.064934701 0.82300001 0.020201907 9.1218953e-39 275 226
0.066055074 0.81900001 0.020103719 8.483758e-39 366 226
0.067161433 0.815 0.020005532 9.1291274e-39 367 226
0.068422079 0.81300002 0.01995644 1.0508446e-38 368 226
0.069847539 0.81300002 0.01995644 1.0508446e-38 369 226
0.071272999 0.81300002 0.01995644 1.0786108e-38 370 226
0.072698459 0.81300002 0.01995644 1.1339282e-38 371 226
0.074123919 0.81300002 0.01995644 1.207575e-38 372 226
0.075363517 0.81099999 0.019907346 1.2260141e-38 373 226
0.076785475 0.81099999 0.019907346 1.2353746e-38 374 226
0.078207433 0.81099999 0.019907346 1.2261551e-38 375 226
0.079629384 0.81099999 0.019907346 1.1986037e-38 376 226
0.081051342 0.81099999 0.019907346 1.1893842e-38 377 226
0.082473285 0.81099999 0.019907346 1.2077154e-38 378 226
0.083895244 0.81099999 0.019907346 1.170873e-38 379 226
0.085317194 0.81099999 0.019907346 1.1612607e-38 380 226
0.086525239 0.80900002 0.019858252 9.3073571e-39 381 226
0.087943695 0.80900002 0.019858252 6.9218371e-39 382 226
0.089583054 0.81099999 0.019907346 9.3189235e-39 383 226
0.091005012 0.81099999 0.019907346 1.3001029e-38 384 226
-0.089030758 0.81900001 0.018667741 5.2637311e-39 258 227
-0.087594777 0.81900001 0.018667741 6.830698e-39 259 227
-0.086158797 0.81900001 0.018667741 8.9428962e-39 260 227
-0.084722817 0.81900001 0.018667741 8.8507006e-39 261 227
-0.083286837 0.81900001 0.018667741 8.8503096e-39 262 227
-0.082050733 0.82099998 0.018713325 9.0347009e-39 263 227
-0.080611244 0.82099998 0.018713325 1.0045616e-38 264 227
-0.079171762 0.82099998 0.018713325 1.0230007e-38 265 227
-0.07773228 0.82099998 0.018713325 1.0230004e-38 266 227
-0.07629279 0.82099998 0.018713325 1.050659e-38 267 227
-0.074853301 0.82099998 0.018713325 1.0598067e-38 268 227
-0.073413812 0.82099998 0.018713325 1.0782098e-38 269 227
-0.07197433 0.82099998 0.018713325 1.0688833e-38 270 227
-0.070534848 0.82099998 0.018713325 1.0320052e-38 271 227
-0.069263682 0.82300001 0.018758914 1.0133158e-38 272 227
-0.067985497 0.82499999 0.018804498 8.9346145e-39 273 227
-0.066700302 0.82700002 0.018850086 8.8420938e-39 274 227
0.071272999 0.81300002 0.01853098 1.0508794e-38 370 227
0.072698459 0.81300002 0.01853098 1.1246718e-38 371 227
0.074123919 0.81300002 0.01853098 1.2441644e-38 372 227
0.075363517 0.81099999 0.018485393 1.2994459e-38 373 227
0.076785475 0.81099999 0.018485393 1.2353749e-38 374 227
0.078207433 0.81099999 0.018485393 1.2353749e-38 375 227
0.079629384 0.81099999 0.018485393 1.1895642e-38 376 227
0.081051342 0.81099999 0.018485393 1.1803447e-38 377 227
0.082473285 0.81099999 0.018485393 1.1985684e-38 378 227
0.083688356 0.80900002 0.018439807 1.1893488e-38 379 227
0.085106798 0.80900002 0.018439807 1.1247787e-38 380 227
0.086525239 0.80900002 0.018439807 8.1131356e-39 381 227
0.087943695 0.80900002 0.018439807 7.5621744e-39 382 227
0.089362144 0.80900002 0.018439807 9.6826739e-39 383 227
0.091005012 0.81099999 0.018485393 1.226491e-38 384 227
-0.08802259 0.82300001 0.01731592 7.0007316e-39 259 228
-0.086369194 0.82099998 0.017273838 7.1926506e-39 260 228
-0.084929712 0.82099998 0.017273838 7.745823e-39 261 228
-0.083693616 0.82300001 0.01731592 8.1156565e-39 262 228
-0.082250617 0.82300001 0.01731592 8.3000477e-39 263 228
-0.080807626 0.82300001 0.01731592 9.1269119e-39 264 228
-0.079364628 0.82300001 0.01731592 9.3116633e-39 265 228
-0.077921636 0.82300001 0.01731592 9.8633854e-39 266 228
-0.076478645 0.82300001 0.01731592 9.8633854e-39 267 228
-0.075035654 0.82300001 0.01731592 1.0137824e-38 268 228
-0.073592655 0.82300001 0.01731592 9.7694003e-39 269 228
-0.072324999 0.82499999 0.017357999 9.3073571e-39 270 228
-0.070878498 0.82499999 0.017357999 8.6619877e-39 271 228
-0.069600314 0.82700002 0.017400078 8.5680223e-39 272 228
0.072877295 0.815 0.017147599 1.0692137e-38 371 228
0.074123919 0.81300002 0.01710552 1.1339279e-38 372 228
0.075549379 0.81300002 0.01710552 1.1708422e-38 373 228
0.076785475 0.81099999 0.017063441 1.2353759e-38 374 228
0.078207433 0.81099999 0.017063441 1.2353759e-38 375 228
0.079629384 0.81099999 0.017063441 1.21715e-38 376 228
0.080851458 0.80900002 0.01702136 1.21715e-38 377 228
0.082269907 0.80900002 0.01702136 1.2354447e-38 378 228
0.083688356 0.80900002 0.01702136 1.2077859e-38 379 228
0.085106798 0.80900002 0.01702136 1.124814e-38 380 228
0.086311333 0.80699998 0.016979279 8.1134887e-39 381 228
0.08772628 0.80699998 0.016979279 7.0100853e-39 382 228
0.089362144 0.80900002 0.01702136 8.854358e-39 383 228
-0.086789995 0.82499999 0.015911499 5.3498072e-39 260 229
-0.085343495 0.82499999 0.015911499 6.9171315e-39 261 229
-0.083896995 0.82499999 0.015911499 8.2060346e-39 262 229
-0.082450494 0.82499999 0.015911499 8.6670128e-39 263 229
-0.081004001 0.82499999 0.015911499 9.1272679e-39 264 229
-0.079557501 0.82499999 0.015911499 9.4038562e-39 265 229
-0.076664492 0.82499999 0.015911499 9.5864524e-39 267 229
-0.075217992 0.82499999 0.015911499 9.8591072e-39 268 229
0.074123919 0.81300002 0.01568006 1.1612623e-38 372 229
0.075549379 0.81300002 0.01568006 1.2257993e-38 373 229
0.076785475 0.81099999 0.015641484 1.2905495e-38 374 229
0.078207433 0.81099999 0.015641484 1.3182081e-38 375 229
0.079629384 0.81099999 0.015641484 1.2356262e-38 376 229
0.080851458 0.80900002 0.015602913 1.2264066e-38 377 229
0.082066514 0.80699998 0.015564339 1.2446658e-38 378 229
0.083481453 0.80699998 0.015564339 1.2078236e-38 379 229
0.084896393 0.80699998 0.015564339 1.1153799e-38 380 229
0.086311333 0.80699998 0.015564339 8.2953758e-39 381 229
0.08772628 0.80699998 0.015564339 6.917168e-39 382 229
0.08914122 0.80699998 0.015564339 8.4848524e-39 383 229
0.074123919 0.81300002 0.0142546 1.0968699e-38 372 230
0.075549379 0.81300002 0.0142546 1.1521873e-38 373 230
0.076785475 0.81099999 0.014219533 1.2998412e-38 374 230
0.078207433 0.81099999 0.014219533 1.3090608e-38 375 230
0.079629384 0.81099999 0.014219533 1.2906917e-38 376 230
0.080851458 0.80900002 0.014184467 1.2906917e-38 377 230
0.082066514 0.80699998 0.014149399 1.2906198e-38 378 230
0.083274566 0.80500001 0.014114333 1.2260829e-38 379 230
0.084685996 0.80500001 0.014114333 1.1153796e-38 380 230
0.086097427 0.80500001 0.014114333 8.3879274e-39 381 230
0.087508865 0.80500001 0.014114333 8.1099532e-39 382 230
0.08914122 0.80699998 0.014149399 9.6772775e-39 383 230
0.075549379 0.81300002 0.01282914 1.0785755e-38 373 231
0.076974839 0.81300002 0.01282914 1.2721472e-38 374 231
0.078207433 0.81099999 0.012797579 1.2905864e-38 375 231
0.079433009 0.80900002 0.012766019 1.2723255e-38 376 231
0.080651581 0.80699998 0.01273446 1.2723255e-38 377 231
0.081863128 0.80500001 0.012702899 1.3181712e-38 378 231
0.083274566 0.80500001 0.012702899 1.2444147e-38 379 231
0.084685996 0.80500001 0.012702899 1.1244913e-38 380 231
0.086097427 0.80500001 0.012702899 8.479044e-39 381 231
0.087508865 0.80500001 0.012702899 7.7436846e-39 382 231
0.076974839 0.81300002 0.01140368 1.2259794e-38 374 232
0.078207433 0.81099999 0.011375627 1.2720413e-38 375 232
0.079236634 0.80699998 0.011319519 1.3089526e-38 376 232
0.080451705 0.80500001 0.011291467 1.3182081e-38 377 232
0.081863128 0.80500001 0.011291467 1.3089879e-38 378 232
0.083274566 0.80500001 0.011291467 1.2536706e-38 379 232
0.084685996 0.80500001 0.011291467 1.1337109e-38 380 232
0.086097427 0.80500001 0.011291467 8.2028173e-39 381 232
0.087508865 0.80500001 0.011291467 7.5603696e-39 382 232
0.088920295 0.80500001 0.011291467 1.0049652e-38 383 232
0.076974839 0.81300002 0.0099782199 1.1247829e-38 374 233
0.078207433 0.81099999 0.009953673 1.1708447e-38 375 233
0.079040267 0.80500001 0.0098800333 1.2537454e-38 376 233
0.080451705 0.80500001 0.0098800333 1.2629649e-38 377 233
0.081863128 0.80500001 0.0098800333 1.2996962e-38 378 233
0.08306767 0.80299997 0.0098554865 1.2444147e-38 379 233
0.084475599 0.80299997 0.0098554865 1.1704802e-38 380 233
0.085883521 0.80299997 0.0098554865 9.031129e-39 381 233
0.087291449 0.80299997 0.0098554865 9.2159322e-39 382 233
0.088699371 0.80299997 0.0098554865 1.1613017e-38 383 233
0.076974839 0.81300002 0.0085527599 1.1613365e-38 374 234
0.077821694 0.80699998 0.0084896395 1.2074343e-38 375 234
0.079040267 0.80500001 0.0084686 1.262785e-38 376 234
0.080451705 0.80500001 0.0084686 1.2812243e-38 377 234
0.081659742 0.80299997 0.0084475596 1.2720752e-38 378 234
0.08306767 0.80299997 0.0084475596 1.2536002e-38 379 234
0.084475599 0.80299997 0.0084475596 1.1980686e-38 380 234
0.085776575 0.80199999 0.0084370393 9.767992e-39 381 234
0.087182745 0.80199999 0.0084370393 9.8638212e-39 382 234
0.088588916 0.80199999 0.0084370393 1.2076158e-38 383 234
0.077628836 0.80500001 0.0070571667 1.1247826e-38 375 235
0.079040267 0.80500001 0.0070571667 1.2167245e-38 376 235
0.08025182 0.80299997 0.0070396326 1.2443832e-38 377 235
0.081659742 0.80299997 0.0070396326 1.2811513e-38 378 235
0.08306767 0.80299997 0.0070396326 1.244309e-38 379 235
0.084475599 0.80299997 0.0070396326 1.1980683e-38 380 235
0.085776575 0.80199999 0.0070308661 1.0228966e-38 381 235
0.087182745 0.80199999 0.0070308661 1.0141847e-38 382 235
0.088588916 0.80199999 0.0070308661 1.2262705e-38 383 235
0.077628836 0.80500001 0.0056457333 1.1430052e-38 375 236
0.079040267 0.80500001 0.0056457333 1.207433e-38 376 236
0.08025182 0.80299997 0.0056317062 1.2442753e-38 377 236
0.081659742 0.80299997 0.0056317062 1.2627131e-38 378 236
0.08306767 0.80299997 0.0056317062 1.244274e-38 379 236
0.084475599 0.80299997 0.0056317062 1.1979977e-38 380 236
0.085776575 0.80199999 0.0056246929 1.0873988e-38 381 236
0.087182745 0.80199999 0.0056246929 1.0879062e-38 382 236
0.088699371 0.80299997 0.0056317062 1.2907366e-38 383 236
0.077628836 0.80500001 0.0042343 1.1061996e-38 375 237
0.078843892 0.80299997 0.0042237798 1.1889582e-38 376 237
0.08025182 0.80299997 0.0042237798 1.2073974e-38 377 237
0.081659742 0.80299997 0.0042237798 1.2441668e-38 378 237
0.08306767 0.80299997 0.0042237798 1.2349472e-38 379 237
0.084475599 0.80299997 0.0042237798 1.1979261e-38 380 237
0.085776575 0.80199999 0.0042185197 1.1426087e-38 381 237
0.087182745 0.80199999 0.0042185197 1.189034e-38 382 237
0.088588916 0.80199999 0.0042185197 1.3826448e-38 383 237
0.078843892 0.80299997 0.0028158531 1.1613002e-38 376 238
0.08025182 0.80299997 0.0028158531 1.1889229e-38 377 238
0.081659742 0.80299997 0.0028158531 1.1797386e-38 378 238
0.08306767 0.80299997 0.0028158531 1.1520801e-38 379 238
0.084370397 0.80199999 0.0028123464 1.1703753e-38 380 238
0.085776575 0.80199999 0.0028123464 1.1150579e-38 381 238
0.086965337 0.80000001 0.0028053334 1.1617347e-38 382 238
0.088367999 0.80000001 0.0028053334 1.3738205e-38 383 238
0.078843892 0.80299997 0.0014079266 1.1519727e-38 376 239
0.080151878 0.80199999 0.0014061732 1.1704118e-38 377 239
0.081558049 0.80199999 0.0014061732 1.1887065e-38 378 239
0.082964227 0.80199999 0.0014061732 1.1702314e-38 379 239
0.084370397 0.80199999 0.0014061732 1.1333538e-38 380 239
0.085562661 0.80000001 0.0014026667 1.0688169e-38 381 239
0.086965337 0.80000001 0.0014026667 1.124857e-38 382 239
0.088367999 0.80000001 0.0014026667 1.419883e-38 383 239
0.089770667 0.80000001 0.0014026667 1.4014474e-38 384 239
0.0787457 0.80199999 -0 1.1611917e-38 376 240
0.080151878 0.80199999 -0 1.1335689e-38 377 240
0.081558049 0.80199999 -0 1.1794512e-38 378 240
0.082757331 0.80000001 -0 1.1149144e-38 379 240
0.08416 0.80000001 -0 1.1055878e-38 380 240
0.085348755 0.79799998 -0 9.9495316e-39 381 240
0.086747915 0.79799998 -0 9.4064752e-39 382 240
0.088147074 0.79799998 -0 1.2080148e-38 383 240
0.089546233 0.79799998 -0 1.3095412e-38 384 240
0.0787457 0.80199999 -0.0014061732 1.1245661e-38 376 241
0.079952002 0.80000001 -0.0014026667 1.1337857e-38 377 241
0.08135467 0.80000001 -0.0014026667 1.1794516e-38 378 241
0.082757331 0.80000001 -0.0014026667 1.0688169e-38 379 241
