# .PCD v.7 - Point Cloud Data file format
FIELDS x y z rgb imX imY
SIZE 4 4 4 4 4 4
TYPE F F F F F F
COUNT 1 1 1 1 1 1
WIDTH 833
HEIGHT 1
VIEWPOINT 0 0 0 1 0 0 0
POINTS 833
DATA ascii
0.040870197 0.66600001 -0.045541082 1.4012529e-38 355 279
0.042037919 0.66600001 -0.045541082 1.3828151e-38 356 279
0.043335386 0.66799998 -0.045677837 1.3551924e-38 357 279
0.044639867 0.67000002 -0.0458146 1.3366825e-38 358 279
0.0458146 0.67000002 -0.0458146 1.3366825e-38 359 279
0.047269866 0.67400002 -0.046088122 1.3366472e-38 360 279
0.048595384 0.676 -0.046224877 1.3366472e-38 361 279
0.049780637 0.676 -0.046224877 1.3183529e-38 362 279
0.051267464 0.68000001 -0.046498399 1.3367921e-38 363 279
0.052459732 0.68000001 -0.046498399 1.3184621e-38 364 279
0.053809796 0.68199998 -0.046635158 1.3184621e-38 365 279
-0.0056632664 0.64600003 -0.045306131 1.7974886e-38 315 280
-0.0045306133 0.64600003 -0.045306131 1.7697522e-38 316 280
-0.00339796 0.64600003 -0.045306131 1.7052153e-38 317 280
-0.0022653067 0.64600003 -0.045306131 1.7786429e-38 318 280
-0.0011326533 0.64600003 -0.045306131 1.7878625e-38 319 280
0 0.64600003 -0.045306131 1.8063727e-38 320 280
0.0011344067 0.64700001 -0.045376267 1.8432149e-38 321 280
0.0022758266 0.64899999 -0.045516532 1.8339234e-38 322 280
0.0034137398 0.64899999 -0.045516532 1.8523626e-38 323 280
0.00454464 0.648 -0.0454464 1.8523982e-38 324 280
0.0056807999 0.648 -0.0454464 1.8523982e-38 325 280
0.0068169599 0.648 -0.0454464 1.8432152e-38 326 280
0.0079653924 0.64899999 -0.045516532 1.8432152e-38 327 280
0.0091033066 0.64899999 -0.045516532 1.8523994e-38 328 280
0.01024122 0.64899999 -0.045516532 1.8431799e-38 329 280
0.011379133 0.64899999 -0.045516532 1.8156656e-38 330 280
0.012517046 0.64899999 -0.045516532 1.7972625e-38 331 280
0.013654959 0.64899999 -0.045516532 1.7788594e-38 332 280
0.014815666 0.64999998 -0.045586664 1.7604563e-38 333 280
0.016004426 0.65200001 -0.045726933 1.7420168e-38 334 280
0.017173899 0.653 -0.045797065 1.7327972e-38 335 280
0.01834688 0.65399998 -0.045867197 1.741837e-38 336 280
0.019493559 0.65399998 -0.045867197 1.7326174e-38 337 280
0.020640239 0.65399998 -0.045867197 1.7050659e-38 338 280
0.021820232 0.65499997 -0.04593733 1.6682237e-38 339 280
0.022968665 0.65499997 -0.04593733 1.6680802e-38 340 280
0.024117097 0.65499997 -0.04593733 1.6680802e-38 341 280
0.025265532 0.65499997 -0.04593733 1.622198e-38 342 280
0.026413966 0.65499997 -0.04593733 1.5852839e-38 343 280
0.027646558 0.65700001 -0.046077598 1.5393663e-38 344 280
0.028798498 0.65700001 -0.046077598 1.5393663e-38 345 280
0.02995044 0.65700001 -0.046077598 1.5300761e-38 346 280
0.031149717 0.65799999 -0.04614773 1.5208564e-38 347 280
0.032352503 0.65899998 -0.046217863 1.4933778e-38 348 280
0.033609647 0.66100001 -0.046358135 1.4841224e-38 349 280
0.0347686 0.66100001 -0.046358135 1.4657546e-38 350 280
0.035981905 0.662 -0.046428263 1.4473154e-38 351 280
0.037198719 0.66299999 -0.046498399 1.4287687e-38 352 280
0.038419038 0.66399997 -0.046568532 1.4195491e-38 353 280
0.039583251 0.66399997 -0.046568532 1.3828148e-38 354 280
0.040870197 0.66600001 -0.046708796 1.3459724e-38 355 280
0.042037919 0.66600001 -0.046708796 1.3367894e-38 356 280
0.043335386 0.66799998 -0.046849065 1.3183863e-38 357 280
0.044639867 0.67000002 -0.046989333 1.309168e-38 358 280
0.0458146 0.67000002 -0.046989333 1.309168e-38 359 280
0.047129598 0.67199999 -0.047129598 1.3091683e-38 360 280
0.048523501 0.67500001 -0.047339998 1.3091683e-38 361 280
0.049780637 0.676 -0.047410134 1.3275725e-38 362 280
0.051267464 0.68000001 -0.047690667 1.3367921e-38 363 280
0.052614026 0.68199998 -0.047830928 1.3367586e-38 364 280
0.053809796 0.68199998 -0.047830928 1.2906609e-38 365 280
-0.00679592 0.64600003 -0.046438787 1.7603172e-38 314 281
-0.0056457333 0.64399999 -0.04629501 1.7510976e-38 315 281
-0.0045165867 0.64399999 -0.04629501 1.787937e-38 316 281
-0.0033874398 0.64399999 -0.04629501 1.787937e-38 317 281
-0.0022653067 0.64600003 -0.046438787 1.8339247e-38 318 281
-0.0011326533 0.64600003 -0.046438787 1.8339247e-38 319 281
0 0.64600003 -0.046438787 1.833995e-38 320 281
0.0011326533 0.64600003 -0.046438787 1.8432505e-38 321 281
0.0022688133 0.64700001 -0.046510674 1.8432499e-38 322 281
0.00340848 0.648 -0.046582561 1.8156272e-38 323 281
0.00454464 0.648 -0.046582561 1.8429984e-38 324 281
0.0056807999 0.648 -0.046582561 1.8429984e-38 325 281
0.0068169599 0.648 -0.046582561 1.8339234e-38 326 281
0.0079531204 0.648 -0.046582561 1.843143e-38 327 281
0.0090892799 0.648 -0.046582561 1.8247039e-38 328 281
0.010225439 0.648 -0.046582561 1.8154842e-38 329 281
0.0113616 0.648 -0.046582561 1.8154839e-38 330 281
0.01249776 0.648 -0.046582561 1.8062643e-38 331 281
0.01363392 0.648 -0.046582561 1.7786779e-38 332 281
0.014792874 0.64899999 -0.046654444 1.7510553e-38 333 281
0.015955333 0.64999998 -0.046726331 1.7050296e-38 334 281
0.017147599 0.65200001 -0.046870105 1.7050296e-38 335 281
0.018318826 0.653 -0.046941992 1.6958098e-38 336 281
0.019463753 0.653 -0.046941992 1.6865902e-38 337 281
0.020640239 0.65399998 -0.047013879 1.6498915e-38 338 281
0.021786919 0.65399998 -0.047013879 1.6130132e-38 339 281
0.022933599 0.65399998 -0.047013879 1.6313447e-38 340 281
0.024080278 0.65399998 -0.047013879 1.6221252e-38 341 281
0.025226958 0.65399998 -0.047013879 1.566988e-38 342 281
0.026413966 0.65499997 -0.047085766 1.5208902e-38 343 281
0.027562398 0.65499997 -0.047085766 1.4840842e-38 344 281
0.028710833 0.65499997 -0.047085766 1.5024873e-38 345 281
0.02995044 0.65700001 -0.04722954 1.520747e-38 346 281
0.031149717 0.65799999 -0.047301427 1.520747e-38 347 281
0.032303412 0.65799999 -0.047301427 1.4656098e-38 348 281
0.033507951 0.65899998 -0.04737331 1.4563901e-38 349 281
0.0347686 0.66100001 -0.047517084 1.437986e-38 350 281
0.035927553 0.66100001 -0.047517084 1.3918882e-38 351 281
0.037142612 0.662 -0.047588971 1.3367157e-38 352 281
0.038419038 0.66399997 -0.047732744 1.3643742e-38 353 281
0.039583251 0.66399997 -0.047732744 1.3274974e-38 354 281
0.040870197 0.66600001 -0.047876518 1.2906552e-38 355 281
0.042037919 0.66600001 -0.047876518 1.3091314e-38 356 281
0.043335386 0.66799998 -0.048020288 1.3091314e-38 357 281
0.044639867 0.67000002 -0.048164066 1.3090611e-38 358 281
0.045882981 0.671 -0.048235953 1.3366839e-38 359 281
0.047129598 0.67199999 -0.04830784 1.3090974e-38 360 281
0.048523501 0.67500001 -0.048523501 1.3183529e-38 361 281
0.049780637 0.676 -0.048595384 1.3275725e-38 362 281
0.051192071 0.67900002 -0.048811045 1.3367921e-38 363 281
0.052382588 0.67900002 -0.048811045 1.2814779e-38 364 281
0.053809796 0.68199998 -0.049026705 1.1893182e-38 365 281
-0.01019388 0.64600003 -0.047571443 1.8065261e-38 311 282
-0.0090612266 0.64600003 -0.047571443 1.8156696e-38 312 282
-0.0079040267 0.64399999 -0.04742416 1.7419131e-38 313 282
-0.0067748795 0.64399999 -0.04742416 1.7694962e-38 314 282
-0.0056457333 0.64399999 -0.04742416 1.7787159e-38 315 282
-0.0045165867 0.64399999 -0.04742416 1.7880424e-38 316 282
-0.0033874398 0.64399999 -0.04742416 1.815701e-38 317 282
-0.0022582933 0.64399999 -0.04742416 1.83396e-38 318 282
-0.0011291467 0.64399999 -0.04742416 1.8431796e-38 319 282
0 0.64399999 -0.04742416 1.8523626e-38 320 282
0.0011326533 0.64600003 -0.047571443 1.843143e-38 321 282
0.0022653067 0.64600003 -0.047571443 1.843178e-38 322 282
0.00339796 0.64600003 -0.047571443 1.7878965e-38 323 282
0.0045376266 0.64700001 -0.047645077 1.7601302e-38 324 282
0.0056720334 0.64700001 -0.047645077 1.8061922e-38 325 282
0.00679592 0.64600003 -0.047571443 1.7787864e-38 326 282
0.0079285735 0.64600003 -0.047571443 1.7787864e-38 327 282
0.0090752533 0.64700001 -0.047645077 1.7786429e-38 328 282
0.01020966 0.64700001 -0.047645077 1.7786429e-38 329 282
0.011344067 0.64700001 -0.047645077 1.751055e-38 330 282
0.012478473 0.64700001 -0.047645077 1.7418354e-38 331 282
0.013612879 0.64700001 -0.047645077 1.7234681e-38 332 282
0.014770079 0.648 -0.047718719 1.7050649e-38 333 282
0.015930785 0.64899999 -0.047792356 1.7141057e-38 334 282
0.017095 0.64999998 -0.047865998 1.686483e-38 335 282
0.018234665 0.64999998 -0.047865998 1.6588958e-38 336 282
0.019433947 0.65200001 -0.048013281 1.6588958e-38 337 282
0.02057712 0.65200001 -0.048013281 1.6222333e-38 338 282
0.021753605 0.653 -0.048086919 1.6037583e-38 339 282
0.022898532 0.653 -0.048086919 1.6037586e-38 340 282
0.024080278 0.65399998 -0.048160557 1.5760641e-38 341 282
0.025226958 0.65399998 -0.048160557 1.5301819e-38 342 282
0.02637364 0.65399998 -0.048160557 1.4840842e-38 343 282
0.027520318 0.65399998 -0.048160557 1.4748294e-38 344 282
0.028710833 0.65499997 -0.048234195 1.4748294e-38 345 282
0.029859263 0.65499997 -0.048234195 1.4746863e-38 346 282
0.03110238 0.65700001 -0.048381478 1.4746863e-38 347 282
0.03225432 0.65700001 -0.048381478 1.410329e-38 348 282
0.033507951 0.65899998 -0.048528757 1.3734866e-38 349 282
0.0347686 0.66100001 -0.04867604 1.345863e-38 350 282
0.035927553 0.66100001 -0.04867604 1.3366075e-38 351 282
0.037142612 0.662 -0.048749682 1.3182413e-38 352 282
0.038419038 0.66399997 -0.048896957 1.3182413e-38 353 282
0.039583251 0.66399997 -0.048896957 1.2906564e-38 354 282
0.040870197 0.66600001 -0.04904424 1.2906564e-38 355 282
0.042037919 0.66600001 -0.04904424 1.2722902e-38 356 282
0.04327051 0.667 -0.049117878 1.2999128e-38 357 282
0.044639867 0.67000002 -0.049338799 1.3090974e-38 358 282
0.045882981 0.671 -0.049412437 1.3090974e-38 359 282
0.047129598 0.67199999 -0.049486078 1.2999858e-38 360 282
0.048595384 0.676 -0.049780637 1.2999858e-38 361 282
0.049780637 0.676 -0.049780637 1.3275375e-38 362 282
0.051116679 0.67799997 -0.049927916 1.3090623e-38 363 282
0.052305438 0.67799997 -0.049927916 1.2353453e-38 364 282
-0.011326533 0.64600003 -0.048704095 1.7602063e-38 310 283
-0.01019388 0.64600003 -0.048704095 1.7602063e-38 311 283
-0.0090612266 0.64600003 -0.048704095 1.7694962e-38 312 283
-0.0079040267 0.64399999 -0.048553303 1.797119e-38 313 283
-0.0067748795 0.64399999 -0.048553303 1.7880424e-38 314 283
-0.0056369668 0.64300001 -0.04847791 1.797262e-38 315 283
-0.0045095733 0.64300001 -0.04847791 1.8156641e-38 316 283
-0.0033874398 0.64399999 -0.048553303 1.8248837e-38 317 283
-0.0022582933 0.64399999 -0.048553303 1.8432152e-38 318 283
-0.0011291467 0.64399999 -0.048553303 1.8432152e-38 319 283
0 0.64399999 -0.048553303 1.8431799e-38 320 283
0.0011291467 0.64399999 -0.048553303 1.8339603e-38 321 283
0.0022582933 0.64399999 -0.048553303 1.8063373e-38 322 283
0.00339796 0.64600003 -0.048704095 1.75102e-38 323 283
0.0045306133 0.64600003 -0.048704095 1.7601313e-38 324 283
0.0056632664 0.64600003 -0.048704095 1.7786063e-38 325 283
0.00679592 0.64600003 -0.048704095 1.7510921e-38 326 283
0.0079285735 0.64600003 -0.048704095 1.7418367e-38 327 283
0.0090752533 0.64700001 -0.048779488 1.7418001e-38 328 283
0.01019388 0.64600003 -0.048704095 1.7233609e-38 329 283
0.011326533 0.64600003 -0.048704095 1.7141763e-38 330 283
0.012459187 0.64600003 -0.048704095 1.7049568e-38 331 283
0.01359184 0.64600003 -0.048704095 1.6773351e-38 332 283
0.014747286 0.64700001 -0.048779488 1.6773351e-38 333 283
0.015906241 0.648 -0.04885488 1.6772637e-38 334 283
0.017068699 0.64899999 -0.048930272 1.6587886e-38 335 283
0.018206613 0.64899999 -0.048930272 1.6312731e-38 336 283
0.019374331 0.64999998 -0.049005665 1.6220177e-38 337 283
0.020513998 0.64999998 -0.049005665 1.6127981e-38 338 283
0.021720294 0.65200001 -0.049156453 1.6035786e-38 339 283
0.022898532 0.653 -0.049231846 1.5760274e-38 340 283
0.024043459 0.653 -0.049231846 1.5668078e-38 341 283
0.025188386 0.653 -0.049231846 1.5024508e-38 342 283
0.02637364 0.65399998 -0.049307238 1.4932312e-38 343 283
0.027520318 0.65399998 -0.049307238 1.474721e-38 344 283
0.028666999 0.65399998 -0.049307238 1.4470984e-38 345 283
0.029859263 0.65499997 -0.049382631 1.45621e-38 346 283
0.03110238 0.65700001 -0.049533416 1.4285874e-38 347 283
0.03225432 0.65700001 -0.049533416 1.3733784e-38 348 283
0.033457108 0.65799999 -0.049608808 1.3457558e-38 349 283
0.034663398 0.65899998 -0.049684204 1.2905115e-38 350 283
0.035818845 0.65899998 -0.049684204 1.2905115e-38 351 283
0.037086505 0.66100001 -0.049834993 1.2906198e-38 352 283
0.038419038 0.66399997 -0.05006117 1.2906198e-38 353 283
0.039583251 0.66399997 -0.05006117 1.272217e-38 354 283
0.040870197 0.66600001 -0.050211959 1.2814725e-38 355 283
0.042037919 0.66600001 -0.050211959 1.2630703e-38 356 283
0.04327051 0.667 -0.050287351 1.2907289e-38 357 283
0.044639867 0.67000002 -0.050513536 1.2999134e-38 358 283
0.045882981 0.671 -0.050588924 1.309133e-38 359 283
0.047269866 0.67400002 -0.050815105 1.2999858e-38 360 283
0.048523501 0.67500001 -0.050890498 1.318389e-38 361 283
0.049706999 0.67500001 -0.050890498 1.2999161e-38 362 283
0.050890498 0.67500001 -0.050890498 1.2537822e-38 363 283
0.052305438 0.67799997 -0.051116679 1.1432589e-38 364 283
-0.01342352 0.63800001 -0.049219571 1.7787175e-38 308 284
-0.012343466 0.63999999 -0.049373865 1.7694979e-38 309 284
-0.011273934 0.64300001 -0.049605306 1.7786426e-38 310 284
-0.01014654 0.64300001 -0.049605306 1.7786426e-38 311 284
-0.0090191467 0.64300001 -0.049605306 1.7971174e-38 312 284
-0.0078917528 0.64300001 -0.049605306 1.8063371e-38 313 284
-0.00675384 0.64200002 -0.049528159 1.8156638e-38 314 284
-0.0056281998 0.64200002 -0.049528159 1.8248834e-38 315 284
-0.00450256 0.64200002 -0.049528159 1.824919e-38 316 284
-0.0033716597 0.64099997 -0.049451008 1.824919e-38 317 284
-0.0022477731 0.64099997 -0.049451008 1.8431433e-38 318 284
-0.0011238866 0.64099997 -0.049451008 1.8431433e-38 319 284
0 0.64300001 -0.049605306 1.8155569e-38 320 284
0.0011273933 0.64300001 -0.049605306 1.8063373e-38 321 284
0.0022582933 0.64399999 -0.049682453 1.7878981e-38 322 284
0.0033874398 0.64399999 -0.049682453 1.7694231e-38 323 284
0.0045165867 0.64399999 -0.049682453 1.75102e-38 324 284
0.0056457333 0.64399999 -0.049682453 1.7418004e-38 325 284
0.0067748795 0.64399999 -0.049682453 1.723433e-38 326 284
0.0079040267 0.64399999 -0.049682453 1.723433e-38 327 284
0.0090612266 0.64600003 -0.049836747 1.6958098e-38 328 284
0.01019388 0.64600003 -0.049836747 1.6773707e-38 329 284
0.011291467 0.64399999 -0.049682453 1.6498196e-38 330 284
0.012420613 0.64399999 -0.049682453 1.6405999e-38 331 284
0.01359184 0.64600003 -0.049836747 1.6680435e-38 332 284
0.014724494 0.64600003 -0.049836747 1.6680435e-38 333 284
0.015881693 0.64700001 -0.049913891 1.6404927e-38 334 284
0.0170424 0.648 -0.049991041 1.6220177e-38 335 284
0.018206613 0.64899999 -0.050068185 1.622018e-38 336 284
0.019344525 0.64899999 -0.050068185 1.6127984e-38 337 284
0.020513998 0.64999998 -0.050145328 1.6035788e-38 338 284
0.021720294 0.65200001 -0.050299626 1.5759202e-38 339 284
0.022863466 0.65200001 -0.050299626 1.5575882e-38 340 284
0.024006641 0.65200001 -0.050299626 1.5207101e-38 341 284
0.025188386 0.653 -0.050376773 1.4931589e-38 342 284
0.026333313 0.653 -0.050376773 1.4747198e-38 343 284
0.027520318 0.65399998 -0.050453916 1.4378788e-38 344 284
0.028666999 0.65399998 -0.050453916 1.41022e-38 345 284
0.029859263 0.65499997 -0.050531063 1.3733419e-38 346 284
0.031007698 0.65499997 -0.050531063 1.3549027e-38 347 284
0.032156132 0.65499997 -0.050531063 1.2997301e-38 348 284
0.033406258 0.65700001 -0.050685361 1.3089497e-38 349 284
0.034663398 0.65899998 -0.050839648 1.2721453e-38 350 284
0.035818845 0.65899998 -0.050839648 1.2721453e-38 351 284
0.037086505 0.66100001 -0.050993945 1.2721453e-38 352 284
0.038419038 0.66399997 -0.051225383 1.2721453e-38 353 284
0.039583251 0.66399997 -0.051225383 1.253814e-38 354 284
0.040747464 0.66399997 -0.051225383 1.2722173e-38 355 284
0.042037919 0.66600001 -0.051379681 1.2630703e-38 356 284
0.043335386 0.66799998 -0.051533967 1.2722899e-38 357 284
0.044639867 0.67000002 -0.051688269 1.2906933e-38 358 284
0.045882981 0.671 -0.051765412 1.2999128e-38 359 284
0.047269866 0.67400002 -0.051996857 1.2907664e-38 360 284
0.048523501 0.67500001 -0.052074 1.2815469e-38 361 284
0.049706999 0.67500001 -0.052074 1.2261608e-38 362 284
0.050890498 0.67500001 -0.052074 1.180063e-38 363 284
-0.017898027 0.63800001 -0.050338201 1.7513127e-38 304 285
-0.016779399 0.63800001 -0.050338201 1.6867758e-38 305 285
-0.015660774 0.63800001 -0.050338201 1.7418373e-38 306 285
-0.014542148 0.63800001 -0.050338201 1.7602764e-38 307 285
-0.01342352 0.63800001 -0.050338201 1.7878978e-38 308 285
-0.012343466 0.63999999 -0.050495997 1.8063371e-38 309 285
-0.011221332 0.63999999 -0.050495997 1.8154486e-38 310 285
-0.010114979 0.64099997 -0.050574899 1.8246683e-38 311 285
-0.00900512 0.64200002 -0.0506538 1.8063724e-38 312 285
-0.0078794798 0.64200002 -0.0506538 1.8063724e-38 313 285
-0.0067433193 0.64099997 -0.050574899 1.7880774e-38 314 285
-0.0056194332 0.64099997 -0.050574899 1.7880774e-38 315 285
-0.0044955462 0.64099997 -0.050574899 1.7972973e-38 316 285
-0.0033716597 0.64099997 -0.050574899 1.7972973e-38 317 285
-0.0022477731 0.64099997 -0.050574899 1.8064092e-38 318 285
-0.0011238866 0.64099997 -0.050574899 1.8064092e-38 319 285
0 0.64099997 -0.050574899 1.8154486e-38 320 285
0.0011238866 0.64099997 -0.050574899 1.7878259e-38 321 285
0.0022547867 0.64300001 -0.050732698 1.7235411e-38 322 285
0.0033874398 0.64399999 -0.050811596 1.7235411e-38 323 285
0.0045165867 0.64399999 -0.050811596 1.7050665e-38 324 285
0.0056457333 0.64399999 -0.050811596 1.6865915e-38 325 285
0.0067643598 0.64300001 -0.050732698 1.6865552e-38 326 285
0.0078917528 0.64300001 -0.050732698 1.6773356e-38 327 285
0.0090331733 0.64399999 -0.050811596 1.6405293e-38 328 285
0.01016232 0.64399999 -0.050811596 1.6405293e-38 329 285
0.011291467 0.64399999 -0.050811596 1.6037233e-38 330 285
0.012420613 0.64399999 -0.050811596 1.6037233e-38 331 285
0.013549759 0.64399999 -0.050811596 1.6036517e-38 332 285
0.014724494 0.64600003 -0.0509694 1.6036517e-38 333 285
0.015857147 0.64600003 -0.0509694 1.5852842e-38 334 285
0.0170161 0.64700001 -0.051048297 1.5760646e-38 335 285
0.018206613 0.64899999 -0.051206097 1.5576256e-38 336 285
0.019344525 0.64899999 -0.051206097 1.5484059e-38 337 285
0.02048244 0.64899999 -0.051206097 1.5391864e-38 338 285
0.021653665 0.64999998 -0.051284995 1.5299668e-38 339 285
0.022793332 0.64999998 -0.051284995 1.5024155e-38 340 285
0.024006641 0.65200001 -0.051442798 1.4563535e-38 341 285
0.025149813 0.65200001 -0.051442798 1.447134e-38 342 285
0.026333313 0.653 -0.0515217 1.428659e-38 343 285
0.027478239 0.653 -0.0515217 1.3825617e-38 344 285
0.028666999 0.65399998 -0.051600594 1.3548671e-38 345 285
0.029813679 0.65399998 -0.051600594 1.30895e-38 346 285
0.031007698 0.65499997 -0.051679496 1.2996945e-38 347 285
0.032156132 0.65499997 -0.051679496 1.2812569e-38 348 285
0.033406258 0.65700001 -0.051837299 1.2812569e-38 349 285
0.034663398 0.65899998 -0.051995095 1.2445589e-38 350 285
0.035927553 0.66100001 -0.052152898 1.2538143e-38 351 285
0.037142612 0.662 -0.0522318 1.253814e-38 352 285
0.038419038 0.66399997 -0.052389596 1.253814e-38 353 285
0.039583251 0.66399997 -0.052389596 1.253814e-38 354 285
0.040747464 0.66399997 -0.052389596 1.2722173e-38 355 285
0.042037919 0.66600001 -0.052547399 1.2814015e-38 356 285
0.043335386 0.66799998 -0.052705199 1.2998765e-38 357 285
0.044706494 0.671 -0.052941896 1.2906933e-38 358 285
0.045882981 0.671 -0.052941896 1.2999128e-38 359 285
0.047269866 0.67400002 -0.053178601 1.272292e-38 360 285
0.048523501 0.67500001 -0.053257499 1.2354139e-38 361 285
0.049706999 0.67500001 -0.053257499 1.1340741e-38 362 285
0.050890498 0.67500001 -0.053257499 1.0972317e-38 363 285
-0.018986847 0.63700002 -0.051376175 1.7603527e-38 303 286
-0.017898027 0.63800001 -0.051456824 1.760386e-38 304 286
-0.016779399 0.63800001 -0.051456824 1.760386e-38 305 286
-0.015660774 0.63800001 -0.051456824 1.7788584e-38 306 286
-0.014542148 0.63800001 -0.051456824 1.7788584e-38 307 286
-0.01342352 0.63800001 -0.051456824 1.8063721e-38 308 286
-0.012304893 0.63800001 -0.051456824 1.8156275e-38 309 286
-0.011186266 0.63800001 -0.051456824 1.8063721e-38 310 286
-0.0100992 0.63999999 -0.051618129 1.8156275e-38 311 286
-0.0089770658 0.63999999 -0.051618129 1.8247389e-38 312 286
-0.0078549329 0.63999999 -0.051618129 1.8155192e-38 313 286
-0.0067433193 0.64099997 -0.051698782 1.7971524e-38 314 286
-0.0056106662 0.63999999 -0.051618129 1.7879328e-38 315 286
-0.0044885329 0.63999999 -0.051618129 1.7787486e-38 316 286
-0.0033663998 0.63999999 -0.051618129 1.7787486e-38 317 286
-0.0022442664 0.63999999 -0.051618129 1.778712e-38 318 286
-0.0011221332 0.63999999 -0.051618129 1.7510173e-38 319 286
0 0.63999999 -0.051618129 1.7509451e-38 320 286
0.0011238866 0.64099997 -0.051698782 1.7232864e-38 321 286
0.0022477731 0.64099997 -0.051698782 1.686445e-38 322 286
0.0033821799 0.64300001 -0.051860094 1.6956647e-38 323 286
0.0045095733 0.64300001 -0.051860094 1.6588955e-38 324 286
0.0056369668 0.64300001 -0.051860094 1.6312728e-38 325 286
0.0067643598 0.64300001 -0.051860094 1.6496041e-38 326 286
0.0078917528 0.64300001 -0.051860094 1.6496041e-38 327 286
0.0090191467 0.64300001 -0.051860094 1.6127981e-38 328 286
0.01016232 0.64399999 -0.051940747 1.6127981e-38 329 286
0.011291467 0.64399999 -0.051940747 1.6127262e-38 330 286
0.012420613 0.64399999 -0.051940747 1.6127262e-38 331 286
0.013549759 0.64399999 -0.051940747 1.5943589e-38 332 286
0.014724494 0.64600003 -0.052102055 1.5943589e-38 333 286
0.015857147 0.64600003 -0.052102055 1.5943589e-38 334 286
0.0170161 0.64700001 -0.052182708 1.5667362e-38 335 286
0.018150507 0.64700001 -0.052182708 1.557481e-38 336 286
0.019314719 0.648 -0.05226336 1.557481e-38 337 286
0.02048244 0.64899999 -0.052344013 1.5207823e-38 338 286
0.021653665 0.64999998 -0.052424666 1.4931595e-38 339 286
0.022793332 0.64999998 -0.052424666 1.4655005e-38 340 286
0.023932999 0.64999998 -0.052424666 1.4194027e-38 341 286
0.025149813 0.65200001 -0.052585974 1.4101125e-38 342 286
0.026333313 0.653 -0.052666627 1.4008929e-38 343 286
0.027478239 0.653 -0.052666627 1.3272812e-38 344 286
0.028666999 0.65399998 -0.052747279 1.3088062e-38 345 286
0.029813679 0.65399998 -0.052747279 1.3088067e-38 346 286
0.031007698 0.65499997 -0.052827932 1.3088067e-38 347 286
0.032156132 0.65499997 -0.052827932 1.2537059e-38 348 286
0.033406258 0.65700001 -0.052989237 1.2537059e-38 349 286
0.034663398 0.65899998 -0.053150542 1.2353744e-38 350 286
0.035927553 0.66100001 -0.053311851 1.2353744e-38 351 286
0.037142612 0.662 -0.053392503 1.2446298e-38 352 286
0.038419038 0.66399997 -0.053553808 1.2538494e-38 353 286
0.039583251 0.66399997 -0.053553808 1.272145e-38 354 286
0.040747464 0.66399997 -0.053553808 1.2814006e-38 355 286
0.042101037 0.667 -0.05379577 1.2905848e-38 356 286
0.043335386 0.66799998 -0.053876422 1.3089879e-38 357 286
0.044706494 0.671 -0.054118387 1.2998415e-38 358 286
0.045951359 0.67199999 -0.054199036 1.2998415e-38 359 286
0.047339998 0.67500001 -0.054441001 1.2629302e-38 360 286
0.048523501 0.67500001 -0.054441001 1.1983932e-38 361 286
0.049706999 0.67500001 -0.054441001 1.0604626e-38 362 286
-0.024571214 0.63700002 -0.052493047 1.8526595e-38 298 287
-0.02345434 0.63700002 -0.052493047 1.778903e-38 299 287
-0.022337466 0.63700002 -0.052493047 1.7694612e-38 300 287
-0.021220595 0.63700002 -0.052493047 1.7049242e-38 301 287
-0.020103721 0.63700002 -0.052493047 1.7694218e-38 302 287
-0.018986847 0.63700002 -0.052493047 1.8062641e-38 303 287
-0.017869974 0.63700002 -0.052493047 1.7788582e-38 304 287
-0.016779399 0.63800001 -0.05257545 1.7972973e-38 305 287
-0.015660774 0.63800001 -0.05257545 1.8064443e-38 306 287
-0.014542148 0.63800001 -0.05257545 1.8064443e-38 307 287
-0.01340248 0.63700002 -0.052493047 1.8156272e-38 308 287
-0.012285607 0.63700002 -0.052493047 1.8156272e-38 309 287
-0.011168733 0.63700002 -0.052493047 1.7788214e-38 310 287
-0.01006764 0.63800001 -0.05257545 1.7788214e-38 311 287
-0.0089770658 0.63999999 -0.052740265 1.7696019e-38 312 287
-0.0078549329 0.63999999 -0.052740265 1.7603464e-38 313 287
-0.0067327996 0.63999999 -0.052740265 1.7511269e-38 314 287
-0.0056106662 0.63999999 -0.052740265 1.7419073e-38 315 287
-0.0044885329 0.63999999 -0.052740265 1.760237e-38 316 287
-0.0033663998 0.63999999 -0.052740265 1.7417977e-38 317 287
-0.0022442664 0.63999999 -0.052740265 1.7142098e-38 318 287
-0.0011221332 0.63999999 -0.052740265 1.6957705e-38 319 287
0 0.63999999 -0.052740265 1.6773688e-38 320 287
0.0011238866 0.64099997 -0.052822668 1.64971e-38 321 287
0.0022477731 0.64099997 -0.052822668 1.6404195e-38 322 287
0.0033716597 0.64099997 -0.052822668 1.6404195e-38 323 287
0.0044955462 0.64099997 -0.052822668 1.6037215e-38 324 287
0.0056281998 0.64200002 -0.052905083 1.5852824e-38 325 287
0.00675384 0.64200002 -0.052905083 1.6035786e-38 326 287
0.0078794798 0.64200002 -0.052905083 1.6035786e-38 327 287
0.00900512 0.64200002 -0.052905083 1.5577331e-38 328 287
0.01014654 0.64300001 -0.052987486 1.5485136e-38 329 287
0.011273934 0.64300001 -0.052987486 1.5484059e-38 330 287
0.012401327 0.64300001 -0.052987486 1.5484059e-38 331 287
0.013549759 0.64399999 -0.05306989 1.5208198e-38 332 287
0.014678906 0.64399999 -0.05306989 1.5116003e-38 333 287
0.015857147 0.64600003 -0.053234708 1.4840492e-38 334 287
0.016989801 0.64600003 -0.053234708 1.4748296e-38 335 287
0.018150507 0.64700001 -0.053317111 1.4839043e-38 336 287
0.019284913 0.64700001 -0.053317111 1.4839043e-38 337 287
0.020450879 0.648 -0.053399518 1.4564239e-38 338 287
0.021620352 0.64899999 -0.053481925 1.41029e-38 339 287
0.022793332 0.64999998 -0.053564329 1.3919235e-38 340 287
0.023932999 0.64999998 -0.053564329 1.3642289e-38 341 287
0.025149813 0.65200001 -0.053729147 1.3273179e-38 342 287
0.026292987 0.65200001 -0.053729147 1.3089146e-38 343 287
0.027520318 0.65399998 -0.053893957 1.2904765e-38 344 287
0.028666999 0.65399998 -0.053893957 1.2812569e-38 345 287
0.029859263 0.65499997 -0.053976361 1.2353749e-38 346 287
0.031007698 0.65499997 -0.053976361 1.2353749e-38 347 287
0.03225432 0.65700001 -0.054141179 1.2353749e-38 348 287
0.033457108 0.65799999 -0.054223582 1.2353749e-38 349 287
0.034663398 0.65899998 -0.054305989 1.2353749e-38 350 287
0.035927553 0.66100001 -0.054470807 1.2445945e-38 351 287
0.037142612 0.662 -0.054553211 1.2629257e-38 352 287
0.038361177 0.66299999 -0.054635618 1.2629257e-38 353 287
0.039583251 0.66399997 -0.054718021 1.2537787e-38 354 287
0.040747464 0.66399997 -0.054718021 1.272182e-38 355 287
0.042037919 0.66600001 -0.054882839 1.263035e-38 356 287
0.04327051 0.667 -0.054965243 1.2722904e-38 357 287
0.044706494 0.671 -0.055294871 1.2538173e-38 358 287
0.045951359 0.67199999 -0.055377278 1.2261946e-38 359 287
0.047339998 0.67500001 -0.0556245 1.1340744e-38 360 287
0.048523501 0.67500001 -0.0556245 1.1064517e-38 361 287
-0.025688088 0.63700002 -0.053609919 1.7234765e-38 297 288
-0.024532638 0.63599998 -0.053525757 1.7786105e-38 298 288
-0.023417519 0.63599998 -0.053525757 1.7786105e-38 299 288
-0.022302398 0.63599998 -0.053525757 1.7878628e-38 300 288
-0.021220595 0.63700002 -0.053609919 1.7970823e-38 301 288
-0.020103721 0.63700002 -0.053609919 1.8064077e-38 302 288
-0.018957037 0.63599998 -0.053525757 1.8156272e-38 303 288
-0.017841918 0.63599998 -0.053525757 1.7881483e-38 304 288
-0.0167531 0.63700002 -0.053609919 1.7881483e-38 305 288
-0.015636226 0.63700002 -0.053609919 1.8156994e-38 306 288
-0.014519353 0.63700002 -0.053609919 1.806444e-38 307 288
-0.01340248 0.63700002 -0.053609919 1.7972244e-38 308 288
-0.012285607 0.63700002 -0.053609919 1.7696016e-38 309 288
-0.011168733 0.63700002 -0.053609919 1.7787133e-38 310 288
-0.01005186 0.63700002 -0.053609919 1.7694937e-38 311 288
-0.0089490134 0.63800001 -0.053694081 1.7418352e-38 312 288
-0.007830387 0.63800001 -0.053694081 1.7233959e-38 313 288
-0.0067327996 0.63999999 -0.053862397 1.6958448e-38 314 288
-0.0055931332 0.63800001 -0.053694081 1.6774057e-38 315 288
-0.0044745067 0.63800001 -0.053694081 1.7139593e-38 316 288
-0.0033663998 0.63999999 -0.053862397 1.677117e-38 317 288
-0.0022442664 0.63999999 -0.053862397 1.6311261e-38 318 288
-0.0011221332 0.63999999 -0.053862397 1.6403816e-38 319 288
0 0.63999999 -0.053862397 1.6129041e-38 320 288
0.0011221332 0.63999999 -0.053862397 1.6036486e-38 321 288
0.0022477731 0.64099997 -0.053946555 1.6310928e-38 322 288
0.0033716597 0.64099997 -0.053946555 1.6218731e-38 323 288
0.0044955462 0.64099997 -0.053946555 1.5668075e-38 324 288
0.0056194332 0.64099997 -0.053946555 1.5391848e-38 325 288
0.0067433193 0.64099997 -0.053946555 1.5668075e-38 326 288
0.0078672068 0.64099997 -0.053946555 1.5575879e-38 327 288
0.00900512 0.64200002 -0.05403072 1.5392214e-38 328 288
0.01013076 0.64200002 -0.05403072 1.5300018e-38 329 288
0.011273934 0.64300001 -0.054114878 1.5298946e-38 330 288
0.012401327 0.64300001 -0.054114878 1.5206751e-38 331 288
0.013549759 0.64399999 -0.054199036 1.5298219e-38 332 288
0.014678906 0.64399999 -0.054199036 1.5021992e-38 333 288
0.015808053 0.64399999 -0.054199036 1.4746832e-38 334 288
0.016989801 0.64600003 -0.05436736 1.4377689e-38 335 288
0.018122453 0.64600003 -0.05436736 1.3918866e-38 336 288
0.019284913 0.64700001 -0.054451518 1.3734475e-38 337 288
0.020450879 0.648 -0.05453568 1.364228e-38 338 288
0.02158704 0.648 -0.05453568 1.3181301e-38 339 288
0.022758266 0.64899999 -0.054619838 1.3089118e-38 340 288
0.023932999 0.64999998 -0.054703996 1.3089118e-38 341 288
0.025072664 0.64999998 -0.054703996 1.3088062e-38 342 288
0.026292987 0.65200001 -0.054872319 1.2995866e-38 343 288
0.027520318 0.65399998 -0.055040635 1.253634e-38 344 288
0.028666999 0.65399998 -0.055040635 1.253634e-38 345 288
0.029859263 0.65499997 -0.055124797 1.2444866e-38 346 288
0.031007698 0.65499997 -0.055124797 1.2537061e-38 347 288
0.03225432 0.65700001 -0.055293117 1.2353749e-38 348 288
0.033457108 0.65799999 -0.055377278 1.2261195e-38 349 288
0.034663398 0.65899998 -0.055461437 1.2537059e-38 350 288
0.035927553 0.66100001 -0.05562976 1.2537059e-38 351 288
0.037142612 0.662 -0.055713918 1.2629257e-38 352 288
0.038361177 0.66299999 -0.055798076 1.2629257e-38 353 288
0.039583251 0.66399997 -0.055882234 1.2538143e-38 354 288
0.040747464 0.66399997 -0.055882234 1.2538143e-38 355 288
0.042037919 0.66600001 -0.056050558 1.2537437e-38 356 288
0.04327051 0.667 -0.056134716 1.272147e-38 357 288
-0.029038707 0.63700002 -0.054726794 1.8064528e-38 294 289
-0.027921833 0.63700002 -0.054726794 1.7695385e-38 295 289
-0.026762879 0.63599998 -0.054640878 1.7694256e-38 296 289
-0.025647758 0.63599998 -0.054640878 1.760206e-38 297 289
-0.024532638 0.63599998 -0.054640878 1.7786426e-38 298 289
-0.023417519 0.63599998 -0.054640878 1.7971176e-38 299 289
-0.022302398 0.63599998 -0.054640878 1.7971527e-38 300 289
-0.021187279 0.63599998 -0.054640878 1.8063724e-38 301 289
-0.020072158 0.63599998 -0.054640878 1.8064077e-38 302 289
-0.018957037 0.63599998 -0.054640878 1.8156272e-38 303 289
-0.017841918 0.63599998 -0.054640878 1.8156272e-38 304 289
-0.016726799 0.63599998 -0.054640878 1.8064077e-38 305 289
-0.015611678 0.63599998 -0.054640878 1.8063727e-38 306 289
-0.014496559 0.63599998 -0.054640878 1.7878975e-38 307 289
-0.013381439 0.63599998 -0.054640878 1.7603467e-38 308 289
-0.012266319 0.63599998 -0.054640878 1.7419076e-38 309 289
-0.011151199 0.63599998 -0.054640878 1.7050649e-38 310 289
-0.010036079 0.63599998 -0.054640878 1.6958095e-38 311 289
-0.0089349868 0.63700002 -0.054726794 1.6866253e-38 312 289
-0.0078181131 0.63700002 -0.054726794 1.6681861e-38 313 289
-0.0067012399 0.63700002 -0.054726794 1.6681138e-38 314 289
-0.0055843666 0.63700002 -0.054726794 1.6404551e-38 315 289
-0.0044674934 0.63700002 -0.054726794 1.6403477e-38 316 289
-0.00335588 0.63800001 -0.054812707 1.6219084e-38 317 289
-0.0022372534 0.63800001 -0.054812707 1.5943573e-38 318 289
-0.0011186267 0.63800001 -0.054812707 1.5943573e-38 319 289
0 0.63800001 -0.054812707 1.5759908e-38 320 289
0.0011221332 0.63999999 -0.054984529 1.5759908e-38 321 289
0.0022442664 0.63999999 -0.054984529 1.5667359e-38 322 289
0.0033663998 0.63999999 -0.054984529 1.5667359e-38 323 289
0.0044885329 0.63999999 -0.054984529 1.5391851e-38 324 289
0.0056194332 0.64099997 -0.055070441 1.5391851e-38 325 289
0.0067433193 0.64099997 -0.055070441 1.5207823e-38 326 289
0.0078672068 0.64099997 -0.055070441 1.5207823e-38 327 289
0.0089910924 0.64099997 -0.055070441 1.5115627e-38 328 289
0.01013076 0.64200002 -0.055156358 1.4931595e-38 329 289
0.0112564 0.64200002 -0.055156358 1.4746494e-38 330 289
0.012401327 0.64300001 -0.05524227 1.4746494e-38 331 289
0.01352872 0.64300001 -0.05524227 1.4561735e-38 332 289
0.014678906 0.64399999 -0.055328183 1.4469539e-38 333 289
0.015808053 0.64399999 -0.055328183 1.400962e-38 334 289
0.016989801 0.64600003 -0.055500012 1.3824869e-38 335 289
0.018122453 0.64600003 -0.055500012 1.3274219e-38 336 289
0.019284913 0.64700001 -0.055585928 1.3182023e-38 337 289
0.02041932 0.64700001 -0.055585928 1.318132e-38 338 289
0.02158704 0.648 -0.055671841 1.2812538e-38 339 289
0.022758266 0.64899999 -0.05575775 1.2720355e-38 340 289
0.023896178 0.64899999 -0.05575775 1.2720355e-38 341 289
0.025072664 0.64999998 -0.055843662 1.2444141e-38 342 289
0.026292987 0.65200001 -0.056015491 1.2444141e-38 343 289
0.027520318 0.65399998 -0.056187313 1.2168999e-38 344 289
0.028666999 0.65399998 -0.056187313 1.2168999e-38 345 289
0.029859263 0.65499997 -0.056273226 1.2261198e-38 346 289
0.031007698 0.65499997 -0.056273226 1.2261198e-38 347 289
0.03225432 0.65700001 -0.056445058 1.2261198e-38 348 289
0.033457108 0.65799999 -0.056530971 1.2261198e-38 349 289
0.034663398 0.65899998 -0.056616884 1.2261195e-38 350 289
0.035927553 0.66100001 -0.056788713 1.2261195e-38 351 289
0.037142612 0.662 -0.056874625 1.2261916e-38 352 289
0.038361177 0.66299999 -0.056960538 1.2354112e-38 353 289
0.039583251 0.66399997 -0.057046451 1.2446313e-38 354 289
0.040747464 0.66399997 -0.057046451 1.2446313e-38 355 289
0.041911677 0.66399997 -0.057046451 1.2353058e-38 356 289
0.043205637 0.66600001 -0.057218276 1.2076832e-38 357 289
-0.031272452 0.63700002 -0.055843666 1.78805e-38 292 290
-0.03015558 0.63700002 -0.055843666 1.7051099e-38 293 290
-0.029038707 0.63700002 -0.055843666 1.7692824e-38 294 290
-0.027921833 0.63700002 -0.055843666 1.7877574e-38 295 290
-0.026762879 0.63599998 -0.055755995 1.7970472e-38 296 290
-0.025647758 0.63599998 -0.055755995 1.8062667e-38 297 290
-0.024532638 0.63599998 -0.055755995 1.8155572e-38 298 290
-0.023380699 0.63499999 -0.055668332 1.8155572e-38 299 290
-0.022267332 0.63499999 -0.055668332 1.8155922e-38 300 290
-0.021153966 0.63499999 -0.055668332 1.8155922e-38 301 290
-0.0200406 0.63499999 -0.055668332 1.8063724e-38 302 290
-0.018927233 0.63499999 -0.055668332 1.8063724e-38 303 290
-0.017813865 0.63499999 -0.055668332 1.7971527e-38 304 290
-0.0166742 0.634 -0.055580664 1.7879331e-38 305 290
-0.015562586 0.634 -0.055580664 1.7878975e-38 306 290
-0.014473766 0.63499999 -0.055668332 1.7510553e-38 307 290
-0.0133604 0.63499999 -0.055668332 1.7050293e-38 308 290
-0.012247032 0.63499999 -0.055668332 1.6865902e-38 309 290
-0.011133666 0.63499999 -0.055668332 1.6681861e-38 310 290
-0.010036079 0.63599998 -0.055755995 1.6589664e-38 311 290
-0.0089209592 0.63599998 -0.055755995 1.6037568e-38 312 290
-0.0078058392 0.63599998 -0.055755995 1.5853177e-38 313 290
-0.0066907196 0.63599998 -0.055755995 1.594357e-38 314 290
-0.0055755996 0.63599998 -0.055755995 1.5851375e-38 315 290
-0.0044674934 0.63700002 -0.055843666 1.5483318e-38 316 290
-0.0033506199 0.63700002 -0.055843666 1.5483318e-38 317 290
-0.0022337467 0.63700002 -0.055843666 1.5207823e-38 318 290
-0.0011168733 0.63700002 -0.055843666 1.5300018e-38 319 290
0 0.63800001 -0.055931333 1.557481e-38 320 290
0.0011186267 0.63800001 -0.055931333 1.5482615e-38 321 290
0.0022442664 0.63999999 -0.056106664 1.5299655e-38 322 290
0.0033663998 0.63999999 -0.056106664 1.5207101e-38 323 290
0.0044885329 0.63999999 -0.056106664 1.4839759e-38 324 290
0.0056106662 0.63999999 -0.056106664 1.4932315e-38 325 290
0.0067327996 0.63999999 -0.056106664 1.5022706e-38 326 290
0.0078672068 0.64099997 -0.056194331 1.5022706e-38 327 290
0.0089910924 0.64099997 -0.056194331 1.4746476e-38 328 290
0.010114979 0.64099997 -0.056194331 1.465428e-38 329 290
0.0112564 0.64200002 -0.056282002 1.4469539e-38 330 290
0.01238204 0.64200002 -0.056282002 1.4284787e-38 331 290
0.01352872 0.64300001 -0.056369666 1.4008564e-38 332 290
0.014656113 0.64300001 -0.056369666 1.3916368e-38 333 290
0.015808053 0.64399999 -0.056457333 1.3363191e-38 334 290
0.016989801 0.64600003 -0.056632672 1.31788e-38 335 290
0.018122453 0.64600003 -0.056632672 1.2628516e-38 336 290
0.019284913 0.64700001 -0.056720335 1.2628516e-38 337 290
0.02041932 0.64700001 -0.056720335 1.2443422e-38 338 290
0.02158704 0.648 -0.056808002 1.2351225e-38 339 290
0.022758266 0.64899999 -0.056895666 1.2259746e-38 340 290
0.023896178 0.64899999 -0.056895666 1.2352302e-38 341 290
0.025072664 0.64999998 -0.056983333 1.2259751e-38 342 290
0.026292987 0.65200001 -0.057158668 1.2351949e-38 343 290
0.027478239 0.653 -0.057246335 1.2168283e-38 344 290
0.028666999 0.65399998 -0.057333998 1.2260479e-38 345 290
0.029813679 0.65399998 -0.057333998 1.2260482e-38 346 290
0.031007698 0.65499997 -0.057421666 1.2260482e-38 347 290
0.03225432 0.65700001 -0.057596996 1.2260479e-38 348 290
0.033457108 0.65799999 -0.057684667 1.2260479e-38 349 290
0.034663398 0.65899998 -0.057772331 1.1985687e-38 350 290
0.035927553 0.66100001 -0.057947662 1.1985687e-38 351 290
0.037142612 0.662 -0.058035329 1.1986406e-38 352 290
0.038361177 0.66299999 -0.058122993 1.2078601e-38 353 290
0.039523639 0.66299999 -0.058122993 1.217045e-38 354 290
0.040686097 0.66299999 -0.058122993 1.217045e-38 355 290
0.041911677 0.66399997 -0.05821066 1.180098e-38 356 290
-0.032389328 0.63700002 -0.056960538 1.751209e-38 291 291
-0.031223357 0.63599998 -0.056871112 1.778719e-38 292 291
-0.030108238 0.63599998 -0.056871112 1.7510963e-38 293 291
-0.028993119 0.63599998 -0.056871112 1.7878628e-38 294 291
-0.027877998 0.63599998 -0.056871112 1.7970823e-38 295 291
-0.026762879 0.63599998 -0.056871112 1.8063727e-38 296 291
-0.025647758 0.63599998 -0.056871112 1.8155922e-38 297 291
-0.024532638 0.63599998 -0.056871112 1.8155922e-38 298 291
-0.02334388 0.634 -0.056692276 1.8155922e-38 299 291
-0.022232266 0.634 -0.056692276 1.8247036e-38 300 291
-0.021120653 0.634 -0.056692276 1.8247036e-38 301 291
-0.020009039 0.634 -0.056692276 1.8154842e-38 302 291
-0.018897425 0.634 -0.056692276 1.8062646e-38 303 291
-0.017785814 0.634 -0.056692276 1.7601667e-38 304 291
-0.0166742 0.634 -0.056692276 1.7417274e-38 305 291
-0.015513494 0.63200003 -0.056513444 1.7234681e-38 306 291
-0.014405387 0.63200003 -0.056513444 1.6773704e-38 307 291
-0.013339359 0.634 -0.056692276 1.6404195e-38 308 291
-0.012227747 0.634 -0.056692276 1.6127969e-38 309 291
-0.011116133 0.634 -0.056692276 1.5760611e-38 310 291
-0.0100203 0.63499999 -0.056781694 1.557622e-38 311 291
-0.0089069325 0.63499999 -0.056781694 1.5391473e-38 312 291
-0.0077935657 0.63499999 -0.056781694 1.5299276e-38 313 291
-0.0066907196 0.63599998 -0.056871112 1.5114889e-38 314 291
-0.0055755996 0.63599998 -0.056871112 1.5114889e-38 315 291
-0.0044604796 0.63599998 -0.056871112 1.5298207e-38 316 291
-0.0033453598 0.63599998 -0.056871112 1.5390402e-38 317 291
-0.0022302398 0.63599998 -0.056871112 1.5298223e-38 318 291
-0.0011168733 0.63700002 -0.056960538 1.5113832e-38 319 291
0 0.63700002 -0.056960538 1.5297503e-38 320 291
0.0011168733 0.63700002 -0.056960538 1.5297503e-38 321 291
0.0022372534 0.63800001 -0.05704996 1.5021987e-38 322 291
0.00335588 0.63800001 -0.05704996 1.4837596e-38 323 291
0.0044745067 0.63800001 -0.05704996 1.465428e-38 324 291
0.0056106662 0.63999999 -0.057228796 1.4562085e-38 325 291
0.0067327996 0.63999999 -0.057228796 1.4377324e-38 326 291
0.0078549329 0.63999999 -0.057228796 1.4285128e-38 327 291
0.0089910924 0.64099997 -0.057318214 1.4009264e-38 328 291
0.010114979 0.64099997 -0.057318214 1.4009264e-38 329 291
0.0112564 0.64200002 -0.05740764 1.3731251e-38 330 291
0.01238204 0.64200002 -0.05740764 1.354686e-38 331 291
0.01352872 0.64300001 -0.057497058 1.3362838e-38 332 291
0.014656113 0.64300001 -0.057497058 1.3455393e-38 333 291
0.015808053 0.64399999 -0.057586476 1.2626721e-38 334 291
0.016989801 0.64600003 -0.057765324 1.2626721e-38 335 291
0.018122453 0.64600003 -0.057765324 1.2351581e-38 336 291
0.019284913 0.64700001 -0.057854742 1.2351581e-38 337 291
0.020450879 0.648 -0.05794416 1.21672e-38 338 291
0.021620352 0.64899999 -0.058033578 1.21672e-38 339 291
0.022758266 0.64899999 -0.058033578 1.1983885e-38 340 291
0.023896178 0.64899999 -0.058033578 1.1983885e-38 341 291
0.025072664 0.64999998 -0.058122993 1.2168636e-38 342 291
0.026292987 0.65200001 -0.058301836 1.2168636e-38 343 291
0.027478239 0.653 -0.058391262 1.2076804e-38 344 291
0.028666999 0.65399998 -0.05848068 1.2168999e-38 345 291
0.029813679 0.65399998 -0.05848068 1.2169002e-38 346 291
0.031007698 0.65499997 -0.058570094 1.2076806e-38 347 291
0.032303412 0.65799999 -0.058838356 1.2076806e-38 348 291
0.033457108 0.65799999 -0.058838356 1.2076806e-38 349 291
0.034663398 0.65899998 -0.058927774 1.2168999e-38 350 291
0.035927553 0.66100001 -0.059106622 1.2168999e-38 351 291
0.037142612 0.662 -0.05919604 1.2261916e-38 352 291
0.038361177 0.66299999 -0.059285458 1.2261916e-38 353 291
0.039523639 0.66299999 -0.059285458 1.18928e-38 354 291
0.040686097 0.66299999 -0.059285458 1.1339985e-38 355 291
-0.03456872 0.63599998 -0.057986237 1.705363e-38 289 292
-0.033400998 0.63499999 -0.057895064 1.7418761e-38 290 292
-0.032287631 0.63499999 -0.057895064 1.7234369e-38 291 292
-0.031223357 0.63599998 -0.057986237 1.7878274e-38 292 292
-0.030108238 0.63599998 -0.057986237 1.8062667e-38 293 292
-0.028993119 0.63599998 -0.057986237 1.8063376e-38 294 292
-0.027877998 0.63599998 -0.057986237 1.8063376e-38 295 292
-0.026762879 0.63599998 -0.057986237 1.8063371e-38 296 292
-0.025607431 0.63499999 -0.057895064 1.8063371e-38 297 292
-0.024455493 0.634 -0.057803888 1.7971891e-38 298 292
-0.02334388 0.634 -0.057803888 1.7971891e-38 299 292
-0.022232266 0.634 -0.057803888 1.7972244e-38 300 292
-0.021120653 0.634 -0.057803888 1.7696016e-38 301 292
-0.01994592 0.63200003 -0.05762155 1.7694581e-38 302 292
-0.018837813 0.63200003 -0.05762155 1.7418354e-38 303 292
-0.017729707 0.63200003 -0.05762155 1.7049212e-38 304 292
-0.016621601 0.63200003 -0.05762155 1.6772985e-38 305 292
-0.015513494 0.63200003 -0.05762155 1.6496747e-38 306 292
-0.014405387 0.63200003 -0.05762155 1.6220161e-38 307 292
-0.013339359 0.634 -0.057803888 1.5851728e-38 308 292
-0.012227747 0.634 -0.057803888 1.5482947e-38 309 292
-0.011116133 0.634 -0.057803888 1.5115239e-38 310 292
-0.010004519 0.634 -0.057803888 1.5023043e-38 311 292
-0.0088929068 0.634 -0.057803888 1.4746482e-38 312 292
-0.0077935657 0.63499999 -0.057895064 1.4746482e-38 313 292
-0.0066801999 0.63499999 -0.057895064 1.4378801e-38 314 292
-0.0055668331 0.63499999 -0.057895064 1.4102574e-38 315 292
-0.0044534663 0.63499999 -0.057895064 1.4378085e-38 316 292
-0.0033453598 0.63599998 -0.057986237 1.4378085e-38 317 292
-0.0022302398 0.63599998 -0.057986237 1.4378087e-38 318 292
-0.0011151199 0.63599998 -0.057986237 1.4378087e-38 319 292
0 0.63599998 -0.057986237 1.4378085e-38 320 292
0.0011168733 0.63700002 -0.058077414 1.4285889e-38 321 292
0.0022337467 0.63700002 -0.058077414 1.46532e-38 322 292
0.00335588 0.63800001 -0.05816859 1.4376973e-38 323 292
0.0044745067 0.63800001 -0.05816859 1.4285831e-38 324 292
0.0055931332 0.63800001 -0.05816859 1.4101081e-38 325 292
0.0067117601 0.63800001 -0.05816859 1.4007833e-38 326 292
0.0078549329 0.63999999 -0.058350928 1.3823802e-38 327 292
0.0089770658 0.63999999 -0.058350928 1.3456111e-38 328 292
0.010114979 0.64099997 -0.058442101 1.3179166e-38 329 292
0.011238866 0.64099997 -0.058442101 1.2994782e-38 330 292
0.01238204 0.64200002 -0.058533281 1.3178813e-38 331 292
0.01352872 0.64300001 -0.058624454 1.2810055e-38 332 292
0.014656113 0.64300001 -0.058624454 1.2810055e-38 333 292
0.015808053 0.64399999 -0.058715623 1.2259033e-38 334 292
0.016989801 0.64600003 -0.058897976 1.2259033e-38 335 292
0.018122453 0.64600003 -0.058897976 1.1983522e-38 336 292
0.019284913 0.64700001 -0.058989145 1.2167553e-38 337 292
0.020450879 0.648 -0.059080318 1.1983885e-38 338 292
0.021620352 0.64899999 -0.059171494 1.1983885e-38 339 292
0.022758266 0.64899999 -0.059171494 1.1983885e-38 340 292
0.023932999 0.64999998 -0.059262663 1.207608e-38 341 292
0.025072664 0.64999998 -0.059262663 1.2076083e-38 342 292
0.026292987 0.65200001 -0.059445009 1.216828e-38 343 292
0.027520318 0.65399998 -0.059627358 1.2168999e-38 344 292
0.028666999 0.65399998 -0.059627358 1.2168999e-38 345 292
0.029813679 0.65399998 -0.059627358 1.2076804e-38 346 292
0.031007698 0.65499997 -0.059718527 1.2076804e-38 347 292
0.032303412 0.65799999 -0.059992049 1.2076804e-38 348 292
0.033457108 0.65799999 -0.059992049 1.1892771e-38 349 292
0.034663398 0.65899998 -0.060083222 1.1709826e-38 350 292
0.035927553 0.66100001 -0.060265575 1.1709826e-38 351 292
0.037142612 0.662 -0.060356744 1.1710194e-38 352 292
0.038419038 0.66399997 -0.060539093 1.1617999e-38 353 292
0.039583251 0.66399997 -0.060539093 1.1248528e-38 354 292
-0.036798958 0.63599998 -0.059101358 1.6503346e-38 287 293
-0.035683837 0.63599998 -0.059101358 1.751061e-38 288 293
-0.034514364 0.63499999 -0.059008431 1.7326218e-38 289 293
-0.033400998 0.63499999 -0.059008431 1.7878274e-38 290 293
-0.032287631 0.63499999 -0.059008431 1.7970472e-38 291 293
-0.031174263 0.63499999 -0.059008431 1.7787511e-38 292 293
-0.0300609 0.63499999 -0.059008431 1.7787511e-38 293 293
-0.028947532 0.63499999 -0.059008431 1.8154489e-38 294 293
-0.027834166 0.63499999 -0.059008431 1.8062293e-38 295 293
-0.0267208 0.63499999 -0.059008431 1.8154123e-38 296 293
-0.025567105 0.634 -0.058915507 1.8246319e-38 297 293
-0.024455493 0.634 -0.058915507 1.7878975e-38 298 293
-0.02327024 0.63200003 -0.058729656 1.7694584e-38 299 293
-0.022162134 0.63200003 -0.058729656 1.723359e-38 300 293
-0.021054026 0.63200003 -0.058729656 1.6864806e-38 301 293
-0.01994592 0.63200003 -0.058729656 1.6221589e-38 302 293
-0.018837813 0.63200003 -0.058729656 1.5944642e-38 303 293
-0.017729707 0.63200003 -0.058729656 1.5759532e-38 304 293
-0.016621601 0.63200003 -0.058729656 1.5298554e-38 305 293
-0.015513494 0.63200003 -0.058729656 1.5020876e-38 306 293
-0.014405387 0.63200003 -0.058729656 1.492868e-38 307 293
-0.01329728 0.63200003 -0.058729656 1.4561695e-38 308 293
-0.012227747 0.634 -0.058915507 1.4561695e-38 309 293
-0.011116133 0.634 -0.058915507 1.4010336e-38 310 293
-0.010004519 0.634 -0.058915507 1.4010336e-38 311 293
-0.0088929068 0.634 -0.058915507 1.4100756e-38 312 293
-0.0077935657 0.63499999 -0.059008431 1.4284787e-38 313 293
-0.0066801999 0.63499999 -0.059008431 1.4100406e-38 314 293
-0.0055668331 0.63499999 -0.059008431 1.400821e-38 315 293
-0.0044534663 0.63499999 -0.059008431 1.4283718e-38 316 293
-0.0033400999 0.63499999 -0.059008431 1.4283718e-38 317 293
-0.0022267331 0.63499999 -0.059008431 1.4191879e-38 318 293
-0.0011133666 0.63499999 -0.059008431 1.4191879e-38 319 293
0 0.63599998 -0.059101358 1.4467018e-38 320 293
0.0011151199 0.63599998 -0.059101358 1.4282627e-38 321 293
0.0022337467 0.63700002 -0.059194289 1.354721e-38 322 293
0.0033506199 0.63700002 -0.059194289 1.3455014e-38 323 293
0.0044674934 0.63700002 -0.059194289 1.3363521e-38 324 293
0.0055931332 0.63800001 -0.059287209 1.2902544e-38 325 293
0.0067117601 0.63800001 -0.059287209 1.3086235e-38 326 293
0.007830387 0.63800001 -0.059287209 1.3086235e-38 327 293
0.0089770658 0.63999999 -0.05947306 1.2901503e-38 328 293
0.0100992 0.63999999 -0.05947306 1.253308e-38 329 293
0.011238866 0.64099997 -0.059565991 1.2717474e-38 330 293
0.012362752 0.64099997 -0.059565991 1.2901506e-38 331 293
0.01352872 0.64300001 -0.059751842 1.2717484e-38 332 293
0.014656113 0.64300001 -0.059751842 1.2717484e-38 333 293
0.015808053 0.64399999 -0.05984477 1.2259383e-38 334 293
0.016989801 0.64600003 -0.060030628 1.2167187e-38 335 293
