# .PCD v.7 - Point Cloud Data file format
FIELDS x y z rgb imX imY
SIZE 4 4 4 4 4 4
TYPE F F F F F F
COUNT 1 1 1 1 1 1
WIDTH 829
HEIGHT 1
VIEWPOINT 0 0 0 1 0 0 0
POINTS 829
DATA ascii
-0.076447085 0.73900002 -0.01166142 1.9077506e-38 261 249
-0.075151369 0.73900002 -0.01166142 1.8984954e-38 262 249
-0.073755711 0.73799998 -0.011645639 1.8892759e-38 263 249
-0.072461754 0.73799998 -0.011645639 1.86176e-38 264 249
-0.071167797 0.73799998 -0.011645639 1.8433208e-38 265 249
-0.069684476 0.736 -0.01161408 1.7974027e-38 266 249
-0.06839402 0.736 -0.01161408 1.7881831e-38 267 249
-0.067103572 0.736 -0.01161408 1.7788929e-38 268 249
-0.065813117 0.736 -0.01161408 1.7604536e-38 269 249
-0.064522661 0.736 -0.01161408 1.6960278e-38 270 249
-0.06271673 0.73000002 -0.011519399 1.6499659e-38 271 249
-0.093670078 0.74199998 -0.013009733 1.6596585e-38 248 250
-0.092244618 0.741 -0.0129922 1.4475726e-38 249 250
-0.090945393 0.741 -0.0129922 1.6958101e-38 250 250
-0.089646183 0.741 -0.0129922 1.7326524e-38 251 250
-0.088346958 0.741 -0.0129922 1.7786417e-38 252 250
-0.087047733 0.741 -0.0129922 1.8154839e-38 253 250
-0.085748516 0.741 -0.0129922 1.8338866e-38 254 250
-0.084221363 0.73900002 -0.012957133 1.8707647e-38 255 250
-0.082925655 0.73900002 -0.012957133 1.8617246e-38 256 250
-0.081519477 0.73799998 -0.012939599 1.8801639e-38 257 250
-0.080225512 0.73799998 -0.012939599 1.8802361e-38 258 250
-0.078931555 0.73799998 -0.012939599 1.8894556e-38 259 250
-0.077427194 0.736 -0.012904533 1.9077871e-38 260 250
-0.076136746 0.736 -0.012904533 1.9077871e-38 261 250
-0.075049676 0.73799998 -0.012939599 1.898532e-38 262 250
-0.073555835 0.736 -0.012904533 1.8801289e-38 263 250
-0.072069012 0.73400003 -0.012869466 1.8433934e-38 264 250
-0.070782073 0.73400003 -0.012869466 1.8341739e-38 265 250
-0.069495119 0.73400003 -0.012869466 1.8158063e-38 266 250
-0.068115242 0.73299998 -0.012851933 1.7881478e-38 267 250
-0.066830046 0.73299998 -0.012851933 1.7788929e-38 268 250
-0.065544859 0.73299998 -0.012851933 1.7604536e-38 269 250
-0.063996665 0.73000002 -0.012799333 1.7327975e-38 270 250
-0.093670078 0.74199998 -0.014310705 1.6226352e-38 248 251
-0.092244618 0.741 -0.01429142 1.4935972e-38 249 251
-0.090945393 0.741 -0.01429142 1.7234315e-38 250 251
-0.089404218 0.73900002 -0.014252847 1.7694934e-38 251 251
-0.08810851 0.73900002 -0.014252847 1.778713e-38 252 251
-0.086812794 0.73900002 -0.014252847 1.8064077e-38 253 251
-0.085401356 0.73799998 -0.014233559 1.8339588e-38 254 251
-0.083537564 0.73299998 -0.014137126 1.8523979e-38 255 251
-0.082252368 0.73299998 -0.014137126 1.870801e-38 256 251
-0.081077635 0.73400003 -0.014156413 1.8892761e-38 257 251
-0.079790697 0.73400003 -0.014156413 1.8801645e-38 258 251
-0.07850375 0.73400003 -0.014156413 1.8985676e-38 259 251
-0.077111594 0.73299998 -0.014137126 1.9077869e-38 260 251
-0.075619511 0.73100001 -0.014098554 1.8985673e-38 261 251
-0.074337825 0.73100001 -0.014098554 1.8984954e-38 262 251
-0.073056139 0.73100001 -0.014098554 1.8984954e-38 263 251
-0.071774453 0.73100001 -0.014098554 1.8433934e-38 264 251
-0.070492767 0.73100001 -0.014098554 1.8249543e-38 265 251
-0.069211073 0.73100001 -0.014098554 1.8157707e-38 266 251
-0.067929395 0.73100001 -0.014098554 1.7973676e-38 267 251
-0.066556528 0.73000002 -0.014079267 1.7881128e-38 268 251
-0.0652766 0.73000002 -0.014079267 1.7696735e-38 269 251
-0.063996665 0.73000002 -0.014079267 1.7695678e-38 270 251
-0.092244618 0.741 -0.01559064 1.5304379e-38 249 252
-0.090699933 0.73900002 -0.01554856 1.7419061e-38 250 252
-0.089283235 0.73799998 -0.015527519 1.7787483e-38 251 252
-0.087989271 0.73799998 -0.015527519 1.7971524e-38 252 252
-0.086695313 0.73799998 -0.015527519 1.8063721e-38 253 252
-0.084591322 0.73100001 -0.01538024 1.833995e-38 254 252
-0.083195664 0.73000002 -0.0153592 1.8432505e-38 255 252
-0.081915736 0.73000002 -0.0153592 1.8708016e-38 256 252
-0.080635801 0.73000002 -0.0153592 1.8892408e-38 257 252
-0.079355866 0.73000002 -0.0153592 1.8985673e-38 258 252
-0.078075938 0.73000002 -0.0153592 1.8985673e-38 259 252
-0.076796003 0.73000002 -0.0153592 1.8802711e-38 260 252
-0.075205728 0.727 -0.015296079 1.8710515e-38 261 252
-0.073727667 0.72500002 -0.015254001 1.8985304e-38 262 252
-0.072456501 0.72500002 -0.015254001 1.8893107e-38 263 252
-0.071676269 0.73000002 -0.0153592 1.8800912e-38 264 252
-0.070396334 0.73000002 -0.0153592 1.8708716e-38 265 252
-0.069116399 0.73000002 -0.0153592 1.8340657e-38 266 252
-0.067836471 0.73000002 -0.0153592 1.8340657e-38 267 252
-0.066556528 0.73000002 -0.0153592 1.7881483e-38 268 252
-0.0652766 0.73000002 -0.0153592 1.7788929e-38 269 252
-0.063996665 0.73000002 -0.0153592 1.7787508e-38 270 252
-0.092533909 0.73299998 -0.016707512 1.5119988e-38 248 253
-0.089963526 0.73299998 -0.016707512 1.7601653e-38 250 253
-0.088436373 0.73100001 -0.016661927 1.7970076e-38 251 253
-0.087035462 0.73000002 -0.016639132 1.8154826e-38 252 253
-0.085755527 0.73000002 -0.016639132 1.8339219e-38 253 253
-0.084475599 0.73000002 -0.016639132 1.8523253e-38 254 253
-0.082967728 0.72799999 -0.016593546 1.8707644e-38 255 253
-0.081691302 0.72799999 -0.016593546 1.8708366e-38 256 253
-0.080414876 0.72799999 -0.016593546 1.8800561e-38 257 253
-0.07913845 0.72799999 -0.016593546 1.8709443e-38 258 253
-0.077862024 0.72799999 -0.016593546 1.8801639e-38 259 253
-0.076585598 0.72799999 -0.016593546 1.8802358e-38 260 253
-0.074791931 0.72299999 -0.01647958 1.8802358e-38 261 253
-0.073524274 0.72299999 -0.01647958 1.8985307e-38 262 253
-0.072256617 0.72299999 -0.01647958 1.8985307e-38 263 253
-0.071185336 0.72500002 -0.016525166 1.8617962e-38 264 253
-0.069914162 0.72500002 -0.016525166 1.8341736e-38 265 253
-0.068643004 0.72500002 -0.016525166 1.8249906e-38 266 253
-0.067650609 0.72799999 -0.016593546 1.7973679e-38 267 253
-0.066556528 0.73000002 -0.016639132 1.7881128e-38 268 253
-0.0652766 0.73000002 -0.016639132 1.7788932e-38 269 253
-0.063821331 0.72799999 -0.016593546 1.7696034e-38 270 253
-0.062544905 0.72799999 -0.016593546 1.760348e-38 271 253
-0.093819112 0.73299998 -0.017992707 1.4477573e-38 247 254
-0.092533909 0.73299998 -0.017992707 1.4474613e-38 248 254
-0.090999752 0.73100001 -0.017943613 1.5580959e-38 249 254
-0.089718066 0.73100001 -0.017943613 1.7602017e-38 250 254
-0.088436373 0.73100001 -0.017943613 1.7786767e-38 251 254
-0.087035462 0.73000002 -0.017919067 1.8062996e-38 252 254
-0.085755527 0.73000002 -0.017919067 1.8247389e-38 253 254
-0.084244154 0.72799999 -0.017869972 1.8340306e-38 254 254
-0.082967728 0.72799999 -0.017869972 1.8432502e-38 255 254
-0.081579089 0.727 -0.017845426 1.8524698e-38 256 254
-0.080304414 0.727 -0.017845426 1.870909e-38 257 254
-0.078594916 0.72299999 -0.017747238 1.8710162e-38 258 254
-0.077327259 0.72299999 -0.017747238 1.8802358e-38 259 254
-0.075743996 0.72000003 -0.017673599 1.8986026e-38 260 254
-0.074481606 0.72000003 -0.017673599 1.8986026e-38 261 254
-0.073219202 0.72000003 -0.017673599 1.8985307e-38 262 254
-0.071956798 0.72000003 -0.017673599 1.8985307e-38 263 254
-0.070596211 0.71899998 -0.017649053 1.8800915e-38 264 254
-0.069335558 0.71899998 -0.017649053 1.870836e-38 265 254
-0.068643004 0.72500002 -0.017796334 1.8708716e-38 266 254
-0.067557678 0.727 -0.017845426 1.8524685e-38 267 254
-0.066374183 0.72799999 -0.017869972 1.8340657e-38 268 254
-0.065097757 0.72799999 -0.017869972 1.8156626e-38 269 254
-0.063821331 0.72799999 -0.017869972 1.7971527e-38 270 254
-0.062544905 0.72799999 -0.017869972 1.7879331e-38 271 254
-0.093819112 0.73299998 -0.019277899 1.3832198e-38 247 255
-0.092533909 0.73299998 -0.019277899 1.4657558e-38 248 255
-0.090999752 0.73100001 -0.019225299 1.5856101e-38 249 255
-0.089718066 0.73100001 -0.019225299 1.7509807e-38 250 255
-0.088315405 0.73000002 -0.019199001 1.7694199e-38 251 255
-0.086797006 0.72799999 -0.0191464 1.7970429e-38 252 255
-0.08552058 0.72799999 -0.0191464 1.8247375e-38 253 255
-0.084128432 0.727 -0.019120099 1.815627e-38 254 255
-0.082853764 0.727 -0.019120099 1.8432855e-38 255 255
-0.08135467 0.72500002 -0.0190675 1.8525054e-38 256 255
-0.07986258 0.72299999 -0.019014901 1.8709446e-38 257 255
-0.078486212 0.722 -0.0189886 1.8801642e-38 258 255
-0.0770064 0.72000003 -0.018935999 1.8801642e-38 259 255
-0.075638793 0.71899998 -0.018909698 1.9077869e-38 260 255
-0.074378148 0.71899998 -0.018909698 1.9077869e-38 261 255
-0.073117502 0.71899998 -0.018909698 1.9077153e-38 262 255
-0.071856856 0.71899998 -0.018909698 1.9077153e-38 263 255
-0.070596211 0.71899998 -0.018909698 1.8984954e-38 264 255
-0.069335558 0.71899998 -0.018909698 1.8800561e-38 265 255
-0.068169601 0.72000003 -0.018935999 1.8617244e-38 266 255
-0.066907197 0.72000003 -0.018935999 1.8432852e-38 267 255
-0.065644801 0.72000003 -0.018935999 1.834066e-38 268 255
-0.064382397 0.72000003 -0.018935999 1.815627e-38 269 255
-0.093947105 0.73400003 -0.020591147 1.3738919e-38 247 256
-0.092660166 0.73400003 -0.020591147 1.4472801e-38 248 256
-0.090875268 0.73000002 -0.020478934 1.576354e-38 249 256
-0.089595333 0.73000002 -0.020478934 1.7234299e-38 250 256
-0.088073432 0.72799999 -0.020422826 1.7602722e-38 251 256
-0.086677782 0.727 -0.020394772 1.7511975e-38 252 256
-0.085168168 0.72500002 -0.020338668 1.7696366e-38 253 256
-0.083665557 0.72299999 -0.020282559 1.806444e-38 254 256
-0.082283929 0.722 -0.020254506 1.824919e-38 255 256
-0.081018023 0.722 -0.020254506 1.8432502e-38 256 256
-0.079752117 0.722 -0.020254506 1.870909e-38 257 256
-0.078160092 0.71899998 -0.020170346 1.8801645e-38 258 256
-0.076899439 0.71899998 -0.020170346 1.8801645e-38 259 256
-0.075638793 0.71899998 -0.020170346 1.9077153e-38 260 256
-0.074378148 0.71899998 -0.020170346 1.9077153e-38 261 256
-0.073117502 0.71899998 -0.020170346 1.907715e-38 262 256
-0.071856856 0.71899998 -0.020170346 1.907715e-38 263 256
-0.070596211 0.71899998 -0.020170346 1.916862e-38 264 256
-0.069335558 0.71899998 -0.020170346 1.916862e-38 265 256
-0.068074919 0.71899998 -0.020170346 1.8800912e-38 266 256
-0.066814266 0.71899998 -0.020170346 1.8708716e-38 267 256
-0.065371275 0.71700001 -0.020114239 1.8524329e-38 268 256
-0.064114138 0.71700001 -0.020114239 1.8432133e-38 269 256
-0.063032329 0.71899998 -0.020170346 1.8340304e-38 270 256
-0.061771683 0.71899998 -0.020170346 1.8156272e-38 271 256
-0.060511041 0.71899998 -0.020170346 1.7880427e-38 272 256
-0.093435131 0.73000002 -0.021758866 1.401335e-38 247 257
-0.092155196 0.73000002 -0.021758866 1.4380255e-38 248 257
-0.090626292 0.72799999 -0.021699252 1.5486243e-38 249 257
-0.089349858 0.72799999 -0.021699252 1.7049918e-38 250 257
-0.087952457 0.727 -0.021669446 1.7234309e-38 251 257
-0.086439334 0.72500002 -0.021609833 1.7327231e-38 252 257
-0.084933214 0.72299999 -0.021550218 1.7603818e-38 253 257
-0.083549835 0.722 -0.021520413 1.7972247e-38 254 257
-0.082056001 0.72000003 -0.021460801 1.8156638e-38 255 257
-0.080681384 0.71899998 -0.021430992 1.8248834e-38 256 257
-0.079199821 0.71700001 -0.021371379 1.8341388e-38 257 257
-0.077833973 0.71600002 -0.021341572 1.8617249e-38 258 257
-0.076578587 0.71600002 -0.021341572 1.8709446e-38 259 257
-0.075428396 0.71700001 -0.021371379 1.8984954e-38 260 257
-0.07417126 0.71700001 -0.021371379 1.8984954e-38 261 257
-0.073117502 0.71899998 -0.021430992 1.8801289e-38 262 257
-0.07165698 0.71700001 -0.021371379 1.898532e-38 263 257
-0.070399836 0.71700001 -0.021371379 1.8801642e-38 264 257
-0.069142699 0.71700001 -0.021371379 1.8801642e-38 265 257
-0.067885563 0.71700001 -0.021371379 1.8892756e-38 266 257
-0.066628419 0.71700001 -0.021371379 1.8800559e-38 267 257
-0.06528011 0.71600002 -0.021341572 1.8800915e-38 268 257
-0.064024724 0.71600002 -0.021341572 1.870836e-38 269 257
-0.062769331 0.71600002 -0.021341572 1.834066e-38 270 257
-0.061599858 0.71700001 -0.021371379 1.815627e-38 271 257
-0.060342718 0.71700001 -0.021371379 1.8155922e-38 272 257
-0.094715066 0.73000002 -0.023038799 1.8900439e-38 246 258
-0.093435131 0.73000002 -0.023038799 1.3921515e-38 247 258
-0.092155196 0.73000002 -0.023038799 1.4379536e-38 248 258
-0.090626292 0.72799999 -0.022975679 1.5393328e-38 249 258
-0.089349858 0.72799999 -0.022975679 1.6681858e-38 250 258
-0.087952457 0.727 -0.022944121 1.6958804e-38 251 258
-0.086200871 0.72299999 -0.02281788 1.750982e-38 252 258
-0.084463328 0.71899998 -0.022691639 1.7786767e-38 253 258
-0.082971238 0.71700001 -0.02262852 1.8154836e-38 254 258
-0.08160013 0.71600002 -0.022596961 1.8339588e-38 255 258
-0.080120318 0.71399999 -0.022533838 1.8340306e-38 256 258
-0.078757972 0.713 -0.022502279 1.8524698e-38 257 258
-0.077507854 0.713 -0.022502279 1.8708716e-38 258 258
-0.076043822 0.71100003 -0.022439159 1.8800912e-38 259 258
-0.074797198 0.71100003 -0.022439159 1.8800912e-38 260 258
-0.073550582 0.71100003 -0.022439159 1.8800912e-38 261 258
-0.072303966 0.71100003 -0.022439159 1.8800559e-38 262 258
-0.07165698 0.71700001 -0.02262852 1.898531e-38 263 258
-0.070399836 0.71700001 -0.02262852 1.8892756e-38 264 258
-0.069142699 0.71700001 -0.02262852 1.898531e-38 265 258
-0.067885563 0.71700001 -0.02262852 1.8801639e-38 266 258
-0.066535495 0.71600002 -0.022596961 1.8709443e-38 267 258
-0.065006584 0.713 -0.022502279 1.8709443e-38 268 258
-0.063756458 0.713 -0.022502279 1.8617246e-38 269 258
-0.062506333 0.713 -0.022502279 1.8524698e-38 270 258
-0.061256204 0.713 -0.022502279 1.8432502e-38 271 258
-0.060006075 0.713 -0.022502279 1.8155922e-38 272 258
-0.058755953 0.713 -0.022502279 1.8063727e-38 273 258
-0.094715066 0.73000002 -0.024318734 1.8993709e-38 246 259
-0.093179137 0.72799999 -0.024252106 1.3830754e-38 247 259
-0.091902718 0.72799999 -0.024252106 1.4102589e-38 248 259
-0.090501808 0.727 -0.024218792 1.493235e-38 249 259
-0.089227132 0.727 -0.024218792 1.6221602e-38 250 259
-0.087468542 0.72299999 -0.024085538 1.668294e-38 251 259
-0.085723966 0.71899998 -0.023952285 1.7235031e-38 252 259
-0.084228382 0.71700001 -0.02388566 1.7511619e-38 253 259
-0.082855515 0.71600002 -0.023852346 1.7695663e-38 254 259
-0.08125823 0.713 -0.023752406 1.7971891e-38 255 259
-0.080008104 0.713 -0.023752406 1.7880774e-38 256 259
-0.078537062 0.71100003 -0.023685781 1.815736e-38 257 259
-0.077181734 0.70999998 -0.023652466 1.8341736e-38 258 259
-0.075722955 0.708 -0.023585839 1.8341736e-38 259 259
-0.074481599 0.708 -0.023585839 1.8617246e-38 260 259
-0.073136792 0.70700002 -0.023552528 1.8432855e-38 261 259
-0.071795486 0.70599997 -0.023519212 1.8156288e-38 262 259
-0.070557632 0.70599997 -0.023519212 1.8340679e-38 263 259
-0.069417976 0.70700002 -0.023552528 1.8617263e-38 264 259
-0.068178371 0.70700002 -0.023552528 1.8709459e-38 265 259
-0.066938758 0.70700002 -0.023552528 1.8801642e-38 266 259
-0.066535495 0.71600002 -0.023852346 1.8709446e-38 267 259
-0.065006584 0.713 -0.023752406 1.889311e-38 268 259
-0.063577622 0.71100003 -0.023685781 1.8800915e-38 269 259
-0.062331002 0.71100003 -0.023685781 1.8708363e-38 270 259
-0.061084379 0.71100003 -0.023685781 1.8524332e-38 271 259
-0.059753593 0.70999998 -0.023652466 1.8432502e-38 272 259
-0.057931885 0.70300001 -0.023419274 1.8340306e-38 273 259
-0.056699295 0.70300001 -0.023419274 1.7972272e-38 274 259
-0.0554667 0.70300001 -0.023419274 1.7880077e-38 275 259
-0.093179137 0.72799999 -0.025528532 1.392295e-38 247 260
-0.091902718 0.72799999 -0.025528532 1.3825279e-38 248 260
-0.090501808 0.727 -0.025493465 1.4562844e-38 249 260
-0.088736199 0.72299999 -0.025353199 1.5946091e-38 250 260
-0.086984619 0.71899998 -0.025212931 1.6499265e-38 251 260
-0.085485518 0.71700001 -0.0251428 1.7142114e-38 252 260
-0.084110901 0.71600002 -0.025107734 1.7695287e-38 253 260
-0.082624078 0.71399999 -0.025037598 1.7786767e-38 254 260
-0.08125823 0.713 -0.025002534 1.8062994e-38 255 260
-0.079783678 0.71100003 -0.024932399 1.79726e-38 256 260
-0.0784266 0.70999998 -0.024897331 1.8156991e-38 257 260
-0.076964319 0.708 -0.024827199 1.8432855e-38 258 260
-0.07561601 0.70700002 -0.024792133 1.8525051e-38 259 260
-0.074376404 0.70700002 -0.024792133 1.8525051e-38 260 260
-0.073136792 0.70700002 -0.024792133 1.834066e-38 261 260
-0.071795486 0.70599997 -0.024757065 1.8247392e-38 262 260
-0.070557632 0.70599997 -0.024757065 1.8247392e-38 263 260
-0.069025226 0.70300001 -0.024651866 1.8707294e-38 264 260
-0.067792632 0.70300001 -0.024651866 1.9168272e-38 265 260
-0.066560037 0.70300001 -0.024651866 1.8801289e-38 266 260
-0.065048665 0.69999999 -0.024546666 1.8801289e-38 267 260
-0.064733058 0.70999998 -0.024897331 1.8710165e-38 268 260
-0.063488193 0.70999998 -0.024897331 1.8617969e-38 269 260
-0.062068 0.708 -0.024827199 1.8433934e-38 270 260
-0.060826641 0.708 -0.024827199 1.8433934e-38 271 260
-0.059248637 0.704 -0.024686933 1.824919e-38 272 260
-0.057931885 0.70300001 -0.024651866 1.8341385e-38 273 260
-0.056537982 0.70099998 -0.024581732 1.7972623e-38 274 260
-0.055308893 0.70099998 -0.024581732 1.8156654e-38 275 260
-0.054079808 0.70099998 -0.024581732 1.760569e-38 276 260
-0.052775331 0.69999999 -0.024546666 1.8066666e-38 277 260
-0.093179137 0.72799999 -0.026804959 1.4476121e-38 247 261
-0.091523997 0.72500002 -0.026694499 1.419334e-38 248 261
-0.090252832 0.72500002 -0.026694499 1.4469927e-38 249 261
-0.088245258 0.71899998 -0.02647358 1.576098e-38 250 261
-0.086742654 0.71700001 -0.02639994 1.6590742e-38 251 261
-0.085366286 0.71600002 -0.026363119 1.7235031e-38 252 261
-0.083875954 0.71399999 -0.026289478 1.7419424e-38 253 261
-0.082508355 0.713 -0.026252659 1.7694581e-38 254 261
-0.081030294 0.71100003 -0.026179021 1.7879331e-38 255 261
-0.079671465 0.70999998 -0.026142199 1.7696385e-38 256 261
-0.078205675 0.708 -0.026068559 1.7972973e-38 257 261
-0.076855607 0.70700002 -0.02603174 1.7974042e-38 258 261
-0.075509049 0.70599997 -0.025994917 1.8066596e-38 259 261
-0.074271195 0.70599997 -0.025994917 1.8432855e-38 260 261
-0.07303334 0.70599997 -0.025994917 1.8432855e-38 261 261
-0.071592107 0.704 -0.02592128 1.8524335e-38 262 261
-0.070357755 0.704 -0.02592128 1.8524335e-38 263 261
-0.068828844 0.70099998 -0.025810819 1.8616543e-38 264 261
-0.067503333 0.69999999 -0.025773998 1.8800936e-38 265 261
-0.066275999 0.69999999 -0.025773998 1.8985323e-38 266 261
-0.065048665 0.69999999 -0.025773998 1.8985323e-38 267 261
-0.063821331 0.69999999 -0.025773998 1.8986026e-38 268 261
-0.063488193 0.70999998 -0.026142199 1.8986026e-38 269 261
-0.062068 0.708 -0.026068559 1.8801992e-38 270 261
-0.060826641 0.708 -0.026068559 1.8709795e-38 271 261
-0.059248637 0.704 -0.02592128 1.8708363e-38 272 261
-0.057767071 0.70099998 -0.025810819 1.8708363e-38 273 261
-0.056537982 0.70099998 -0.025810819 1.8432152e-38 274 261
-0.055308893 0.70099998 -0.025810819 1.8432152e-38 275 261
-0.054079808 0.70099998 -0.025810819 1.787937e-38 276 261
-0.052775331 0.69999999 -0.025773998 1.8248151e-38 277 261
-0.051547997 0.69999999 -0.025773998 1.7698636e-38 278 261
-0.093179137 0.72799999 -0.028081384 1.4936746e-38 247 262
-0.09127152 0.72299999 -0.02788852 1.43781e-38 248 262
-0.089505911 0.71899998 -0.027734226 1.3917123e-38 249 262
-0.087999798 0.71700001 -0.027657079 1.5208173e-38 250 262
-0.086621679 0.71600002 -0.027618507 1.6130488e-38 251 262
-0.085127831 0.71399999 -0.02754136 1.6683659e-38 252 262
-0.083758481 0.713 -0.027502786 1.686805e-38 253 262
-0.082161188 0.70999998 -0.027387066 1.7694571e-38 254 262
-0.080688395 0.708 -0.027309919 1.7878963e-38 255 262
-0.079222605 0.70599997 -0.027232772 1.7696013e-38 256 262
-0.07798475 0.70599997 -0.027232772 1.79726e-38 257 262
-0.076746903 0.70599997 -0.027232772 1.7973679e-38 258 262
-0.075295143 0.704 -0.027155625 1.815771e-38 259 262
-0.07406079 0.704 -0.027155625 1.8432499e-38 260 262
-0.072723009 0.70300001 -0.027117053 1.8432499e-38 261 262
-0.071287021 0.70099998 -0.027039904 1.8525054e-38 262 262
-0.070057929 0.70099998 -0.027039904 1.8525054e-38 263 262
-0.068730667 0.69999999 -0.027001332 1.870909e-38 264 262
-0.066924736 0.69400001 -0.026769891 1.8801645e-38 265 262
-0.065707922 0.69400001 -0.026769891 1.898532e-38 266 262
-0.064398177 0.69300002 -0.02673132 1.9077874e-38 267 262
-0.063183114 0.69300002 -0.02673132 1.8894559e-38 268 262
-0.06205748 0.69400001 -0.026769891 1.8986755e-38 269 262
-0.060840666 0.69400001 -0.026769891 1.8802364e-38 270 262
-0.059623852 0.69400001 -0.026769891 1.8802364e-38 271 262
-0.058575355 0.69599998 -0.026847038 1.870909e-38 272 262
-0.057355035 0.69599998 -0.026847038 1.8616893e-38 273 262
-0.056215372 0.69700003 -0.026885614 1.8524698e-38 274 262
-0.055229999 0.69999999 -0.027001332 1.8432502e-38 275 262
-0.054002665 0.69999999 -0.027001332 1.8156291e-38 276 262
-0.052775331 0.69999999 -0.027001332 1.8248486e-38 277 262
-0.051547997 0.69999999 -0.027001332 1.751348e-38 278 262
-0.050320663 0.69999999 -0.027001332 1.7974099e-38 279 262
-0.090766557 0.71899998 -0.028994869 1.4471745e-38 248 263
-0.089256942 0.71700001 -0.028914221 1.3641984e-38 249 263
-0.087877065 0.71600002 -0.028873893 1.4840115e-38 250 263
-0.086379714 0.71399999 -0.028793238 1.5669877e-38 251 263
-0.085008614 0.713 -0.028752912 1.6132287e-38 252 263
-0.083406061 0.70999998 -0.028631933 1.650071e-38 253 263
-0.081929758 0.708 -0.02855128 1.7235031e-38 254 263
-0.080574431 0.70700002 -0.028510952 1.7419424e-38 255 263
-0.078998186 0.704 -0.028389972 1.7604173e-38 256 263
-0.077763841 0.704 -0.028389972 1.7788565e-38 257 263
-0.076529488 0.704 -0.028389972 1.8064796e-38 258 263
-0.07518819 0.70300001 -0.028349647 1.8064796e-38 259 263
-0.073745191 0.70099998 -0.028268991 1.834066e-38 260 263
-0.072516106 0.70099998 -0.028268991 1.8432855e-38 261 263
-0.071185328 0.69999999 -0.028228667 1.8524329e-38 262 263
-0.069758117 0.69800001 -0.028148014 1.8800915e-38 263 263
-0.068534292 0.69800001 -0.028148014 1.8892759e-38 264 263
-0.066924736 0.69400001 -0.027986705 1.8984954e-38 265 263
-0.06561324 0.69300002 -0.027946379 1.880201e-38 266 263
-0.064398177 0.69300002 -0.027946379 1.8894206e-38 267 263
-0.063183114 0.69300002 -0.027946379 1.8986404e-38 268 263
-0.061699796 0.69 -0.027825398 1.8986404e-38 269 263
-0.060489997 0.69 -0.027825398 1.9077874e-38 270 263
-0.05953794 0.69300002 -0.027946379 1.9077874e-38 271 263
-0.058407038 0.69400001 -0.027986705 1.8984954e-38 272 263
-0.057190225 0.69400001 -0.027986705 1.8892759e-38 273 263
-0.056134716 0.69599998 -0.028067358 1.8800559e-38 274 263
-0.055229999 0.69999999 -0.028228667 1.8708363e-38 275 263
-0.054002665 0.69999999 -0.028228667 1.824919e-38 276 263
-0.052624546 0.69800001 -0.028148014 1.8341385e-38 277 263
-0.051400717 0.69800001 -0.028148014 1.7972991e-38 278 263
-0.050176892 0.69800001 -0.028148014 1.8065187e-38 279 263
-0.092027202 0.71899998 -0.030255521 1.5305901e-38 247 264
-0.090766557 0.71899998 -0.030255521 1.4380999e-38 248 264
-0.089256942 0.71700001 -0.030171359 1.3366489e-38 249 264
-0.087877065 0.71600002 -0.03012928 1.4471702e-38 250 264
-0.086258732 0.713 -0.030003037 1.5117072e-38 251 264
-0.084770165 0.71100003 -0.029918881 1.5947542e-38 252 264
-0.083171122 0.708 -0.02979264 1.6315965e-38 253 264
-0.081814043 0.70700002 -0.029750559 1.7051363e-38 254 264
-0.080460466 0.70599997 -0.029708479 1.7236114e-38 255 264
-0.078998186 0.704 -0.029624319 1.7511619e-38 256 264
-0.077763841 0.704 -0.029624319 1.7696369e-38 257 264
-0.076420791 0.70300001 -0.029582238 1.7788209e-38 258 264
-0.074974284 0.70099998 -0.029498078 1.8064796e-38 259 264
-0.073745191 0.70099998 -0.029498078 1.8064796e-38 260 264
-0.072412662 0.69999999 -0.029455997 1.8249187e-38 261 264
-0.071185328 0.69999999 -0.029455997 1.8525054e-38 262 264
-0.069758117 0.69800001 -0.029371841 1.8709446e-38 263 264
-0.068534292 0.69800001 -0.029371841 1.8617614e-38 264 264
-0.066828303 0.69300002 -0.029161438 1.8617614e-38 265 264
-0.06561324 0.69300002 -0.029161438 1.8709462e-38 266 264
-0.064398177 0.69300002 -0.029161438 1.8801657e-38 267 264
-0.063183114 0.69300002 -0.029161438 1.8894219e-38 268 264
-0.061699796 0.69 -0.029035198 1.8894219e-38 269 264
-0.060489997 0.69 -0.029035198 1.8986404e-38 270 264
-0.059366114 0.69099998 -0.029077278 1.8986404e-38 271 264
-0.058407038 0.69400001 -0.029203519 1.9078225e-38 272 264
-0.057190225 0.69400001 -0.029203519 1.8986029e-38 273 264
-0.055973411 0.69400001 -0.029203519 1.8801992e-38 274 264
-0.054756597 0.69400001 -0.029203519 1.8709795e-38 275 264
-0.053771228 0.69700003 -0.02932976 1.86176e-38 276 264
-0.052549154 0.69700003 -0.02932976 1.8525404e-38 277 264
-0.051327083 0.69700003 -0.02932976 1.8433584e-38 278 264
-0.050105009 0.69700003 -0.02932976 1.8433584e-38 279 264
-0.091643229 0.71600002 -0.031384666 1.5122589e-38 247 265
-0.090387844 0.71600002 -0.031384666 1.4657227e-38 248 265
-0.089132458 0.71600002 -0.031384666 1.3182456e-38 249 265
-0.087631598 0.71399999 -0.031296998 1.4287311e-38 250 265
-0.086258732 0.713 -0.031253166 1.4840845e-38 251 265
-0.084650926 0.70999998 -0.031121666 1.5670243e-38 252 265
-0.083053641 0.70700002 -0.030990168 1.6039386e-38 253 265
-0.081698313 0.70599997 -0.030946331 1.6958814e-38 254 265
-0.080232531 0.704 -0.030858666 1.7143565e-38 255 265
-0.078998186 0.704 -0.030858666 1.7419061e-38 256 265
-0.077653378 0.70300001 -0.030814834 1.7695287e-38 257 265
-0.076203369 0.70099998 -0.030727165 1.7787839e-38 258 265
-0.074974284 0.70099998 -0.030727165 1.797223e-38 259 265
-0.073639996 0.69999999 -0.030683333 1.8065149e-38 260 265
-0.072205767 0.69800001 -0.030595668 1.8157344e-38 261 265
-0.07098195 0.69800001 -0.030595668 1.8525051e-38 262 265
-0.069658175 0.69700003 -0.030551834 1.8525051e-38 263 265
-0.068043359 0.69300002 -0.0303765 1.8433581e-38 264 265
-0.06663543 0.69099998 -0.030288832 1.8709809e-38 265 265
-0.065423876 0.69099998 -0.030288832 1.8617263e-38 266 265
-0.064119399 0.69 -0.030244999 1.8801654e-38 267 265
-0.062909603 0.69 -0.030244999 1.8893856e-38 268 265
-0.06152096 0.68800002 -0.030157333 1.8893856e-38 269 265
-0.060314666 0.68800002 -0.030157333 1.9078597e-38 270 265
-0.059280202 0.69 -0.030244999 1.9078597e-38 271 265
-0.058070395 0.69 -0.030244999 1.907895e-38 272 265
-0.056695789 0.68800002 -0.030157333 1.8986755e-38 273 265
-0.055408835 0.68699998 -0.030113498 1.8986755e-38 274 265
-0.054204296 0.68699998 -0.030113498 1.8802364e-38 275 265
-0.052999757 0.68699998 -0.030113498 1.8802358e-38 276 265
-0.052549154 0.69700003 -0.030551834 1.8617967e-38 277 265
-0.051327083 0.69700003 -0.030551834 1.8434654e-38 278 265
-0.050105009 0.69700003 -0.030551834 1.8434654e-38 279 265
-0.091387235 0.71399999 -0.032548878 1.5398453e-38 247 266
-0.090135351 0.71399999 -0.032548878 1.4934533e-38 248 266
-0.08875899 0.713 -0.032503292 1.3183176e-38 249 266
-0.087508865 0.713 -0.032503292 1.4195844e-38 250 266
-0.086016782 0.71100003 -0.032412119 1.4380236e-38 251 266
-0.084412478 0.708 -0.03227536 1.4933409e-38 252 266
-0.082936168 0.70599997 -0.032184184 1.5578779e-38 253 266
-0.081466876 0.704 -0.032093015 1.6315249e-38 254 266
-0.080118567 0.70300001 -0.032047424 1.6775867e-38 255 266
-0.078885972 0.70300001 -0.032047424 1.7051365e-38 256 266
-0.077432454 0.70099998 -0.031956252 1.7235758e-38 257 266
-0.076094657 0.69999999 -0.031910665 1.7511269e-38 258 266
-0.07486733 0.69999999 -0.031910665 1.7696019e-38 259 266
-0.073429599 0.69800001 -0.031819493 1.7605267e-38 260 266
-0.072102323 0.69700003 -0.03177391 1.7881493e-38 261 266
-0.070880257 0.69700003 -0.03177391 1.8157357e-38 262 266
-0.069558233 0.69599998 -0.031728316 1.8342107e-38 263 266
-0.067846984 0.69099998 -0.031500384 1.8341751e-38 264 266
-0.066538997 0.69 -0.031454802 1.8433948e-38 265 266
-0.065329194 0.69 -0.031454802 1.8709106e-38 266 266
-0.064119399 0.69 -0.031454802 1.8709106e-38 267 266
-0.06272725 0.68800002 -0.031363625 1.8801307e-38 268 266
-0.06152096 0.68800002 -0.031363625 1.8893503e-38 269 266
-0.060314666 0.68800002 -0.031363625 1.8894575e-38 270 266
-0.059108373 0.68800002 -0.031363625 1.898677e-38 271 266
-0.057902083 0.68800002 -0.031363625 1.8987121e-38 272 266
-0.056613375 0.68699998 -0.031318039 1.8987121e-38 273 266
-0.055086225 0.68300003 -0.031135695 1.8986752e-38 274 266
-0.053888701 0.68300003 -0.031135695 1.8894556e-38 275 266
-0.052614026 0.68199998 -0.031090107 1.9077859e-38 276 266
-0.051418249 0.68199998 -0.031090107 1.8985304e-38 277 266
-0.050517038 0.68599999 -0.031272452 1.8893463e-38 278 266
-0.049314249 0.68599999 -0.031272452 1.8893463e-38 279 266
-0.048181597 0.68699998 -0.031318039 1.8617249e-38 280 266
-0.091387235 0.71399999 -0.033800758 1.5489942e-38 247 267
-0.090135351 0.71399999 -0.033800758 1.521078e-38 248 267
-0.08875899 0.713 -0.033753417 1.3735291e-38 249 267
-0.087508865 0.713 -0.033753417 1.4287334e-38 250 267
-0.085895792 0.70999998 -0.033611398 1.4287334e-38 251 267
-0.084174022 0.70599997 -0.033422034 1.4564268e-38 252 267
-0.082701221 0.704 -0.03332736 1.4933409e-38 253 267
-0.081351154 0.70300001 -0.033280019 1.5762794e-38 254 267
-0.080118567 0.70300001 -0.033280019 1.6131937e-38 255 267
-0.078661539 0.70099998 -0.03318534 1.6866971e-38 256 267
-0.077321991 0.69999999 -0.033137999 1.714356e-38 257 267
-0.076094657 0.69999999 -0.033137999 1.7236108e-38 258 267
-0.074653424 0.69800001 -0.033043321 1.7328663e-38 259 267
-0.073324397 0.69700003 -0.03299598 1.760489e-38 260 267
-0.07168854 0.69300002 -0.03280662 1.7789282e-38 261 267
-0.070473477 0.69300002 -0.03280662 1.8156638e-38 262 267
-0.069058537 0.69099998 -0.032711938 1.8248834e-38 263 267
-0.0677488 0.69 -0.032664597 1.8524347e-38 264 267
-0.066538997 0.69 -0.032664597 1.8616543e-38 265 267
-0.065139838 0.68800002 -0.032569919 1.8799858e-38 266 267
-0.063933544 0.68800002 -0.032569919 1.8984251e-38 267 267
-0.06272725 0.68800002 -0.032569919 1.8984251e-38 268 267
-0.061431535 0.68699998 -0.032522578 1.9076446e-38 269 267
-0.060226995 0.68699998 -0.032522578 1.9077165e-38 270 267
-0.059022456 0.68699998 -0.032522578 1.916972e-38 271 267
-0.057817914 0.68699998 -0.032522578 1.8986049e-38 272 267
-0.056613375 0.68699998 -0.032522578 1.8986049e-38 273 267
-0.055086225 0.68300003 -0.032333218 1.8986767e-38 274 267
-0.053809796 0.68199998 -0.032285877 1.8986767e-38 275 267
-0.052614026 0.68199998 -0.032285877 1.8986404e-38 276 267
-0.051418249 0.68199998 -0.032285877 1.8894209e-38 277 267
-0.05029612 0.68300003 -0.032333218 1.8802729e-38 278 267
-0.049098592 0.68300003 -0.032333218 1.8618698e-38 279 267
-0.047901068 0.68300003 -0.032333218 1.8802729e-38 280 267
-0.04670354 0.68300003 -0.032333218 1.8526144e-38 281 267
-0.044308487 0.68300003 -0.032333218 1.8341751e-38 283 267
-0.043110959 0.68300003 -0.032333218 1.8341404e-38 284 267
-0.041852064 0.68199998 -0.032285877 1.8248849e-38 285 267
-0.040656291 0.68199998 -0.032285877 1.7697873e-38 286 267
-0.090009116 0.713 -0.035003547 1.5210789e-38 248 268
-0.08875899 0.713 -0.035003547 1.3920051e-38 249 268
-0.087508865 0.713 -0.035003547 1.4563211e-38 250 268
-0.085411869 0.70599997 -0.034659892 1.437918e-38 251 268
-0.083935574 0.704 -0.034561705 1.4655748e-38 252 268
-0.082583755 0.70300001 -0.034512613 1.4747943e-38 253 268
-0.081119716 0.70099998 -0.034414422 1.5392936e-38 254 268
-0.079890631 0.70099998 -0.034414422 1.5854274e-38 255 268
-0.078549333 0.69999999 -0.034365334 1.6223051e-38 256 268
-0.077321991 0.69999999 -0.034365334 1.6684028e-38 257 268
-0.075877249 0.69800001 -0.034267146 1.6868773e-38 258 268
-0.074546471 0.69700003 -0.034218054 1.6868773e-38 259 268
-0.073008798 0.69400001 -0.034070771 1.7328322e-38 260 268
-0.07168854 0.69300002 -0.034021679 1.7420518e-38 261 268
-0.070270091 0.69099998 -0.033923492 1.7604919e-38 262 268
-0.068958595 0.69 -0.0338744 1.7881146e-38 263 268
-0.0677488 0.69 -0.0338744 1.7972623e-38 264 268
-0.066346131 0.68800002 -0.033776212 1.8248849e-38 265 268
-0.065045156 0.68699998 -0.033727121 1.8432524e-38 266 268
-0.06384062 0.68699998 -0.033727121 1.8432524e-38 267 268
-0.062636077 0.68699998 -0.033727121 1.8616916e-38 268 268
-0.061342116 0.68599999 -0.033678025 1.8709111e-38 269 268
-0.060139328 0.68599999 -0.033678025 1.8617995e-38 270 268
-0.058936544 0.68599999 -0.033678025 1.8617995e-38 271 268
-0.057481278 0.68300003 -0.033530746 1.8893856e-38 272 268
-0.056283753 0.68300003 -0.033530746 1.8893856e-38 273 268
-0.055005573 0.68199998 -0.03348165 1.8894572e-38 274 268
-0.053809796 0.68199998 -0.03348165 1.8986767e-38 275 268
-0.052459732 0.68000001 -0.033383466 1.8986402e-38 276 268
-0.051267464 0.68000001 -0.033383466 1.8986402e-38 277 268
-0.050222475 0.68199998 -0.03348165 1.8986752e-38 278 268
-0.049026705 0.68199998 -0.03348165 1.8986752e-38 279 268
-0.047690667 0.68000001 -0.033383466 1.8894912e-38 280 268
-0.046430022 0.67900002 -0.033334374 1.8894912e-38 281 268
-0.045239504 0.67900002 -0.033334374 1.8801642e-38 282 268
-0.044048995 0.67900002 -0.033334374 1.8709446e-38 283 268
-0.042921599 0.68000001 -0.033383466 1.8617263e-38 284 268
-0.041729335 0.68000001 -0.033383466 1.8433231e-38 285 268
-0.040537067 0.68000001 -0.033383466 1.7881143e-38 286 268
-0.039344799 0.68000001 -0.033383466 1.7788947e-38 287 268
-0.087638609 0.704 -0.035796054 1.3828937e-38 249 269
-0.086404264 0.704 -0.035796054 1.4472095e-38 250 269
-0.085169919 0.704 -0.035796054 1.4195507e-38 251 269
-0.083935574 0.704 -0.035796054 1.4562832e-38 252 269
-0.082583755 0.70300001 -0.035745207 1.4746863e-38 253 269
-0.081004001 0.69999999 -0.035592664 1.465682e-38 254 269
-0.079776667 0.69999999 -0.035592664 1.5209635e-38 255 269
-0.078324907 0.69800001 -0.035490975 1.5854993e-38 256 269
-0.077101074 0.69800001 -0.035490975 1.6315612e-38 257 269
-0.075768545 0.69700003 -0.035440128 1.6867697e-38 258 269
-0.074225612 0.69400001 -0.035287585 1.6867697e-38 259 269
-0.072693199 0.69099998 -0.035135046 1.7326875e-38 260 269
-0.071481638 0.69099998 -0.035135046 1.741907e-38 261 269
-0.070270091 0.69099998 -0.035135046 1.7604189e-38 262 269
-0.068758719 0.68800002 -0.03498251 1.7696385e-38 263 269
-0.067552425 0.68800002 -0.03498251 1.7604919e-38 264 269
-0.066346131 0.68800002 -0.03498251 1.778895e-38 265 269
-0.065045156 0.68699998 -0.034931656 1.8248136e-38 266 269
-0.06384062 0.68699998 -0.034931656 1.8340332e-38 267 269
-0.062544905 0.68599999 -0.034880809 1.8340332e-38 268 269
-0.061342116 0.68599999 -0.034880809 1.861656e-38 269 269
-0.059876334 0.68300003 -0.034728274 1.8525796e-38 270 269
-0.05867881 0.68300003 -0.034728274 1.8525796e-38 271 269
-0.057481278 0.68300003 -0.034728274 1.8709462e-38 272 269
-0.056283753 0.68300003 -0.034728274 1.8709462e-38 273 269
-0.055005573 0.68199998 -0.034677424 1.8802376e-38 274 269
-0.053652 0.68000001 -0.034575731 1.8802376e-38 275 269
-0.052382588 0.67900002 -0.034524884 1.8986049e-38 276 269
-0.051192071 0.67900002 -0.034524884 1.8986049e-38 277 269
-0.050001562 0.67900002 -0.034524884 1.8986049e-38 278 269
-0.048811045 0.67900002 -0.034524884 1.9078603e-38 279 269
-0.047620531 0.67900002 -0.034524884 1.8894925e-38 280 269
-0.046361636 0.67799997 -0.034474038 1.8894925e-38 281 269
-0.045172878 0.67799997 -0.034474038 1.8894203e-38 282 269
-0.044048995 0.67900002 -0.034524884 1.8802008e-38 283 269
-0.042858478 0.67900002 -0.034524884 1.8617616e-38 284 269
-0.041667968 0.67900002 -0.034524884 1.8617616e-38 285 269
-0.040477451 0.67900002 -0.034524884 1.8342107e-38 286 269
-0.039286941 0.67900002 -0.034524884 1.8342107e-38 287 269
-0.086404264 0.704 -0.037030395 1.4379902e-38 250 270
-0.085169919 0.704 -0.037030395 1.4195151e-38 251 270
-0.083816342 0.70300001 -0.036977798 1.4287684e-38 252 270
-0.082348801 0.70099998 -0.036872596 1.4287684e-38 253 270
-0.081004001 0.69999999 -0.036819998 1.4563185e-38 254 270
-0.079548739 0.69800001 -0.0367148 1.5023804e-38 255 270
-0.078324907 0.69800001 -0.0367148 1.5026678e-38 256 270
-0.076880157 0.69599998 -0.036609598 1.5487296e-38 257 270
-0.075442426 0.69400001 -0.036504399 1.6407448e-38 258 270
-0.074118659 0.69300002 -0.036451802 1.6683675e-38 259 270
-0.072587997 0.69 -0.036293998 1.7051012e-38 260 270
-0.071378194 0.69 -0.036293998 1.7051012e-38 261 270
-0.06996502 0.68800002 -0.0361888 1.7235405e-38 262 270
-0.068758719 0.68800002 -0.0361888 1.751199e-38 263 270
-0.067552425 0.68800002 -0.0361888 1.7695313e-38 264 270
-0.066249698 0.68699998 -0.036136195 1.7787508e-38 265 270
-0.064950474 0.68599999 -0.036083598 1.797119e-38 266 270
-0.063561834 0.68400002 -0.035978399 1.8063386e-38 267 270
-0.062362559 0.68400002 -0.035978399 1.7973344e-38 268 270
-0.061073858 0.68300003 -0.035925802 1.806554e-38 269 270
-0.059788663 0.68199998 -0.035873197 1.8341401e-38 270 270
-0.058592889 0.68199998 -0.035873197 1.8433598e-38 271 270
-0.05739712 0.68199998 -0.035873197 1.8433951e-38 272 270
-0.056036532 0.68000001 -0.035767999 1.8433951e-38 273 270
-0.054844268 0.68000001 -0.035767999 1.8618342e-38 274 270
-0.053573098 0.67900002 -0.035715401 1.8618342e-38 275 270
-0.052305438 0.67799997 -0.0356628 1.8893853e-38 276 270
-0.051116679 0.67799997 -0.0356628 1.8893853e-38 277 270
-0.049927916 0.67799997 -0.0356628 1.9077521e-38 278 270
-0.048739154 0.67799997 -0.0356628 1.9169717e-38 279 270
-0.047550395 0.67799997 -0.0356628 1.8986758e-38 280 270
-0.046361636 0.67799997 -0.0356628 1.8986758e-38 281 270
-0.045039624 0.676 -0.035557602 1.8986755e-38 282 270
-0.043854371 0.676 -0.035557602 1.8894559e-38 283 270
-0.042669121 0.676 -0.035557602 1.8894559e-38 284 270
-0.041483864 0.676 -0.035557602 1.8894559e-38 285 270
-0.040298611 0.676 -0.035557602 1.8618695e-38 286 270
-0.039113361 0.676 -0.035557602 1.8618695e-38 287 270
-0.037815895 0.67400002 -0.035452399 1.870909e-38 288 270
-0.036634147 0.67400002 -0.035452399 1.8432502e-38 289 270
-0.085169919 0.704 -0.038264744 1.4287e-38 251 271
-0.083816342 0.70300001 -0.038210396 1.4471352e-38 252 271
-0.082348801 0.70099998 -0.038101684 1.4379157e-38 253 271
-0.080772556 0.69800001 -0.037938625 1.4470636e-38 254 271
-0.079434767 0.69700003 -0.037884273 1.483906e-38 255 271
-0.078212693 0.69700003 -0.037884273 1.456535e-38 256 271
-0.07665924 0.69400001 -0.037721213 1.4933772e-38 257 271
-0.075116299 0.69099998 -0.03755815 1.5854993e-38 258 271
-0.0737978 0.69 -0.037503798 1.6039386e-38 259 271
-0.0723776 0.68800002 -0.037395094 1.6590754e-38 260 271
-0.071171306 0.68800002 -0.037395094 1.6683309e-38 261 271
-0.069863312 0.68699998 -0.037340738 1.68677e-38 262 271
-0.068658777 0.68699998 -0.037340738 1.7143928e-38 263 271
-0.067454241 0.68699998 -0.037340738 1.7235055e-38 264 271
-0.066153266 0.68599999 -0.037286382 1.751164e-38 265 271
-0.064666435 0.68300003 -0.037123326 1.7510931e-38 266 271
-0.063468911 0.68300003 -0.037123326 1.7695682e-38 267 271
-0.06227139 0.68300003 -0.037123326 1.7605285e-38 268 271
-0.060984433 0.68199998 -0.037068974 1.769748e-38 269 271
-0.059788663 0.68199998 -0.037068974 1.7790029e-38 270 271
-0.058592889 0.68199998 -0.037068974 1.797406e-38 271 271
-0.057228796 0.68000001 -0.036960267 1.8341398e-38 272 271
-0.055954125 0.67900002 -0.036905911 1.8433954e-38 273 271
-0.054763615 0.67900002 -0.036905911 1.8434317e-38 274 271
-0.053494196 0.67799997 -0.036851559 1.8434317e-38 275 271
-0.052305438 0.67799997 -0.036851559 1.8709109e-38 276 271
-0.051116679 0.67799997 -0.036851559 1.8801304e-38 277 271
-0.049927916 0.67799997 -0.036851559 1.8801304e-38 278 271
-0.048595384 0.676 -0.036742851 1.88935e-38 279 271
-0.047410134 0.676 -0.036742851 1.8802376e-38 280 271
-0.046224877 0.676 -0.036742851 1.8894572e-38 281 271
-0.044972997 0.67500001 -0.036688499 1.8894925e-38 282 271
-0.043789499 0.67500001 -0.036688499 1.8894925e-38 283 271
-0.042606 0.67500001 -0.036688499 1.8894925e-38 284 271
-0.041361131 0.67400002 -0.036634147 1.8987121e-38 285 271
-0.040179387 0.67400002 -0.036634147 1.8802729e-38 286 271
-0.038997639 0.67400002 -0.036634147 1.8802729e-38 287 271
-0.037815895 0.67400002 -0.036634147 1.8985673e-38 288 271
-0.036634147 0.67400002 -0.036634147 1.8801642e-38 289 271
-0.035347197 0.67199999 -0.036525436 1.8801639e-38 290 271
-0.034168959 0.67199999 -0.036525436 1.8709443e-38 291 271
-0.03299072 0.67199999 -0.036525436 1.8433598e-38 292 271
-0.031812478 0.67199999 -0.036525436 1.815701e-38 293 271
-0.030634239 0.67199999 -0.036525436 1.7880445e-38 294 271
-0.029455997 0.67199999 -0.036525436 1.760386e-38 295 271
-0.025998428 0.67400002 -0.036634147 1.8252173e-38 298 271
-0.024816679 0.67400002 -0.036634147 1.8621314e-38 299 271
-0.086404264 0.704 -0.039499093 1.456324e-38 250 272
-0.085169919 0.704 -0.039499093 1.4378848e-38 251 272
-0.083458662 0.69999999 -0.039274666 1.4379529e-38 252 272
-0.082231328 0.69999999 -0.039274666 1.4195138e-38 253 272
-0.080772556 0.69800001 -0.039162453 1.4286955e-38 254 272
-0.079320796 0.69599998 -0.039050236 1.437951e-38 255 272
-0.078100473 0.69599998 -0.039050236 1.4563182e-38 256 272
-0.07665924 0.69400001 -0.038938027 1.483941e-38 257 272
-0.075116299 0.69099998 -0.038769703 1.4841198e-38 258 272
-0.0737978 0.69 -0.038713597 1.5117425e-38 259 272
-0.0723776 0.68800002 -0.038601387 1.5394369e-38 260 272
-0.071171306 0.68800002 -0.038601387 1.5762792e-38 261 272
-0.069863312 0.68699998 -0.038545277 1.6315968e-38 262 272
-0.068658777 0.68699998 -0.038545277 1.6592555e-38 263 272
-0.06735605 0.68599999 -0.03848917 1.7234325e-38 264 272
-0.0659604 0.68400002 -0.038376961 1.7419076e-38 265 272
-0.064666435 0.68300003 -0.038320854 1.7419073e-38 266 272
-0.063375987 0.68199998 -0.038264744 1.7511269e-38 267 272
-0.062180214 0.68199998 -0.038264744 1.7696016e-38 268 272
-0.0608056 0.68000001 -0.038152531 1.7788212e-38 269 272
-0.059525665 0.67900002 -0.038096428 1.788113e-38 270 272
-0.058335152 0.67900002 -0.038096428 1.7973326e-38 271 272
-0.057144642 0.67900002 -0.038096428 1.8157004e-38 272 272
-0.055871718 0.67799997 -0.038040318 1.8249558e-38 273 272
-0.054682959 0.67799997 -0.038040318 1.8433234e-38 274 272
-0.053494196 0.67799997 -0.038040318 1.8433234e-38 275 272
-0.052305438 0.67799997 -0.038040318 1.8433234e-38 276 272
-0.050965894 0.676 -0.037928104 1.8433234e-38 277 272
-0.049780637 0.676 -0.037928104 1.8708743e-38 278 272
-0.048595384 0.676 -0.037928104 1.8800938e-38 279 272
-0.047410134 0.676 -0.037928104 1.8709459e-38 280 272
-0.046224877 0.676 -0.037928104 1.8801654e-38 281 272
-0.044972997 0.67500001 -0.037871998 1.8802008e-38 282 272
-0.043789499 0.67500001 -0.037871998 1.8894203e-38 283 272
-0.042542879 0.67400002 -0.037815895 1.8894206e-38 284 272
-0.041361131 0.67400002 -0.037815895 1.8986402e-38 285 272
-0.040179387 0.67400002 -0.037815895 1.8986049e-38 286 272
-0.038997639 0.67400002 -0.037815895 1.8986049e-38 287 272
-0.037703678 0.67199999 -0.037703678 1.8986402e-38 288 272
-0.036525436 0.67199999 -0.037703678 1.8986402e-38 289 272
-0.035347197 0.67199999 -0.037703678 1.880308e-38 290 272
-0.034118112 0.671 -0.037647571 1.8619048e-38 291 272
-0.032941625 0.671 -0.037647571 1.8986758e-38 292 272
-0.031812478 0.67199999 -0.037703678 1.8802008e-38 293 272
-0.030588651 0.671 -0.037647571 1.8251358e-38 294 272
-0.029412165 0.671 -0.037647571 1.8066606e-38 295 272
-0.02827776 0.67199999 -0.037703678 1.8157387e-38 296 272
-0.027099518 0.67199999 -0.037703678 1.8249582e-38 297 272
-0.025998428 0.67400002 -0.037815895 1.7881554e-38 298 272
-0.024816679 0.67400002 -0.037815895 1.7881554e-38 299 272
-0.023564799 0.67199999 -0.037703678 1.769755e-38 300 272
-0.022386558 0.67199999 -0.037703678 1.7790105e-38 301 272
-0.084685996 0.69999999 -0.040502001 1.4103706e-38 251 273
-0.083458662 0.69999999 -0.040502001 1.4562479e-38 252 273
-0.082231328 0.69999999 -0.040502001 1.4470283e-38 253 273
-0.080772556 0.69800001 -0.040386278 1.45621e-38 254 273
-0.079320796 0.69599998 -0.040270556 1.45621e-38 255 273
-0.078100473 0.69599998 -0.040270556 1.4195841e-38 256 273
-0.07665924 0.69400001 -0.040154841 1.4195841e-38 257 273
-0.075116299 0.69099998 -0.039981257 1.4379157e-38 258 273
-0.0737978 0.69 -0.0399234 1.4471352e-38 259 273
-0.0723776 0.68800002 -0.039807681 1.4105441e-38 260 273
-0.071067855 0.68699998 -0.039749816 1.475081e-38 261 273
-0.069761619 0.68599999 -0.039691959 1.5854637e-38 262 273
-0.068558842 0.68599999 -0.039691959 1.6407811e-38 263 273
-0.067159683 0.68400002 -0.03957624 1.7050649e-38 264 273
-0.065863967 0.68300003 -0.039518382 1.7326878e-38 265 273
-0.064571753 0.68199998 -0.039460517 1.7143562e-38 266 273
-0.063375987 0.68199998 -0.039460517 1.7235758e-38 267 273
-0.061997864 0.68000001 -0.039344799 1.7327603e-38 268 273
-0.060716182 0.67900002 -0.039286941 1.7511635e-38 269 273
-0.059525665 0.67900002 -0.039286941 1.7512719e-38 270 273
-0.058249239 0.67799997 -0.039229076 1.7604916e-38 271 273
-0.057060476 0.67799997 -0.039229076 1.7605632e-38 272 273
-0.055706903 0.676 -0.039113361 1.7697828e-38 273 273
-0.054521654 0.676 -0.039113361 1.83396e-38 274 273
-0.053336397 0.676 -0.039113361 1.8431796e-38 275 273
-0.052151144 0.676 -0.039113361 1.7973341e-38 276 273
-0.050890498 0.67500001 -0.039055496 1.8157733e-38 277 273
-0.049706999 0.67500001 -0.039055496 1.834105e-38 278 273
-0.048523501 0.67500001 -0.039055496 1.8433248e-38 279 273
-0.047339998 0.67500001 -0.039055496 1.8433245e-38 280 273
-0.0461565 0.67500001 -0.039055496 1.852544e-38 281 273
-0.044906374 0.67400002 -0.038997639 1.8251004e-38 282 273
-0.043594878 0.67199999 -0.03888192 1.83432e-38 283 273
-0.042416636 0.67199999 -0.03888192 1.8618708e-38 284 273
-0.041177034 0.671 -0.038824059 1.8618708e-38 285 273
-0.040000543 0.671 -0.038824059 1.8802379e-38 286 273
-0.038824059 0.671 -0.038824059 1.8894575e-38 287 273
-0.037647571 0.671 -0.038824059 1.8711257e-38 288 273
-0.036471087 0.671 -0.038824059 1.8619061e-38 289 273
-0.035241999 0.67000002 -0.038766202 1.8895278e-38 290 273
-0.034067266 0.67000002 -0.038766202 1.8803082e-38 291 273
-0.032892533 0.67000002 -0.038766202 1.8894556e-38 292 273
-0.0317178 0.67000002 -0.038766202 1.8894556e-38 293 273
-0.030588651 0.671 -0.038824059 1.8894556e-38 294 273
-0.029412165 0.671 -0.038824059 1.8802361e-38 295 273
-0.028235679 0.671 -0.038824059 1.8618695e-38 296 273
-0.027099518 0.67199999 -0.03888192 1.85265e-38 297 273
-0.025921278 0.67199999 -0.03888192 1.8341035e-38 298 273
-0.024743039 0.67199999 -0.03888192 1.8064089e-38 299 273
-0.023564799 0.67199999 -0.03888192 1.7696031e-38 300 273
-0.022386558 0.67199999 -0.03888192 1.7603836e-38 301 273
-0.021208318 0.67199999 -0.03888192 1.7329439e-38 302 273
-0.085048936 0.70300001 -0.041908171 1.3920053e-38 251 274
-0.083816342 0.70300001 -0.041908171 1.4563217e-38 252 274
-0.082348801 0.70099998 -0.041788943 1.428663e-38 253 274
-0.080772556 0.69800001 -0.041610107 1.4288037e-38 254 274
-0.079434767 0.69700003 -0.041550495 1.4103646e-38 255 274
-0.078100473 0.69599998 -0.041490879 1.410328e-38 256 274
-0.07665924 0.69400001 -0.041371655 1.3918529e-38 257 274
-0.075116299 0.69099998 -0.041192811 1.3643021e-38 258 274
-0.0737978 0.69 -0.041133199 1.2444478e-38 259 274
-0.0723776 0.68800002 -0.041013971 1.2169689e-38 260 274
-0.071067855 0.68699998 -0.040954359 1.3736656e-38 261 274
-0.069761619 0.68599999 -0.040894743 1.5026322e-38 262 274
-0.068358958 0.68400002 -0.040775519 1.5671692e-38 263 274
-0.067061491 0.68300003 -0.040715907 1.659076e-38 264 274
-0.065767527 0.68199998 -0.040656291 1.6867347e-38 265 274
-0.064571753 0.68199998 -0.040656291 1.7234315e-38 266 274
-0.063190132 0.68000001 -0.040537067 1.7418707e-38 267 274
-0.061997864 0.68000001 -0.040537067 1.7419061e-38 268 274
-0.060626756 0.67799997 -0.040417835 1.7511256e-38 269 274
-0.059437994 0.67799997 -0.040417835 1.7511622e-38 270 274
-0.058077414 0.676 -0.040298611 1.7696013e-38 271 274
-0.056892153 0.676 -0.040298611 1.7972247e-38 272 274
-0.0556245 0.67500001 -0.040238999 1.7603464e-38 273 274
-0.054441001 0.67500001 -0.040238999 1.7788935e-38 274 274
-0.053257499 0.67500001 -0.040238999 1.7788935e-38 275 274
-0.052074 0.67500001 -0.040238999 1.7880777e-38 276 274
-0.050890498 0.67500001 -0.040238999 1.7972973e-38 277 274
-0.049706999 0.67500001 -0.040238999 1.8248486e-38 278 274
-0.048451614 0.67400002 -0.040179387 1.8248486e-38 279 274
-0.047269866 0.67400002 -0.040179387 1.8523994e-38 280 274
-0.046088122 0.67400002 -0.040179387 1.861619e-38 281 274
-0.044773117 0.67199999 -0.040060159 1.861691e-38 282 274
