# .PCD v.7 - Point Cloud Data file format
FIELDS x y z rgb imX imY
SIZE 4 4 4 4 4 4
TYPE F F F F F F
COUNT 1 1 1 1 1 1
WIDTH 832
HEIGHT 1
VIEWPOINT 0 0 0 1 0 0 0
POINTS 832
DATA ascii
-0.089567274 0.77399999 -0.03528408 1.4561028e-38 254 266
-0.088096231 0.773 -0.035238493 1.4929809e-38 255 266
-0.086292051 0.76899999 -0.035056144 1.5024157e-38 256 266
-0.084943734 0.76899999 -0.035056144 1.5208549e-38 257 266
-0.083595425 0.76899999 -0.035056144 1.548478e-38 258 266
-0.082247108 0.76899999 -0.035056144 1.5761725e-38 259 266
-0.080898799 0.76899999 -0.035056144 1.5853918e-38 260 266
-0.079550482 0.76899999 -0.035056144 1.6037949e-38 261 266
-0.077998787 0.76700002 -0.034964975 1.6498208e-38 262 266
-0.07665398 0.76700002 -0.034964975 1.6590404e-38 263 266
-0.075309172 0.76700002 -0.034964975 1.6957748e-38 264 266
-0.073964365 0.76700002 -0.034964975 1.6957748e-38 265 266
-0.072808921 0.76899999 -0.035056144 1.7049568e-38 266 266
-0.071460605 0.76899999 -0.035056144 1.6865536e-38 267 266
-0.070112288 0.76899999 -0.035056144 1.6956647e-38 268 266
-0.068763971 0.76899999 -0.035056144 1.686445e-38 269 266
-0.067240335 0.76700002 -0.034964975 1.6771902e-38 270 266
-0.065895528 0.76700002 -0.034964975 1.6587871e-38 271 266
-0.06455072 0.76700002 -0.034964975 1.6495675e-38 272 266
-0.063205913 0.76700002 -0.034964975 1.6311284e-38 273 266
-0.061861109 0.76700002 -0.034964975 1.6311284e-38 274 266
-0.060516298 0.76700002 -0.034964975 1.6219087e-38 275 266
-0.059094343 0.76599997 -0.034919381 1.557411e-38 276 266
-0.057751291 0.76599997 -0.034919381 1.5020936e-38 277 266
-0.056408234 0.76599997 -0.034919381 1.4380313e-38 278 266
-0.099834792 0.77999997 -0.036925197 1.1340741e-38 247 267
-0.098467186 0.77999997 -0.036925197 1.2533484e-38 248 267
-0.096850619 0.778 -0.036830518 1.2625681e-38 249 267
-0.095241062 0.77600002 -0.036735836 1.3085546e-38 250 267
-0.093638517 0.77399999 -0.036641158 1.3362135e-38 251 267
-0.092281438 0.77399999 -0.036641158 1.3549027e-38 252 267
-0.090924352 0.77399999 -0.036641158 1.3825614e-38 253 267
-0.089451559 0.773 -0.036593821 1.4469539e-38 254 267
-0.088096231 0.773 -0.036593821 1.465393e-38 255 267
-0.086292051 0.76899999 -0.036404461 1.5205302e-38 256 267
-0.084943734 0.76899999 -0.036404461 1.5574445e-38 257 267
-0.083595425 0.76899999 -0.036404461 1.5668078e-38 258 267
-0.082247108 0.76899999 -0.036404461 1.5852471e-38 259 267
-0.080898799 0.76899999 -0.036404461 1.5945025e-38 260 267
-0.079343595 0.76700002 -0.036309779 1.6037221e-38 261 267
-0.077998787 0.76700002 -0.036309779 1.6404927e-38 262 267
-0.07665398 0.76700002 -0.036309779 1.6773351e-38 263 267
-0.075309172 0.76700002 -0.036309779 1.7048864e-38 264 267
-0.073964365 0.76700002 -0.036309779 1.714106e-38 265 267
-0.072619557 0.76700002 -0.036309779 1.6958101e-38 266 267
-0.07127475 0.76700002 -0.036309779 1.6865546e-38 267 267
-0.06992995 0.76700002 -0.036309779 1.6773704e-38 268 267
-0.068585135 0.76700002 -0.036309779 1.6681508e-38 269 267
-0.067240335 0.76700002 -0.036309779 1.6588955e-38 270 267
-0.065895528 0.76700002 -0.036309779 1.6404924e-38 271 267
-0.06455072 0.76700002 -0.036309779 1.6312731e-38 272 267
-0.063205913 0.76700002 -0.036309779 1.6220177e-38 273 267
-0.061861109 0.76700002 -0.036309779 1.6220177e-38 274 267
-0.060516298 0.76700002 -0.036309779 1.6035786e-38 275 267
-0.059094343 0.76599997 -0.036262438 1.5758851e-38 276 267
-0.057751291 0.76599997 -0.036262438 1.5666656e-38 277 267
-0.056408234 0.76599997 -0.036262438 1.4654359e-38 278 267
-0.055065181 0.76599997 -0.036262438 1.4746555e-38 279 267
-0.099962793 0.78100002 -0.038341891 1.1524782e-38 247 268
-0.097962238 0.77600002 -0.038096428 1.2257996e-38 248 268
-0.096352674 0.77399999 -0.037998237 1.216544e-38 249 268
-0.094995596 0.77399999 -0.037998237 1.2350522e-38 250 268
-0.093638517 0.77399999 -0.037998237 1.2627109e-38 251 268
-0.092281438 0.77399999 -0.037998237 1.3179544e-38 252 268
-0.090924352 0.77399999 -0.037998237 1.3640522e-38 253 268
-0.089451559 0.773 -0.037949149 1.4100053e-38 254 268
-0.088096231 0.773 -0.037949149 1.4468835e-38 255 268
-0.086292051 0.76899999 -0.03775277 1.4745422e-38 256 268
-0.084943734 0.76899999 -0.03775277 1.5114205e-38 257 268
-0.083595425 0.76899999 -0.03775277 1.5207119e-38 258 268
-0.082247108 0.76899999 -0.03775277 1.5391511e-38 259 268
-0.080688395 0.76700002 -0.037654586 1.5484427e-38 260 268
-0.079343595 0.76700002 -0.037654586 1.5669176e-38 261 268
-0.077998787 0.76700002 -0.037654586 1.603688e-38 262 268
-0.07665398 0.76700002 -0.037654586 1.6221631e-38 263 268
-0.075309172 0.76700002 -0.037654586 1.6497142e-38 264 268
-0.073964365 0.76700002 -0.037654586 1.6681533e-38 265 268
-0.072619557 0.76700002 -0.037654586 1.6865196e-38 266 268
-0.07127475 0.76700002 -0.037654586 1.6865196e-38 267 268
-0.06992995 0.76700002 -0.037654586 1.7049214e-38 268 268
-0.068585135 0.76700002 -0.037654586 1.6865183e-38 269 268
-0.067240335 0.76700002 -0.037654586 1.68641e-38 270 268
-0.065895528 0.76700002 -0.037654586 1.6771905e-38 271 268
-0.06455072 0.76700002 -0.037654586 1.6587873e-38 272 268
-0.063205913 0.76700002 -0.037654586 1.6587873e-38 273 268
-0.061861109 0.76700002 -0.037654586 1.6220883e-38 274 268
-0.060516298 0.76700002 -0.037654586 1.6128687e-38 275 268
-0.059094343 0.76599997 -0.037605491 1.6127615e-38 276 268
-0.057751291 0.76599997 -0.037605491 1.6035418e-38 277 268
-0.056408234 0.76599997 -0.037605491 1.4838003e-38 278 268
-0.055065181 0.76599997 -0.037605491 1.4561775e-38 279 268
-0.099322826 0.77600002 -0.039457016 1.1616983e-38 247 269
-0.097962238 0.77600002 -0.039457016 1.2349838e-38 248 269
-0.096352674 0.77399999 -0.039355319 1.2165445e-38 249 269
-0.094995596 0.77399999 -0.039355319 1.2441639e-38 250 269
-0.093638517 0.77399999 -0.039355319 1.2533834e-38 251 269
-0.092281438 0.77399999 -0.039355319 1.317846e-38 252 269
-0.090924352 0.77399999 -0.039355319 1.3547601e-38 253 269
-0.089451559 0.773 -0.039304473 1.4099324e-38 254 269
-0.088096231 0.773 -0.039304473 1.437627e-38 255 269
-0.086516477 0.77100003 -0.03920278 1.4652854e-38 256 269
-0.084943734 0.76899999 -0.039101087 1.4929441e-38 257 269
-0.083595425 0.76899999 -0.039101087 1.5114558e-38 258 269
-0.082247108 0.76899999 -0.039101087 1.5206754e-38 259 269
-0.080688395 0.76700002 -0.038999394 1.5391864e-38 260 269
-0.079343595 0.76700002 -0.038999394 1.5576256e-38 261 269
-0.077998787 0.76700002 -0.038999394 1.6127631e-38 262 269
-0.07665398 0.76700002 -0.038999394 1.6404577e-38 263 269
-0.075309172 0.76700002 -0.038999394 1.6404944e-38 264 269
-0.073964365 0.76700002 -0.038999394 1.6589335e-38 265 269
-0.072619557 0.76700002 -0.038999394 1.6772647e-38 266 269
-0.07127475 0.76700002 -0.038999394 1.6957397e-38 267 269
-0.06992995 0.76700002 -0.038999394 1.7048864e-38 268 269
-0.068585135 0.76700002 -0.038999394 1.6864833e-38 269 269
-0.067240335 0.76700002 -0.038999394 1.6772988e-38 270 269
-0.065895528 0.76700002 -0.038999394 1.6680791e-38 271 269
-0.064466551 0.76599997 -0.038948543 1.6588592e-38 272 269
-0.063123502 0.76599997 -0.038948543 1.6588592e-38 273 269
-0.061861109 0.76700002 -0.038999394 1.6037215e-38 274 269
-0.060437392 0.76599997 -0.038948543 1.6037215e-38 275 269
-0.059094343 0.76599997 -0.038948543 1.6128332e-38 276 269
-0.057751291 0.76599997 -0.038948543 1.5943939e-38 277 269
-0.056408234 0.76599997 -0.038948543 1.5483706e-38 278 269
-0.055065181 0.76599997 -0.038948543 1.5207119e-38 279 269
-0.053722132 0.76599997 -0.038948543 1.3827489e-38 280 269
-0.09770976 0.77399999 -0.040712398 1.207434e-38 248 270
-0.096352674 0.77399999 -0.040712398 1.1798112e-38 249 270
-0.094995596 0.77399999 -0.040712398 1.2166143e-38 250 270
-0.093638517 0.77399999 -0.040712398 1.2166143e-38 251 270
-0.092281438 0.77399999 -0.040712398 1.281005e-38 252 270
-0.090924352 0.77399999 -0.040712398 1.3179191e-38 253 270
-0.089451559 0.773 -0.0406598 1.3822746e-38 254 270
-0.088096231 0.773 -0.0406598 1.419117e-38 255 270
-0.086516477 0.77100003 -0.040554602 1.4284437e-38 256 270
-0.084943734 0.76899999 -0.0404494 1.4561384e-38 257 270
-0.083595425 0.76899999 -0.0404494 1.4745775e-38 258 270
-0.082247108 0.76899999 -0.0404494 1.5022002e-38 259 270
-0.080688395 0.76700002 -0.040344197 1.5206751e-38 260 270
-0.079343595 0.76700002 -0.040344197 1.5391501e-38 261 270
-0.077998787 0.76700002 -0.040344197 1.5943237e-38 262 270
-0.076554038 0.76599997 -0.040291596 1.6127987e-38 263 270
-0.075210981 0.76599997 -0.040291596 1.6220192e-38 264 270
-0.073867925 0.76599997 -0.040291596 1.6404944e-38 265 270
-0.072524875 0.76599997 -0.040291596 1.6771934e-38 266 270
-0.071181826 0.76599997 -0.040291596 1.686413e-38 267 270
-0.069838762 0.76599997 -0.040291596 1.6865196e-38 268 270
-0.068495713 0.76599997 -0.040291596 1.6865196e-38 269 270
-0.067152664 0.76599997 -0.040291596 1.6681511e-38 270 270
-0.065809615 0.76599997 -0.040291596 1.6681511e-38 271 270
-0.064466551 0.76599997 -0.040291596 1.6589311e-38 272 270
-0.063123502 0.76599997 -0.040291596 1.6589311e-38 273 270
-0.061780453 0.76599997 -0.040291596 1.640528e-38 274 270
-0.060437392 0.76599997 -0.040291596 1.6312726e-38 275 270
-0.059094343 0.76599997 -0.040291596 1.6404198e-38 276 270
-0.057751291 0.76599997 -0.040291596 1.6220167e-38 277 270
-0.056408234 0.76599997 -0.040291596 1.6127262e-38 278 270
-0.055065181 0.76599997 -0.040291596 1.594287e-38 279 270
-0.053722132 0.76599997 -0.040291596 1.4471391e-38 280 270
-0.052242316 0.764 -0.040186398 1.4563946e-38 281 270
-0.050902773 0.764 -0.040186398 1.4198107e-38 282 270
-0.09770976 0.77399999 -0.042069476 1.1982873e-38 248 271
-0.09622819 0.773 -0.042015124 1.1798482e-38 249 271
-0.094872862 0.773 -0.042015124 1.1981759e-38 250 271
-0.093638517 0.77399999 -0.042069476 1.1889563e-38 251 271
-0.092162207 0.773 -0.042015124 1.2441639e-38 252 271
-0.090806887 0.773 -0.042015124 1.2718586e-38 253 271
-0.089451559 0.773 -0.042015124 1.3454336e-38 254 271
-0.088096231 0.773 -0.042015124 1.382276e-38 255 271
-0.086516477 0.77100003 -0.04190642 1.3916378e-38 256 271
-0.084943734 0.76899999 -0.041797712 1.4193323e-38 257 271
-0.083595425 0.76899999 -0.041797712 1.4469552e-38 258 271
-0.08203321 0.76700002 -0.041689005 1.4654301e-38 259 271
-0.080688395 0.76700002 -0.041689005 1.5297514e-38 260 271
-0.079343595 0.76700002 -0.041689005 1.5390069e-38 261 271
-0.077897087 0.76599997 -0.041634649 1.5391867e-38 262 271
-0.076554038 0.76599997 -0.041634649 1.5576259e-38 263 271
-0.075210981 0.76599997 -0.041634649 1.5943615e-38 264 271
-0.073867925 0.76599997 -0.041634649 1.6312038e-38 265 271
-0.072524875 0.76599997 -0.041634649 1.640424e-38 266 271
-0.071181826 0.76599997 -0.041634649 1.6496436e-38 267 271
-0.069838762 0.76599997 -0.041634649 1.6681531e-38 268 271
-0.068495713 0.76599997 -0.041634649 1.6589335e-38 269 271
-0.067152664 0.76599997 -0.041634649 1.6773351e-38 270 271
-0.065809615 0.76599997 -0.041634649 1.6681155e-38 271 271
-0.064466551 0.76599997 -0.041634649 1.6680791e-38 272 271
-0.063123502 0.76599997 -0.041634649 1.6680791e-38 273 271
-0.061780453 0.76599997 -0.041634649 1.6588236e-38 274 271
-0.060437392 0.76599997 -0.041634649 1.6588236e-38 275 271
-0.059094343 0.76599997 -0.041634649 1.6496397e-38 276 271
-0.057751291 0.76599997 -0.041634649 1.6403842e-38 277 271
-0.056408234 0.76599997 -0.041634649 1.6219811e-38 278 271
-0.055065181 0.76599997 -0.041634649 1.6127615e-38 279 271
-0.053722132 0.76599997 -0.041634649 1.5392235e-38 280 271
-0.052242316 0.764 -0.041525945 1.511565e-38 281 271
-0.050902773 0.764 -0.041525945 1.4104082e-38 282 271
-0.049563225 0.764 -0.041525945 1.5117875e-38 283 271
-0.048223678 0.764 -0.041525945 1.548851e-38 284 271
-0.09622819 0.773 -0.043370452 1.1799576e-38 249 272
-0.094872862 0.773 -0.043370452 1.1798465e-38 250 272
-0.093638517 0.77399999 -0.043426558 1.1614074e-38 251 272
-0.092162207 0.773 -0.043370452 1.2165412e-38 252 272
-0.090806887 0.773 -0.043370452 1.2441639e-38 253 272
-0.089451559 0.773 -0.043370452 1.3361409e-38 254 272
-0.087868303 0.77100003 -0.043258239 1.3638355e-38 255 272
-0.086516477 0.77100003 -0.043258239 1.4007482e-38 256 272
-0.084943734 0.76899999 -0.043146025 1.4191873e-38 257 272
-0.083595425 0.76899999 -0.043146025 1.4376617e-38 258 272
-0.08203321 0.76700002 -0.043033812 1.4653203e-38 259 272
-0.080688395 0.76700002 -0.043033812 1.5113103e-38 260 272
-0.079240143 0.76599997 -0.042977702 1.5297853e-38 261 272
-0.077897087 0.76599997 -0.042977702 1.5481893e-38 262 272
-0.076554038 0.76599997 -0.042977702 1.5758478e-38 263 272
-0.075210981 0.76599997 -0.042977702 1.6125829e-38 264 272
-0.073675066 0.764 -0.042865492 1.6402776e-38 265 272
-0.072335519 0.764 -0.042865492 1.6495337e-38 266 272
-0.070995972 0.764 -0.042865492 1.6680089e-38 267 272
-0.069656424 0.764 -0.042865492 1.6772281e-38 268 272
-0.068495713 0.76599997 -0.042977702 1.6864477e-38 269 272
-0.067152664 0.76599997 -0.042977702 1.6865552e-38 270 272
-0.065809615 0.76599997 -0.042977702 1.6773356e-38 271 272
-0.064466551 0.76599997 -0.042977702 1.6680802e-38 272 272
-0.063123502 0.76599997 -0.042977702 1.6680802e-38 273 272
-0.061780453 0.76599997 -0.042977702 1.6588961e-38 274 272
-0.060437392 0.76599997 -0.042977702 1.6588961e-38 275 272
-0.059094343 0.76599997 -0.042977702 1.631345e-38 276 272
-0.057751291 0.76599997 -0.042977702 1.6220896e-38 277 272
-0.056408234 0.76599997 -0.042977702 1.6037221e-38 278 272
-0.055065181 0.76599997 -0.042977702 1.5945025e-38 279 272
-0.053722132 0.76599997 -0.042977702 1.5852842e-38 280 272
-0.052379075 0.76599997 -0.042977702 1.5484059e-38 281 272
-0.050902773 0.764 -0.042865492 1.4839817e-38 282 272
-0.049563225 0.764 -0.042865492 1.4655785e-38 283 272
-0.048223678 0.764 -0.042865492 1.4291023e-38 284 272
-0.046884131 0.764 -0.042865492 1.5489566e-38 285 272
-0.094995596 0.77399999 -0.044783637 1.1891012e-38 250 273
-0.093517542 0.773 -0.044725779 1.1614424e-38 251 273
-0.092162207 0.773 -0.044725779 1.1798074e-38 252 273
-0.090806887 0.773 -0.044725779 1.189027e-38 253 273
-0.089451559 0.773 -0.044725779 1.2626738e-38 254 273
-0.087868303 0.77100003 -0.044610061 1.3087714e-38 255 273
-0.086516477 0.77100003 -0.044610061 1.3272093e-38 256 273
-0.084943734 0.76899999 -0.044494338 1.3548321e-38 257 273
-0.083595425 0.76899999 -0.044494338 1.3824185e-38 258 273
-0.08203321 0.76700002 -0.04437862 1.4100772e-38 259 273
-0.080688395 0.76700002 -0.04437862 1.4285523e-38 260 273
-0.079240143 0.76599997 -0.044320758 1.456175e-38 261 273
-0.077897087 0.76599997 -0.044320758 1.5021652e-38 262 273
-0.076554038 0.76599997 -0.044320758 1.5206403e-38 263 273
-0.075014614 0.764 -0.04420504 1.5574473e-38 264 273
-0.073675066 0.764 -0.04420504 1.585142e-38 265 273
-0.072335519 0.764 -0.04420504 1.6035458e-38 266 273
-0.070810117 0.76200002 -0.044089317 1.6312043e-38 267 273
-0.069474079 0.76200002 -0.044089317 1.6404593e-38 268 273
-0.068138041 0.76200002 -0.044089317 1.6496789e-38 269 273
-0.066802002 0.76200002 -0.044089317 1.6681886e-38 270 273
-0.065465957 0.76200002 -0.044089317 1.6589691e-38 271 273
-0.064298242 0.764 -0.04420504 1.686483e-38 272 273
-0.062958695 0.764 -0.04420504 1.6772635e-38 273 273
-0.061619148 0.764 -0.04420504 1.6680435e-38 274 273
-0.0602796 0.764 -0.04420504 1.6588239e-38 275 273
-0.058940053 0.764 -0.04420504 1.6313447e-38 276 273
-0.057751291 0.76599997 -0.044320758 1.6037221e-38 277 273
-0.056408234 0.76599997 -0.044320758 1.6037218e-38 278 273
-0.055065181 0.76599997 -0.044320758 1.5945022e-38 279 273
-0.053722132 0.76599997 -0.044320758 1.6036142e-38 280 273
-0.052242316 0.764 -0.04420504 1.6036142e-38 281 273
-0.050902773 0.764 -0.04420504 1.5483709e-38 282 273
-0.049563225 0.764 -0.04420504 1.5114568e-38 283 273
-0.048223678 0.764 -0.04420504 1.4104079e-38 284 273
-0.046761397 0.76200002 -0.044089317 1.5118231e-38 285 273
-0.045425359 0.76200002 -0.044089317 1.5212645e-38 286 273
-0.094995596 0.77399999 -0.046140719 1.1340022e-38 250 274
-0.093517542 0.773 -0.046081103 1.1155629e-38 251 274
-0.091923758 0.77100003 -0.045961879 1.1614772e-38 252 274
-0.09057194 0.77100003 -0.045961879 1.1522576e-38 253 274
-0.089220122 0.77100003 -0.045961879 1.198209e-38 254 274
-0.087868303 0.77100003 -0.045961879 1.2350872e-38 255 274
-0.086292051 0.76899999 -0.045842651 1.3453242e-38 256 274
-0.084943734 0.76899999 -0.045842651 1.3729468e-38 257 274
-0.083378009 0.76700002 -0.045723427 1.3914919e-38 258 274
-0.08203321 0.76700002 -0.045723427 1.409931e-38 259 274
-0.080583192 0.76599997 -0.045663811 1.4376617e-38 260 274
-0.079240143 0.76599997 -0.045663811 1.4469172e-38 261 274
-0.077693708 0.764 -0.045544583 1.5020192e-38 262 274
-0.076354161 0.764 -0.045544583 1.5296779e-38 263 274
-0.075014614 0.764 -0.045544583 1.5665208e-38 264 274
-0.073482201 0.76200002 -0.045425359 1.5942154e-38 265 274
-0.072146162 0.76200002 -0.045425359 1.6125479e-38 266 274
-0.070810117 0.76200002 -0.045425359 1.6402426e-38 267 274
-0.069474079 0.76200002 -0.045425359 1.6494984e-38 268 274
-0.068138041 0.76200002 -0.045425359 1.6679735e-38 269 274
-0.066802002 0.76200002 -0.045425359 1.6497142e-38 270 274
-0.065465957 0.76200002 -0.045425359 1.6681533e-38 271 274
-0.064129919 0.76200002 -0.045425359 1.6771928e-38 272 274
-0.062793881 0.76200002 -0.045425359 1.6771928e-38 273 274
-0.061457843 0.76200002 -0.045425359 1.6680082e-38 274 274
-0.0602796 0.764 -0.045544583 1.6680082e-38 275 274
-0.058940053 0.764 -0.045544583 1.6313094e-38 276 274
-0.057600506 0.764 -0.045544583 1.6036867e-38 277 274
-0.056260962 0.764 -0.045544583 1.6036865e-38 278 274
-0.054921411 0.764 -0.045544583 1.5944669e-38 279 274
-0.053581864 0.764 -0.045544583 1.5944316e-38 280 274
-0.052242316 0.764 -0.045544583 1.585212e-38 281 274
-0.050769519 0.76200002 -0.045425359 1.5576262e-38 282 274
-0.049433477 0.76200002 -0.045425359 1.5483706e-38 283 274
-0.048097439 0.76200002 -0.045425359 1.5022769e-38 284 274
-0.046761397 0.76200002 -0.045425359 1.4746183e-38 285 274
-0.045425359 0.76200002 -0.045425359 1.3922962e-38 286 274
-0.093033619 0.76899999 -0.047190964 1.1156356e-38 251 275
-0.091685303 0.76899999 -0.047190964 1.1614421e-38 252 275
-0.090336986 0.76899999 -0.047190964 1.143003e-38 253 275
-0.088988677 0.76899999 -0.047190964 1.1796999e-38 254 275
-0.087640367 0.76899999 -0.047190964 1.2073585e-38 255 275
-0.086292051 0.76899999 -0.047190964 1.2626017e-38 256 275
-0.084943734 0.76899999 -0.047190964 1.2902604e-38 257 275
-0.083378009 0.76700002 -0.047068235 1.3362844e-38 258 275
-0.08203321 0.76700002 -0.047068235 1.3731266e-38 259 275
-0.080583192 0.76599997 -0.047006864 1.3823463e-38 260 275
-0.079240143 0.76599997 -0.047006864 1.4100409e-38 261 275
-0.077693708 0.764 -0.046884131 1.4651427e-38 262 275
-0.076354161 0.764 -0.046884131 1.4928374e-38 263 275
-0.075014614 0.764 -0.046884131 1.5204248e-38 264 275
-0.073482201 0.76200002 -0.046761397 1.5481195e-38 265 275
-0.072051473 0.76099998 -0.046700031 1.5390091e-38 266 275
-0.070717193 0.76099998 -0.046700031 1.5666318e-38 267 275
-0.069382899 0.76099998 -0.046700031 1.5759237e-38 268 275
-0.068138041 0.76200002 -0.046761397 1.6036182e-38 269 275
-0.066802002 0.76200002 -0.046761397 1.6128728e-38 270 275
-0.065465957 0.76200002 -0.046761397 1.6220925e-38 271 275
-0.064129919 0.76200002 -0.046761397 1.6588256e-38 272 275
-0.062793881 0.76200002 -0.046761397 1.6588256e-38 273 275
-0.061457843 0.76200002 -0.046761397 1.6587533e-38 274 275
-0.0602796 0.764 -0.046884131 1.6587533e-38 275 275
-0.058940053 0.764 -0.046884131 1.6312022e-38 276 275
-0.057600506 0.764 -0.046884131 1.6312022e-38 277 275
-0.056260962 0.764 -0.046884131 1.6036867e-38 278 275
-0.054777641 0.76200002 -0.046761397 1.5944672e-38 279 275
-0.053441599 0.76200002 -0.046761397 1.5944316e-38 280 275
-0.052105557 0.76200002 -0.046761397 1.5944316e-38 281 275
-0.050769519 0.76200002 -0.046761397 1.594324e-38 282 275
-0.049368605 0.76099998 -0.046700031 1.594324e-38 283 275
-0.048034318 0.76099998 -0.046700031 1.5666308e-38 284 275
-0.046700031 0.76099998 -0.046700031 1.5297167e-38 285 275
-0.045365743 0.76099998 -0.046700031 1.4287038e-38 286 275
-0.091685303 0.76899999 -0.048539277 1.1706985e-38 252 276
-0.090102047 0.76700002 -0.048413042 1.1246009e-38 253 276
-0.088757239 0.76700002 -0.048413042 1.1888119e-38 254 276
-0.087412432 0.76700002 -0.048413042 1.1888119e-38 255 276
-0.086292051 0.76899999 -0.048539277 1.2073567e-38 256 276
-0.084943734 0.76899999 -0.048539277 1.2349793e-38 257 276
-0.083378009 0.76700002 -0.048413042 1.3360691e-38 258 276
-0.08203321 0.76700002 -0.048413042 1.3729115e-38 259 276
-0.080583192 0.76599997 -0.048349917 1.3639068e-38 260 276
-0.079240143 0.76599997 -0.048349917 1.3731622e-38 261 276
-0.077897087 0.76599997 -0.048349917 1.4375191e-38 262 276
-0.076354161 0.764 -0.048223678 1.4651778e-38 263 276
-0.075014614 0.764 -0.048223678 1.4836176e-38 264 276
-0.073482201 0.76200002 -0.048097439 1.5204598e-38 265 276
-0.072051473 0.76099998 -0.048034318 1.5113131e-38 266 276
-0.070717193 0.76099998 -0.048034318 1.5481914e-38 267 276
-0.069382899 0.76099998 -0.048034318 1.5574475e-38 268 276
-0.068048611 0.76099998 -0.048034318 1.5758868e-38 269 276
-0.066714332 0.76099998 -0.048034318 1.5943615e-38 270 276
-0.065380037 0.76099998 -0.048034318 1.6035811e-38 271 276
-0.064045757 0.76099998 -0.048034318 1.6312747e-38 272 276
-0.06271147 0.76099998 -0.048034318 1.6312747e-38 273 276
-0.061377186 0.76099998 -0.048034318 1.6312028e-38 274 276
-0.060042895 0.76099998 -0.048034318 1.6312028e-38 275 276
-0.058708608 0.76099998 -0.048034318 1.6403144e-38 276 276
-0.057449725 0.76200002 -0.048097439 1.6403144e-38 277 276
-0.056113683 0.76200002 -0.048097439 1.6036161e-38 278 276
-0.054777641 0.76200002 -0.048097439 1.5943966e-38 279 276
-0.053371463 0.76099998 -0.048034318 1.5760293e-38 280 276
-0.052037176 0.76099998 -0.048034318 1.5760293e-38 281 276
-0.050702889 0.76099998 -0.048034318 1.5851767e-38 282 276
-0.049368605 0.76099998 -0.048034318 1.5851767e-38 283 276
-0.048034318 0.76099998 -0.048034318 1.5667372e-38 284 276
-0.046700031 0.76099998 -0.048034318 1.5575176e-38 285 276
-0.045365743 0.76099998 -0.048034318 1.5113166e-38 286 276
-0.090102047 0.76700002 -0.049757849 1.1155261e-38 253 277
-0.088757239 0.76700002 -0.049757849 1.1429308e-38 254 277
-0.087412432 0.76700002 -0.049757849 1.1337111e-38 255 277
-0.086067624 0.76700002 -0.049757849 1.1796272e-38 256 277
-0.084943734 0.76899999 -0.04988759 1.1980665e-38 257 277
-0.083378009 0.76700002 -0.049757849 1.2717487e-38 258 277
-0.08203321 0.76700002 -0.049757849 1.290188e-38 259 277
-0.080583192 0.76599997 -0.04969297 1.3179169e-38 260 277
-0.079240143 0.76599997 -0.04969297 1.336356e-38 261 277
-0.077897087 0.76599997 -0.04969297 1.4007129e-38 262 277
-0.076354161 0.764 -0.049563225 1.4191879e-38 263 277
-0.075014614 0.764 -0.049563225 1.4559229e-38 264 277
-0.073482201 0.76200002 -0.049433477 1.4836176e-38 265 277
-0.072051473 0.76099998 -0.049368605 1.4928374e-38 266 277
-0.070717193 0.76099998 -0.049368605 1.5296797e-38 267 277
-0.069382899 0.76099998 -0.049368605 1.5388997e-38 268 277
-0.068048611 0.76099998 -0.049368605 1.5481192e-38 269 277
-0.066714332 0.76099998 -0.049368605 1.5390797e-38 270 277
-0.065380037 0.76099998 -0.049368605 1.5759221e-38 271 277
-0.064045757 0.76099998 -0.049368605 1.5669176e-38 272 277
-0.06271147 0.76099998 -0.049368605 1.5761372e-38 273 277
-0.061377186 0.76099998 -0.049368605 1.603688e-38 274 277
-0.060042895 0.76099998 -0.049368605 1.5852489e-38 275 277
-0.058708608 0.76099998 -0.049368605 1.6127278e-38 276 277
-0.057374325 0.76099998 -0.049368605 1.6035082e-38 277 277
-0.056040037 0.76099998 -0.049368605 1.5942887e-38 278 277
-0.05470575 0.76099998 -0.049368605 1.5574463e-38 279 277
-0.053371463 0.76099998 -0.049368605 1.5757419e-38 280 277
-0.052037176 0.76099998 -0.049368605 1.5849615e-38 281 277
-0.050702889 0.76099998 -0.049368605 1.5849968e-38 282 277
-0.049368605 0.76099998 -0.049368605 1.5942163e-38 283 277
-0.048034318 0.76099998 -0.049368605 1.5759204e-38 284 277
-0.046700031 0.76099998 -0.049368605 1.5759204e-38 285 277
-0.045365743 0.76099998 -0.049368605 1.5298246e-38 286 277
-0.044031456 0.76099998 -0.049368605 1.5021657e-38 287 277
-0.087412432 0.76700002 -0.051102653 1.1062322e-38 255 278
-0.086067624 0.76700002 -0.051102653 1.1428213e-38 256 278
-0.084943734 0.76899999 -0.051235907 1.1520408e-38 257 278
-0.083378009 0.76700002 -0.051102653 1.1705503e-38 258 278
-0.08203321 0.76700002 -0.051102653 1.2074285e-38 259 278
-0.080583192 0.76599997 -0.051036026 1.2903308e-38 260 278
-0.079240143 0.76599997 -0.051036026 1.2995503e-38 261 278
-0.077897087 0.76599997 -0.051036026 1.3455758e-38 262 278
-0.076354161 0.764 -0.050902773 1.3640151e-38 263 278
-0.075014614 0.764 -0.050902773 1.3915664e-38 264 278
-0.073482201 0.76200002 -0.050769519 1.4284087e-38 265 278
-0.072051473 0.76099998 -0.050702889 1.4376288e-38 266 278
-0.070717193 0.76099998 -0.050702889 1.4652876e-38 267 278
-0.069382899 0.76099998 -0.050702889 1.4744719e-38 268 278
-0.068048611 0.76099998 -0.050702889 1.4929109e-38 269 278
-0.066714332 0.76099998 -0.050702889 1.4838356e-38 270 278
-0.065380037 0.76099998 -0.050702889 1.5115302e-38 271 278
-0.063877434 0.759 -0.050569639 1.5208214e-38 272 278
-0.062546656 0.759 -0.050569639 1.5485161e-38 273 278
-0.061215881 0.759 -0.050569639 1.603688e-38 274 278
-0.059885096 0.759 -0.050569639 1.5760293e-38 275 278
-0.058554318 0.759 -0.050569639 1.594324e-38 276 278
-0.05722354 0.759 -0.050569639 1.5759207e-38 277 278
-0.056040037 0.76099998 -0.050702889 1.5390066e-38 278 278
-0.05470575 0.76099998 -0.050702889 1.5113838e-38 279 278
-0.053371463 0.76099998 -0.050702889 1.5296431e-38 280 278
-0.052037176 0.76099998 -0.050702889 1.5296431e-38 281 278
-0.050702889 0.76099998 -0.050702889 1.5388994e-38 282 278
-0.049368605 0.76099998 -0.050702889 1.5757775e-38 283 278
-0.048034318 0.76099998 -0.050702889 1.5208554e-38 284 278
-0.046700031 0.76099998 -0.050702889 1.5208554e-38 285 278
-0.045365743 0.76099998 -0.050702889 1.5666302e-38 286 278
-0.044031456 0.76099998 -0.050702889 1.529752e-38 287 278
-0.086292051 0.76899999 -0.052584216 1.124455e-38 256 279
-0.084943734 0.76899999 -0.052584216 1.0967604e-38 257 279
-0.083378009 0.76700002 -0.052447457 1.161044e-38 258 279
-0.08203321 0.76700002 -0.052447457 1.2071417e-38 259 279
-0.080583192 0.76599997 -0.052379075 1.2533824e-38 260 279
-0.079240143 0.76599997 -0.052379075 1.2902248e-38 261 279
-0.077897087 0.76599997 -0.052379075 1.345396e-38 262 279
-0.076354161 0.764 -0.052242316 1.3638352e-38 263 279
-0.074818239 0.76200002 -0.052105557 1.4006045e-38 264 279
-0.073482201 0.76200002 -0.052105557 1.4374469e-38 265 279
-0.072051473 0.76099998 -0.052037176 1.464998e-38 266 279
-0.070717193 0.76099998 -0.052037176 1.4834371e-38 267 279
-0.069382899 0.76099998 -0.052037176 1.4743975e-38 268 279
-0.068048611 0.76099998 -0.052037176 1.4836529e-38 269 279
-0.066714332 0.76099998 -0.052037176 1.5112759e-38 270 279
-0.065380037 0.76099998 -0.052037176 1.529715e-38 271 279
-0.063877434 0.759 -0.051900417 1.5206047e-38 272 279
-0.062546656 0.759 -0.051900417 1.5667024e-38 273 279
-0.061215881 0.759 -0.051900417 1.6034729e-38 274 279
-0.059885096 0.759 -0.051900417 1.6034729e-38 275 279
-0.058554318 0.759 -0.051900417 1.5759574e-38 276 279
-0.05722354 0.759 -0.051900417 1.52064e-38 277 279
-0.055892758 0.759 -0.051900417 1.4466665e-38 278 279
-0.054561976 0.759 -0.051900417 1.4006045e-38 279 279
-0.053231198 0.759 -0.051900417 1.4189711e-38 280 279
-0.051900417 0.759 -0.051900417 1.4374103e-38 281 279
-0.050569639 0.759 -0.051900417 1.4283368e-38 282 279
-0.049368605 0.76099998 -0.052037176 1.5020933e-38 283 279
-0.047908079 0.759 -0.051900417 1.5298599e-38 284 279
-0.046577301 0.759 -0.051900417 1.5390795e-38 285 279
-0.045246519 0.759 -0.051900417 1.5299671e-38 286 279
-0.044031456 0.76099998 -0.052037176 1.5391867e-38 287 279
-0.042697169 0.76099998 -0.052037176 1.4930186e-38 288 279
-0.041362885 0.76099998 -0.052037176 1.4837989e-38 289 279
-0.084943734 0.76899999 -0.053932533 1.0967604e-38 257 280
-0.083595425 0.76899999 -0.053932533 1.0967237e-38 258 280
-0.08203321 0.76700002 -0.053792264 1.115163e-38 259 280
-0.080688395 0.76700002 -0.053792264 1.1612604e-38 260 280
-0.079240143 0.76599997 -0.053722132 1.1981386e-38 261 280
-0.077897087 0.76599997 -0.053722132 1.2442348e-38 262 280
-0.076354161 0.764 -0.053581864 1.2718936e-38 263 280
-0.074818239 0.76200002 -0.053441599 1.336214e-38 264 280
-0.073482201 0.76200002 -0.053441599 1.3638367e-38 265 280
-0.072051473 0.76099998 -0.053371463 1.382276e-38 266 280
-0.070717193 0.76099998 -0.053371463 1.3914955e-38 267 280
-0.069382899 0.76099998 -0.053371463 1.4099703e-38 268 280
-0.068048611 0.76099998 -0.053371463 1.4376288e-38 269 280
-0.066714332 0.76099998 -0.053371463 1.428482e-38 270 280
-0.065208219 0.759 -0.053231198 1.4561046e-38 271 280
-0.063877434 0.759 -0.053231198 1.4745441e-38 272 280
-0.062546656 0.759 -0.053231198 1.5206419e-38 273 280
-0.061215881 0.759 -0.053231198 1.5115296e-38 274 280
-0.059727304 0.75700003 -0.053090934 1.5391882e-38 275 280
-0.058400027 0.75700003 -0.053090934 1.5666658e-38 276 280
-0.057072755 0.75700003 -0.053090934 1.5481908e-38 277 280
-0.055892758 0.759 -0.053231198 1.4744331e-38 278 280
-0.054561976 0.759 -0.053231198 1.391421e-38 279 280
-0.053090934 0.75700003 -0.053090934 1.437305e-38 280 280
-0.051763661 0.75700003 -0.053090934 1.4557081e-38 281 280
-0.050569639 0.759 -0.053231198 1.4006806e-38 282 280
-0.049238857 0.759 -0.053231198 1.4283033e-38 283 280
-0.047908079 0.759 -0.053231198 1.4562128e-38 284 280
-0.046577301 0.759 -0.053231198 1.5022748e-38 285 280
-0.045246519 0.759 -0.053231198 1.5758851e-38 286 280
-0.044031456 0.76099998 -0.053371463 1.557446e-38 287 280
-0.042697169 0.76099998 -0.053371463 1.5482261e-38 288 280
-0.041362885 0.76099998 -0.053371463 1.5021283e-38 289 280
-0.083595425 0.76899999 -0.055280842 1.1150903e-38 258 281
-0.08203321 0.76700002 -0.055137072 1.0782121e-38 259 281
-0.080688395 0.76700002 -0.055137072 1.1516443e-38 260 281
-0.079240143 0.76599997 -0.055065181 1.2069616e-38 261 281
-0.077897087 0.76599997 -0.055065181 1.2439105e-38 262 281
-0.076354161 0.764 -0.054921411 1.2900083e-38 263 281
-0.074818239 0.76200002 -0.054777641 1.3544357e-38 264 281
-0.073482201 0.76200002 -0.054777641 1.3728749e-38 265 281
-0.072051473 0.76099998 -0.05470575 1.3913141e-38 266 281
-0.070717193 0.76099998 -0.05470575 1.4189726e-38 267 281
-0.069382899 0.76099998 -0.05470575 1.4098605e-38 268 281
-0.067869775 0.759 -0.054561976 1.419116e-38 269 281
-0.066538997 0.759 -0.054561976 1.4375191e-38 270 281
-0.065208219 0.759 -0.054561976 1.4559582e-38 271 281
-0.063877434 0.759 -0.054561976 1.4652498e-38 272 281
-0.062546656 0.759 -0.054561976 1.4929444e-38 273 281
-0.061054576 0.75700003 -0.054418206 1.5480459e-38 274 281
-0.059727304 0.75700003 -0.054418206 1.5757406e-38 275 281
-0.058400027 0.75700003 -0.054418206 1.5666658e-38 276 281
-0.057072755 0.75700003 -0.054418206 1.5666658e-38 277 281
-0.055745479 0.75700003 -0.054418206 1.5296797e-38 278 281
-0.054418206 0.75700003 -0.054418206 1.483582e-38 279 281
-0.053090934 0.75700003 -0.054418206 1.4371601e-38 280 281
-0.051763661 0.75700003 -0.054418206 1.4371601e-38 281 281
-0.050436385 0.75700003 -0.054418206 1.4280501e-38 282 281
-0.049238857 0.759 -0.054561976 1.4280501e-38 283 281
-0.047908079 0.759 -0.054561976 1.3640538e-38 284 281
-0.046577301 0.759 -0.054561976 1.4378103e-38 285 281
-0.045246519 0.759 -0.054561976 1.5113855e-38 286 281
-0.043915741 0.759 -0.054561976 1.520605e-38 287 281
-0.042584959 0.759 -0.054561976 1.529787e-38 288 281
-0.041254178 0.759 -0.054561976 1.5113838e-38 289 281
-0.039818201 0.75700003 -0.054418206 1.4652879e-38 290 281
-0.038490929 0.75700003 -0.054418206 1.4375932e-38 291 281
-0.083595425 0.76899999 -0.056629159 1.1151633e-38 258 282
-0.08203321 0.76700002 -0.056481879 1.078249e-38 259 282
-0.080688395 0.76700002 -0.056481879 1.0504464e-38 260 282
-0.079343595 0.76700002 -0.056481879 1.0872888e-38 261 282
-0.077897087 0.76599997 -0.056408234 1.0967943e-38 262 282
-0.076354161 0.764 -0.056260962 1.1705509e-38 263 282
-0.074818239 0.76200002 -0.056113683 1.2715692e-38 264 282
-0.073482201 0.76200002 -0.056113683 1.3084474e-38 265 282
-0.072051473 0.76099998 -0.056040037 1.3452535e-38 266 282
-0.070717193 0.76099998 -0.056040037 1.3728762e-38 267 282
-0.069382899 0.76099998 -0.056040037 1.3821311e-38 268 282
-0.067869775 0.759 -0.055892758 1.4006061e-38 269 282
-0.066538997 0.759 -0.055892758 1.382311e-38 270 282
-0.065208219 0.759 -0.055892758 1.3915664e-38 271 282
-0.063877434 0.759 -0.055892758 1.4008932e-38 272 282
-0.062381849 0.75700003 -0.055745479 1.4469552e-38 273 282
-0.061054576 0.75700003 -0.055745479 1.5112759e-38 274 282
-0.059569497 0.755 -0.055598196 1.529715e-38 275 282
-0.058245733 0.755 -0.055598196 1.52064e-38 276 282
-0.056921966 0.755 -0.055598196 1.5390792e-38 277 282
-0.055598196 0.755 -0.055598196 1.5573744e-38 278 282
-0.054274432 0.755 -0.055598196 1.5204601e-38 279 282
-0.052950665 0.755 -0.055598196 1.4834008e-38 280 282
-0.051763661 0.75700003 -0.055745479 1.4188639e-38 281 282
-0.050436385 0.75700003 -0.055745479 1.3911709e-38 282 282
-0.049109112 0.75700003 -0.055745479 1.3911709e-38 283 282
-0.04778184 0.75700003 -0.055745479 1.3544381e-38 284 282
-0.046577301 0.759 -0.055892758 1.4005359e-38 285 282
-0.045127295 0.75700003 -0.055745479 1.4375566e-38 286 282
-0.043800019 0.75700003 -0.055745479 1.4836545e-38 287 282
-0.042472746 0.75700003 -0.055745479 1.5021283e-38 288 282
-0.041145474 0.75700003 -0.055745479 1.5021283e-38 289 282
-0.039818201 0.75700003 -0.055745479 1.4929091e-38 290 282
-0.038490929 0.75700003 -0.055745479 1.4652145e-38 291 282
-0.037163652 0.75700003 -0.055745479 1.3639834e-38 292 282
-0.08203321 0.76700002 -0.057826683 1.087541e-38 259 283
-0.080688395 0.76700002 -0.057826683 1.105547e-38 260 283
-0.079343595 0.76700002 -0.057826683 1.0410101e-38 261 283
-0.077897087 0.76599997 -0.057751291 9.5846531e-39 262 283
-0.076554038 0.76599997 -0.057751291 1.0967588e-38 263 283
-0.074818239 0.76200002 -0.057449725 1.2254345e-38 264 283
-0.073482201 0.76200002 -0.057449725 1.2715322e-38 265 283
-0.072051473 0.76099998 -0.057374325 1.3268478e-38 266 283
-0.070717193 0.76099998 -0.057374325 1.3636901e-38 267 283
-0.069382899 0.76099998 -0.057374325 1.354579e-38 268 283
-0.067869775 0.759 -0.05722354 1.3729821e-38 269 283
-0.066538997 0.759 -0.05722354 1.3821667e-38 270 283
-0.065208219 0.759 -0.05722354 1.3821667e-38 271 283
-0.063877434 0.759 -0.05722354 1.3822743e-38 272 283
-0.062381849 0.75700003 -0.057072755 1.4468112e-38 273 283
-0.060893264 0.755 -0.056921966 1.4561384e-38 274 283
-0.059569497 0.755 -0.056921966 1.4745775e-38 275 283
-0.058245733 0.755 -0.056921966 1.5113485e-38 276 283
-0.056921966 0.755 -0.056921966 1.5389713e-38 277 283
-0.055598196 0.755 -0.056921966 1.5390792e-38 278 283
-0.054274432 0.755 -0.056921966 1.52064e-38 279 283
-0.052950665 0.755 -0.056921966 1.5387901e-38 280 283
-0.051626898 0.755 -0.056921966 1.4834727e-38 281 283
-0.050303131 0.755 -0.056921966 1.3821301e-38 282 283
-0.049109112 0.75700003 -0.057072755 1.3544354e-38 283 283
-0.04778184 0.75700003 -0.057072755 1.3544004e-38 284 283
-0.046454567 0.75700003 -0.057072755 1.3636201e-38 285 283
-0.045127295 0.75700003 -0.057072755 1.4280853e-38 286 283
-0.043800019 0.75700003 -0.057072755 1.4926222e-38 287 283
-0.042472746 0.75700003 -0.057072755 1.465323e-38 288 283
-0.041145474 0.75700003 -0.057072755 1.4745425e-38 289 283
-0.039818201 0.75700003 -0.057072755 1.4745775e-38 290 283
-0.038389232 0.755 -0.056921966 1.4745775e-38 291 283
-0.037065465 0.755 -0.056921966 1.4561031e-38 292 283
-0.080898799 0.76899999 -0.059325781 1.087397e-38 260 284
-0.079343595 0.76700002 -0.059171494 9.9520133e-39 261 284
-0.077897087 0.76599997 -0.059094343 9.4903037e-39 262 284
-0.076554038 0.76599997 -0.059094343 9.8594449e-39 263 284
-0.074818239 0.76200002 -0.058785759 1.0322922e-38 264 284
-0.073482201 0.76200002 -0.058785759 1.1337074e-38 265 284
-0.072051473 0.76099998 -0.058708608 1.2533443e-38 266 284
-0.070717193 0.76099998 -0.058708608 1.2810389e-38 267 284
-0.069382899 0.76099998 -0.058708608 1.3361045e-38 268 284
-0.067869775 0.759 -0.058554318 1.3453242e-38 269 284
-0.066538997 0.759 -0.058554318 1.3545081e-38 270 284
-0.065208219 0.759 -0.058554318 1.3545081e-38 271 284
-0.063709125 0.75700003 -0.058400027 1.3638705e-38 272 284
-0.062381849 0.75700003 -0.058400027 1.4099324e-38 273 284
-0.060893264 0.755 -0.058245733 1.4377342e-38 274 284
-0.059569497 0.755 -0.058245733 1.4561735e-38 275 284
-0.058245733 0.755 -0.058245733 1.5112753e-38 276 284
-0.056921966 0.755 -0.058245733 1.5297503e-38 277 284
-0.055598196 0.755 -0.058245733 1.5390419e-38 278 284
-0.054274432 0.755 -0.058245733 1.5482615e-38 279 284
-0.052950665 0.755 -0.058245733 1.5298223e-38 280 284
-0.051626898 0.755 -0.058245733 1.5298223e-38 281 284
-0.050303131 0.755 -0.058245733 1.5021289e-38 282 284
-0.048979364 0.755 -0.058245733 1.4652148e-38 283 284
-0.047655597 0.755 -0.058245733 1.4375569e-38 284 284
-0.04633183 0.755 -0.058245733 1.4098624e-38 285 284
-0.045127295 0.75700003 -0.058400027 1.4190453e-38 286 284
-0.043684296 0.755 -0.058245733 1.4374485e-38 287 284
-0.042360533 0.755 -0.058245733 1.4651427e-38 288 284
-0.041145474 0.75700003 -0.058400027 1.483582e-38 289 284
-0.039712999 0.755 -0.058245733 1.4929444e-38 290 284
-0.038389232 0.755 -0.058245733 1.5021639e-38 291 284
-0.037065465 0.755 -0.058245733 1.4746129e-38 292 284
-0.035694357 0.75400001 -0.058168583 1.4376986e-38 293 284
-0.034372345 0.75400001 -0.058168583 1.3916773e-38 294 284
-0.079343595 0.76700002 -0.060516298 1.0230041e-38 261 285
-0.077998787 0.76700002 -0.060516298 1.0502298e-38 262 285
-0.076554038 0.76599997 -0.060437392 1.0133155e-38 263 285
-0.074818239 0.76200002 -0.060121801 1.0135679e-38 264 285
-0.073482201 0.76200002 -0.060121801 1.0873244e-38 265 285
-0.072051473 0.76099998 -0.060042895 1.1520761e-38 266 285
-0.070717193 0.76099998 -0.060042895 1.2166131e-38 267 285
-0.069382899 0.76099998 -0.060042895 1.2992279e-38 268 285
-0.067869775 0.759 -0.059885096 1.2992279e-38 269 285
-0.066538997 0.759 -0.059885096 1.3085544e-38 270 285
-0.065208219 0.759 -0.059885096 1.3178099e-38 271 285
-0.063709125 0.75700003 -0.059727304 1.3179894e-38 272 285
-0.062381849 0.75700003 -0.059727304 1.3548677e-38 273 285
-0.060893264 0.755 -0.059569497 1.4100409e-38 274 285
-0.059569497 0.755 -0.059569497 1.4376636e-38 275 285
-0.058245733 0.755 -0.059569497 1.4561028e-38 276 285
-0.056921966 0.755 -0.059569497 1.4745778e-38 277 285
-0.055598196 0.755 -0.059569497 1.483834e-38 278 285
-0.054274432 0.755 -0.059569497 1.4930537e-38 279 285
-0.052950665 0.755 -0.059569497 1.5206754e-38 280 285
-0.051558517 0.75400001 -0.059490599 1.5206754e-38 281 285
-0.050236505 0.75400001 -0.059490599 1.5667374e-38 282 285
-0.048979364 0.755 -0.059569497 1.5759571e-38 283 285
-0.047655597 0.755 -0.059569497 1.5389713e-38 284 285
-0.04633183 0.755 -0.059569497 1.4836539e-38 285 285
-0.045008067 0.755 -0.059569497 1.5018039e-38 286 285
-0.043684296 0.755 -0.059569497 1.5110235e-38 287 285
-0.042360533 0.755 -0.059569497 1.492729e-38 288 285
-0.041036766 0.755 -0.059569497 1.511204e-38 289 285
-0.039712999 0.755 -0.059569497 1.5204949e-38 290 285
-0.038389232 0.755 -0.059569497 1.5297503e-38 291 285
-0.037065465 0.755 -0.059569497 1.5023062e-38 292 285
-0.035694357 0.75400001 -0.059490599 1.4930866e-38 293 285
-0.034372345 0.75400001 -0.059490599 1.4929812e-38 294 285
-0.033050332 0.75400001 -0.059490599 1.4468835e-38 295 285
-0.077998787 0.76700002 -0.061861109 1.1238806e-38 262 286
-0.076554038 0.76599997 -0.061780453 1.0777826e-38 263 286
-0.074818239 0.76200002 -0.061457843 1.0134953e-38 264 286
-0.073482201 0.76200002 -0.061457843 9.9505615e-39 265 286
-0.072051473 0.76099998 -0.061377186 1.069208e-38 266 286
-0.070717193 0.76099998 -0.061377186 1.152148e-38 267 286
-0.069382899 0.76099998 -0.061377186 1.2349065e-38 268 286
-0.067869775 0.759 -0.061215881 1.2533096e-38 269 286
-0.066538997 0.759 -0.061215881 1.2993335e-38 270 286
-0.065208219 0.759 -0.061215881 1.3085531e-38 271 286
-0.063709125 0.75700003 -0.061054576 1.3362465e-38 272 286
-0.062381849 0.75700003 -0.061054576 1.3454661e-38 273 286
-0.060893264 0.755 -0.060893264 1.4190424e-38 274 286
-0.059490599 0.75400001 -0.060812615 1.4375175e-38 275 286
-0.058168583 0.75400001 -0.060812615 1.4559567e-38 276 286
-0.056921966 0.755 -0.060893264 1.4928348e-38 277 286
-0.055524562 0.75400001 -0.060812615 1.5020195e-38 278 286
-0.054202545 0.75400001 -0.060812615 1.5296781e-38 279 286
-0.052880533 0.75400001 -0.060812615 1.5296784e-38 280 286
-0.051558517 0.75400001 -0.060812615 1.5573012e-38 281 286
-0.050236505 0.75400001 -0.060812615 1.5481543e-38 282 286
-0.048914492 0.75400001 -0.060812615 1.5758128e-38 283 286
-0.04759248 0.75400001 -0.060812615 1.5298952e-38 284 286
-0.046270464 0.75400001 -0.060812615 1.5298952e-38 285 286
-0.044948451 0.75400001 -0.060812615 1.5204952e-38 286 286
-0.043626439 0.75400001 -0.060812615 1.5204952e-38 287 286
-0.042304426 0.75400001 -0.060812615 1.5021636e-38 288 286
-0.041036766 0.755 -0.060893264 1.5021636e-38 289 286
-0.039660402 0.75400001 -0.060812615 1.5022706e-38 290 286
-0.038338386 0.75400001 -0.060812615 1.511526e-38 291 286
-0.037016369 0.75400001 -0.060812615 1.5115254e-38 292 286
-0.035694357 0.75400001 -0.060812615 1.4930863e-38 293 286
-0.034281172 0.75199997 -0.060651302 1.4746845e-38 294 286
-0.032962665 0.75199997 -0.060651302 1.4654649e-38 295 286
-0.076554038 0.76599997 -0.063123502 1.0414065e-38 263 287
-0.074818239 0.76200002 -0.062793881 1.0503367e-38 264 287
-0.073482201 0.76200002 -0.062793881 9.212628e-39 265 287
-0.072051473 0.76099998 -0.06271147 1.0137477e-38 266 287
-0.070717193 0.76099998 -0.06271147 1.0967237e-38 267 287
-0.069382899 0.76099998 -0.06271147 1.170443e-38 268 287
-0.067869775 0.759 -0.062546656 1.2073213e-38 269 287
-0.066538997 0.759 -0.062546656 1.2074273e-38 270 287
-0.065208219 0.759 -0.062546656 1.23505e-38 271 287
-0.063709125 0.75700003 -0.062381849 1.2626721e-38 272 287
-0.062381849 0.75700003 -0.062381849 1.2903308e-38 273 287
-0.060893264 0.755 -0.062217031 1.3088049e-38 274 287
-0.059490599 0.75400001 -0.062134624 1.345683e-38 275 287
-0.058168583 0.75400001 -0.062134624 1.3823819e-38 276 287
-0.056846574 0.75400001 -0.062134624 1.4100406e-38 277 287
-0.055524562 0.75400001 -0.062134624 1.4192973e-38 278 287
-0.054202545 0.75400001 -0.062134624 1.4561397e-38 279 287
-0.052880533 0.75400001 -0.062134624 1.4652874e-38 280 287
-0.051558517 0.75400001 -0.062134624 1.4929459e-38 281 287
-0.050236505 0.75400001 -0.062134624 1.5113849e-38 282 287
-0.048914492 0.75400001 -0.062134624 1.5298599e-38 283 287
-0.04759248 0.75400001 -0.062134624 1.5298946e-38 284 287
-0.046270464 0.75400001 -0.062134624 1.5298946e-38 285 287
-0.044948451 0.75400001 -0.062134624 1.5390049e-38 286 287
-0.043626439 0.75400001 -0.062134624 1.5482246e-38 287 287
-0.042304426 0.75400001 -0.062134624 1.5390046e-38 288 287
-0.040982414 0.75400001 -0.062134624 1.5390046e-38 289 287
-0.039660402 0.75400001 -0.062134624 1.539112e-38 290 287
-0.038338386 0.75400001 -0.062134624 1.5298923e-38 291 287
-0.037016369 0.75400001 -0.062134624 1.5298204e-38 292 287
-0.035694357 0.75400001 -0.062134624 1.5206008e-38 293 287
-0.034281172 0.75199997 -0.061969809 1.4746126e-38 294 287
-0.032962665 0.75199997 -0.061969809 1.4930157e-38 295 287
-0.073482201 0.76200002 -0.064129919 1.0134972e-38 265 288
-0.072051473 0.76099998 -0.064045757 1.0135323e-38 266 288
-0.070717193 0.76099998 -0.064045757 1.059666e-38 267 288
-0.069382899 0.76099998 -0.064045757 1.0874676e-38 268 288
-0.067869775 0.759 -0.063877434 1.1335295e-38 269 288
-0.066538997 0.759 -0.063877434 1.2255064e-38 270 288
-0.065036394 0.75700003 -0.063709125 1.2439455e-38 271 288
-0.063709125 0.75700003 -0.063709125 1.2625626e-38 272 288
-0.062381849 0.75700003 -0.063709125 1.2717822e-38 273 288
-0.060893264 0.755 -0.063540794 1.2994405e-38 274 288
-0.059569497 0.755 -0.063540794 1.3363547e-38 275 288
-0.058168583 0.75400001 -0.06345664 1.382237e-38 276 288
-0.056846574 0.75400001 -0.06345664 1.4006761e-38 277 288
-0.055524562 0.75400001 -0.06345664 1.4191157e-38 278 288
-0.054202545 0.75400001 -0.06345664 1.4559579e-38 279 288
-0.052880533 0.75400001 -0.06345664 1.483509e-38 280 288
-0.051558517 0.75400001 -0.06345664 1.4927646e-38 281 288
-0.050236505 0.75400001 -0.06345664 1.5112403e-38 282 288
-0.048914492 0.75400001 -0.06345664 1.5296794e-38 283 288
-0.04759248 0.75400001 -0.06345664 1.5114205e-38 284 288
-0.046270464 0.75400001 -0.06345664 1.52064e-38 285 288
-0.044948451 0.75400001 -0.06345664 1.5207472e-38 286 288
-0.043626439 0.75400001 -0.06345664 1.5207472e-38 287 288
-0.042304426 0.75400001 -0.06345664 1.52993e-38 288 288
-0.040982414 0.75400001 -0.06345664 1.52993e-38 289 288
-0.039555199 0.75199997 -0.063288316 1.5299655e-38 290 288
-0.038236689 0.75199997 -0.063288316 1.5207101e-38 291 288
-0.036918186 0.75199997 -0.063288316 1.5114188e-38 292 288
-0.035599679 0.75199997 -0.063288316 1.5021992e-38 293 288
-0.034281172 0.75199997 -0.063288316 1.4746126e-38 294 288
-0.032962665 0.75199997 -0.063288316 1.465393e-38 295 288
-0.03156 0.75 -0.06312 1.4469907e-38 296 288
-0.030244999 0.75 -0.06312 1.4285518e-38 297 288
-0.072051473 0.76099998 -0.065380037 1.0046004e-38 266 289
-0.070717193 0.76099998 -0.065380037 9.9538083e-39 267 289
-0.069382899 0.76099998 -0.065380037 1.0780692e-38 268 289
-0.067869775 0.759 -0.065208219 1.1057638e-38 269 289
-0.066538997 0.759 -0.065208219 1.1426761e-38 270 289
-0.065036394 0.75700003 -0.065036394 1.1703708e-38 271 289
-0.063709125 0.75700003 -0.065036394 1.2165382e-38 272 289
-0.062217031 0.755 -0.064864561 1.2257938e-38 273 289
-0.060893264 0.755 -0.064864561 1.2626348e-38 274 289
-0.059569497 0.755 -0.064864561 1.2810739e-38 275 289
-0.058168583 0.75400001 -0.064778648 1.317845e-38 276 289
-0.056846574 0.75400001 -0.064778648 1.3362841e-38 277 289
-0.055524562 0.75400001 -0.064778648 1.3730197e-38 278 289
-0.054202545 0.75400001 -0.064778648 1.4098621e-38 279 289
-0.052880533 0.75400001 -0.064778648 1.4007504e-38 280 289
-0.051558517 0.75400001 -0.064778648 1.428409e-38 281 289
-0.050236505 0.75400001 -0.064778648 1.4468485e-38 282 289
-0.048914492 0.75400001 -0.064778648 1.4652876e-38 283 289
-0.04759248 0.75400001 -0.064778648 1.4746147e-38 284 289
-0.046270464 0.75400001 -0.064778648 1.4746147e-38 285 289
-0.044948451 0.75400001 -0.064778648 1.4930887e-38 286 289
-0.04351072 0.75199997 -0.064606823 1.5115277e-38 287 289
-0.04219221 0.75199997 -0.064606823 1.5207104e-38 288 289
-0.040873703 0.75199997 -0.064606823 1.5207104e-38 289 289
-0.039555199 0.75199997 -0.064606823 1.5298219e-38 290 289
-0.038236689 0.75199997 -0.064606823 1.5298219e-38 291 289
-0.036918186 0.75199997 -0.064606823 1.5114188e-38 292 289
-0.035599679 0.75199997 -0.064606823 1.4929797e-38 293 289
-0.034281172 0.75199997 -0.064606823 1.465393e-38 294 289
-0.032962665 0.75199997 -0.064606823 1.4561735e-38 295 289
-0.03156 0.75 -0.064434998 1.4469186e-38 296 289
-0.030244999 0.75 -0.064434998 1.4469186e-38 297 289
-0.029007144 0.75199997 -0.064606823 1.3641967e-38 298 289
-0.070717193 0.76099998 -0.066714332 9.7712122e-39 267 290
-0.069382899 0.76099998 -0.066714332 1.0504814e-38 268 290
-0.067869775 0.759 -0.066538997 1.059701e-38 269 290
-0.066538997 0.759 -0.066538997 1.1057266e-38 270 290
-0.065036394 0.75700003 -0.06636367 1.1426048e-38 271 290
-0.063709125 0.75700003 -0.06636367 1.1520743e-38 272 290
-0.062217031 0.755 -0.066188328 1.1797329e-38 273 290
-0.060893264 0.755 -0.066188328 1.2349765e-38 274 290
-0.059569497 0.755 -0.066188328 1.2533796e-38 275 290
-0.058168583 0.75400001 -0.066100664 1.2901503e-38 276 290
-0.056846574 0.75400001 -0.066100664 1.317845e-38 277 290
-0.055524562 0.75400001 -0.066100664 1.3453607e-38 278 290
