# .PCD v.7 - Point Cloud Data file format
FIELDS x y z rgb imX imY
SIZE 4 4 4 4 4 4
TYPE F F F F F F
COUNT 1 1 1 1 1 1
WIDTH 835
HEIGHT 1
VIEWPOINT 0 0 0 1 0 0 0
POINTS 835
DATA ascii
0.0045867199 0.65399998 -0.056187313 1.11509e-38 324 289
0.0057333997 0.65399998 -0.056187313 1.0782477e-38 325 289
0.0068905996 0.65499997 -0.056273226 1.0599181e-38 326 289
0.008039033 0.65499997 -0.056273226 1.0967604e-38 327 289
0.0091874655 0.65499997 -0.056273226 1.1245619e-38 328 289
0.010335899 0.65499997 -0.056273226 1.1798793e-38 329 289
0.011484332 0.65499997 -0.056273226 1.2259396e-38 330 289
0.012632766 0.65499997 -0.056273226 1.2351593e-38 331 289
0.013823279 0.65700001 -0.056445058 1.2902601e-38 332 289
0.01497522 0.65700001 -0.056445058 1.2994797e-38 333 289
0.016151706 0.65799999 -0.056530971 1.2720358e-38 334 289
0.017331699 0.65899998 -0.056616884 1.2812554e-38 335 289
0.018487146 0.65899998 -0.056616884 1.2720711e-38 336 289
0.019642593 0.65899998 -0.056616884 1.2720711e-38 337 289
0.020798039 0.65899998 -0.056616884 1.2812551e-38 338 289
0.022020113 0.66100001 -0.056788713 1.2812551e-38 339 289
0.023179067 0.66100001 -0.056788713 1.2904396e-38 340 289
0.02433802 0.66100001 -0.056788713 1.2812201e-38 341 289
0.025535546 0.662 -0.056874625 1.2812204e-38 342 289
0.026696252 0.662 -0.056874625 1.2812204e-38 343 289
0.027899038 0.66299999 -0.056960538 1.2904399e-38 344 289
0.02910533 0.66399997 -0.057046451 1.2904399e-38 345 289
0.030360719 0.66600001 -0.057218276 1.2904399e-38 346 289
0.03157578 0.667 -0.057304189 1.2904399e-38 347 289
0.032745253 0.667 -0.057304189 1.2812569e-38 348 289
0.033965573 0.66799998 -0.057390101 1.2812569e-38 349 289
0.035241999 0.67000002 -0.057561934 1.2812216e-38 350 289
0.036416732 0.67000002 -0.057561934 1.2535989e-38 351 289
0.037647571 0.671 -0.057647847 1.2075733e-38 352 289
0.038824059 0.671 -0.057647847 1.1983537e-38 353 289
0.040000543 0.671 -0.057647847 1.179844e-38 354 289
-0.092803933 0.67000002 -0.058736663 1.1798382e-38 241 290
-0.091355674 0.66799998 -0.058561329 1.1798032e-38 242 290
-0.090184443 0.66799998 -0.058561329 1.1798032e-38 243 290
-0.088879973 0.667 -0.058473662 1.1797676e-38 244 290
-0.0877105 0.667 -0.058473662 1.1797676e-38 245 290
-0.086541019 0.667 -0.058473662 1.1797679e-38 246 290
-0.08524356 0.66600001 -0.058385998 1.1797679e-38 247 290
-0.084075838 0.66600001 -0.058385998 1.1797323e-38 248 290
-0.08265914 0.66399997 -0.05821066 1.1797323e-38 249 290
-0.081372194 0.66299999 -0.058122993 1.1889156e-38 250 290
-0.080209732 0.66299999 -0.058122993 1.1981351e-38 251 290
-0.078928046 0.662 -0.058035329 1.1981351e-38 252 290
-0.077767342 0.662 -0.058035329 1.1981351e-38 253 290
-0.076606639 0.662 -0.058035329 1.1889877e-38 254 290
-0.075445928 0.662 -0.058035329 1.1982073e-38 255 290
-0.074173011 0.66100001 -0.057947662 1.2257935e-38 256 290
-0.073014058 0.66100001 -0.057947662 1.2165738e-38 257 290
-0.071855105 0.66100001 -0.057947662 1.2258286e-38 258 290
-0.070696153 0.66100001 -0.057947662 1.2258286e-38 259 290
-0.0695372 0.66100001 -0.057947662 1.1983497e-38 260 290
-0.068067901 0.65799999 -0.057684667 1.1983497e-38 261 290
-0.066914216 0.65799999 -0.057684667 1.2166089e-38 262 290
-0.065660581 0.65700001 -0.057596996 1.1982058e-38 263 290
-0.064508639 0.65700001 -0.057596996 1.2257565e-38 264 290
-0.063356705 0.65700001 -0.057596996 1.2257565e-38 265 290
-0.06220476 0.65700001 -0.057596996 1.2257933e-38 266 290
-0.060866963 0.65499997 -0.057421666 1.2257933e-38 267 290
-0.059718527 0.65499997 -0.057421666 1.2349415e-38 268 290
-0.058570094 0.65499997 -0.057421666 1.2349415e-38 269 290
-0.057421666 0.65499997 -0.057421666 1.2533446e-38 270 290
-0.056273226 0.65499997 -0.057421666 1.2533446e-38 271 290
-0.055124797 0.65499997 -0.057421666 1.2350131e-38 272 290
-0.053976361 0.65499997 -0.057421666 1.2257935e-38 273 290
-0.052747279 0.65399998 -0.057333998 1.1983144e-38 274 290
-0.051600594 0.65399998 -0.057333998 1.1799111e-38 275 290
-0.050453916 0.65399998 -0.057333998 1.2074267e-38 276 290
-0.049231846 0.653 -0.057246335 1.2166822e-38 277 290
-0.048086919 0.653 -0.057246335 1.2349783e-38 278 290
-0.046941992 0.653 -0.057246335 1.2349783e-38 279 290
-0.045797065 0.653 -0.057246335 1.2257585e-38 280 290
-0.044652138 0.653 -0.057246335 1.2349781e-38 281 290
-0.043507211 0.653 -0.057246335 1.2167187e-38 282 290
-0.042362284 0.653 -0.057246335 1.2167187e-38 283 290
-0.041217357 0.653 -0.057246335 1.2074989e-38 284 290
-0.040011063 0.65200001 -0.057158668 1.2074989e-38 285 290
-0.038867895 0.65200001 -0.057158668 1.2350131e-38 286 290
-0.037724718 0.65200001 -0.057158668 1.2350131e-38 287 290
-0.036581546 0.65200001 -0.057158668 1.2350131e-38 288 290
-0.035438374 0.65200001 -0.057158668 1.2350131e-38 289 290
-0.034295198 0.65200001 -0.057158668 1.2167538e-38 290 290
-0.033152029 0.65200001 -0.057158668 1.2167538e-38 291 290
-0.032008853 0.65200001 -0.057158668 1.2166466e-38 292 290
-0.030865679 0.65200001 -0.057158668 1.2350497e-38 293 290
-0.029722504 0.65200001 -0.057158668 1.2533449e-38 294 290
-0.028579334 0.65200001 -0.057158668 1.2533449e-38 295 290
-0.02743616 0.65200001 -0.057158668 1.2533449e-38 296 290
-0.026292987 0.65200001 -0.057158668 1.2625645e-38 297 290
-0.025149813 0.65200001 -0.057158668 1.2442695e-38 298 290
-0.024006641 0.65200001 -0.057158668 1.23505e-38 299 290
-0.022863466 0.65200001 -0.057158668 1.2167187e-38 300 290
-0.021653665 0.64999998 -0.056983333 1.2167187e-38 301 290
-0.020513998 0.64999998 -0.056983333 1.2350853e-38 302 290
-0.019374331 0.64999998 -0.056983333 1.2350853e-38 303 290
-0.018234665 0.64999998 -0.056983333 1.2533446e-38 304 290
-0.017095 0.64999998 -0.056983333 1.2717837e-38 305 290
-0.015955333 0.64999998 -0.056983333 1.2350497e-38 306 290
-0.014815666 0.64999998 -0.056983333 1.2350497e-38 307 290
-0.013675999 0.64999998 -0.056983333 1.2167184e-38 308 290
-0.012574906 0.65200001 -0.057158668 1.2167184e-38 309 290
-0.011396666 0.64999998 -0.056983333 1.2350853e-38 310 290
-0.010256999 0.64999998 -0.056983333 1.2350853e-38 311 290
-0.0091173323 0.64999998 -0.056983333 1.2350853e-38 312 290
-0.0080022132 0.65200001 -0.057158668 1.2166822e-38 313 290
-0.0068590399 0.65200001 -0.057158668 1.2167184e-38 314 290
-0.0057158666 0.65200001 -0.057158668 1.2167184e-38 315 290
-0.0045726933 0.65200001 -0.057158668 1.23505e-38 316 290
-0.0034295199 0.65200001 -0.057158668 1.2166468e-38 317 290
-0.0022863466 0.65200001 -0.057158668 1.2349783e-38 318 290
-0.00114668 0.65399998 -0.057333998 1.2349783e-38 319 290
0 0.65399998 -0.057333998 1.2166466e-38 320 290
0.00114668 0.65399998 -0.057333998 1.207427e-38 321 290
0.00229336 0.65399998 -0.057333998 1.1982073e-38 322 290
0.0034400397 0.65399998 -0.057333998 1.1797323e-38 323 290
0.0045867199 0.65399998 -0.057333998 1.1152336e-38 324 290
0.0057333997 0.65399998 -0.057333998 1.0783193e-38 325 290
0.0068905996 0.65499997 -0.057421666 1.1057635e-38 326 290
0.008039033 0.65499997 -0.057421666 1.1518613e-38 327 290
0.0091874655 0.65499997 -0.057421666 1.1614029e-38 328 290
0.010335899 0.65499997 -0.057421666 1.1983172e-38 329 290
0.011519399 0.65700001 -0.057596996 1.2351225e-38 330 290
0.01267134 0.65700001 -0.057596996 1.2627812e-38 331 290
0.013823279 0.65700001 -0.057596996 1.2811482e-38 332 290
0.01497522 0.65700001 -0.057596996 1.2811482e-38 333 290
0.016151706 0.65799999 -0.057684667 1.2812557e-38 334 290
0.017331699 0.65899998 -0.057772331 1.2812557e-38 335 290
0.018487146 0.65899998 -0.057772331 1.2812557e-38 336 290
0.019642593 0.65899998 -0.057772331 1.2812557e-38 337 290
0.02086116 0.66100001 -0.057947662 1.2812557e-38 338 290
0.022020113 0.66100001 -0.057947662 1.2812557e-38 339 290
0.023179067 0.66100001 -0.057947662 1.2812201e-38 340 290
0.02433802 0.66100001 -0.057947662 1.2812201e-38 341 290
0.025535546 0.662 -0.058035329 1.2720008e-38 342 290
0.026696252 0.662 -0.058035329 1.2812204e-38 343 290
0.027899038 0.66299999 -0.058122993 1.2628535e-38 344 290
0.029192999 0.66600001 -0.058385998 1.2628535e-38 345 290
0.030360719 0.66600001 -0.058385998 1.2628541e-38 346 290
0.03157578 0.667 -0.058473662 1.2628541e-38 347 290
0.032745253 0.667 -0.058473662 1.2719655e-38 348 290
0.033965573 0.66799998 -0.058561329 1.2719655e-38 349 290
0.035241999 0.67000002 -0.058736663 1.2444147e-38 350 290
0.036416732 0.67000002 -0.058736663 1.21672e-38 351 290
0.037647571 0.671 -0.058824331 1.1430378e-38 352 290
-0.091355674 0.66799998 -0.05973256 1.1890228e-38 242 291
-0.090184443 0.66799998 -0.05973256 1.1798032e-38 243 291
-0.089013219 0.66799998 -0.05973256 1.1889509e-38 244 291
-0.0877105 0.667 -0.059643134 1.1889509e-38 245 291
-0.086541019 0.667 -0.059643134 1.1797679e-38 246 291
-0.08524356 0.66600001 -0.059553716 1.1797679e-38 247 291
-0.084075838 0.66600001 -0.059553716 1.1797323e-38 248 291
-0.08265914 0.66399997 -0.059374876 1.1797323e-38 249 291
-0.081372194 0.66299999 -0.059285458 1.1796604e-38 250 291
-0.080209732 0.66299999 -0.059285458 1.1889158e-38 251 291
-0.078928046 0.662 -0.05919604 1.1889158e-38 252 291
-0.077767342 0.662 -0.05919604 1.1889158e-38 253 291
-0.076606639 0.662 -0.05919604 1.1888803e-38 254 291
-0.075445928 0.662 -0.05919604 1.1888803e-38 255 291
-0.074285224 0.662 -0.05919604 1.1981351e-38 256 291
-0.07312452 0.662 -0.05919604 1.1981351e-38 257 291
-0.071855105 0.66100001 -0.059106622 1.1981702e-38 258 291
-0.070696153 0.66100001 -0.059106622 1.2166091e-38 259 291
-0.0695372 0.66100001 -0.059106622 1.1982423e-38 260 291
-0.068067901 0.65799999 -0.058838356 1.1982423e-38 261 291
-0.066914216 0.65799999 -0.058838356 1.2165017e-38 262 291
-0.065760516 0.65799999 -0.058838356 1.2165017e-38 263 291
-0.064508639 0.65700001 -0.058748938 1.2165373e-38 264 291
-0.063356705 0.65700001 -0.058748938 1.2165373e-38 265 291
-0.06220476 0.65700001 -0.058748938 1.2165738e-38 266 291
-0.061052818 0.65700001 -0.058748938 1.2165738e-38 267 291
-0.059718527 0.65499997 -0.058570094 1.2257218e-38 268 291
-0.058570094 0.65499997 -0.058570094 1.2257218e-38 269 291
-0.057421666 0.65499997 -0.058570094 1.2349415e-38 270 291
-0.056273226 0.65499997 -0.058570094 1.2349415e-38 271 291
-0.055124797 0.65499997 -0.058570094 1.2165382e-38 272 291
-0.053976361 0.65499997 -0.058570094 1.2257938e-38 273 291
-0.052747279 0.65399998 -0.05848068 1.1798758e-38 274 291
-0.051600594 0.65399998 -0.05848068 1.1798758e-38 275 291
-0.050453916 0.65399998 -0.05848068 1.1798758e-38 276 291
-0.049231846 0.653 -0.058391262 1.1798758e-38 277 291
-0.048086919 0.653 -0.058391262 1.2165385e-38 278 291
-0.046941992 0.653 -0.058391262 1.2165385e-38 279 291
-0.045797065 0.653 -0.058391262 1.2165034e-38 280 291
-0.044652138 0.653 -0.058391262 1.2257229e-38 281 291
-0.043507211 0.653 -0.058391262 1.2166115e-38 282 291
-0.042362284 0.653 -0.058391262 1.2166115e-38 283 291
-0.041154239 0.65200001 -0.058301836 1.2073917e-38 284 291
-0.040011063 0.65200001 -0.058301836 1.2073917e-38 285 291
-0.038867895 0.65200001 -0.058301836 1.207427e-38 286 291
-0.037724718 0.65200001 -0.058301836 1.207427e-38 287 291
-0.036581546 0.65200001 -0.058301836 1.2075342e-38 288 291
-0.035438374 0.65200001 -0.058301836 1.2075342e-38 289 291
-0.034295198 0.65200001 -0.058301836 1.2075342e-38 290 291
-0.033152029 0.65200001 -0.058301836 1.2075342e-38 291 291
-0.032008853 0.65200001 -0.058301836 1.2166466e-38 292 291
-0.030865679 0.65200001 -0.058301836 1.2166466e-38 293 291
-0.029722504 0.65200001 -0.058301836 1.2166113e-38 294 291
-0.028579334 0.65200001 -0.058301836 1.2166113e-38 295 291
-0.02743616 0.65200001 -0.058301836 1.2166115e-38 296 291
-0.026292987 0.65200001 -0.058301836 1.2166115e-38 297 291
-0.025149813 0.65200001 -0.058301836 1.2350502e-38 298 291
-0.024006641 0.65200001 -0.058301836 1.2166113e-38 299 291
-0.022863466 0.65200001 -0.058301836 1.23505e-38 300 291
-0.021653665 0.64999998 -0.058122993 1.2166468e-38 301 291
-0.020513998 0.64999998 -0.058122993 1.2349778e-38 302 291
-0.019374331 0.64999998 -0.058122993 1.2441974e-38 303 291
-0.018234665 0.64999998 -0.058122993 1.2442329e-38 304 291
-0.017095 0.64999998 -0.058122993 1.2442329e-38 305 291
-0.015955333 0.64999998 -0.058122993 1.2350853e-38 306 291
-0.014815666 0.64999998 -0.058122993 1.2350853e-38 307 291
-0.013675999 0.64999998 -0.058122993 1.2167538e-38 308 291
-0.012574906 0.65200001 -0.058301836 1.2167538e-38 309 291
-0.011396666 0.64999998 -0.058122993 1.2167538e-38 310 291
-0.010256999 0.64999998 -0.058122993 1.2167538e-38 311 291
-0.0091173323 0.64999998 -0.058122993 1.2167184e-38 312 291
-0.0080022132 0.65200001 -0.058301836 1.2167184e-38 313 291
-0.0068590399 0.65200001 -0.058301836 1.2166831e-38 314 291
-0.0057158666 0.65200001 -0.058301836 1.2166831e-38 315 291
-0.0045726933 0.65200001 -0.058301836 1.2167187e-38 316 291
-0.0034295199 0.65200001 -0.058301836 1.2167187e-38 317 291
-0.0022863466 0.65200001 -0.058301836 1.2167184e-38 318 291
-0.00114668 0.65399998 -0.05848068 1.2167184e-38 319 291
0 0.65399998 -0.05848068 1.2075342e-38 320 291
0.00114668 0.65399998 -0.05848068 1.2075342e-38 321 291
0.00229336 0.65399998 -0.05848068 1.1983146e-38 322 291
0.0034400397 0.65399998 -0.05848068 1.1798755e-38 323 291
0.0045867199 0.65399998 -0.05848068 1.1522184e-38 324 291
0.0057421662 0.65499997 -0.058570094 1.1338153e-38 325 291
0.0068905996 0.65499997 -0.058570094 1.1428919e-38 326 291
0.008039033 0.65499997 -0.058570094 1.161331e-38 327 291
0.0091874655 0.65499997 -0.058570094 1.2074283e-38 328 291
0.010335899 0.65499997 -0.058570094 1.2351228e-38 329 291
0.011519399 0.65700001 -0.058748938 1.2352297e-38 330 291
0.01267134 0.65700001 -0.058748938 1.2444494e-38 331 291
0.013823279 0.65700001 -0.058748938 1.2720361e-38 332 291
0.014998012 0.65799999 -0.058838356 1.2812557e-38 333 291
0.016176252 0.65899998 -0.058927774 1.2811482e-38 334 291
0.017331699 0.65899998 -0.058927774 1.2811482e-38 335 291
0.018487146 0.65899998 -0.058927774 1.2720008e-38 336 291
0.019702207 0.66100001 -0.059106622 1.2812204e-38 337 291
0.02086116 0.66100001 -0.059106622 1.2720005e-38 338 291
0.022020113 0.66100001 -0.059106622 1.2720005e-38 339 291
0.023179067 0.66100001 -0.059106622 1.2811482e-38 340 291
0.024374841 0.662 -0.05919604 1.2811482e-38 341 291
0.025574118 0.66299999 -0.059285458 1.2719289e-38 342 291
0.026736578 0.66299999 -0.059285458 1.2995516e-38 343 291
0.027941117 0.66399997 -0.059374876 1.2719655e-38 344 291
0.029192999 0.66600001 -0.059553716 1.2719655e-38 345 291
0.030406304 0.667 -0.059643134 1.2719302e-38 346 291
0.031623118 0.66799998 -0.05973256 1.2350878e-38 347 291
0.032794341 0.66799998 -0.05973256 1.2073213e-38 348 291
0.033965573 0.66799998 -0.05973256 1.152004e-38 349 291
0.035241999 0.67000002 -0.0599114 1.0691727e-38 350 291
0.036416732 0.67000002 -0.0599114 1.0599531e-38 351 291
-0.090184443 0.66799998 -0.060903784 1.1889509e-38 243 292
-0.089013219 0.66799998 -0.060903784 1.1889509e-38 244 292
-0.087841995 0.66799998 -0.060903784 1.1889509e-38 245 292
-0.086541019 0.667 -0.060812607 1.1889156e-38 246 292
-0.085371546 0.667 -0.060812607 1.1981351e-38 247 292
-0.084075838 0.66600001 -0.060721438 1.1889877e-38 248 292
-0.082908116 0.66600001 -0.060721438 1.1797323e-38 249 292
-0.081372194 0.66299999 -0.060447913 1.1797679e-38 250 292
-0.080209732 0.66299999 -0.060447913 1.1797679e-38 251 292
-0.079047278 0.66299999 -0.060447913 1.1705483e-38 252 292
-0.077767342 0.662 -0.060356744 1.1705483e-38 253 292
-0.076606639 0.662 -0.060356744 1.1521099e-38 254 292
-0.075445928 0.662 -0.060356744 1.170513e-38 255 292
-0.074285224 0.662 -0.060356744 1.170513e-38 256 292
-0.07312452 0.662 -0.060356744 1.1797326e-38 257 292
-0.071855105 0.66100001 -0.060265575 1.1797323e-38 258 292
-0.070696153 0.66100001 -0.060265575 1.1797323e-38 259 292
-0.0695372 0.66100001 -0.060265575 1.1889521e-38 260 292
-0.068171352 0.65899998 -0.060083222 1.1889521e-38 261 292
-0.067015901 0.65899998 -0.060083222 1.1889877e-38 262 292
-0.065760516 0.65799999 -0.059992049 1.1797323e-38 263 292
-0.064606823 0.65799999 -0.059992049 1.1797679e-38 264 292
-0.063356705 0.65700001 -0.05990088 1.1797679e-38 265 292
-0.06220476 0.65700001 -0.05990088 1.1889521e-38 266 292
-0.061052818 0.65700001 -0.05990088 1.1981718e-38 267 292
-0.059718527 0.65499997 -0.059718527 1.1981718e-38 268 292
-0.058570094 0.65499997 -0.059718527 1.1889521e-38 269 292
-0.057421666 0.65499997 -0.059718527 1.2074267e-38 270 292
-0.056273226 0.65499997 -0.059718527 1.198207e-38 271 292
-0.055124797 0.65499997 -0.059718527 1.198207e-38 272 292
-0.053976361 0.65499997 -0.059718527 1.198207e-38 273 292
-0.052747279 0.65399998 -0.059627358 1.1889872e-38 274 292
-0.051600594 0.65399998 -0.059627358 1.2074623e-38 275 292
-0.050453916 0.65399998 -0.059627358 1.1799111e-38 276 292
-0.049307238 0.65399998 -0.059627358 1.1983144e-38 277 292
-0.048086919 0.653 -0.059536185 1.1982423e-38 278 292
-0.046941992 0.653 -0.059536185 1.1982423e-38 279 292
-0.045797065 0.653 -0.059536185 1.2074267e-38 280 292
-0.044652138 0.653 -0.059536185 1.2074267e-38 281 292
-0.043507211 0.653 -0.059536185 1.2074273e-38 282 292
-0.042362284 0.653 -0.059536185 1.2074273e-38 283 292
-0.041154239 0.65200001 -0.059445009 1.207427e-38 284 292
-0.040011063 0.65200001 -0.059445009 1.207427e-38 285 292
-0.038867895 0.65200001 -0.059445009 1.207427e-38 286 292
-0.037724718 0.65200001 -0.059445009 1.2166466e-38 287 292
-0.036581546 0.65200001 -0.059445009 1.2074986e-38 288 292
-0.035438374 0.65200001 -0.059445009 1.2074986e-38 289 292
-0.034295198 0.65200001 -0.059445009 1.189203e-38 290 292
-0.033152029 0.65200001 -0.059445009 1.189203e-38 291 292
-0.032008853 0.65200001 -0.059445009 1.2074986e-38 292 292
-0.030865679 0.65200001 -0.059445009 1.198279e-38 293 292
-0.029722504 0.65200001 -0.059445009 1.2166113e-38 294 292
-0.028579334 0.65200001 -0.059445009 1.2166113e-38 295 292
-0.02743616 0.65200001 -0.059445009 1.2074283e-38 296 292
-0.026292987 0.65200001 -0.059445009 1.2074283e-38 297 292
-0.025149813 0.65200001 -0.059445009 1.2074992e-38 298 292
-0.024006641 0.65200001 -0.059445009 1.2074992e-38 299 292
-0.022863466 0.65200001 -0.059445009 1.2074986e-38 300 292
-0.021653665 0.64999998 -0.059262663 1.2167182e-38 301 292
-0.020513998 0.64999998 -0.059262663 1.2166822e-38 302 292
-0.019374331 0.64999998 -0.059262663 1.2166822e-38 303 292
-0.018234665 0.64999998 -0.059262663 1.2166819e-38 304 292
-0.017095 0.64999998 -0.059262663 1.235085e-38 305 292
-0.015955333 0.64999998 -0.059262663 1.2167535e-38 306 292
-0.014815666 0.64999998 -0.059262663 1.2167535e-38 307 292
-0.013675999 0.64999998 -0.059262663 1.244268e-38 308 292
-0.012574906 0.65200001 -0.059445009 1.2350484e-38 309 292
-0.011431733 0.65200001 -0.059445009 1.2351203e-38 310 292
-0.01028856 0.65200001 -0.059445009 1.2351203e-38 311 292
-0.0091453865 0.65200001 -0.059445009 1.2350853e-38 312 292
-0.0080022132 0.65200001 -0.059445009 1.2443048e-38 313 292
-0.0068590399 0.65200001 -0.059445009 1.2350497e-38 314 292
-0.0057158666 0.65200001 -0.059445009 1.2350497e-38 315 292
-0.0045797066 0.653 -0.059536185 1.2167182e-38 316 292
-0.0034347798 0.653 -0.059536185 1.2167182e-38 317 292
-0.0022898533 0.653 -0.059536185 1.2443048e-38 318 292
-0.00114668 0.65399998 -0.059627358 1.2350853e-38 319 292
0 0.65399998 -0.059627358 1.2350847e-38 320 292
0.00114668 0.65399998 -0.059627358 1.2350847e-38 321 292
0.0022968664 0.65499997 -0.059718527 1.2167888e-38 322 292
0.0034452998 0.65499997 -0.059718527 1.2167888e-38 323 292
0.0045937328 0.65499997 -0.059718527 1.2074976e-38 324 292
0.0057421662 0.65499997 -0.059718527 1.2074976e-38 325 292
0.0068905996 0.65499997 -0.059718527 1.198279e-38 326 292
0.008039033 0.65499997 -0.059718527 1.2074986e-38 327 292
0.0091874655 0.65499997 -0.059718527 1.2351576e-38 328 292
0.010335899 0.65499997 -0.059718527 1.244413e-38 329 292
0.011519399 0.65700001 -0.05990088 1.262816e-38 330 292
0.012690626 0.65799999 -0.059992049 1.262816e-38 331 292
0.01384432 0.65799999 -0.059992049 1.2720358e-38 332 292
0.015020805 0.65899998 -0.060083222 1.2720358e-38 333 292
0.016176252 0.65899998 -0.060083222 1.2719652e-38 334 292
0.0173843 0.66100001 -0.060265575 1.2719652e-38 335 292
0.018543253 0.66100001 -0.060265575 1.2536343e-38 336 292
0.019702207 0.66100001 -0.060265575 1.2444147e-38 337 292
0.02086116 0.66100001 -0.060265575 1.2260479e-38 338 292
0.022020113 0.66100001 -0.060265575 1.2168283e-38 339 292
0.023214132 0.662 -0.060356744 1.2168636e-38 340 292
0.024374841 0.662 -0.060356744 1.207608e-38 341 292
0.025574118 0.66299999 -0.060447913 1.2259751e-38 342 292
0.026736578 0.66299999 -0.060447913 1.2259751e-38 343 292
0.027941117 0.66399997 -0.060539093 1.2259396e-38 344 292
0.029236831 0.667 -0.060812607 1.21672e-38 345 292
0.030543067 0.67000002 -0.061086133 1.1798787e-38 346 292
0.0317178 0.67000002 -0.061086133 1.1522561e-38 347 292
0.032892533 0.67000002 -0.061086133 1.0600992e-38 348 292
0.034067266 0.67000002 -0.061086133 9.955623e-39 349 292
-0.090184443 0.66799998 -0.062075011 1.1706559e-38 243 293
-0.089013219 0.66799998 -0.062075011 1.1889506e-38 244 293
-0.087841995 0.66799998 -0.062075011 1.1889506e-38 245 293
-0.086541019 0.667 -0.06198208 1.1798026e-38 246 293
-0.085371546 0.667 -0.06198208 1.1798026e-38 247 293
-0.084202074 0.667 -0.06198208 1.1798029e-38 248 293
-0.082908116 0.66600001 -0.061889157 1.1705834e-38 249 293
-0.081740394 0.66600001 -0.061889157 1.1798032e-38 250 293
-0.080209732 0.66299999 -0.061610378 1.1705478e-38 251 293
-0.079047278 0.66299999 -0.061610378 1.1522171e-38 252 293
-0.077767342 0.662 -0.061517447 1.1429617e-38 253 293
-0.076606639 0.662 -0.061517447 1.1429617e-38 254 293
-0.075445928 0.662 -0.061517447 1.1429617e-38 255 293
-0.074285224 0.662 -0.061517447 1.1704762e-38 256 293
-0.07312452 0.662 -0.061517447 1.1704762e-38 257 293
-0.071855105 0.66100001 -0.061424527 1.179696e-38 258 293
-0.070696153 0.66100001 -0.061424527 1.1704764e-38 259 293
-0.0695372 0.66100001 -0.061424527 1.1796604e-38 260 293
-0.068378247 0.66100001 -0.061424527 1.1796604e-38 261 293
-0.067015901 0.65899998 -0.061238669 1.1888077e-38 262 293
-0.065860458 0.65899998 -0.061238669 1.1980272e-38 263 293
-0.064606823 0.65799999 -0.061145745 1.1704762e-38 264 293
-0.06345313 0.65799999 -0.061145745 1.1889153e-38 265 293
-0.062299434 0.65799999 -0.061145745 1.179696e-38 266 293
-0.061052818 0.65700001 -0.061052818 1.1889156e-38 267 293
-0.05990088 0.65700001 -0.061052818 1.1889156e-38 268 293
-0.058570094 0.65499997 -0.060866963 1.1981351e-38 269 293
-0.057421666 0.65499997 -0.060866963 1.2165738e-38 270 293
-0.056273226 0.65499997 -0.060866963 1.2165738e-38 271 293
-0.055124797 0.65499997 -0.060866963 1.1982073e-38 272 293
-0.053976361 0.65499997 -0.060866963 1.207427e-38 273 293
-0.052827932 0.65499997 -0.060866963 1.198207e-38 274 293
-0.051679496 0.65499997 -0.060866963 1.198207e-38 275 293
-0.050531063 0.65499997 -0.060866963 1.207462e-38 276 293
-0.049307238 0.65399998 -0.060774036 1.207462e-38 277 293
-0.048160557 0.65399998 -0.060774036 1.1983146e-38 278 293
-0.047013879 0.65399998 -0.060774036 1.1983146e-38 279 293
-0.045867197 0.65399998 -0.060774036 1.1983146e-38 280 293
-0.044652138 0.653 -0.060681112 1.2075342e-38 281 293
-0.043507211 0.653 -0.060681112 1.2074986e-38 282 293
-0.042362284 0.653 -0.060681112 1.2074986e-38 283 293
-0.041154239 0.65200001 -0.060588185 1.2074267e-38 284 293
-0.040011063 0.65200001 -0.060588185 1.2166822e-38 285 293
-0.038867895 0.65200001 -0.060588185 1.2074623e-38 286 293
-0.037724718 0.65200001 -0.060588185 1.2166819e-38 287 293
-0.036581546 0.65200001 -0.060588185 1.2074986e-38 288 293
-0.035492726 0.653 -0.060681112 1.2074986e-38 289 293
-0.034347799 0.653 -0.060681112 1.2074986e-38 290 293
-0.033202872 0.653 -0.060681112 1.198279e-38 291 293
-0.032057945 0.653 -0.060681112 1.1982437e-38 292 293
-0.030865679 0.65200001 -0.060588185 1.2074992e-38 293 293
-0.029722504 0.65200001 -0.060588185 1.2073917e-38 294 293
-0.028579334 0.65200001 -0.060588185 1.2166113e-38 295 293
-0.02743616 0.65200001 -0.060588185 1.2074992e-38 296 293
-0.026292987 0.65200001 -0.060588185 1.2074992e-38 297 293
-0.025149813 0.65200001 -0.060588185 1.2074989e-38 298 293
-0.024006641 0.65200001 -0.060588185 1.2074989e-38 299 293
-0.022863466 0.65200001 -0.060588185 1.2075342e-38 300 293
-0.021653665 0.64999998 -0.060402326 1.2167538e-38 301 293
-0.020513998 0.64999998 -0.060402326 1.2350847e-38 302 293
-0.019433947 0.65200001 -0.060588185 1.2350847e-38 303 293
-0.018234665 0.64999998 -0.060402326 1.2167182e-38 304 293
-0.017095 0.64999998 -0.060402326 1.2167182e-38 305 293
-0.016004426 0.65200001 -0.060588185 1.2167184e-38 306 293
-0.014815666 0.64999998 -0.060402326 1.2167184e-38 307 293
-0.013675999 0.64999998 -0.060402326 1.2443046e-38 308 293
-0.012574906 0.65200001 -0.060588185 1.2443046e-38 309 293
-0.011431733 0.65200001 -0.060588185 1.2259736e-38 310 293
-0.01028856 0.65200001 -0.060588185 1.2259736e-38 311 293
-0.0091453865 0.65200001 -0.060588185 1.2259736e-38 312 293
-0.0080022132 0.65200001 -0.060588185 1.2259736e-38 313 293
-0.0068695596 0.653 -0.060681112 1.2259733e-38 314 293
-0.0057246331 0.653 -0.060681112 1.2259733e-38 315 293
-0.0045797066 0.653 -0.060681112 1.235085e-38 316 293
-0.0034347798 0.653 -0.060681112 1.2443046e-38 317 293
-0.0022898533 0.653 -0.060681112 1.2168256e-38 318 293
-0.00114668 0.65399998 -0.060774036 1.2168256e-38 319 293
0 0.65399998 -0.060774036 1.225973e-38 320 293
0.0011484332 0.65499997 -0.060866963 1.225973e-38 321 293
0.0022968664 0.65499997 -0.060866963 1.225973e-38 322 293
0.0034452998 0.65499997 -0.060866963 1.225973e-38 323 293
0.0045937328 0.65499997 -0.060866963 1.225973e-38 324 293
0.0057596997 0.65700001 -0.061052818 1.225973e-38 325 293
0.0069116396 0.65700001 -0.061052818 1.2168256e-38 326 293
0.0080635799 0.65700001 -0.061052818 1.2168256e-38 327 293
0.0092155198 0.65700001 -0.061052818 1.244413e-38 328 293
0.01036746 0.65700001 -0.061052818 1.2628163e-38 329 293
0.011519399 0.65700001 -0.061052818 1.262816e-38 330 293
0.012690626 0.65799999 -0.061145745 1.262816e-38 331 293
0.01384432 0.65799999 -0.061145745 1.2719639e-38 332 293
0.015020805 0.65899998 -0.061238669 1.2627442e-38 333 293
0.016176252 0.65899998 -0.061238669 1.2810403e-38 334 293
0.017410601 0.662 -0.061517447 1.262637e-38 335 293
0.018571306 0.662 -0.061517447 1.253454e-38 336 293
0.019732011 0.662 -0.061517447 1.2442345e-38 337 293
0.020892721 0.662 -0.061517447 1.2349796e-38 338 293
0.022053426 0.662 -0.061517447 1.2165765e-38 339 293
0.0232492 0.66299999 -0.061610378 1.161331e-38 340 293
0.024411658 0.66299999 -0.061610378 1.1152333e-38 341 293
0.025574118 0.66299999 -0.061610378 1.1243454e-38 342 293
0.026776904 0.66399997 -0.061703302 1.11509e-38 343 293
0.028025279 0.66600001 -0.061889157 1.0324752e-38 344 293
0.029280664 0.66799998 -0.062075011 1.0048525e-38 345 293
-0.089013219 0.66799998 -0.063246235 1.1889506e-38 244 294
-0.087841995 0.66799998 -0.063246235 1.1889506e-38 245 294
-0.086670771 0.66799998 -0.063246235 1.1614361e-38 246 294
-0.085371546 0.667 -0.063151561 1.1522165e-38 247 294
-0.084202074 0.667 -0.063151561 1.1522168e-38 248 294
-0.083032601 0.667 -0.063151561 1.1522168e-38 249 294
-0.081740394 0.66600001 -0.063056879 1.13385e-38 250 294
-0.08057268 0.66600001 -0.063056879 1.13385e-38 251 294
-0.079166502 0.66399997 -0.062867515 1.1704408e-38 252 294
-0.077884816 0.66299999 -0.062772833 1.1704408e-38 253 294
-0.076722354 0.66299999 -0.062772833 1.1612213e-38 254 294
-0.075445928 0.662 -0.062678158 1.1612213e-38 255 294
-0.074285224 0.662 -0.062678158 1.1428901e-38 256 294
-0.07312452 0.662 -0.062678158 1.1428901e-38 257 294
-0.071855105 0.66100001 -0.062583476 1.1337071e-38 258 294
-0.070696153 0.66100001 -0.062583476 1.1337071e-38 259 294
-0.0695372 0.66100001 -0.062583476 1.1428194e-38 260 294
-0.068378247 0.66100001 -0.062583476 1.1428194e-38 261 294
-0.067015901 0.65899998 -0.062394116 1.1519314e-38 262 294
-0.065860458 0.65899998 -0.062394116 1.1519314e-38 263 294
-0.064606823 0.65799999 -0.062299434 1.142855e-38 264 294
-0.06345313 0.65799999 -0.062299434 1.1520746e-38 265 294
-0.062299434 0.65799999 -0.062299434 1.1521099e-38 266 294
-0.061052818 0.65700001 -0.06220476 1.1797326e-38 267 294
-0.05990088 0.65700001 -0.06220476 1.1797323e-38 268 294
-0.058748938 0.65700001 -0.06220476 1.1797323e-38 269 294
-0.057421666 0.65499997 -0.062015396 1.1706562e-38 270 294
-0.056273226 0.65499997 -0.062015396 1.1798758e-38 271 294
-0.055124797 0.65499997 -0.062015396 1.1798761e-38 272 294
-0.053976361 0.65499997 -0.062015396 1.1798761e-38 273 294
-0.052827932 0.65499997 -0.062015396 1.1798758e-38 274 294
-0.051679496 0.65499997 -0.062015396 1.1798758e-38 275 294
-0.050531063 0.65499997 -0.062015396 1.1799111e-38 276 294
-0.049382631 0.65499997 -0.062015396 1.1983144e-38 277 294
-0.048160557 0.65399998 -0.061920714 1.207462e-38 278 294
-0.047013879 0.65399998 -0.061920714 1.2166816e-38 279 294
-0.045867197 0.65399998 -0.061920714 1.2166819e-38 280 294
-0.044720516 0.65399998 -0.061920714 1.2166819e-38 281 294
-0.043507211 0.653 -0.061826039 1.2166819e-38 282 294
-0.042362284 0.653 -0.061826039 1.2166819e-38 283 294
-0.041217357 0.653 -0.061826039 1.2166819e-38 284 294
-0.04007243 0.653 -0.061826039 1.2166819e-38 285 294
-0.038927507 0.653 -0.061826039 1.2075342e-38 286 294
-0.03778258 0.653 -0.061826039 1.2075342e-38 287 294
-0.036637653 0.653 -0.061826039 1.2074989e-38 288 294
-0.035492726 0.653 -0.061826039 1.2074989e-38 289 294
-0.034347799 0.653 -0.061826039 1.2074989e-38 290 294
-0.033202872 0.653 -0.061826039 1.2074989e-38 291 294
-0.032057945 0.653 -0.061826039 1.207427e-38 292 294
-0.030865679 0.65200001 -0.061731357 1.207427e-38 293 294
-0.029722504 0.65200001 -0.061731357 1.198244e-38 294 294
-0.028579334 0.65200001 -0.061731357 1.2074636e-38 295 294
-0.02743616 0.65200001 -0.061731357 1.2074992e-38 296 294
-0.026292987 0.65200001 -0.061731357 1.2074992e-38 297 294
-0.025149813 0.65200001 -0.061731357 1.2074986e-38 298 294
-0.024006641 0.65200001 -0.061731357 1.2074986e-38 299 294
-0.022863466 0.65200001 -0.061731357 1.2075695e-38 300 294
-0.021720294 0.65200001 -0.061731357 1.2167891e-38 301 294
-0.02057712 0.65200001 -0.061731357 1.2075695e-38 302 294
-0.019433947 0.65200001 -0.061731357 1.2167891e-38 303 294
-0.018290773 0.65200001 -0.061731357 1.2167538e-38 304 294
-0.017147599 0.65200001 -0.061731357 1.2167538e-38 305 294
-0.016004426 0.65200001 -0.061731357 1.2443046e-38 306 294
-0.014861252 0.65200001 -0.061731357 1.2443046e-38 307 294
-0.01371808 0.65200001 -0.061731357 1.2534875e-38 308 294
-0.012594193 0.653 -0.061826039 1.2534875e-38 309 294
-0.011449266 0.653 -0.061826039 1.2443399e-38 310 294
-0.01028856 0.65200001 -0.061731357 1.2535594e-38 311 294
-0.0091453865 0.65200001 -0.061731357 1.225973e-38 312 294
-0.0080144862 0.653 -0.061826039 1.225973e-38 313 294
-0.0068695596 0.653 -0.061826039 1.225973e-38 314 294
-0.0057333997 0.65399998 -0.061920714 1.225973e-38 315 294
-0.0045867199 0.65399998 -0.061920714 1.2443399e-38 316 294
-0.0034400397 0.65399998 -0.061920714 1.2443399e-38 317 294
-0.00229336 0.65399998 -0.061920714 1.2535594e-38 318 294
-0.00114668 0.65399998 -0.061920714 1.2535594e-38 319 294
0 0.65499997 -0.062015396 1.2443399e-38 320 294
0.0011484332 0.65499997 -0.062015396 1.2443399e-38 321 294
0.0023038799 0.65700001 -0.06220476 1.2535597e-38 322 294
0.0034558198 0.65700001 -0.06220476 1.2443401e-38 323 294
0.0046147732 0.65799999 -0.062299434 1.225973e-38 324 294
0.0057684663 0.65799999 -0.062299434 1.225973e-38 325 294
0.0069221598 0.65799999 -0.062299434 1.2168256e-38 326 294
0.0080758529 0.65799999 -0.062299434 1.2260452e-38 327 294
0.0092295464 0.65799999 -0.062299434 1.2443774e-38 328 294
0.010399019 0.65899998 -0.062394116 1.2443774e-38 329 294
0.011554466 0.65899998 -0.062394116 1.2443778e-38 330 294
0.012709912 0.65899998 -0.062394116 1.2443778e-38 331 294
0.013865359 0.65899998 -0.062394116 1.2351225e-38 332 294
0.015020805 0.65899998 -0.062394116 1.2351225e-38 333 294
0.016249891 0.662 -0.062678158 1.2258677e-38 334 294
0.017436899 0.66299999 -0.062772833 1.2074285e-38 335 294
0.018599359 0.66299999 -0.062772833 1.1981739e-38 336 294
0.019761819 0.66299999 -0.062772833 1.1705153e-38 337 294
0.020892721 0.662 -0.062678158 1.1612974e-38 338 294
0.022053426 0.662 -0.062678158 1.124455e-38 339 294
0.023284266 0.66399997 -0.062867515 1.0876137e-38 340 294
-0.087841995 0.66799998 -0.064417459 1.170513e-38 245 295
-0.086670771 0.66799998 -0.064417459 1.1428898e-38 246 295
-0.085499547 0.66799998 -0.064417459 1.1521452e-38 247 295
-0.084328316 0.66799998 -0.064417459 1.1429973e-38 248 295
-0.083032601 0.667 -0.064321034 1.1429973e-38 249 295
-0.081740394 0.66600001 -0.064224601 1.1521449e-38 250 295
-0.08057268 0.66600001 -0.064224601 1.1521449e-38 251 295
-0.079404958 0.66600001 -0.064224601 1.1612213e-38 252 295
-0.077884816 0.66299999 -0.063935295 1.1704408e-38 253 295
-0.076722354 0.66299999 -0.063935295 1.1521096e-38 254 295
-0.075445928 0.662 -0.063838862 1.1428901e-38 255 295
-0.074285224 0.662 -0.063838862 1.1336701e-38 256 295
-0.07312452 0.662 -0.063838862 1.1336701e-38 257 295
-0.071963809 0.662 -0.063838862 1.1336705e-38 258 295
-0.070696153 0.66100001 -0.063742429 1.1151954e-38 259 295
-0.0695372 0.66100001 -0.063742429 1.1426751e-38 260 295
-0.068378247 0.66100001 -0.063742429 1.1334555e-38 261 295
-0.067219295 0.66100001 -0.063742429 1.1333127e-38 262 295
-0.066060342 0.66100001 -0.063742429 1.1333127e-38 263 295
-0.064705007 0.65899998 -0.063549563 1.1426032e-38 264 295
-0.063549563 0.65899998 -0.063549563 1.1702259e-38 265 295
-0.062299434 0.65799999 -0.06345313 1.152002e-38 266 295
-0.061145745 0.65799999 -0.06345313 1.1704411e-38 267 295
-0.05990088 0.65700001 -0.063356705 1.1704408e-38 268 295
-0.058748938 0.65700001 -0.063356705 1.1796604e-38 269 295
-0.057596996 0.65700001 -0.063356705 1.1889153e-38 270 295
-0.056445058 0.65700001 -0.063356705 1.1981707e-38 271 295
-0.055124797 0.65499997 -0.063163824 1.1615086e-38 272 295
-0.053976361 0.65499997 -0.063163824 1.1615086e-38 273 295
-0.052827932 0.65499997 -0.063163824 1.1706559e-38 274 295
-0.051679496 0.65499997 -0.063163824 1.1798755e-38 275 295
-0.050531063 0.65499997 -0.063163824 1.1799111e-38 276 295
-0.049382631 0.65499997 -0.063163824 1.2075339e-38 277 295
-0.048234195 0.65499997 -0.063163824 1.198279e-38 278 295
-0.047013879 0.65399998 -0.063067392 1.2074986e-38 279 295
-0.045867197 0.65399998 -0.063067392 1.2074986e-38 280 295
-0.044720516 0.65399998 -0.063067392 1.2074986e-38 281 295
-0.043573838 0.65399998 -0.063067392 1.2166466e-38 282 295
-0.04242716 0.65399998 -0.063067392 1.2350497e-38 283 295
-0.041217357 0.653 -0.062970966 1.2167184e-38 284 295
-0.04007243 0.653 -0.062970966 1.2167184e-38 285 295
-0.038927507 0.653 -0.062970966 1.1891677e-38 286 295
-0.03778258 0.653 -0.062970966 1.1891677e-38 287 295
-0.036637653 0.653 -0.062970966 1.2074989e-38 288 295
-0.035492726 0.653 -0.062970966 1.2074989e-38 289 295
-0.034347799 0.653 -0.062970966 1.2074989e-38 290 295
-0.033202872 0.653 -0.062970966 1.1982793e-38 291 295
-0.032057945 0.653 -0.062970966 1.2074273e-38 292 295
-0.03091302 0.653 -0.062970966 1.2074273e-38 293 295
-0.029768093 0.653 -0.062970966 1.207427e-38 294 295
-0.028623167 0.653 -0.062970966 1.207427e-38 295 295
-0.027478239 0.653 -0.062970966 1.2074267e-38 296 295
-0.026333313 0.653 -0.062970966 1.2074267e-38 297 295
-0.025188386 0.653 -0.062970966 1.2075342e-38 298 295
-0.024043459 0.653 -0.062970966 1.2167538e-38 299 295
-0.022898532 0.653 -0.062970966 1.189203e-38 300 295
-0.021720294 0.65200001 -0.062874533 1.189203e-38 301 295
-0.02057712 0.65200001 -0.062874533 1.1983869e-38 302 295
-0.019433947 0.65200001 -0.062874533 1.2167901e-38 303 295
-0.018290773 0.65200001 -0.062874533 1.225938e-38 304 295
-0.017147599 0.65200001 -0.062874533 1.225938e-38 305 295
-0.016004426 0.65200001 -0.062874533 1.2443401e-38 306 295
-0.014861252 0.65200001 -0.062874533 1.2443401e-38 307 295
-0.01371808 0.65200001 -0.062874533 1.2443752e-38 308 295
-0.012594193 0.653 -0.062970966 1.2443752e-38 309 295
-0.011449266 0.653 -0.062970966 1.2535594e-38 310 295
-0.010304339 0.653 -0.062970966 1.2443399e-38 311 295
-0.0091594132 0.653 -0.062970966 1.2535241e-38 312 295
-0.0080144862 0.653 -0.062970966 1.2535241e-38 313 295
-0.0068695596 0.653 -0.062970966 1.2259733e-38 314 295
-0.0057333997 0.65399998 -0.063067392 1.2259733e-38 315 295
-0.0045867199 0.65399998 -0.063067392 1.2443401e-38 316 295
-0.0034400397 0.65399998 -0.063067392 1.2443401e-38 317 295
-0.00229336 0.65399998 -0.063067392 1.2443046e-38 318 295
-0.00114668 0.65399998 -0.063067392 1.2443046e-38 319 295
0 0.65499997 -0.063163824 1.2443048e-38 320 295
0.0011484332 0.65499997 -0.063163824 1.2443048e-38 321 295
0.0023038799 0.65700001 -0.063356705 1.2442692e-38 322 295
0.0034610799 0.65799999 -0.06345313 1.2442692e-38 323 295
0.0046147732 0.65799999 -0.06345313 1.2443048e-38 324 295
0.0057684663 0.65799999 -0.06345313 1.2350853e-38 325 295
0.0069221598 0.65799999 -0.06345313 1.2167538e-38 326 295
0.0080758529 0.65799999 -0.06345313 1.2167538e-38 327 295
0.0092435731 0.65899998 -0.063549563 1.2442692e-38 328 295
0.010399019 0.65899998 -0.063549563 1.2442692e-38 329 295
0.011554466 0.65899998 -0.063549563 1.2351579e-38 330 295
0.012709912 0.65899998 -0.063549563 1.2259383e-38 331 295
0.013865359 0.65899998 -0.063549563 1.2441979e-38 332 295
0.015020805 0.65899998 -0.063549563 1.2257229e-38 333 295
0.016249891 0.662 -0.063838862 1.2073564e-38 334 295
0.017436899 0.66299999 -0.063935295 1.1796975e-38 335 295
0.018599359 0.66299999 -0.063935295 1.1152702e-38 336 295
0.019791625 0.66399997 -0.064031735 1.1152702e-38 337 295
0.020955838 0.66399997 -0.064031735 1.0875057e-38 338 295
-0.083032601 0.667 -0.065490507 1.1428903e-38 249 296
-0.081863128 0.667 -0.065490507 1.1428903e-38 250 296
-0.08057268 0.66600001 -0.065392323 1.1521099e-38 251 296
-0.079404958 0.66600001 -0.065392323 1.161186e-38 252 296
-0.077884816 0.66299999 -0.065097757 1.161186e-38 253 296
-0.076722354 0.66299999 -0.065097757 1.1612216e-38 254 296
-0.075445928 0.662 -0.064999565 1.1612216e-38 255 296
-0.074285224 0.662 -0.064999565 1.1337421e-38 256 296
-0.07312452 0.662 -0.064999565 1.1061193e-38 257 296
-0.071963809 0.662 -0.064999565 1.1427464e-38 258 296
-0.070803106 0.662 -0.064999565 1.1151238e-38 259 296
-0.069642402 0.662 -0.064999565 1.1242007e-38 260 296
-0.068481691 0.662 -0.064999565 1.0965421e-38 261 296
-0.067219295 0.66100001 -0.064901382 1.0780322e-38 262 296
-0.066060342 0.66100001 -0.064901382 1.0780322e-38 263 296
-0.064901382 0.66100001 -0.064901382 1.0505167e-38 264 296
-0.063549563 0.65899998 -0.064705007 1.0873591e-38 265 296
-0.062394116 0.65899998 -0.064705007 1.1150534e-38 266 296
-0.061145745 0.65799999 -0.064606823 1.1150534e-38 267 296
-0.059992049 0.65799999 -0.064606823 1.0875026e-38 268 296
-0.058838356 0.65799999 -0.064606823 1.1151253e-38 269 296
-0.057596996 0.65700001 -0.064508639 1.1337068e-38 270 296
-0.056445058 0.65700001 -0.064508639 1.1429622e-38 271 296
-0.055293117 0.65700001 -0.064508639 1.1521818e-38 272 296
-0.054141179 0.65700001 -0.064508639 1.1521818e-38 273 296
-0.052989237 0.65700001 -0.064508639 1.1614011e-38 274 296
-0.051837299 0.65700001 -0.064508639 1.1706206e-38 275 296
-0.050531063 0.65499997 -0.064312264 1.1706209e-38 276 296
-0.049382631 0.65499997 -0.064312264 1.1798406e-38 277 296
-0.048234195 0.65499997 -0.064312264 1.1798409e-38 278 296
-0.047085766 0.65499997 -0.064312264 1.198244e-38 279 296
-0.04593733 0.65499997 -0.064312264 1.2166466e-38 280 296
-0.044788897 0.65499997 -0.064312264 1.2166466e-38 281 296
-0.043640465 0.65499997 -0.064312264 1.2257582e-38 282 296
-0.04242716 0.65399998 -0.064214081 1.2349778e-38 283 296
-0.041280478 0.65399998 -0.064214081 1.2074989e-38 284 296
-0.040133797 0.65399998 -0.064214081 1.2074989e-38 285 296
-0.038987119 0.65399998 -0.064214081 1.2166466e-38 286 296
-0.037840437 0.65399998 -0.064214081 1.207427e-38 287 296
-0.036637653 0.653 -0.064115889 1.2166468e-38 288 296
-0.035492726 0.653 -0.064115889 1.2074273e-38 289 296
-0.034347799 0.653 -0.064115889 1.1891321e-38 290 296
-0.033202872 0.653 -0.064115889 1.1799125e-38 291 296
-0.032057945 0.653 -0.064115889 1.2073917e-38 292 296
-0.03091302 0.653 -0.064115889 1.2073917e-38 293 296
-0.029768093 0.653 -0.064115889 1.207427e-38 294 296
-0.028623167 0.653 -0.064115889 1.1982073e-38 295 296
-0.027478239 0.653 -0.064115889 1.2074267e-38 296 296
-0.02637364 0.65399998 -0.064214081 1.2166822e-38 297 296
-0.025226958 0.65399998 -0.064214081 1.189203e-38 298 296
-0.024043459 0.653 -0.064115889 1.189203e-38 299 296
-0.022898532 0.653 -0.064115889 1.1891674e-38 300 296
-0.021753605 0.653 -0.064115889 1.1891674e-38 301 296
-0.020608678 0.653 -0.064115889 1.2074992e-38 302 296
-0.019463753 0.653 -0.064115889 1.2167187e-38 303 296
-0.018318826 0.653 -0.064115889 1.2350502e-38 304 296
-0.017147599 0.65200001 -0.064017706 1.2442698e-38 305 296
-0.016004426 0.65200001 -0.064017706 1.2443046e-38 306 296
-0.014884046 0.653 -0.064115889 1.2443046e-38 307 296
-0.013739119 0.653 -0.064115889 1.2535229e-38 308 296
-0.012594193 0.653 -0.064115889 1.2535229e-38 309 296
-0.011466799 0.65399998 -0.064214081 1.253595e-38 310 296
-0.010304339 0.653 -0.064115889 1.253595e-38 311 296
-0.0091594132 0.653 -0.064115889 1.2535241e-38 312 296
-0.0080144862 0.653 -0.064115889 1.2443046e-38 313 296
-0.0068800794 0.65399998 -0.064214081 1.2259733e-38 314 296
-0.0057333997 0.65399998 -0.064214081 1.2259733e-38 315 296
-0.0045867199 0.65399998 -0.064214081 1.225973e-38 316 296
-0.0034400397 0.65399998 -0.064214081 1.225973e-38 317 296
-0.00229336 0.65399998 -0.064214081 1.2443046e-38 318 296
-0.00114668 0.65399998 -0.064214081 1.235085e-38 319 296
0 0.65499997 -0.064312264 1.2441976e-38 320 296
0.0011484332 0.65499997 -0.064312264 1.2349781e-38 321 296
0.0023038799 0.65700001 -0.064508639 1.2350502e-38 322 296
0.0034610799 0.65799999 -0.064606823 1.2350502e-38 323 296
0.0046147732 0.65799999 -0.064606823 1.2074992e-38 324 296
0.0057684663 0.65799999 -0.064606823 1.2074992e-38 325 296
0.0069221598 0.65799999 -0.064606823 1.1891674e-38 326 296
0.0080758529 0.65799999 -0.064606823 1.1891674e-38 327 296
0.0092435731 0.65899998 -0.064705007 1.2074636e-38 328 296
0.010399019 0.65899998 -0.064705007 1.2074636e-38 329 296
0.011554466 0.65899998 -0.064705007 1.1798778e-38 330 296
0.012709912 0.65899998 -0.064705007 1.1706223e-38 331 296
0.013865359 0.65899998 -0.064705007 1.1888099e-38 332 296
-0.08057268 0.66600001 -0.066560037 1.1520749e-38 251 297
-0.079404958 0.66600001 -0.066560037 1.1337074e-38 252 297
-0.077884816 0.66299999 -0.066260219 1.1152684e-38 253 297
-0.076722354 0.66299999 -0.066260219 1.1337071e-38 254 297
-0.075559892 0.66299999 -0.066260219 1.1337071e-38 255 297
-0.074397437 0.66299999 -0.066260219 1.1153393e-38 256 297
-0.073234983 0.66299999 -0.066260219 1.1060837e-38 257 297
-0.072072513 0.66299999 -0.066260219 1.1243789e-38 258 297
-0.070803106 0.662 -0.066160277 1.1151593e-38 259 297
-0.069642402 0.662 -0.066160277 1.1242357e-38 260 297
-0.068481691 0.662 -0.066160277 1.0781379e-38 261 297
-0.067320988 0.662 -0.066160277 1.0779231e-38 262 297
-0.066160277 0.662 -0.066160277 1.0779231e-38 263 297
-0.064999565 0.662 -0.066160277 1.0502647e-38 264 297
-0.063742429 0.66100001 -0.066060342 1.0871429e-38 265 297
-0.062583476 0.66100001 -0.066060342 1.0963274e-38 266 297
-0.061424527 0.66100001 -0.066060342 1.0963274e-38 267 297
-0.060083222 0.65899998 -0.065860458 1.0044206e-38 268 297
-0.058838356 0.65799999 -0.065760516 1.0412987e-38 269 297
-0.057684667 0.65799999 -0.065760516 1.0231469e-38 270 297
-0.056530971 0.65799999 -0.065760516 1.0508054e-38 271 297
-0.055293117 0.65700001 -0.065660581 1.1060139e-38 272 297
-0.054141179 0.65700001 -0.065660581 1.1152336e-38 273 297
-0.052989237 0.65700001 -0.065660581 1.133672e-38 274 297
-0.051837299 0.65700001 -0.065660581 1.1428916e-38 275 297
-0.050685361 0.65700001 -0.065660581 1.1521112e-38 276 297
-0.049533416 0.65700001 -0.065660581 1.1521112e-38 277 297
-0.048234195 0.65499997 -0.065460697 1.1796978e-38 278 297
-0.047085766 0.65499997 -0.065460697 1.1889174e-38 279 297
-0.04593733 0.65499997 -0.065460697 1.1981721e-38 280 297
-0.044788897 0.65499997 -0.065460697 1.1981721e-38 281 297
-0.043640465 0.65499997 -0.065460697 1.1982073e-38 282 297
-0.042492028 0.65499997 -0.065460697 1.207427e-38 283 297
-0.041280478 0.65399998 -0.065360755 1.198279e-38 284 297
-0.040133797 0.65399998 -0.065360755 1.2074986e-38 285 297
-0.038987119 0.65399998 -0.065360755 1.207427e-38 286 297
-0.037840437 0.65399998 -0.065360755 1.1982073e-38 287 297
-0.036693759 0.65399998 -0.065360755 1.2074273e-38 288 297
-0.035492726 0.653 -0.06526082 1.1981718e-38 289 297
-0.034347799 0.653 -0.06526082 1.1706932e-38 290 297
-0.033202872 0.653 -0.06526082 1.1706932e-38 291 297
-0.032057945 0.653 -0.06526082 1.1889524e-38 292 297
-0.03091302 0.653 -0.06526082 1.1889524e-38 293 297
-0.029768093 0.653 -0.06526082 1.1889521e-38 294 297
-0.028623167 0.653 -0.06526082 1.1889521e-38 295 297
-0.027478239 0.653 -0.06526082 1.198207e-38 296 297
-0.02637364 0.65399998 -0.065360755 1.2166822e-38 297 297
-0.025226958 0.65399998 -0.065360755 1.2074986e-38 298 297
-0.024043459 0.653 -0.06526082 1.2074986e-38 299 297
-0.022898532 0.653 -0.06526082 1.2074992e-38 300 297
-0.021753605 0.653 -0.06526082 1.2074992e-38 301 297
-0.020608678 0.653 -0.06526082 1.1983519e-38 302 297
-0.019463753 0.653 -0.06526082 1.1983519e-38 303 297
-0.018318826 0.653 -0.06526082 1.2350502e-38 304 297
-0.017147599 0.65200001 -0.065160878 1.2350502e-38 305 297
-0.016004426 0.65200001 -0.065160878 1.235085e-38 306 297
-0.014884046 0.653 -0.06526082 1.235085e-38 307 297
-0.013739119 0.653 -0.06526082 1.23512e-38 308 297
-0.012613479 0.65399998 -0.065360755 1.23512e-38 309 297
-0.011466799 0.65399998 -0.065360755 1.2351203e-38 310 297
-0.010304339 0.653 -0.06526082 1.2351203e-38 311 297
-0.0091594132 0.653 -0.06526082 1.2167182e-38 312 297
-0.0080144862 0.653 -0.06526082 1.2167182e-38 313 297
-0.0068800794 0.65399998 -0.065360755 1.2074986e-38 314 297
-0.0057333997 0.65399998 -0.065360755 1.2074986e-38 315 297
-0.0045867199 0.65399998 -0.065360755 1.2075342e-38 316 297
-0.0034400397 0.65399998 -0.065360755 1.2075342e-38 317 297
-0.00229336 0.65399998 -0.065360755 1.1891321e-38 318 297
-0.0011484332 0.65499997 -0.065460697 1.1891321e-38 319 297
0 0.65499997 -0.065460697 1.1982087e-38 320 297
0.0011484332 0.65499997 -0.065460697 1.2074283e-38 321 297
0.0023038799 0.65700001 -0.065660581 1.1981734e-38 322 297
0.0034610799 0.65799999 -0.065760516 1.1981734e-38 323 297
0.0046147732 0.65799999 -0.065760516 1.1523264e-38 324 297
0.0057772328 0.65899998 -0.065860458 1.1523264e-38 325 297
0.0069326796 0.65899998 -0.065860458 1.2074986e-38 326 297
0.0080881258 0.65899998 -0.065860458 1.1798758e-38 327 297
0.0092435731 0.65899998 -0.065860458 1.1797329e-38 328 297
0.010399019 0.65899998 -0.065860458 1.1520743e-38 329 297
0.011554466 0.65899998 -0.065860458 1.1060857e-38 330 297
-0.075559892 0.66299999 -0.067422673 1.1428194e-38 255 298
-0.074397437 0.66299999 -0.067422673 1.142855e-38 256 298
-0.073234983 0.66299999 -0.067422673 1.142855e-38 257 298
-0.070910059 0.66299999 -0.067422673 1.1151959e-38 259 298
-0.069642402 0.662 -0.067320988 1.1426751e-38 260 298
-0.068481691 0.662 -0.067320988 1.0965774e-38 261 298
-0.067422673 0.66299999 -0.067422673 1.0873221e-38 262 298
-0.066260219 0.66299999 -0.067422673 1.0781026e-38 263 298
-0.065097757 0.66299999 -0.067422673 1.0505518e-38 264 298
-0.063838862 0.662 -0.067320988 1.0505518e-38 265 298
-0.062678158 0.662 -0.067320988 1.0688483e-38 266 298
-0.061424527 0.66100001 -0.067219295 1.0595928e-38 267 298
-0.060265575 0.66100001 -0.067219295 9.9527293e-39 268 298
-0.059106622 0.66100001 -0.067219295 9.7686982e-39 269 298
-0.057947662 0.66100001 -0.067219295 9.9527322e-39 270 298
-0.056530971 0.65799999 -0.066914216 1.0137123e-38 271 298
-0.055377278 0.65799999 -0.066914216 1.0506616e-38 272 298
