# .PCD v.7 - Point Cloud Data file format
FIELDS x y z rgb imX imY
SIZE 4 4 4 4 4 4
TYPE F F F F F F
COUNT 1 1 1 1 1 1
WIDTH 849
HEIGHT 1
VIEWPOINT 0 0 0 1 0 0 0
POINTS 849
DATA ascii
0.057826683 0.76700002 -0.040344197 1.5946855e-38 363 270
0.059171494 0.76700002 -0.040344197 1.631419e-38 364 270
0.060437392 0.76599997 -0.040291596 1.649894e-38 365 270
0.061780453 0.76599997 -0.040291596 1.6774445e-38 366 270
0.062958695 0.764 -0.040186398 1.6774445e-38 367 270
0.064298242 0.764 -0.040186398 1.6592209e-38 368 270
0.065465957 0.76200002 -0.040081199 1.6592209e-38 369 270
0.066802002 0.76200002 -0.040081199 1.6682968e-38 370 270
0.068316877 0.764 -0.040186398 1.6498937e-38 371 270
0.069474079 0.76200002 -0.040081199 1.6406739e-38 372 270
0.070810117 0.76200002 -0.040081199 1.6037955e-38 373 270
0.072146162 0.76200002 -0.040081199 1.5852839e-38 374 270
0.073482201 0.76200002 -0.040081199 1.5484415e-38 375 270
0.075014614 0.764 -0.040186398 1.5206751e-38 376 270
0.076354161 0.764 -0.040186398 1.5022358e-38 377 270
0.077693708 0.764 -0.040186398 1.4653577e-38 378 270
0.079033248 0.764 -0.040186398 1.4100762e-38 379 270
0.080583192 0.76599997 -0.040291596 1.4007131e-38 380 270
0.081926249 0.76599997 -0.040291596 1.3638349e-38 381 270
0.083378009 0.76700002 -0.040344197 1.30859e-38 382 270
0.084722824 0.76700002 -0.040344197 1.2717118e-38 383 270
0.086067624 0.76700002 -0.040344197 1.2347979e-38 384 270
0.087412432 0.76700002 -0.040344197 1.1794806e-38 385 270
0.088757239 0.76700002 -0.040344197 1.0779253e-38 386 270
0.090102047 0.76700002 -0.040344197 1.0502666e-38 387 270
0.091327623 0.76599997 -0.040291596 1.1244605e-38 388 270
0.092670672 0.76599997 -0.040291596 1.3180713e-38 389 270
0.053581864 0.764 -0.041525945 1.5299723e-38 360 271
0.054921411 0.764 -0.041525945 1.5484473e-38 361 271
0.056408234 0.76599997 -0.041634649 1.5670271e-38 362 271
0.057600506 0.764 -0.041525945 1.5946499e-38 363 271
0.058940053 0.764 -0.041525945 1.6314909e-38 364 271
0.0602796 0.764 -0.041525945 1.6407463e-38 365 271
0.061619148 0.764 -0.041525945 1.6682968e-38 366 271
0.062958695 0.764 -0.041525945 1.6682968e-38 367 271
0.064298242 0.764 -0.041525945 1.6775521e-38 368 271
0.065465957 0.76200002 -0.041417241 1.6775521e-38 369 271
0.066802002 0.76200002 -0.041417241 1.6682249e-38 370 271
0.068138041 0.76200002 -0.041417241 1.6682249e-38 371 271
0.069474079 0.76200002 -0.041417241 1.6314543e-38 372 271
0.070810117 0.76200002 -0.041417241 1.6037955e-38 373 271
0.072146162 0.76200002 -0.041417241 1.5760997e-38 374 271
0.073482201 0.76200002 -0.041417241 1.5392214e-38 375 271
0.074818239 0.76200002 -0.041417241 1.5207104e-38 376 271
0.076154284 0.76200002 -0.041417241 1.4930157e-38 377 271
0.077693708 0.764 -0.041525945 1.4469183e-38 378 271
0.079033248 0.764 -0.041525945 1.3916368e-38 379 271
0.080583192 0.76599997 -0.041634649 1.4189721e-38 380 271
0.081926249 0.76599997 -0.041634649 1.3729103e-38 381 271
0.083378009 0.76700002 -0.041689005 1.2992985e-38 382 271
0.084722824 0.76700002 -0.041689005 1.2808235e-38 383 271
0.086067624 0.76700002 -0.041689005 1.2255783e-38 384 271
0.087412432 0.76700002 -0.041689005 1.1702609e-38 385 271
0.088641517 0.76599997 -0.041634649 1.0779253e-38 386 271
0.089984566 0.76599997 -0.041634649 1.0687057e-38 387 271
0.091327623 0.76599997 -0.041634649 1.1428999e-38 388 271
0.092428714 0.764 -0.041525945 1.3180716e-38 389 271
0.052379075 0.76599997 -0.042977702 1.4013701e-38 359 272
0.053581864 0.764 -0.042865492 1.5301511e-38 360 272
0.054921411 0.764 -0.042865492 1.5301511e-38 361 272
0.056408234 0.76599997 -0.042977702 1.5761741e-38 362 272
0.057600506 0.764 -0.042865492 1.6038329e-38 363 272
0.058940053 0.764 -0.042865492 1.6131231e-38 364 272
0.0602796 0.764 -0.042865492 1.6407458e-38 365 272
0.061619148 0.764 -0.042865492 1.6683321e-38 366 272
0.062793881 0.76200002 -0.042753279 1.6683321e-38 367 272
0.064129919 0.76200002 -0.042753279 1.6775521e-38 368 272
0.065465957 0.76200002 -0.042753279 1.6683324e-38 369 272
0.066802002 0.76200002 -0.042753279 1.6682971e-38 370 272
0.068138041 0.76200002 -0.042753279 1.649894e-38 371 272
0.069474079 0.76200002 -0.042753279 1.6314546e-38 372 272
0.070810117 0.76200002 -0.042753279 1.5853568e-38 373 272
0.072051473 0.76099998 -0.042697169 1.5669527e-38 374 272
0.07338576 0.76099998 -0.042697169 1.5116353e-38 375 272
0.074720047 0.76099998 -0.042697169 1.4930887e-38 376 272
0.076154284 0.76200002 -0.042753279 1.4654299e-38 377 272
0.077490322 0.76200002 -0.042753279 1.4376633e-38 378 272
0.079033248 0.764 -0.042865492 1.400821e-38 379 272
0.080372795 0.764 -0.042865492 1.382202e-38 380 272
0.081926249 0.76599997 -0.042977702 1.3453239e-38 381 272
0.083269298 0.76599997 -0.042977702 1.3084102e-38 382 272
0.084722824 0.76700002 -0.043033812 1.2715319e-38 383 272
0.086067624 0.76700002 -0.043033812 1.1979919e-38 384 272
0.087412432 0.76700002 -0.043033812 1.1426745e-38 385 272
0.088641517 0.76599997 -0.042977702 1.0779975e-38 386 272
0.089984566 0.76599997 -0.042977702 1.0687779e-38 387 272
0.091089167 0.764 -0.042865492 1.1522636e-38 388 272
0.092428714 0.764 -0.042865492 1.2905571e-38 389 272
0.050902773 0.764 -0.04420504 1.4842367e-38 358 273
0.052242316 0.764 -0.04420504 1.4289193e-38 359 273
0.053581864 0.764 -0.04420504 1.5484452e-38 360 273
0.054921411 0.764 -0.04420504 1.5484452e-38 361 273
0.056113683 0.76200002 -0.044089317 1.5670268e-38 362 273
0.057449725 0.76200002 -0.044089317 1.5946855e-38 363 273
0.058785759 0.76200002 -0.044089317 1.6131597e-38 364 273
0.060121801 0.76200002 -0.044089317 1.6223792e-38 365 273
0.061457843 0.76200002 -0.044089317 1.6683321e-38 366 273
0.062793881 0.76200002 -0.044089317 1.6683321e-38 367 273
0.064129919 0.76200002 -0.044089317 1.6775517e-38 368 273
0.065465957 0.76200002 -0.044089317 1.6775517e-38 369 273
0.066802002 0.76200002 -0.044089317 1.6498937e-38 370 273
0.068048611 0.76099998 -0.044031456 1.6498937e-38 371 273
0.069382899 0.76099998 -0.044031456 1.6314546e-38 372 273
0.070717193 0.76099998 -0.044031456 1.5853568e-38 373 273
0.072051473 0.76099998 -0.044031456 1.5576608e-38 374 273
0.07338576 0.76099998 -0.044031456 1.5300021e-38 375 273
0.074720047 0.76099998 -0.044031456 1.5114188e-38 376 273
0.076054335 0.76099998 -0.044031456 1.4837242e-38 377 273
0.077490322 0.76200002 -0.044089317 1.4559932e-38 378 273
0.079033248 0.764 -0.04420504 1.4006759e-38 379 273
0.080372795 0.764 -0.04420504 1.3821651e-38 380 273
0.081712343 0.764 -0.04420504 1.3360673e-38 381 273
0.083269298 0.76599997 -0.044320758 1.2900068e-38 382 273
0.084722824 0.76700002 -0.04437862 1.2623121e-38 383 273
0.086067624 0.76700002 -0.04437862 1.1979556e-38 384 273
0.08729846 0.76599997 -0.044320758 1.1610414e-38 385 273
0.088641517 0.76599997 -0.044320758 1.0227168e-38 386 273
0.089984566 0.76599997 -0.044320758 1.0596309e-38 387 273
0.091089167 0.764 -0.04420504 1.1523362e-38 388 273
0.092428714 0.764 -0.04420504 1.2814101e-38 389 273
0.049563225 0.764 -0.045544583 1.5491017e-38 357 274
0.050902773 0.764 -0.045544583 1.4749445e-38 358 274
0.052242316 0.764 -0.045544583 1.4565054e-38 359 274
0.053581864 0.764 -0.045544583 1.5484808e-38 360 274
0.054921411 0.764 -0.045544583 1.5668839e-38 361 274
0.056113683 0.76200002 -0.045425359 1.5854289e-38 362 274
0.057449725 0.76200002 -0.045425359 1.6130878e-38 363 274
0.058785759 0.76200002 -0.045425359 1.6315618e-38 364 274
0.060121801 0.76200002 -0.045425359 1.6407814e-38 365 274
0.061457843 0.76200002 -0.045425359 1.6683319e-38 366 274
0.062793881 0.76200002 -0.045425359 1.6683319e-38 367 274
0.064045757 0.76099998 -0.045365743 1.6775517e-38 368 274
0.065380037 0.76099998 -0.045365743 1.6775517e-38 369 274
0.066714332 0.76099998 -0.045365743 1.6591856e-38 370 274
0.068048611 0.76099998 -0.045365743 1.6314909e-38 371 274
0.069382899 0.76099998 -0.045365743 1.6038682e-38 372 274
0.070717193 0.76099998 -0.045365743 1.5485508e-38 373 274
0.072051473 0.76099998 -0.045365743 1.5576259e-38 374 274
0.07338576 0.76099998 -0.045365743 1.5114921e-38 375 274
0.074720047 0.76099998 -0.045365743 1.483869e-38 376 274
0.076054335 0.76099998 -0.045365743 1.4469907e-38 377 274
0.077490322 0.76200002 -0.045425359 1.4008213e-38 378 274
0.07882636 0.76200002 -0.045425359 1.3823463e-38 379 274
0.080162399 0.76200002 -0.045425359 1.3361409e-38 380 274
0.081712343 0.764 -0.045544583 1.3085181e-38 381 274
0.083269298 0.76599997 -0.045663811 1.2715686e-38 382 274
0.084612355 0.76599997 -0.045663811 1.2347263e-38 383 274
0.086067624 0.76700002 -0.045723427 1.1611146e-38 384 274
0.08729846 0.76599997 -0.045663811 1.1242004e-38 385 274
0.088641517 0.76599997 -0.045663811 1.0228253e-38 386 274
0.089984566 0.76599997 -0.045663811 1.0412284e-38 387 274
0.091327623 0.76599997 -0.045663811 1.1524081e-38 388 274
0.048097439 0.76200002 -0.046761397 1.6136018e-38 356 275
0.049433477 0.76200002 -0.046761397 1.4845279e-38 357 275
0.050769519 0.76200002 -0.046761397 1.46576e-38 358 275
0.052105557 0.76200002 -0.046761397 1.46576e-38 359 275
0.053441599 0.76200002 -0.046761397 1.5485877e-38 360 275
0.054777641 0.76200002 -0.046761397 1.5670268e-38 361 275
0.056113683 0.76200002 -0.046761397 1.5946484e-38 362 275
0.057449725 0.76200002 -0.046761397 1.6131234e-38 363 275
0.058785759 0.76200002 -0.046761397 1.6407458e-38 364 275
0.060121801 0.76200002 -0.046761397 1.6407458e-38 365 275
0.061457843 0.76200002 -0.046761397 1.6683321e-38 366 275
0.062793881 0.76200002 -0.046761397 1.6775517e-38 367 275
0.064045757 0.76099998 -0.046700031 1.6683324e-38 368 275
0.065380037 0.76099998 -0.046700031 1.6683324e-38 369 275
0.066714332 0.76099998 -0.046700031 1.6499659e-38 370 275
0.068048611 0.76099998 -0.046700031 1.6130878e-38 371 275
0.069382899 0.76099998 -0.046700031 1.6129432e-38 372 275
0.070717193 0.76099998 -0.046700031 1.576029e-38 373 275
0.072051473 0.76099998 -0.046700031 1.5208549e-38 374 275
0.07338576 0.76099998 -0.046700031 1.4839766e-38 375 275
0.074720047 0.76099998 -0.046700031 1.4746131e-38 376 275
0.076054335 0.76099998 -0.046700031 1.4376989e-38 377 275
0.077388622 0.76099998 -0.046700031 1.4190804e-38 378 275
0.07882636 0.76200002 -0.046761397 1.3914216e-38 379 275
0.080162399 0.76200002 -0.046761397 1.3544001e-38 380 275
0.081712343 0.764 -0.046884131 1.3175578e-38 381 275
0.083269298 0.76599997 -0.047006864 1.2439458e-38 382 275
0.084612355 0.76599997 -0.047006864 1.2162871e-38 383 275
0.085955404 0.76599997 -0.047006864 1.1518594e-38 384 275
0.08729846 0.76599997 -0.047006864 1.1057617e-38 385 275
0.088410079 0.764 -0.046884131 9.7676416e-39 386 275
0.089749627 0.764 -0.046884131 1.0228618e-38 387 275
0.091327623 0.76599997 -0.047006864 1.1892145e-38 388 275
0.046700031 0.76099998 -0.048034318 1.6965441e-38 355 276
0.048034318 0.76099998 -0.048034318 1.567503e-38 356 276
0.049433477 0.76200002 -0.048097439 1.3923313e-38 357 276
0.050769519 0.76200002 -0.048097439 1.4748704e-38 358 276
0.052105557 0.76200002 -0.048097439 1.5024931e-38 359 276
0.053441599 0.76200002 -0.048097439 1.5760666e-38 360 276
0.054777641 0.76200002 -0.048097439 1.6129448e-38 361 276
0.056113683 0.76200002 -0.048097439 1.631419e-38 362 276
0.057449725 0.76200002 -0.048097439 1.6406744e-38 363 276
0.058708608 0.76099998 -0.048034318 1.6682605e-38 364 276
0.060042895 0.76099998 -0.048034318 1.6774801e-38 365 276
0.061457843 0.76200002 -0.048097439 1.6774798e-38 366 276
0.06271147 0.76099998 -0.048034318 1.6774798e-38 367 276
0.064045757 0.76099998 -0.048034318 1.6682968e-38 368 276
0.065380037 0.76099998 -0.048034318 1.6498937e-38 369 276
0.066714332 0.76099998 -0.048034318 1.6406744e-38 370 276
0.068048611 0.76099998 -0.048034318 1.6221994e-38 371 276
0.069382899 0.76099998 -0.048034318 1.5853924e-38 372 276
0.070717193 0.76099998 -0.048034318 1.5392585e-38 373 276
0.072051473 0.76099998 -0.048034318 1.5116356e-38 374 276
0.07338576 0.76099998 -0.048034318 1.4747213e-38 375 276
0.074720047 0.76099998 -0.048034318 1.4561737e-38 376 276
0.076054335 0.76099998 -0.048034318 1.4100759e-38 377 276
0.077388622 0.76099998 -0.048034318 1.4006411e-38 378 276
0.07882636 0.76200002 -0.048097439 1.3729466e-38 379 276
0.080162399 0.76200002 -0.048097439 1.3268496e-38 380 276
0.081712343 0.764 -0.048223678 1.2899715e-38 381 276
0.08305189 0.764 -0.048223678 1.2255786e-38 382 276
0.084612355 0.76599997 -0.048349917 1.1887005e-38 383 276
0.085955404 0.76599997 -0.048349917 1.1150537e-38 384 276
0.08729846 0.76599997 -0.048349917 1.0873591e-38 385 276
0.088410079 0.764 -0.048223678 9.7680102e-39 386 276
0.089749627 0.764 -0.048223678 1.0321184e-38 387 276
0.046700031 0.76099998 -0.049368605 1.6228232e-38 355 277
0.048034318 0.76099998 -0.049368605 1.5029645e-38 356 277
0.049368605 0.76099998 -0.049368605 1.3738906e-38 357 277
0.050769519 0.76200002 -0.049433477 1.5392262e-38 358 277
0.052105557 0.76200002 -0.049433477 1.5668488e-38 359 277
0.053441599 0.76200002 -0.049433477 1.5761741e-38 360 277
0.054777641 0.76200002 -0.049433477 1.6038329e-38 361 277
0.056040037 0.76099998 -0.049368605 1.6406742e-38 362 277
0.057374325 0.76099998 -0.049368605 1.6682968e-38 363 277
0.058708608 0.76099998 -0.049368605 1.6682968e-38 364 277
0.060042895 0.76099998 -0.049368605 1.6775165e-38 365 277
0.061377186 0.76099998 -0.049368605 1.6682968e-38 366 277
0.06271147 0.76099998 -0.049368605 1.6682968e-38 367 277
0.064045757 0.76099998 -0.049368605 1.6682971e-38 368 277
0.065380037 0.76099998 -0.049368605 1.649894e-38 369 277
0.066538997 0.759 -0.049238857 1.6221994e-38 370 277
0.067869775 0.759 -0.049238857 1.6037602e-38 371 277
0.069200553 0.759 -0.049238857 1.5668821e-38 372 277
0.070531338 0.759 -0.049238857 1.5392232e-38 373 277
0.071862116 0.759 -0.049238857 1.4838693e-38 374 277
0.073192894 0.759 -0.049238857 1.4654301e-38 375 277
0.07452368 0.759 -0.049238857 1.4468463e-38 376 277
0.075854458 0.759 -0.049238857 1.409968e-38 377 277
0.077388622 0.76099998 -0.049368605 1.3914216e-38 378 277
0.07882636 0.76200002 -0.049433477 1.3453239e-38 379 277
0.080162399 0.76200002 -0.049433477 1.2808238e-38 380 277
0.081498444 0.76200002 -0.049433477 1.2439455e-38 381 277
0.08305189 0.764 -0.049563225 1.1887724e-38 382 277
0.084612355 0.76599997 -0.04969297 1.15193e-38 383 277
0.085955404 0.76599997 -0.04969297 1.0782121e-38 384 277
0.08729846 0.76599997 -0.04969297 1.0413338e-38 385 277
0.088410079 0.764 -0.049563225 9.6754642e-39 386 277
0.089749627 0.764 -0.049563225 1.0505225e-38 387 277
0.046577301 0.759 -0.050569639 1.5215153e-38 355 278
0.047908079 0.759 -0.050569639 1.4934916e-38 356 278
0.049238857 0.759 -0.050569639 1.4289546e-38 357 278
0.050569639 0.759 -0.050569639 1.5668473e-38 358 278
0.052037176 0.76099998 -0.050702889 1.5760669e-38 359 278
0.053371463 0.76099998 -0.050702889 1.5946486e-38 360 278
0.05470575 0.76099998 -0.050702889 1.6038682e-38 361 278
0.056040037 0.76099998 -0.050702889 1.6406744e-38 362 278
0.057374325 0.76099998 -0.050702889 1.6682971e-38 363 278
0.058708608 0.76099998 -0.050702889 1.6866645e-38 364 278
0.060042895 0.76099998 -0.050702889 1.6866645e-38 365 278
0.061377186 0.76099998 -0.050702889 1.6866645e-38 366 278
0.06271147 0.76099998 -0.050702889 1.6774448e-38 367 278
0.063877434 0.759 -0.050569639 1.649894e-38 368 278
0.065208219 0.759 -0.050569639 1.6406744e-38 369 278
0.066538997 0.759 -0.050569639 1.6221275e-38 370 278
0.067869775 0.759 -0.050569639 1.5944687e-38 371 278
0.069200553 0.759 -0.050569639 1.5484429e-38 372 278
0.070345491 0.75700003 -0.050436385 1.5208201e-38 373 278
0.07167276 0.75700003 -0.050436385 1.4470633e-38 374 278
0.073000036 0.75700003 -0.050436385 1.4193688e-38 375 278
0.074327305 0.75700003 -0.050436385 1.4191879e-38 376 278
0.075654581 0.75700003 -0.050436385 1.3823096e-38 377 278
0.077185236 0.759 -0.050569639 1.3546153e-38 378 278
0.078722909 0.76099998 -0.050702889 1.3085534e-38 379 278
0.080057196 0.76099998 -0.050702889 1.2716042e-38 380 278
0.081498444 0.76200002 -0.050769519 1.234726e-38 381 278
0.082834482 0.76200002 -0.050769519 1.1703692e-38 382 278
0.084391437 0.764 -0.050902773 1.133455e-38 383 278
0.085955404 0.76599997 -0.051036026 1.0505183e-38 384 278
0.08729846 0.76599997 -0.051036026 1.0136402e-38 385 278
0.088641517 0.76599997 -0.051036026 9.0319053e-39 386 278
0.046577301 0.759 -0.051900417 1.4200628e-38 355 279
0.047908079 0.759 -0.051900417 1.4841268e-38 356 279
0.049238857 0.759 -0.051900417 1.4933464e-38 357 279
0.050569639 0.759 -0.051900417 1.5577719e-38 358 279
0.051900417 0.759 -0.051900417 1.5670274e-38 359 279
0.053371463 0.76099998 -0.052037176 1.5946849e-38 360 279
0.05470575 0.76099998 -0.052037176 1.6039404e-38 361 279
0.056040037 0.76099998 -0.052037176 1.6682252e-38 362 279
0.05722354 0.759 -0.051900417 1.6774448e-38 363 279
0.058554318 0.759 -0.051900417 1.6866645e-38 364 279
0.059885096 0.759 -0.051900417 1.6866645e-38 365 279
0.061215881 0.759 -0.051900417 1.6866645e-38 366 279
0.062546656 0.759 -0.051900417 1.6866645e-38 367 279
0.063877434 0.759 -0.051900417 1.6498584e-38 368 279
0.065208219 0.759 -0.051900417 1.6314193e-38 369 279
0.06636367 0.75700003 -0.051763661 1.6129078e-38 370 279
0.067690939 0.75700003 -0.051763661 1.5759937e-38 371 279
0.069018215 0.75700003 -0.051763661 1.5208554e-38 372 279
0.070345491 0.75700003 -0.051763661 1.4839413e-38 373 279
0.07167276 0.75700003 -0.051763661 1.4745778e-38 374 279
0.073000036 0.75700003 -0.051763661 1.4376636e-38 375 279
0.074327305 0.75700003 -0.051763661 1.4007857e-38 376 279
0.075654581 0.75700003 -0.051763661 1.3639073e-38 377 279
0.076981857 0.75700003 -0.051763661 1.3361412e-38 378 279
0.078516021 0.759 -0.051900417 1.2992629e-38 379 279
0.080057196 0.76099998 -0.052037176 1.2346907e-38 380 279
0.081498444 0.76200002 -0.052105557 1.2162515e-38 381 279
0.082834482 0.76200002 -0.052105557 1.142747e-38 382 279
0.08417052 0.76200002 -0.052105557 1.0966493e-38 383 279
0.085506558 0.76200002 -0.052105557 1.013677e-38 384 279
0.086842604 0.76200002 -0.052105557 9.5835965e-39 385 279
0.088641517 0.76599997 -0.052379075 8.845726e-39 386 279
0.046577301 0.759 -0.053231198 1.3554148e-38 355 280
0.04778184 0.75700003 -0.053090934 1.5024197e-38 356 280
0.049109112 0.75700003 -0.053090934 1.5577369e-38 357 280
0.050569639 0.759 -0.053231198 1.5853586e-38 358 280
0.051900417 0.759 -0.053231198 1.5945783e-38 359 280
0.053231198 0.759 -0.053231198 1.6314193e-38 360 280
0.054561976 0.759 -0.053231198 1.6314193e-38 361 280
0.055892758 0.759 -0.053231198 1.6498584e-38 362 280
0.057072755 0.75700003 -0.053090934 1.6775171e-38 363 280
0.058400027 0.75700003 -0.053090934 1.6866648e-38 364 280
0.059727304 0.75700003 -0.053090934 1.6866648e-38 365 280
0.061054576 0.75700003 -0.053090934 1.6866645e-38 366 280
0.062381849 0.75700003 -0.053090934 1.6682252e-38 367 280
0.063709125 0.75700003 -0.053090934 1.6589701e-38 368 280
0.064864561 0.755 -0.052950665 1.6221278e-38 369 280
0.066188328 0.755 -0.052950665 1.6036164e-38 370 280
0.067690939 0.75700003 -0.053090934 1.5759218e-38 371 280
0.069018215 0.75700003 -0.053090934 1.5113849e-38 372 280
0.070345491 0.75700003 -0.053090934 1.4929456e-38 373 280
0.07167276 0.75700003 -0.053090934 1.4285523e-38 374 280
0.073000036 0.75700003 -0.053090934 1.4008576e-38 375 280
0.074327305 0.75700003 -0.053090934 1.3731269e-38 376 280
0.075654581 0.75700003 -0.053090934 1.3270292e-38 377 280
0.076981857 0.75700003 -0.053090934 1.3084828e-38 378 280
0.078516021 0.759 -0.053231198 1.2531655e-38 379 280
0.079846799 0.759 -0.053231198 1.2347263e-38 380 280
0.081391476 0.76099998 -0.053371463 1.1886286e-38 381 280
0.082834482 0.76200002 -0.053441599 1.1150884e-38 382 280
0.08417052 0.76200002 -0.053441599 1.07821e-38 383 280
0.085506558 0.76200002 -0.053441599 9.6754418e-39 384 280
0.086842604 0.76200002 -0.053441599 9.1222694e-39 385 280
0.043684296 0.755 -0.054274432 1.5489945e-38 353 281
0.045008067 0.755 -0.054274432 1.5302619e-38 354 281
0.046454567 0.75700003 -0.054418206 1.4565054e-38 355 281
0.04778184 0.75700003 -0.054418206 1.5852514e-38 356 281
0.049109112 0.75700003 -0.054418206 1.6036547e-38 357 281
0.050436385 0.75700003 -0.054418206 1.5945786e-38 358 281
0.051763661 0.75700003 -0.054418206 1.6314208e-38 359 281
0.053090934 0.75700003 -0.054418206 1.6313842e-38 360 281
0.054418206 0.75700003 -0.054418206 1.6498234e-38 361 281
0.055745479 0.75700003 -0.054418206 1.6682621e-38 362 281
0.056921966 0.755 -0.054274432 1.6774818e-38 363 281
0.058245733 0.755 -0.054274432 1.6866295e-38 364 281
0.059569497 0.755 -0.054274432 1.6866295e-38 365 281
0.060893264 0.755 -0.054274432 1.6681902e-38 366 281
0.062217031 0.755 -0.054274432 1.6681902e-38 367 281
0.063540794 0.755 -0.054274432 1.6497155e-38 368 281
0.064864561 0.755 -0.054274432 1.6128731e-38 369 281
0.066188328 0.755 -0.054274432 1.5851066e-38 370 281
0.067512102 0.755 -0.054274432 1.5390088e-38 371 281
0.068835862 0.755 -0.054274432 1.4652151e-38 372 281
0.070159629 0.755 -0.054274432 1.4468118e-38 373 281
0.071483396 0.755 -0.054274432 1.4283724e-38 374 281
0.07280717 0.755 -0.054274432 1.4098974e-38 375 281
0.074327305 0.75700003 -0.054418206 1.3638717e-38 376 281
0.075654581 0.75700003 -0.054418206 1.3178099e-38 377 281
0.076981857 0.75700003 -0.054418206 1.2716768e-38 378 281
0.078516021 0.759 -0.054561976 1.2347625e-38 379 281
0.079846799 0.759 -0.054561976 1.1886652e-38 380 281
0.081391476 0.76099998 -0.05470575 1.1610063e-38 381 281
0.082834482 0.76200002 -0.054777641 1.0690279e-38 382 281
0.084060051 0.76099998 -0.05470575 1.0137105e-38 383 281
0.085394338 0.76099998 -0.05470575 9.1222722e-39 384 281
0.042304426 0.75400001 -0.055524562 1.6871782e-38 352 282
0.043626439 0.75400001 -0.055524562 1.4935674e-38 353 282
0.044948451 0.75400001 -0.055524562 1.5484836e-38 354 282
0.04633183 0.755 -0.055598196 1.5484836e-38 355 282
0.047655597 0.755 -0.055598196 1.5853586e-38 356 282
0.048979364 0.755 -0.055598196 1.6037979e-38 357 282
0.050303131 0.755 -0.055598196 1.613053e-38 358 282
0.051626898 0.755 -0.055598196 1.6314561e-38 359 282
0.052950665 0.755 -0.055598196 1.6406754e-38 360 282
0.054274432 0.755 -0.055598196 1.6406754e-38 361 282
0.055598196 0.755 -0.055598196 1.6682621e-38 362 282
0.056921966 0.755 -0.055598196 1.6682621e-38 363 282
0.058245733 0.755 -0.055598196 1.6865941e-38 364 282
0.059490599 0.75400001 -0.055524562 1.6773744e-38 365 282
0.060812615 0.75400001 -0.055524562 1.6681549e-38 366 282
0.062217031 0.755 -0.055598196 1.6589353e-38 367 282
0.063540794 0.755 -0.055598196 1.6403884e-38 368 282
0.064864561 0.755 -0.055598196 1.603546e-38 369 282
0.066188328 0.755 -0.055598196 1.5390444e-38 370 282
0.067512102 0.755 -0.055598196 1.5021302e-38 371 282
0.068835862 0.755 -0.055598196 1.4283724e-38 372 282
0.070159629 0.755 -0.055598196 1.419117e-38 373 282
0.071483396 0.755 -0.055598196 1.4098974e-38 374 282
0.07280717 0.755 -0.055598196 1.3822746e-38 375 282
0.074327305 0.75700003 -0.055745479 1.3453607e-38 376 282
0.075654581 0.75700003 -0.055745479 1.3084825e-38 377 282
0.076981857 0.75700003 -0.055745479 1.2715686e-38 378 282
0.078516021 0.759 -0.055892758 1.2347263e-38 379 282
0.079846799 0.759 -0.055892758 1.1885933e-38 380 282
0.081391476 0.76099998 -0.056040037 1.1517149e-38 381 282
0.082725771 0.76099998 -0.056040037 1.0688129e-38 382 282
0.084060051 0.76099998 -0.056040037 1.0134956e-38 383 282
0.085394338 0.76099998 -0.056040037 8.6616626e-39 384 282
0.042304426 0.75400001 -0.056846574 1.5857243e-38 352 283
0.043626439 0.75400001 -0.056846574 1.4474309e-38 353 283
0.044948451 0.75400001 -0.056846574 1.5577016e-38 354 283
0.04633183 0.755 -0.056921966 1.5669572e-38 355 283
0.047655597 0.755 -0.056921966 1.5945786e-38 356 283
0.048979364 0.755 -0.056921966 1.6130177e-38 357 283
0.050303131 0.755 -0.056921966 1.6406038e-38 358 283
0.051626898 0.755 -0.056921966 1.6498234e-38 359 283
0.052950665 0.755 -0.056921966 1.6406757e-38 360 283
0.054274432 0.755 -0.056921966 1.6406757e-38 361 283
0.055598196 0.755 -0.056921966 1.6405685e-38 362 283
0.056846574 0.75400001 -0.056846574 1.6405685e-38 363 283
0.058168583 0.75400001 -0.056846574 1.6589e-38 364 283
0.059490599 0.75400001 -0.056846574 1.6496804e-38 365 283
0.060812615 0.75400001 -0.056846574 1.6588278e-38 366 283
0.062134624 0.75400001 -0.056846574 1.6403887e-38 367 283
0.06345664 0.75400001 -0.056846574 1.6219848e-38 368 283
0.064778648 0.75400001 -0.056846574 1.5758871e-38 369 283
0.066100664 0.75400001 -0.056846574 1.5021655e-38 370 283
0.067512102 0.755 -0.056921966 1.4560678e-38 371 283
0.068835862 0.755 -0.056921966 1.419117e-38 372 283
0.070159629 0.755 -0.056921966 1.4098974e-38 373 283
0.071483396 0.755 -0.056921966 1.3822746e-38 374 283
0.07280717 0.755 -0.056921966 1.3638355e-38 375 283
0.074327305 0.75700003 -0.057072755 1.3361412e-38 376 283
0.075654581 0.75700003 -0.057072755 1.2900434e-38 377 283
0.076981857 0.75700003 -0.057072755 1.2531658e-38 378 283
0.078516021 0.759 -0.05722354 1.2162515e-38 379 283
0.079846799 0.759 -0.05722354 1.1609713e-38 380 283
0.081391476 0.76099998 -0.057374325 1.1148736e-38 381 283
0.082725771 0.76099998 -0.057374325 1.0227524e-38 382 283
0.084060051 0.76099998 -0.057374325 9.4896002e-39 383 283
0.040982414 0.75400001 -0.058168583 1.5213701e-38 351 284
0.042304426 0.75400001 -0.058168583 1.5486285e-38 352 284
0.043626439 0.75400001 -0.058168583 1.5117862e-38 353 284
0.044948451 0.75400001 -0.058168583 1.5853234e-38 354 284
0.04633183 0.755 -0.058245733 1.594543e-38 355 284
0.04759248 0.75400001 -0.058168583 1.6130174e-38 356 284
0.048914492 0.75400001 -0.058168583 1.6130174e-38 357 284
0.050236505 0.75400001 -0.058168583 1.6498234e-38 358 284
0.051558517 0.75400001 -0.058168583 1.6498234e-38 359 284
0.052880533 0.75400001 -0.058168583 1.6406035e-38 360 284
0.054202545 0.75400001 -0.058168583 1.6129448e-38 361 284
0.055524562 0.75400001 -0.058168583 1.6035458e-38 362 284
0.056846574 0.75400001 -0.058168583 1.6219848e-38 363 284
0.058168583 0.75400001 -0.058168583 1.640389e-38 364 284
0.059332799 0.75199997 -0.058014289 1.640389e-38 365 284
0.060651302 0.75199997 -0.058014289 1.6403534e-38 366 284
0.062134624 0.75400001 -0.058168583 1.6219141e-38 367 284
0.06345664 0.75400001 -0.058168583 1.5758868e-38 368 284
0.064778648 0.75400001 -0.058168583 1.5205694e-38 369 284
0.066100664 0.75400001 -0.058168583 1.4928737e-38 370 284
0.067512102 0.755 -0.058245733 1.4468118e-38 371 284
0.068835862 0.755 -0.058245733 1.4008932e-38 372 284
0.070159629 0.755 -0.058245733 1.3547954e-38 373 284
0.071483396 0.755 -0.058245733 1.3454684e-38 374 284
0.07280717 0.755 -0.058245733 1.3270292e-38 375 284
0.07413093 0.755 -0.058245733 1.2992276e-38 376 284
0.075454697 0.755 -0.058245733 1.2531658e-38 377 284
0.076981857 0.75700003 -0.058400027 1.2071046e-38 378 284
0.078516021 0.759 -0.058554318 1.1702262e-38 379 284
0.080057196 0.76099998 -0.058708608 1.1057622e-38 380 284
0.081391476 0.76099998 -0.058708608 1.068848e-38 381 284
0.082725771 0.76099998 -0.058708608 9.3988521e-39 382 284
0.084060051 0.76099998 -0.058708608 8.7534827e-39 383 284
0.036279973 0.73900002 -0.0583071 1.7424618e-38 348 285
0.037575684 0.73900002 -0.0583071 1.6871444e-38 349 285
0.040982414 0.75400001 -0.059490599 1.4567225e-38 351 285
0.042304426 0.75400001 -0.059490599 1.5300432e-38 352 285
0.043626439 0.75400001 -0.059490599 1.5669216e-38 353 285
0.044948451 0.75400001 -0.059490599 1.585323e-38 354 285
0.046270464 0.75400001 -0.059490599 1.5945786e-38 355 285
0.04759248 0.75400001 -0.059490599 1.6037979e-38 356 285
0.048914492 0.75400001 -0.059490599 1.6314205e-38 357 285
0.050236505 0.75400001 -0.059490599 1.6313855e-38 358 285
0.051558517 0.75400001 -0.059490599 1.6129824e-38 359 285
0.052880533 0.75400001 -0.059490599 1.6404593e-38 360 285
0.054202545 0.75400001 -0.059490599 1.585142e-38 361 285
0.055524562 0.75400001 -0.059490599 1.5299318e-38 362 285
0.056695782 0.75199997 -0.059332799 1.5391513e-38 363 285
0.058014289 0.75199997 -0.059332799 1.5484455e-38 364 285
0.059332799 0.75199997 -0.059332799 1.5668486e-38 365 285
0.060651302 0.75199997 -0.059332799 1.5852517e-38 366 285
0.061969809 0.75199997 -0.059332799 1.5667767e-38 367 285
0.06345664 0.75400001 -0.059490599 1.5391163e-38 368 285
0.064778648 0.75400001 -0.059490599 1.4837989e-38 369 285
0.066100664 0.75400001 -0.059490599 1.4561031e-38 370 285
0.067422673 0.75400001 -0.059490599 1.4284443e-38 371 285
0.068835862 0.755 -0.059569497 1.400821e-38 372 285
0.070159629 0.755 -0.059569497 1.3639068e-38 373 285
0.071483396 0.755 -0.059569497 1.2995503e-38 374 285
0.07280717 0.755 -0.059569497 1.2626721e-38 375 285
0.07413093 0.755 -0.059569497 1.225651e-38 376 285
0.075454697 0.755 -0.059569497 1.1887726e-38 377 285
0.076981857 0.75700003 -0.059727304 1.1794103e-38 378 285
0.078309126 0.75700003 -0.059727304 1.1425679e-38 379 285
0.080057196 0.76099998 -0.060042895 1.096364e-38 380 285
0.081391476 0.76099998 -0.060042895 1.0318271e-38 381 285
0.082725771 0.76099998 -0.060042895 9.2130385e-39 382 285
0.035220962 0.74400002 -0.060006075 1.6597737e-38 347 286
0.036279973 0.73900002 -0.059602812 1.6594119e-38 348 286
0.037575684 0.73900002 -0.059602812 1.5672161e-38 349 286
0.039292198 0.74699998 -0.060248036 1.5301891e-38 350 286
0.040710647 0.74900001 -0.060409348 1.4933467e-38 351 286
0.04219221 0.75199997 -0.060651302 1.5760318e-38 352 286
0.043626439 0.75400001 -0.060812615 1.5852514e-38 353 286
0.044948451 0.75400001 -0.060812615 1.5945783e-38 354 286
0.046270464 0.75400001 -0.060812615 1.6037979e-38 355 286
0.04759248 0.75400001 -0.060812615 1.6497155e-38 356 286
0.048914492 0.75400001 -0.060812615 1.6313124e-38 357 286
0.050236505 0.75400001 -0.060812615 1.6035085e-38 358 286
0.051558517 0.75400001 -0.060812615 1.5389716e-38 359 286
0.052740261 0.75199997 -0.060651302 1.5295705e-38 360 286
0.054058768 0.75199997 -0.060651302 1.4742531e-38 361 286
0.055377278 0.75199997 -0.060651302 1.4007504e-38 362 286
0.056695782 0.75199997 -0.060651302 1.4929459e-38 363 286
0.058014289 0.75199997 -0.060651302 1.4932353e-38 364 286
0.059332799 0.75199997 -0.060651302 1.5208581e-38 365 286
0.060651302 0.75199997 -0.060651302 1.5576277e-38 366 286
0.061969809 0.75199997 -0.060651302 1.5207495e-38 367 286
0.063288316 0.75199997 -0.060651302 1.520605e-38 368 286
0.064778648 0.75400001 -0.060812615 1.4929103e-38 369 286
0.066100664 0.75400001 -0.060812615 1.4376636e-38 370 286
0.067422673 0.75400001 -0.060812615 1.4008213e-38 371 286
0.068744689 0.75400001 -0.060812615 1.3640504e-38 372 286
0.070159629 0.755 -0.060893264 1.3179166e-38 373 286
0.071483396 0.755 -0.060893264 1.2995135e-38 374 286
0.07280717 0.755 -0.060893264 1.2349765e-38 375 286
0.07413093 0.755 -0.060893264 1.2071752e-38 376 286
0.075454697 0.755 -0.060893264 1.1887361e-38 377 286
0.076778464 0.755 -0.060893264 1.1425676e-38 378 286
0.078102231 0.755 -0.060893264 1.1241285e-38 379 286
0.079636402 0.75700003 -0.061054576 1.05023e-38 380 286
0.081391476 0.76099998 -0.061377186 1.0133158e-38 381 286
0.033916477 0.74400002 -0.061310563 1.7240939e-38 346 287
0.035220962 0.74400002 -0.061310563 1.6779602e-38 347 287
0.036525439 0.74400002 -0.061310563 1.5947636e-38 348 287
0.037829921 0.74400002 -0.061310563 1.5117875e-38 349 287
0.039292198 0.74699998 -0.061557774 1.5299707e-38 350 287
0.040710647 0.74900001 -0.061722592 1.5668488e-38 351 287
0.04208 0.75 -0.061804999 1.576139e-38 352 287
0.04351072 0.75199997 -0.061969809 1.5853586e-38 353 287
0.044829223 0.75199997 -0.061969809 1.594543e-38 354 287
0.04614773 0.75199997 -0.061969809 1.594543e-38 355 287
0.047466237 0.75199997 -0.061969809 1.6035458e-38 356 287
0.048914492 0.75400001 -0.062134624 1.5666674e-38 357 287
0.050236505 0.75400001 -0.062134624 1.5479741e-38 358 287
0.051421758 0.75199997 -0.061969809 1.4834371e-38 359 287
0.052740261 0.75199997 -0.061969809 1.4004613e-38 360 287
0.054058768 0.75199997 -0.061969809 1.3543635e-38 361 287
0.055377278 0.75199997 -0.061969809 1.3179188e-38 362 287
0.056544997 0.75 -0.061804999 1.4101143e-38 363 287
0.057859998 0.75 -0.061804999 1.5207498e-38 364 287
0.059175 0.75 -0.061804999 1.5391529e-38 365 287
0.060489997 0.75 -0.061804999 1.5391529e-38 366 287
0.061969809 0.75199997 -0.061969809 1.5022748e-38 367 287
0.063288316 0.75199997 -0.061969809 1.5021657e-38 368 287
0.064606823 0.75199997 -0.061969809 1.4560681e-38 369 287
0.06592533 0.75199997 -0.061969809 1.4008579e-38 370 287
0.067422673 0.75400001 -0.062134624 1.3639798e-38 371 287
0.068744689 0.75400001 -0.062134624 1.3363207e-38 372 287
0.070066705 0.75400001 -0.062134624 1.2994784e-38 373 287
0.071388714 0.75400001 -0.062134624 1.2625645e-38 374 287
0.07271073 0.75400001 -0.062134624 1.2256862e-38 375 287
0.074032739 0.75400001 -0.062134624 1.1979919e-38 376 287
0.075354755 0.75400001 -0.062134624 1.15193e-38 377 287
0.076778464 0.755 -0.062217031 1.1241288e-38 378 287
0.078102231 0.755 -0.062217031 1.0688114e-38 379 287
0.079636402 0.75700003 -0.062381849 1.0500514e-38 380 287
0.031223357 0.74199998 -0.062446713 1.668993e-38 344 288
0.032524332 0.74199998 -0.062446713 1.6597734e-38 345 288
0.033916477 0.74400002 -0.062615044 1.6317159e-38 346 288
0.035220962 0.74400002 -0.062615044 1.5487399e-38 347 288
0.036623627 0.74599999 -0.062783353 1.5300805e-38 348 288
0.03793161 0.74599999 -0.062783353 1.5300805e-38 349 288
0.0393974 0.74900001 -0.063035838 1.5668486e-38 350 288
0.040710647 0.74900001 -0.063035838 1.5760681e-38 351 288
0.04208 0.75 -0.06312 1.594543e-38 352 288
0.043394998 0.75 -0.06312 1.6037626e-38 353 288
0.044709999 0.75 -0.06312 1.6220575e-38 354 288
0.046024997 0.75 -0.06312 1.5759237e-38 355 288
0.047339998 0.75 -0.06312 1.4743627e-38 356 288
0.048655 0.75 -0.06312 1.3452888e-38 357 288
0.050103247 0.75199997 -0.063288316 1.3724066e-38 358 288
0.051284999 0.75 -0.06312 1.3539316e-38 359 288
0.0526 0.75 -0.06312 1.2804651e-38 360 288
0.053914998 0.75 -0.06312 1.3357466e-38 361 288
0.055229999 0.75 -0.06312 1.3453986e-38 362 288
0.056469604 0.74900001 -0.063035838 1.4559974e-38 363 288
0.057782855 0.74900001 -0.063035838 1.5298258e-38 364 288
0.059096102 0.74900001 -0.063035838 1.5206063e-38 365 288
0.060409348 0.74900001 -0.063035838 1.5206063e-38 366 288
0.061804999 0.75 -0.06312 1.483764e-38 367 288
0.06312 0.75 -0.06312 1.4653242e-38 368 288
0.064606823 0.75199997 -0.063288316 1.4192624e-38 369 288
0.06592533 0.75199997 -0.063288316 1.3823113e-38 370 288
0.067243837 0.75199997 -0.063288316 1.3454689e-38 371 288
0.068744689 0.75400001 -0.06345664 1.2994428e-38 372 288
0.070066705 0.75400001 -0.06345664 1.271784e-38 373 288
0.071388714 0.75400001 -0.06345664 1.2533093e-38 374 288
0.07271073 0.75400001 -0.06345664 1.2072115e-38 375 288
0.074032739 0.75400001 -0.06345664 1.1703339e-38 376 288
0.075354755 0.75400001 -0.06345664 1.1334555e-38 377 288
0.076778464 0.755 -0.063540794 1.1056183e-38 378 288
0.078102231 0.755 -0.063540794 1.0595565e-38 379 288
0.029922385 0.74199998 -0.063747689 1.668958e-38 343 289
0.031223357 0.74199998 -0.063747689 1.6595567e-38 344 289
0.032524332 0.74199998 -0.063747689 1.613423e-38 345 289
0.033916477 0.74400002 -0.063919522 1.5578852e-38 346 289
0.03531564 0.74599999 -0.064091347 1.4933482e-38 347 289
0.036672719 0.74699998 -0.06417726 1.5300429e-38 348 289
0.038084153 0.74900001 -0.064349085 1.5392625e-38 349 289
0.0393974 0.74900001 -0.064349085 1.5669922e-38 350 289
0.040710647 0.74900001 -0.064349085 1.5853953e-38 351 289
0.042023893 0.74900001 -0.064349085 1.594543e-38 352 289
0.04333714 0.74900001 -0.064349085 1.5207865e-38 353 289
0.044650383 0.74900001 -0.064349085 1.5571605e-38 354 289
0.045963634 0.74900001 -0.064349085 1.4188671e-38 355 289
0.047339998 0.75 -0.064434998 1.2807166e-38 356 289
0.048655 0.75 -0.064434998 1.2069601e-38 357 289
0.049969997 0.75 -0.064434998 1.2711396e-38 358 289
0.051284999 0.75 -0.064434998 1.3172374e-38 359 289
0.052529868 0.74900001 -0.064349085 1.2895809e-38 360 289
0.053843111 0.74900001 -0.064349085 1.3541179e-38 361 289
0.055156358 0.74900001 -0.064349085 1.4098649e-38 362 289
0.056469604 0.74900001 -0.064349085 1.4651823e-38 363 289
0.057782855 0.74900001 -0.064349085 1.4563214e-38 364 289
0.059096102 0.74900001 -0.064349085 1.465541e-38 365 289
0.060409348 0.74900001 -0.064349085 1.4746164e-38 366 289
0.061722592 0.74900001 -0.064349085 1.4377381e-38 367 289
0.06312 0.75 -0.064434998 1.4193343e-38 368 289
0.064434998 0.75 -0.064434998 1.3732365e-38 369 289
0.065749995 0.75 -0.064434998 1.3638364e-38 370 289
0.067243837 0.75199997 -0.064606823 1.3269942e-38 371 289
0.068562344 0.75199997 -0.064606823 1.2626724e-38 372 289
0.070066705 0.75400001 -0.064778648 1.2257582e-38 373 289
0.071388714 0.75400001 -0.064778648 1.1889521e-38 374 289
0.07271073 0.75400001 -0.064778648 1.1521099e-38 375 289
0.074032739 0.75400001 -0.064778648 1.1427114e-38 376 289
0.075354755 0.75400001 -0.064778648 1.0966496e-38 377 289
0.076676771 0.75400001 -0.064778648 1.0870726e-38 378 289
0.078102231 0.755 -0.064864561 1.0225356e-38 379 289
0.028814279 0.74699998 -0.065486997 1.6966161e-38 342 290
0.03008369 0.74599999 -0.065399326 1.6689933e-38 343 290
0.031391677 0.74599999 -0.065399326 1.6041649e-38 344 290
0.032699663 0.74599999 -0.065399326 1.49353e-38 345 290
0.034053236 0.74699998 -0.065486997 1.5024218e-38 346 290
0.035362978 0.74699998 -0.065486997 1.5116413e-38 347 290
0.036672719 0.74699998 -0.065486997 1.5485176e-38 348 290
0.038084153 0.74900001 -0.065662332 1.5577372e-38 349 290
0.0393974 0.74900001 -0.065662332 1.58536e-38 350 290
0.040710647 0.74900001 -0.065662332 1.58536e-38 351 290
0.042023893 0.74900001 -0.065662332 1.5850716e-38 352 290
0.04333714 0.74900001 -0.065662332 1.4098999e-38 353 290
0.044650383 0.74900001 -0.065662332 1.372625e-38 354 290
0.045963634 0.74900001 -0.065662332 1.1790141e-38 355 290
0.047339998 0.75 -0.065749995 1.0961474e-38 356 290
0.048655 0.75 -0.065749995 1.1514646e-38 357 290
0.049969997 0.75 -0.065749995 1.2158946e-38 358 290
0.051216617 0.74900001 -0.065662332 1.2619566e-38 359 290
0.052529868 0.74900001 -0.065662332 1.2713549e-38 360 290
0.053843111 0.74900001 -0.065662332 1.3727343e-38 361 290
0.055156358 0.74900001 -0.065662332 1.4652176e-38 362 290
0.056469604 0.74900001 -0.065662332 1.50206e-38 363 290
0.057782855 0.74900001 -0.065662332 1.4563214e-38 364 290
0.059096102 0.74900001 -0.065662332 1.4379183e-38 365 290
0.060409348 0.74900001 -0.065662332 1.4469933e-38 366 290
0.061722592 0.74900001 -0.065662332 1.4192987e-38 367 290
0.063035838 0.74900001 -0.065662332 1.4007873e-38 368 290
0.064434998 0.75 -0.065749995 1.363945e-38 369 290
0.065749995 0.75 -0.065749995 1.3269945e-38 370 290
0.067243837 0.75199997 -0.06592533 1.2992998e-38 371 290
0.068562344 0.75199997 -0.06592533 1.2533093e-38 372 290
0.069880851 0.75199997 -0.06592533 1.2072115e-38 373 290
0.071388714 0.75400001 -0.066100664 1.1521099e-38 374 290
0.07271073 0.75400001 -0.066100664 1.1244152e-38 375 290
0.074032739 0.75400001 -0.066100664 1.087467e-38 376 290
0.075354755 0.75400001 -0.066100664 1.0505886e-38 377 290
0.076676771 0.75400001 -0.066100664 1.0409041e-38 378 290
0.078102231 0.755 -0.066188328 9.7636718e-39 379 290
0.027504537 0.74699998 -0.066796735 1.6873611e-38 341 291
0.028814279 0.74699998 -0.066796735 1.6595922e-38 342 291
0.030124018 0.74699998 -0.066796735 1.5673607e-38 343 291
0.031433757 0.74699998 -0.066796735 1.511895e-38 344 291
0.032831166 0.74900001 -0.066975579 1.4750167e-38 345 291
0.034144413 0.74900001 -0.066975579 1.5484101e-38 346 291
0.03545766 0.74900001 -0.066975579 1.5484101e-38 347 291
0.036770906 0.74900001 -0.066975579 1.5577369e-38 348 291
0.038084153 0.74900001 -0.066975579 1.5577369e-38 349 291
0.0393974 0.74900001 -0.066975579 1.5759962e-38 350 291
0.040710647 0.74900001 -0.066975579 1.4469224e-38 351 291
0.042023893 0.74900001 -0.066975579 1.4369099e-38 352 291
0.04333714 0.74900001 -0.066975579 1.2064209e-38 353 291
0.044650383 0.74900001 -0.066975579 1.1236969e-38 354 291
0.045963634 0.74900001 -0.066975579 1.0868186e-38 355 291
0.047339998 0.75 -0.067065001 1.1327036e-38 356 291
0.048655 0.75 -0.067065001 1.2248991e-38 357 291
0.04990337 0.74900001 -0.066975579 1.2438418e-38 358 291
0.051216617 0.74900001 -0.066975579 1.2991592e-38 359 291
0.052529868 0.74900001 -0.066975579 1.3822781e-38 360 291
0.053843111 0.74900001 -0.066975579 1.428376e-38 361 291
0.055156358 0.74900001 -0.066975579 1.4561778e-38 362 291
0.056469604 0.74900001 -0.066975579 1.4561778e-38 363 291
0.057782855 0.74900001 -0.066975579 1.4470296e-38 364 291
0.059096102 0.74900001 -0.066975579 1.43781e-38 365 291
0.060409348 0.74900001 -0.066975579 1.428482e-38 366 291
0.061722592 0.74900001 -0.066975579 1.4007873e-38 367 291
0.063035838 0.74900001 -0.066975579 1.3730919e-38 368 291
0.064349085 0.74900001 -0.066975579 1.3362138e-38 369 291
0.065749995 0.75 -0.067065001 1.2992995e-38 370 291
0.067065001 0.75 -0.067065001 1.2624573e-38 371 291
0.068562344 0.75199997 -0.067243837 1.2440178e-38 372 291
0.069880851 0.75199997 -0.067243837 1.2071396e-38 373 291
0.071388714 0.75400001 -0.067422673 1.1519667e-38 374 291
0.07271073 0.75400001 -0.067422673 1.1150884e-38 375 291
0.074032739 0.75400001 -0.067422673 1.0781397e-38 376 291
0.075354755 0.75400001 -0.067422673 1.0228225e-38 377 291
0.076676771 0.75400001 -0.067422673 1.0039903e-38 378 291
0.078102231 0.755 -0.067512102 9.4870877e-39 379 291
0.025051624 0.75199997 -0.068562344 1.6597384e-38 339 292
0.02637013 0.75199997 -0.068562344 1.6781403e-38 340 292
0.027615 0.75 -0.068379998 1.6412621e-38 341 292
0.028929999 0.75 -0.068379998 1.6040923e-38 342 292
0.030204674 0.74900001 -0.068288825 1.4566151e-38 343 292
0.031517919 0.74900001 -0.068288825 1.5024583e-38 344 292
0.032874998 0.75 -0.068379998 1.530117e-38 345 292
0.034144413 0.74900001 -0.068288825 1.5484826e-38 346 292
0.03545766 0.74900001 -0.068288825 1.5484826e-38 347 292
0.036770906 0.74900001 -0.068288825 1.5668486e-38 348 292
0.038084153 0.74900001 -0.068288825 1.5392259e-38 349 292
0.0393974 0.74900001 -0.068288825 1.4929133e-38 350 292
0.040710647 0.74900001 -0.068288825 1.2900829e-38 351 292
0.042023893 0.74900001 -0.068288825 1.1880912e-38 352 292
0.04333714 0.74900001 -0.068288825 1.0405782e-38 353 292
0.044650383 0.74900001 -0.068288825 1.013064e-38 354 292
0.045963634 0.74900001 -0.068288825 1.0776009e-38 355 292
0.047276881 0.74900001 -0.068288825 1.1145161e-38 356 292
0.048590127 0.74900001 -0.068288825 1.2251509e-38 357 292
0.04990337 0.74900001 -0.068288825 1.3084141e-38 358 292
0.051216617 0.74900001 -0.068288825 1.3821706e-38 359 292
0.052529868 0.74900001 -0.068288825 1.4562495e-38 360 292
0.053843111 0.74900001 -0.068288825 1.4470298e-38 361 292
0.055156358 0.74900001 -0.068288825 1.4470649e-38 362 292
0.056318816 0.74699998 -0.068106472 1.4378453e-38 363 292
0.057628557 0.74699998 -0.068106472 1.4285902e-38 364 292
0.058938295 0.74699998 -0.068106472 1.4009675e-38 365 292
0.060248036 0.74699998 -0.068106472 1.3824558e-38 366 292
0.061722592 0.74900001 -0.068288825 1.3547971e-38 367 292
0.063035838 0.74900001 -0.068288825 1.3362138e-38 368 292
0.064349085 0.74900001 -0.068288825 1.3085551e-38 369 292
0.065662332 0.74900001 -0.068288825 1.2625291e-38 370 292
0.067065001 0.75 -0.068379998 1.225651e-38 371 292
0.068562344 0.75199997 -0.068562344 1.1796607e-38 372 292
0.069880851 0.75199997 -0.068562344 1.1612216e-38 373 292
0.071388714 0.75400001 -0.068744689 1.1151603e-38 374 292
0.07271073 0.75400001 -0.068744689 1.0690985e-38 375 292
0.074032739 0.75400001 -0.068744689 1.0136758e-38 376 292
0.075154878 0.75199997 -0.068562344 9.4913883e-39 377 292
0.076473378 0.75199997 -0.068562344 8.845328e-39 378 292
0.02379624 0.75400001 -0.070066705 1.6597737e-38 338 293
0.025051624 0.75199997 -0.069880851 1.6873964e-38 339 293
0.02637013 0.75199997 -0.069880851 1.6320049e-38 340 293
0.027762281 0.75400001 -0.070066705 1.4660529e-38 341 293
0.029007144 0.75199997 -0.069880851 1.4749801e-38 342 293
0.030325651 0.75199997 -0.069880851 1.456541e-38 343 293
0.031644158 0.75199997 -0.069880851 1.5484104e-38 344 293
0.032874998 0.75 -0.069694996 1.5668135e-38 345 293
0.034144413 0.74900001 -0.069602072 1.5485176e-38 346 293
0.03545766 0.74900001 -0.069602072 1.5392981e-38 347 293
0.036770906 0.74900001 -0.069602072 1.5668842e-38 348 293
0.038084153 0.74900001 -0.069602072 1.4009322e-38 349 293
0.0393974 0.74900001 -0.069602072 1.1063023e-38 350 293
0.040710647 0.74900001 -0.069602072 9.1269147e-39 351 293
0.041911677 0.74699998 -0.069416218 1.1232694e-38 352 293
0.043221418 0.74699998 -0.069416218 1.1232694e-38 353 293
0.044531155 0.74699998 -0.069416218 1.0868597e-38 354 293
0.045840897 0.74699998 -0.069416218 1.1606162e-38 355 293
0.047276881 0.74900001 -0.069602072 1.2532062e-38 356 293
0.048590127 0.74900001 -0.069602072 1.3546214e-38 357 293
0.04990337 0.74900001 -0.069602072 1.4561075e-38 358 293
0.051216617 0.74900001 -0.069602072 1.4837303e-38 359 293
0.052529868 0.74900001 -0.069602072 1.4381703e-38 360 293
0.053843111 0.74900001 -0.069602072 1.4104757e-38 361 293
0.055156358 0.74900001 -0.069602072 1.4286981e-38 362 293
0.056318816 0.74699998 -0.069416218 1.4102589e-38 363 293
0.057628557 0.74699998 -0.069416218 1.4100789e-38 364 293
0.058938295 0.74699998 -0.069416218 1.382456e-38 365 293
0.060248036 0.74699998 -0.069416218 1.3730567e-38 366 293
0.061557774 0.74699998 -0.069416218 1.3361784e-38 367 293
0.063035838 0.74900001 -0.069602072 1.3176672e-38 368 293
0.064349085 0.74900001 -0.069602072 1.2900083e-38 369 293
0.065662332 0.74900001 -0.069602072 1.2440181e-38 370 293
0.067065001 0.75 -0.069694996 1.2071399e-38 371 293
0.068379998 0.75 -0.069694996 1.1887724e-38 372 293
0.069694996 0.75 -0.069694996 1.1426745e-38 373 293
0.071199358 0.75199997 -0.069880851 1.0875379e-38 374 293
0.072517857 0.75199997 -0.069880851 1.0137456e-38 375 293
0.074032739 0.75400001 -0.070066705 9.5832308e-39 376 293
0.075154878 0.75199997 -0.069880851 8.9378614e-39 377 293
0.076473378 0.75199997 -0.069880851 8.2925242e-39 378 293
0.021152213 0.75400001 -0.071388714 1.6688501e-38 336 294
0.022474226 0.75400001 -0.071388714 1.6688501e-38 337 294
0.02379624 0.75400001 -0.071388714 1.6597006e-38 338 294
0.025051624 0.75199997 -0.071199358 1.6043832e-38 339 294
0.02637013 0.75199997 -0.071199358 1.4481143e-38 340 294
0.027762281 0.75400001 -0.071388714 1.3006013e-38 341 294
0.029084291 0.75400001 -0.071388714 1.4563593e-38 342 294
0.030325651 0.75199997 -0.071199358 1.4932016e-38 343 294
0.03156 0.75 -0.071010001 1.520931e-38 344 294
0.032874998 0.75 -0.071010001 1.5301505e-38 345 294
0.034144413 0.74900001 -0.070915319 1.5668486e-38 346 294
0.03545766 0.74900001 -0.070915319 1.5484455e-38 347 294
0.036770906 0.74900001 -0.070915319 1.484052e-38 348 294
0.038084153 0.74900001 -0.070915319 1.3089163e-38 349 294
0.0393974 0.74900001 -0.070915319 1.0594496e-38 350 294
0.040710647 0.74900001 -0.070915319 1.0317549e-38 351 294
0.041911677 0.74699998 -0.070725955 1.1787662e-38 352 294
0.043221418 0.74699998 -0.070725955 1.2156086e-38 353 294
0.044531155 0.74699998 -0.070725955 1.1333891e-38 354 294
0.045840897 0.74699998 -0.070725955 1.2716826e-38 355 294
0.047150634 0.74699998 -0.070725955 1.3730254e-38 356 294
0.048460379 0.74699998 -0.070725955 1.4560017e-38 357 294
0.049770117 0.74699998 -0.070725955 1.4746536e-38 358 294
0.051079858 0.74699998 -0.070725955 1.4838732e-38 359 294
0.052529868 0.74900001 -0.070915319 1.4747956e-38 360 294
0.053843111 0.74900001 -0.070915319 1.4287336e-38 361 294
0.055156358 0.74900001 -0.070915319 1.4377378e-38 362 294
0.056318816 0.74699998 -0.070725955 1.4100791e-38 363 294
0.057628557 0.74699998 -0.070725955 1.3732014e-38 364 294
0.058938295 0.74699998 -0.070725955 1.3455069e-38 365 294
0.060248036 0.74699998 -0.070725955 1.3269957e-38 366 294
0.061557774 0.74699998 -0.070725955 1.2993731e-38 367 294
0.063035838 0.74900001 -0.070915319 1.2900449e-38 368 294
0.064349085 0.74900001 -0.070915319 1.2532027e-38 369 294
0.065662332 0.74900001 -0.070915319 1.2071767e-38 370 294
0.067065001 0.75 -0.071010001 1.1887376e-38 371 294
0.068379998 0.75 -0.071010001 1.1336002e-38 372 294
0.069694996 0.75 -0.071010001 1.0875023e-38 373 294
