# .PCD v.7 - Point Cloud Data file format
FIELDS x y z rgb imX imY
SIZE 4 4 4 4 4 4
TYPE F F F F F F
COUNT 1 1 1 1 1 1
WIDTH 849
HEIGHT 1
VIEWPOINT 0 0 0 1 0 0 0
POINTS 849
DATA ascii
0.071050331 0.82700002 0.052200239 1.4378453e-38 369 204
0.072500333 0.82700002 0.052200239 1.3734177e-38 370 204
0.073950343 0.82700002 0.052200239 1.3641981e-38 371 204
0.075400345 0.82700002 0.052200239 1.1527653e-38 372 204
0.076850355 0.82700002 0.052200239 1.2726196e-38 373 204
-0.071623661 0.81699997 0.050136562 1.7052561e-38 270 205
-0.07019119 0.81699997 0.050136562 1.5761822e-38 271 205
-0.068927035 0.81900001 0.0502593 1.5851079e-38 272 205
-0.067491055 0.81900001 0.0502593 1.6220222e-38 273 205
-0.066055074 0.81900001 0.0502593 1.6680807e-38 274 205
-0.064776897 0.82099998 0.050382029 1.6773003e-38 275 205
-0.063337415 0.82099998 0.050382029 1.668259e-38 276 205
-0.061897919 0.82099998 0.050382029 1.7143209e-38 277 205
-0.060458437 0.82099998 0.050382029 1.7235405e-38 278 205
-0.059018951 0.82099998 0.050382029 1.751199e-38 279 205
-0.057579465 0.82099998 0.050382029 1.7604189e-38 280 205
-0.05613998 0.82099998 0.050382029 1.7696385e-38 281 205
-0.05470049 0.82099998 0.050382029 1.7420168e-38 282 205
-0.053261004 0.82099998 0.050382029 1.7327972e-38 283 205
-0.051821519 0.82099998 0.050382029 1.7235779e-38 284 205
-0.050382029 0.82099998 0.050382029 1.7143225e-38 285 205
-0.048942544 0.82099998 0.050382029 1.705031e-38 286 205
-0.047503054 0.82099998 0.050382029 1.6958113e-38 287 205
-0.046063572 0.82099998 0.050382029 1.6589335e-38 288 205
-0.044624086 0.82099998 0.050382029 1.6497139e-38 289 205
-0.043289799 0.82300001 0.050504766 1.6312391e-38 290 205
-0.041846808 0.82300001 0.050504766 1.6036164e-38 291 205
-0.040403813 0.82300001 0.050504766 1.6035438e-38 292 205
-0.038960818 0.82300001 0.050504766 1.5942884e-38 293 205
-0.037517827 0.82300001 0.050504766 1.5391867e-38 294 205
-0.036162499 0.82499999 0.0506275 1.5207117e-38 295 205
-0.034715999 0.82499999 0.0506275 1.5297514e-38 296 205
-0.033269498 0.82499999 0.0506275 1.5021286e-38 297 205
-0.031822998 0.82499999 0.0506275 1.4744694e-38 298 205
-0.030376498 0.82499999 0.0506275 1.4284074e-38 299 205
-0.028929999 0.82499999 0.0506275 1.3639408e-38 300 205
-0.027483499 0.82499999 0.0506275 1.317843e-38 301 205
-0.026036998 0.82499999 0.0506275 1.2901838e-38 302 205
-0.024590498 0.82499999 0.0506275 1.2349023e-38 303 205
-0.023200106 0.82700002 0.050750233 1.1887005e-38 304 205
-0.0217501 0.82700002 0.050750233 1.1794809e-38 305 205
-0.020300092 0.82700002 0.050750233 1.1242029e-38 306 205
-0.018895673 0.829 0.050872963 1.1149833e-38 307 205
-0.017442159 0.829 0.050872963 1.1239515e-38 308 205
-0.01602722 0.83099997 0.050995696 1.1423546e-38 309 205
-0.014570199 0.83099997 0.050995696 1.1055837e-38 310 205
-0.01314474 0.833 0.051118433 1.1055837e-38 311 205
-0.011684213 0.833 0.051118433 1.0780678e-38 312 205
-0.010223686 0.833 0.051118433 1.0780678e-38 313 205
-0.0087841991 0.83499998 0.051241163 1.050553e-38 314 205
-0.0073201661 0.83499998 0.051241163 1.050553e-38 315 205
-0.0058561331 0.83499998 0.051241163 1.0780675e-38 316 205
-0.0043920996 0.83499998 0.051241163 1.068848e-38 317 205
-0.0029280665 0.83499998 0.051241163 1.059736e-38 318 205
-0.0014640333 0.83499998 0.051241163 1.059736e-38 319 205
0 0.83499998 0.051241163 1.0322574e-38 320 205
0.0014640333 0.83499998 0.051241163 1.0322574e-38 321 205
0.0029280665 0.83499998 0.051241163 1.0597377e-38 322 205
0.0043920996 0.83499998 0.051241163 1.0689931e-38 323 205
0.0058561331 0.83499998 0.051241163 1.0689931e-38 324 205
0.0073201661 0.83499998 0.051241163 1.0689931e-38 325 205
0.0087841991 0.83499998 0.051241163 1.0781045e-38 326 205
0.010248233 0.83499998 0.051241163 1.0781045e-38 327 205
0.011712266 0.83499998 0.051241163 1.0414068e-38 328 205
0.0131763 0.83499998 0.051241163 1.0414068e-38 329 205
0.014640332 0.83499998 0.051241163 1.0414068e-38 330 205
0.016104365 0.83499998 0.051241163 1.0321871e-38 331 205
0.017568398 0.83499998 0.051241163 1.0412987e-38 332 205
0.019032432 0.83499998 0.051241163 1.0412987e-38 333 205
0.020496465 0.83499998 0.051241163 1.0229672e-38 334 205
0.0219079 0.833 0.051118433 1.0321868e-38 335 205
0.023368426 0.833 0.051118433 1.0505536e-38 336 205
0.024828954 0.833 0.051118433 1.0597733e-38 337 205
0.02628948 0.833 0.051118433 1.0506614e-38 338 205
0.027683379 0.83099997 0.050995696 1.0690645e-38 339 205
0.029140398 0.83099997 0.050995696 1.0690645e-38 340 205
0.030597419 0.83099997 0.050995696 1.078284e-38 341 205
0.032131586 0.833 0.051118433 1.0873967e-38 342 205
0.033511456 0.83099997 0.050995696 1.1058357e-38 343 205
0.03496848 0.83099997 0.050995696 1.0966534e-38 344 205
0.036337834 0.829 0.050872963 1.1150926e-38 345 205
0.037791345 0.829 0.050872963 1.10598e-38 346 205
0.039244857 0.829 0.050872963 1.0967604e-38 347 205
0.040698372 0.829 0.050872963 1.1982463e-38 348 205
0.042151887 0.829 0.050872963 1.2627832e-38 349 205
0.0435002 0.82700002 0.050750233 1.3088813e-38 350 205
0.044950206 0.82700002 0.050750233 1.33654e-38 351 205
0.046400212 0.82700002 0.050750233 1.3917139e-38 352 205
0.047850218 0.82700002 0.050750233 1.4101889e-38 353 205
0.049300224 0.82700002 0.050750233 1.41948e-38 354 205
0.050750233 0.82700002 0.050750233 1.4286997e-38 355 205
0.052200239 0.82700002 0.050750233 1.4746889e-38 356 205
0.053650245 0.82700002 0.050750233 1.4839085e-38 357 205
0.055100251 0.82700002 0.050750233 1.5207865e-38 358 205
0.056413498 0.82499999 0.0506275 1.5484452e-38 359 205
0.057859998 0.82499999 0.0506275 1.557304e-38 360 205
0.059306499 0.82499999 0.0506275 1.4097552e-38 361 205
0.060752995 0.82499999 0.0506275 1.2070695e-38 362 205
0.062199496 0.82499999 0.0506275 1.1701553e-38 363 205
0.063645996 0.82499999 0.0506275 1.271427e-38 364 205
0.065092497 0.82499999 0.0506275 1.4834769e-38 365 205
0.066700302 0.82700002 0.050750233 1.5207848e-38 366 205
0.068150312 0.82700002 0.050750233 1.4930902e-38 367 205
0.069600314 0.82700002 0.050750233 1.4562476e-38 368 205
0.071050331 0.82700002 0.050750233 1.4378085e-38 369 205
0.072500333 0.82700002 0.050750233 1.3918548e-38 370 205
0.073950343 0.82700002 0.050750233 1.364232e-38 371 205
0.075400345 0.82700002 0.050750233 1.1523673e-38 372 205
0.076850355 0.82700002 0.050750233 1.1892097e-38 373 205
0.078300357 0.82700002 0.050750233 1.43872e-38 374 205
-0.073056139 0.81699997 0.048704091 1.5395929e-38 269 206
-0.071623661 0.81699997 0.048704091 1.5760334e-38 270 206
-0.07019119 0.81699997 0.048704091 1.5668138e-38 271 206
-0.068758719 0.81699997 0.048704091 1.6312028e-38 272 206
-0.067491055 0.81900001 0.048823319 1.6588256e-38 273 206
-0.066055074 0.81900001 0.048823319 1.6590041e-38 274 206
-0.064619094 0.81900001 0.048823319 1.6682237e-38 275 206
-0.063183114 0.81900001 0.048823319 1.6958817e-38 276 206
-0.061747137 0.81900001 0.048823319 1.7143209e-38 277 206
-0.060311157 0.81900001 0.048823319 1.7419076e-38 278 206
-0.058875177 0.81900001 0.048823319 1.7603467e-38 279 206
-0.057439201 0.81900001 0.048823319 1.760347e-38 280 206
-0.056003217 0.81900001 0.048823319 1.760347e-38 281 206
-0.054567236 0.81900001 0.048823319 1.7510918e-38 282 206
-0.053131256 0.81900001 0.048823319 1.7418723e-38 283 206
-0.05169528 0.81900001 0.048823319 1.7233974e-38 284 206
-0.0502593 0.81900001 0.048823319 1.7049943e-38 285 206
-0.048942544 0.82099998 0.048942544 1.6773351e-38 286 206
-0.047503054 0.82099998 0.048942544 1.6312731e-38 287 206
-0.045951359 0.81900001 0.048823319 1.6588236e-38 288 206
-0.044515379 0.81900001 0.048823319 1.6403845e-38 289 206
-0.043184597 0.82099998 0.048942544 1.5944672e-38 290 206
-0.041846808 0.82300001 0.049061771 1.5667725e-38 291 206
-0.040403813 0.82300001 0.049061771 1.5207823e-38 292 206
-0.038960818 0.82300001 0.049061771 1.5115627e-38 293 206
-0.037517827 0.82300001 0.049061771 1.5114188e-38 294 206
-0.036162499 0.82499999 0.049180996 1.4745047e-38 295 206
-0.034715999 0.82499999 0.049180996 1.4377342e-38 296 206
-0.033269498 0.82499999 0.049180996 1.3639777e-38 297 206
-0.031822998 0.82499999 0.049180996 1.3085884e-38 298 206
-0.030376498 0.82499999 0.049180996 1.253271e-38 299 206
-0.028929999 0.82499999 0.049180996 1.2163569e-38 300 206
-0.027483499 0.82499999 0.049180996 1.1887341e-38 301 206
-0.026036998 0.82499999 0.049180996 1.1517852e-38 302 206
-0.024650112 0.82700002 0.049300224 1.1517852e-38 303 206
-0.023200106 0.82700002 0.049300224 1.1883783e-38 304 206
-0.0217501 0.82700002 0.049300224 1.1699392e-38 305 206
-0.020349186 0.829 0.049419452 1.1423541e-38 306 206
-0.018941259 0.83099997 0.049538679 1.1239509e-38 307 206
-0.01748424 0.83099997 0.049538679 1.1147314e-38 308 206
-0.01602722 0.83099997 0.049538679 1.1055117e-38 309 206
-0.014605266 0.833 0.049657907 1.0963637e-38 310 206
-0.0131763 0.83499998 0.049777132 1.0963637e-38 311 206
-0.011712266 0.83499998 0.049777132 1.0688483e-38 312 206
-0.010248233 0.83499998 0.049777132 1.0595928e-38 313 206
-0.0087841991 0.83499998 0.049777132 1.0780312e-38 314 206
-0.0073376996 0.83700001 0.049896359 1.0780312e-38 315 206
-0.0058561331 0.83499998 0.049777132 1.068848e-38 316 206
-0.0043920996 0.83499998 0.049777132 1.068848e-38 317 206
-0.0029280665 0.83499998 0.049777132 1.0688477e-38 318 206
-0.0014640333 0.83499998 0.049777132 1.0781031e-38 319 206
0 0.83499998 0.049777132 1.0505884e-38 320 206
0.0014640333 0.83499998 0.049777132 1.0505884e-38 321 206
0.0029280665 0.83499998 0.049777132 1.0597729e-38 322 206
0.0043920996 0.83499998 0.049777132 1.0689926e-38 323 206
0.0058561331 0.83499998 0.049777132 1.0781048e-38 324 206
0.0073201661 0.83499998 0.049777132 1.0781048e-38 325 206
0.0087841991 0.83499998 0.049777132 1.050518e-38 326 206
0.010248233 0.83499998 0.049777132 1.050518e-38 327 206
0.011712266 0.83499998 0.049777132 1.050518e-38 328 206
0.013207859 0.83700001 0.049896359 1.050518e-38 329 206
0.014640332 0.83499998 0.049777132 1.0412631e-38 330 206
0.016104365 0.83499998 0.049777132 1.02286e-38 331 206
0.017568398 0.83499998 0.049777132 1.0412987e-38 332 206
0.019032432 0.83499998 0.049777132 1.0412987e-38 333 206
0.020496465 0.83499998 0.049777132 1.0229669e-38 334 206
0.021960499 0.83499998 0.049777132 1.0229669e-38 335 206
0.023424532 0.83499998 0.049777132 1.0505533e-38 336 206
0.024828954 0.833 0.049657907 1.0505533e-38 337 206
0.02628948 0.833 0.049657907 1.050553e-38 338 206
0.027750006 0.833 0.049657907 1.050553e-38 339 206
0.029210532 0.833 0.049657907 1.0414414e-38 340 206
0.030671058 0.833 0.049657907 1.0414414e-38 341 206
0.032131586 0.833 0.049657907 1.0689929e-38 342 206
0.033592112 0.833 0.049657907 1.087432e-38 343 206
0.03496848 0.83099997 0.049538679 1.1057632e-38 344 206
0.036425497 0.83099997 0.049538679 1.1150187e-38 345 206
0.037791345 0.829 0.049419452 1.1425697e-38 346 206
0.039244857 0.829 0.049419452 1.1517894e-38 347 206
0.040698372 0.829 0.049419452 1.1428213e-38 348 206
0.042151887 0.829 0.049419452 1.1612604e-38 349 206
0.0435002 0.82700002 0.049300224 1.1615122e-38 350 206
0.044950206 0.82700002 0.049300224 1.2260491e-38 351 206
0.046400212 0.82700002 0.049300224 1.3088094e-38 352 206
0.047850218 0.82700002 0.049300224 1.3548712e-38 353 206
0.049300224 0.82700002 0.049300224 1.3641981e-38 354 206
0.050750233 0.82700002 0.049300224 1.3826731e-38 355 206
0.052200239 0.82700002 0.049300224 1.4744369e-38 356 206
0.053520497 0.82499999 0.049180996 1.5020955e-38 357 206
0.054966997 0.82499999 0.049180996 1.5113867e-38 358 206
0.056413498 0.82499999 0.049180996 1.5298258e-38 359 206
0.057719734 0.82300001 0.049061771 1.5024197e-38 360 206
0.059162725 0.82300001 0.049061771 1.5208587e-38 361 206
0.06060572 0.82300001 0.049061771 1.4746902e-38 362 206
0.062048711 0.82300001 0.049061771 1.4562511e-38 363 206
0.063645996 0.82499999 0.049180996 1.4195884e-38 364 206
0.065092497 0.82499999 0.049180996 1.465686e-38 365 206
0.066538997 0.82499999 0.049180996 1.4839801e-38 366 206
0.068150312 0.82700002 0.049300224 1.4747606e-38 367 206
0.069600314 0.82700002 0.049300224 1.4379536e-38 368 206
0.071050331 0.82700002 0.049300224 1.4194785e-38 369 206
0.072500333 0.82700002 0.049300224 1.3735236e-38 370 206
0.073950343 0.82700002 0.049300224 1.3550485e-38 371 206
0.075400345 0.82700002 0.049300224 1.2444891e-38 372 206
0.076850355 0.82700002 0.049300224 1.2167945e-38 373 206
0.078300357 0.82700002 0.049300224 1.3189363e-38 374 206
-0.074306265 0.815 0.047155898 1.6040512e-38 268 207
-0.072877295 0.815 0.047155898 1.4841969e-38 269 207
-0.071623661 0.81699997 0.047271617 1.5667006e-38 270 207
-0.07019119 0.81699997 0.047271617 1.622018e-38 271 207
-0.068758719 0.81699997 0.047271617 1.6589308e-38 272 207
-0.067491055 0.81900001 0.047387339 1.6773701e-38 273 207
-0.066055074 0.81900001 0.047387339 1.7049568e-38 274 207
-0.064619094 0.81900001 0.047387339 1.7233959e-38 275 207
-0.063183114 0.81900001 0.047387339 1.7143215e-38 276 207
-0.061747137 0.81900001 0.047387339 1.7235411e-38 277 207
-0.060311157 0.81900001 0.047387339 1.7235779e-38 278 207
-0.058875177 0.81900001 0.047387339 1.7235779e-38 279 207
-0.057439201 0.81900001 0.047387339 1.7235423e-38 280 207
-0.056003217 0.81900001 0.047387339 1.7235423e-38 281 207
-0.054567236 0.81900001 0.047387339 1.6959196e-38 282 207
-0.053131256 0.81900001 0.047387339 1.6959196e-38 283 207
-0.05169528 0.81900001 0.047387339 1.6958116e-38 284 207
-0.0502593 0.81900001 0.047387339 1.6589335e-38 285 207
-0.048823319 0.81900001 0.047387339 1.6588259e-38 286 207
-0.047387339 0.81900001 0.047387339 1.6311672e-38 287 207
-0.045951359 0.81900001 0.047387339 1.6036517e-38 288 207
-0.044515379 0.81900001 0.047387339 1.5759571e-38 289 207
-0.043184597 0.82099998 0.047503054 1.5484059e-38 290 207
-0.041745111 0.82099998 0.047503054 1.5207472e-38 291 207
-0.040305622 0.82099998 0.047503054 1.483941e-38 292 207
-0.03886614 0.82099998 0.047503054 1.4470986e-38 293 207
-0.037517827 0.82300001 0.04761878 1.4284778e-38 294 207
-0.036162499 0.82499999 0.047734499 1.38238e-38 295 207
-0.034715999 0.82499999 0.047734499 1.354721e-38 296 207
-0.033269498 0.82499999 0.047734499 1.2994036e-38 297 207
-0.031822998 0.82499999 0.047734499 1.2072105e-38 298 207
-0.030376498 0.82499999 0.047734499 1.1979551e-38 299 207
-0.028929999 0.82499999 0.047734499 1.1610437e-38 300 207
-0.027550125 0.82700002 0.047850218 1.151824e-38 301 207
-0.02610012 0.82700002 0.047850218 1.1333148e-38 302 207
-0.024650112 0.82700002 0.047850218 1.1240594e-38 303 207
-0.023200106 0.82700002 0.047850218 1.0965086e-38 304 207
-0.021802699 0.829 0.04796594 1.0965086e-38 305 207
-0.020349186 0.829 0.04796594 1.059738e-38 306 207
-0.018941259 0.83099997 0.048081655 1.059738e-38 307 207
-0.01748424 0.83099997 0.048081655 1.0596657e-38 308 207
-0.016065793 0.833 0.048197377 1.0596657e-38 309 207
-0.014605266 0.833 0.048197377 1.0504814e-38 310 207
-0.0131763 0.83499998 0.048313096 1.0412619e-38 311 207
-0.011712266 0.83499998 0.048313096 1.0688483e-38 312 207
-0.010248233 0.83499998 0.048313096 1.0595928e-38 313 207
-0.0087841991 0.83499998 0.048313096 1.0595931e-38 314 207
-0.0073376996 0.83700001 0.048428819 1.0688127e-38 315 207
-0.0058701597 0.83700001 0.048428819 1.0504817e-38 316 207
-0.0044026203 0.83700001 0.048428819 1.0504817e-38 317 207
-0.0029350799 0.83700001 0.048428819 1.0230025e-38 318 207
-0.0014675399 0.83700001 0.048428819 1.0230025e-38 319 207
0 0.83700001 0.048428819 1.0322218e-38 320 207
0.0014675399 0.83700001 0.048428819 1.0322218e-38 321 207
0.0029350799 0.83700001 0.048428819 1.0414421e-38 322 207
0.0043920996 0.83499998 0.048313096 1.0414421e-38 323 207
0.0058561331 0.83499998 0.048313096 1.0504827e-38 324 207
0.0073376996 0.83700001 0.048428819 1.0412631e-38 325 207
0.0088052405 0.83700001 0.048428819 1.0228603e-38 326 207
0.01027278 0.83700001 0.048428819 1.0228603e-38 327 207
0.011740319 0.83700001 0.048428819 1.0136773e-38 328 207
0.013207859 0.83700001 0.048428819 1.0136773e-38 329 207
0.014675399 0.83700001 0.048428819 1.0136417e-38 330 207
0.016142938 0.83700001 0.048428819 1.0136417e-38 331 207
0.017610481 0.83700001 0.048428819 9.953458e-39 332 207
0.01907802 0.83700001 0.048428819 9.953458e-39 333 207
0.020496465 0.83499998 0.048313096 1.0137126e-38 334 207
0.021960499 0.83499998 0.048313096 1.0137126e-38 335 207
0.023424532 0.83499998 0.048313096 9.9534552e-39 336 207
0.024888566 0.83499998 0.048313096 9.9534552e-39 337 207
0.026352599 0.83499998 0.048313096 1.0137123e-38 338 207
0.027816633 0.83499998 0.048313096 1.0137123e-38 339 207
0.029210532 0.833 0.048197377 1.0046004e-38 340 207
0.030671058 0.833 0.048197377 1.0322591e-38 341 207
0.032131586 0.833 0.048197377 1.013892e-38 342 207
0.033592112 0.833 0.048197377 1.0231474e-38 343 207
0.03496848 0.83099997 0.048081655 1.0598825e-38 344 207
0.036425497 0.83099997 0.048081655 1.0598825e-38 345 207
0.037882518 0.83099997 0.048081655 1.0874335e-38 346 207
0.039244857 0.829 0.04796594 1.0966531e-38 347 207
0.040698372 0.829 0.04796594 1.1060156e-38 348 207
0.042151887 0.829 0.04796594 1.1060156e-38 349 207
0.043605398 0.829 0.04796594 1.1244897e-38 350 207
0.044950206 0.82700002 0.047850218 1.1613679e-38 351 207
0.046400212 0.82700002 0.047850218 1.1799869e-38 352 207
0.047850218 0.82700002 0.047850218 1.2353043e-38 353 207
0.049300224 0.82700002 0.047850218 1.3273554e-38 354 207
0.050750233 0.82700002 0.047850218 1.3549781e-38 355 207
0.052073997 0.82499999 0.047734499 1.4008974e-38 356 207
0.053520497 0.82499999 0.047734499 1.4285201e-38 357 207
0.054966997 0.82499999 0.047734499 1.4194453e-38 358 207
0.056276739 0.82300001 0.04761878 1.4378845e-38 359 207
0.057719734 0.82300001 0.04761878 1.456359e-38 360 207
0.059162725 0.82300001 0.04761878 1.4839817e-38 361 207
0.06060572 0.82300001 0.04761878 1.5023846e-38 362 207
0.062048711 0.82300001 0.04761878 1.5207877e-38 363 207
0.063645996 0.82499999 0.047734499 1.4657211e-38 364 207
0.065092497 0.82499999 0.047734499 1.4472819e-38 365 207
0.066538997 0.82499999 0.047734499 1.4655763e-38 366 207
0.068150312 0.82700002 0.047850218 1.4563567e-38 367 207
0.069600314 0.82700002 0.047850218 1.4470646e-38 368 207
0.071050331 0.82700002 0.047850218 1.4286255e-38 369 207
0.072500333 0.82700002 0.047850218 1.3735586e-38 370 207
0.073950343 0.82700002 0.047850218 1.3551194e-38 371 207
0.075400345 0.82700002 0.047850218 1.2261563e-38 372 207
0.076850355 0.82700002 0.047850218 1.1800944e-38 373 207
0.078300357 0.82700002 0.047850218 1.1900048e-38 374 207
-0.074306265 0.815 0.045726933 1.5392609e-38 268 208
-0.072877295 0.815 0.045726933 1.576139e-38 269 208
-0.071623661 0.81699997 0.045839142 1.6313447e-38 270 208
-0.07019119 0.81699997 0.045839142 1.6405643e-38 271 208
-0.068758719 0.81699997 0.045839142 1.6774057e-38 272 208
-0.067491055 0.81900001 0.045951359 1.6958448e-38 273 208
-0.066055074 0.81900001 0.045951359 1.7051012e-38 274 208
-0.064619094 0.81900001 0.045951359 1.7143209e-38 275 208
-0.063183114 0.81900001 0.045951359 1.7142862e-38 276 208
-0.061747137 0.81900001 0.045951359 1.7142862e-38 277 208
-0.060311157 0.81900001 0.045951359 1.7326177e-38 278 208
-0.058875177 0.81900001 0.045951359 1.7326177e-38 279 208
-0.057439201 0.81900001 0.045951359 1.7326177e-38 280 208
-0.056003217 0.81900001 0.045951359 1.7326177e-38 281 208
-0.054567236 0.81900001 0.045951359 1.7050665e-38 282 208
-0.053131256 0.81900001 0.045951359 1.6681884e-38 283 208
-0.05169528 0.81900001 0.045951359 1.6680807e-38 284 208
-0.0502593 0.81900001 0.045951359 1.6404221e-38 285 208
-0.048823319 0.81900001 0.045951359 1.6219832e-38 286 208
-0.047387339 0.81900001 0.045951359 1.6127278e-38 287 208
-0.045951359 0.81900001 0.045951359 1.5667372e-38 288 208
-0.044515379 0.81900001 0.045951359 1.5575176e-38 289 208
-0.043184597 0.82099998 0.046063572 1.5390063e-38 290 208
-0.041745111 0.82099998 0.046063572 1.5021639e-38 291 208
-0.040305622 0.82099998 0.046063572 1.4745403e-38 292 208
-0.03886614 0.82099998 0.046063572 1.4100033e-38 293 208
-0.037517827 0.82300001 0.046175785 1.3269181e-38 294 208
-0.036162499 0.82499999 0.046287999 1.2623812e-38 295 208
-0.034715999 0.82499999 0.046287999 1.2070656e-38 296 208
-0.033269498 0.82499999 0.046287999 1.2070656e-38 297 208
-0.031822998 0.82499999 0.046287999 1.1793385e-38 298 208
-0.030376498 0.82499999 0.046287999 1.1793385e-38 299 208
-0.029000133 0.82700002 0.046400212 1.133278e-38 300 208
-0.027550125 0.82700002 0.046400212 1.1240584e-38 301 208
-0.02610012 0.82700002 0.046400212 1.0965437e-38 302 208
-0.024650112 0.82700002 0.046400212 1.0965437e-38 303 208
-0.023200106 0.82700002 0.046400212 1.0873244e-38 304 208
-0.021802699 0.829 0.046512425 1.0781048e-38 305 208
-0.020349186 0.829 0.046512425 1.0781048e-38 306 208
-0.018986847 0.833 0.046736851 1.0596657e-38 307 208
-0.017526319 0.833 0.046736851 1.0413338e-38 308 208
-0.016065793 0.833 0.046736851 1.0413338e-38 309 208
-0.014640332 0.83499998 0.046849065 1.0412616e-38 310 208
0.0220131 0.83700001 0.046961278 9.6757977e-39 335 208
0.023480639 0.83700001 0.046961278 9.4932001e-39 336 208
0.02494818 0.83700001 0.046961278 9.4010031e-39 337 208
0.026415719 0.83700001 0.046961278 9.5839524e-39 338 208
0.027816633 0.83499998 0.046849065 9.6761481e-39 339 208
0.029280664 0.83499998 0.046849065 9.4939064e-39 340 208
0.030744698 0.83499998 0.046849065 9.8623288e-39 341 208
0.03220873 0.83499998 0.046849065 1.004636e-38 342 208
0.033592112 0.833 0.046736851 1.0230391e-38 343 208
0.035052639 0.833 0.046736851 1.0413712e-38 344 208
0.036513168 0.833 0.046736851 1.0413712e-38 345 208
0.037882518 0.83099997 0.046624638 1.0506266e-38 346 208
0.039244857 0.829 0.046512425 1.0782493e-38 347 208
0.040698372 0.829 0.046512425 1.0875042e-38 348 208
0.042151887 0.829 0.046512425 1.1059434e-38 349 208
0.043605398 0.829 0.046512425 1.1427494e-38 350 208
0.044950206 0.82700002 0.046400212 1.1519689e-38 351 208
0.046400212 0.82700002 0.046400212 1.0787162e-38 352 208
0.047850218 0.82700002 0.046400212 1.1340336e-38 353 208
0.049300224 0.82700002 0.046400212 1.2718954e-38 354 208
0.050750233 0.82700002 0.046400212 1.3271769e-38 355 208
0.052073997 0.82499999 0.046287999 1.3731664e-38 356 208
0.053520497 0.82499999 0.046287999 1.3916055e-38 357 208
0.054833744 0.82300001 0.046175785 1.419264e-38 358 208
0.056276739 0.82300001 0.046175785 1.4377031e-38 359 208
0.057579465 0.82099998 0.046063572 1.4561069e-38 360 208
0.059018951 0.82099998 0.046063572 1.474546e-38 361 208
0.06060572 0.82300001 0.046175785 1.4654706e-38 362 208
0.062048711 0.82300001 0.046175785 1.4746902e-38 363 208
0.063645996 0.82499999 0.046287999 1.4289151e-38 364 208
0.065092497 0.82499999 0.046287999 1.4289151e-38 365 208
0.066538997 0.82499999 0.046287999 1.465541e-38 366 208
0.067985497 0.82499999 0.046287999 1.4563214e-38 367 208
0.069600314 0.82700002 0.046400212 1.4286983e-38 368 208
0.071050331 0.82700002 0.046400212 1.4010396e-38 369 208
0.072500333 0.82700002 0.046400212 1.3459371e-38 370 208
0.073950343 0.82700002 0.046400212 1.327498e-38 371 208
0.075400345 0.82700002 0.046400212 1.244596e-38 372 208
0.076850355 0.82700002 0.046400212 1.1708395e-38 373 208
0.078300357 0.82700002 0.046400212 1.0609309e-38 374 208
0.079750367 0.82700002 0.046400212 1.3282982e-38 375 208
-0.075735234 0.815 0.044297963 1.5300807e-38 267 209
-0.074306265 0.815 0.044297963 1.6220192e-38 268 209
-0.072877295 0.815 0.044297963 1.6404944e-38 269 209
-0.071623661 0.81699997 0.044406671 1.6681508e-38 270 209
-0.07019119 0.81699997 0.044406671 1.6773704e-38 271 209
-0.068758719 0.81699997 0.044406671 1.7049568e-38 272 209
-0.06732624 0.81699997 0.044406671 1.7233959e-38 273 209
-0.065893769 0.81699997 0.044406671 1.7049943e-38 274 209
-0.064461298 0.81699997 0.044406671 1.7049943e-38 275 209
-0.06302882 0.81699997 0.044406671 1.704924e-38 276 209
-0.061596353 0.81699997 0.044406671 1.704924e-38 277 209
-0.060163878 0.81699997 0.044406671 1.695776e-38 278 209
-0.058731399 0.81699997 0.044406671 1.7049957e-38 279 209
-0.057439201 0.81900001 0.044515379 1.6774801e-38 280 209
-0.056003217 0.81900001 0.044515379 1.6682605e-38 281 209
-0.054433983 0.81699997 0.044406671 1.6498211e-38 282 209
-0.053001508 0.81699997 0.044406671 1.631418e-38 283 209
-0.05169528 0.81900001 0.044515379 1.6312744e-38 284 209
-0.0502593 0.81900001 0.044515379 1.6036517e-38 285 209
-0.048823319 0.81900001 0.044515379 1.585177e-38 286 209
-0.047387339 0.81900001 0.044515379 1.5575182e-38 287 209
-0.045951359 0.81900001 0.044515379 1.5207117e-38 288 209
-0.044515379 0.81900001 0.044515379 1.493089e-38 289 209
-0.043184597 0.82099998 0.044624086 1.4561384e-38 290 209
-0.041745111 0.82099998 0.044624086 1.400821e-38 291 209
-0.040403813 0.82300001 0.044732794 1.3729453e-38 292 209
-0.038960818 0.82300001 0.044732794 1.3176279e-38 293 209
-0.037517827 0.82300001 0.044732794 1.2255414e-38 294 209
-0.036162499 0.82499999 0.044841498 1.2163219e-38 295 209
-0.034715999 0.82499999 0.044841498 1.1885585e-38 296 209
-0.033269498 0.82499999 0.044841498 1.1701193e-38 297 209
-0.031822998 0.82499999 0.044841498 1.1424978e-38 298 209
-0.030450139 0.82700002 0.044950206 1.1332424e-38 299 209
-0.029000133 0.82700002 0.044950206 1.0964718e-38 300 209
-0.027550125 0.82700002 0.044950206 1.0964718e-38 301 209
-0.02610012 0.82700002 0.044950206 1.0873244e-38 302 209
-0.024650112 0.82700002 0.044950206 1.0873244e-38 303 209
-0.023256212 0.829 0.04505891 1.059738e-38 304 209
-0.021802699 0.829 0.04505891 1.059738e-38 305 209
-0.02039828 0.83099997 0.045167617 1.0505536e-38 306 209
-0.018941259 0.83099997 0.045167617 1.0228951e-38 307 209
-0.01748424 0.83099997 0.045167617 1.0137108e-38 308 209
0.030744698 0.83499998 0.045385033 8.7570798e-39 341 209
0.03220873 0.83499998 0.045385033 9.6765124e-39 342 209
0.033672765 0.83499998 0.045385033 9.7690668e-39 343 209
0.035052639 0.833 0.045276325 1.0136417e-38 344 209
0.036513168 0.833 0.045276325 1.0228972e-38 345 209
0.037882518 0.83099997 0.045167617 1.0229685e-38 346 209
0.039244857 0.829 0.04505891 1.0414436e-38 347 209
0.040698372 0.829 0.04505891 1.0507704e-38 348 209
0.042151887 0.829 0.04505891 1.0692095e-38 349 209
0.043605398 0.829 0.04505891 1.1059434e-38 350 209
0.044950206 0.82700002 0.044950206 1.115163e-38 351 209
0.046400212 0.82700002 0.044950206 1.1061954e-38 352 209
0.047850218 0.82700002 0.044950206 1.1338182e-38 353 209
0.049300224 0.82700002 0.044950206 1.1889919e-38 354 209
0.050750233 0.82700002 0.044950206 1.2350539e-38 355 209
0.052200239 0.82700002 0.044950206 1.2445255e-38 356 209
0.053520497 0.82499999 0.044841498 1.2722201e-38 357 209
0.054833744 0.82300001 0.044732794 1.3181371e-38 358 209
0.056276739 0.82300001 0.044732794 1.3366121e-38 359 209
0.057579465 0.82099998 0.044624086 1.3917141e-38 360 209
0.059018951 0.82099998 0.044624086 1.4101533e-38 361 209
0.060458437 0.82099998 0.044624086 1.4194453e-38 362 209
0.061897919 0.82099998 0.044624086 1.428665e-38 363 209
0.063645996 0.82499999 0.044841498 1.4195884e-38 364 209
0.065092497 0.82499999 0.044841498 1.4103688e-38 365 209
0.066538997 0.82499999 0.044841498 1.437883e-38 366 209
0.067985497 0.82499999 0.044841498 1.4286633e-38 367 209
0.069431998 0.82499999 0.044841498 1.3826728e-38 368 209
0.071050331 0.82700002 0.044950206 1.3734533e-38 369 209
0.072500333 0.82700002 0.044950206 1.3274624e-38 370 209
0.073950343 0.82700002 0.044950206 1.2906201e-38 371 209
0.075400345 0.82700002 0.044950206 1.2077182e-38 372 209
0.076850355 0.82700002 0.044950206 1.1247421e-38 373 209
0.078300357 0.82700002 0.044950206 9.7781093e-39 374 209
0.079750367 0.82700002 0.044950206 1.3004956e-38 375 209
-0.080414876 0.81900001 0.043079399 1.5856887e-38 264 210
-0.078593165 0.815 0.042869002 1.4473953e-38 265 210
-0.077164195 0.815 0.042869002 1.594328e-38 266 210
-0.075735234 0.815 0.042869002 1.6312423e-38 267 210
-0.074306265 0.815 0.042869002 1.6680454e-38 268 210
-0.072877295 0.815 0.042869002 1.6864846e-38 269 210
-0.071448334 0.815 0.042869002 1.6865549e-38 270 210
-0.07019119 0.81699997 0.042974196 1.704994e-38 271 210
-0.068758719 0.81699997 0.042974196 1.7325804e-38 272 210
-0.06732624 0.81699997 0.042974196 1.7049217e-38 273 210
-0.065893769 0.81699997 0.042974196 1.6588256e-38 274 210
-0.064461298 0.81699997 0.042974196 1.6680452e-38 275 210
-0.06302882 0.81699997 0.042974196 1.67723e-38 276 210
-0.061596353 0.81699997 0.042974196 1.6864495e-38 277 210
-0.060163878 0.81699997 0.042974196 1.6681533e-38 278 210
-0.058731399 0.81699997 0.042974196 1.6681533e-38 279 210
-0.057298932 0.81699997 0.042974196 1.659076e-38 280 210
-0.055866458 0.81699997 0.042974196 1.6314175e-38 281 210
-0.054433983 0.81699997 0.042974196 1.6129779e-38 282 210
-0.053001508 0.81699997 0.042974196 1.6037583e-38 283 210
-0.051569037 0.81699997 0.042974196 1.5944321e-38 284 210
-0.0502593 0.81900001 0.043079399 1.5759571e-38 285 210
-0.048823319 0.81900001 0.043079399 1.5391511e-38 286 210
-0.047387339 0.81900001 0.043079399 1.5207119e-38 287 210
-0.045951359 0.81900001 0.043079399 1.474685e-38 288 210
-0.044515379 0.81900001 0.043079399 1.4285874e-38 289 210
-0.043184597 0.82099998 0.043184597 1.3731254e-38 290 210
-0.041846808 0.82300001 0.043289799 1.2993689e-38 291 210
-0.040403813 0.82300001 0.043289799 1.2531281e-38 292 210
-0.038960818 0.82300001 0.043289799 1.2070303e-38 293 210
-0.037608996 0.82499999 0.043394998 1.1610063e-38 294 210
-0.036162499 0.82499999 0.043394998 1.1610063e-38 295 210
-0.034715999 0.82499999 0.043394998 1.1333133e-38 296 210
-0.033350151 0.82700002 0.0435002 1.1240579e-38 297 210
-0.031900145 0.82700002 0.0435002 1.1057269e-38 298 210
-0.030450139 0.82700002 0.0435002 1.0965074e-38 299 210
-0.029000133 0.82700002 0.0435002 1.0872877e-38 300 210
-0.027616752 0.829 0.043605398 1.0872877e-38 301 210
-0.02610012 0.82700002 0.0435002 1.0597733e-38 302 210
-0.024650112 0.82700002 0.0435002 1.0597733e-38 303 210
-0.023256212 0.829 0.043605398 1.059666e-38 304 210
-0.021802699 0.829 0.043605398 1.0504464e-38 305 210
-0.02039828 0.83099997 0.043710597 1.0045281e-38 306 210
-0.018941259 0.83099997 0.043710597 9.9527265e-39 307 210
0.035136797 0.83499998 0.043920998 9.0318871e-39 344 210
0.036600832 0.83499998 0.043920998 9.4006696e-39 345 210
0.037973695 0.833 0.043815799 9.3099005e-39 346 210
0.039339535 0.83099997 0.043710597 9.4946505e-39 347 210
0.040796559 0.83099997 0.043710597 1.0139291e-38 348 210
0.042151887 0.829 0.043605398 1.0231487e-38 349 210
0.043605398 0.829 0.043605398 1.0691729e-38 350 210
0.04505891 0.829 0.043605398 1.0967957e-38 351 210
0.046512425 0.829 0.043605398 1.0876838e-38 352 210
0.04796594 0.829 0.043605398 1.0969392e-38 353 210
0.049300224 0.82700002 0.0435002 1.1245269e-38 354 210
0.050750233 0.82700002 0.0435002 1.1337464e-38 355 210
0.052200239 0.82700002 0.0435002 1.1248513e-38 356 210
0.053520497 0.82499999 0.043394998 1.1801687e-38 357 210
0.054966997 0.82499999 0.043394998 1.2720396e-38 358 210
0.056413498 0.82499999 0.043394998 1.3089179e-38 359 210
0.057719734 0.82300001 0.043289799 1.3639481e-38 360 210
0.059162725 0.82300001 0.043289799 1.3731677e-38 361 210
0.060458437 0.82099998 0.043184597 1.364093e-38 362 210
0.061897919 0.82099998 0.043184597 1.3825321e-38 363 210
0.06349171 0.82300001 0.043289799 1.3826391e-38 364 210
0.064934701 0.82300001 0.043289799 1.3734195e-38 365 210
0.066377692 0.82300001 0.043289799 1.3826022e-38 366 210
0.067985497 0.82499999 0.043394998 1.3826022e-38 367 210
0.069431998 0.82499999 0.043394998 1.3641981e-38 368 210
0.070878498 0.82499999 0.043394998 1.3365753e-38 369 210
0.072500333 0.82700002 0.0435002 1.3089879e-38 370 210
0.073950343 0.82700002 0.0435002 1.2721455e-38 371 210
0.075400345 0.82700002 0.0435002 1.189351e-38 372 210
0.076850355 0.82700002 0.0435002 1.124814e-38 373 210
0.078300357 0.82700002 0.0435002 9.4078793e-39 374 210
0.079750367 0.82700002 0.0435002 1.3003507e-38 375 210
-0.081850857 0.81900001 0.041643418 1.5398453e-38 263 211
-0.080218501 0.81699997 0.041541722 1.539372e-38 264 211
-0.078593165 0.815 0.041440032 1.5209328e-38 265 211
-0.077164195 0.815 0.041440032 1.6221278e-38 266 211
-0.075735234 0.815 0.041440032 1.6589701e-38 267 211
-0.074306265 0.815 0.041440032 1.6773003e-38 268 211
-0.072877295 0.815 0.041440032 1.6957394e-38 269 211
-0.071448334 0.815 0.041440032 1.7233258e-38 270 211
-0.070019364 0.815 0.041440032 1.6772281e-38 271 211
-0.068590395 0.815 0.041440032 1.6495325e-38 272 211
-0.06732624 0.81699997 0.041541722 1.5665564e-38 273 211
-0.065893769 0.81699997 0.041541722 1.5391511e-38 274 211
-0.064461298 0.81699997 0.041541722 1.603688e-38 275 211
-0.06302882 0.81699997 0.041541722 1.6404237e-38 276 211
-0.061596353 0.81699997 0.041541722 1.6588987e-38 277 211
-0.060163878 0.81699997 0.041541722 1.6497139e-38 278 211
-0.058731399 0.81699997 0.041541722 1.6404944e-38 279 211
-0.057298932 0.81699997 0.041541722 1.6680438e-38 280 211
-0.055866458 0.81699997 0.041541722 1.6495688e-38 281 211
-0.054433983 0.81699997 0.041541722 1.6037221e-38 282 211
-0.053001508 0.81699997 0.041541722 1.5760274e-38 283 211
-0.051569037 0.81699997 0.041541722 1.5575529e-38 284 211
-0.050136562 0.81699997 0.041541722 1.5299302e-38 285 211
-0.048704091 0.81699997 0.041541722 1.5113832e-38 286 211
-0.047271617 0.81699997 0.041541722 1.4468463e-38 287 211
-0.045951359 0.81900001 0.041643418 1.3731972e-38 288 211
-0.044515379 0.81900001 0.041643418 1.2994407e-38 289 211
-0.043184597 0.82099998 0.041745111 1.2348682e-38 290 211
-0.041846808 0.82300001 0.041846808 1.1795508e-38 291 211
-0.040403813 0.82300001 0.041846808 1.1701893e-38 292 211
-0.038960818 0.82300001 0.041846808 1.1701893e-38 293 211
-0.037608996 0.82499999 0.041948497 1.1608638e-38 294 211
-0.036162499 0.82499999 0.041948497 1.1516443e-38 295 211
-0.034800157 0.82700002 0.04205019 1.1057266e-38 296 211
-0.033350151 0.82700002 0.04205019 1.0965071e-38 297 211
-0.031900145 0.82700002 0.04205019 1.0690279e-38 298 211
-0.030523779 0.829 0.042151887 1.0690279e-38 299 211
-0.029070266 0.829 0.042151887 1.0690282e-38 300 211
-0.027616752 0.829 0.042151887 1.0598085e-38 301 211
-0.026163239 0.829 0.042151887 1.0597729e-38 302 211
-0.024709726 0.829 0.042151887 1.0505533e-38 303 211
-0.023256212 0.829 0.042151887 1.0504461e-38 304 211
-0.021802699 0.829 0.042151887 1.032007e-38 305 211
-0.02039828 0.83099997 0.042253576 1.0135326e-38 306 211
0.042355273 0.833 0.042355273 9.955979e-39 349 211
0.043710597 0.83099997 0.042253576 1.0782846e-38 350 211
0.04505891 0.829 0.042151887 1.0875042e-38 351 211
0.046512425 0.829 0.042151887 1.0784641e-38 352 211
0.04796594 0.829 0.042151887 1.0876838e-38 353 211
0.049419452 0.829 0.042151887 1.1060153e-38 354 211
0.050750233 0.82700002 0.04205019 1.1152349e-38 355 211
0.052200239 0.82700002 0.04205019 1.1520055e-38 356 211
0.053650245 0.82700002 0.04205019 1.1981033e-38 357 211
0.054966997 0.82499999 0.041948497 1.170732e-38 358 211
0.056413498 0.82499999 0.041948497 1.2260494e-38 359 211
0.057719734 0.82300001 0.041846808 1.3269254e-38 360 211
0.059162725 0.82300001 0.041846808 1.3545842e-38 361 211
0.06060572 0.82300001 0.041846808 1.3362896e-38 362 211
0.062048711 0.82300001 0.041846808 1.345545e-38 363 211
0.06349171 0.82300001 0.041846808 1.3548715e-38 364 211
0.064934701 0.82300001 0.041846808 1.3548715e-38 365 211
0.066377692 0.82300001 0.041846808 1.3549068e-38 366 211
0.067985497 0.82499999 0.041948497 1.3456872e-38 367 211
0.069431998 0.82499999 0.041948497 1.345687e-38 368 211
0.070878498 0.82499999 0.041948497 1.3364674e-38 369 211
0.072324999 0.82499999 0.041948497 1.2996965e-38 370 211
0.073771499 0.82499999 0.041948497 1.2812572e-38 371 211
0.075400345 0.82700002 0.04205019 1.1617643e-38 372 211
0.076850355 0.82700002 0.04205019 1.1157023e-38 373 211
0.078300357 0.82700002 0.04205019 9.223844e-39 374 211
-0.083083443 0.81699997 0.040109251 1.6043071e-38 262 212
-0.08165098 0.81699997 0.040109251 1.4106963e-38 263 212
-0.080218501 0.81699997 0.040109251 1.5575921e-38 264 212
-0.078786023 0.81699997 0.040109251 1.6129095e-38 265 212
-0.077353559 0.81699997 0.040109251 1.6680805e-38 266 212
-0.075735234 0.815 0.040011063 1.6865196e-38 267 212
-0.074306265 0.815 0.040011063 1.7325451e-38 268 212
-0.072877295 0.815 0.040011063 1.7418007e-38 269 212
-0.071448334 0.815 0.040011063 1.7416217e-38 270 212
-0.070019364 0.815 0.040011063 1.6402426e-38 271 212
-0.068590395 0.815 0.040011063 1.5479741e-38 272 212
-0.067161433 0.815 0.040011063 1.5019123e-38 273 212
-0.065893769 0.81699997 0.040109251 1.5021289e-38 274 212
-0.064461298 0.81699997 0.040109251 1.6127278e-38 275 212
-0.06302882 0.81699997 0.040109251 1.6312043e-38 276 212
-0.061596353 0.81699997 0.040109251 1.6496436e-38 277 212
-0.060163878 0.81699997 0.040109251 1.6404591e-38 278 212
-0.058731399 0.81699997 0.040109251 1.6312394e-38 279 212
-0.057298932 0.81699997 0.040109251 1.6219829e-38 280 212
-0.055866458 0.81699997 0.040109251 1.6035438e-38 281 212
-0.054433983 0.81699997 0.040109251 1.5668078e-38 282 212
-0.053001508 0.81699997 0.040109251 1.5299655e-38 283 212
-0.051569037 0.81699997 0.040109251 1.5207807e-38 284 212
-0.050136562 0.81699997 0.040109251 1.4654634e-38 285 212
-0.048704091 0.81699997 0.040109251 1.4559564e-38 286 212
-0.047271617 0.81699997 0.040109251 1.3914195e-38 287 212
-0.045951359 0.81900001 0.040207438 1.2810739e-38 288 212
-0.044515379 0.81900001 0.040207438 1.2073174e-38 289 212
-0.043184597 0.82099998 0.040305622 1.1336002e-38 290 212
-0.041846808 0.82300001 0.040403813 1.1243804e-38 291 212
-0.040403813 0.82300001 0.040403813 1.1333496e-38 292 212
-0.038960818 0.82300001 0.040403813 1.12413e-38 293 212
-0.037608996 0.82499999 0.040502001 1.0965074e-38 294 212
-0.036162499 0.82499999 0.040502001 1.0965074e-38 295 212
-0.034800157 0.82700002 0.040600184 1.0690282e-38 296 212
-0.033350151 0.82700002 0.040600184 1.0598085e-38 297 212
-0.031977292 0.829 0.040698372 1.0781397e-38 298 212
-0.030523779 0.829 0.040698372 1.0873594e-38 299 212
-0.029070266 0.829 0.040698372 1.0598085e-38 300 212
-0.027616752 0.829 0.040698372 1.0598085e-38 301 212
-0.026163239 0.829 0.040698372 1.0321868e-38 302 212
-0.024709726 0.829 0.040698372 1.0137477e-38 303 212
-0.023312319 0.83099997 0.040796559 1.013497e-38 304 212
-0.021855298 0.83099997 0.040796559 9.7665458e-39 305 212
0.043710597 0.83099997 0.040796559 1.0138925e-38 350 212
0.045167617 0.83099997 0.040796559 1.0323317e-38 351 212
0.046624638 0.83099997 0.040796559 9.9581243e-39 352 212
0.04796594 0.829 0.040698372 1.0142155e-38 353 212
0.049419452 0.829 0.040698372 1.0692095e-38 354 212
0.050872963 0.829 0.040698372 1.0784292e-38 355 212
0.052200239 0.82700002 0.040600184 1.0876491e-38 356 212
0.053650245 0.82700002 0.040600184 1.0968686e-38 357 212
0.055100251 0.82700002 0.040600184 1.1154169e-38 358 212
0.056550261 0.82700002 0.040600184 1.1614787e-38 359 212
0.057859998 0.82499999 0.040502001 1.1891368e-38 360 212
0.059306499 0.82499999 0.040502001 1.2259791e-38 361 212
0.060752995 0.82499999 0.040502001 1.2811503e-38 362 212
0.062199496 0.82499999 0.040502001 1.2903699e-38 363 212
0.06349171 0.82300001 0.040403813 1.272147e-38 364 212
0.064934701 0.82300001 0.040403813 1.272147e-38 365 212
0.066377692 0.82300001 0.040403813 1.2905145e-38 366 212
0.067820683 0.82300001 0.040403813 1.2812949e-38 367 212
0.069263682 0.82300001 0.040403813 1.2813299e-38 368 212
0.070706673 0.82300001 0.040403813 1.2721102e-38 369 212
0.072149664 0.82300001 0.040403813 1.2353393e-38 370 212
0.073771499 0.82499999 0.040502001 1.2261198e-38 371 212
0.075217992 0.82499999 0.040502001 1.1800591e-38 372 212
0.076664492 0.82499999 0.040502001 1.1247418e-38 373 212
0.078300357 0.82700002 0.040600184 9.4064331e-39 374 212
-0.084515922 0.81699997 0.03867678 1.4845642e-38 261 213
-0.083083443 0.81699997 0.03867678 1.5118211e-38 262 213
-0.08165098 0.81699997 0.03867678 1.5026016e-38 263 213
-0.080218501 0.81699997 0.03867678 1.6404944e-38 264 213
-0.078786023 0.81699997 0.03867678 1.6681531e-38 265 213
-0.077353559 0.81699997 0.03867678 1.6590036e-38 266 213
-0.075735234 0.815 0.038582098 1.6866621e-38 267 213
-0.074306265 0.815 0.038582098 1.7326171e-38 268 213
-0.072877295 0.815 0.038582098 1.6680802e-38 269 213
-0.071448334 0.815 0.038582098 1.5940366e-38 270 213
-0.070019364 0.815 0.038582098 1.5202801e-38 271 213
-0.068590395 0.815 0.038582098 1.5201364e-38 272 213
-0.067161433 0.815 0.038582098 1.5385397e-38 273 213
-0.065732464 0.815 0.038582098 1.4928019e-38 274 213
-0.064461298 0.81699997 0.03867678 1.5849615e-38 275 213
-0.06302882 0.81699997 0.03867678 1.6127278e-38 276 213
-0.061596353 0.81699997 0.03867678 1.6219832e-38 277 213
-0.060163878 0.81699997 0.03867678 1.6403142e-38 278 213
-0.058731399 0.81699997 0.03867678 1.6126915e-38 279 213
-0.057298932 0.81699997 0.03867678 1.6127268e-38 280 213
-0.055866458 0.81699997 0.03867678 1.5758125e-38 281 213
-0.054433983 0.81699997 0.03867678 1.5114541e-38 282 213
-0.053001508 0.81699997 0.03867678 1.47454e-38 283 213
-0.051569037 0.81699997 0.03867678 1.4192582e-38 284 213
-0.050136562 0.81699997 0.03867678 1.3454658e-38 285 213
-0.048704091 0.81699997 0.03867678 1.3083714e-38 286 213
-0.047271617 0.81699997 0.03867678 1.2253953e-38 287 213
-0.045951359 0.81900001 0.038771462 1.1612919e-38 288 213
-0.044515379 0.81900001 0.038771462 1.1428168e-38 289 213
-0.043184597 0.82099998 0.03886614 1.1426045e-38 290 213
-0.041846808 0.82300001 0.038960818 1.1333849e-38 291 213
-0.040403813 0.82300001 0.038960818 1.1240579e-38 292 213
-0.039055496 0.82499999 0.039055496 1.1148383e-38 293 213
-0.037608996 0.82499999 0.039055496 1.1148383e-38 294 213
-0.036162499 0.82499999 0.039055496 1.1148383e-38 295 213
-0.034800157 0.82700002 0.039150178 1.0781397e-38 296 213
-0.033350151 0.82700002 0.039150178 1.0781397e-38 297 213
0.045276325 0.833 0.039434217 9.0362059e-39 351 213
0.046624638 0.83099997 0.039339535 1.0140373e-38 352 213
0.048081655 0.83099997 0.039339535 1.0140373e-38 353 213
0.049419452 0.829 0.039244857 1.087576e-38 354 213
0.050872963 0.829 0.039244857 1.0691729e-38 355 213
0.052326478 0.829 0.039244857 1.0875405e-38 356 213
0.053650245 0.82700002 0.039150178 1.096796e-38 357 213
0.055100251 0.82700002 0.039150178 1.1151635e-38 358 213
0.056550261 0.82700002 0.039150178 1.1427862e-38 359 213
0.057859998 0.82499999 0.039055496 1.2070711e-38 360 213
0.059306499 0.82499999 0.039055496 1.2531689e-38 361 213
0.060752995 0.82499999 0.039055496 1.2075383e-38 362 213
0.062199496 0.82499999 0.039055496 1.2259775e-38 363 213
0.06349171 0.82300001 0.038960818 1.2718949e-38 364 213
0.064934701 0.82300001 0.038960818 1.2718949e-38 365 213
0.066377692 0.82300001 0.038960818 1.2811853e-38 366 213
0.067820683 0.82300001 0.038960818 1.2904049e-38 367 213
0.069263682 0.82300001 0.038960818 1.2812925e-38 368 213
0.070706673 0.82300001 0.038960818 1.2628535e-38 369 213
0.072149664 0.82300001 0.038960818 1.2535987e-38 370 213
0.073592655 0.82300001 0.038960818 1.2443791e-38 371 213
0.075035654 0.82300001 0.038960818 1.1524374e-38 372 213
0.076478645 0.82300001 0.038960818 1.1247787e-38 373 213
0.077921636 0.82300001 0.038960818 1.0601386e-38 374 213
-0.084515922 0.81699997 0.037244301 1.4289562e-38 261 214
-0.083083443 0.81699997 0.037244301 1.539118e-38 262 214
-0.08165098 0.81699997 0.037244301 1.6036549e-38 263 214
-0.080218501 0.81699997 0.037244301 1.6680454e-38 264 214
-0.078593165 0.815 0.037153132 1.6864846e-38 265 214
-0.077164195 0.815 0.037153132 1.6957745e-38 266 214
-0.075735234 0.815 0.037153132 1.704994e-38 267 214
-0.074123919 0.81300002 0.03706196 1.6773356e-38 268 214
-0.072698459 0.81300002 0.03706196 1.5759204e-38 269 214
-0.071272999 0.81300002 0.03706196 1.5109534e-38 270 214
-0.069847539 0.81300002 0.03706196 1.5109534e-38 271 214
-0.068422079 0.81300002 0.03706196 1.4926239e-38 272 214
-0.067161433 0.815 0.037153132 1.511063e-38 273 214
-0.065732464 0.815 0.037153132 1.4929456e-38 274 214
-0.064303495 0.815 0.037153132 1.5574826e-38 275 214
-0.062874533 0.815 0.037153132 1.5942884e-38 276 214
-0.061596353 0.81699997 0.037244301 1.6035438e-38 277 214
-0.060163878 0.81699997 0.037244301 1.6034729e-38 278 214
-0.058731399 0.81699997 0.037244301 1.5758501e-38 279 214
-0.057298932 0.81699997 0.037244301 1.5207117e-38 280 214
-0.055866458 0.81699997 0.037244301 1.493089e-38 281 214
-0.054433983 0.81699997 0.037244301 1.4745047e-38 282 214
-0.053001508 0.81699997 0.037244301 1.4284427e-38 283 214
-0.051569037 0.81699997 0.037244301 1.3362838e-38 284 214
-0.050136562 0.81699997 0.037244301 1.2901859e-38 285 214
-0.048823319 0.81900001 0.037335481 1.2438752e-38 286 214
-0.047387339 0.81900001 0.037335481 1.2162165e-38 287 214
-0.045951359 0.81900001 0.037335481 1.1702283e-38 288 214
-0.044624086 0.82099998 0.037426651 1.1425694e-38 289 214
-0.043289799 0.82300001 0.037517827 1.1058354e-38 290 214
-0.041846808 0.82300001 0.037517827 1.0782127e-38 291 214
-0.040403813 0.82300001 0.037517827 1.0873241e-38 292 214
-0.039055496 0.82499999 0.037608996 1.0873241e-38 293 214
-0.037608996 0.82499999 0.037608996 1.0873594e-38 294 214
-0.036162499 0.82499999 0.037608996 1.0781397e-38 295 214
-0.034800157 0.82700002 0.037700173 1.0689926e-38 296 214
-0.033350151 0.82700002 0.037700173 1.0597729e-38 297 214
0.050995696 0.83099997 0.037882518 9.8641491e-39 355 214
0.052326478 0.829 0.037791345 1.0231134e-38 356 214
0.053650245 0.82700002 0.037700173 1.0231134e-38 357 214
0.055100251 0.82700002 0.037700173 1.0599196e-38 358 214
0.056550261 0.82700002 0.037700173 1.0691392e-38 359 214
0.058000267 0.82700002 0.037700173 1.0691756e-38 360 214
0.059306499 0.82499999 0.037608996 1.1060897e-38 361 214
0.060752995 0.82499999 0.037608996 1.142968e-38 362 214
0.062199496 0.82499999 0.037608996 1.1614071e-38 363 214
0.063645996 0.82499999 0.037608996 1.1707689e-38 364 214
0.064934701 0.82300001 0.037517827 1.1984636e-38 365 214
0.066377692 0.82300001 0.037517827 1.2444157e-38 366 214
0.067820683 0.82300001 0.037517827 1.2444157e-38 367 214
0.069263682 0.82300001 0.037517827 1.2628538e-38 368 214
0.070534848 0.82099998 0.037426651 1.2536343e-38 369 214
0.07197433 0.82099998 0.037426651 1.2169355e-38 370 214
0.073413812 0.82099998 0.037426651 1.2076801e-38 371 214
0.075035654 0.82300001 0.037517827 1.1616923e-38 372 214
0.07629279 0.82099998 0.037426651 1.1524727e-38 373 214
0.07773228 0.82099998 0.037426651 1.0512425e-38 374 214
-0.085738003 0.815 0.035724167 1.5117862e-38 260 215
-0.084309027 0.815 0.035724167 1.4472493e-38 261 215
-0.082880065 0.815 0.035724167 1.6312391e-38 262 215
-0.081451096 0.815 0.035724167 1.6497142e-38 263 215
-0.080022126 0.815 0.035724167 1.6589691e-38 264 215
-0.078593165 0.815 0.035724167 1.6865918e-38 265 215
-0.077164195 0.815 0.035724167 1.7325824e-38 266 215
-0.075549379 0.81300002 0.0356365 1.7325824e-38 267 215
-0.074123919 0.81300002 0.0356365 1.5759943e-38 268 215
-0.072698459 0.81300002 0.0356365 1.45614e-38 269 215
-0.071272999 0.81300002 0.0356365 1.4739321e-38 270 215
-0.069847539 0.81300002 0.0356365 1.5016267e-38 271 215
-0.068422079 0.81300002 0.0356365 1.4833671e-38 272 215
-0.066996619 0.81300002 0.0356365 1.5202453e-38 273 215
-0.065571159 0.81300002 0.0356365 1.5114202e-38 274 215
-0.064303495 0.815 0.035724167 1.5298952e-38 275 215
-0.062874533 0.815 0.035724167 1.5759207e-38 276 215
-0.06144556 0.815 0.035724167 1.5759207e-38 277 215
-0.060163878 0.81699997 0.03581183 1.5849968e-38 278 215
-0.058731399 0.81699997 0.03581183 1.5573741e-38 279 215
-0.057298932 0.81699997 0.03581183 1.5113832e-38 280 215
-0.055866458 0.81699997 0.03581183 1.4284071e-38 281 215
-0.054433983 0.81699997 0.03581183 1.382237e-38 282 215
-0.053001508 0.81699997 0.03581183 1.3177001e-38 283 215
-0.051569037 0.81699997 0.03581183 1.225578e-38 284 215
-0.0502593 0.81900001 0.035899501 1.1887358e-38 285 215
-0.048823319 0.81900001 0.035899501 1.2069969e-38 286 215
-0.047387339 0.81900001 0.035899501 1.1793383e-38 287 215
-0.045951359 0.81900001 0.035899501 1.1333496e-38 288 215
-0.044624086 0.82099998 0.035987165 1.12413e-38 289 215
-0.043289799 0.82300001 0.036074832 1.1056913e-38 290 215
-0.041846808 0.82300001 0.036074832 1.1056913e-38 291 215
