# .PCD v.7 - Point Cloud Data file format
FIELDS x y z rgb imX imY
SIZE 4 4 4 4 4 4
TYPE F F F F F F
COUNT 1 1 1 1 1 1
WIDTH 840
HEIGHT 1
VIEWPOINT 0 0 0 1 0 0 0
POINTS 840
DATA ascii
0.0173843 0.66100001 -0.095034167 1.73233e-38 335 322
0.018543253 0.66100001 -0.095034167 1.7598798e-38 336 322
0.019702207 0.66100001 -0.095034167 1.7690994e-38 337 322
0.02086116 0.66100001 -0.095034167 1.75077e-38 338 322
0.022020113 0.66100001 -0.095034167 1.7692092e-38 339 322
0.023179067 0.66100001 -0.095034167 1.7050354e-38 340 322
0.024374841 0.662 -0.095177941 1.7326582e-38 341 322
0.025535546 0.662 -0.095177941 1.7326607e-38 342 322
0.026696252 0.662 -0.095177941 1.7603193e-38 343 322
0.027941117 0.66399997 -0.095465489 1.7512463e-38 344 322
-0.071067855 0.68699998 -0.099976815 1.3272504e-38 261 323
-0.06955824 0.68400002 -0.099540241 1.3455425e-38 262 323
-0.068259016 0.68300003 -0.099394716 1.3178838e-38 263 323
-0.067061491 0.68300003 -0.099394716 1.3178109e-38 264 323
-0.065767527 0.68199998 -0.099249184 1.2994078e-38 265 323
-0.064382397 0.68000001 -0.098958135 1.2994078e-38 266 323
-0.063190132 0.68000001 -0.098958135 1.3178109e-38 267 323
-0.061906695 0.67900002 -0.09881261 1.3178112e-38 268 323
-0.060626756 0.67799997 -0.09866707 1.3270308e-38 269 323
-0.059262663 0.676 -0.098376028 1.3271387e-38 270 323
-0.057991501 0.67500001 -0.098230496 1.3547974e-38 271 323
-0.056808002 0.67500001 -0.098230496 1.3457573e-38 272 323
-0.055542093 0.67400002 -0.098084971 1.3641964e-38 273 323
-0.054118387 0.671 -0.09764839 1.4285533e-38 274 323
-0.052941896 0.671 -0.09764839 1.4470283e-38 275 323
-0.051765412 0.671 -0.09764839 1.4563185e-38 276 323
-0.050513536 0.67000002 -0.097502865 1.4747216e-38 277 323
-0.049338799 0.67000002 -0.097502865 1.5297867e-38 278 323
-0.048020288 0.66799998 -0.097211808 1.5482617e-38 279 323
-0.046849065 0.66799998 -0.097211808 1.5757772e-38 280 323
-0.045609459 0.667 -0.097066283 1.5849968e-38 281 323
-0.044439986 0.667 -0.097066283 1.5942166e-38 282 323
-0.043205637 0.66600001 -0.096920758 1.6126559e-38 283 323
-0.042037919 0.66600001 -0.096920758 1.5851767e-38 284 323
-0.040870197 0.66600001 -0.096920758 1.6036517e-38 285 323
-0.039583251 0.66399997 -0.096629702 1.6312741e-38 286 323
-0.038419038 0.66399997 -0.096629702 1.6312741e-38 287 323
-0.037254825 0.66399997 -0.096629702 1.6680452e-38 288 323
-0.036036257 0.66299999 -0.096484177 1.6680452e-38 289 323
-0.034873798 0.66299999 -0.096484177 1.6772281e-38 290 323
-0.033711337 0.66299999 -0.096484177 1.6864477e-38 291 323
-0.032548878 0.66299999 -0.096484177 1.7232537e-38 292 323
-0.031386416 0.66299999 -0.096484177 1.7416568e-38 293 323
-0.030223956 0.66299999 -0.096484177 1.7416217e-38 294 323
-0.029061496 0.66299999 -0.096484177 1.7508414e-38 295 323
-0.027856959 0.662 -0.096338652 1.7600243e-38 296 323
-0.026696252 0.662 -0.096338652 1.7692799e-38 297 323
-0.025496973 0.66100001 -0.096193127 1.7694587e-38 298 323
-0.02433802 0.66100001 -0.096193127 1.7694587e-38 299 323
-0.023179067 0.66100001 -0.096193127 1.7969023e-38 300 323
-0.022053426 0.662 -0.096338652 1.8153773e-38 301 323
-0.020892721 0.662 -0.096338652 1.7878277e-38 302 323
-0.019732011 0.662 -0.096338652 1.7970474e-38 303 323
-0.018571306 0.662 -0.096338652 1.8245263e-38 304 323
-0.017410601 0.662 -0.096338652 1.8245263e-38 305 323
-0.016274439 0.66299999 -0.096484177 1.8338181e-38 306 323
-0.015111978 0.66299999 -0.096484177 1.8430376e-38 307 323
-0.013949519 0.66299999 -0.096484177 1.8430376e-38 308 323
-0.012767773 0.662 -0.096338652 1.8522572e-38 309 323
-0.011607066 0.662 -0.096338652 1.8706956e-38 310 323
-0.01044636 0.662 -0.096338652 1.8706956e-38 311 323
-0.0092716264 0.66100001 -0.096193127 1.8523641e-38 312 323
-0.0081126727 0.66100001 -0.096193127 1.8523641e-38 313 323
-0.00695372 0.66100001 -0.096193127 1.8707312e-38 314 323
-0.0057947668 0.66100001 -0.096193127 1.8707312e-38 315 323
-0.0046358132 0.66100001 -0.096193127 1.8523641e-38 316 323
-0.00347686 0.66100001 -0.096193127 1.8431445e-38 317 323
-0.0023214133 0.662 -0.096338652 1.8431801e-38 318 323
-0.0011607066 0.662 -0.096338652 1.8339247e-38 319 323
0 0.662 -0.096338652 1.8338884e-38 320 323
0.0011607066 0.662 -0.096338652 1.8246688e-38 321 323
0.0023214133 0.662 -0.096338652 1.8245965e-38 322 323
0.0034821199 0.662 -0.096338652 1.815377e-38 323 323
0.0046358132 0.66100001 -0.096193127 1.8153417e-38 324 323
0.0057947668 0.66100001 -0.096193127 1.8061221e-38 325 323
0.0069642398 0.662 -0.096338652 1.7968304e-38 326 323
0.0081249457 0.662 -0.096338652 1.7691715e-38 327 323
0.009285653 0.662 -0.096338652 1.7414404e-38 328 323
0.01043058 0.66100001 -0.096193127 1.6769035e-38 329 323
0.011589534 0.66100001 -0.096193127 1.6489934e-38 330 323
0.012748486 0.66100001 -0.096193127 1.6305541e-38 331 323
0.01390744 0.66100001 -0.096193127 1.6123318e-38 332 323
0.015066394 0.66100001 -0.096193127 1.6307709e-38 333 323
0.016225345 0.66100001 -0.096193127 1.5940018e-38 334 323
0.0173843 0.66100001 -0.096193127 1.6124409e-38 335 323
0.018543253 0.66100001 -0.096193127 1.6676861e-38 336 323
0.019702207 0.66100001 -0.096193127 1.6953447e-38 337 323
0.02086116 0.66100001 -0.096193127 1.6769779e-38 338 323
0.022020113 0.66100001 -0.096193127 1.6954171e-38 339 323
0.023179067 0.66100001 -0.096193127 1.6771949e-38 340 323
0.02433802 0.66100001 -0.096193127 1.6864145e-38 341 323
0.025496973 0.66100001 -0.096193127 1.7139656e-38 342 323
0.026696252 0.662 -0.096338652 1.7139656e-38 343 323
0.027856959 0.662 -0.096338652 1.6956355e-38 344 323
0.02910533 0.66399997 -0.096629702 1.7048909e-38 345 323
0.030360719 0.66600001 -0.096920758 1.7141846e-38 346 323
0.031528439 0.66600001 -0.096920758 1.7602824e-38 347 323
0.032696161 0.66600001 -0.096920758 1.7145475e-38 348 323
-0.06955824 0.68400002 -0.10073952 1.3087738e-38 262 324
-0.068259016 0.68300003 -0.10059224 1.2718954e-38 263 324
-0.067061491 0.68300003 -0.10059224 1.2901176e-38 264 324
-0.065767527 0.68199998 -0.10044495 1.2808979e-38 265 324
-0.064382397 0.68000001 -0.10015039 1.2992647e-38 266 324
-0.063190132 0.68000001 -0.10015039 1.317704e-38 267 324
-0.061906695 0.67900002 -0.10000312 1.2993725e-38 268 324
-0.060626756 0.67799997 -0.099855833 1.3178115e-38 269 324
-0.059262663 0.676 -0.099561274 1.3086993e-38 270 324
-0.057991501 0.67500001 -0.099413998 1.3086993e-38 271 324
-0.056808002 0.67500001 -0.099413998 1.3272093e-38 272 324
-0.055542093 0.67400002 -0.099266715 1.3456124e-38 273 324
-0.054118387 0.671 -0.098824874 1.3916378e-38 274 324
-0.052941896 0.671 -0.098824874 1.4101128e-38 275 324
-0.051688269 0.67000002 -0.098677598 1.4194394e-38 276 324
-0.050513536 0.67000002 -0.098677598 1.4378785e-38 277 324
-0.04919152 0.66799998 -0.098383039 1.4837242e-38 278 324
-0.048020288 0.66799998 -0.098383039 1.5021992e-38 279 324
-0.046778932 0.667 -0.098235756 1.5297147e-38 280 324
-0.045609459 0.667 -0.098235756 1.5389344e-38 281 324
-0.04437336 0.66600001 -0.098088481 1.5573738e-38 282 324
-0.043205637 0.66600001 -0.098088481 1.5850324e-38 283 324
-0.041911677 0.66399997 -0.097793914 1.5667006e-38 284 324
-0.040747464 0.66399997 -0.097793914 1.5943591e-38 285 324
-0.039583251 0.66399997 -0.097793914 1.585212e-38 286 324
-0.038419038 0.66399997 -0.097793914 1.5759925e-38 287 324
-0.037254825 0.66399997 -0.097793914 1.6219827e-38 288 324
-0.036036257 0.66299999 -0.097646631 1.6219827e-38 289 324
-0.034873798 0.66299999 -0.097646631 1.6403129e-38 290 324
-0.033711337 0.66299999 -0.097646631 1.6495325e-38 291 324
-0.032548878 0.66299999 -0.097646631 1.6587523e-38 292 324
-0.031386416 0.66299999 -0.097646631 1.6955947e-38 293 324
-0.030223956 0.66299999 -0.097646631 1.7230741e-38 294 324
-0.029017664 0.662 -0.097499363 1.7230741e-38 295 324
-0.027856959 0.662 -0.097499363 1.732329e-38 296 324
-0.026696252 0.662 -0.097499363 1.7415486e-38 297 324
-0.025496973 0.66100001 -0.09735208 1.714141e-38 298 324
-0.02433802 0.66100001 -0.09735208 1.714141e-38 299 324
-0.023179067 0.66100001 -0.09735208 1.7691713e-38 300 324
-0.022020113 0.66100001 -0.09735208 1.7876105e-38 301 324
-0.02086116 0.66100001 -0.09735208 1.7600969e-38 302 324
-0.019702207 0.66100001 -0.09735208 1.778536e-38 303 324
-0.018571306 0.662 -0.097499363 1.8060152e-38 304 324
-0.017410601 0.662 -0.097499363 1.8060152e-38 305 324
-0.016249891 0.662 -0.097499363 1.7785726e-38 306 324
-0.015066394 0.66100001 -0.09735208 1.7970118e-38 307 324
-0.01390744 0.66100001 -0.09735208 1.8337462e-38 308 324
-0.012748486 0.66100001 -0.09735208 1.8337462e-38 309 324
-0.011589534 0.66100001 -0.09735208 1.833925e-38 310 324
-0.01043058 0.66100001 -0.09735208 1.833925e-38 311 324
-0.0092716264 0.66100001 -0.09735208 1.8523275e-38 312 324
-0.0081126727 0.66100001 -0.09735208 1.8523275e-38 313 324
-0.00695372 0.66100001 -0.09735208 1.870659e-38 314 324
-0.0057947668 0.66100001 -0.09735208 1.870659e-38 315 324
-0.0046358132 0.66100001 -0.09735208 1.8522922e-38 316 324
-0.00347686 0.66100001 -0.09735208 1.8430727e-38 317 324
-0.0023179066 0.66100001 -0.09735208 1.8614392e-38 318 324
-0.0011589533 0.66100001 -0.09735208 1.8614392e-38 319 324
0 0.66100001 -0.09735208 1.8246683e-38 320 324
0.0011589533 0.66100001 -0.09735208 1.8154486e-38 321 324
0.0023108933 0.65899998 -0.097057514 1.8154842e-38 322 324
0.0034663398 0.65899998 -0.097057514 1.8062646e-38 323 324
0.0046217865 0.65899998 -0.097057514 1.8244886e-38 324 324
0.0057772328 0.65899998 -0.097057514 1.8060855e-38 325 324
0.0069326796 0.65899998 -0.097057514 1.7876105e-38 326 324
0.0081126727 0.66100001 -0.09735208 1.732329e-38 327 324
0.0092716264 0.66100001 -0.09735208 1.7138176e-38 328 324
0.010399019 0.65899998 -0.097057514 1.6123665e-38 329 324
0.011554466 0.65899998 -0.097057514 1.6213358e-38 330 324
0.012748486 0.66100001 -0.09735208 1.5844936e-38 331 324
0.01390744 0.66100001 -0.09735208 1.6027892e-38 332 324
0.015066394 0.66100001 -0.09735208 1.5659468e-38 333 324
0.016225345 0.66100001 -0.09735208 1.5016973e-38 334 324
0.0173843 0.66100001 -0.09735208 1.4924419e-38 335 324
0.018543253 0.66100001 -0.09735208 1.5017323e-38 336 324
0.019702207 0.66100001 -0.09735208 1.4925128e-38 337 324
0.02086116 0.66100001 -0.09735208 1.5109163e-38 338 324
0.022020113 0.66100001 -0.09735208 1.5754532e-38 339 324
0.023179067 0.66100001 -0.09735208 1.6216958e-38 340 324
0.02433802 0.66100001 -0.09735208 1.6585741e-38 341 324
0.025496973 0.66100001 -0.09735208 1.6954878e-38 342 324
0.026655925 0.66100001 -0.09735208 1.7231104e-38 343 324
0.027856959 0.662 -0.097499363 1.7415498e-38 344 324
0.029017664 0.662 -0.097499363 1.7507694e-38 345 324
0.030269546 0.66399997 -0.097793914 1.7324401e-38 346 324
0.031433757 0.66399997 -0.097793914 1.7692824e-38 347 324
0.032696161 0.66600001 -0.098088481 1.7325514e-38 348 324
0.03386388 0.66600001 -0.098088481 1.7602102e-38 349 324
-0.068358958 0.68400002 -0.1019388 1.2443103e-38 263 325
-0.0669633 0.68199998 -0.10164072 1.2625314e-38 264 325
-0.065767527 0.68199998 -0.10164072 1.2533118e-38 265 325
-0.064382397 0.68000001 -0.10134266 1.2533484e-38 266 325
-0.063190132 0.68000001 -0.10134266 1.2625681e-38 267 325
-0.061997864 0.68000001 -0.10134266 1.2902251e-38 268 325
-0.060626756 0.67799997 -0.1010446 1.2902251e-38 269 325
-0.059437994 0.67799997 -0.1010446 1.2902601e-38 270 325
-0.058077414 0.676 -0.10074653 1.2902601e-38 271 325
-0.056808002 0.67500001 -0.10059749 1.3270305e-38 272 325
-0.055377278 0.67199999 -0.10015039 1.3270305e-38 273 325
-0.054118387 0.671 -0.10000136 1.3272459e-38 274 325
-0.052941896 0.671 -0.10000136 1.3364656e-38 275 325
-0.051688269 0.67000002 -0.099852331 1.3733416e-38 276 325
-0.050513536 0.67000002 -0.099852331 1.3918166e-38 277 325
-0.04919152 0.66799998 -0.099554263 1.4102197e-38 278 325
-0.047948405 0.667 -0.099405229 1.428659e-38 279 325
-0.046778932 0.667 -0.099405229 1.45614e-38 280 325
-0.045541082 0.66600001 -0.099256195 1.4653595e-38 281 325
-0.04437336 0.66600001 -0.099256195 1.4746144e-38 282 325
-0.043205637 0.66600001 -0.099256195 1.4930537e-38 283 325
-0.041911677 0.66399997 -0.098958127 1.5114921e-38 284 325
-0.040747464 0.66399997 -0.098958127 1.5207117e-38 285 325
-0.039583251 0.66399997 -0.098958127 1.5391511e-38 286 325
-0.038419038 0.66399997 -0.098958127 1.5299315e-38 287 325
-0.037254825 0.66399997 -0.098958127 1.5483709e-38 288 325
-0.036036257 0.66299999 -0.098809093 1.5483709e-38 289 325
-0.034873798 0.66299999 -0.098809093 1.5667021e-38 290 325
-0.033711337 0.66299999 -0.098809093 1.5759218e-38 291 325
-0.032548878 0.66299999 -0.098809093 1.5851064e-38 292 325
-0.031339079 0.662 -0.098660067 1.6035814e-38 293 325
-0.030178372 0.662 -0.098660067 1.6402441e-38 294 325
-0.029017664 0.662 -0.098660067 1.6494637e-38 295 325
-0.02781488 0.66100001 -0.098511033 1.6587538e-38 296 325
-0.026655925 0.66100001 -0.098511033 1.6587538e-38 297 325
-0.025496973 0.66100001 -0.098511033 1.6588605e-38 298 325
-0.02433802 0.66100001 -0.098511033 1.6680802e-38 299 325
-0.023179067 0.66100001 -0.098511033 1.7047073e-38 300 325
-0.022020113 0.66100001 -0.098511033 1.73233e-38 301 325
-0.02086116 0.66100001 -0.098511033 1.7140003e-38 302 325
-0.019702207 0.66100001 -0.098511033 1.7232199e-38 303 325
-0.018543253 0.66100001 -0.098511033 1.7232555e-38 304 325
-0.0173843 0.66100001 -0.098511033 1.7324752e-38 305 325
-0.016225345 0.66100001 -0.098511033 1.7325118e-38 306 325
-0.015020805 0.65899998 -0.098212965 1.7509868e-38 307 325
-0.013865359 0.65899998 -0.098212965 1.7509512e-38 308 325
-0.012709912 0.65899998 -0.098212965 1.7601707e-38 309 325
-0.011554466 0.65899998 -0.098212965 1.8061587e-38 310 325
-0.010399019 0.65899998 -0.098212965 1.8061587e-38 311 325
-0.0092435731 0.65899998 -0.098212965 1.7971546e-38 312 325
-0.0080881258 0.65899998 -0.098212965 1.7971546e-38 313 325
-0.0069326796 0.65899998 -0.098212965 1.8520774e-38 314 325
-0.0057772328 0.65899998 -0.098212965 1.8520774e-38 315 325
-0.0046217865 0.65899998 -0.098212965 1.806232e-38 316 325
-0.0034663398 0.65899998 -0.098212965 1.806232e-38 317 325
-0.0023108933 0.65899998 -0.098212965 1.806232e-38 318 325
-0.0011554466 0.65899998 -0.098212965 1.806232e-38 319 325
0 0.65799999 -0.098063931 1.7787159e-38 320 325
0.0011536933 0.65799999 -0.098063931 1.7787159e-38 321 325
0.0023073866 0.65799999 -0.098063931 1.7695313e-38 322 325
0.0034610799 0.65799999 -0.098063931 1.7695313e-38 323 325
0.0046147732 0.65799999 -0.098063931 1.8061574e-38 324 325
0.0057684663 0.65799999 -0.098063931 1.7876824e-38 325 325
0.0069221598 0.65799999 -0.098063931 1.7875741e-38 326 325
0.0080758529 0.65799999 -0.098063931 1.7598795e-38 327 325
0.0092295464 0.65799999 -0.098063931 1.6863384e-38 328 325
0.01038324 0.65799999 -0.098063931 1.6033265e-38 329 325
0.011536933 0.65799999 -0.098063931 1.6031472e-38 330 325
0.012709912 0.65899998 -0.098212965 1.566269e-38 331 325
0.013865359 0.65899998 -0.098212965 1.5660175e-38 332 325
0.015020805 0.65899998 -0.098212965 1.5383229e-38 333 325
0.016176252 0.65899998 -0.098212965 1.4555992e-38 334 325
0.017331699 0.65899998 -0.098212965 1.4371601e-38 335 325
0.018487146 0.65899998 -0.098212965 1.409574e-38 336 325
0.019642593 0.65899998 -0.098212965 1.409574e-38 337 325
0.020798039 0.65899998 -0.098212965 1.4373415e-38 338 325
0.021953486 0.65899998 -0.098212965 1.5018785e-38 339 325
0.023108931 0.65899998 -0.098212965 1.5572312e-38 340 325
0.024264378 0.65899998 -0.098212965 1.6125125e-38 341 325
0.025496973 0.66100001 -0.098511033 1.6954148e-38 342 325
0.026655925 0.66100001 -0.098511033 1.7415486e-38 343 325
0.02781488 0.66100001 -0.098511033 1.750805e-38 344 325
0.028973831 0.66100001 -0.098511033 1.7692443e-38 345 325
0.030178372 0.662 -0.098660067 1.7691739e-38 346 325
0.031386416 0.66299999 -0.098809093 1.787577e-38 347 325
0.032548878 0.66299999 -0.098809093 1.7415514e-38 348 325
0.033711337 0.66299999 -0.098809093 1.7231483e-38 349 325
0.034873798 0.66299999 -0.098809093 1.6681549e-38 350 325
0.036036257 0.66299999 -0.098809093 1.6865941e-38 351 325
0.037198719 0.66299999 -0.098809093 1.6867421e-38 352 325
0.038361177 0.66299999 -0.098809093 1.7697541e-38 353 325
-0.068558842 0.68599999 -0.10343964 1.1892475e-38 263 326
-0.0669633 0.68199998 -0.1028365 1.2166879e-38 264 326
-0.065767527 0.68199998 -0.1028365 1.1982128e-38 265 326
-0.064382397 0.68000001 -0.10253493 1.2533491e-38 266 326
-0.063190132 0.68000001 -0.10253493 1.2625687e-38 267 326
-0.061997864 0.68000001 -0.10253493 1.2993731e-38 268 326
-0.060716182 0.67900002 -0.10238414 1.2901176e-38 269 326
-0.059175 0.67500001 -0.101781 1.2901529e-38 270 326
-0.057991501 0.67500001 -0.101781 1.2901529e-38 271 326
-0.056723841 0.67400002 -0.10163021 1.3085551e-38 272 326
-0.055377278 0.67199999 -0.10132863 1.3085551e-38 273 326
-0.054118387 0.671 -0.10117785 1.3178094e-38 274 326
-0.052941896 0.671 -0.10117785 1.3270289e-38 275 326
-0.051688269 0.67000002 -0.10102707 1.3179516e-38 276 326
-0.050513536 0.67000002 -0.10102707 1.3456462e-38 277 326
-0.04919152 0.66799998 -0.10072549 1.3824888e-38 278 326
-0.047948405 0.667 -0.1005747 1.400928e-38 279 326
-0.046778932 0.667 -0.1005747 1.4651778e-38 280 326
-0.045541082 0.66600001 -0.10042392 1.4743975e-38 281 326
-0.04437336 0.66600001 -0.10042392 1.4745403e-38 282 326
-0.043205637 0.66600001 -0.10042392 1.4929794e-38 283 326
-0.041911677 0.66399997 -0.10012234 1.5113103e-38 284 326
-0.040747464 0.66399997 -0.10012234 1.5205658e-38 285 326
-0.039583251 0.66399997 -0.10012234 1.5114188e-38 286 326
-0.038419038 0.66399997 -0.10012234 1.5114188e-38 287 326
-0.037198719 0.66299999 -0.099971555 1.5297497e-38 288 326
-0.036036257 0.66299999 -0.099971555 1.5390052e-38 289 326
-0.034873798 0.66299999 -0.099971555 1.5940703e-38 290 326
-0.033660494 0.662 -0.09982077 1.6032899e-38 291 326
-0.032499783 0.662 -0.09982077 1.6033265e-38 292 326
-0.031291738 0.66100001 -0.099669985 1.6033265e-38 293 326
-0.030132787 0.66100001 -0.099669985 1.6309131e-38 294 326
-0.028973831 0.66100001 -0.099669985 1.6401327e-38 295 326
-0.02781488 0.66100001 -0.099669985 1.6493873e-38 296 326
-0.026575271 0.65899998 -0.099368408 1.6493873e-38 297 326
-0.025419824 0.65899998 -0.099368408 1.6586789e-38 298 326
-0.024264378 0.65899998 -0.099368408 1.6402758e-38 299 326
-0.023108931 0.65899998 -0.099368408 1.6770464e-38 300 326
-0.021953486 0.65899998 -0.099368408 1.6954854e-38 301 326
-0.020798039 0.65899998 -0.099368408 1.6954145e-38 302 326
-0.019702207 0.66100001 -0.099669985 1.7138895e-38 303 326
-0.018543253 0.66100001 -0.099669985 1.713819e-38 304 326
-0.017331699 0.65899998 -0.099368408 1.7322581e-38 305 326
-0.016176252 0.65899998 -0.099368408 1.6864483e-38 306 326
-0.014998012 0.65799999 -0.099217616 1.7140709e-38 307 326
-0.01384432 0.65799999 -0.099217616 1.7415852e-38 308 326
-0.012690626 0.65799999 -0.099217616 1.7415852e-38 309 326
-0.011536933 0.65799999 -0.099217616 1.7509116e-38 310 326
-0.01038324 0.65799999 -0.099217616 1.7693868e-38 311 326
-0.0092295464 0.65799999 -0.099217616 1.8060855e-38 312 326
-0.0080881258 0.65899998 -0.099368408 1.8060855e-38 313 326
-0.0069221598 0.65799999 -0.099217616 1.8243817e-38 314 326
-0.0057684663 0.65799999 -0.099217616 1.8243817e-38 315 326
-0.0046147732 0.65799999 -0.099217616 1.8243464e-38 316 326
-0.0034610799 0.65799999 -0.099217616 1.8243464e-38 317 326
-0.0023073866 0.65799999 -0.099217616 1.7967953e-38 318 326
-0.0011536933 0.65799999 -0.099217616 1.7967953e-38 319 326
0 0.65799999 -0.099217616 1.8242742e-38 320 326
0.0011536933 0.65799999 -0.099217616 1.8242742e-38 321 326
0.0023073866 0.65799999 -0.099217616 1.8151622e-38 322 326
0.0034610799 0.65799999 -0.099217616 1.8151622e-38 323 326
0.0046147732 0.65799999 -0.099217616 1.8151972e-38 324 326
0.0057684663 0.65799999 -0.099217616 1.8151972e-38 325 326
0.0069116396 0.65700001 -0.099066831 1.7692443e-38 326 326
0.0080635799 0.65700001 -0.099066831 1.7692443e-38 327 326
0.0092155198 0.65700001 -0.099066831 1.7783209e-38 328 326
0.01036746 0.65700001 -0.099066831 1.7783209e-38 329 326
0.011519399 0.65700001 -0.099066831 1.7691012e-38 330 326
0.01267134 0.65700001 -0.099066831 1.7322231e-38 331 326
0.01384432 0.65799999 -0.099217616 1.7137117e-38 332 326
0.015020805 0.65899998 -0.099368408 1.686053e-38 333 326
0.016176252 0.65899998 -0.099368408 1.649247e-38 334 326
0.017331699 0.65899998 -0.099368408 1.6584666e-38 335 326
0.018487146 0.65899998 -0.099368408 1.6218054e-38 336 326
0.019612785 0.65799999 -0.099217616 1.6494639e-38 337 326
0.02076648 0.65799999 -0.099217616 1.6679395e-38 338 326
0.021920172 0.65799999 -0.099217616 1.6864145e-38 339 326
0.023073865 0.65799999 -0.099217616 1.7047808e-38 340 326
0.024264378 0.65899998 -0.099368408 1.7047808e-38 341 326
0.025419824 0.65899998 -0.099368408 1.7232902e-38 342 326
0.026655925 0.66100001 -0.099669985 1.7417654e-38 343 326
0.027730718 0.65899998 -0.099368408 1.7509122e-38 344 326
0.028886165 0.65899998 -0.099368408 1.7693515e-38 345 326
0.030132787 0.66100001 -0.099669985 1.7876827e-38 346 326
0.031339079 0.662 -0.09982077 1.7692796e-38 347 326
0.032499783 0.662 -0.09982077 1.7325451e-38 348 326
0.033660494 0.662 -0.09982077 1.7233255e-38 349 326
0.034821201 0.662 -0.09982077 1.7140709e-38 350 326
0.035981905 0.662 -0.09982077 1.7232905e-38 351 326
0.037142612 0.662 -0.09982077 1.6956343e-38 352 326
0.038303319 0.662 -0.09982077 1.6956343e-38 353 326
0.039464023 0.662 -0.09982077 1.6681957e-38 354 326
0.04062473 0.662 -0.09982077 1.723513e-38 355 326
0.041785441 0.662 -0.09982077 1.7144772e-38 356 326
0.042946145 0.662 -0.09982077 1.7513554e-38 357 326
0.044106852 0.662 -0.09982077 1.7699763e-38 358 326
-0.06735605 0.68599999 -0.10464244 1.2442021e-38 264 327
-0.065767527 0.68199998 -0.10403228 1.225727e-38 265 327
-0.064382397 0.68000001 -0.1037272 1.1982478e-38 266 327
-0.063190132 0.68000001 -0.1037272 1.1982478e-38 267 327
-0.061997864 0.68000001 -0.1037272 1.2626037e-38 268 327
-0.060716182 0.67900002 -0.10357466 1.2626037e-38 269 327
-0.059175 0.67500001 -0.1029645 1.2901529e-38 270 327
-0.057991501 0.67500001 -0.1029645 1.2901529e-38 271 327
-0.056723841 0.67400002 -0.10281195 1.2901882e-38 272 327
-0.055377278 0.67199999 -0.10250688 1.2901882e-38 273 327
-0.054118387 0.671 -0.10235433 1.290188e-38 274 327
-0.052941896 0.671 -0.10235433 1.290188e-38 275 327
-0.051688269 0.67000002 -0.1022018 1.2902601e-38 276 327
-0.050513536 0.67000002 -0.1022018 1.2994797e-38 277 327
-0.04919152 0.66799998 -0.10189671 1.2995168e-38 278 327
-0.047948405 0.667 -0.10174417 1.3271757e-38 279 327
-0.046778932 0.667 -0.10174417 1.3823479e-38 280 327
-0.045541082 0.66600001 -0.10159164 1.3915674e-38 281 327
-0.04437336 0.66600001 -0.10159164 1.3733784e-38 282 327
-0.043205637 0.66600001 -0.10159164 1.3918534e-38 283 327
-0.041911677 0.66399997 -0.10128655 1.4010375e-38 284 327
-0.040747464 0.66399997 -0.10128655 1.4102571e-38 285 327
-0.039583251 0.66399997 -0.10128655 1.4378435e-38 286 327
-0.038419038 0.66399997 -0.10128655 1.4378435e-38 287 327
-0.037198719 0.66299999 -0.10113402 1.4286943e-38 288 327
-0.036036257 0.66299999 -0.10113402 1.4194746e-38 289 327
-0.034873798 0.66299999 -0.10113402 1.4653933e-38 290 327
-0.033660494 0.662 -0.10098148 1.493016e-38 291 327
-0.032450691 0.66100001 -0.10082894 1.5021655e-38 292 327
-0.031291738 0.66100001 -0.10082894 1.5113852e-38 293 327
-0.030132787 0.66100001 -0.10082894 1.5389713e-38 294 327
-0.028973831 0.66100001 -0.10082894 1.5389713e-38 295 327
-0.027730718 0.65899998 -0.10052385 1.5573738e-38 296 327
-0.026575271 0.65899998 -0.10052385 1.5758128e-38 297 327
-0.025419824 0.65899998 -0.10052385 1.5667009e-38 298 327
-0.024264378 0.65899998 -0.10052385 1.5667009e-38 299 327
-0.023108931 0.65899998 -0.10052385 1.5942884e-38 300 327
-0.021920172 0.65799999 -0.10037132 1.5758851e-38 301 327
-0.02076648 0.65799999 -0.10037132 1.6034732e-38 302 327
-0.019642593 0.65899998 -0.10052385 1.6126927e-38 303 327
-0.018487146 0.65899998 -0.10052385 1.6218776e-38 304 327
-0.017305398 0.65799999 -0.10037132 1.6310971e-38 305 327
-0.016151706 0.65799999 -0.10037132 1.6494286e-38 306 327
-0.014998012 0.65799999 -0.10037132 1.6678679e-38 307 327
-0.01384432 0.65799999 -0.10037132 1.640424e-38 308 327
-0.012690626 0.65799999 -0.10037132 1.6496436e-38 309 327
-0.011536933 0.65799999 -0.10037132 1.7322587e-38 310 327
-0.01038324 0.65799999 -0.10037132 1.7414782e-38 311 327
-0.0092295464 0.65799999 -0.10037132 1.7231836e-38 312 327
-0.0080758529 0.65799999 -0.10037132 1.7231836e-38 313 327
-0.0069221598 0.65799999 -0.10037132 1.7232202e-38 314 327
-0.0057684663 0.65799999 -0.10037132 1.7140006e-38 315 327
-0.0046147732 0.65799999 -0.10037132 1.7232202e-38 316 327
-0.0034610799 0.65799999 -0.10037132 1.7232202e-38 317 327
-0.0023038799 0.65700001 -0.10021878 1.723113e-38 318 327
-0.00115194 0.65700001 -0.10021878 1.723113e-38 319 327
0 0.65700001 -0.10021878 1.7229697e-38 320 327
0.00115194 0.65700001 -0.10021878 1.7322252e-38 321 327
0.0023038799 0.65700001 -0.10021878 1.7414795e-38 322 327
0.0034558198 0.65700001 -0.10021878 1.7506991e-38 323 327
0.0046077599 0.65700001 -0.10021878 1.7325105e-38 324 327
0.0057421662 0.65499997 -0.099913694 1.7232908e-38 325 327
0.0068905996 0.65499997 -0.099913694 1.7325105e-38 326 327
0.008039033 0.65499997 -0.099913694 1.7325105e-38 327 327
0.0091874655 0.65499997 -0.099913694 1.769209e-38 328 327
0.010335899 0.65499997 -0.099913694 1.769209e-38 329 327
0.011484332 0.65499997 -0.099913694 1.760025e-38 330 327
0.012632766 0.65499997 -0.099913694 1.760025e-38 331 327
0.013823279 0.65700001 -0.10021878 1.7783914e-38 332 327
0.01497522 0.65700001 -0.10021878 1.7691359e-38 333 327
0.01612716 0.65700001 -0.10021878 1.7141063e-38 334 327
0.0172791 0.65700001 -0.10021878 1.7048508e-38 335 327
0.018459093 0.65799999 -0.10037132 1.7232905e-38 336 327
0.019612785 0.65799999 -0.10037132 1.7325102e-38 337 327
0.02076648 0.65799999 -0.10037132 1.7601319e-38 338 327
0.021920172 0.65799999 -0.10037132 1.7232537e-38 339 327
0.023073865 0.65799999 -0.10037132 1.7509122e-38 340 327
0.02422756 0.65799999 -0.10037132 1.7601319e-38 341 327
0.025419824 0.65899998 -0.10052385 1.7417651e-38 342 327
0.026575271 0.65899998 -0.10052385 1.7325454e-38 343 327
0.027730718 0.65899998 -0.10052385 1.7601319e-38 344 327
0.028886165 0.65899998 -0.10052385 1.7601319e-38 345 327
0.030041611 0.65899998 -0.10052385 1.7876827e-38 346 327
0.031291738 0.66100001 -0.10082894 1.7692796e-38 347 327
0.032450691 0.66100001 -0.10082894 1.7509119e-38 348 327
0.033609647 0.66100001 -0.10082894 1.7416924e-38 349 327
0.0347686 0.66100001 -0.10082894 1.7232905e-38 350 327
0.035927553 0.66100001 -0.10082894 1.7140709e-38 351 327
0.037086505 0.66100001 -0.10082894 1.6771928e-38 352 327
0.038245458 0.66100001 -0.10082894 1.649534e-38 353 327
0.039404415 0.66100001 -0.10082894 1.6036517e-38 354 327
0.040563367 0.66100001 -0.10082894 1.6312744e-38 355 327
0.04172232 0.66100001 -0.10082894 1.64057e-38 356 327
0.042881273 0.66100001 -0.10082894 1.7143267e-38 357 327
0.044040225 0.66100001 -0.10082894 1.7328425e-38 358 327
0.045199182 0.66100001 -0.10082894 1.806599e-38 359 327
0.046358135 0.66100001 -0.10082894 1.7884507e-38 360 327
-0.066249698 0.68699998 -0.10599951 1.2073627e-38 265 328
-0.064571753 0.68199998 -0.10522805 1.1891012e-38 266 328
-0.063190132 0.68000001 -0.10491946 1.1891012e-38 267 328
-0.061997864 0.68000001 -0.10491946 1.2533487e-38 268 328
-0.060716182 0.67900002 -0.10476518 1.2625684e-38 269 328
-0.059262663 0.676 -0.10430229 1.2809699e-38 270 328
-0.057991501 0.67500001 -0.104148 1.2809699e-38 271 328
-0.056723841 0.67400002 -0.10399371 1.2901885e-38 272 328
-0.055377278 0.67199999 -0.10368511 1.2901885e-38 273 328
-0.054118387 0.671 -0.10353082 1.2809683e-38 274 328
-0.052941896 0.671 -0.10353082 1.2809683e-38 275 328
-0.051688269 0.67000002 -0.10337654 1.2810036e-38 276 328
-0.050513536 0.67000002 -0.10337654 1.2810036e-38 277 328
-0.04919152 0.66799998 -0.10306793 1.3177027e-38 278 328
-0.047948405 0.667 -0.10291365 1.3361059e-38 279 328
-0.046778932 0.667 -0.10291365 1.3177746e-38 280 328
-0.045541082 0.66600001 -0.10275936 1.3362138e-38 281 328
-0.04437336 0.66600001 -0.10275936 1.3730197e-38 282 328
-0.043205637 0.66600001 -0.10275936 1.4006425e-38 283 328
-0.041911677 0.66399997 -0.10245077 1.3824538e-38 284 328
-0.040747464 0.66399997 -0.10245077 1.3916734e-38 285 328
-0.039583251 0.66399997 -0.10245077 1.4376623e-38 286 328
-0.038419038 0.66399997 -0.10245077 1.4376623e-38 287 328
-0.037198719 0.66299999 -0.10229647 1.4101478e-38 288 328
-0.035981905 0.662 -0.10214218 1.4009282e-38 289 328
-0.034821201 0.662 -0.10214218 1.4468463e-38 290 328
-0.033609647 0.66100001 -0.10198789 1.474505e-38 291 328
-0.032352503 0.65899998 -0.1016793 1.4928722e-38 292 328
-0.031197058 0.65899998 -0.1016793 1.5112753e-38 293 328
-0.030041611 0.65899998 -0.1016793 1.520423e-38 294 328
-0.028886165 0.65899998 -0.1016793 1.5296784e-38 295 328
-0.027730718 0.65899998 -0.1016793 1.548045e-38 296 328
-0.026534945 0.65799999 -0.10152501 1.5664841e-38 297 328
-0.025381252 0.65799999 -0.10152501 1.5664838e-38 298 328
-0.024264378 0.65899998 -0.1016793 1.5849229e-38 299 328
-0.023073865 0.65799999 -0.10152501 1.5665561e-38 300 328
-0.021920172 0.65799999 -0.10152501 1.5757757e-38 301 328
-0.02076648 0.65799999 -0.10152501 1.6124391e-38 302 328
-0.019612785 0.65799999 -0.10152501 1.6308781e-38 303 328
-0.018459093 0.65799999 -0.10152501 1.6217311e-38 304 328
-0.017305398 0.65799999 -0.10152501 1.6217311e-38 305 328
-0.016151706 0.65799999 -0.10152501 1.6400621e-38 306 328
-0.01497522 0.65700001 -0.10137072 1.6493176e-38 307 328
-0.013823279 0.65700001 -0.10137072 1.6402057e-38 308 328
-0.01267134 0.65700001 -0.10137072 1.6402057e-38 309 328
-0.011519399 0.65700001 -0.10137072 1.6586091e-38 310 328
-0.01038324 0.65799999 -0.10152501 1.6770482e-38 311 328
-0.0092295464 0.65799999 -0.10152501 1.6770485e-38 312 328
-0.0080758529 0.65799999 -0.10152501 1.6862681e-38 313 328
-0.0069221598 0.65799999 -0.10152501 1.704599e-38 314 328
-0.0057684663 0.65799999 -0.10152501 1.704599e-38 315 328
-0.0046077599 0.65700001 -0.10137072 1.7137826e-38 316 328
-0.0034558198 0.65700001 -0.10137072 1.7321858e-38 317 328
-0.0023038799 0.65700001 -0.10137072 1.7138193e-38 318 328
-0.00115194 0.65700001 -0.10137072 1.7045996e-38 319 328
0 0.65700001 -0.10137072 1.7044924e-38 320 328
0.00115194 0.65700001 -0.10137072 1.7137119e-38 321 328
0.0022968664 0.65499997 -0.10106213 1.7137117e-38 322 328
0.0034452998 0.65499997 -0.10106213 1.7321508e-38 323 328
0.0045937328 0.65499997 -0.10106213 1.6863753e-38 324 328
0.0057421662 0.65499997 -0.10106213 1.695595e-38 325 328
0.0068905996 0.65499997 -0.10106213 1.7140344e-38 326 328
0.008039033 0.65499997 -0.10106213 1.7140344e-38 327 328
0.0091874655 0.65499997 -0.10106213 1.7415498e-38 328 328
0.010335899 0.65499997 -0.10106213 1.7323303e-38 329 328
0.011484332 0.65499997 -0.10106213 1.7232183e-38 330 328
0.012632766 0.65499997 -0.10106213 1.7232183e-38 331 328
0.013781199 0.65499997 -0.10106213 1.7141057e-38 332 328
0.014929632 0.65499997 -0.10106213 1.7141057e-38 333 328
0.016078066 0.65499997 -0.10106213 1.6958819e-38 334 328
0.0172791 0.65700001 -0.10137072 1.6866265e-38 335 328
0.01843104 0.65700001 -0.10137072 1.6957745e-38 336 328
0.019582979 0.65700001 -0.10137072 1.6957745e-38 337 328
0.020734919 0.65700001 -0.10137072 1.7233255e-38 338 328
0.021886859 0.65700001 -0.10137072 1.7233255e-38 339 328
0.023038799 0.65700001 -0.10137072 1.7325454e-38 340 328
0.024190739 0.65700001 -0.10137072 1.7325454e-38 341 328
0.025381252 0.65799999 -0.10152501 1.7325454e-38 342 328
0.026534945 0.65799999 -0.10152501 1.7325454e-38 343 328
0.027688639 0.65799999 -0.10152501 1.7417651e-38 344 328
0.028842334 0.65799999 -0.10152501 1.7509846e-38 345 328
0.029996024 0.65799999 -0.10152501 1.7509846e-38 346 328
0.031149717 0.65799999 -0.10152501 1.7417651e-38 347 328
0.032303412 0.65799999 -0.10152501 1.7416568e-38 348 328
0.033457108 0.65799999 -0.10152501 1.7232537e-38 349 328
0.034610797 0.65799999 -0.10152501 1.7140344e-38 350 328
0.035764489 0.65799999 -0.10152501 1.7047789e-38 351 328
0.036974292 0.65899998 -0.1016793 1.6680086e-38 352 328
0.038129739 0.65899998 -0.1016793 1.6680086e-38 353 328
0.039404415 0.66100001 -0.10198789 1.6680086e-38 354 328
0.040563367 0.66100001 -0.10198789 1.6680086e-38 355 328
0.04172232 0.66100001 -0.10198789 1.6036532e-38 356 328
0.042881273 0.66100001 -0.10198789 1.5944337e-38 357 328
0.044040225 0.66100001 -0.10198789 1.5850732e-38 358 328
0.045199182 0.66100001 -0.10198789 1.631207e-38 359 328
0.046358135 0.66100001 -0.10198789 1.5856162e-38 360 328
0.047588971 0.662 -0.10214218 1.6409335e-38 361 328
-0.062180214 0.68199998 -0.10642382 1.2257993e-38 268 329
-0.060716182 0.67900002 -0.10595569 1.2350188e-38 269 329
-0.059437994 0.67799997 -0.10579964 1.2442722e-38 270 329
-0.058077414 0.676 -0.10548755 1.2442722e-38 271 329
-0.056808002 0.67500001 -0.1053315 1.262602e-38 272 329
-0.055377278 0.67199999 -0.10486335 1.2810053e-38 273 329
-0.054118387 0.671 -0.10470732 1.2626373e-38 274 329
-0.052941896 0.671 -0.10470732 1.2626373e-38 275 329
-0.051688269 0.67000002 -0.10455126 1.2809683e-38 276 329
-0.050513536 0.67000002 -0.10455126 1.2809683e-38 277 329
-0.04919152 0.66799998 -0.10423917 1.280933e-38 278 329
-0.047948405 0.667 -0.10408312 1.280933e-38 279 329
-0.046778932 0.667 -0.10408312 1.2992647e-38 280 329
-0.045541082 0.66600001 -0.10392708 1.3084844e-38 281 329
-0.04437336 0.66600001 -0.10392708 1.2993728e-38 282 329
-0.043205637 0.66600001 -0.10392708 1.3269955e-38 283 329
-0.041911677 0.66399997 -0.10361498 1.3179541e-38 284 329
-0.040747464 0.66399997 -0.10361498 1.3179541e-38 285 329
-0.039583251 0.66399997 -0.10361498 1.3639071e-38 286 329
-0.038419038 0.66399997 -0.10361498 1.3823463e-38 287 329
-0.037198719 0.66299999 -0.10345893 1.3640873e-38 288 329
-0.035981905 0.662 -0.10330289 1.3640873e-38 289 329
-0.034663398 0.65899998 -0.10283475 1.3916383e-38 290 329
-0.033507951 0.65899998 -0.10283475 1.4008579e-38 291 329
-0.032352503 0.65899998 -0.10283475 1.4284087e-38 292 329
-0.031197058 0.65899998 -0.10283475 1.446848e-38 293 329
-0.030041611 0.65899998 -0.10283475 1.4652148e-38 294 329
-0.028886165 0.65899998 -0.10283475 1.4744343e-38 295 329
-0.027730718 0.65899998 -0.10283475 1.4836892e-38 296 329
-0.026534945 0.65799999 -0.1026787 1.4929088e-38 297 329
-0.025381252 0.65799999 -0.1026787 1.5021283e-38 298 329
-0.02422756 0.65799999 -0.1026787 1.5113838e-38 299 329
-0.023073865 0.65799999 -0.1026787 1.5021639e-38 300 329
-0.021920172 0.65799999 -0.1026787 1.5113835e-38 301 329
-0.02076648 0.65799999 -0.1026787 1.5572662e-38 302 329
-0.019612785 0.65799999 -0.1026787 1.5572662e-38 303 329
-0.018459093 0.65799999 -0.1026787 1.5664505e-38 304 329
-0.017305398 0.65799999 -0.1026787 1.57567e-38 305 329
-0.016151706 0.65799999 -0.1026787 1.57567e-38 306 329
-0.01497522 0.65700001 -0.10252266 1.5849255e-38 307 329
-0.013823279 0.65700001 -0.10252266 1.5757422e-38 308 329
-0.01267134 0.65700001 -0.10252266 1.5849617e-38 309 329
-0.011519399 0.65700001 -0.10252266 1.6125125e-38 310 329
-0.01036746 0.65700001 -0.10252266 1.6217681e-38 311 329
-0.0092155198 0.65700001 -0.10252266 1.6126565e-38 312 329
-0.0080635799 0.65700001 -0.10252266 1.6126565e-38 313 329
-0.0069116396 0.65700001 -0.10252266 1.6309505e-38 314 329
-0.0057596997 0.65700001 -0.10252266 1.6309505e-38 315 329
-0.0046077599 0.65700001 -0.10252266 1.6493176e-38 316 329
-0.0034452998 0.65499997 -0.10221056 1.6677568e-38 317 329
-0.0022968664 0.65499997 -0.10221056 1.6402072e-38 318 329
-0.0011484332 0.65499997 -0.10221056 1.6402072e-38 319 329
0 0.65499997 -0.10221056 1.6402075e-38 320 329
0.0011484332 0.65499997 -0.10221056 1.6402075e-38 321 329
0.0022968664 0.65499997 -0.10221056 1.6585022e-38 322 329
0.0034452998 0.65499997 -0.10221056 1.6492467e-38 323 329
0.0045937328 0.65499997 -0.10221056 1.6310224e-38 324 329
0.0057421662 0.65499997 -0.10221056 1.6494974e-38 325 329
0.0068905996 0.65499997 -0.10221056 1.6863401e-38 326 329
0.0080267601 0.65399998 -0.10205451 1.6863401e-38 327 329
0.0091734398 0.65399998 -0.10205451 1.6955599e-38 328 329
0.01032012 0.65399998 -0.10205451 1.6955599e-38 329 329
0.011466799 0.65399998 -0.10205451 1.7047792e-38 330 329
0.012613479 0.65399998 -0.10205451 1.7047792e-38 331 329
0.013781199 0.65499997 -0.10221056 1.7231458e-38 332 329
0.014929632 0.65499997 -0.10221056 1.7231458e-38 333 329
0.016078066 0.65499997 -0.10221056 1.7324009e-38 334 329
0.017226499 0.65499997 -0.10221056 1.7324009e-38 335 329
0.018374931 0.65499997 -0.10221056 1.7415133e-38 336 329
0.019523365 0.65499997 -0.10221056 1.7415133e-38 337 329
0.020671798 0.65499997 -0.10221056 1.7323303e-38 338 329
0.021820232 0.65499997 -0.10221056 1.7323303e-38 339 329
0.022968665 0.65499997 -0.10221056 1.7140709e-38 340 329
0.024117097 0.65499997 -0.10221056 1.7140709e-38 341 329
0.025342681 0.65700001 -0.10252266 1.7416217e-38 342 329
0.026494619 0.65700001 -0.10252266 1.7232186e-38 343 329
0.027646558 0.65700001 -0.10252266 1.7416217e-38 344 329
0.028798498 0.65700001 -0.10252266 1.7416217e-38 345 329
0.02995044 0.65700001 -0.10252266 1.7416217e-38 346 329
0.03110238 0.65700001 -0.10252266 1.7232186e-38 347 329
0.03225432 0.65700001 -0.10252266 1.73233e-38 348 329
0.033406258 0.65700001 -0.10252266 1.7231104e-38 349 329
0.034558199 0.65700001 -0.10252266 1.6955597e-38 350 329
0.035710141 0.65700001 -0.10252266 1.6863401e-38 351 329
0.036918186 0.65799999 -0.1026787 1.6587536e-38 352 329
0.038071878 0.65799999 -0.1026787 1.6587536e-38 353 329
0.039225571 0.65799999 -0.1026787 1.6312028e-38 354 329
0.040379263 0.65799999 -0.1026787 1.6219832e-38 355 329
0.041596077 0.65899998 -0.10283475 1.6127631e-38 356 329
0.042881273 0.66100001 -0.10314685 1.594324e-38 357 329
0.044040225 0.66100001 -0.10314685 1.5758851e-38 358 329
0.045199182 0.66100001 -0.10314685 1.5758851e-38 359 329
0.046358135 0.66100001 -0.10314685 1.5483373e-38 360 329
0.047517084 0.66100001 -0.10314685 1.6036547e-38 361 329
0.04867604 0.66100001 -0.10314685 1.5946191e-38 362 329
0.049910385 0.662 -0.10330289 1.6223136e-38 363 329
-0.059437994 0.67799997 -0.10698839 1.2257623e-38 270 330
-0.058077414 0.676 -0.10667279 1.234982e-38 271 330
-0.056892153 0.676 -0.10667279 1.2350878e-38 272 330
-0.0556245 0.67500001 -0.106515 1.2443075e-38 273 330
-0.054199036 0.67199999 -0.1060416 1.2626017e-38 274 330
-0.052941896 0.671 -0.10588379 1.2626017e-38 275 330
-0.051765412 0.671 -0.10588379 1.2626373e-38 276 330
-0.050513536 0.67000002 -0.105726 1.2626373e-38 277 330
-0.049338799 0.67000002 -0.105726 1.2900799e-38 278 330
-0.048020288 0.66799998 -0.1054104 1.2900799e-38 279 330
-0.046849065 0.66799998 -0.1054104 1.2716768e-38 280 330
-0.045541082 0.66600001 -0.1050948 1.2900799e-38 281 330
-0.04437336 0.66600001 -0.1050948 1.2900083e-38 282 330
-0.043205637 0.66600001 -0.1050948 1.2992279e-38 283 330
-0.041911677 0.66399997 -0.10477919 1.2992998e-38 284 330
-0.040747464 0.66399997 -0.10477919 1.2992998e-38 285 330
-0.039583251 0.66399997 -0.10477919 1.2810757e-38 286 330
-0.038419038 0.66399997 -0.10477919 1.299515e-38 287 330
-0.037198719 0.66299999 -0.1046214 1.3179541e-38 288 330
-0.035981905 0.662 -0.1044636 1.3179541e-38 289 330
-0.034663398 0.65899998 -0.10399019 1.3547604e-38 290 330
-0.033507951 0.65899998 -0.10399019 1.3639801e-38 291 330
-0.032352503 0.65899998 -0.10399019 1.3823113e-38 292 330
-0.031197058 0.65899998 -0.10399019 1.4100059e-38 293 330
-0.030041611 0.65899998 -0.10399019 1.4100056e-38 294 330
-0.028886165 0.65899998 -0.10399019 1.4376282e-38 295 330
-0.027730718 0.65899998 -0.10399019 1.4376636e-38 296 330
-0.026575271 0.65899998 -0.10399019 1.4561028e-38 297 330
-0.025381252 0.65799999 -0.1038324 1.4836892e-38 298 330
-0.02422756 0.65799999 -0.1038324 1.4744696e-38 299 330
-0.023073865 0.65799999 -0.1038324 1.4837245e-38 300 330
-0.021920172 0.65799999 -0.1038324 1.4837245e-38 301 330
-0.02076648 0.65799999 -0.1038324 1.520423e-38 302 330
-0.019612785 0.65799999 -0.1038324 1.5296784e-38 303 330
-0.018459093 0.65799999 -0.1038324 1.5204235e-38 304 330
-0.017305398 0.65799999 -0.1038324 1.5296431e-38 305 330
-0.01612716 0.65700001 -0.1036746 1.5296078e-38 306 330
-0.01497522 0.65700001 -0.1036746 1.5480109e-38 307 330
-0.013823279 0.65700001 -0.1036746 1.5296797e-38 308 330
-0.01267134 0.65700001 -0.1036746 1.5388994e-38 309 330
-0.011519399 0.65700001 -0.1036746 1.5572306e-38 310 330
-0.01036746 0.65700001 -0.1036746 1.5572306e-38 311 330
-0.0092155198 0.65700001 -0.1036746 1.5573744e-38 312 330
-0.0080635799 0.65700001 -0.1036746 1.5573744e-38 313 330
-0.0069116396 0.65700001 -0.1036746 1.5849252e-38 314 330
-0.0057596997 0.65700001 -0.1036746 1.5849252e-38 315 330
-0.0045937328 0.65499997 -0.10335899 1.5849249e-38 316 330
-0.0034452998 0.65499997 -0.10335899 1.5941445e-38 317 330
-0.0022968664 0.65499997 -0.10335899 1.5757419e-38 318 330
-0.0011484332 0.65499997 -0.10335899 1.5849615e-38 319 330
0 0.65499997 -0.10335899 1.5941094e-38 320 330
0.00114668 0.65399998 -0.10320119 1.5941094e-38 321 330
0.00229336 0.65399998 -0.10320119 1.6032214e-38 322 330
0.0034400397 0.65399998 -0.10320119 1.6032214e-38 323 330
0.0045867199 0.65399998 -0.10320119 1.5296444e-38 324 330
0.0057333997 0.65399998 -0.10320119 1.5573391e-38 325 330
0.0068800794 0.65399998 -0.10320119 1.6034366e-38 326 330
0.0080267601 0.65399998 -0.10320119 1.6126562e-38 327 330
0.0091734398 0.65399998 -0.10320119 1.6402788e-38 328 330
0.01032012 0.65399998 -0.10320119 1.6402788e-38 329 330
0.011449266 0.653 -0.1030434 1.649534e-38 330 330
0.012594193 0.653 -0.1030434 1.6587536e-38 331 330
0.013760159 0.65399998 -0.10320119 1.6862678e-38 332 330
0.014906839 0.65399998 -0.10320119 1.6954875e-38 333 330
0.01605352 0.65399998 -0.10320119 1.6863045e-38 334 330
0.017200198 0.65399998 -0.10320119 1.6955599e-38 335 330
0.01834688 0.65399998 -0.10320119 1.6862695e-38 336 330
0.019493559 0.65399998 -0.10320119 1.6862695e-38 337 330
0.020640239 0.65399998 -0.10320119 1.6862695e-38 338 330
0.021786919 0.65399998 -0.10320119 1.6862695e-38 339 330
0.022933599 0.65399998 -0.10320119 1.6771578e-38 340 330
0.024117097 0.65499997 -0.10335899 1.6771578e-38 341 330
0.025265532 0.65499997 -0.10335899 1.6771578e-38 342 330
0.026413966 0.65499997 -0.10335899 1.6771578e-38 343 330
0.027562398 0.65499997 -0.10335899 1.6771578e-38 344 330
0.028710833 0.65499997 -0.10335899 1.6863774e-38 345 330
0.029859263 0.65499997 -0.10335899 1.695489e-38 346 330
0.03110238 0.65700001 -0.1036746 1.695489e-38 347 330
0.03225432 0.65700001 -0.1036746 1.6770498e-38 348 330
0.033304565 0.65499997 -0.10335899 1.6770498e-38 349 330
0.034452997 0.65499997 -0.10335899 1.6587185e-38 350 330
0.035710141 0.65700001 -0.1036746 1.649499e-38 351 330
0.036862079 0.65700001 -0.1036746 1.6311677e-38 352 330
0.038014017 0.65700001 -0.1036746 1.6126927e-38 353 330
0.039225571 0.65799999 -0.1038324 1.6035085e-38 354 330
0.040379263 0.65799999 -0.1038324 1.5942889e-38 355 330
0.041596077 0.65899998 -0.10399019 1.5942887e-38 356 330
0.042751525 0.65899998 -0.10399019 1.5758854e-38 357 330
0.044040225 0.66100001 -0.1043058 1.5483356e-38 358 330
0.045199182 0.66100001 -0.1043058 1.5575553e-38 359 330
0.046358135 0.66100001 -0.1043058 1.5392235e-38 360 330
0.047517084 0.66100001 -0.1043058 1.5392235e-38 361 330
0.04867604 0.66100001 -0.1043058 1.5208201e-38 362 330
0.049910385 0.662 -0.1044636 1.483906e-38 363 330
0.051071092 0.662 -0.1044636 1.3828179e-38 364 330
0.052310698 0.66299999 -0.1046214 1.4288798e-38 365 330
0.053473156 0.66299999 -0.1046214 1.3740351e-38 366 330
0.054635618 0.66299999 -0.1046214 1.5123644e-38 367 330
-0.058077414 0.676 -0.10785805 1.2164724e-38 271 331
-0.056892153 0.676 -0.10785805 1.2257973e-38 272 331
-0.0556245 0.67500001 -0.10769849 1.2350528e-38 273 331
-0.054441001 0.67500001 -0.10769849 1.262602e-38 274 331
-0.053257499 0.67500001 -0.10769849 1.262602e-38 275 331
-0.051996857 0.67400002 -0.10753895 1.280933e-38 276 331
-0.050588924 0.671 -0.10706028 1.2717134e-38 277 331
-0.049338799 0.67000002 -0.10690073 1.2900799e-38 278 331
-0.048020288 0.66799998 -0.10658162 1.2716768e-38 279 331
-0.046849065 0.66799998 -0.10658162 1.2533096e-38 280 331
-0.045609459 0.667 -0.10642207 1.2533096e-38 281 331
-0.04437336 0.66600001 -0.10626251 1.2348712e-38 282 331
-0.043205637 0.66600001 -0.10626251 1.2532743e-38 283 331
-0.042037919 0.66600001 -0.10626251 1.2532024e-38 284 331
-0.040747464 0.66399997 -0.1059434 1.2532024e-38 285 331
-0.039583251 0.66399997 -0.1059434 1.2625289e-38 286 331
-0.038419038 0.66399997 -0.1059434 1.2625289e-38 287 331
-0.037198719 0.66299999 -0.10578386 1.2625642e-38 288 331
-0.035981905 0.662 -0.1056243 1.2625642e-38 289 331
-0.0347686 0.66100001 -0.10546475 1.2810036e-38 290 331
-0.033507951 0.65899998 -0.10514564 1.2994428e-38 291 331
-0.032352503 0.65899998 -0.10514564 1.3729118e-38 292 331
-0.031197058 0.65899998 -0.10514564 1.3913509e-38 293 331
-0.030041611 0.65899998 -0.10514564 1.3822749e-38 294 331
-0.028886165 0.65899998 -0.10514564 1.4098977e-38 295 331
-0.027730718 0.65899998 -0.10514564 1.4191523e-38 296 331
-0.026534945 0.65799999 -0.10498609 1.4283718e-38 297 331
-0.025381252 0.65799999 -0.10498609 1.4559582e-38 298 331
-0.02422756 0.65799999 -0.10498609 1.4651778e-38 299 331
-0.023073865 0.65799999 -0.10498609 1.4652131e-38 300 331
-0.021920172 0.65799999 -0.10498609 1.4652131e-38 301 331
-0.02076648 0.65799999 -0.10498609 1.492764e-38 302 331
-0.019612785 0.65799999 -0.10498609 1.492764e-38 303 331
-0.018459093 0.65799999 -0.10498609 1.4927646e-38 304 331
-0.0172791 0.65700001 -0.10482653 1.5019841e-38 305 331
-0.01612716 0.65700001 -0.10482653 1.5019491e-38 306 331
-0.01497522 0.65700001 -0.10482653 1.5019491e-38 307 331
-0.013823279 0.65700001 -0.10482653 1.5111687e-38 308 331
-0.01267134 0.65700001 -0.10482653 1.5111687e-38 309 331
-0.011519399 0.65700001 -0.10482653 1.5111684e-38 310 331
-0.01036746 0.65700001 -0.10482653 1.520388e-38 311 331
-0.0092155198 0.65700001 -0.10482653 1.5296428e-38 312 331
-0.0080635799 0.65700001 -0.10482653 1.5204233e-38 313 331
-0.0068905996 0.65499997 -0.10450742 1.5296784e-38 314 331
-0.0057421662 0.65499997 -0.10450742 1.5296784e-38 315 331
-0.0045867199 0.65399998 -0.10434788 1.5480815e-38 316 331
-0.0034400397 0.65399998 -0.10434788 1.5480815e-38 317 331
-0.00229336 0.65399998 -0.10434788 1.5571939e-38 318 331
-0.00114668 0.65399998 -0.10434788 1.5664136e-38 319 331
0 0.65399998 -0.10434788 1.5755257e-38 320 331
0.0011449266 0.653 -0.10418832 1.5847454e-38 321 331
0.0022898533 0.653 -0.10418832 1.5754901e-38 322 331
0.0034347798 0.653 -0.10418832 1.5662705e-38 323 331
0.0045797066 0.653 -0.10418832 1.5294283e-38 324 331
0.0057246331 0.653 -0.10418832 1.5478674e-38 325 331
0.0068800794 0.65399998 -0.10434788 1.5573744e-38 326 331
0.0080144862 0.653 -0.10418832 1.5757775e-38 327 331
0.0091594132 0.653 -0.10418832 1.6125832e-38 328 331
0.010304339 0.653 -0.10418832 1.5941801e-38 329 331
0.011449266 0.653 -0.10418832 1.5941801e-38 330 331
0.012594193 0.653 -0.10418832 1.6218029e-38 331 331
0.013739119 0.653 -0.10418832 1.6768682e-38 332 331
0.014884046 0.653 -0.10418832 1.6860877e-38 333 331
0.016028972 0.653 -0.10418832 1.6677212e-38 334 331
0.017173899 0.653 -0.10418832 1.6769766e-38 335 331
0.01834688 0.65399998 -0.10434788 1.6585741e-38 336 331
0.019493559 0.65399998 -0.10434788 1.6585741e-38 337 331
0.020608678 0.653 -0.10418832 1.6402426e-38 338 331
0.021753605 0.653 -0.10418832 1.6217676e-38 339 331
0.022898532 0.653 -0.10418832 1.6035082e-38 340 331
0.024043459 0.653 -0.10418832 1.6219832e-38 341 331
0.025149813 0.65200001 -0.10402877 1.6494268e-38 342 331
0.026292987 0.65200001 -0.10402877 1.6494268e-38 343 331
0.02743616 0.65200001 -0.10402877 1.667758e-38 344 331
0.028666999 0.65399998 -0.10434788 1.6769776e-38 345 331
0.029813679 0.65399998 -0.10434788 1.667758e-38 346 331
0.031007698 0.65499997 -0.10450742 1.667758e-38 347 331
0.032156132 0.65499997 -0.10450742 1.6677217e-38 348 331
0.033253718 0.65399998 -0.10434788 1.6677217e-38 349 331
