# .PCD v.7 - Point Cloud Data file format
FIELDS x y z rgb imX imY
SIZE 4 4 4 4 4 4
TYPE F F F F F F
COUNT 1 1 1 1 1 1
WIDTH 833
HEIGHT 1
VIEWPOINT 0 0 0 1 0 0 0
POINTS 833
DATA ascii
-0.064303495 0.815 0.040011063 1.6865546e-38 275 212
-0.06302882 0.81699997 0.040109251 1.6681158e-38 276 212
-0.061596353 0.81699997 0.040109251 1.622018e-38 277 212
-0.060163878 0.81699997 0.040109251 1.575992e-38 278 212
-0.058731399 0.81699997 0.040109251 1.5575529e-38 279 212
-0.057298932 0.81699997 0.040109251 1.5207107e-38 280 212
-0.055866458 0.81699997 0.040109251 1.5022355e-38 281 212
-0.054433983 0.81699997 0.040109251 1.4746126e-38 282 212
-0.053001508 0.81699997 0.040109251 1.4377342e-38 283 212
-0.051569037 0.81699997 0.040109251 1.3271712e-38 284 212
-0.0502593 0.81900001 0.040207438 1.2350116e-38 285 212
-0.048823319 0.81900001 0.040207438 1.1980275e-38 286 212
-0.047503054 0.82099998 0.040305622 1.1519297e-38 287 212
-0.046063572 0.82099998 0.040305622 1.1333849e-38 288 212
-0.044732794 0.82300001 0.040403813 1.1241653e-38 289 212
-0.043394998 0.82499999 0.040502001 1.0965787e-38 290 212
-0.04205019 0.82700002 0.040600184 1.0873591e-38 291 212
-0.040600184 0.82700002 0.040600184 1.0597729e-38 292 212
-0.039150178 0.82700002 0.040600184 1.0505533e-38 293 212
-0.037700173 0.82700002 0.040600184 1.0412987e-38 294 212
-0.036337834 0.829 0.040698372 1.0412987e-38 295 212
0.052200239 0.82700002 0.040600184 1.0411212e-38 356 212
0.053779993 0.829 0.040698372 1.0319016e-38 357 212
0.055233505 0.829 0.040698372 1.0410861e-38 358 212
0.05668702 0.829 0.040698372 1.0779285e-38 359 212
0.058140531 0.829 0.040698372 1.0872563e-38 360 212
0.059594043 0.829 0.040698372 1.1241345e-38 361 212
0.061047558 0.829 0.040698372 1.1610147e-38 362 212
0.062651858 0.83099997 0.040796559 1.2716493e-38 363 212
-0.086158797 0.81900001 0.038771462 1.5672104e-38 260 213
-0.084722817 0.81900001 0.038771462 1.4750149e-38 261 213
-0.083083443 0.81699997 0.03867678 1.6405293e-38 262 213
-0.08165098 0.81699997 0.03867678 1.6681881e-38 263 213
-0.080218501 0.81699997 0.03867678 1.7233609e-38 264 213
-0.078593165 0.815 0.038582098 1.7418001e-38 265 213
-0.077164195 0.815 0.038582098 1.7694584e-38 266 213
-0.075735234 0.815 0.038582098 1.7878975e-38 267 213
-0.074123919 0.81300002 0.038487419 1.7695666e-38 268 213
-0.072698459 0.81300002 0.038487419 1.7787861e-38 269 213
-0.071272999 0.81300002 0.038487419 1.7695663e-38 270 213
-0.069847539 0.81300002 0.038487419 1.7603467e-38 271 213
-0.068253763 0.81099999 0.038392738 1.7510553e-38 272 213
-0.066831805 0.81099999 0.038392738 1.7418357e-38 273 213
-0.065571159 0.81300002 0.038487419 1.668259e-38 274 213
-0.064145707 0.81300002 0.038487419 1.649784e-38 275 213
-0.062874533 0.815 0.038582098 1.6496041e-38 276 213
-0.061596353 0.81699997 0.03867678 1.6127618e-38 277 213
-0.060163878 0.81699997 0.03867678 1.5207104e-38 278 213
-0.058731399 0.81699997 0.03867678 1.5207104e-38 279 213
-0.057298932 0.81699997 0.03867678 1.5298223e-38 280 213
-0.055866458 0.81699997 0.03867678 1.4837245e-38 281 213
-0.054433983 0.81699997 0.03867678 1.4007485e-38 282 213
-0.053001508 0.81699997 0.03867678 1.3177724e-38 283 213
-0.05169528 0.81900001 0.038771462 1.2898985e-38 284 213
-0.0502593 0.81900001 0.038771462 1.2345812e-38 285 213
-0.048823319 0.81900001 0.038771462 1.1885935e-38 286 213
-0.047503054 0.82099998 0.03886614 1.1701543e-38 287 213
-0.046175785 0.82300001 0.038960818 1.1057622e-38 288 213
-0.044732794 0.82300001 0.038960818 1.1057622e-38 289 213
-0.043394998 0.82499999 0.039055496 1.0965071e-38 290 213
-0.04205019 0.82700002 0.039150178 1.0872874e-38 291 213
-0.040600184 0.82700002 0.039150178 1.059701e-38 292 213
-0.039150178 0.82700002 0.039150178 1.0228227e-38 293 213
-0.037700173 0.82700002 0.039150178 1.0134605e-38 294 213
-0.036337834 0.829 0.039244857 9.3048446e-39 295 213
-0.034884319 0.829 0.039244857 7.7400567e-39 296 213
0.055500012 0.833 0.039434217 1.0135363e-38 358 213
0.056960538 0.833 0.039434217 1.0135363e-38 359 213
0.058280796 0.83099997 0.039339535 1.0499131e-38 360 213
0.059737816 0.83099997 0.039339535 1.0591326e-38 361 213
0.061342116 0.833 0.039434217 8.4816294e-39 362 213
-0.087594777 0.81900001 0.037335481 1.42035e-38 259 214
-0.086158797 0.81900001 0.037335481 1.5760331e-38 260 214
-0.084515922 0.81699997 0.037244301 1.5945082e-38 261 214
-0.083083443 0.81699997 0.037244301 1.6589691e-38 262 214
-0.08165098 0.81699997 0.037244301 1.6865918e-38 263 214
-0.080218501 0.81699997 0.037244301 1.7234325e-38 264 214
-0.078593165 0.815 0.037153132 1.7419076e-38 265 214
-0.077164195 0.815 0.037153132 1.7603467e-38 266 214
-0.075735234 0.815 0.037153132 1.7695663e-38 267 214
-0.074123919 0.81300002 0.03706196 1.7695663e-38 268 214
-0.072698459 0.81300002 0.03706196 1.7787858e-38 269 214
-0.071272999 0.81300002 0.03706196 1.7787135e-38 270 214
-0.069847539 0.81300002 0.03706196 1.7694581e-38 271 214
-0.068253763 0.81099999 0.036970787 1.732688e-38 272 214
-0.066831805 0.81099999 0.036970787 1.6958098e-38 273 214
-0.065409854 0.81099999 0.036970787 1.686483e-38 274 214
-0.064145707 0.81300002 0.03706196 1.6495688e-38 275 214
-0.062720239 0.81300002 0.03706196 1.6035435e-38 276 214
-0.06144556 0.815 0.037153132 1.5759207e-38 277 214
-0.060163878 0.81699997 0.037244301 1.5390069e-38 278 214
-0.058731399 0.81699997 0.037244301 1.5297514e-38 279 214
-0.057298932 0.81699997 0.037244301 1.4286239e-38 280 214
-0.055866458 0.81699997 0.037244301 1.4101847e-38 281 214
-0.054433983 0.81699997 0.037244301 1.3271014e-38 282 214
-0.053001508 0.81699997 0.037244301 1.2625645e-38 283 214
-0.05169528 0.81900001 0.037335481 1.1704061e-38 284 214
-0.0502593 0.81900001 0.037335481 1.1519311e-38 285 214
-0.048823319 0.81900001 0.037335481 1.1701909e-38 286 214
-0.04761878 0.82300001 0.037517827 1.1333127e-38 287 214
-0.046175785 0.82300001 0.037517827 1.1241651e-38 288 214
-0.044841498 0.82499999 0.037608996 1.105762e-38 289 214
-0.043394998 0.82499999 0.037608996 1.0598085e-38 290 214
-0.04205019 0.82700002 0.037700173 1.0413335e-38 291 214
-0.040600184 0.82700002 0.037700173 9.9520105e-39 292 214
-0.039150178 0.82700002 0.037700173 9.5835867e-39 293 214
-0.037700173 0.82700002 0.037700173 8.5694642e-39 294 214
-0.036250167 0.82700002 0.037700173 8.0166491e-39 295 214
-0.089248173 0.82099998 0.035987165 1.6230336e-38 258 215
-0.087594777 0.81900001 0.035899501 1.3741054e-38 259 215
-0.086158797 0.81900001 0.035899501 1.649499e-38 260 215
-0.084515922 0.81699997 0.03581183 1.6771578e-38 261 215
-0.083083443 0.81699997 0.03581183 1.6590041e-38 262 215
-0.08165098 0.81699997 0.03581183 1.6958464e-38 263 215
-0.080218501 0.81699997 0.03581183 1.7326875e-38 264 215
-0.078593165 0.815 0.035724167 1.7511625e-38 265 215
-0.076974839 0.81300002 0.0356365 1.7787135e-38 266 215
-0.075549379 0.81300002 0.0356365 1.7879331e-38 267 215
-0.074123919 0.81300002 0.0356365 1.7695663e-38 268 215
-0.072698459 0.81300002 0.0356365 1.7695663e-38 269 215
-0.071272999 0.81300002 0.0356365 1.7511269e-38 270 215
-0.069675706 0.81099999 0.035548832 1.7419073e-38 271 215
-0.068253763 0.81099999 0.035548832 1.7233609e-38 272 215
-0.066831805 0.81099999 0.035548832 1.7049217e-38 273 215
-0.065409854 0.81099999 0.035548832 1.6587886e-38 274 215
-0.063987896 0.81099999 0.035548832 1.6219464e-38 275 215
-0.062720239 0.81300002 0.0356365 1.5942519e-38 276 215
-0.061294779 0.81300002 0.0356365 1.5573738e-38 277 215
-0.060016599 0.815 0.035724167 1.5297514e-38 278 215
-0.058731399 0.81699997 0.03581183 1.5021286e-38 279 215
-0.057298932 0.81699997 0.03581183 1.4008213e-38 280 215
-0.055866458 0.81699997 0.03581183 1.3455039e-38 281 215
-0.054433983 0.81699997 0.03581183 1.2533449e-38 282 215
-0.053131256 0.81900001 0.035899501 1.1980275e-38 283 215
-0.05169528 0.81900001 0.035899501 1.1611146e-38 284 215
-0.0502593 0.81900001 0.035899501 1.1518591e-38 285 215
-0.048823319 0.81900001 0.035899501 1.1333852e-38 286 215
-0.04761878 0.82300001 0.036074832 1.1241298e-38 287 215
-0.046175785 0.82300001 0.036074832 1.0782475e-38 288 215
-0.044841498 0.82499999 0.036162499 1.0598082e-38 289 215
-0.043394998 0.82499999 0.036162499 1.0505167e-38 290 215
-0.04205019 0.82700002 0.036250167 1.0136025e-38 291 215
-0.040600184 0.82700002 0.036250167 8.8460343e-39 292 215
-0.039150178 0.82700002 0.036250167 8.2928605e-39 293 215
-0.090687655 0.82099998 0.034547675 1.6228948e-38 257 216
-0.089248173 0.82099998 0.034547675 1.5581707e-38 258 216
-0.087594777 0.81900001 0.034463517 1.4383164e-38 259 216
-0.086158797 0.81900001 0.034463517 1.6220533e-38 260 216
-0.084722817 0.81900001 0.034463517 1.6681511e-38 261 216
-0.083286837 0.81900001 0.034463517 1.6682584e-38 262 216
-0.08165098 0.81699997 0.034379359 1.7051365e-38 263 216
-0.080218501 0.81699997 0.034379359 1.7419073e-38 264 216
-0.078593165 0.815 0.034295198 1.7511269e-38 265 216
-0.076974839 0.81300002 0.03421104 1.7603467e-38 266 216
-0.075549379 0.81300002 0.03421104 1.7695663e-38 267 216
-0.073941574 0.81099999 0.034126882 1.7604186e-38 268 216
-0.072519615 0.81099999 0.034126882 1.751199e-38 269 216
-0.071097665 0.81099999 0.034126882 1.741872e-38 270 216
-0.069675706 0.81099999 0.034126882 1.7234327e-38 271 216
-0.068253763 0.81099999 0.034126882 1.7048861e-38 272 216
-0.066831805 0.81099999 0.034126882 1.6680438e-38 273 216
-0.065409854 0.81099999 0.034126882 1.6403495e-38 274 216
-0.063987896 0.81099999 0.034126882 1.6127268e-38 275 216
-0.062720239 0.81300002 0.03421104 1.5667009e-38 276 216
-0.061294779 0.81300002 0.03421104 1.5390063e-38 277 216
-0.059869319 0.81300002 0.03421104 1.5021286e-38 278 216
-0.058731399 0.81699997 0.034379359 1.4836895e-38 279 216
-0.057298932 0.81699997 0.034379359 1.3362491e-38 280 216
-0.055866458 0.81699997 0.034379359 1.2717121e-38 281 216
-0.054433983 0.81699997 0.034379359 1.1796254e-38 282 216
-0.053131256 0.81900001 0.034463517 1.1704058e-38 283 216
-0.05169528 0.81900001 0.034463517 1.151824e-38 284 216
-0.0502593 0.81900001 0.034463517 1.1426045e-38 285 216
-0.049061771 0.82300001 0.034631841 1.1150184e-38 286 216
-0.04761878 0.82300001 0.034631841 1.1057988e-38 287 216
-0.046175785 0.82300001 0.034631841 1.0781041e-38 288 216
-0.044732794 0.82300001 0.034631841 1.0504814e-38 289 216
-0.043394998 0.82499999 0.034715999 9.7661773e-39 290 216
-0.04205019 0.82700002 0.034800157 9.3970346e-39 291 216
-0.090687655 0.82099998 0.03310819 1.493999e-38 257 217
-0.089248173 0.82099998 0.03310819 1.484125e-38 258 217
-0.087594777 0.81900001 0.033027537 1.5210031e-38 259 217
-0.086158797 0.81900001 0.033027537 1.6313447e-38 260 217
-0.084722817 0.81900001 0.033027537 1.6590036e-38 261 217
-0.083083443 0.81699997 0.032946885 1.6959167e-38 262 217
-0.08165098 0.81699997 0.032946885 1.714356e-38 263 217
-0.080218501 0.81699997 0.032946885 1.7327957e-38 264 217
-0.078207433 0.81099999 0.032704927 1.7604183e-38 265 217
-0.076785475 0.81099999 0.032704927 1.7604189e-38 266 217
-0.075363517 0.81099999 0.032704927 1.7604189e-38 267 217
-0.073941574 0.81099999 0.032704927 1.7511635e-38 268 217
-0.072519615 0.81099999 0.032704927 1.7327603e-38 269 217
-0.071097665 0.81099999 0.032704927 1.7233974e-38 270 217
-0.069675706 0.81099999 0.032704927 1.6957748e-38 271 217
-0.06808544 0.80900002 0.032624274 1.6772637e-38 272 217
-0.066666998 0.80900002 0.032624274 1.649569e-38 273 217
-0.065409854 0.81099999 0.032704927 1.6219108e-38 274 217
-0.063987896 0.81099999 0.032704927 1.5942519e-38 275 217
-0.062720239 0.81300002 0.03278558 1.5482617e-38 276 217
-0.061294779 0.81300002 0.03278558 1.5113835e-38 277 217
-0.059869319 0.81300002 0.03278558 1.4836539e-38 278 217
-0.058731399 0.81699997 0.032946885 1.4283724e-38 279 217
-0.057298932 0.81699997 0.032946885 1.2624938e-38 280 217
-0.055866458 0.81699997 0.032946885 1.216396e-38 281 217
-0.054567236 0.81900001 0.033027537 1.1611512e-38 282 217
-0.053131256 0.81900001 0.033027537 1.1611512e-38 283 217
-0.05169528 0.81900001 0.033027537 1.1242732e-38 284 217
-0.0502593 0.81900001 0.033027537 1.1150537e-38 285 217
-0.049061771 0.82300001 0.033188846 1.1057632e-38 286 217
-0.04761878 0.82300001 0.033188846 1.0873241e-38 287 217
-0.046175785 0.82300001 0.033188846 1.0412987e-38 288 217
-0.044732794 0.82300001 0.033188846 9.9520105e-39 289 217
-0.043394998 0.82499999 0.033269498 9.1204702e-39 290 217
-0.088595927 0.815 0.031437267 1.5575205e-38 258 218
-0.087166965 0.815 0.031437267 1.6128378e-38 259 218
-0.085738003 0.815 0.031437267 1.6497843e-38 260 218
-0.084515922 0.81699997 0.03151441 1.6682234e-38 261 218
-0.083083443 0.81699997 0.03151441 1.7051363e-38 262 218
-0.081451096 0.815 0.031437267 1.732831e-38 263 218
-0.080022126 0.815 0.031437267 1.7511988e-38 264 218
-0.078207433 0.81099999 0.031282969 1.7511988e-38 265 218
-0.076785475 0.81099999 0.031282969 1.7604189e-38 266 218
-0.075363517 0.81099999 0.031282969 1.7511635e-38 267 218
-0.073759228 0.80900002 0.031205826 1.7418723e-38 268 218
-0.072340779 0.80900002 0.031205826 1.7326527e-38 269 218
-0.071097665 0.81099999 0.031282969 1.7233609e-38 270 218
-0.069675706 0.81099999 0.031282969 1.6864827e-38 271 218
-0.06808544 0.80900002 0.031205826 1.6588236e-38 272 218
-0.066666998 0.80900002 0.031205826 1.6219814e-38 273 218
-0.065409854 0.81099999 0.031282969 1.5943591e-38 274 218
-0.063987896 0.81099999 0.031282969 1.557481e-38 275 218
-0.062565938 0.81099999 0.031282969 1.5297514e-38 276 218
-0.061294779 0.81300002 0.03136012 1.4929091e-38 277 218
-0.059869319 0.81300002 0.03136012 1.3915311e-38 278 218
-0.058587633 0.815 0.031437267 1.3269942e-38 279 218
-0.057158664 0.815 0.031437267 1.1889174e-38 280 218
-0.055866458 0.81699997 0.03151441 1.1796978e-38 281 218
-0.054433983 0.81699997 0.03151441 1.1611156e-38 282 218
-0.053131256 0.81900001 0.031591557 1.1426764e-38 283 218
-0.05169528 0.81900001 0.031591557 1.1150903e-38 284 218
-0.0502593 0.81900001 0.031591557 1.1150903e-38 285 218
-0.049061771 0.82300001 0.031745855 1.069065e-38 286 218
-0.04761878 0.82300001 0.031745855 1.0414065e-38 287 218
-0.046175785 0.82300001 0.031745855 9.6739943e-39 288 218
-0.044732794 0.82300001 0.031745855 8.5680054e-39 289 218
-0.089362144 0.80900002 0.02978738 1.4292063e-38 257 219
-0.088161096 0.81099999 0.02986102 1.5852842e-38 258 219
-0.086739153 0.81099999 0.02986102 1.631418e-38 259 219
-0.085317194 0.81099999 0.02986102 1.7049565e-38 260 219
-0.083895244 0.81099999 0.02986102 1.7234315e-38 261 219
-0.082473285 0.81099999 0.02986102 1.7236114e-38 262 219
-0.080851458 0.80900002 0.02978738 1.7512341e-38 263 219
-0.079433009 0.80900002 0.02978738 1.7603467e-38 264 219
-0.078014567 0.80900002 0.02978738 1.7695663e-38 265 219
-0.076596119 0.80900002 0.02978738 1.7603114e-38 266 219
-0.07517767 0.80900002 0.02978738 1.7510918e-38 267 219
-0.073759228 0.80900002 0.02978738 1.7326174e-38 268 219
-0.072340779 0.80900002 0.02978738 1.7049946e-38 269 219
-0.071097665 0.81099999 0.02986102 1.7048861e-38 270 219
-0.069503881 0.80900002 0.02978738 1.6588242e-38 271 219
-0.06808544 0.80900002 0.02978738 1.6403848e-38 272 219
-0.066666998 0.80900002 0.02978738 1.6035065e-38 273 219
-0.065409854 0.81099999 0.02986102 1.5850321e-38 274 219
-0.063987896 0.81099999 0.02986102 1.5481899e-38 275 219
-0.062565938 0.81099999 0.02986102 1.4929093e-38 276 219
-0.061294779 0.81300002 0.02993466 1.4652148e-38 277 219
-0.059869319 0.81300002 0.02993466 1.3086995e-38 278 219
-0.058587633 0.815 0.030008299 1.2441626e-38 279 219
-0.057158664 0.815 0.030008299 1.1980295e-38 280 219
-0.055866458 0.81699997 0.030081939 1.1703708e-38 281 219
-0.054433983 0.81699997 0.030081939 1.1518963e-38 282 219
-0.053131256 0.81900001 0.030155579 1.1426766e-38 283 219
-0.05169528 0.81900001 0.030155579 1.1150903e-38 284 219
-0.0502593 0.81900001 0.030155579 1.0874676e-38 285 219
-0.048942544 0.82099998 0.030229218 1.0782127e-38 286 219
-0.04761878 0.82300001 0.03030286 9.9520077e-39 287 219
-0.089362144 0.80900002 0.028368933 1.4658306e-38 257 220
-0.087943695 0.80900002 0.028368933 1.6220896e-38 258 220
-0.086525239 0.80900002 0.028368933 1.6682234e-38 259 220
-0.085106798 0.80900002 0.028368933 1.6775858e-38 260 220
-0.083688356 0.80900002 0.028368933 1.6868053e-38 261 220
-0.082269907 0.80900002 0.028368933 1.7327954e-38 262 220
-0.080851458 0.80900002 0.028368933 1.7512344e-38 263 220
-0.079433009 0.80900002 0.028368933 1.7603464e-38 264 220
-0.078014567 0.80900002 0.028368933 1.7603464e-38 265 220
-0.076596119 0.80900002 0.028368933 1.7786782e-38 266 220
-0.07517767 0.80900002 0.028368933 1.7510197e-38 267 220
-0.073759228 0.80900002 0.028368933 1.723433e-38 268 220
-0.072340779 0.80900002 0.028368933 1.6865549e-38 269 220
-0.07092233 0.80900002 0.028368933 1.6772635e-38 270 220
-0.069503881 0.80900002 0.028368933 1.6495688e-38 271 220
-0.06808544 0.80900002 0.028368933 1.6127987e-38 272 220
-0.066666998 0.80900002 0.028368933 1.5759204e-38 273 220
-0.065409854 0.81099999 0.028439065 1.5482264e-38 274 220
-0.063987896 0.81099999 0.028439065 1.5297514e-38 275 220
-0.062565938 0.81099999 0.028439065 1.4193326e-38 276 220
-0.061143994 0.81099999 0.028439065 1.3455402e-38 277 220
-0.059869319 0.81300002 0.0285092 1.2441979e-38 278 220
-0.058587633 0.815 0.028579332 1.1981001e-38 279 220
-0.057158664 0.815 0.028579332 1.2071414e-38 280 220
-0.055866458 0.81699997 0.028649466 1.1702992e-38 281 220
-0.054567236 0.81900001 0.0287196 1.1335298e-38 282 220
-0.053131256 0.81900001 0.0287196 1.1243101e-38 283 220
-0.05169528 0.81900001 0.0287196 1.0874686e-38 284 220
-0.0502593 0.81900001 0.0287196 1.0874686e-38 285 220
-0.048942544 0.82099998 0.028789733 1.0504833e-38 286 220
-0.04761878 0.82300001 0.028859867 8.4765287e-39 287 220
-0.091515228 0.80299997 0.026750606 1.4939265e-38 255 221
-0.090107299 0.80299997 0.026750606 1.4839801e-38 256 221
-0.08914122 0.80699998 0.026883857 1.5392975e-38 257 221
-0.08772628 0.80699998 0.026883857 1.6222328e-38 258 221
-0.086311333 0.80699998 0.026883857 1.659111e-38 259 221
-0.084896393 0.80699998 0.026883857 1.6775858e-38 260 221
-0.083481453 0.80699998 0.026883857 1.7144281e-38 261 221
-0.082066514 0.80699998 0.026883857 1.7327959e-38 262 221
-0.080651581 0.80699998 0.026883857 1.751199e-38 263 221
-0.079236634 0.80699998 0.026883857 1.7603467e-38 264 221
-0.077821694 0.80699998 0.026883857 1.7603467e-38 265 221
-0.076406755 0.80699998 0.026883857 1.7235408e-38 266 221
-0.074991815 0.80699998 0.026883857 1.7051015e-38 267 221
-0.073576882 0.80699998 0.026883857 1.6958101e-38 268 221
-0.072161935 0.80699998 0.026883857 1.6773351e-38 269 221
-0.070746996 0.80699998 0.026883857 1.6588242e-38 270 221
-0.069503881 0.80900002 0.026950486 1.6219461e-38 271 221
-0.06808544 0.80900002 0.026950486 1.6034714e-38 272 221
-0.066666998 0.80900002 0.026950486 1.5758125e-38 273 221
-0.065248549 0.80900002 0.026950486 1.529787e-38 274 221
-0.063987896 0.81099999 0.027017111 1.4836892e-38 275 221
-0.062565938 0.81099999 0.027017111 1.3916027e-38 276 221
-0.061143994 0.81099999 0.027017111 1.2902234e-38 277 221
-0.059869319 0.81300002 0.02708374 1.1980651e-38 278 221
-0.058587633 0.815 0.027150365 1.1703705e-38 279 221
-0.057158664 0.815 0.027150365 1.1520042e-38 280 221
-0.055866458 0.81699997 0.027216991 1.1427847e-38 281 221
-0.054567236 0.81900001 0.027283618 1.1243098e-38 282 221
-0.053131256 0.81900001 0.027283618 1.1243098e-38 283 221
-0.05169528 0.81900001 0.027283618 1.0875042e-38 284 221
-0.0502593 0.81900001 0.027283618 1.0137477e-38 285 221
-0.048942544 0.82099998 0.027350245 9.3073852e-39 286 221
-0.092807434 0.80199999 0.02531112 1.5767576e-38 254 222
-0.091515228 0.80299997 0.025342679 1.4384641e-38 255 222
-0.090107299 0.80299997 0.025342679 1.5484082e-38 256 222
-0.088699371 0.80299997 0.025342679 1.6036895e-38 257 222
-0.08772628 0.80699998 0.025468919 1.6498196e-38 258 222
-0.086097427 0.80500001 0.025405798 1.6682587e-38 259 222
-0.084685996 0.80500001 0.025405798 1.7143565e-38 260 222
-0.083481453 0.80699998 0.025468919 1.7143565e-38 261 222
-0.082066514 0.80699998 0.025468919 1.7327959e-38 262 222
-0.080651581 0.80699998 0.025468919 1.751199e-38 263 222
-0.079236634 0.80699998 0.025468919 1.7603467e-38 264 222
-0.077821694 0.80699998 0.025468919 1.7511272e-38 265 222
-0.076406755 0.80699998 0.025468919 1.7326524e-38 266 222
-0.074991815 0.80699998 0.025468919 1.7050296e-38 267 222
-0.07339453 0.80500001 0.025405798 1.6773351e-38 268 222
-0.071983099 0.80500001 0.025405798 1.6588958e-38 269 222
-0.070746996 0.80699998 0.025468919 1.6403492e-38 270 222
-0.069503881 0.80900002 0.025532039 1.6127265e-38 271 222
-0.067917116 0.80699998 0.025468919 1.5759204e-38 272 222
-0.066502176 0.80699998 0.025468919 1.5482617e-38 273 222
-0.065248549 0.80900002 0.025532039 1.4929088e-38 274 222
-0.063830093 0.80900002 0.025532039 1.4191523e-38 275 222
-0.062565938 0.81099999 0.025595158 1.3177743e-38 276 222
-0.061143994 0.81099999 0.025595158 1.2347981e-38 277 222
-0.05972204 0.81099999 0.025595158 1.1978853e-38 278 222
-0.058587633 0.815 0.025721399 1.1886657e-38 279 222
-0.057298932 0.81699997 0.025784519 1.1518963e-38 280 222
-0.056003217 0.81900001 0.02584764 1.1518963e-38 281 222
-0.054567236 0.81900001 0.02584764 1.1243101e-38 282 222
-0.053131256 0.81900001 0.02584764 1.1150905e-38 283 222
-0.05169528 0.81900001 0.02584764 1.0874688e-38 284 222
-0.0502593 0.81900001 0.02584764 9.3073627e-39 285 222
-0.048942544 0.82099998 0.025910759 8.0170121e-39 286 222
-0.093978666 0.80000001 0.023845334 1.7150908e-38 253 223
-0.092575997 0.80000001 0.023845334 1.5212224e-38 254 223
-0.091515228 0.80299997 0.023934752 1.4474659e-38 255 223
-0.090107299 0.80299997 0.023934752 1.576029e-38 256 223
-0.088699371 0.80299997 0.023934752 1.6129432e-38 257 223
-0.087291449 0.80299997 0.023934752 1.6681505e-38 258 223
-0.085883521 0.80299997 0.023934752 1.6866255e-38 259 223
-0.084685996 0.80500001 0.023994366 1.7143209e-38 260 223
-0.083274566 0.80500001 0.023994366 1.7235405e-38 261 223
-0.081863128 0.80500001 0.023994366 1.7236127e-38 262 223
-0.080451705 0.80500001 0.023994366 1.7236127e-38 263 223
-0.079040267 0.80500001 0.023994366 1.7327603e-38 264 223
-0.077628836 0.80500001 0.023994366 1.7235408e-38 265 223
-0.076217398 0.80500001 0.023994366 1.7051015e-38 266 223
-0.074805968 0.80500001 0.023994366 1.6866265e-38 267 223
-0.07339453 0.80500001 0.023994366 1.6772635e-38 268 223
-0.071983099 0.80500001 0.023994366 1.6588242e-38 269 223
-0.070571661 0.80500001 0.023994366 1.6219461e-38 270 223
-0.069332056 0.80699998 0.02405398 1.6035068e-38 271 223
-0.067917116 0.80699998 0.02405398 1.5758478e-38 272 223
-0.066502176 0.80699998 0.02405398 1.5481893e-38 273 223
-0.065248549 0.80900002 0.024113594 1.4744699e-38 274 223
-0.063830093 0.80900002 0.024113594 1.3638352e-38 275 223
-0.062565938 0.81099999 0.024173206 1.2717134e-38 276 223
-0.061143994 0.81099999 0.024173206 1.1979569e-38 277 223
-0.05972204 0.81099999 0.024173206 1.19785e-38 278 223
-0.058731399 0.81699997 0.024352046 1.1886304e-38 279 223
-0.057298932 0.81699997 0.024352046 1.1426766e-38 280 223
-0.056003217 0.81900001 0.02441166 1.1426766e-38 281 223
-0.054567236 0.81900001 0.02441166 1.0967234e-38 282 223
-0.053131256 0.81900001 0.02441166 1.0690648e-38 283 223
-0.05169528 0.81900001 0.02441166 1.0411196e-38 284 223
-0.0502593 0.81900001 0.02441166 8.7513149e-39 285 223
-0.093978666 0.80000001 0.022442667 1.6413693e-38 253 224
-0.092575997 0.80000001 0.022442667 1.4381365e-38 254 224
-0.091515228 0.80299997 0.022526825 1.4565758e-38 255 224
-0.090107299 0.80299997 0.022526825 1.603687e-38 256 224
-0.088699371 0.80299997 0.022526825 1.6220901e-38 257 224
-0.087291449 0.80299997 0.022526825 1.6681511e-38 258 224
-0.085883521 0.80299997 0.022526825 1.6865902e-38 259 224
-0.084685996 0.80500001 0.022582933 1.7050659e-38 260 224
-0.083274566 0.80500001 0.022582933 1.7235411e-38 261 224
-0.081863128 0.80500001 0.022582933 1.7236129e-38 262 224
-0.080451705 0.80500001 0.022582933 1.7236129e-38 263 224
-0.079040267 0.80500001 0.022582933 1.7143212e-38 264 224
-0.077628836 0.80500001 0.022582933 1.7051015e-38 265 224
-0.076217398 0.80500001 0.022582933 1.7050296e-38 266 224
-0.074620105 0.80299997 0.022526825 1.6773351e-38 267 224
-0.073212177 0.80299997 0.022526825 1.6680435e-38 268 224
-0.071983099 0.80500001 0.022582933 1.6403848e-38 269 224
-0.070571661 0.80500001 0.022582933 1.6035786e-38 270 224
-0.06916023 0.80500001 0.022582933 1.5759557e-38 271 224
-0.0677488 0.80500001 0.022582933 1.5481896e-38 272 224
-0.066502176 0.80699998 0.022639038 1.5204949e-38 273 224
-0.065248549 0.80900002 0.022695147 1.382563e-38 274 224
-0.063830093 0.80900002 0.022695147 1.2442695e-38 275 224
-0.062565938 0.81099999 0.022751253 1.2256163e-38 276 224
-0.061143994 0.81099999 0.022751253 1.1979216e-38 277 224
-0.059869319 0.81300002 0.02280736 1.1886301e-38 278 224
-0.058731399 0.81699997 0.022919571 1.1701909e-38 279 224
-0.057298932 0.81699997 0.022919571 1.1426761e-38 280 224
-0.056003217 0.81900001 0.022975679 1.124273e-38 281 224
-0.054567236 0.81900001 0.022975679 1.0874323e-38 282 224
-0.053131256 0.81900001 0.022975679 1.0412984e-38 283 224
-0.05169528 0.81900001 0.022975679 9.1229939e-39 284 224
-0.0502593 0.81900001 0.022975679 7.9244507e-39 285 224
-0.094213605 0.80199999 0.021092599 1.5675405e-38 253 225
-0.092807434 0.80199999 0.021092599 1.456359e-38 254 225
-0.091515228 0.80299997 0.0211189 1.5024568e-38 255 225
-0.090107299 0.80299997 0.0211189 1.6128337e-38 256 225
-0.088699371 0.80299997 0.0211189 1.6312728e-38 257 225
-0.087291449 0.80299997 0.0211189 1.68641e-38 258 225
-0.085883521 0.80299997 0.0211189 1.7048493e-38 259 225
-0.084685996 0.80500001 0.021171499 1.7050659e-38 260 225
-0.083274566 0.80500001 0.021171499 1.7143215e-38 261 225
-0.081863128 0.80500001 0.021171499 1.7235055e-38 262 225
-0.080451705 0.80500001 0.021171499 1.7235055e-38 263 225
-0.079040267 0.80500001 0.021171499 1.7142859e-38 264 225
-0.077628836 0.80500001 0.021171499 1.6958466e-38 265 225
-0.076217398 0.80500001 0.021171499 1.7049217e-38 266 225
-0.074620105 0.80299997 0.0211189 1.6680435e-38 267 225
-0.073212177 0.80299997 0.0211189 1.6404571e-38 268 225
-0.071804255 0.80299997 0.0211189 1.622018e-38 269 225
-0.070571661 0.80500001 0.021171499 1.594324e-38 270 225
-0.06916023 0.80500001 0.021171499 1.5759207e-38 271 225
-0.0677488 0.80500001 0.021171499 1.5391148e-38 272 225
-0.066502176 0.80699998 0.021224098 1.4100409e-38 273 225
-0.065248549 0.80900002 0.021276699 1.3179907e-38 274 225
-0.063830093 0.80900002 0.021276699 1.1981724e-38 275 225
-0.062565938 0.81099999 0.021329299 1.2346206e-38 276 225
-0.061143994 0.81099999 0.021329299 1.2161815e-38 277 225
-0.059869319 0.81300002 0.0213819 1.161044e-38 278 225
-0.058731399 0.81699997 0.021487098 1.1518243e-38 279 225
-0.057298932 0.81699997 0.021487098 1.1426766e-38 280 225
-0.055866458 0.81699997 0.021487098 1.1150181e-38 281 225
-0.054567236 0.81900001 0.021539699 1.0597027e-38 282 225
-0.053131256 0.81900001 0.021539699 9.2140909e-39 283 225
-0.05169528 0.81900001 0.021539699 8.2896529e-39 284 225
-0.095739007 0.80299997 0.019710973 1.6136737e-38 252 226
-0.094331078 0.80299997 0.019710973 1.4845998e-38 253 226
-0.092923149 0.80299997 0.019710973 1.4746889e-38 254 226
-0.091743164 0.80500001 0.019760067 1.5484455e-38 255 226
-0.090107299 0.80299997 0.019710973 1.6037221e-38 256 226
-0.088699371 0.80299997 0.019710973 1.6221252e-38 257 226
-0.087291449 0.80299997 0.019710973 1.6588605e-38 258 226
-0.085883521 0.80299997 0.019710973 1.6957748e-38 259 226
-0.084475599 0.80299997 0.019710973 1.6682968e-38 260 226
-0.08306767 0.80299997 0.019710973 1.6775165e-38 261 226
-0.081659742 0.80299997 0.019710973 1.6958841e-38 262 226
-0.08025182 0.80299997 0.019710973 1.6958841e-38 263 226
-0.079040267 0.80500001 0.019760067 1.705031e-38 264 226
-0.077628836 0.80500001 0.019760067 1.6865918e-38 265 226
-0.076217398 0.80500001 0.019760067 1.6681155e-38 266 226
-0.074620105 0.80299997 0.019710973 1.6588958e-38 267 226
-0.073212177 0.80299997 0.019710973 1.6494969e-38 268 226
-0.071804255 0.80299997 0.019710973 1.6310577e-38 269 226
-0.070396326 0.80299997 0.019710973 1.5849971e-38 270 226
-0.068988405 0.80299997 0.019710973 1.5573744e-38 271 226
-0.067917116 0.80699998 0.019809159 1.474651e-38 272 226
-0.066502176 0.80699998 0.019809159 1.327174e-38 273 226
-0.065248549 0.80900002 0.019858252 1.2625664e-38 274 226
-0.063830093 0.80900002 0.019858252 1.1980295e-38 275 226
-0.062565938 0.81099999 0.019907346 1.1795556e-38 276 226
-0.061143994 0.81099999 0.019907346 1.151861e-38 277 226
-0.059869319 0.81300002 0.01995644 1.151789e-38 278 226
-0.058587633 0.815 0.020005532 1.151789e-38 279 226
-0.057298932 0.81699997 0.020054625 1.1058354e-38 280 226
-0.055866458 0.81699997 0.020054625 1.0597377e-38 281 226
-0.097146936 0.80299997 0.018303044 1.7704448e-38 251 227
-0.095739007 0.80299997 0.018303044 1.5491352e-38 252 227
-0.094331078 0.80299997 0.018303044 1.383147e-38 253 227
-0.092923149 0.80299997 0.018303044 1.5391529e-38 254 227
-0.091515228 0.80299997 0.018303044 1.5575921e-38 255 227
-0.090107299 0.80299997 0.018303044 1.6037221e-38 256 227
-0.088699371 0.80299997 0.018303044 1.6313447e-38 257 227
-0.087291449 0.80299997 0.018303044 1.6681158e-38 258 227
-0.085883521 0.80299997 0.018303044 1.6865549e-38 259 227
-0.084475599 0.80299997 0.018303044 1.6774801e-38 260 227
-0.08306767 0.80299997 0.018303044 1.6866998e-38 261 227
-0.081659742 0.80299997 0.018303044 1.7049957e-38 262 227
-0.08025182 0.80299997 0.018303044 1.695776e-38 263 227
-0.078843892 0.80299997 0.018303044 1.6958116e-38 264 227
-0.077435955 0.80299997 0.018303044 1.6681531e-38 265 227
-0.076028034 0.80299997 0.018303044 1.6773356e-38 266 227
-0.074620105 0.80299997 0.018303044 1.6312378e-38 267 227
-0.073212177 0.80299997 0.018303044 1.6403492e-38 268 227
-0.071804255 0.80299997 0.018303044 1.6035068e-38 269 227
-0.070396326 0.80299997 0.018303044 1.5667377e-38 270 227
-0.068988405 0.80299997 0.018303044 1.5022008e-38 271 227
-0.0677488 0.80500001 0.018348632 1.373416e-38 272 227
-0.066337362 0.80500001 0.018348632 1.2443422e-38 273 227
-0.065248549 0.80900002 0.018439807 1.2898658e-38 274 227
-0.063987896 0.81099999 0.018485393 1.2253289e-38 275 227
-0.062720239 0.81300002 0.01853098 1.1885598e-38 276 227
-0.061294779 0.81300002 0.01853098 1.1793402e-38 277 227
-0.059869319 0.81300002 0.01853098 1.1335298e-38 278 227
-0.058587633 0.815 0.018576566 1.1150905e-38 279 227
-0.057298932 0.81699997 0.018622151 1.1242396e-38 280 227
-0.055866458 0.81699997 0.018622151 1.0228603e-38 281 227
-0.097146936 0.80299997 0.016895119 1.7150908e-38 251 228
-0.095739007 0.80299997 0.016895119 1.4661571e-38 252 228
-0.094331078 0.80299997 0.016895119 1.3554864e-38 253 228
-0.092923149 0.80299997 0.016895119 1.5392235e-38 254 228
-0.091515228 0.80299997 0.016895119 1.5576628e-38 255 228
-0.090107299 0.80299997 0.016895119 1.6127987e-38 256 228
-0.088699371 0.80299997 0.016895119 1.6404574e-38 257 228
-0.087291449 0.80299997 0.016895119 1.6589685e-38 258 228
-0.085883521 0.80299997 0.016895119 1.6866271e-38 259 228
-0.084475599 0.80299997 0.016895119 1.6682249e-38 260 228
-0.08306767 0.80299997 0.016895119 1.6774445e-38 261 228
-0.081659742 0.80299997 0.016895119 1.6865211e-38 262 228
-0.08025182 0.80299997 0.016895119 1.6865211e-38 263 228
-0.078843892 0.80299997 0.016895119 1.6588982e-38 264 228
-0.077435955 0.80299997 0.016895119 1.6496786e-38 265 228
-0.076028034 0.80299997 0.016895119 1.6405293e-38 266 228
-0.074527182 0.80199999 0.016874079 1.603687e-38 267 228
-0.073121011 0.80199999 0.016874079 1.5852473e-38 268 228
-0.071714841 0.80199999 0.016874079 1.5668081e-38 269 228
-0.070308663 0.80199999 0.016874079 1.5299671e-38 270 228
-0.068902493 0.80199999 0.016874079 1.428552e-38 271 228
-0.067580476 0.80299997 0.016895119 1.3547974e-38 272 228
-0.066337362 0.80500001 0.0169372 1.2626017e-38 273 228
-0.065248549 0.80900002 0.01702136 1.2898661e-38 274 228
-0.063987896 0.81099999 0.017063441 1.2529518e-38 275 228
-0.062565938 0.81099999 0.017063441 1.1886673e-38 276 228
-0.061294779 0.81300002 0.01710552 1.1702283e-38 277 228
-0.059869319 0.81300002 0.01710552 1.1335295e-38 278 228
-0.058587633 0.815 0.017147599 1.1150903e-38 279 228
-0.057158664 0.815 0.017147599 1.0412634e-38 280 228
-0.097146936 0.80299997 0.015487193 1.5860522e-38 251 229
-0.095739007 0.80299997 0.015487193 1.4565758e-38 252 229
-0.094331078 0.80299997 0.015487193 1.4381365e-38 253 229
-0.092923149 0.80299997 0.015487193 1.5484059e-38 254 229
-0.091515228 0.80299997 0.015487193 1.5760646e-38 255 229
-0.089995086 0.80199999 0.015467905 1.6312375e-38 256 229
-0.088588916 0.80199999 0.015467905 1.6588961e-38 257 229
-0.087182745 0.80199999 0.015467905 1.6773351e-38 258 229
-0.085776575 0.80199999 0.015467905 1.6865546e-38 259 229
-0.084370397 0.80199999 0.015467905 1.6865918e-38 260 229
-0.082964227 0.80199999 0.015467905 1.6681886e-38 261 229
-0.081558049 0.80199999 0.015467905 1.6497139e-38 262 229
-0.080151878 0.80199999 0.015467905 1.6497139e-38 263 229
-0.0787457 0.80199999 0.015467905 1.6588609e-38 264 229
-0.07733953 0.80199999 0.015467905 1.6404577e-38 265 229
-0.075933352 0.80199999 0.015467905 1.6312728e-38 266 229
-0.074527182 0.80199999 0.015467905 1.6036142e-38 267 229
-0.073121011 0.80199999 0.015467905 1.5760274e-38 268 229
-0.071714841 0.80199999 0.015467905 1.5391851e-38 269 229
-0.070308663 0.80199999 0.015467905 1.465575e-38 270 229
-0.068902493 0.80199999 0.015467905 1.3457207e-38 271 229
-0.067580476 0.80299997 0.015487193 1.3177393e-38 272 229
-0.066502176 0.80699998 0.015564339 1.2347631e-38 273 229
-0.065248549 0.80900002 0.015602913 1.207177e-38 274 229
-0.063830093 0.80900002 0.015602913 1.188702e-38 275 229
-0.062565938 0.81099999 0.015641484 1.1702639e-38 276 229
-0.061143994 0.81099999 0.015641484 1.1518246e-38 277 229
-0.059869319 0.81300002 0.01568006 1.1242379e-38 278 229
-0.058587633 0.815 0.015718633 1.0873597e-38 279 229
-0.057158664 0.815 0.015718633 9.7669088e-39 280 229
-0.097146936 0.80299997 0.014079265 1.4570134e-38 251 230
-0.095739007 0.80299997 0.014079265 1.4563943e-38 252 230
-0.094331078 0.80299997 0.014079265 1.5024921e-38 253 230
-0.092923149 0.80299997 0.014079265 1.5852473e-38 254 230
-0.091515228 0.80299997 0.014079265 1.6036865e-38 255 230
-0.089995086 0.80199999 0.014061732 1.631345e-38 256 230
-0.088588916 0.80199999 0.014061732 1.6497843e-38 257 230
-0.087182745 0.80199999 0.014061732 1.6681158e-38 258 230
-0.085776575 0.80199999 0.014061732 1.6681158e-38 259 230
-0.084370397 0.80199999 0.014061732 1.6772284e-38 260 230
-0.082964227 0.80199999 0.014061732 1.6587533e-38 261 230
-0.081558049 0.80199999 0.014061732 1.6312028e-38 262 230
-0.080151878 0.80199999 0.014061732 1.6404223e-38 263 230
-0.0787457 0.80199999 0.014061732 1.6312375e-38 264 230
-0.07733953 0.80199999 0.014061732 1.622018e-38 265 230
-0.075933352 0.80199999 0.014061732 1.6128334e-38 266 230
-0.074527182 0.80199999 0.014061732 1.5943942e-38 267 230
-0.073121011 0.80199999 0.014061732 1.5667362e-38 268 230
-0.071714841 0.80199999 0.014061732 1.5390416e-38 269 230
-0.070308663 0.80199999 0.014061732 1.4378087e-38 270 230
-0.068902493 0.80199999 0.014061732 1.3179544e-38 271 230
-0.067580476 0.80299997 0.014079265 1.3083042e-38 272 230
-0.066502176 0.80699998 0.014149399 1.2529869e-38 273 230
-0.065087236 0.80699998 0.014149399 1.1979219e-38 274 230
-0.063672297 0.80699998 0.014149399 1.1702992e-38 275 230
-0.062411651 0.80900002 0.014184467 1.1610087e-38 276 230
-0.061143994 0.81099999 0.014219533 1.1425694e-38 277 230
-0.05972204 0.81099999 0.014219533 1.0782124e-38 278 230
-0.058443859 0.81300002 0.0142546 1.0136755e-38 279 230
-0.057018399 0.81300002 0.0142546 7.8329683e-39 280 230
-0.098554865 0.80299997 0.012671339 1.540132e-38 250 231
-0.097146936 0.80299997 0.012671339 1.328082e-38 251 231
-0.095739007 0.80299997 0.012671339 1.4747608e-38 252 231
-0.094331078 0.80299997 0.012671339 1.5208587e-38 253 231
-0.092923149 0.80299997 0.012671339 1.6128337e-38 254 231
-0.091401257 0.80199999 0.01265556 1.6312728e-38 255 231
-0.089995086 0.80199999 0.01265556 1.6588955e-38 256 231
-0.088588916 0.80199999 0.01265556 1.6681511e-38 257 231
-0.087182745 0.80199999 0.01265556 1.6772635e-38 258 231
-0.085776575 0.80199999 0.01265556 1.6588242e-38 259 231
-0.084370397 0.80199999 0.01265556 1.6127984e-38 260 231
-0.082964227 0.80199999 0.01265556 1.6035788e-38 261 231
-0.081558049 0.80199999 0.01265556 1.5944319e-38 262 231
-0.080151878 0.80199999 0.01265556 1.6312741e-38 263 231
-0.0787457 0.80199999 0.01265556 1.6220901e-38 264 231
-0.07733953 0.80199999 0.01265556 1.585212e-38 265 231
-0.075933352 0.80199999 0.01265556 1.5760627e-38 266 231
-0.074527182 0.80199999 0.01265556 1.5576235e-38 267 231
-0.073121011 0.80199999 0.01265556 1.5574447e-38 268 231
-0.071714841 0.80199999 0.01265556 1.5205305e-38 269 231
-0.070308663 0.80199999 0.01265556 1.3825632e-38 270 231
-0.068902493 0.80199999 0.01265556 1.2811482e-38 271 231
-0.067580476 0.80299997 0.012671339 1.2714986e-38 272 231
-0.066337362 0.80500001 0.012702899 1.2254008e-38 273 231
-0.064925931 0.80500001 0.012702899 1.1978502e-38 274 231
-0.063672297 0.80699998 0.01273446 1.1793752e-38 275 231
-0.062257357 0.80699998 0.01273446 1.142641e-38 276 231
-0.061143994 0.81099999 0.012797579 1.1242379e-38 277 231
-0.05972204 0.81099999 0.012797579 9.9534552e-39 278 231
-0.058443859 0.81300002 0.01282914 9.2158902e-39 279 231
-0.099838302 0.80199999 0.011249386 1.6966164e-38 249 232
-0.098554865 0.80299997 0.011263412 1.466266e-38 250 232
-0.097146936 0.80299997 0.011263412 1.3095335e-38 251 232
-0.095739007 0.80299997 0.011263412 1.5667027e-38 252 232
-0.094331078 0.80299997 0.011263412 1.5943615e-38 253 232
-0.092807434 0.80199999 0.011249386 1.6313082e-38 254 232
-0.091401257 0.80199999 0.011249386 1.6589308e-38 255 232
-0.089995086 0.80199999 0.011249386 1.6498196e-38 256 232
-0.088367999 0.80000001 0.011221333 1.6498196e-38 257 232
-0.086965337 0.80000001 0.011221333 1.6588605e-38 258 232
-0.085562661 0.80000001 0.011221333 1.5667009e-38 259 232
-0.08416 0.80000001 0.011221333 1.4837245e-38 260 232
-0.082757331 0.80000001 0.011221333 1.4652854e-38 261 232
-0.08135467 0.80000001 0.011221333 1.4931962e-38 262 232
-0.079952002 0.80000001 0.011221333 1.5577331e-38 263 232
-0.078549333 0.80000001 0.011221333 1.6126915e-38 264 232
-0.077146664 0.80000001 0.011221333 1.6034719e-38 265 232
-0.075933352 0.80199999 0.011249386 1.5759557e-38 266 232
-0.074341334 0.80000001 0.011221333 1.5574807e-38 267 232
-0.072938666 0.80000001 0.011221333 1.520747e-38 268 232
-0.071714841 0.80199999 0.011249386 1.4469905e-38 269 232
-0.070308663 0.80199999 0.011249386 1.3179907e-38 270 232
-0.068902493 0.80199999 0.011249386 1.2719289e-38 271 232
-0.067580476 0.80299997 0.011263412 1.2714267e-38 272 232
-0.066337362 0.80500001 0.011291467 1.2529874e-38 273 232
-0.064925931 0.80500001 0.011291467 1.1887023e-38 274 232
-0.063672297 0.80699998 0.011319519 1.1610437e-38 275 232
-0.062257357 0.80699998 0.011319519 1.1059434e-38 276 232
-0.060993209 0.80900002 0.011347573 1.0967237e-38 277 232
-0.05972204 0.81099999 0.011375627 8.6645339e-39 278 232
-0.10124448 0.80199999 0.0098432126 1.761081e-38 248 233
-0.099838302 0.80199999 0.0098432126 1.6412268e-38 249 233
-0.098554865 0.80299997 0.0098554865 1.4567925e-38 250 233
-0.097146936 0.80299997 0.0098554865 1.3369382e-38 251 233
-0.095619783 0.80199999 0.0098432126 1.5943586e-38 252 233
-0.094213605 0.80199999 0.0098432126 1.6128337e-38 253 233
-0.092807434 0.80199999 0.0098432126 1.6588589e-38 254 233
-0.091401257 0.80199999 0.0098432126 1.6680785e-38 255 233
-0.089995086 0.80199999 0.0098432126 1.695665e-38 256 233
-0.088367999 0.80000001 0.0098186666 1.6772258e-38 257 233
-0.086965337 0.80000001 0.0098186666 1.6678284e-38 258 233
-0.085562661 0.80000001 0.0098186666 1.5572295e-38 259 233
-0.08416 0.80000001 0.0098186666 1.4650728e-38 260 233
-0.082757331 0.80000001 0.0098186666 1.4927315e-38 261 233
-0.08135467 0.80000001 0.0098186666 1.4652541e-38 262 233
-0.079752117 0.79799998 0.0097941197 1.5297911e-38 263 233
-0.078352958 0.79799998 0.0097941197 1.5574122e-38 264 233
-0.077146664 0.80000001 0.0098186666 1.5666318e-38 265 233
-0.075743996 0.80000001 0.0098186666 1.5391145e-38 266 233
-0.074341334 0.80000001 0.0098186666 1.5298949e-38 267 233
-0.072938666 0.80000001 0.0098186666 1.4563182e-38 268 233
-0.071714841 0.80199999 0.0098432126 1.3825617e-38 269 233
-0.070308663 0.80199999 0.0098432126 1.2534175e-38 270 233
-0.068902493 0.80199999 0.0098432126 1.2257229e-38 271 233
-0.067580476 0.80299997 0.0098554865 1.2347275e-38 272 233
-0.066337362 0.80500001 0.0098800333 1.1978853e-38 273 233
-0.064925931 0.80500001 0.0098800333 1.1702992e-38 274 233
-0.063514493 0.80500001 0.0098800333 1.151824e-38 275 233
-0.062103067 0.80500001 0.0098800333 1.087432e-38 276 233
-0.060993209 0.80900002 0.0099291261 1.0412982e-38 277 233
-0.05972204 0.81099999 0.009953673 8.6609368e-39 278 233
-0.10124448 0.80199999 0.0084370393 1.7242022e-38 248 234
-0.099838302 0.80199999 0.0084370393 1.5398468e-38 249 234
-0.098554865 0.80299997 0.0084475596 1.4934536e-38 250 234
-0.097025953 0.80199999 0.0084370393 1.4289167e-38 251 234
-0.095619783 0.80199999 0.0084370393 1.6127615e-38 252 234
-0.094213605 0.80199999 0.0084370393 1.6496397e-38 253 234
-0.092807434 0.80199999 0.0084370393 1.6588945e-38 254 234
-0.091401257 0.80199999 0.0084370393 1.6773338e-38 255 234
-0.089770667 0.80000001 0.0084159998 1.6772985e-38 256 234
-0.088367999 0.80000001 0.0084159998 1.6772985e-38 257 234
-0.086965337 0.80000001 0.0084159998 1.6036161e-38 258 234
-0.085562661 0.80000001 0.0084159998 1.4653227e-38 259 234
-0.08416 0.80000001 0.0084159998 1.5200662e-38 260 234
-0.082757331 0.80000001 0.0084159998 1.5384693e-38 261 234
-0.081151277 0.79799998 0.0083949603 1.511098e-38 262 234
-0.079752117 0.79799998 0.0083949603 1.5479762e-38 263 234
-0.078352958 0.79799998 0.0083949603 1.5573741e-38 264 234
-0.076953799 0.79799998 0.0083949603 1.5757772e-38 265 234
-0.075743996 0.80000001 0.0084159998 1.5391501e-38 266 234
-0.074341334 0.80000001 0.0084159998 1.5114555e-38 267 234
-0.072938666 0.80000001 0.0084159998 1.3918181e-38 268 234
-0.071714841 0.80199999 0.0084370393 1.3088062e-38 269 234
-0.070308663 0.80199999 0.0084370393 1.2624219e-38 270 234
-0.068902493 0.80199999 0.0084370393 1.2439828e-38 271 234
-0.067580476 0.80299997 0.0084475596 1.2071051e-38 272 234
-0.066337362 0.80500001 0.0084686 1.1886301e-38 273 234
-0.064925931 0.80500001 0.0084686 1.1335651e-38 274 234
-0.063514493 0.80500001 0.0084686 1.1058704e-38 275 234
-0.062103067 0.80500001 0.0084686 1.0413712e-38 276 234
-0.060691636 0.80500001 0.0084686 9.491754e-39 277 234
-0.05957476 0.80900002 0.0085106799 7.9241004e-39 278 234
-0.10124448 0.80199999 0.0070308661 1.669028e-38 248 235
-0.099838302 0.80199999 0.0070308661 1.438539e-38 249 235
-0.098432131 0.80199999 0.0070308661 1.447391e-38 250 235
-0.097025953 0.80199999 0.0070308661 1.4289517e-38 251 235
-0.095619783 0.80199999 0.0070308661 1.5852471e-38 252 235
-0.094213605 0.80199999 0.0070308661 1.6221252e-38 253 235
-0.092807434 0.80199999 0.0070308661 1.6680788e-38 254 235
-0.091401257 0.80199999 0.0070308661 1.6772985e-38 255 235
-0.089770667 0.80000001 0.007013333 1.6955947e-38 256 235
-0.088367999 0.80000001 0.007013333 1.6771554e-38 257 235
-0.086965337 0.80000001 0.007013333 1.5207848e-38 258 235
-0.085562661 0.80000001 0.007013333 1.3824914e-38 259 235
-0.083949596 0.79799998 0.0069957995 1.4832604e-38 260 235
-0.082550429 0.79799998 0.0069957995 1.4832604e-38 261 235
-0.081151277 0.79799998 0.0069957995 1.4559974e-38 262 235
-0.079552241 0.796 0.0069782664 1.5020953e-38 263 235
-0.078156583 0.796 0.0069782664 1.5114571e-38 264 235
-0.076953799 0.79799998 0.0069957995 1.5206766e-38 265 235
-0.075554639 0.79799998 0.0069957995 1.5206754e-38 266 235
-0.074155472 0.79799998 0.0069957995 1.4745775e-38 267 235
-0.072938666 0.80000001 0.007013333 1.3548321e-38 268 235
-0.071535997 0.80000001 0.007013333 1.2902952e-38 269 235
-0.070308663 0.80199999 0.0070308661 1.2164683e-38 270 235
-0.068902493 0.80199999 0.0070308661 1.1888455e-38 271 235
-0.067580476 0.80299997 0.0070396326 1.1703711e-38 272 235
-0.066337362 0.80500001 0.0070571667 1.1518961e-38 273 235
-0.064925931 0.80500001 0.0070571667 1.1243454e-38 274 235
-0.063514493 0.80500001 0.0070571667 1.1058704e-38 275 235
-0.062103067 0.80500001 0.0070571667 9.6757949e-39 276 235
-0.060691636 0.80500001 0.0070571667 8.2928605e-39 277 235
-0.05957476 0.80900002 0.0070922333 7.6478834e-39 278 235
-0.10124448 0.80199999 0.0056246929 1.6230731e-38 248 236
-0.099838302 0.80199999 0.0056246929 1.3372666e-38 249 236
-0.098432131 0.80199999 0.0056246929 1.4472463e-38 250 236
-0.097025953 0.80199999 0.0056246929 1.4656855e-38 251 236
-0.095619783 0.80199999 0.0056246929 1.5944669e-38 252 236
-0.094213605 0.80199999 0.0056246929 1.6220896e-38 253 236
-0.092575997 0.80000001 0.0056106667 1.6588592e-38 254 236
-0.091173328 0.80000001 0.0056106667 1.6772985e-38 255 236
-0.089546233 0.79799998 0.0055966396 1.6956303e-38 256 236
-0.088147074 0.79799998 0.0055966396 1.6403129e-38 257 236
-0.086747915 0.79799998 0.0055966396 1.4930539e-38 258 236
-0.085348755 0.79799998 0.0055966396 1.3455408e-38 259 236
-0.083949596 0.79799998 0.0055966396 1.4646411e-38 260 236
-0.082343549 0.796 0.0055826134 1.5015195e-38 261 236
-0.080947891 0.796 0.0055826134 1.4743996e-38 262 236
-0.079552241 0.796 0.0055826134 1.5296811e-38 263 236
-0.078156583 0.796 0.0055826134 1.5298952e-38 264 236
-0.076760925 0.796 0.0055826134 1.5206398e-38 265 236
-0.075365283 0.796 0.0055826134 1.5114202e-38 266 236
-0.074155472 0.79799998 0.0055966396 1.4561028e-38 267 236
-0.072938666 0.80000001 0.0056106667 1.3178109e-38 268 236
-0.071535997 0.80000001 0.0056106667 1.2624935e-38 269 236
-0.070308663 0.80199999 0.0056246929 1.2346922e-38 270 236
-0.068988405 0.80299997 0.0056317062 1.19785e-38 271 236
-0.067580476 0.80299997 0.0056317062 1.1611156e-38 272 236
-0.066337362 0.80500001 0.0056457333 1.1518961e-38 273 236
-0.064925931 0.80500001 0.0056457333 1.0967237e-38 274 236
-0.063514493 0.80500001 0.0056457333 1.069065e-38 275 236
-0.062103067 0.80500001 0.0056457333 8.8471273e-39 276 236
-0.060993209 0.80900002 0.0056737866 7.2798002e-39 277 236
-0.10124448 0.80199999 0.0042185197 1.5402392e-38 248 237
-0.099838302 0.80199999 0.0042185197 1.2452133e-38 249 237
-0.098186664 0.80000001 0.0042079999 1.5022748e-38 250 237
-0.096783996 0.80000001 0.0042079999 1.5391529e-38 251 237
-0.095619783 0.80199999 0.0042185197 1.5852476e-38 252 237
-0.094213605 0.80199999 0.0042185197 1.6313094e-38 253 237
-0.092575997 0.80000001 0.0042079999 1.6588236e-38 254 237
-0.091173328 0.80000001 0.0042079999 1.6772988e-38 255 237
-0.089546233 0.79799998 0.0041974802 1.6772635e-38 256 237
-0.088147074 0.79799998 0.0041974802 1.6219461e-38 257 237
-0.086747915 0.79799998 0.0041974802 1.4930537e-38 258 237
-0.085348755 0.79799998 0.0041974802 1.3455405e-38 259 237
-0.083949596 0.79799998 0.0041974802 1.4370897e-38 260 237
-0.082343549 0.796 0.0041869599 1.5016267e-38 261 237
-0.080947891 0.796 0.0041869599 1.4745072e-38 262 237
-0.079552241 0.796 0.0041869599 1.5113855e-38 263 237
-0.078156583 0.796 0.0041869599 1.5206398e-38 264 237
-0.076760925 0.796 0.0041869599 1.5298952e-38 265 237
-0.075365283 0.796 0.0041869599 1.4836542e-38 266 237
-0.074155472 0.79799998 0.0041974802 1.4375564e-38 267 237
-0.072756313 0.79799998 0.0041974802 1.2900446e-38 268 237
-0.071535997 0.80000001 0.0042079999 1.2532024e-38 269 237
-0.070308663 0.80199999 0.0042185197 1.2071414e-38 270 237
-0.068988405 0.80299997 0.0042237798 1.1702992e-38 271 237
-0.067580476 0.80299997 0.0042237798 1.1335295e-38 272 237
-0.066337362 0.80500001 0.0042343 1.1335295e-38 273 237
-0.064925931 0.80500001 0.0042343 1.0874691e-38 274 237
-0.063514493 0.80500001 0.0042343 9.5839524e-39 275 237
-0.062103067 0.80500001 0.0042343 7.8344229e-39 276 237
