# .PCD v.7 - Point Cloud Data file format
FIELDS x y z rgb imX imY
SIZE 4 4 4 4 4 4
TYPE F F F F F F
COUNT 1 1 1 1 1 1
WIDTH 839
HEIGHT 1
VIEWPOINT 0 0 0 1 0 0 0
POINTS 839
DATA ascii
-0.058731399 0.81699997 0.042974196 1.6312378e-38 279 210
-0.057298932 0.81699997 0.042974196 1.622018e-38 280 210
-0.055866458 0.81699997 0.042974196 1.5943591e-38 281 210
-0.054433983 0.81699997 0.042974196 1.557481e-38 282 210
-0.053001508 0.81699997 0.042974196 1.5298223e-38 283 210
-0.05169528 0.81900001 0.043079399 1.4654649e-38 284 210
-0.0502593 0.81900001 0.043079399 1.4193671e-38 285 210
-0.048823319 0.81900001 0.043079399 1.3916731e-38 286 210
-0.047503054 0.82099998 0.043184597 1.2718188e-38 287 210
-0.046063572 0.82099998 0.043184597 1.2164669e-38 288 210
-0.044732794 0.82300001 0.043289799 1.1703692e-38 289 210
-0.043394998 0.82499999 0.043394998 1.1701906e-38 290 210
-0.041948497 0.82499999 0.043394998 1.1333483e-38 291 210
-0.040502001 0.82499999 0.043394998 1.1057622e-38 292 210
-0.039055496 0.82499999 0.043394998 1.0965068e-38 293 210
-0.037700173 0.82700002 0.0435002 1.0873591e-38 294 210
-0.036250167 0.82700002 0.0435002 1.0781394e-38 295 210
-0.034884319 0.829 0.043605398 1.0322221e-38 296 210
-0.033511456 0.83099997 0.043710597 1.0230025e-38 297 210
-0.032131586 0.833 0.043815799 1.0412987e-38 298 210
-0.030671058 0.833 0.043815799 1.0412987e-38 299 210
0.052452717 0.83099997 0.043710597 1.0040284e-38 356 210
0.053779993 0.829 0.043605398 1.0777849e-38 357 210
0.055233505 0.829 0.043605398 1.0963326e-38 358 210
0.05668702 0.829 0.043605398 1.1240273e-38 359 210
0.058000267 0.82700002 0.0435002 1.1334257e-38 360 210
0.059450272 0.82700002 0.0435002 1.0965835e-38 361 210
0.060900278 0.82700002 0.0435002 1.0595257e-38 362 210
0.062350284 0.82700002 0.0435002 1.031831e-38 363 210
0.063645996 0.82499999 0.043394998 1.0039943e-38 364 210
0.065092497 0.82499999 0.043394998 9.0261516e-39 365 210
0.066700302 0.82700002 0.0435002 1.0320869e-38 366 210
-0.081850857 0.81900001 0.041643418 1.4659025e-38 263 211
-0.080414876 0.81900001 0.041643418 1.6404927e-38 264 211
-0.078978904 0.81900001 0.041643418 1.6865546e-38 265 211
-0.077353559 0.81699997 0.041541722 1.7141766e-38 266 211
-0.075921081 0.81699997 0.041541722 1.751055e-38 267 211
-0.074488603 0.81699997 0.041541722 1.7511269e-38 268 211
-0.073056139 0.81699997 0.041541722 1.7696019e-38 269 211
-0.071623661 0.81699997 0.041541722 1.7696738e-38 270 211
-0.07019119 0.81699997 0.041541722 1.7696738e-38 271 211
-0.068590395 0.815 0.041440032 1.7604183e-38 272 211
-0.067161433 0.815 0.041440032 1.7604183e-38 273 211
-0.065893769 0.81699997 0.041541722 1.7510918e-38 274 211
-0.064461298 0.81699997 0.041541722 1.7326527e-38 275 211
-0.06302882 0.81699997 0.041541722 1.7049946e-38 276 211
-0.061596353 0.81699997 0.041541722 1.6773e-38 277 211
-0.060163878 0.81699997 0.041541722 1.6220182e-38 278 211
-0.058731399 0.81699997 0.041541722 1.6035432e-38 279 211
-0.057298932 0.81699997 0.041541722 1.6035068e-38 280 211
-0.055866458 0.81699997 0.041541722 1.5758123e-38 281 211
-0.054433983 0.81699997 0.041541722 1.5481896e-38 282 211
-0.053001508 0.81699997 0.041541722 1.5204949e-38 283 211
-0.051569037 0.81699997 0.041541722 1.4286227e-38 284 211
-0.0502593 0.81900001 0.041643418 1.3456106e-38 285 211
-0.048823319 0.81900001 0.041643418 1.308625e-38 286 211
-0.047387339 0.81900001 0.041643418 1.2348685e-38 287 211
-0.046063572 0.82099998 0.041745111 1.2162518e-38 288 211
-0.044732794 0.82300001 0.041846808 1.1793736e-38 289 211
-0.043394998 0.82499999 0.041948497 1.1333133e-38 290 211
-0.041948497 0.82499999 0.041948497 1.1148383e-38 291 211
-0.040502001 0.82499999 0.041948497 1.0965071e-38 292 211
-0.039150178 0.82700002 0.04205019 1.0780678e-38 293 211
-0.037700173 0.82700002 0.04205019 1.0781397e-38 294 211
-0.036250167 0.82700002 0.04205019 1.0597366e-38 295 211
-0.034884319 0.829 0.042151887 1.0413335e-38 296 211
0.053779993 0.829 0.042151887 1.0318313e-38 357 211
0.055233505 0.829 0.042151887 1.0595976e-38 358 211
0.05668702 0.829 0.042151887 1.0780367e-38 359 211
0.058000267 0.82700002 0.04205019 1.1331739e-38 360 211
0.059450272 0.82700002 0.04205019 1.0963316e-38 361 211
0.060900278 0.82700002 0.04205019 1.0685653e-38 362 211
0.062350284 0.82700002 0.04205019 1.013248e-38 363 211
0.06380029 0.82700002 0.04205019 9.3027315e-39 364 211
0.0652503 0.82700002 0.04205019 9.9481009e-39 365 211
0.066700302 0.82700002 0.04205019 1.170416e-38 366 211
-0.084722817 0.81900001 0.040207438 1.3928705e-38 261 212
-0.083286837 0.81900001 0.040207438 1.5210384e-38 262 212
-0.08165098 0.81699997 0.040109251 1.5486973e-38 263 212
-0.080218501 0.81699997 0.040109251 1.6864827e-38 264 212
-0.078786023 0.81699997 0.040109251 1.7141413e-38 265 212
-0.077353559 0.81699997 0.040109251 1.7601302e-38 266 212
-0.075921081 0.81699997 0.040109251 1.787753e-38 267 212
-0.074306265 0.815 0.040011063 1.7787135e-38 268 212
-0.072877295 0.815 0.040011063 1.7787135e-38 269 212
-0.071448334 0.815 0.040011063 1.7787858e-38 270 212
-0.070019364 0.815 0.040011063 1.7695663e-38 271 212
-0.068422079 0.81300002 0.039912879 1.7604189e-38 272 212
-0.066996619 0.81300002 0.039912879 1.7327603e-38 273 212
-0.065732464 0.815 0.040011063 1.7326527e-38 274 212
-0.064461298 0.81699997 0.040109251 1.704994e-38 275 212
-0.06302882 0.81699997 0.040109251 1.6773356e-38 276 212
-0.061596353 0.81699997 0.040109251 1.6404574e-38 277 212
-0.060163878 0.81699997 0.040109251 1.5944316e-38 278 212
-0.058731399 0.81699997 0.040109251 1.5759925e-38 279 212
-0.057298932 0.81699997 0.040109251 1.5574457e-38 280 212
-0.055866458 0.81699997 0.040109251 1.529787e-38 281 212
-0.054433983 0.81699997 0.040109251 1.4929807e-38 282 212
-0.053001508 0.81699997 0.040109251 1.4561384e-38 283 212
-0.051569037 0.81699997 0.040109251 1.3733419e-38 284 212
-0.0502593 0.81900001 0.040207438 1.2627071e-38 285 212
-0.048823319 0.81900001 0.040207438 1.244053e-38 286 212
-0.047387339 0.81900001 0.040207438 1.1979553e-38 287 212
-0.046063572 0.82099998 0.040305622 1.1701909e-38 288 212
-0.044732794 0.82300001 0.040403813 1.1425682e-38 289 212
-0.043394998 0.82499999 0.040502001 1.0965787e-38 290 212
-0.041948497 0.82499999 0.040502001 1.0873591e-38 291 212
-0.040502001 0.82499999 0.040502001 1.0781394e-38 292 212
-0.039055496 0.82499999 0.040502001 1.0781394e-38 293 212
-0.037700173 0.82700002 0.040600184 1.0230741e-38 294 212
-0.036250167 0.82700002 0.040600184 9.9545146e-39 295 212
-0.034800157 0.82700002 0.040600184 1.0227518e-38 296 212
0.055233505 0.829 0.040698372 1.0411212e-38 358 212
0.05668702 0.829 0.040698372 1.0595603e-38 359 212
0.058140531 0.829 0.040698372 1.105408e-38 360 212
0.059450272 0.82700002 0.040600184 1.0961884e-38 361 212
0.060900278 0.82700002 0.040600184 1.0960795e-38 362 212
0.062501073 0.829 0.040698372 1.068385e-38 363 212
0.06380029 0.82700002 0.040600184 9.7644173e-39 364 212
0.0652503 0.82700002 0.040600184 1.0225395e-38 365 212
0.066700302 0.82700002 0.040600184 1.1799226e-38 366 212
-0.086369194 0.82099998 0.03886614 1.5494919e-38 260 213
-0.084722817 0.81900001 0.038771462 1.3282224e-38 261 213
-0.083286837 0.81900001 0.038771462 1.6404223e-38 262 213
-0.08165098 0.81699997 0.03867678 1.6772647e-38 263 213
-0.080218501 0.81699997 0.03867678 1.6864827e-38 264 213
-0.078786023 0.81699997 0.03867678 1.7233609e-38 265 213
-0.077353559 0.81699997 0.03867678 1.7693499e-38 266 213
-0.075735234 0.815 0.038582098 1.8061922e-38 267 213
-0.074306265 0.815 0.038582098 1.7787135e-38 268 213
-0.072877295 0.815 0.038582098 1.7879331e-38 269 213
-0.071272999 0.81300002 0.038487419 1.7696019e-38 270 213
-0.069847539 0.81300002 0.038487419 1.7696019e-38 271 213
-0.068422079 0.81300002 0.038487419 1.7510918e-38 272 213
-0.066996619 0.81300002 0.038487419 1.7510918e-38 273 213
-0.065732464 0.815 0.038582098 1.7233258e-38 274 213
-0.064303495 0.815 0.038582098 1.7048508e-38 275 213
-0.062874533 0.815 0.038582098 1.6495688e-38 276 213
-0.06144556 0.815 0.038582098 1.6127265e-38 277 213
-0.060163878 0.81699997 0.03867678 1.5667359e-38 278 213
-0.058731399 0.81699997 0.03867678 1.5390772e-38 279 213
-0.057298932 0.81699997 0.03867678 1.5390416e-38 280 213
-0.055866458 0.81699997 0.03867678 1.4837242e-38 281 213
-0.054433983 0.81699997 0.03867678 1.4468819e-38 282 213
-0.053001508 0.81699997 0.03867678 1.3639058e-38 283 213
-0.051569037 0.81699997 0.03867678 1.2442677e-38 284 213
-0.0502593 0.81900001 0.038771462 1.1797308e-38 285 213
-0.048823319 0.81900001 0.038771462 1.2345109e-38 286 213
-0.047503054 0.82099998 0.03886614 1.2252913e-38 287 213
-0.046063572 0.82099998 0.03886614 1.1333852e-38 288 213
-0.044732794 0.82300001 0.038960818 1.1241298e-38 289 213
-0.043394998 0.82499999 0.039055496 1.096579e-38 290 213
-0.041948497 0.82499999 0.039055496 1.0873594e-38 291 213
-0.040502001 0.82499999 0.039055496 1.0597363e-38 292 213
-0.039055496 0.82499999 0.039055496 1.0412972e-38 293 213
-0.037700173 0.82700002 0.039150178 1.0044559e-38 294 213
-0.036250167 0.82700002 0.039150178 9.3069942e-39 295 213
-0.034800157 0.82700002 0.039150178 9.0275557e-39 296 213
0.055366758 0.83099997 0.039339535 9.9509539e-39 358 213
0.05668702 0.829 0.039244857 1.0411931e-38 359 213
0.058140531 0.829 0.039244857 1.0961865e-38 360 213
0.059594043 0.829 0.039244857 1.1146257e-38 361 213
0.061047558 0.829 0.039244857 1.0779992e-38 362 213
0.062501073 0.829 0.039244857 1.1056578e-38 363 213
0.063954584 0.829 0.039244857 1.1056599e-38 364 213
0.065408096 0.829 0.039244857 1.087221e-38 365 213
0.066861607 0.829 0.039244857 1.1800322e-38 366 213
-0.087808676 0.82099998 0.037426651 1.5675775e-38 259 214
-0.086369194 0.82099998 0.037426651 1.5580606e-38 260 214
-0.084722817 0.81900001 0.037335481 1.4289867e-38 261 214
-0.083083443 0.81699997 0.037244301 1.6129038e-38 262 214
-0.08165098 0.81699997 0.037244301 1.6682212e-38 263 214
-0.080218501 0.81699997 0.037244301 1.714176e-38 264 214
-0.078593165 0.815 0.037153132 1.7418707e-38 265 214
-0.077164195 0.815 0.037153132 1.7694934e-38 266 214
-0.075735234 0.815 0.037153132 1.778713e-38 267 214
-0.074123919 0.81300002 0.03706196 1.7696016e-38 268 214
-0.072698459 0.81300002 0.03706196 1.7696016e-38 269 214
-0.071272999 0.81300002 0.03706196 1.7695663e-38 270 214
-0.069675706 0.81099999 0.036970787 1.7603467e-38 271 214
-0.068253763 0.81099999 0.036970787 1.7418373e-38 272 214
-0.066831805 0.81099999 0.036970787 1.704959e-38 273 214
-0.065409854 0.81099999 0.036970787 1.6864483e-38 274 214
-0.064303495 0.815 0.037153132 1.6587536e-38 275 214
-0.062874533 0.815 0.037153132 1.6403492e-38 276 214
-0.06144556 0.815 0.037153132 1.6035068e-38 277 214
-0.060016599 0.815 0.037153132 1.5575163e-38 278 214
-0.058731399 0.81699997 0.037244301 1.5298216e-38 279 214
-0.057298932 0.81699997 0.037244301 1.4471337e-38 280 214
-0.055866458 0.81699997 0.037244301 1.4194391e-38 281 214
-0.054433983 0.81699997 0.037244301 1.3731619e-38 282 214
-0.053001508 0.81699997 0.037244301 1.2994054e-38 283 214
-0.05169528 0.81900001 0.037335481 1.2164669e-38 284 214
-0.0502593 0.81900001 0.037335481 1.1887724e-38 285 214
-0.048823319 0.81900001 0.037335481 1.1793752e-38 286 214
-0.047503054 0.82099998 0.037426651 1.160936e-38 287 214
-0.046063572 0.82099998 0.037426651 1.1150181e-38 288 214
-0.044732794 0.82300001 0.037517827 1.1057985e-38 289 214
-0.043289799 0.82300001 0.037517827 1.0690279e-38 290 214
-0.041948497 0.82499999 0.037608996 1.0598082e-38 291 214
-0.040502001 0.82499999 0.037608996 1.0137474e-38 292 214
-0.039055496 0.82499999 0.037608996 9.6764956e-39 293 214
-0.037700173 0.82700002 0.037700173 8.8460343e-39 294 214
-0.036250167 0.82700002 0.037700173 8.6612843e-39 295 214
0.05668702 0.829 0.037791345 1.0227549e-38 359 214
0.058140531 0.829 0.037791345 1.0320818e-38 360 214
0.059594043 0.829 0.037791345 1.0413014e-38 361 214
0.061047558 0.829 0.037791345 1.0137872e-38 362 214
0.062501073 0.829 0.037791345 1.059849e-38 363 214
0.063954584 0.829 0.037791345 1.0507393e-38 364 214
0.065408096 0.829 0.037791345 1.0322641e-38 365 214
-0.087808676 0.82099998 0.035987165 1.4293527e-38 259 215
-0.086369194 0.82099998 0.035987165 1.539296e-38 260 215
-0.084722817 0.81900001 0.035899501 1.5485155e-38 261 215
-0.083083443 0.81699997 0.03581183 1.6406346e-38 262 215
-0.08165098 0.81699997 0.03581183 1.6683293e-38 263 215
-0.080218501 0.81699997 0.03581183 1.7235031e-38 264 215
-0.078593165 0.815 0.035724167 1.7419424e-38 265 215
-0.077164195 0.815 0.035724167 1.7694937e-38 266 215
-0.075549379 0.81300002 0.0356365 1.7879328e-38 267 215
-0.074123919 0.81300002 0.0356365 1.7696013e-38 268 215
-0.072519615 0.81099999 0.035548832 1.7603818e-38 269 215
-0.071097665 0.81099999 0.035548832 1.7511272e-38 270 215
-0.069675706 0.81099999 0.035548832 1.7419076e-38 271 215
-0.068253763 0.81099999 0.035548832 1.7325458e-38 272 215
-0.066831805 0.81099999 0.035548832 1.7140707e-38 273 215
-0.065409854 0.81099999 0.035548832 1.6588609e-38 274 215
-0.063987896 0.81099999 0.035548832 1.6219827e-38 275 215
-0.062720239 0.81300002 0.0356365 1.6127265e-38 276 215
-0.061294779 0.81300002 0.0356365 1.5850318e-38 277 215
-0.059869319 0.81300002 0.0356365 1.5207101e-38 278 215
-0.058587633 0.815 0.035724167 1.4930513e-38 279 215
-0.057158664 0.815 0.035724167 1.4193671e-38 280 215
-0.055866458 0.81699997 0.03581183 1.3548301e-38 281 215
-0.054433983 0.81699997 0.03581183 1.2533446e-38 282 215
-0.053001508 0.81699997 0.03581183 1.2072468e-38 283 215
-0.05169528 0.81900001 0.035899501 1.2162165e-38 284 215
-0.0502593 0.81900001 0.035899501 1.1885938e-38 285 215
-0.048823319 0.81900001 0.035899501 1.1425694e-38 286 215
-0.047503054 0.82099998 0.035987165 1.1333499e-38 287 215
-0.046063572 0.82099998 0.035987165 1.087432e-38 288 215
-0.044732794 0.82300001 0.036074832 1.0689929e-38 289 215
-0.043289799 0.82300001 0.036074832 1.050553e-38 290 215
-0.041948497 0.82499999 0.036162499 1.0229304e-38 291 215
-0.040502001 0.82499999 0.036162499 9.8590946e-39 292 215
-0.039055496 0.82499999 0.036162499 9.0293339e-39 293 215
0.059737816 0.83099997 0.036425497 9.8602086e-39 361 215
0.061047558 0.829 0.036337834 1.0225764e-38 362 215
0.062501073 0.829 0.036337834 1.0225764e-38 363 215
0.063954584 0.829 0.036337834 9.9520707e-39 364 215
-0.089248173 0.82099998 0.034547675 1.5860462e-38 258 216
-0.087808676 0.82099998 0.034547675 1.3832158e-38 259 216
-0.086369194 0.82099998 0.034547675 1.585212e-38 260 216
-0.084722817 0.81900001 0.034463517 1.6313097e-38 261 216
-0.083286837 0.81900001 0.034463517 1.6865536e-38 262 216
-0.08165098 0.81699997 0.034379359 1.7233959e-38 263 216
-0.080022126 0.815 0.034295198 1.741907e-38 264 216
-0.078593165 0.815 0.034295198 1.7511625e-38 265 216
-0.076974839 0.81300002 0.03421104 1.7603464e-38 266 216
-0.075549379 0.81300002 0.03421104 1.7696019e-38 267 216
-0.073941574 0.81099999 0.034126882 1.7511625e-38 268 216
-0.072519615 0.81099999 0.034126882 1.7511625e-38 269 216
-0.071097665 0.81099999 0.034126882 1.7419076e-38 270 216
-0.069675706 0.81099999 0.034126882 1.7234325e-38 271 216
-0.068253763 0.81099999 0.034126882 1.714106e-38 272 216
-0.066831805 0.81099999 0.034126882 1.6864833e-38 273 216
-0.065409854 0.81099999 0.034126882 1.6312378e-38 274 216
-0.063987896 0.81099999 0.034126882 1.6127987e-38 275 216
-0.062720239 0.81300002 0.03421104 1.5759207e-38 276 216
-0.061294779 0.81300002 0.03421104 1.5390066e-38 277 216
-0.059869319 0.81300002 0.03421104 1.5114555e-38 278 216
-0.058587633 0.815 0.034295198 1.4746131e-38 279 216
-0.057158664 0.815 0.034295198 1.3731619e-38 280 216
-0.055866458 0.81699997 0.034379359 1.308625e-38 281 216
-0.054433983 0.81699997 0.034379359 1.2347625e-38 282 216
-0.053001508 0.81699997 0.034379359 1.2071399e-38 283 216
-0.05169528 0.81900001 0.034463517 1.1793755e-38 284 216
-0.0502593 0.81900001 0.034463517 1.1609363e-38 285 216
-0.048942544 0.82099998 0.034547675 1.1149831e-38 286 216
-0.047503054 0.82099998 0.034547675 1.1057635e-38 287 216
-0.046175785 0.82300001 0.034631841 1.0965792e-38 288 216
-0.044732794 0.82300001 0.034631841 1.0781041e-38 289 216
-0.043289799 0.82300001 0.034631841 1.0228951e-38 290 216
-0.041948497 0.82499999 0.034715999 9.5835811e-39 291 216
-0.040600184 0.82700002 0.034800157 8.4754567e-39 292 216
-0.090687655 0.82099998 0.03310819 1.5400983e-38 257 217
-0.089248173 0.82099998 0.03310819 1.484377e-38 258 217
-0.087808676 0.82099998 0.03310819 1.4290597e-38 259 217
-0.086158797 0.81900001 0.033027537 1.6313798e-38 260 217
-0.084722817 0.81900001 0.033027537 1.6498549e-38 261 217
-0.083083443 0.81699997 0.032946885 1.7234315e-38 262 217
-0.081451096 0.815 0.032866232 1.7418707e-38 263 217
-0.080022126 0.815 0.032866232 1.7327954e-38 264 217
-0.078400299 0.81300002 0.03278558 1.7512344e-38 265 217
-0.076785475 0.81099999 0.032704927 1.7604539e-38 266 217
-0.075363517 0.81099999 0.032704927 1.7604539e-38 267 217
-0.073941574 0.81099999 0.032704927 1.7511625e-38 268 217
-0.072519615 0.81099999 0.032704927 1.7326875e-38 269 217
-0.071097665 0.81099999 0.032704927 1.7234325e-38 270 217
-0.069675706 0.81099999 0.032704927 1.6958098e-38 271 217
-0.06808544 0.80900002 0.032624274 1.6773353e-38 272 217
-0.066666998 0.80900002 0.032624274 1.6588961e-38 273 217
-0.065248549 0.80900002 0.032624274 1.6219464e-38 274 217
-0.063987896 0.81099999 0.032704927 1.6034714e-38 275 217
-0.062565938 0.81099999 0.032704927 1.5574457e-38 276 217
-0.061143994 0.81099999 0.032704927 1.529787e-38 277 217
-0.059869319 0.81300002 0.03278558 1.4929809e-38 278 217
-0.058587633 0.815 0.032866232 1.4561028e-38 279 217
-0.057158664 0.815 0.032866232 1.30859e-38 280 217
-0.055866458 0.81699997 0.032946885 1.2532727e-38 281 217
-0.054433983 0.81699997 0.032946885 1.1979925e-38 282 217
-0.053131256 0.81900001 0.033027537 1.1703339e-38 283 217
-0.05169528 0.81900001 0.033027537 1.1518243e-38 284 217
-0.0502593 0.81900001 0.033027537 1.1333852e-38 285 217
-0.048942544 0.82099998 0.03310819 1.0874676e-38 286 217
-0.047503054 0.82099998 0.03310819 1.0782121e-38 287 217
-0.046175785 0.82300001 0.033188846 1.0781041e-38 288 217
-0.044732794 0.82300001 0.033188846 1.0412619e-38 289 217
-0.043289799 0.82300001 0.033188846 9.7665458e-39 290 217
-0.041846808 0.82300001 0.033188846 8.8442308e-39 291 217
-0.090245813 0.81699997 0.03151441 1.4387894e-38 257 218
-0.088813342 0.81699997 0.03151441 1.4841253e-38 258 218
-0.087380864 0.81699997 0.03151441 1.5210034e-38 259 218
-0.085738003 0.815 0.031437267 1.6405643e-38 260 218
-0.083895244 0.81099999 0.031282969 1.668259e-38 261 218
-0.082473285 0.81099999 0.031282969 1.7235028e-38 262 218
-0.081251219 0.81300002 0.03136012 1.7419779e-38 263 218
-0.079825759 0.81300002 0.03136012 1.7327954e-38 264 218
-0.078400299 0.81300002 0.03136012 1.7512344e-38 265 218
-0.076785475 0.81099999 0.031282969 1.7604183e-38 266 218
-0.075363517 0.81099999 0.031282969 1.7327957e-38 267 218
-0.073759228 0.80900002 0.031205826 1.7511269e-38 268 218
-0.072340779 0.80900002 0.031205826 1.7326878e-38 269 218
-0.071097665 0.81099999 0.031282969 1.7050293e-38 270 218
-0.069503881 0.80900002 0.031205826 1.6865902e-38 271 218
-0.06808544 0.80900002 0.031205826 1.6588961e-38 272 218
-0.066666998 0.80900002 0.031205826 1.6404571e-38 273 218
-0.065248549 0.80900002 0.031205826 1.6035432e-38 274 218
-0.063830093 0.80900002 0.031205826 1.5667009e-38 275 218
-0.062411651 0.80900002 0.031205826 1.5390069e-38 276 218
-0.061143994 0.81099999 0.031282969 1.5113482e-38 277 218
-0.05972204 0.81099999 0.031282969 1.4008579e-38 278 218
-0.058443859 0.81300002 0.03136012 1.3455405e-38 279 218
-0.057158664 0.815 0.031437267 1.1980998e-38 280 218
-0.055729698 0.815 0.031437267 1.1980998e-38 281 218
-0.054433983 0.81699997 0.03151441 1.1979572e-38 282 218
-0.053131256 0.81900001 0.031591557 1.1610791e-38 283 218
-0.05169528 0.81900001 0.031591557 1.1243101e-38 284 218
-0.0502593 0.81900001 0.031591557 1.1058351e-38 285 218
-0.049061771 0.82300001 0.031745855 1.1057635e-38 286 218
-0.04761878 0.82300001 0.031745855 1.0873244e-38 287 218
-0.046175785 0.82300001 0.031745855 1.0412263e-38 288 218
-0.044732794 0.82300001 0.031745855 9.7668934e-39 289 218
-0.043289799 0.82300001 0.031745855 8.7509674e-39 290 218
-0.090024896 0.815 0.030008299 1.4016565e-38 257 219
-0.088595927 0.815 0.030008299 1.5299671e-38 258 219
-0.086739153 0.81099999 0.02986102 1.6037236e-38 259 219
-0.085317194 0.81099999 0.02986102 1.6223401e-38 260 219
-0.083895244 0.81099999 0.02986102 1.6684378e-38 261 219
-0.082473285 0.81099999 0.02986102 1.7051365e-38 262 219
-0.081051342 0.81099999 0.02986102 1.7235758e-38 263 219
-0.079825759 0.81300002 0.02993466 1.751199e-38 264 219
-0.078207433 0.81099999 0.02986102 1.751199e-38 265 219
-0.076785475 0.81099999 0.02986102 1.751199e-38 266 219
-0.075363517 0.81099999 0.02986102 1.751199e-38 267 219
-0.073759228 0.80900002 0.02978738 1.7418001e-38 268 219
-0.072340779 0.80900002 0.02978738 1.7233609e-38 269 219
-0.07092233 0.80900002 0.02978738 1.7048861e-38 270 219
-0.069503881 0.80900002 0.02978738 1.6772635e-38 271 219
-0.06808544 0.80900002 0.02978738 1.649569e-38 272 219
-0.066666998 0.80900002 0.02978738 1.6219464e-38 273 219
-0.065248549 0.80900002 0.02978738 1.5759207e-38 274 219
-0.063830093 0.80900002 0.02978738 1.5482261e-38 275 219
-0.062411651 0.80900002 0.02978738 1.5113482e-38 276 219
-0.061143994 0.81099999 0.02986102 1.4836895e-38 277 219
-0.05972204 0.81099999 0.02986102 1.3455052e-38 278 219
-0.058443859 0.81300002 0.02993466 1.2809683e-38 279 219
-0.057158664 0.815 0.030008299 1.1981368e-38 280 219
-0.055729698 0.815 0.030008299 1.170478e-38 281 219
-0.054433983 0.81699997 0.030081939 1.1427844e-38 282 219
-0.053131256 0.81900001 0.030155579 1.1335648e-38 283 219
-0.05169528 0.81900001 0.030155579 1.1150905e-38 284 219
-0.0502593 0.81900001 0.030155579 1.1058351e-38 285 219
-0.048942544 0.82099998 0.030229218 1.1057988e-38 286 219
-0.04761878 0.82300001 0.03030286 1.059701e-38 287 219
-0.046175785 0.82300001 0.03030286 1.0317918e-38 288 219
-0.044732794 0.82300001 0.03030286 9.0271787e-39 289 219
-0.089583054 0.81099999 0.028439065 1.4107303e-38 257 220
-0.088161096 0.81099999 0.028439065 1.5944316e-38 258 220
-0.086525239 0.80900002 0.028368933 1.6313097e-38 259 220
-0.085106798 0.80900002 0.028368933 1.6407795e-38 260 220
-0.083688356 0.80900002 0.028368933 1.6684022e-38 261 220
-0.082269907 0.80900002 0.028368933 1.7235761e-38 262 220
-0.080851458 0.80900002 0.028368933 1.7327957e-38 263 220
-0.079629384 0.81099999 0.028439065 1.760347e-38 264 220
-0.078014567 0.80900002 0.028368933 1.7510916e-38 265 220
-0.076596119 0.80900002 0.028368933 1.7510916e-38 266 220
-0.07517767 0.80900002 0.028368933 1.741872e-38 267 220
-0.073759228 0.80900002 0.028368933 1.7326527e-38 268 220
-0.072340779 0.80900002 0.028368933 1.6957745e-38 269 220
-0.07092233 0.80900002 0.028368933 1.6772635e-38 270 220
-0.069503881 0.80900002 0.028368933 1.6588242e-38 271 220
-0.06808544 0.80900002 0.028368933 1.6127987e-38 272 220
-0.066666998 0.80900002 0.028368933 1.5943237e-38 273 220
-0.065248549 0.80900002 0.028368933 1.5574813e-38 274 220
-0.063830093 0.80900002 0.028368933 1.5390063e-38 275 220
-0.062411651 0.80900002 0.028368933 1.4469907e-38 276 220
-0.061143994 0.81099999 0.028439065 1.3640148e-38 277 220
-0.05972204 0.81099999 0.028439065 1.2717121e-38 278 220
-0.058587633 0.815 0.028579332 1.2255783e-38 279 220
-0.057158664 0.815 0.028579332 1.2255433e-38 280 220
-0.055866458 0.81699997 0.028649466 1.1794456e-38 281 220
-0.054567236 0.81900001 0.0287196 1.1335648e-38 282 220
-0.053131256 0.81900001 0.0287196 1.1243451e-38 283 220
-0.05169528 0.81900001 0.0287196 1.0875758e-38 284 220
-0.0502593 0.81900001 0.0287196 1.0875758e-38 285 220
-0.048942544 0.82099998 0.028789733 1.0414065e-38 286 220
-0.047503054 0.82099998 0.028789733 9.9527265e-39 287 220
-0.091515228 0.80299997 0.026750606 1.5676481e-38 255 221
-0.090107299 0.80299997 0.026750606 1.4748701e-38 256 221
-0.088699371 0.80299997 0.026750606 1.4748701e-38 257 221
-0.08772628 0.80699998 0.026883857 1.5945391e-38 258 221
-0.086311333 0.80699998 0.026883857 1.6314175e-38 259 221
-0.084896393 0.80699998 0.026883857 1.6315249e-38 260 221
-0.083688356 0.80900002 0.026950486 1.6775867e-38 261 221
-0.082269907 0.80900002 0.026950486 1.6960266e-38 262 221
-0.080851458 0.80900002 0.026950486 1.7052461e-38 263 221
-0.079433009 0.80900002 0.026950486 1.732725e-38 264 221
-0.078014567 0.80900002 0.026950486 1.732725e-38 265 221
-0.076596119 0.80900002 0.026950486 1.7418723e-38 266 221
-0.07517767 0.80900002 0.026950486 1.723433e-38 267 221
-0.073576882 0.80699998 0.026883857 1.7050296e-38 268 221
-0.072161935 0.80699998 0.026883857 1.6865546e-38 269 221
-0.07092233 0.80900002 0.026950486 1.6680435e-38 270 221
-0.069503881 0.80900002 0.026950486 1.6403848e-38 271 221
-0.06808544 0.80900002 0.026950486 1.6127618e-38 272 221
-0.066666998 0.80900002 0.026950486 1.5850671e-38 273 221
-0.065248549 0.80900002 0.026950486 1.5574445e-38 274 221
-0.063830093 0.80900002 0.026950486 1.5205302e-38 275 221
-0.062411651 0.80900002 0.026950486 1.4100409e-38 276 221
-0.061143994 0.81099999 0.027017111 1.3270289e-38 277 221
-0.059869319 0.81300002 0.02708374 1.2257232e-38 278 221
-0.058587633 0.815 0.027150365 1.1704058e-38 279 221
-0.057158664 0.815 0.027150365 1.1611509e-38 280 221
-0.055866458 0.81699997 0.027216991 1.1519314e-38 281 221
-0.054567236 0.81900001 0.027283618 1.1243451e-38 282 221
-0.053131256 0.81900001 0.027283618 1.1151256e-38 283 221
-0.05169528 0.81900001 0.027283618 1.0967588e-38 284 221
-0.0502593 0.81900001 0.027283618 1.0691001e-38 285 221
-0.048823319 0.81900001 0.027283618 1.0504111e-38 286 221
-0.047503054 0.82099998 0.027350245 8.6601983e-39 287 221
-0.094213605 0.80199999 0.02531112 1.7428221e-38 253 222
-0.092807434 0.80199999 0.02531112 1.6597342e-38 254 222
-0.091515228 0.80299997 0.025342679 1.4845626e-38 255 222
-0.090107299 0.80299997 0.025342679 1.5390827e-38 256 222
-0.088699371 0.80299997 0.025342679 1.5759968e-38 257 222
-0.087508865 0.80500001 0.025405798 1.6312741e-38 258 222
-0.086097427 0.80500001 0.025405798 1.6497492e-38 259 222
-0.084896393 0.80699998 0.025468919 1.6866265e-38 260 222
-0.083481453 0.80699998 0.025468919 1.6958819e-38 261 222
-0.082066514 0.80699998 0.025468919 1.7143578e-38 262 222
-0.080651581 0.80699998 0.025468919 1.7235774e-38 263 222
-0.079433009 0.80900002 0.025532039 1.7327253e-38 264 222
-0.078014567 0.80900002 0.025532039 1.7235057e-38 265 222
-0.076596119 0.80900002 0.025532039 1.7418723e-38 266 222
-0.07517767 0.80900002 0.025532039 1.704994e-38 267 222
-0.073576882 0.80699998 0.025468919 1.6865549e-38 268 222
-0.072161935 0.80699998 0.025468919 1.6681158e-38 269 222
-0.070746996 0.80699998 0.025468919 1.6495688e-38 270 222
-0.069332056 0.80699998 0.025468919 1.6219461e-38 271 222
-0.067917116 0.80699998 0.025468919 1.5943589e-38 272 222
-0.066502176 0.80699998 0.025468919 1.5574807e-38 273 222
-0.065248549 0.80900002 0.025532039 1.5297503e-38 274 222
-0.063830093 0.80900002 0.025532039 1.4744331e-38 275 222
-0.062411651 0.80900002 0.025532039 1.3454684e-38 276 222
-0.061143994 0.81099999 0.025595158 1.2532727e-38 277 222
-0.05972204 0.81099999 0.025595158 1.1796254e-38 278 222
-0.058587633 0.815 0.025721399 1.1611863e-38 279 222
-0.057158664 0.815 0.025721399 1.1611865e-38 280 222
-0.055866458 0.81699997 0.025784519 1.1427114e-38 281 222
-0.054567236 0.81900001 0.02584764 1.1243451e-38 282 222
-0.053131256 0.81900001 0.02584764 1.1151256e-38 283 222
-0.05169528 0.81900001 0.02584764 1.0875042e-38 284 222
-0.0502593 0.81900001 0.02584764 1.0414065e-38 285 222
-0.048823319 0.81900001 0.02584764 9.398499e-39 286 222
-0.095142879 0.79799998 0.02378572 1.7888476e-38 252 223
-0.093743719 0.79799998 0.02378572 1.761153e-38 253 223
-0.092575997 0.80000001 0.023845334 1.5582096e-38 254 223
-0.091515228 0.80299997 0.023934752 1.4567944e-38 255 223
-0.090107299 0.80299997 0.023934752 1.5575553e-38 256 223
-0.088699371 0.80299997 0.023934752 1.5944334e-38 257 223
-0.087508865 0.80500001 0.023994366 1.6312728e-38 258 223
-0.086097427 0.80500001 0.023994366 1.6681511e-38 259 223
-0.084896393 0.80699998 0.02405398 1.6682234e-38 260 223
-0.083481453 0.80699998 0.02405398 1.6958819e-38 261 223
-0.082066514 0.80699998 0.02405398 1.6959547e-38 262 223
-0.080651581 0.80699998 0.02405398 1.7143578e-38 263 223
-0.079236634 0.80699998 0.02405398 1.7235055e-38 264 223
-0.077821694 0.80699998 0.02405398 1.7142859e-38 265 223
-0.076406755 0.80699998 0.02405398 1.7143215e-38 266 223
-0.074991815 0.80699998 0.02405398 1.6866268e-38 267 223
-0.07339453 0.80500001 0.023994366 1.6773353e-38 268 223
-0.071983099 0.80500001 0.023994366 1.6588961e-38 269 223
-0.070746996 0.80699998 0.02405398 1.622018e-38 270 223
-0.069332056 0.80699998 0.02405398 1.6035788e-38 271 223
-0.067917116 0.80699998 0.02405398 1.5667362e-38 272 223
-0.066502176 0.80699998 0.02405398 1.5482612e-38 273 223
-0.065087236 0.80699998 0.02405398 1.4744694e-38 274 223
-0.063830093 0.80900002 0.024113594 1.3638705e-38 275 223
-0.062411651 0.80900002 0.024113594 1.2534175e-38 276 223
-0.061143994 0.81099999 0.024173206 1.179661e-38 277 223
-0.05972204 0.81099999 0.024173206 1.1979572e-38 278 223
-0.058587633 0.815 0.024292432 1.1610791e-38 279 223
-0.057158664 0.815 0.024292432 1.1519317e-38 280 223
-0.055866458 0.81699997 0.024352046 1.1426761e-38 281 223
-0.054567236 0.81900001 0.02441166 1.11509e-38 282 223
-0.053131256 0.81900001 0.02441166 1.11509e-38 283 223
-0.05169528 0.81900001 0.02441166 1.0781777e-38 284 223
-0.0502593 0.81900001 0.02441166 9.3062879e-39 285 223
-0.095142879 0.79799998 0.022386558 1.8071788e-38 252 224
-0.093743719 0.79799998 0.022386558 1.7426419e-38 253 224
-0.092575997 0.80000001 0.022442667 1.4935635e-38 254 224
-0.091515228 0.80299997 0.022526825 1.419807e-38 255 224
-0.090331733 0.80500001 0.022582933 1.5759927e-38 256 224
-0.088920295 0.80500001 0.022582933 1.5944319e-38 257 224
-0.087508865 0.80500001 0.022582933 1.6313082e-38 258 224
-0.086097427 0.80500001 0.022582933 1.6589308e-38 259 224
-0.084896393 0.80699998 0.022639038 1.668259e-38 260 224
-0.083481453 0.80699998 0.022639038 1.6958817e-38 261 224
-0.082066514 0.80699998 0.022639038 1.7050665e-38 262 224
-0.080651581 0.80699998 0.022639038 1.7050665e-38 263 224
-0.079236634 0.80699998 0.022639038 1.705031e-38 264 224
-0.077628836 0.80500001 0.022582933 1.6958113e-38 265 224
-0.076217398 0.80500001 0.022582933 1.66826e-38 266 224
-0.074805968 0.80500001 0.022582933 1.6498208e-38 267 224
-0.07339453 0.80500001 0.022582933 1.640529e-38 268 224
-0.071983099 0.80500001 0.022582933 1.6220899e-38 269 224
-0.070571661 0.80500001 0.022582933 1.5852476e-38 270 224
-0.06916023 0.80500001 0.022582933 1.5667725e-38 271 224
-0.067917116 0.80699998 0.022639038 1.5482249e-38 272 224
-0.066502176 0.80699998 0.022639038 1.5113106e-38 273 224
-0.065087236 0.80699998 0.022639038 1.4101125e-38 274 224
-0.063830093 0.80900002 0.022695147 1.2810386e-38 275 224
-0.062411651 0.80900002 0.022695147 1.1981371e-38 276 224
-0.061143994 0.81099999 0.022751253 1.1520393e-38 277 224
-0.05972204 0.81099999 0.022751253 1.1886304e-38 278 224
-0.058587633 0.815 0.022863466 1.1609357e-38 279 224
-0.057158664 0.815 0.022863466 1.1242732e-38 280 224
-0.055729698 0.815 0.022863466 1.1242732e-38 281 224
-0.054433983 0.81699997 0.022919571 1.0875395e-38 282 224
-0.053131256 0.81900001 0.022975679 1.0506614e-38 283 224
-0.05169528 0.81900001 0.022975679 9.7683577e-39 284 224
-0.0502593 0.81900001 0.022975679 8.3854233e-39 285 224
-0.095381334 0.80000001 0.02104 1.7151261e-38 252 225
-0.093978666 0.80000001 0.02104 1.5860522e-38 253 225
-0.092807434 0.80199999 0.021092599 1.4472839e-38 254 225
-0.091743164 0.80500001 0.021171499 1.4472839e-38 255 225
-0.090331733 0.80500001 0.021171499 1.5943591e-38 256 225
-0.08914122 0.80699998 0.021224098 1.6127984e-38 257 225
-0.08772628 0.80699998 0.021224098 1.6587871e-38 258 225
-0.086311333 0.80699998 0.021224098 1.6864456e-38 259 225
-0.084896393 0.80699998 0.021224098 1.6958095e-38 260 225
-0.083481453 0.80699998 0.021224098 1.6958095e-38 261 225
-0.082066514 0.80699998 0.021224098 1.7049946e-38 262 225
-0.080651581 0.80699998 0.021224098 1.7049946e-38 263 225
-0.079236634 0.80699998 0.021224098 1.6865918e-38 264 225
-0.077628836 0.80500001 0.021171499 1.6681886e-38 265 225
-0.076217398 0.80500001 0.021171499 1.6682237e-38 266 225
-0.074805968 0.80500001 0.021171499 1.640529e-38 267 225
-0.07339453 0.80500001 0.021171499 1.6220899e-38 268 225
-0.071983099 0.80500001 0.021171499 1.5944672e-38 269 225
-0.070571661 0.80500001 0.021171499 1.575992e-38 270 225
-0.06916023 0.80500001 0.021171499 1.5575529e-38 271 225
-0.0677488 0.80500001 0.021171499 1.5298216e-38 272 225
-0.066337362 0.80500001 0.021171499 1.4007479e-38 273 225
-0.065087236 0.80699998 0.021224098 1.3728749e-38 274 225
-0.063830093 0.80900002 0.021276699 1.2898987e-38 275 225
-0.062411651 0.80900002 0.021276699 1.2254726e-38 276 225
-0.061143994 0.81099999 0.021329299 1.1886304e-38 277 225
-0.05972204 0.81099999 0.021329299 1.1518246e-38 278 225
-0.058587633 0.815 0.021434501 1.1425692e-38 279 225
-0.057158664 0.815 0.021434501 1.1242735e-38 280 225
-0.055729698 0.815 0.021434501 1.1150181e-38 281 225
-0.054433983 0.81699997 0.021487098 1.0782493e-38 282 225
-0.053131256 0.81900001 0.021539699 9.491754e-39 283 225
-0.05169528 0.81900001 0.021539699 7.7411483e-39 284 225
-0.096783996 0.80000001 0.019637333 1.7520063e-38 251 226
-0.095381334 0.80000001 0.019637333 1.6228932e-38 252 226
-0.094213605 0.80199999 0.019686425 1.4845998e-38 253 226
-0.092923149 0.80299997 0.019710973 1.4746892e-38 254 226
-0.091743164 0.80500001 0.019760067 1.5207512e-38 255 226
-0.090107299 0.80299997 0.019710973 1.6035786e-38 256 226
-0.088699371 0.80299997 0.019710973 1.6220177e-38 257 226
-0.087291449 0.80299997 0.019710973 1.6404924e-38 258 226
-0.086097427 0.80500001 0.019760067 1.6773707e-38 259 226
-0.084685996 0.80500001 0.019760067 1.6865552e-38 260 226
-0.083274566 0.80500001 0.019760067 1.6865552e-38 261 226
-0.081659742 0.80299997 0.019710973 1.6957041e-38 262 226
-0.08025182 0.80299997 0.019710973 1.6864846e-38 263 226
-0.079040267 0.80500001 0.019760067 1.6589338e-38 264 226
-0.077628836 0.80500001 0.019760067 1.6681533e-38 265 226
-0.076217398 0.80500001 0.019760067 1.6588609e-38 266 226
-0.074620105 0.80299997 0.019710973 1.6404577e-38 267 226
-0.073212177 0.80299997 0.019710973 1.622018e-38 268 226
-0.071804255 0.80299997 0.019710973 1.6035788e-38 269 226
-0.070396326 0.80299997 0.019710973 1.5850321e-38 270 226
-0.068988405 0.80299997 0.019710973 1.5481899e-38 271 226
-0.0677488 0.80500001 0.019760067 1.4746494e-38 272 226
-0.066337362 0.80500001 0.019760067 1.3271364e-38 273 226
-0.065087236 0.80699998 0.019809159 1.2992995e-38 274 226
-0.063830093 0.80900002 0.019858252 1.2347625e-38 275 226
-0.062565938 0.81099999 0.019907346 1.1795906e-38 276 226
-0.061143994 0.81099999 0.019907346 1.1518961e-38 277 226
-0.059869319 0.81300002 0.01995644 1.1426766e-38 278 226
-0.058587633 0.815 0.020005532 1.1242735e-38 279 226
-0.057158664 0.815 0.020005532 1.1058704e-38 280 226
-0.055729698 0.815 0.020005532 1.0874673e-38 281 226
-0.054433983 0.81699997 0.020054625 1.0136417e-38 282 226
-0.096783996 0.80000001 0.018234666 1.7060157e-38 251 227
-0.095381334 0.80000001 0.018234666 1.4845249e-38 252 227
-0.094213605 0.80199999 0.018280253 1.3646708e-38 253 227
-0.092923149 0.80299997 0.018303044 1.5207848e-38 254 227
-0.091515228 0.80299997 0.018303044 1.5484076e-38 255 227
-0.090107299 0.80299997 0.018303044 1.6128332e-38 256 227
-0.088699371 0.80299997 0.018303044 1.6313082e-38 257 227
-0.087291449 0.80299997 0.018303044 1.6405993e-38 258 227
-0.085883521 0.80299997 0.018303044 1.6590745e-38 259 227
-0.084475599 0.80299997 0.018303044 1.7141766e-38 260 227
-0.08306767 0.80299997 0.018303044 1.6772985e-38 261 227
-0.081659742 0.80299997 0.018303044 1.6863753e-38 262 227
-0.08025182 0.80299997 0.018303044 1.6863753e-38 263 227
-0.078843892 0.80299997 0.018303044 1.6772281e-38 264 227
-0.077435955 0.80299997 0.018303044 1.6680086e-38 265 227
-0.076028034 0.80299997 0.018303044 1.6680438e-38 266 227
-0.074620105 0.80299997 0.018303044 1.6403492e-38 267 227
-0.073212177 0.80299997 0.018303044 1.6127618e-38 268 227
-0.071804255 0.80299997 0.018303044 1.5942867e-38 269 227
-0.070396326 0.80299997 0.018303044 1.5575163e-38 270 227
-0.068988405 0.80299997 0.018303044 1.4929794e-38 271 227
-0.067580476 0.80299997 0.018303044 1.3550825e-38 272 227
-0.066337362 0.80500001 0.018348632 1.2260086e-38 273 227
-0.065248549 0.80900002 0.018439807 1.2990478e-38 274 227
-0.063830093 0.80900002 0.018439807 1.2529859e-38 275 227
-0.062565938 0.81099999 0.018485393 1.1886667e-38 276 227
-0.061143994 0.81099999 0.018485393 1.161044e-38 277 227
-0.059869319 0.81300002 0.01853098 1.1243098e-38 278 227
-0.058587633 0.815 0.018576566 1.1150903e-38 279 227
-0.057158664 0.815 0.018576566 1.096724e-38 280 227
-0.055866458 0.81699997 0.018622151 1.0229316e-38 281 227
-0.097025953 0.80199999 0.016874079 1.6505539e-38 251 228
-0.095619783 0.80199999 0.016874079 1.4566123e-38 252 228
-0.094331078 0.80299997 0.016895119 1.401295e-38 253 228
-0.092923149 0.80299997 0.016895119 1.5852473e-38 254 228
-0.091515228 0.80299997 0.016895119 1.5944669e-38 255 228
-0.090107299 0.80299997 0.016895119 1.6313079e-38 256 228
-0.088699371 0.80299997 0.016895119 1.6405274e-38 257 228
-0.087291449 0.80299997 0.016895119 1.6498196e-38 258 228
-0.085883521 0.80299997 0.016895119 1.6590392e-38 259 228
-0.084475599 0.80299997 0.016895119 1.6405646e-38 260 228
-0.08306767 0.80299997 0.016895119 1.5852473e-38 261 228
-0.081659742 0.80299997 0.016895119 1.6219113e-38 262 228
-0.08025182 0.80299997 0.016895119 1.6403144e-38 263 228
-0.078843892 0.80299997 0.016895119 1.6219842e-38 264 228
-0.077435955 0.80299997 0.016895119 1.6219842e-38 265 228
-0.076028034 0.80299997 0.016895119 1.6219827e-38 266 228
-0.074527182 0.80199999 0.016874079 1.6035435e-38 267 228
-0.073121011 0.80199999 0.016874079 1.5760629e-38 268 228
-0.071714841 0.80199999 0.016874079 1.5391848e-38 269 228
-0.070308663 0.80199999 0.016874079 1.5298569e-38 270 228
-0.068988405 0.80299997 0.016895119 1.4284778e-38 271 228
-0.067580476 0.80299997 0.016895119 1.3272443e-38 272 228
-0.066502176 0.80699998 0.016979279 1.2534878e-38 273 228
-0.065087236 0.80699998 0.016979279 1.2897932e-38 274 228
-0.063830093 0.80900002 0.01702136 1.252915e-38 275 228
-0.062565938 0.81099999 0.017063441 1.1885951e-38 276 228
-0.061143994 0.81099999 0.017063441 1.1701558e-38 277 228
-0.059869319 0.81300002 0.01710552 1.1150905e-38 278 228
-0.058587633 0.815 0.017147599 1.1058351e-38 279 228
-0.057158664 0.815 0.017147599 1.050483e-38 280 228
-0.097025953 0.80199999 0.015467905 1.5307346e-38 251 229
-0.095619783 0.80199999 0.015467905 1.4380996e-38 252 229
-0.094331078 0.80299997 0.015487193 1.474942e-38 253 229
-0.092923149 0.80299997 0.015487193 1.5945025e-38 254 229
-0.091401257 0.80199999 0.015467905 1.6221252e-38 255 229
-0.089995086 0.80199999 0.015467905 1.6405996e-38 256 229
-0.088699371 0.80299997 0.015487193 1.6498193e-38 257 229
-0.087291449 0.80299997 0.015487193 1.6772988e-38 258 229
-0.085883521 0.80299997 0.015487193 1.6680791e-38 259 229
-0.084475599 0.80299997 0.015487193 1.6219108e-38 260 229
-0.082964227 0.80199999 0.015467905 1.5204954e-38 261 229
-0.081558049 0.80199999 0.015467905 1.5664507e-38 262 229
-0.080151878 0.80199999 0.015467905 1.6125125e-38 263 229
-0.0787457 0.80199999 0.015467905 1.6035085e-38 264 229
-0.07733953 0.80199999 0.015467905 1.6127281e-38 265 229
-0.075933352 0.80199999 0.015467905 1.6127981e-38 266 229
-0.074527182 0.80199999 0.015467905 1.5943589e-38 267 229
-0.073121011 0.80199999 0.015467905 1.5575882e-38 268 229
-0.071714841 0.80199999 0.015467905 1.5299655e-38 269 229
-0.070308663 0.80199999 0.015467905 1.4470984e-38 270 229
-0.068902493 0.80199999 0.015467905 1.327244e-38 271 229
-0.067580476 0.80299997 0.015487193 1.2810403e-38 272 229
-0.066502176 0.80699998 0.015564339 1.2441979e-38 273 229
-0.065087236 0.80699998 0.015564339 1.2529874e-38 274 229
-0.063830093 0.80900002 0.015602913 1.2253289e-38 275 229
-0.062565938 0.81099999 0.015641484 1.1610087e-38 276 229
-0.061143994 0.81099999 0.015641484 1.1425694e-38 277 229
-0.05972204 0.81099999 0.015641484 1.1150549e-38 278 229
-0.058443859 0.81300002 0.01568006 1.0782127e-38 279 229
-0.057018399 0.81300002 0.01568006 9.767992e-39 280 229
-0.095739007 0.80299997 0.014079265 1.4747608e-38 252 230
-0.094331078 0.80299997 0.014079265 1.5300782e-38 253 230
-0.092923149 0.80299997 0.014079265 1.622053e-38 254 230
-0.091401257 0.80199999 0.014061732 1.6589311e-38 255 230
-0.089995086 0.80199999 0.014061732 1.6681508e-38 256 230
-0.088588916 0.80199999 0.014061732 1.6773704e-38 257 230
-0.087182745 0.80199999 0.014061732 1.6681158e-38 258 230
-0.085776575 0.80199999 0.014061732 1.6312375e-38 259 230
-0.084370397 0.80199999 0.014061732 1.5666658e-38 260 230
-0.082964227 0.80199999 0.014061732 1.437592e-38 261 230
-0.081558049 0.80199999 0.014061732 1.4835838e-38 262 230
-0.080151878 0.80199999 0.014061732 1.5481208e-38 263 230
-0.0787457 0.80199999 0.014061732 1.5390797e-38 264 230
-0.07733953 0.80199999 0.014061732 1.5759221e-38 265 230
-0.075933352 0.80199999 0.014061732 1.5759555e-38 266 230
-0.074527182 0.80199999 0.014061732 1.5759555e-38 267 230
-0.073121011 0.80199999 0.014061732 1.557481e-38 268 230
-0.071714841 0.80199999 0.014061732 1.5113832e-38 269 230
-0.070308663 0.80199999 0.014061732 1.4101496e-38 270 230
-0.068902493 0.80199999 0.014061732 1.299515e-38 271 230
-0.067580476 0.80299997 0.014079265 1.2716421e-38 272 230
-0.066502176 0.80699998 0.014149399 1.2439475e-38 273 230
-0.065087236 0.80699998 0.014149399 1.2070342e-38 274 230
-0.063672297 0.80699998 0.014149399 1.1885951e-38 275 230
-0.062257357 0.80699998 0.014149399 1.142641e-38 276 230
-0.060993209 0.80900002 0.014184467 1.1242379e-38 277 230
-0.05972204 0.81099999 0.014219533 1.069065e-38 278 230
-0.058443859 0.81300002 0.0142546 1.0137477e-38 279 230
-0.057018399 0.81300002 0.0142546 7.9251696e-39 280 230
-0.097146936 0.80299997 0.012671339 1.318825e-38 251 231
-0.095739007 0.80299997 0.012671339 1.5023101e-38 252 231
-0.094331078 0.80299997 0.012671339 1.566847e-38 253 231
-0.092923149 0.80299997 0.012671339 1.6312728e-38 254 231
-0.091401257 0.80199999 0.01265556 1.6681511e-38 255 231
-0.089995086 0.80199999 0.01265556 1.6773704e-38 256 231
-0.088588916 0.80199999 0.01265556 1.6773704e-38 257 231
-0.087182745 0.80199999 0.01265556 1.6772635e-38 258 231
-0.085776575 0.80199999 0.01265556 1.5942873e-38 259 231
-0.084370397 0.80199999 0.01265556 1.5020939e-38 260 231
-0.082964227 0.80199999 0.01265556 1.4375569e-38 261 231
-0.081558049 0.80199999 0.01265556 1.4927318e-38 262 231
-0.080151878 0.80199999 0.01265556 1.5111349e-38 263 231
-0.0787457 0.80199999 0.01265556 1.5113855e-38 264 231
-0.07733953 0.80199999 0.01265556 1.5574473e-38 265 231
-0.075933352 0.80199999 0.01265556 1.5667009e-38 266 231
-0.074341334 0.80000001 0.012624 1.5574813e-38 267 231
-0.072938666 0.80000001 0.012624 1.5390419e-38 268 231
-0.071714841 0.80199999 0.01265556 1.474505e-38 269 231
-0.070308663 0.80199999 0.01265556 1.3547968e-38 270 231
-0.068902493 0.80199999 0.01265556 1.2810403e-38 271 231
-0.067580476 0.80299997 0.012671339 1.2898658e-38 272 231
-0.066502176 0.80699998 0.01273446 1.2529874e-38 273 231
-0.065087236 0.80699998 0.01273446 1.1978865e-38 274 231
-0.063672297 0.80699998 0.01273446 1.1702639e-38 275 231
-0.062257357 0.80699998 0.01273446 1.142641e-38 276 231
-0.060993209 0.80900002 0.012766019 1.1150184e-38 277 231
-0.05972204 0.81099999 0.012797579 1.02286e-38 278 231
-0.058443859 0.81300002 0.01282914 9.3988395e-39 279 231
-0.098554865 0.80299997 0.011263412 1.4662285e-38 250 232
-0.097146936 0.80299997 0.011263412 1.3187155e-38 251 232
-0.095739007 0.80299997 0.011263412 1.5759207e-38 252 232
-0.094331078 0.80299997 0.011263412 1.6312022e-38 253 232
-0.092807434 0.80199999 0.011249386 1.6588236e-38 254 232
-0.091401257 0.80199999 0.011249386 1.6865183e-38 255 232
-0.089995086 0.80199999 0.011249386 1.6865546e-38 256 232
-0.088588916 0.80199999 0.011249386 1.6865546e-38 257 232
-0.087182745 0.80199999 0.011249386 1.6497136e-38 258 232
-0.085776575 0.80199999 0.011249386 1.4653583e-38 259 232
-0.084370397 0.80199999 0.011249386 1.4557809e-38 260 232
-0.082964227 0.80199999 0.011249386 1.4650005e-38 261 232
-0.08135467 0.80000001 0.011221333 1.492552e-38 262 232
-0.079952002 0.80000001 0.011221333 1.5293942e-38 263 232
-0.078549333 0.80000001 0.011221333 1.5388997e-38 264 232
-0.077146664 0.80000001 0.011221333 1.5757419e-38 265 232
-0.075743996 0.80000001 0.011221333 1.5574807e-38 266 232
-0.074341334 0.80000001 0.011221333 1.5482612e-38 267 232
-0.072938666 0.80000001 0.011221333 1.4930887e-38 268 232
-0.071535997 0.80000001 0.011221333 1.4008929e-38 269 232
-0.070308663 0.80199999 0.011249386 1.2626017e-38 270 232
-0.068902493 0.80199999 0.011249386 1.216468e-38 271 232
-0.067580476 0.80299997 0.011263412 1.2346206e-38 272 232
-0.066337362 0.80500001 0.011291467 1.2161815e-38 273 232
-0.064925931 0.80500001 0.011291467 1.1702283e-38 274 232
-0.063672297 0.80699998 0.011319519 1.151789e-38 275 232
-0.062257357 0.80699998 0.011319519 1.1149833e-38 276 232
-0.060993209 0.80900002 0.011347573 1.0965083e-38 277 232
-0.05972204 0.81099999 0.011375627 9.1222722e-39 278 232
-0.099962786 0.80299997 0.0098554865 1.5952365e-38 249 233
-0.098554865 0.80299997 0.0098554865 1.4568274e-38 250 233
-0.097146936 0.80299997 0.0098554865 1.3646318e-38 251 233
-0.095739007 0.80299997 0.0098554865 1.6036142e-38 252 233
-0.094213605 0.80199999 0.0098432126 1.6220533e-38 253 233
-0.092807434 0.80199999 0.0098432126 1.6772635e-38 254 233
-0.091401257 0.80199999 0.0098432126 1.686483e-38 255 233
-0.089770667 0.80000001 0.0098186666 1.6865552e-38 256 233
-0.088367999 0.80000001 0.0098186666 1.6773356e-38 257 233
-0.086965337 0.80000001 0.0098186666 1.6312038e-38 258 233
-0.085562661 0.80000001 0.0098186666 1.4376288e-38 259 233
-0.08416 0.80000001 0.0098186666 1.4372709e-38 260 233
-0.082757331 0.80000001 0.0098186666 1.4557459e-38 261 233
-0.08135467 0.80000001 0.0098186666 1.4651091e-38 262 233
-0.079952002 0.80000001 0.0098186666 1.4928037e-38 263 233
-0.078549333 0.80000001 0.0098186666 1.5113852e-38 264 233
-0.077146664 0.80000001 0.0098186666 1.5298243e-38 265 233
-0.075743996 0.80000001 0.0098186666 1.5206754e-38 266 233
-0.074341334 0.80000001 0.0098186666 1.5206754e-38 267 233
-0.072938666 0.80000001 0.0098186666 1.4285523e-38 268 233
-0.071535997 0.80000001 0.0098186666 1.3547957e-38 269 233
-0.070308663 0.80199999 0.0098432126 1.2349074e-38 270 233
-0.068902493 0.80199999 0.0098432126 1.1980651e-38 271 233
-0.067580476 0.80299997 0.0098554865 1.2254726e-38 272 233
-0.066337362 0.80500001 0.0098800333 1.1886304e-38 273 233
-0.064925931 0.80500001 0.0098800333 1.1518608e-38 274 233
-0.063514493 0.80500001 0.0098800333 1.1242379e-38 275 233
-0.062103067 0.80500001 0.0098800333 1.0964723e-38 276 233
-0.060842417 0.80699998 0.0099045793 1.0411549e-38 277 233
-0.05972204 0.81099999 0.009953673 8.4765497e-39 278 233
-0.10137071 0.80299997 0.0084475596 1.687467e-38 248 234
-0.099962786 0.80299997 0.0084475596 1.5030759e-38 249 234
-0.098432131 0.80199999 0.0084370393 1.4751221e-38 250 234
-0.097025953 0.80199999 0.0084370393 1.4290603e-38 251 234
-0.095619783 0.80199999 0.0084370393 1.6036142e-38 252 234
-0.094213605 0.80199999 0.0084370393 1.6312728e-38 253 234
-0.092575997 0.80000001 0.0084159998 1.6864103e-38 254 234
-0.091173328 0.80000001 0.0084159998 1.7048496e-38 255 234
-0.089770667 0.80000001 0.0084159998 1.686483e-38 256 234
-0.088367999 0.80000001 0.0084159998 1.686483e-38 257 234
-0.086965337 0.80000001 0.0084159998 1.6219476e-38 258 234
-0.085562661 0.80000001 0.0084159998 1.4098977e-38 259 234
-0.08416 0.80000001 0.0084159998 1.3820963e-38 260 234
