# .PCD v.7 - Point Cloud Data file format
FIELDS x y z rgb imX imY
SIZE 4 4 4 4 4 4
TYPE F F F F F F
COUNT 1 1 1 1 1 1
WIDTH 837
HEIGHT 1
VIEWPOINT 0 0 0 1 0 0 0
POINTS 837
DATA ascii
-0.037367038 0.66600001 -0.092249878 1.8246688e-38 288 319
-0.03619932 0.66600001 -0.092249878 1.8338884e-38 289 319
-0.035031598 0.66600001 -0.092249878 1.8614392e-38 290 319
-0.03386388 0.66600001 -0.092249878 1.8706588e-38 291 319
-0.03259797 0.66399997 -0.091972843 1.8798789e-38 292 319
-0.031433757 0.66399997 -0.091972843 1.8890984e-38 293 319
-0.030269546 0.66399997 -0.091972843 1.8983184e-38 294 319
-0.02910533 0.66399997 -0.091972843 1.8983184e-38 295 319
-0.027941117 0.66399997 -0.091972843 1.9167213e-38 296 319
-0.026776904 0.66399997 -0.091972843 1.8983182e-38 297 319
-0.02568984 0.66600001 -0.092249878 1.8892058e-38 298 319
-0.02452212 0.66600001 -0.092249878 1.8892058e-38 299 319
-0.023354398 0.66600001 -0.092249878 1.8892408e-38 300 319
-0.02218668 0.66600001 -0.092249878 1.8892408e-38 301 319
-0.02101896 0.66600001 -0.092249878 1.8892408e-38 302 319
-0.019851239 0.66600001 -0.092249878 1.8892408e-38 303 319
-0.018711573 0.667 -0.092388391 1.8892408e-38 304 319
-0.017568398 0.66799998 -0.092526905 1.8892408e-38 305 319
-0.016397171 0.66799998 -0.092526905 1.8709093e-38 306 319
-0.015225946 0.66799998 -0.092526905 1.8616896e-38 307 319
-0.014054719 0.66799998 -0.092526905 1.8800211e-38 308 319
-0.012883492 0.66799998 -0.092526905 1.8708016e-38 309 319
-0.011694733 0.667 -0.092388391 1.870766e-38 310 319
-0.010525259 0.667 -0.092388391 1.870766e-38 311 319
-0.0093557863 0.667 -0.092388391 1.8707309e-38 312 319
-0.0081740404 0.66600001 -0.092249878 1.8707309e-38 313 319
-0.0070063197 0.66600001 -0.092249878 1.8523641e-38 314 319
-0.0058385995 0.66600001 -0.092249878 1.8523641e-38 315 319
-0.0046708798 0.66600001 -0.092249878 1.8523641e-38 316 319
-0.0035031599 0.66600001 -0.092249878 1.8523641e-38 317 319
-0.0023389466 0.667 -0.092388391 1.8522925e-38 318 319
-0.0011694733 0.667 -0.092388391 1.8522925e-38 319 319
0 0.66600001 -0.092249878 1.8798083e-38 320 319
0.00116772 0.66600001 -0.092249878 1.8798083e-38 321 319
0.0023354399 0.66600001 -0.092249878 1.8431475e-38 322 319
0.0035084197 0.667 -0.092388391 1.8615506e-38 323 319
0.0046778931 0.667 -0.092388391 1.8339292e-38 324 319
0.0058473665 0.667 -0.092388391 1.8154899e-38 325 319
0.0070168395 0.667 -0.092388391 1.843114e-38 326 319
0.0081863133 0.667 -0.092388391 1.8523336e-38 327 319
0.0093557863 0.667 -0.092388391 1.8340039e-38 328 319
0.01058838 0.671 -0.092942439 1.8340039e-38 329 319
-0.075007595 0.69 -0.096783996 1.3549431e-38 258 320
-0.073476933 0.68699998 -0.096363194 1.33654e-38 259 320
-0.07227239 0.68699998 -0.096363194 1.3640885e-38 260 320
-0.070964411 0.68599999 -0.096222922 1.3456854e-38 261 320
-0.06955824 0.68400002 -0.0959424 1.3547974e-38 262 320
-0.068259016 0.68300003 -0.095802136 1.3640169e-38 263 320
-0.067061491 0.68300003 -0.095802136 1.3456872e-38 264 320
-0.065767527 0.68199998 -0.095661856 1.3549068e-38 265 320
-0.064571753 0.68199998 -0.095661856 1.419193e-38 266 320
-0.063097201 0.67900002 -0.095241062 1.437668e-38 267 320
-0.061906695 0.67900002 -0.095241062 1.502023e-38 268 320
-0.060626756 0.67799997 -0.09510079 1.5296816e-38 269 320
-0.059262663 0.676 -0.094820268 1.4930537e-38 270 320
-0.058077414 0.676 -0.094820268 1.5207122e-38 271 320
-0.056808002 0.67500001 -0.094679996 1.5390792e-38 272 320
-0.0556245 0.67500001 -0.094679996 1.5390792e-38 273 320
-0.054360349 0.67400002 -0.094539732 1.6125834e-38 274 320
-0.053020798 0.67199999 -0.094259195 1.6402423e-38 275 320
-0.051842555 0.67199999 -0.094259195 1.6035811e-38 276 320
-0.050588924 0.671 -0.09411893 1.6219842e-38 277 320
-0.049412437 0.671 -0.09411893 1.6311687e-38 278 320
-0.048164066 0.67000002 -0.093978666 1.6496439e-38 279 320
-0.046989333 0.67000002 -0.093978666 1.6679395e-38 280 320
-0.0458146 0.67000002 -0.093978666 1.6956341e-38 281 320
-0.044639867 0.67000002 -0.093978666 1.7048539e-38 282 320
-0.043335386 0.66799998 -0.093698129 1.7232572e-38 283 320
-0.042164158 0.66799998 -0.093698129 1.7325118e-38 284 320
-0.040992931 0.66799998 -0.093698129 1.7417313e-38 285 320
-0.039762091 0.667 -0.093557864 1.7235073e-38 286 320
-0.038592618 0.667 -0.093557864 1.7235073e-38 287 320
-0.037367038 0.66600001 -0.093417592 1.7602776e-38 288 320
-0.03619932 0.66600001 -0.093417592 1.7695332e-38 289 320
-0.0349264 0.66399997 -0.093137063 1.7879721e-38 290 320
-0.033762183 0.66399997 -0.093137063 1.7972275e-38 291 320
-0.03259797 0.66399997 -0.093137063 1.8431098e-38 292 320
-0.031433757 0.66399997 -0.093137063 1.8431098e-38 293 320
-0.030269546 0.66399997 -0.093137063 1.852294e-38 294 320
-0.029061496 0.66299999 -0.092996798 1.852294e-38 295 320
-0.027899038 0.66299999 -0.092996798 1.8615493e-38 296 320
-0.026736578 0.66299999 -0.092996798 1.8522938e-38 297 320
-0.025612691 0.66399997 -0.093137063 1.861584e-38 298 320
-0.024448479 0.66399997 -0.093137063 1.861584e-38 299 320
-0.023284266 0.66399997 -0.093137063 1.8708387e-38 300 320
-0.022120051 0.66399997 -0.093137063 1.861619e-38 301 320
-0.020955838 0.66399997 -0.093137063 1.8708387e-38 302 320
-0.019791625 0.66399997 -0.093137063 1.8708387e-38 303 320
-0.018683519 0.66600001 -0.093417592 1.8892055e-38 304 320
-0.017515799 0.66600001 -0.093417592 1.8892055e-38 305 320
-0.016372627 0.667 -0.093557864 1.8892408e-38 306 320
-0.015203152 0.667 -0.093557864 1.8800211e-38 307 320
-0.014033679 0.667 -0.093557864 1.8891685e-38 308 320
-0.012864206 0.667 -0.093557864 1.8799489e-38 309 320
-0.011642133 0.66399997 -0.093137063 1.8708016e-38 310 320
-0.010477919 0.66399997 -0.093137063 1.8800211e-38 311 320
-0.0093137063 0.66399997 -0.093137063 1.8799861e-38 312 320
-0.0081740404 0.66600001 -0.093417592 1.8707306e-38 313 320
-0.0070063197 0.66600001 -0.093417592 1.8707306e-38 314 320
-0.0058385995 0.66600001 -0.093417592 1.8707306e-38 315 320
-0.0046708798 0.66600001 -0.093417592 1.8707309e-38 316 320
-0.0035031599 0.66600001 -0.093417592 1.8707309e-38 317 320
-0.0023354399 0.66600001 -0.093417592 1.8522922e-38 318 320
-0.00116772 0.66600001 -0.093417592 1.8522922e-38 319 320
0 0.66600001 -0.093417592 1.8523997e-38 320 320
0.0011642133 0.66399997 -0.093137063 1.8431801e-38 321 320
0.0023249199 0.66299999 -0.092996798 1.8706606e-38 322 320
0.0034873798 0.66299999 -0.092996798 1.8798803e-38 323 320
0.0046568532 0.66399997 -0.093137063 1.8430026e-38 324 320
0.0058210664 0.66399997 -0.093137063 1.833783e-38 325 320
0.0070063197 0.66600001 -0.093417592 1.8338534e-38 326 320
0.0081740404 0.66600001 -0.093417592 1.8338534e-38 327 320
0.0093417596 0.66600001 -0.093417592 1.8338531e-38 328 320
0.01050948 0.66600001 -0.093417592 1.8154138e-38 329 320
0.011677199 0.66600001 -0.093417592 1.7970474e-38 330 320
-0.073476933 0.68699998 -0.097567737 1.3365782e-38 259 321
-0.07227239 0.68699998 -0.097567737 1.3732014e-38 260 321
-0.070964411 0.68599999 -0.097425714 1.3639819e-38 261 321
-0.06955824 0.68400002 -0.097141676 1.3547248e-38 262 321
-0.068259016 0.68300003 -0.09699966 1.3639803e-38 263 321
-0.067061491 0.68300003 -0.09699966 1.3547604e-38 264 321
-0.065767527 0.68199998 -0.09685763 1.3547604e-38 265 321
-0.064571753 0.68199998 -0.09685763 1.4005705e-38 266 321
-0.063097201 0.67900002 -0.096431576 1.4466683e-38 267 321
-0.061906695 0.67900002 -0.096431576 1.4283724e-38 268 321
-0.06044792 0.676 -0.096005514 1.4652148e-38 269 321
-0.059262663 0.676 -0.096005514 1.4836173e-38 270 321
-0.057991501 0.67500001 -0.095863499 1.5204954e-38 271 321
-0.056808002 0.67500001 -0.095863499 1.5297517e-38 272 321
-0.055542093 0.67400002 -0.095721483 1.5389713e-38 273 321
-0.054199036 0.67199999 -0.095437437 1.5573741e-38 274 321
-0.052941896 0.671 -0.095295422 1.5757772e-38 275 321
-0.051765412 0.671 -0.095295422 1.5941798e-38 276 321
-0.050588924 0.671 -0.095295422 1.6218385e-38 277 321
-0.049338799 0.67000002 -0.095153399 1.6402776e-38 278 321
-0.048164066 0.67000002 -0.095153399 1.6494971e-38 279 321
-0.046989333 0.67000002 -0.095153399 1.6770482e-38 280 321
-0.0458146 0.67000002 -0.095153399 1.6954875e-38 281 321
-0.044506609 0.66799998 -0.094869353 1.6863401e-38 282 321
-0.043335386 0.66799998 -0.094869353 1.7047792e-38 283 321
-0.042101037 0.667 -0.094727337 1.7140344e-38 284 321
-0.040931564 0.667 -0.094727337 1.7232539e-38 285 321
-0.039762091 0.667 -0.094727337 1.7416568e-38 286 321
-0.03853476 0.66600001 -0.094585314 1.7416568e-38 287 321
-0.037367038 0.66600001 -0.094585314 1.7692799e-38 288 321
-0.036090612 0.66399997 -0.094301268 1.7969025e-38 289 321
-0.0349264 0.66399997 -0.094301268 1.7786432e-38 290 321
-0.033762183 0.66399997 -0.094301268 1.7878628e-38 291 321
-0.03259797 0.66399997 -0.094301268 1.8153419e-38 292 321
-0.031386416 0.66299999 -0.094159253 1.8245615e-38 293 321
-0.030223956 0.66299999 -0.094159253 1.8337459e-38 294 321
-0.029061496 0.66299999 -0.094159253 1.852149e-38 295 321
-0.027899038 0.66299999 -0.094159253 1.852149e-38 296 321
-0.026736578 0.66299999 -0.094159253 1.852149e-38 297 321
-0.025574118 0.66299999 -0.094159253 1.8614395e-38 298 321
-0.024411658 0.66299999 -0.094159253 1.8614395e-38 299 321
-0.0232492 0.66299999 -0.094159253 1.8707662e-38 300 321
-0.02208674 0.66299999 -0.094159253 1.8523631e-38 301 321
-0.020924279 0.66299999 -0.094159253 1.8799505e-38 302 321
-0.019791625 0.66399997 -0.094301268 1.8891702e-38 303 321
-0.018683519 0.66600001 -0.094585314 1.8799505e-38 304 321
-0.017515799 0.66600001 -0.094585314 1.8799505e-38 305 321
-0.016348081 0.66600001 -0.094585314 1.8983179e-38 306 321
-0.01518036 0.66600001 -0.094585314 1.8983179e-38 307 321
-0.014012639 0.66600001 -0.094585314 1.8799858e-38 308 321
-0.01284492 0.66600001 -0.094585314 1.8799858e-38 309 321
-0.0116246 0.66299999 -0.094159253 1.8616546e-38 310 321
-0.01046214 0.66299999 -0.094159253 1.8616546e-38 311 321
-0.0092996797 0.66299999 -0.094159253 1.861619e-38 312 321
-0.0081494926 0.66399997 -0.094301268 1.861619e-38 313 321
-0.0069852793 0.66399997 -0.094301268 1.8707662e-38 314 321
-0.0058210664 0.66399997 -0.094301268 1.8707662e-38 315 321
-0.0046568532 0.66399997 -0.094301268 1.852435e-38 316 321
-0.0034926396 0.66399997 -0.094301268 1.852435e-38 317 321
-0.0023284266 0.66399997 -0.094301268 1.8707306e-38 318 321
-0.0011642133 0.66399997 -0.094301268 1.8523275e-38 319 321
0 0.66399997 -0.094301268 1.8523628e-38 320 321
0.00116246 0.66299999 -0.094159253 1.8431433e-38 321 321
0.0023249199 0.66299999 -0.094159253 1.8706944e-38 322 321
0.0034873798 0.66299999 -0.094159253 1.8614748e-38 323 321
0.0046498398 0.66299999 -0.094159253 1.8430727e-38 324 321
0.0058122999 0.66299999 -0.094159253 1.8430727e-38 325 321
0.0069852793 0.66399997 -0.094301268 1.8614042e-38 326 321
0.0081494926 0.66399997 -0.094301268 1.8521846e-38 327 321
0.0093137063 0.66399997 -0.094301268 1.8521843e-38 328 321
0.01046214 0.66299999 -0.094159253 1.8337812e-38 329 321
0.0116246 0.66299999 -0.094159253 1.8245615e-38 330 321
0.012787059 0.66299999 -0.094159253 1.8153419e-38 331 321
0.01392848 0.662 -0.094017237 1.8060505e-38 332 321
0.015089186 0.662 -0.094017237 1.7967951e-38 333 321
0.016249891 0.662 -0.094017237 1.7968322e-38 334 321
0.0173843 0.66100001 -0.093875214 1.8060518e-38 335 321
0.018543253 0.66100001 -0.093875214 1.8060181e-38 336 321
0.019732011 0.662 -0.094017237 1.8060181e-38 337 321
0.02086116 0.66100001 -0.093875214 1.8059831e-38 338 321
0.022020113 0.66100001 -0.093875214 1.8152027e-38 339 321
-0.07227239 0.68699998 -0.098772272 1.3914974e-38 260 322
-0.070964411 0.68599999 -0.098628499 1.3914974e-38 261 322
-0.06955824 0.68400002 -0.098340958 1.3639803e-38 262 322
-0.068358958 0.68400002 -0.098340958 1.3547248e-38 263 322
-0.067159683 0.68400002 -0.098340958 1.3271737e-38 264 322
-0.065767527 0.68199998 -0.098053411 1.3271737e-38 265 322
-0.064571753 0.68199998 -0.098053411 1.3362859e-38 266 322
-0.063190132 0.68000001 -0.09776587 1.3547252e-38 267 322
-0.061815511 0.67799997 -0.097478308 1.3730919e-38 268 322
-0.06044792 0.676 -0.097190768 1.3915311e-38 269 322
-0.059262663 0.676 -0.097190768 1.3824911e-38 270 322
-0.057991501 0.67500001 -0.097047001 1.4193693e-38 271 322
-0.056723841 0.67400002 -0.096903227 1.4470283e-38 272 322
-0.055542093 0.67400002 -0.096903227 1.474651e-38 273 322
-0.054199036 0.67199999 -0.09661568 1.5113849e-38 274 322
-0.052941896 0.671 -0.096471906 1.5206403e-38 275 322
-0.051765412 0.671 -0.096471906 1.5298596e-38 276 322
-0.050513536 0.67000002 -0.096328132 1.5575182e-38 277 322
-0.049338799 0.67000002 -0.096328132 1.5758498e-38 278 322
-0.048164066 0.67000002 -0.096328132 1.6035085e-38 279 322
-0.046849065 0.66799998 -0.096040577 1.6126209e-38 280 322
-0.045677837 0.66799998 -0.096040577 1.6402794e-38 281 322
-0.044506609 0.66799998 -0.096040577 1.6036167e-38 282 322
-0.04327051 0.667 -0.09589681 1.6312394e-38 283 322
-0.042037919 0.66600001 -0.095753036 1.6404223e-38 284 322
-0.040870197 0.66600001 -0.095753036 1.6680452e-38 285 322
-0.039702479 0.66600001 -0.095753036 1.686448e-38 286 322
-0.038419038 0.66399997 -0.095465489 1.7048511e-38 287 322
-0.037254825 0.66399997 -0.095465489 1.7140709e-38 288 322
-0.036090612 0.66399997 -0.095465489 1.7325102e-38 289 322
-0.0349264 0.66399997 -0.095465489 1.7417301e-38 290 322
-0.033711337 0.66299999 -0.095321715 1.7509496e-38 291 322
-0.032548878 0.66299999 -0.095321715 1.769353e-38 292 322
-0.031386416 0.66299999 -0.095321715 1.7785726e-38 293 322
-0.030223956 0.66299999 -0.095321715 1.7877205e-38 294 322
-0.029061496 0.66299999 -0.095321715 1.8153433e-38 295 322
-0.027856959 0.662 -0.095177941 1.8061234e-38 296 322
-0.026696252 0.662 -0.095177941 1.8153789e-38 297 322
-0.025535546 0.662 -0.095177941 1.7970826e-38 298 322
-0.024374841 0.662 -0.095177941 1.7970826e-38 299 322
-0.0232492 0.66299999 -0.095321715 1.8338528e-38 300 322
-0.02208674 0.66299999 -0.095321715 1.8338528e-38 301 322
-0.020924279 0.66299999 -0.095321715 1.8339253e-38 302 322
-0.019761819 0.66299999 -0.095321715 1.8431448e-38 303 322
-0.018627413 0.66399997 -0.095465489 1.8522928e-38 304 322
-0.0174632 0.66399997 -0.095465489 1.8522928e-38 305 322
-0.016298985 0.66399997 -0.095465489 1.8706956e-38 306 322
-0.015134773 0.66399997 -0.095465489 1.8706956e-38 307 322
-0.013970559 0.66399997 -0.095465489 1.8707309e-38 308 322
-0.012787059 0.66299999 -0.095321715 1.8707309e-38 309 322
-0.011607066 0.662 -0.095177941 1.861619e-38 310 322
-0.01044636 0.662 -0.095177941 1.861619e-38 311 322
-0.009285653 0.662 -0.095177941 1.861619e-38 312 322
-0.0081249457 0.662 -0.095177941 1.861619e-38 313 322
-0.0069747595 0.66299999 -0.095321715 1.8799136e-38 314 322
-0.0058122999 0.66299999 -0.095321715 1.8799136e-38 315 322
-0.0046498398 0.66299999 -0.095321715 1.870766e-38 316 322
-0.0034873798 0.66299999 -0.095321715 1.870766e-38 317 322
-0.0023284266 0.66399997 -0.095465489 1.8706941e-38 318 322
-0.0011642133 0.66399997 -0.095465489 1.8706941e-38 319 322
0 0.66299999 -0.095321715 1.8707297e-38 320 322
0.00116246 0.66299999 -0.095321715 1.8614742e-38 321 322
0.0023214133 0.662 -0.095177941 1.8614748e-38 322 322
0.0034821199 0.662 -0.095177941 1.8614748e-38 323 322
0.0046428265 0.662 -0.095177941 1.8614039e-38 324 322
0.0058035329 0.662 -0.095177941 1.8521843e-38 325 322
0.0069747595 0.66299999 -0.095321715 1.8521127e-38 326 322
0.0081372196 0.66299999 -0.095321715 1.8521127e-38 327 322
0.0092996797 0.66299999 -0.095321715 1.8245615e-38 328 322
0.01046214 0.66299999 -0.095321715 1.8061224e-38 329 322
0.0116246 0.66299999 -0.095321715 1.8060855e-38 330 322
0.012767773 0.662 -0.095177941 1.7691713e-38 331 322
0.01392848 0.662 -0.095177941 1.7598786e-38 332 322
0.015089186 0.662 -0.095177941 1.7414034e-38 333 322
0.016249891 0.662 -0.095177941 1.7138176e-38 334 322
0.0173843 0.66100001 -0.095034167 1.7322207e-38 335 322
0.018543253 0.66100001 -0.095034167 1.7231104e-38 336 322
0.019702207 0.66100001 -0.095034167 1.7415854e-38 337 322
0.02086116 0.66100001 -0.095034167 1.759952e-38 338 322
0.022020113 0.66100001 -0.095034167 1.7691715e-38 339 322
0.023214132 0.662 -0.095177941 1.7324009e-38 340 322
0.02433802 0.66100001 -0.095034167 1.7324009e-38 341 322
0.025496973 0.66100001 -0.095034167 1.723148e-38 342 322
0.026696252 0.662 -0.095177941 1.7508067e-38 343 322
0.027856959 0.662 -0.095177941 1.7508461e-38 344 322
-0.070964411 0.68599999 -0.099831291 1.3731677e-38 261 323
-0.06955824 0.68400002 -0.099540241 1.3640166e-38 262 323
-0.068358958 0.68400002 -0.099540241 1.3455775e-38 263 323
-0.067159683 0.68400002 -0.099540241 1.327209e-38 264 323
-0.065767527 0.68199998 -0.099249184 1.3087699e-38 265 323
-0.064571753 0.68199998 -0.099249184 1.3269939e-38 266 323
-0.063190132 0.68000001 -0.098958135 1.3362135e-38 267 323
-0.061815511 0.67799997 -0.09866707 1.3178465e-38 268 323
-0.06044792 0.676 -0.098376028 1.3362856e-38 269 323
-0.059262663 0.676 -0.098376028 1.3456127e-38 270 323
-0.057991501 0.67500001 -0.098230496 1.3732715e-38 271 323
-0.056723841 0.67400002 -0.098084971 1.4283737e-38 272 323
-0.055377278 0.67199999 -0.097793922 1.4560325e-38 273 323
-0.054118387 0.671 -0.09764839 1.45614e-38 274 323
-0.052941896 0.671 -0.09764839 1.4653595e-38 275 323
-0.051688269 0.67000002 -0.097502865 1.4929807e-38 276 323
-0.050513536 0.67000002 -0.097502865 1.5114558e-38 277 323
-0.04919152 0.66799998 -0.097211808 1.5390069e-38 278 323
-0.048020288 0.66799998 -0.097211808 1.557446e-38 279 323
-0.046849065 0.66799998 -0.097211808 1.5666305e-38 280 323
-0.045677837 0.66799998 -0.097211808 1.5758501e-38 281 323
-0.044439986 0.667 -0.097066283 1.5942884e-38 282 323
-0.043205637 0.66600001 -0.096920758 1.6035438e-38 283 323
-0.042037919 0.66600001 -0.096920758 1.6127984e-38 284 323
-0.040870197 0.66600001 -0.096920758 1.622018e-38 285 323
-0.039702479 0.66600001 -0.096920758 1.6312731e-38 286 323
-0.038419038 0.66399997 -0.096629702 1.6404927e-38 287 323
-0.037254825 0.66399997 -0.096629702 1.6772632e-38 288 323
-0.036036257 0.66299999 -0.096484177 1.6864827e-38 289 323
-0.034873798 0.66299999 -0.096484177 1.7232539e-38 290 323
-0.033711337 0.66299999 -0.096484177 1.741657e-38 291 323
-0.032548878 0.66299999 -0.096484177 1.7232908e-38 292 323
-0.031339079 0.662 -0.096338652 1.7325105e-38 293 323
-0.030178372 0.662 -0.096338652 1.7600969e-38 294 323
-0.029017664 0.662 -0.096338652 1.7600969e-38 295 323
-0.027856959 0.662 -0.096338652 1.7693164e-38 296 323
-0.026696252 0.662 -0.096338652 1.7693164e-38 297 323
-0.025535546 0.662 -0.096338652 1.7785708e-38 298 323
-0.024374841 0.662 -0.096338652 1.7693512e-38 299 323
-0.023214132 0.662 -0.096338652 1.8244886e-38 300 323
-0.022053426 0.662 -0.096338652 1.8337082e-38 301 323
-0.020892721 0.662 -0.096338652 1.7970472e-38 302 323
-0.019732011 0.662 -0.096338652 1.8062667e-38 303 323
-0.018599359 0.66299999 -0.096484177 1.8246335e-38 304 323
-0.017436899 0.66299999 -0.096484177 1.8338531e-38 305 323
-0.016274439 0.66299999 -0.096484177 1.8614395e-38 306 323
-0.015111978 0.66299999 -0.096484177 1.8614395e-38 307 323
-0.013949519 0.66299999 -0.096484177 1.8430729e-38 308 323
-0.012767773 0.662 -0.096338652 1.8430729e-38 309 323
-0.011589534 0.66100001 -0.096193127 1.8431448e-38 310 323
-0.01043058 0.66100001 -0.096193127 1.8431448e-38 311 323
-0.0092716264 0.66100001 -0.096193127 1.8431445e-38 312 323
-0.0081126727 0.66100001 -0.096193127 1.8523641e-38 313 323
-0.0069642398 0.662 -0.096338652 1.8523994e-38 314 323
-0.0058035329 0.662 -0.096338652 1.8523994e-38 315 323
-0.0046428265 0.662 -0.096338652 1.8523994e-38 316 323
-0.0034821199 0.662 -0.096338652 1.8431799e-38 317 323
-0.0023214133 0.662 -0.096338652 1.8707662e-38 318 323
-0.0011607066 0.662 -0.096338652 1.8707662e-38 319 323
0 0.662 -0.096338652 1.8707662e-38 320 323
0.0011607066 0.662 -0.096338652 1.8431077e-38 321 323
0.0023214133 0.662 -0.096338652 1.8431077e-38 322 323
0.0034821199 0.662 -0.096338652 1.8338881e-38 323 323
0.0046428265 0.662 -0.096338652 1.852148e-38 324 323
0.0058035329 0.662 -0.096338652 1.8429283e-38 325 323
0.0069642398 0.662 -0.096338652 1.8336732e-38 326 323
0.0081249457 0.662 -0.096338652 1.8244536e-38 327 323
0.009285653 0.662 -0.096338652 1.8060502e-38 328 323
0.01044636 0.662 -0.096338652 1.7876111e-38 329 323
0.011607066 0.662 -0.096338652 1.7690997e-38 330 323
0.012709912 0.65899998 -0.09590207 1.7137823e-38 331 323
0.013865359 0.65899998 -0.09590207 1.6674694e-38 332 323
0.015089186 0.662 -0.096338652 1.6398107e-38 333 323
0.016249891 0.662 -0.096338652 1.5846731e-38 334 323
0.0173843 0.66100001 -0.096193127 1.5754535e-38 335 323
0.018543253 0.66100001 -0.096193127 1.5940003e-38 336 323
0.019702207 0.66100001 -0.096193127 1.6032198e-38 337 323
0.02086116 0.66100001 -0.096193127 1.6308072e-38 338 323
0.022020113 0.66100001 -0.096193127 1.6492823e-38 339 323
0.023179067 0.66100001 -0.096193127 1.6218029e-38 340 323
0.02433802 0.66100001 -0.096193127 1.6218029e-38 341 323
0.025496973 0.66100001 -0.096193127 1.6494624e-38 342 323
0.026696252 0.662 -0.096338652 1.7047439e-38 343 323
0.027856959 0.662 -0.096338652 1.7230401e-38 344 323
0.029017664 0.662 -0.096338652 1.7230401e-38 345 323
0.031386416 0.66299999 -0.096484177 1.7416597e-38 347 323
0.032548878 0.66299999 -0.096484177 1.7140749e-38 348 323
-0.069456547 0.68300003 -0.10059224 1.3456151e-38 262 324
-0.068259016 0.68300003 -0.10059224 1.3271759e-38 263 324
-0.067061491 0.68300003 -0.10059224 1.3179188e-38 264 324
-0.065767527 0.68199998 -0.10044495 1.2994797e-38 265 324
-0.064571753 0.68199998 -0.10044495 1.3177393e-38 266 324
-0.063190132 0.68000001 -0.10015039 1.3177393e-38 267 324
-0.061815511 0.67799997 -0.099855833 1.317739e-38 268 324
-0.06044792 0.676 -0.099561274 1.3269945e-38 269 324
-0.059175 0.67500001 -0.099413998 1.3362491e-38 270 324
-0.057905588 0.67400002 -0.099266715 1.3362491e-38 271 324
-0.056723841 0.67400002 -0.099266715 1.3730194e-38 272 324
-0.055377278 0.67199999 -0.098972157 1.4006781e-38 273 324
-0.054118387 0.671 -0.098824874 1.4100772e-38 274 324
-0.052941896 0.671 -0.098824874 1.4285523e-38 275 324
-0.051688269 0.67000002 -0.098677598 1.4285874e-38 276 324
-0.050513536 0.67000002 -0.098677598 1.45621e-38 277 324
-0.04919152 0.66799998 -0.098383039 1.5204954e-38 278 324
-0.048020288 0.66799998 -0.098383039 1.5389347e-38 279 324
-0.046778932 0.667 -0.098235756 1.5388997e-38 280 324
-0.045609459 0.667 -0.098235756 1.5573388e-38 281 324
-0.04437336 0.66600001 -0.098088481 1.5757772e-38 282 324
-0.043205637 0.66600001 -0.098088481 1.5849968e-38 283 324
-0.042037919 0.66600001 -0.098088481 1.594287e-38 284 324
-0.040870197 0.66600001 -0.098088481 1.6035065e-38 285 324
-0.039583251 0.66399997 -0.097793914 1.6127618e-38 286 324
-0.038419038 0.66399997 -0.097793914 1.6403845e-38 287 324
-0.037254825 0.66399997 -0.097793914 1.6403845e-38 288 324
-0.036036257 0.66299999 -0.097646631 1.6496041e-38 289 324
-0.034873798 0.66299999 -0.097646631 1.6955229e-38 290 324
-0.033711337 0.66299999 -0.097646631 1.7047426e-38 291 324
-0.032548878 0.66299999 -0.097646631 1.6955243e-38 292 324
-0.031339079 0.662 -0.097499363 1.7139635e-38 293 324
-0.030178372 0.662 -0.097499363 1.7323303e-38 294 324
-0.028973831 0.66100001 -0.09735208 1.7323303e-38 295 324
-0.02781488 0.66100001 -0.09735208 1.7415852e-38 296 324
-0.026655925 0.66100001 -0.09735208 1.7508047e-38 297 324
-0.025496973 0.66100001 -0.09735208 1.7508398e-38 298 324
-0.02433802 0.66100001 -0.09735208 1.7416202e-38 299 324
-0.023179067 0.66100001 -0.09735208 1.7600596e-38 300 324
-0.022020113 0.66100001 -0.09735208 1.7692793e-38 301 324
-0.02086116 0.66100001 -0.09735208 1.7785357e-38 302 324
-0.019702207 0.66100001 -0.09735208 1.7785357e-38 303 324
-0.018571306 0.662 -0.097499363 1.8061224e-38 304 324
-0.017410601 0.662 -0.097499363 1.8153419e-38 305 324
-0.016249891 0.662 -0.097499363 1.8428211e-38 306 324
-0.015066394 0.66100001 -0.09735208 1.8428211e-38 307 324
-0.01390744 0.66100001 -0.09735208 1.8336734e-38 308 324
-0.012748486 0.66100001 -0.09735208 1.8521127e-38 309 324
-0.011589534 0.66100001 -0.09735208 1.8246333e-38 310 324
-0.010399019 0.65899998 -0.097057514 1.8338528e-38 311 324
-0.0092435731 0.65899998 -0.097057514 1.8431083e-38 312 324
-0.0081126727 0.66100001 -0.09735208 1.8431083e-38 313 324
-0.00695372 0.66100001 -0.09735208 1.8431799e-38 314 324
-0.0057947668 0.66100001 -0.09735208 1.8431799e-38 315 324
-0.0046358132 0.66100001 -0.09735208 1.8523278e-38 316 324
-0.00347686 0.66100001 -0.09735208 1.8431083e-38 317 324
-0.0023179066 0.66100001 -0.09735208 1.870659e-38 318 324
-0.0011589533 0.66100001 -0.09735208 1.8798786e-38 319 324
0 0.66100001 -0.09735208 1.8706588e-38 320 324
0.0011589533 0.66100001 -0.09735208 1.8614392e-38 321 324
0.0023179066 0.66100001 -0.09735208 1.8706588e-38 322 324
0.00347686 0.66100001 -0.09735208 1.8614392e-38 323 324
0.0046358132 0.66100001 -0.09735208 1.870479e-38 324 324
0.0057947668 0.66100001 -0.09735208 1.8520757e-38 325 324
0.00695372 0.66100001 -0.09735208 1.8244889e-38 326 324
0.0081126727 0.66100001 -0.09735208 1.8244889e-38 327 324
0.009285653 0.662 -0.097499363 1.8060505e-38 328 324
0.01044636 0.662 -0.097499363 1.7783559e-38 329 324
0.011607066 0.662 -0.097499363 1.741478e-38 330 324
0.012709912 0.65899998 -0.097057514 1.676941e-38 331 324
0.013865359 0.65899998 -0.097057514 1.6489955e-38 332 324
0.015066394 0.66100001 -0.09735208 1.6028977e-38 333 324
0.016225345 0.66100001 -0.09735208 1.5845304e-38 334 324
0.0173843 0.66100001 -0.09735208 1.5476523e-38 335 324
0.018543253 0.66100001 -0.09735208 1.5660186e-38 336 324
0.019702207 0.66100001 -0.09735208 1.5291762e-38 337 324
0.02086116 0.66100001 -0.09735208 1.5016248e-38 338 324
0.022020113 0.66100001 -0.09735208 1.4924053e-38 339 324
0.023179067 0.66100001 -0.09735208 1.4834724e-38 340 324
0.02433802 0.66100001 -0.09735208 1.4834724e-38 341 324
0.025496973 0.66100001 -0.09735208 1.5480462e-38 342 324
0.026655925 0.66100001 -0.09735208 1.6218029e-38 343 324
0.02781488 0.66100001 -0.09735208 1.6494624e-38 344 324
0.028973831 0.66100001 -0.09735208 1.6770851e-38 345 324
0.030223956 0.66299999 -0.097646631 1.7598448e-38 346 324
0.031386416 0.66299999 -0.097646631 1.8059067e-38 347 324
0.032548878 0.66299999 -0.097646631 1.750877e-38 348 324
0.033711337 0.66299999 -0.097646631 1.750877e-38 349 324
0.034873798 0.66299999 -0.097646631 1.6957413e-38 350 324
-0.068159081 0.68199998 -0.10164072 1.2904067e-38 263 325
-0.0669633 0.68199998 -0.10164072 1.2995166e-38 264 325
-0.065767527 0.68199998 -0.10164072 1.2718939e-38 265 325
-0.064382397 0.68000001 -0.10134266 1.2810053e-38 266 325
-0.063190132 0.68000001 -0.10134266 1.262602e-38 267 325
-0.061906695 0.67900002 -0.10119363 1.2810406e-38 268 325
-0.06044792 0.676 -0.10074653 1.2810406e-38 269 325
-0.059175 0.67500001 -0.10059749 1.3085546e-38 270 325
-0.057905588 0.67400002 -0.10044847 1.3177743e-38 271 325
-0.056723841 0.67400002 -0.10044847 1.3086993e-38 272 325
-0.055377278 0.67199999 -0.10015039 1.3086993e-38 273 325
-0.054118387 0.671 -0.10000136 1.3364303e-38 274 325
-0.052941896 0.671 -0.10000136 1.3640888e-38 275 325
-0.051688269 0.67000002 -0.099852331 1.3733431e-38 276 325
-0.050513536 0.67000002 -0.099852331 1.3825986e-38 277 325
-0.04919152 0.66799998 -0.099554263 1.4193693e-38 278 325
-0.048020288 0.66799998 -0.099554263 1.4378085e-38 279 325
-0.046778932 0.667 -0.099405229 1.4653245e-38 280 325
-0.045609459 0.667 -0.099405229 1.4837638e-38 281 325
-0.04437336 0.66600001 -0.099256195 1.4930184e-38 282 325
-0.043205637 0.66600001 -0.099256195 1.5114573e-38 283 325
-0.041911677 0.66399997 -0.098958127 1.5023804e-38 284 325
-0.040747464 0.66399997 -0.098958127 1.5023804e-38 285 325
-0.039583251 0.66399997 -0.098958127 1.5484059e-38 286 325
-0.038419038 0.66399997 -0.098958127 1.5484059e-38 287 325
-0.037254825 0.66399997 -0.098958127 1.5759574e-38 288 325
-0.036036257 0.66299999 -0.098809093 1.585177e-38 289 325
-0.034821201 0.662 -0.098660067 1.5943618e-38 290 325
-0.033660494 0.662 -0.098660067 1.6035814e-38 291 325
-0.032499783 0.662 -0.098660067 1.6220195e-38 292 325
-0.031291738 0.66100001 -0.098511033 1.6312391e-38 293 325
-0.030132787 0.66100001 -0.098511033 1.6403867e-38 294 325
-0.028973831 0.66100001 -0.098511033 1.6588259e-38 295 325
-0.02781488 0.66100001 -0.098511033 1.6587906e-38 296 325
-0.026655925 0.66100001 -0.098511033 1.6680101e-38 297 325
-0.025496973 0.66100001 -0.098511033 1.6773356e-38 298 325
-0.02433802 0.66100001 -0.098511033 1.6680802e-38 299 325
-0.023179067 0.66100001 -0.098511033 1.7140694e-38 300 325
-0.022020113 0.66100001 -0.098511033 1.723289e-38 301 325
-0.02086116 0.66100001 -0.098511033 1.7507697e-38 302 325
-0.019702207 0.66100001 -0.098511033 1.7599894e-38 303 325
-0.018571306 0.662 -0.098660067 1.7324401e-38 304 325
-0.0173843 0.66100001 -0.098511033 1.7416597e-38 305 325
-0.016176252 0.65899998 -0.098212965 1.7599912e-38 306 325
-0.015020805 0.65899998 -0.098212965 1.7692108e-38 307 325
-0.013865359 0.65899998 -0.098212965 1.7967956e-38 308 325
-0.012709912 0.65899998 -0.098212965 1.8060152e-38 309 325
-0.011554466 0.65899998 -0.098212965 1.8061218e-38 310 325
-0.010399019 0.65899998 -0.098212965 1.8153773e-38 311 325
-0.0092435731 0.65899998 -0.098212965 1.7787162e-38 312 325
-0.0080881258 0.65899998 -0.098212965 1.7787162e-38 313 325
-0.0069326796 0.65899998 -0.098212965 1.8337462e-38 314 325
-0.0057772328 0.65899998 -0.098212965 1.8337462e-38 315 325
-0.0046217865 0.65899998 -0.098212965 1.8062317e-38 316 325
-0.0034663398 0.65899998 -0.098212965 1.8154512e-38 317 325
-0.0023108933 0.65899998 -0.098212965 1.8063038e-38 318 325
-0.0011554466 0.65899998 -0.098212965 1.8155234e-38 319 325
0 0.65899998 -0.098212965 1.8521493e-38 320 325
0.0011554466 0.65899998 -0.098212965 1.8521493e-38 321 325
0.0023108933 0.65899998 -0.098212965 1.852149e-38 322 325
0.0034663398 0.65899998 -0.098212965 1.8337459e-38 323 325
0.0046217865 0.65899998 -0.098212965 1.8245619e-38 324 325
0.0057772328 0.65899998 -0.098212965 1.8245619e-38 325 325
0.0069326796 0.65899998 -0.098212965 1.7877909e-38 326 325
0.0080881258 0.65899998 -0.098212965 1.7785713e-38 327 325
0.0092435731 0.65899998 -0.098212965 1.7968304e-38 328 325
0.01036746 0.65700001 -0.097914897 1.7876108e-38 329 325
0.011519399 0.65700001 -0.097914897 1.7598798e-38 330 325
0.01267134 0.65700001 -0.097914897 1.6953429e-38 331 325
0.01384432 0.65799999 -0.098063931 1.6491372e-38 332 325
0.014998012 0.65799999 -0.098063931 1.6030752e-38 333 325
0.016176252 0.65899998 -0.098212965 1.5847084e-38 334 325
0.017331699 0.65899998 -0.098212965 1.5385747e-38 335 325
0.018487146 0.65899998 -0.098212965 1.4924056e-38 336 325
0.019642593 0.65899998 -0.098212965 1.483186e-38 337 325
0.020798039 0.65899998 -0.098212965 1.4464518e-38 338 325
0.021953486 0.65899998 -0.098212965 1.4371964e-38 339 325
0.023108931 0.65899998 -0.098212965 1.4281567e-38 340 325
0.024264378 0.65899998 -0.098212965 1.4926937e-38 341 325
0.025419824 0.65899998 -0.098212965 1.5481205e-38 342 325
0.026575271 0.65899998 -0.098212965 1.5758151e-38 343 325
0.027730718 0.65899998 -0.098212965 1.6494639e-38 344 325
0.028973831 0.66100001 -0.098511033 1.6771228e-38 345 325
0.030178372 0.662 -0.098660067 1.7691012e-38 346 325
0.031339079 0.662 -0.098660067 1.7783209e-38 347 325
0.032499783 0.662 -0.098660067 1.7692443e-38 348 325
0.033660494 0.662 -0.098660067 1.7692443e-38 349 325
0.034821201 0.662 -0.098660067 1.7416568e-38 350 325
0.035981905 0.662 -0.098660067 1.7416568e-38 351 325
0.038303319 0.662 -0.098660067 1.6955594e-38 353 325
0.039464023 0.662 -0.098660067 1.6496083e-38 354 325
-0.0669633 0.68199998 -0.1028365 1.2811518e-38 264 326
-0.065767527 0.68199998 -0.1028365 1.2442737e-38 265 326
-0.064382397 0.68000001 -0.10253493 1.253384e-38 266 326
-0.063190132 0.68000001 -0.10253493 1.2441644e-38 267 326
-0.061815511 0.67799997 -0.10223336 1.2809335e-38 268 326
-0.06044792 0.676 -0.10193179 1.2901532e-38 269 326
-0.059175 0.67500001 -0.101781 1.2992995e-38 270 326
-0.057905588 0.67400002 -0.10163021 1.2992995e-38 271 326
-0.056723841 0.67400002 -0.10163021 1.2810033e-38 272 326
-0.055377278 0.67199999 -0.10132863 1.2902587e-38 273 326
-0.054118387 0.671 -0.10117785 1.3270289e-38 274 326
-0.052941896 0.671 -0.10117785 1.3362844e-38 275 326
-0.051688269 0.67000002 -0.10102707 1.3638705e-38 276 326
-0.050513536 0.67000002 -0.10102707 1.3823096e-38 277 326
-0.04919152 0.66799998 -0.10072549 1.3640504e-38 278 326
-0.047948405 0.667 -0.1005747 1.4008926e-38 279 326
-0.046778932 0.667 -0.1005747 1.4468112e-38 280 326
-0.045541082 0.66600001 -0.10042392 1.4744699e-38 281 326
-0.04437336 0.66600001 -0.10042392 1.4837245e-38 282 326
-0.043205637 0.66600001 -0.10042392 1.4929441e-38 283 326
-0.041911677 0.66399997 -0.10012234 1.5114185e-38 284 326
-0.040747464 0.66399997 -0.10012234 1.5114185e-38 285 326
-0.039583251 0.66399997 -0.10012234 1.5297853e-38 286 326
-0.038419038 0.66399997 -0.10012234 1.5390049e-38 287 326
-0.037198719 0.66299999 -0.099971555 1.5482602e-38 288 326
-0.035981905 0.662 -0.09982077 1.5574798e-38 289 326
-0.034821201 0.662 -0.09982077 1.6033265e-38 290 326
-0.033609647 0.66100001 -0.099669985 1.6033265e-38 291 326
-0.032450691 0.66100001 -0.099669985 1.6125466e-38 292 326
-0.031291738 0.66100001 -0.099669985 1.6309857e-38 293 326
-0.030132787 0.66100001 -0.099669985 1.6493169e-38 294 326
-0.028973831 0.66100001 -0.099669985 1.6585725e-38 295 326
-0.02781488 0.66100001 -0.099669985 1.6585722e-38 296 326
-0.026575271 0.65899998 -0.099368408 1.6677918e-38 297 326
-0.025419824 0.65899998 -0.099368408 1.6678268e-38 298 326
-0.02433802 0.66100001 -0.099669985 1.6493876e-38 299 326
-0.023179067 0.66100001 -0.099669985 1.6310928e-38 300 326
-0.022020113 0.66100001 -0.099669985 1.6587873e-38 301 326
-0.02086116 0.66100001 -0.099669985 1.732221e-38 302 326
-0.019702207 0.66100001 -0.099669985 1.732221e-38 303 326
-0.018543253 0.66100001 -0.099669985 1.7505896e-38 304 326
-0.0173843 0.66100001 -0.099669985 1.7505896e-38 305 326
-0.016176252 0.65899998 -0.099368408 1.7597376e-38 306 326
-0.014998012 0.65799999 -0.099217616 1.7873603e-38 307 326
-0.01384432 0.65799999 -0.099217616 1.7048498e-38 308 326
-0.012690626 0.65799999 -0.099217616 1.7140694e-38 309 326
-0.011536933 0.65799999 -0.099217616 1.7508753e-38 310 326
-0.01038324 0.65799999 -0.099217616 1.7693146e-38 311 326
-0.0092295464 0.65799999 -0.099217616 1.7967951e-38 312 326
-0.0080758529 0.65799999 -0.099217616 1.7967951e-38 313 326
-0.0069221598 0.65799999 -0.099217616 1.8243461e-38 314 326
-0.0057684663 0.65799999 -0.099217616 1.8336016e-38 315 326
-0.0046147732 0.65799999 -0.099217616 1.8244536e-38 316 326
-0.0034610799 0.65799999 -0.099217616 1.8244536e-38 317 326
-0.0023073866 0.65799999 -0.099217616 1.7785357e-38 318 326
-0.00115194 0.65700001 -0.099066831 1.7693162e-38 319 326
0 0.65700001 -0.099066831 1.805942e-38 320 326
0.0011536933 0.65799999 -0.099217616 1.8151616e-38 321 326
0.0023073866 0.65799999 -0.099217616 1.7968304e-38 322 326
0.0034558198 0.65700001 -0.099066831 1.7876108e-38 323 326
0.0046077599 0.65700001 -0.099066831 1.7968304e-38 324 326
0.0057596997 0.65700001 -0.099066831 1.7968304e-38 325 326
0.0069221598 0.65799999 -0.099217616 1.8060505e-38 326 326
0.0080758529 0.65799999 -0.099217616 1.8060505e-38 327 326
0.0092295464 0.65799999 -0.099217616 1.8060505e-38 328 326
0.01036746 0.65700001 -0.099066831 1.7967951e-38 329 326
0.011484332 0.65499997 -0.098765261 1.7600596e-38 330 326
0.012632766 0.65499997 -0.098765261 1.7416205e-38 331 326
0.013823279 0.65700001 -0.099066831 1.7690643e-38 332 326
0.01497522 0.65700001 -0.099066831 1.7690643e-38 333 326
0.016151706 0.65799999 -0.099217616 1.7322587e-38 334 326
0.017331699 0.65899998 -0.099368408 1.704564e-38 335 326
0.018487146 0.65899998 -0.099368408 1.667758e-38 336 326
0.019642593 0.65899998 -0.099368408 1.667758e-38 337 326
0.020798039 0.65899998 -0.099368408 1.6218776e-38 338 326
0.021953486 0.65899998 -0.099368408 1.6587199e-38 339 326
0.023108931 0.65899998 -0.099368408 1.6680477e-38 340 326
0.024264378 0.65899998 -0.099368408 1.6957062e-38 341 326
0.025419824 0.65899998 -0.099368408 1.7232569e-38 342 326
0.026575271 0.65899998 -0.099368408 1.7232569e-38 343 326
0.027730718 0.65899998 -0.099368408 1.7507711e-38 344 326
0.028886165 0.65899998 -0.099368408 1.7415514e-38 345 326
0.030132787 0.66100001 -0.099669985 1.750877e-38 346 326
0.031291738 0.66100001 -0.099669985 1.7600966e-38 347 326
0.032450691 0.66100001 -0.099669985 1.787718e-38 348 326
0.033609647 0.66100001 -0.099669985 1.787718e-38 349 326
0.0347686 0.66100001 -0.099669985 1.7509116e-38 350 326
0.035927553 0.66100001 -0.099669985 1.7509116e-38 351 326
0.037086505 0.66100001 -0.099669985 1.7232892e-38 352 326
0.038245458 0.66100001 -0.099669985 1.7232892e-38 353 326
0.039404415 0.66100001 -0.099669985 1.7048514e-38 354 326
0.040563367 0.66100001 -0.099669985 1.6864483e-38 355 326
0.041785441 0.662 -0.09982077 1.6495732e-38 356 326
0.042881273 0.66100001 -0.099669985 1.6587928e-38 357 326
0.044040225 0.66100001 -0.099669985 1.6771991e-38 358 326
0.04526756 0.662 -0.09982077 1.7417361e-38 359 326
0.046428263 0.662 -0.09982077 1.7052564e-38 360 326
-0.065767527 0.68199998 -0.10403228 1.2442021e-38 265 327
-0.064571753 0.68199998 -0.10403228 1.2164708e-38 266 327
-0.063097201 0.67900002 -0.10357466 1.2164708e-38 267 327
-0.061815511 0.67799997 -0.10342211 1.2165778e-38 268 327
-0.06044792 0.676 -0.10311703 1.2257973e-38 269 327
-0.059175 0.67500001 -0.1029645 1.2809332e-38 270 327
-0.057905588 0.67400002 -0.10281195 1.2809332e-38 271 327
-0.056723841 0.67400002 -0.10281195 1.2809683e-38 272 327
-0.055377278 0.67199999 -0.10250688 1.290188e-38 273 327
-0.054118387 0.671 -0.10235433 1.2810406e-38 274 327
-0.052941896 0.671 -0.10235433 1.2810406e-38 275 327
-0.051688269 0.67000002 -0.1022018 1.2718936e-38 276 327
-0.050513536 0.67000002 -0.1022018 1.2811132e-38 277 327
-0.04919152 0.66799998 -0.10189671 1.3087008e-38 278 327
-0.047948405 0.667 -0.10174417 1.3271759e-38 279 327
-0.046778932 0.667 -0.10174417 1.3640166e-38 280 327
-0.045541082 0.66600001 -0.10159164 1.3732362e-38 281 327
-0.04437336 0.66600001 -0.10159164 1.3918178e-38 282 327
-0.043205637 0.66600001 -0.10159164 1.4010375e-38 283 327
-0.041911677 0.66399997 -0.10128655 1.4286242e-38 284 327
-0.040747464 0.66399997 -0.10128655 1.4286242e-38 285 327
-0.039583251 0.66399997 -0.10128655 1.4562103e-38 286 327
-0.038419038 0.66399997 -0.10128655 1.4562103e-38 287 327
-0.037198719 0.66299999 -0.10113402 1.4929807e-38 288 327
-0.035981905 0.662 -0.10098148 1.4929807e-38 289 327
-0.034821201 0.662 -0.10098148 1.5021652e-38 290 327
-0.033609647 0.66100001 -0.10082894 1.5113849e-38 291 327
-0.032450691 0.66100001 -0.10082894 1.5112781e-38 292 327
-0.031291738 0.66100001 -0.10082894 1.5389009e-38 293 327
-0.030132787 0.66100001 -0.10082894 1.5389009e-38 294 327
-0.028973831 0.66100001 -0.10082894 1.5573759e-38 295 327
-0.027730718 0.65899998 -0.10052385 1.5574107e-38 296 327
-0.026575271 0.65899998 -0.10052385 1.5666302e-38 297 327
-0.025419824 0.65899998 -0.10052385 1.5758854e-38 298 327
-0.024264378 0.65899998 -0.10052385 1.5666658e-38 299 327
-0.023108931 0.65899998 -0.10052385 1.5759221e-38 300 327
-0.021953486 0.65899998 -0.10052385 1.5851417e-38 301 327
-0.020798039 0.65899998 -0.10052385 1.612693e-38 302 327
-0.019702207 0.66100001 -0.10082894 1.6219126e-38 303 327
-0.018487146 0.65899998 -0.10052385 1.6493921e-38 304 327
-0.017331699 0.65899998 -0.10052385 1.6586116e-38 305 327
-0.016151706 0.65799999 -0.10037132 1.6310974e-38 306 327
-0.01497522 0.65700001 -0.10021878 1.6403171e-38 307 327
-0.013823279 0.65700001 -0.10021878 1.6403523e-38 308 327
-0.012690626 0.65799999 -0.10037132 1.6587555e-38 309 327
-0.011536933 0.65799999 -0.10037132 1.6771944e-38 310 327
-0.01038324 0.65799999 -0.10037132 1.6771944e-38 311 327
-0.0092295464 0.65799999 -0.10037132 1.6956694e-38 312 327
-0.0080758529 0.65799999 -0.10037132 1.6956694e-38 313 327
-0.0069221598 0.65799999 -0.10037132 1.7507694e-38 314 327
-0.0057684663 0.65799999 -0.10037132 1.7415498e-38 315 327
-0.0046147732 0.65799999 -0.10037132 1.7232537e-38 316 327
-0.0034610799 0.65799999 -0.10037132 1.7416568e-38 317 327
-0.0023038799 0.65700001 -0.10021878 1.7416924e-38 318 327
-0.00115194 0.65700001 -0.10021878 1.7232892e-38 319 327
0 0.65700001 -0.10021878 1.7416921e-38 320 327
0.00115194 0.65700001 -0.10021878 1.7140694e-38 321 327
0.0023038799 0.65700001 -0.10021878 1.7415136e-38 322 327
0.0034558198 0.65700001 -0.10021878 1.7415136e-38 323 327
0.0046077599 0.65700001 -0.10021878 1.7691365e-38 324 327
0.0057596997 0.65700001 -0.10021878 1.7783562e-38 325 327
0.0069116396 0.65700001 -0.10021878 1.7324749e-38 326 327
0.0080635799 0.65700001 -0.10021878 1.7324749e-38 327 327
0.0092155198 0.65700001 -0.10021878 1.7508064e-38 328 327
0.01036746 0.65700001 -0.10021878 1.7508064e-38 329 327
0.011484332 0.65499997 -0.099913694 1.7784264e-38 330 327
0.012632766 0.65499997 -0.099913694 1.7692069e-38 331 327
0.013781199 0.65499997 -0.099913694 1.7784599e-38 332 327
0.014929632 0.65499997 -0.099913694 1.7507653e-38 333 327
0.01612716 0.65700001 -0.10021878 1.7692416e-38 334 327
0.0172791 0.65700001 -0.10021878 1.7784612e-38 335 327
0.01843104 0.65700001 -0.10021878 1.750805e-38 336 327
0.019582979 0.65700001 -0.10021878 1.750805e-38 337 327
0.02076648 0.65799999 -0.10037132 1.7140356e-38 338 327
0.021920172 0.65799999 -0.10037132 1.7232552e-38 339 327
0.023073865 0.65799999 -0.10037132 1.7234327e-38 340 327
0.02422756 0.65799999 -0.10037132 1.7050296e-38 341 327
0.025381252 0.65799999 -0.10037132 1.7324357e-38 342 327
0.026534945 0.65799999 -0.10037132 1.7509107e-38 343 327
0.027688639 0.65799999 -0.10037132 1.7600596e-38 344 327
0.028842334 0.65799999 -0.10037132 1.7600596e-38 345 327
0.029996024 0.65799999 -0.10037132 1.7418001e-38 346 327
0.031197058 0.65899998 -0.10052385 1.7418001e-38 347 327
0.032352503 0.65899998 -0.10052385 1.7418001e-38 348 327
0.033507951 0.65899998 -0.10052385 1.7418001e-38 349 327
0.034663398 0.65899998 -0.10052385 1.7509116e-38 350 327
0.035764489 0.65799999 -0.10037132 1.7416921e-38 351 327
0.036918186 0.65799999 -0.10037132 1.7232892e-38 352 327
0.038245458 0.66100001 -0.10082894 1.7140338e-38 353 327
0.039404415 0.66100001 -0.10082894 1.7139635e-38 354 327
0.040563367 0.66100001 -0.10082894 1.6955243e-38 355 327
0.04172232 0.66100001 -0.10082894 1.667938e-38 356 327
0.042881273 0.66100001 -0.10082894 1.6494987e-38 357 327
0.044040225 0.66100001 -0.10082894 1.6218757e-38 358 327
0.045199182 0.66100001 -0.10082894 1.6218757e-38 359 327
0.046358135 0.66100001 -0.10082894 1.622059e-38 360 327
0.047517084 0.66100001 -0.10082894 1.6773764e-38 361 327
-0.064571753 0.68199998 -0.10522805 1.1981762e-38 266 328
-0.063097201 0.67900002 -0.10476518 1.1705175e-38 267 328
-0.061815511 0.67799997 -0.10461088 1.2349093e-38 268 328
-0.06044792 0.676 -0.10430229 1.2441288e-38 269 328
-0.059175 0.67500001 -0.104148 1.2809335e-38 270 328
-0.057991501 0.67500001 -0.104148 1.2809335e-38 271 328
-0.056723841 0.67400002 -0.10399371 1.2992995e-38 272 328
-0.055377278 0.67199999 -0.10368511 1.2992995e-38 273 328
-0.054118387 0.671 -0.10353082 1.2626721e-38 274 328
-0.052941896 0.671 -0.10353082 1.2626721e-38 275 328
-0.051688269 0.67000002 -0.10337654 1.2810033e-38 276 328
-0.050513536 0.67000002 -0.10337654 1.2902587e-38 277 328
-0.04919152 0.66799998 -0.10306793 1.3085546e-38 278 328
-0.047948405 0.667 -0.10291365 1.3177743e-38 279 328
-0.046778932 0.667 -0.10291365 1.2995153e-38 280 328
-0.045541082 0.66600001 -0.10275936 1.3455771e-38 281 328
-0.04437336 0.66600001 -0.10275936 1.3548321e-38 282 328
-0.043205637 0.66600001 -0.10275936 1.3640517e-38 283 328
-0.041911677 0.66399997 -0.10245077 1.4191876e-38 284 328
-0.040747464 0.66399997 -0.10245077 1.4284071e-38 285 328
-0.039583251 0.66399997 -0.10245077 1.4469172e-38 286 328
-0.038419038 0.66399997 -0.10245077 1.4469172e-38 287 328
-0.037198719 0.66299999 -0.10229647 1.47454e-38 288 328
-0.035981905 0.662 -0.10214218 1.47454e-38 289 328
-0.034821201 0.662 -0.10214218 1.4836879e-38 290 328
-0.033609647 0.66100001 -0.10198789 1.4929075e-38 291 328
-0.032450691 0.66100001 -0.10198789 1.5112034e-38 292 328
-0.031291738 0.66100001 -0.10198789 1.520423e-38 293 328
-0.030041611 0.65899998 -0.1016793 1.5295702e-38 294 328
-0.028886165 0.65899998 -0.1016793 1.5480094e-38 295 328
-0.027730718 0.65899998 -0.1016793 1.5572642e-38 296 328
-0.026575271 0.65899998 -0.1016793 1.5572642e-38 297 328
-0.025419824 0.65899998 -0.1016793 1.5573364e-38 298 328
-0.024264378 0.65899998 -0.1016793 1.5665561e-38 299 328
-0.023108931 0.65899998 -0.1016793 1.5574091e-38 300 328
-0.021920172 0.65799999 -0.10152501 1.5574091e-38 301 328
-0.02076648 0.65799999 -0.10152501 1.6308781e-38 302 328
-0.019642593 0.65899998 -0.1016793 1.6400977e-38 303 328
-0.018459093 0.65799999 -0.10152501 1.6492456e-38 304 328
-0.017305398 0.65799999 -0.10152501 1.6676489e-38 305 328
-0.01612716 0.65700001 -0.10137072 1.5942517e-38 306 328
-0.01497522 0.65700001 -0.10137072 1.6034714e-38 307 328
-0.013823279 0.65700001 -0.10137072 1.6585722e-38 308 328
-0.01267134 0.65700001 -0.10137072 1.6585722e-38 309 328
-0.011519399 0.65700001 -0.10137072 1.6586085e-38 310 328
-0.01036746 0.65700001 -0.10137072 1.667864e-38 311 328
-0.0092155198 0.65700001 -0.10137072 1.6862678e-38 312 328
-0.0080635799 0.65700001 -0.10137072 1.6862678e-38 313 328
-0.0069116396 0.65700001 -0.10137072 1.7138546e-38 314 328
-0.0057596997 0.65700001 -0.10137072 1.7138546e-38 315 328
-0.0046077599 0.65700001 -0.10137072 1.7138542e-38 316 328
-0.0034558198 0.65700001 -0.10137072 1.7230739e-38 317 328
-0.0023038799 0.65700001 -0.10137072 1.7047429e-38 318 328
-0.00115194 0.65700001 -0.10137072 1.7047429e-38 319 328
0 0.65700001 -0.10137072 1.7321505e-38 320 328
0.00115194 0.65700001 -0.10137072 1.7413701e-38 321 328
0.0023038799 0.65700001 -0.10137072 1.7137117e-38 322 328
0.0034452998 0.65499997 -0.10106213 1.7321508e-38 323 328
0.0045937328 0.65499997 -0.10106213 1.6953076e-38 324 328
0.0057421662 0.65499997 -0.10106213 1.6953076e-38 325 328
0.0068905996 0.65499997 -0.10106213 1.7047429e-38 326 328
0.008039033 0.65499997 -0.10106213 1.7047429e-38 327 328
0.0091874655 0.65499997 -0.10106213 1.7322584e-38 328 328
0.010335899 0.65499997 -0.10106213 1.741478e-38 329 328
0.011466799 0.65399998 -0.10090783 1.7415136e-38 330 328
0.012613479 0.65399998 -0.10090783 1.7599167e-38 331 328
0.013781199 0.65499997 -0.10106213 1.7415136e-38 332 328
0.014929632 0.65499997 -0.10106213 1.7599167e-38 333 328
0.016078066 0.65499997 -0.10106213 1.7232537e-38 334 328
0.0172791 0.65700001 -0.10137072 1.7232537e-38 335 328
0.01843104 0.65700001 -0.10137072 1.7141057e-38 336 328
0.019582979 0.65700001 -0.10137072 1.7048861e-38 337 328
0.020734919 0.65700001 -0.10137072 1.6957392e-38 338 328
0.021886859 0.65700001 -0.10137072 1.6865196e-38 339 328
0.023038799 0.65700001 -0.10137072 1.7140344e-38 340 328
0.024190739 0.65700001 -0.10137072 1.7232539e-38 341 328
0.025342681 0.65700001 -0.10137072 1.7233258e-38 342 328
0.026494619 0.65700001 -0.10137072 1.7233258e-38 343 328
0.027646558 0.65700001 -0.10137072 1.741657e-38 344 328
0.028798498 0.65700001 -0.10137072 1.7600963e-38 345 328
0.029996024 0.65799999 -0.10152501 1.7418007e-38 346 328
0.031149717 0.65799999 -0.10152501 1.7325451e-38 347 328
0.03225432 0.65700001 -0.10137072 1.7325454e-38 348 328
0.033406258 0.65700001 -0.10137072 1.7233258e-38 349 328
0.034558199 0.65700001 -0.10137072 1.741657e-38 350 328
0.035710141 0.65700001 -0.10137072 1.7232539e-38 351 328
0.036862079 0.65700001 -0.10137072 1.7048508e-38 352 328
0.038014017 0.65700001 -0.10137072 1.6864477e-38 353 328
0.039285187 0.65899998 -0.1016793 1.6771931e-38 354 328
0.04044063 0.65899998 -0.1016793 1.6679735e-38 355 328
0.041596077 0.65899998 -0.1016793 1.6587185e-38 356 328
0.042751525 0.65899998 -0.1016793 1.649499e-38 357 328
0.044040225 0.66100001 -0.10198789 1.6586111e-38 358 328
0.045199182 0.66100001 -0.10198789 1.67705e-38 359 328
0.046358135 0.66100001 -0.10198789 1.5943628e-38 360 328
