# .PCD v.7 - Point Cloud Data file format
FIELDS x y z rgb imX imY
SIZE 4 4 4 4 4 4
TYPE F F F F F F
COUNT 1 1 1 1 1 1
WIDTH 838
HEIGHT 1
VIEWPOINT 0 0 0 1 0 0 0
POINTS 838
DATA ascii
-0.039711244 0.78100002 -0.013693534 1.9814736e-38 291 250
-0.038440078 0.78299999 -0.013728599 1.9538519e-38 292 250
-0.037067216 0.78299999 -0.013728599 1.9538519e-38 293 250
-0.035694357 0.78299999 -0.013728599 1.9538166e-38 294 250
-0.034409165 0.78500003 -0.013763667 1.944597e-38 295 250
-0.033032801 0.78500003 -0.013763667 1.9170465e-38 296 250
-0.031656433 0.78500003 -0.013763667 1.8985715e-38 297 250
-0.030280067 0.78500003 -0.013763667 1.8892796e-38 298 250
-0.0289037 0.78500003 -0.013763667 1.8892796e-38 299 250
-0.027597465 0.787 -0.013798732 1.8982828e-38 300 250
-0.026217593 0.787 -0.013798732 1.8798436e-38 301 250
-0.024837719 0.787 -0.013798732 1.7880077e-38 302 250
-0.023457846 0.787 -0.013798732 1.7695327e-38 303 250
-0.022134079 0.78899997 -0.013833799 1.7326921e-38 304 250
-0.0207507 0.78899997 -0.013833799 1.7234367e-38 305 250
-0.019367319 0.78899997 -0.013833799 1.7233297e-38 306 250
-0.018006733 0.79000002 -0.013851333 1.7048906e-38 307 250
-0.016621601 0.79000002 -0.013851333 1.6680477e-38 308 250
-0.01527504 0.792 -0.0138864 1.6496086e-38 309 250
-0.0138864 0.792 -0.0138864 1.6037631e-38 310 250
-0.012497759 0.792 -0.0138864 1.5945077e-38 311 250
-0.011137174 0.79400003 -0.013921468 1.6035473e-38 312 250
-0.0097450269 0.79400003 -0.013921468 1.6035473e-38 313 250
-0.0083528794 0.79400003 -0.013921468 1.5484082e-38 314 250
-0.0069782664 0.796 -0.013956533 1.5207495e-38 315 250
-0.0055966396 0.79799998 -0.013991599 1.5116006e-38 316 250
-0.0041974802 0.79799998 -0.013991599 1.4931256e-38 317 250
-0.0027983198 0.79799998 -0.013991599 1.4563915e-38 318 250
-0.0013991599 0.79799998 -0.013991599 1.4656111e-38 319 250
0 0.79799998 -0.013991599 1.4472798e-38 320 250
0.0013991599 0.79799998 -0.013991599 1.419621e-38 321 250
0.0027983198 0.79799998 -0.013991599 1.4010391e-38 322 250
0.0041974802 0.79799998 -0.013991599 1.3734164e-38 323 250
0.0055966396 0.79799998 -0.013991599 1.4007522e-38 324 250
0.0069957995 0.79799998 -0.013991599 1.36391e-38 325 250
0.0083949603 0.79799998 -0.013991599 1.3454349e-38 326 250
0.0097941197 0.79799998 -0.013991599 1.3362153e-38 327 250
0.011193279 0.79799998 -0.013991599 1.3177409e-38 328 250
0.012624 0.80000001 -0.014026666 1.2901182e-38 329 250
0.014026666 0.80000001 -0.014026666 1.2532771e-38 330 250
-0.061384194 0.778 -0.015005025 1.9442087e-38 275 251
-0.0600201 0.778 -0.015005025 1.8982889e-38 276 251
-0.058505226 0.77600002 -0.014966453 1.8798496e-38 277 251
-0.057291918 0.778 -0.015005025 1.8799534e-38 278 251
-0.055927824 0.778 -0.015005025 1.9075761e-38 279 251
-0.054563731 0.778 -0.015005025 1.9906213e-38 280 251
-0.053199638 0.778 -0.015005025 1.9814017e-38 281 251
-0.051968798 0.77999997 -0.0150436 2.0090597e-38 282 251
-0.050601196 0.77999997 -0.0150436 2.0090597e-38 283 251
-0.049296722 0.78100002 -0.015062887 2.0091677e-38 284 251
-0.047927368 0.78100002 -0.015062887 1.9999482e-38 285 251
-0.046558015 0.78100002 -0.015062887 2.0090241e-38 286 251
-0.045188658 0.78100002 -0.015062887 2.0090241e-38 287 251
-0.043819305 0.78100002 -0.015062887 1.9906566e-38 288 251
-0.042449951 0.78100002 -0.015062887 1.981437e-38 289 251
-0.041080598 0.78100002 -0.015062887 1.9447027e-38 290 251
-0.039711244 0.78100002 -0.015062887 1.9447027e-38 291 251
-0.038341891 0.78100002 -0.015062887 1.9354478e-38 292 251
-0.036972538 0.78100002 -0.015062887 1.9262282e-38 293 251
-0.035603184 0.78100002 -0.015062887 1.9169366e-38 294 251
-0.034321502 0.78299999 -0.01510146 1.9077171e-38 295 251
-0.032948639 0.78299999 -0.01510146 1.8984619e-38 296 251
-0.031575777 0.78299999 -0.01510146 1.8800588e-38 297 251
-0.030280067 0.78500003 -0.015140033 1.8340332e-38 298 251
-0.0289037 0.78500003 -0.015140033 1.8063386e-38 299 251
-0.027527334 0.78500003 -0.015140033 1.7694959e-38 300 251
-0.026217593 0.787 -0.015178605 1.7418373e-38 301 251
-0.024837719 0.787 -0.015178605 1.7418017e-38 302 251
-0.023457846 0.787 -0.015178605 1.7325821e-38 303 251
-0.022077972 0.787 -0.015178605 1.7048889e-38 304 251
-0.0206981 0.787 -0.015178605 1.7048889e-38 305 251
-0.019318225 0.787 -0.015178605 1.6680477e-38 306 251
-0.018006733 0.79000002 -0.015236467 1.6496086e-38 307 251
-0.016621601 0.79000002 -0.015236467 1.6128378e-38 308 251
-0.01527504 0.792 -0.01527504 1.6036182e-38 309 251
-0.0138864 0.792 -0.01527504 1.5484452e-38 310 251
-0.012497759 0.792 -0.01527504 1.5115668e-38 311 251
-0.011109119 0.792 -0.01527504 1.5206063e-38 312 251
-0.0097450269 0.79400003 -0.015313613 1.483764e-38 313 251
-0.0083528794 0.79400003 -0.015313613 1.3918901e-38 314 251
-0.0069782664 0.796 -0.015352187 1.3273532e-38 315 251
-0.0055826134 0.796 -0.015352187 1.3363913e-38 316 251
-0.0041974802 0.79799998 -0.015390759 1.2995132e-38 317 251
-0.0027983198 0.79799998 -0.015390759 1.2902209e-38 318 251
-0.0013991599 0.79799998 -0.015390759 1.2625623e-38 319 251
0 0.79799998 -0.015390759 1.2167169e-38 320 251
0.0013991599 0.79799998 -0.015390759 1.1890581e-38 321 251
0.0027983198 0.79799998 -0.015390759 1.1704058e-38 322 251
0.0041974802 0.79799998 -0.015390759 1.1611863e-38 323 251
0.0055966396 0.79799998 -0.015390759 1.1243098e-38 324 251
0.0069957995 0.79799998 -0.015390759 1.1243098e-38 325 251
0.0083949603 0.79799998 -0.015390759 1.1243098e-38 326 251
0.0097941197 0.79799998 -0.015390759 1.1150903e-38 327 251
0.011221333 0.80000001 -0.015429333 1.1240947e-38 328 251
0.012624 0.80000001 -0.015429333 1.0872525e-38 329 251
0.014026666 0.80000001 -0.015429333 1.0964017e-38 330 251
-0.062748291 0.778 -0.016369121 1.9075084e-38 274 252
-0.061384194 0.778 -0.016369121 1.8705942e-38 275 252
-0.0600201 0.778 -0.016369121 1.8338925e-38 276 252
-0.058505226 0.77600002 -0.01632704 1.8707349e-38 277 252
-0.056997359 0.77399999 -0.016284959 1.9168663e-38 278 252
-0.055640277 0.77399999 -0.016284959 1.9445251e-38 279 252
-0.054423466 0.77600002 -0.01632704 2.0182071e-38 280 252
-0.053062879 0.77600002 -0.01632704 1.999768e-38 281 252
-0.051835544 0.778 -0.016369121 2.0182424e-38 282 252
-0.050471451 0.778 -0.016369121 2.0274621e-38 283 252
-0.049233593 0.77999997 -0.016411198 1.9999479e-38 284 252
-0.047865998 0.77999997 -0.016411198 1.9907282e-38 285 252
-0.046498396 0.77999997 -0.016411198 2.0090597e-38 286 252
-0.045130797 0.77999997 -0.016411198 1.981437e-38 287 252
-0.043763198 0.77999997 -0.016411198 1.9539222e-38 288 252
-0.042395595 0.77999997 -0.016411198 1.9447027e-38 289 252
-0.041027997 0.77999997 -0.016411198 1.9171163e-38 290 252
-0.039660398 0.77999997 -0.016411198 1.9078967e-38 291 252
-0.038292799 0.77999997 -0.016411198 1.9260843e-38 292 252
-0.036925197 0.77999997 -0.016411198 1.9168648e-38 293 252
-0.035603184 0.78100002 -0.016432239 1.8800585e-38 294 252
-0.034233831 0.78100002 -0.016432239 1.8616193e-38 295 252
-0.032948639 0.78299999 -0.01647432 1.8340329e-38 296 252
-0.031575777 0.78299999 -0.01647432 1.8155938e-38 297 252
-0.03020292 0.78299999 -0.01647432 1.7971193e-38 298 252
-0.028830061 0.78299999 -0.01647432 1.7510215e-38 299 252
-0.027527334 0.78500003 -0.016516401 1.7233628e-38 300 252
-0.026150968 0.78500003 -0.016516401 1.6957041e-38 301 252
-0.0247746 0.78500003 -0.016516401 1.6956688e-38 302 252
-0.023457846 0.787 -0.01655848 1.6864492e-38 303 252
-0.022077972 0.787 -0.01655848 1.6496789e-38 304 252
-0.0206981 0.787 -0.01655848 1.6404593e-38 305 252
-0.019318225 0.787 -0.01655848 1.6311675e-38 306 252
-0.017983939 0.78899997 -0.016600559 1.6127283e-38 307 252
-0.016621601 0.79000002 -0.016621601 1.5484432e-38 308 252
-0.015236467 0.79000002 -0.016621601 1.5023454e-38 309 252
-0.0138864 0.792 -0.01666368 1.4840139e-38 310 252
-0.012497759 0.792 -0.01666368 1.4563551e-38 311 252
-0.011109119 0.792 -0.01666368 1.4102574e-38 312 252
-0.0097450269 0.79400003 -0.016705759 1.3733431e-38 313 252
-0.0083528794 0.79400003 -0.016705759 1.2996948e-38 314 252
-0.0069782664 0.796 -0.01674784 1.2351579e-38 315 252
-0.0055826134 0.796 -0.01674784 1.207427e-38 316 252
-0.0041974802 0.79799998 -0.016789921 1.1797323e-38 317 252
-0.0027983198 0.79799998 -0.016789921 1.179696e-38 318 252
-0.0013991599 0.79799998 -0.016789921 1.1151591e-38 319 252
0 0.79799998 -0.016789921 1.0875374e-38 320 252
0.0013991599 0.79799998 -0.016789921 1.0414394e-38 321 252
0.0027983198 0.79799998 -0.016789921 1.0230025e-38 322 252
0.0041974802 0.79799998 -0.016789921 1.0045275e-38 323 252
0.0055966396 0.79799998 -0.016789921 9.7683423e-39 324 252
0.0069957995 0.79799998 -0.016789921 1.0044928e-38 325 252
0.0083949603 0.79799998 -0.016789921 1.0044572e-38 326 252
0.0097941197 0.79799998 -0.016789921 1.0229322e-38 327 252
0.011221333 0.80000001 -0.016832 1.0961867e-38 328 252
0.012624 0.80000001 -0.016832 1.0777117e-38 329 252
0.014026666 0.80000001 -0.016832 1.0593821e-38 330 252
-0.063947573 0.77600002 -0.017687626 1.8797424e-38 273 253
-0.062586986 0.77600002 -0.017687626 1.7972307e-38 274 253
-0.061068594 0.77399999 -0.01764204 1.8248894e-38 275 253
-0.059711516 0.77399999 -0.01764204 1.8801322e-38 276 253
-0.058354434 0.77399999 -0.01764204 1.9170465e-38 277 253
-0.056997359 0.77399999 -0.01764204 1.9905859e-38 278 253
-0.055640277 0.77399999 -0.01764204 2.0089891e-38 279 253
-0.054283198 0.77399999 -0.01764204 1.9906931e-38 280 253
-0.052926116 0.77399999 -0.01764204 2.0091324e-38 281 253
-0.051702294 0.77600002 -0.017687626 2.009168e-38 282 253
-0.050341707 0.77600002 -0.017687626 1.9999126e-38 283 253
-0.049107358 0.778 -0.017733213 2.0090241e-38 284 253
-0.047743265 0.778 -0.017733213 1.990621e-38 285 253
-0.046379171 0.778 -0.017733213 1.981437e-38 286 253
-0.045015078 0.778 -0.017733213 1.981437e-38 287 253
-0.043650985 0.778 -0.017733213 1.9446305e-38 288 253
-0.042286891 0.778 -0.017733213 1.9261912e-38 289 253
-0.040922798 0.778 -0.017733213 1.916972e-38 290 253
-0.039558705 0.778 -0.017733213 1.9077165e-38 291 253
-0.038194612 0.778 -0.017733213 1.8799858e-38 292 253
-0.036830518 0.778 -0.017733213 1.8431077e-38 293 253
-0.035557598 0.77999997 -0.017778799 1.806302e-38 294 253
-0.034233831 0.78100002 -0.017801592 1.7970823e-38 295 253
-0.032864477 0.78100002 -0.017801592 1.7510215e-38 296 253
-0.031495128 0.78100002 -0.017801592 1.7233628e-38 297 253
-0.030125774 0.78100002 -0.017801592 1.7140354e-38 298 253
-0.028756421 0.78100002 -0.017801592 1.6864127e-38 299 253
-0.027457198 0.78299999 -0.017847179 1.6955597e-38 300 253
-0.026084339 0.78299999 -0.017847179 1.6586814e-38 301 253
-0.0247746 0.78500003 -0.017892767 1.6035082e-38 302 253
-0.023398234 0.78500003 -0.017892767 1.5666658e-38 303 253
-0.022077972 0.787 -0.017938353 1.5114568e-38 304 253
-0.0206981 0.787 -0.017938353 1.483834e-38 305 253
-0.019318225 0.787 -0.017938353 1.4745428e-38 306 253
-0.017983939 0.78899997 -0.017983939 1.4560678e-38 307 253
-0.016621601 0.79000002 -0.018006733 1.364232e-38 308 253
-0.015236467 0.79000002 -0.018006733 1.3365375e-38 309 253
-0.0138864 0.792 -0.018052319 1.3182062e-38 310 253
-0.012497759 0.792 -0.018052319 1.3366454e-38 311 253
-0.011109119 0.792 -0.018052319 1.3274258e-38 312 253
-0.0097450269 0.79400003 -0.018097907 1.2628889e-38 313 253
-0.0083739199 0.796 -0.018143492 1.2995163e-38 314 253
-0.0069782664 0.796 -0.018143492 1.2718936e-38 315 253
-0.0055826134 0.796 -0.018143492 1.2165415e-38 316 253
-0.0041974802 0.79799998 -0.018189078 1.1520045e-38 317 253
-0.0027983198 0.79799998 -0.018189078 1.1058001e-38 318 253
-0.0013991599 0.79799998 -0.018189078 1.0781774e-38 319 253
0 0.79799998 -0.018189078 1.0138219e-38 320 253
0.0013991599 0.79799998 -0.018189078 1.0138219e-38 321 253
0.0027983198 0.79799998 -0.018189078 9.8630925e-39 322 253
0.0041974802 0.79799998 -0.018189078 9.9552881e-39 323 253
0.0055966396 0.79799998 -0.018189078 1.0321204e-38 324 253
0.0069782664 0.796 -0.018143492 1.0229008e-38 325 253
0.0083739199 0.796 -0.018143492 9.8595024e-39 326 253
0.0097941197 0.79799998 -0.018189078 9.5829155e-39 327 253
0.011221333 0.80000001 -0.018234666 9.4878332e-39 328 253
0.012624 0.80000001 -0.018234666 8.9346594e-39 329 253
-0.065055676 0.773 -0.018974574 1.8800269e-38 272 254
-0.063700356 0.773 -0.018974574 1.8154899e-38 273 254
-0.06234502 0.773 -0.018974574 1.8431092e-38 274 254
-0.060989697 0.773 -0.018974574 1.9169016e-38 275 254
-0.059634373 0.773 -0.018974574 1.9354112e-38 276 254
-0.058279041 0.773 -0.018974574 1.9630339e-38 277 254
-0.056923717 0.773 -0.018974574 1.9722891e-38 278 254
-0.055568393 0.773 -0.018974574 1.9999479e-38 279 254
-0.054213066 0.773 -0.018974574 2.0182797e-38 280 254
-0.052857738 0.773 -0.018974574 2.0182797e-38 281 254
-0.051569037 0.77399999 -0.018999118 2.0182444e-38 282 254
-0.050211959 0.77399999 -0.018999118 2.0090247e-38 283 254
-0.04885488 0.77399999 -0.018999118 1.981438e-38 284 254
-0.047620531 0.77600002 -0.019048214 1.9629989e-38 285 254
-0.046259947 0.77600002 -0.019048214 1.9629989e-38 286 254
-0.044899363 0.77600002 -0.019048214 1.9353762e-38 287 254
-0.043538772 0.77600002 -0.019048214 1.9169366e-38 288 254
-0.042178184 0.77600002 -0.019048214 1.9077171e-38 289 254
-0.040922798 0.778 -0.019097306 1.8708755e-38 290 254
-0.039558705 0.778 -0.019097306 1.8432527e-38 291 254
-0.038194612 0.778 -0.019097306 1.8430729e-38 292 254
-0.036830518 0.778 -0.019097306 1.8246338e-38 293 254
-0.035557598 0.77999997 -0.0191464 1.7694256e-38 294 254
-0.034189999 0.77999997 -0.0191464 1.760206e-38 295 254
-0.032864477 0.78100002 -0.019170946 1.7049256e-38 296 254
-0.031495128 0.78100002 -0.019170946 1.6864864e-38 297 254
-0.030125774 0.78100002 -0.019170946 1.6864492e-38 298 254
-0.028756421 0.78100002 -0.019170946 1.6403873e-38 299 254
-0.027387068 0.78100002 -0.019170946 1.6219827e-38 300 254
-0.026084339 0.78299999 -0.019220039 1.5759207e-38 301 254
-0.0247746 0.78500003 -0.019269135 1.5206398e-38 302 254
-0.023398234 0.78500003 -0.019269135 1.5022005e-38 303 254
-0.022021867 0.78500003 -0.019269135 1.4378087e-38 304 254
-0.0206981 0.787 -0.019318225 1.4193337e-38 305 254
-0.019318225 0.787 -0.019318225 1.3916759e-38 306 254
-0.018006733 0.79000002 -0.019391866 1.3732009e-38 307 254
-0.016621601 0.79000002 -0.019391866 1.3640557e-38 308 254
-0.015236467 0.79000002 -0.019391866 1.3548362e-38 309 254
-0.0138864 0.792 -0.01944096 1.3181021e-38 310 254
-0.012497759 0.792 -0.01944096 1.3088826e-38 311 254
-0.011109119 0.792 -0.01944096 1.2905495e-38 312 254
-0.0097450269 0.79400003 -0.019490054 1.2628907e-38 313 254
-0.0083739199 0.796 -0.019539146 1.2719658e-38 314 254
-0.0069782664 0.796 -0.019539146 1.2166484e-38 315 254
-0.0055826134 0.796 -0.019539146 1.1154517e-38 316 254
-0.0041974802 0.79799998 -0.019588239 1.0786093e-38 317 254
-0.0027983198 0.79799998 -0.019588239 1.0144718e-38 318 254
-0.0013991599 0.79799998 -0.019588239 1.0697892e-38 319 254
0 0.79799998 -0.019588239 1.1158528e-38 320 254
0.0013991599 0.79799998 -0.019588239 1.2080126e-38 321 254
0.0027983198 0.79799998 -0.019588239 1.2816269e-38 322 254
0.0041974802 0.79799998 -0.019588239 1.3369443e-38 323 254
0.0055966396 0.79799998 -0.019588239 1.3552402e-38 324 254
0.0069782664 0.796 -0.019539146 1.3460206e-38 325 254
0.0083739199 0.796 -0.019539146 1.3183975e-38 326 254
0.0097941197 0.79799998 -0.019588239 1.2999584e-38 327 254
0.011193279 0.79799998 -0.019588239 1.3085293e-38 328 254
-0.065055676 0.773 -0.0203299 1.7971569e-38 272 255
-0.063535534 0.77100003 -0.020277301 1.8432547e-38 273 255
-0.062183715 0.77100003 -0.020277301 1.9077171e-38 274 255
-0.060989697 0.773 -0.0203299 1.9445955e-38 275 255
-0.059634373 0.773 -0.0203299 1.9263714e-38 276 255
-0.058128256 0.77100003 -0.020277301 1.9539941e-38 277 255
-0.056776438 0.77100003 -0.020277301 1.9723614e-38 278 255
-0.055568393 0.773 -0.0203299 1.9908005e-38 279 255
-0.054213066 0.773 -0.0203299 1.9999128e-38 280 255
-0.052857738 0.773 -0.0203299 1.9999128e-38 281 255
-0.051502414 0.773 -0.0203299 1.9906213e-38 282 255
-0.050147086 0.773 -0.0203299 1.9814017e-38 283 255
-0.04885488 0.77399999 -0.020356199 1.9629989e-38 284 255
-0.047497798 0.77399999 -0.020356199 1.9353762e-38 285 255
-0.046140719 0.77399999 -0.020356199 1.9444877e-38 286 255
-0.044783637 0.77399999 -0.020356199 1.9260846e-38 287 255
-0.043426558 0.77399999 -0.020356199 1.8984253e-38 288 255
-0.042069476 0.77399999 -0.020356199 1.8892058e-38 289 255
-0.0408176 0.77600002 -0.0204088 1.8431796e-38 290 255
-0.039457016 0.77600002 -0.0204088 1.8155569e-38 291 255
-0.038194612 0.778 -0.020461399 1.7877553e-38 292 255
-0.036925197 0.77999997 -0.020513998 1.7877553e-38 293 255
-0.035557598 0.77999997 -0.020513998 1.7692811e-38 294 255
-0.034189999 0.77999997 -0.020513998 1.7415864e-38 295 255
-0.032822397 0.77999997 -0.020513998 1.6771928e-38 296 255
-0.031454798 0.77999997 -0.020513998 1.6403144e-38 297 255
-0.030087199 0.77999997 -0.020513998 1.6035438e-38 298 255
-0.028756421 0.78100002 -0.020540299 1.557446e-38 299 255
-0.027387068 0.78100002 -0.020540299 1.4746147e-38 300 255
-0.026017714 0.78100002 -0.020540299 1.4469201e-38 301 255
-0.0247746 0.78500003 -0.020645501 1.3916759e-38 302 255
-0.023398234 0.78500003 -0.020645501 1.3824563e-38 303 255
-0.022021867 0.78500003 -0.020645501 1.3732377e-38 304 255
-0.0206981 0.787 -0.0206981 1.3732377e-38 305 255
-0.019318225 0.787 -0.0206981 1.3731664e-38 306 255
-0.018006733 0.79000002 -0.020777 1.3731664e-38 307 255
-0.016621601 0.79000002 -0.020777 1.34558e-38 308 255
-0.015236467 0.79000002 -0.020777 1.34558e-38 309 255
-0.0138864 0.792 -0.020829599 1.308881e-38 310 255
-0.012497759 0.792 -0.020829599 1.2996614e-38 311 255
-0.011109119 0.792 -0.020829599 1.27211e-38 312 255
-0.0097450269 0.79400003 -0.0208822 1.2628904e-38 313 255
-0.0083739199 0.796 -0.0209348 1.2350539e-38 314 255
-0.0069782664 0.796 -0.0209348 1.2258343e-38 315 255
-0.0055966396 0.79799998 -0.020987399 1.2264152e-38 316 255
-0.0041974802 0.79799998 -0.020987399 1.420026e-38 317 255
-0.0027983198 0.79799998 -0.020987399 1.5860535e-38 318 255
-0.0013991599 0.79799998 -0.020987399 1.7243469e-38 319 255
-0.064887367 0.77100003 -0.021629119 1.8431445e-38 272 256
-0.063205913 0.76700002 -0.021516906 1.8984619e-38 273 256
-0.061861109 0.76700002 -0.021516906 1.9444506e-38 274 256
-0.060516298 0.76700002 -0.021516906 1.9629257e-38 275 256
-0.059171494 0.76700002 -0.021516906 1.9722888e-38 276 256
-0.057977475 0.76899999 -0.021573013 1.9815083e-38 277 256
-0.056629159 0.76899999 -0.021573013 1.9814733e-38 278 256
-0.055424623 0.77100003 -0.021629119 1.9906929e-38 279 256
-0.054072797 0.77100003 -0.021629119 1.9631068e-38 280 256
-0.052720979 0.77100003 -0.021629119 1.9631068e-38 281 256
-0.051502414 0.773 -0.021685226 1.9722184e-38 282 256
-0.050147086 0.773 -0.021685226 1.9629989e-38 283 256
-0.048791755 0.773 -0.021685226 1.9353406e-38 284 256
-0.047436431 0.773 -0.021685226 1.9169013e-38 285 256
-0.046081103 0.773 -0.021685226 1.9076462e-38 286 256
-0.044725779 0.773 -0.021685226 1.8800235e-38 287 256
-0.043370452 0.773 -0.021685226 1.8523994e-38 288 256
-0.042015124 0.773 -0.021685226 1.8063376e-38 289 256
-0.040712398 0.77399999 -0.021713279 1.7696029e-38 290 256
-0.039355319 0.77399999 -0.021713279 1.7327606e-38 291 256
-0.038096428 0.77600002 -0.021769386 1.7233628e-38 292 256
-0.036735836 0.77600002 -0.021769386 1.7049237e-38 293 256
-0.035466425 0.778 -0.021825492 1.6864127e-38 294 256
-0.034102332 0.778 -0.021825492 1.6402788e-38 295 256
-0.032822397 0.77999997 -0.021881599 1.5666656e-38 296 256
-0.031454798 0.77999997 -0.021881599 1.5482264e-38 297 256
-0.030087199 0.77999997 -0.021881599 1.52064e-38 298 256
-0.028719598 0.77999997 -0.021881599 1.4745422e-38 299 256
-0.027387068 0.78100002 -0.021909652 1.456034e-38 300 256
-0.026017714 0.78100002 -0.021909652 1.4468145e-38 301 256
-0.024711479 0.78299999 -0.021965759 1.3915705e-38 302 256
-0.023398234 0.78500003 -0.022021867 1.3915705e-38 303 256
-0.022077972 0.787 -0.022077972 1.3548718e-38 304 256
-0.0206981 0.787 -0.022077972 1.3456163e-38 305 256
-0.019318225 0.787 -0.022077972 1.3180653e-38 306 256
-0.018006733 0.79000002 -0.022162134 1.3180653e-38 307 256
-0.016621601 0.79000002 -0.022162134 1.3088457e-38 308 256
-0.015236467 0.79000002 -0.022162134 1.3088457e-38 309 256
-0.0138864 0.792 -0.022218239 1.2813302e-38 310 256
-0.012497759 0.792 -0.022218239 1.2721105e-38 311 256
-0.011137174 0.79400003 -0.022274347 1.2813302e-38 312 256
-0.0097695729 0.796 -0.022330454 1.2536355e-38 313 256
-0.0083739199 0.796 -0.022330454 1.3088851e-38 314 256
-0.0069782664 0.796 -0.022330454 1.5024959e-38 315 256
-0.0055966396 0.79799998 -0.022386558 1.5767974e-38 316 256
-0.0041974802 0.79799998 -0.022386558 1.7243104e-38 317 256
-0.0027983198 0.79799998 -0.022386558 1.8714653e-38 318 256
-0.067240335 0.76700002 -0.022861714 1.7511661e-38 270 257
-0.065895528 0.76700002 -0.022861714 1.7880442e-38 271 257
-0.064719036 0.76899999 -0.022921326 1.8984604e-38 272 257
-0.063205913 0.76700002 -0.022861714 1.9261549e-38 273 257
-0.061861109 0.76700002 -0.022861714 1.9445575e-38 274 257
-0.060516298 0.76700002 -0.022861714 1.9630326e-38 275 257
-0.059171494 0.76700002 -0.022861714 1.9814364e-38 276 257
-0.057826683 0.76700002 -0.022861714 1.990656e-38 277 257
-0.056481879 0.76700002 -0.022861714 1.9814736e-38 278 257
-0.055280842 0.76899999 -0.022921326 1.972254e-38 279 257
-0.053932533 0.76899999 -0.022921326 1.9722184e-38 280 257
-0.052584216 0.76899999 -0.022921326 1.9722184e-38 281 257
-0.05136916 0.77100003 -0.02298094 1.9445958e-38 282 257
-0.050017338 0.77100003 -0.02298094 1.9353762e-38 283 257
-0.04866552 0.77100003 -0.02298094 1.926049e-38 284 257
-0.047313701 0.77100003 -0.02298094 1.9076099e-38 285 257
-0.045961879 0.77100003 -0.02298094 1.8800232e-38 286 257
-0.044494338 0.76899999 -0.022921326 1.8523644e-38 287 257
-0.043146025 0.76899999 -0.022921326 1.7971541e-38 288 257
-0.04190642 0.77100003 -0.02298094 1.7603117e-38 289 257
-0.0406598 0.773 -0.023040552 1.6959915e-38 290 257
-0.039355319 0.77399999 -0.02307036 1.686772e-38 291 257
-0.037998237 0.77399999 -0.02307036 1.6589706e-38 292 257
-0.036641158 0.77399999 -0.02307036 1.6220925e-38 293 257
-0.035466425 0.778 -0.023189586 1.6034735e-38 294 257
-0.034102332 0.778 -0.023189586 1.5665952e-38 295 257
-0.032738242 0.778 -0.023189586 1.483764e-38 296 257
-0.031374145 0.778 -0.023189586 1.4652889e-38 297 257
-0.030087199 0.77999997 -0.023249198 1.4469226e-38 298 257
-0.028719598 0.77999997 -0.023249198 1.419264e-38 299 257
-0.027387068 0.78100002 -0.023279008 1.4008971e-38 300 257
-0.026017714 0.78100002 -0.023279008 1.3916776e-38 301 257
-0.024711479 0.78299999 -0.02333862 1.3824576e-38 302 257
-0.023398234 0.78500003 -0.023398234 1.373238e-38 303 257
-0.022021867 0.78500003 -0.023398234 1.3273204e-38 304 257
-0.0206981 0.787 -0.023457846 1.3181009e-38 305 257
-0.019367319 0.78899997 -0.023517458 1.3088813e-38 306 257
-0.018006733 0.79000002 -0.023547266 1.3088813e-38 307 257
-0.016621601 0.79000002 -0.023547266 1.2813302e-38 308 257
-0.015236467 0.79000002 -0.023547266 1.2813302e-38 309 257
-0.0138864 0.792 -0.02360688 1.2720752e-38 310 257
-0.01252932 0.79400003 -0.023666494 1.2812949e-38 311 257
-0.011137174 0.79400003 -0.023666494 1.2904441e-38 312 257
-0.0097941197 0.79799998 -0.02378572 1.3273222e-38 313 257
-0.0083949603 0.79799998 -0.02378572 1.4748044e-38 314 257
-0.0069957995 0.79799998 -0.02378572 1.7974891e-38 315 257
-0.068585135 0.76700002 -0.024206521 1.7513497e-38 269 258
-0.067240335 0.76700002 -0.024206521 1.8156301e-38 270 258
-0.065895528 0.76700002 -0.024206521 1.8617639e-38 271 258
-0.064466551 0.76599997 -0.024174958 1.917007e-38 272 258
-0.063123502 0.76599997 -0.024174958 1.9262266e-38 273 258
-0.061780453 0.76599997 -0.024174958 1.9447011e-38 274 258
-0.060437392 0.76599997 -0.024174958 1.9631042e-38 275 258
-0.059171494 0.76700002 -0.024206521 1.9814364e-38 276 258
-0.057826683 0.76700002 -0.024206521 1.9722169e-38 277 258
-0.056481879 0.76700002 -0.024206521 1.9814014e-38 278 258
-0.055137072 0.76700002 -0.024206521 1.9721819e-38 279 258
-0.053792264 0.76700002 -0.024206521 1.9629989e-38 280 258
-0.052584216 0.76899999 -0.024269639 1.9445958e-38 281 258
-0.051235907 0.76899999 -0.024269639 1.9353406e-38 282 258
-0.04988759 0.76899999 -0.024269639 1.9169013e-38 283 258
-0.048539277 0.76899999 -0.024269639 1.8984619e-38 284 258
-0.047190964 0.76899999 -0.024269639 1.8708392e-38 285 258
-0.045842651 0.76899999 -0.024269639 1.8431799e-38 286 258
-0.044494338 0.76899999 -0.024269639 1.797082e-38 287 258
-0.043146025 0.76899999 -0.024269639 1.751164e-38 288 258
-0.041797712 0.76899999 -0.024269639 1.7142859e-38 289 258
-0.040554602 0.77100003 -0.02433276 1.6683324e-38 290 258
-0.039304473 0.773 -0.024395877 1.6222347e-38 291 258
-0.037998237 0.77399999 -0.02442744 1.5576628e-38 292 258
-0.036641158 0.77399999 -0.02442744 1.5207845e-38 293 258
-0.035375252 0.77600002 -0.024490559 1.4745441e-38 294 258
-0.034102332 0.778 -0.024553679 1.4929833e-38 295 258
-0.032738242 0.778 -0.024553679 1.4837287e-38 296 258
-0.031374145 0.778 -0.024553679 1.4652895e-38 297 258
-0.030087199 0.77999997 -0.024616797 1.4101889e-38 298 258
-0.028719598 0.77999997 -0.024616797 1.4009693e-38 299 258
-0.027387068 0.78100002 -0.024648361 1.3641631e-38 300 258
-0.026017714 0.78100002 -0.024648361 1.3549434e-38 301 258
-0.024711479 0.78299999 -0.024711479 1.3365756e-38 302 258
-0.023398234 0.78500003 -0.0247746 1.3273201e-38 303 258
-0.022021867 0.78500003 -0.0247746 1.3364321e-38 304 258
-0.0206981 0.787 -0.024837719 1.3272125e-38 305 258
-0.019367319 0.78899997 -0.024900839 1.2905142e-38 306 258
-0.018006733 0.79000002 -0.024932399 1.2812946e-38 307 258
-0.016621601 0.79000002 -0.024932399 1.2720749e-38 308 258
-0.01527504 0.792 -0.024995519 1.2720749e-38 309 258
-0.013921468 0.79400003 -0.02505864 1.2811513e-38 310 258
-0.01252932 0.79400003 -0.02505864 1.2811513e-38 311 258
-0.011193279 0.79799998 -0.025184877 1.3087769e-38 312 258
-0.0098186666 0.80000001 -0.025248 1.474765e-38 313 258
-0.0083949603 0.79799998 -0.025184877 1.6125956e-38 314 258
-0.069838762 0.76599997 -0.025518013 1.751023e-38 268 259
-0.068495713 0.76599997 -0.025518013 1.7879373e-38 269 259
-0.067152664 0.76599997 -0.025518013 1.8985325e-38 270 259
-0.065809615 0.76599997 -0.025518013 1.9261912e-38 271 259
-0.064298242 0.764 -0.025451386 1.9538128e-38 272 259
-0.062958695 0.764 -0.025451386 1.9814715e-38 273 259
-0.061619148 0.764 -0.025451386 1.999838e-38 274 259
-0.0602796 0.764 -0.025451386 2.0090935e-38 275 259
-0.058940053 0.764 -0.025451386 2.0273896e-38 276 259
-0.057600506 0.764 -0.025451386 2.0181342e-38 277 259
-0.056260962 0.764 -0.025451386 1.9721819e-38 278 259
-0.055065181 0.76599997 -0.025518013 1.9721819e-38 279 259
-0.053722132 0.76599997 -0.025518013 1.9354125e-38 280 259
-0.052447457 0.76700002 -0.025551327 1.9354125e-38 281 259
-0.051102653 0.76700002 -0.025551327 1.9077897e-38 282 259
-0.049757849 0.76700002 -0.025551327 1.8893505e-38 283 259
-0.048413042 0.76700002 -0.025551327 1.8800585e-38 284 259
-0.047190964 0.76899999 -0.025617953 1.8523997e-38 285 259
-0.045842651 0.76899999 -0.025617953 1.8431083e-38 286 259
-0.044494338 0.76899999 -0.025617953 1.806194e-38 287 259
-0.043146025 0.76899999 -0.025617953 1.723506e-38 288 259
-0.041797712 0.76899999 -0.025617953 1.6958113e-38 289 259
-0.0404494 0.76899999 -0.025617953 1.6313827e-38 290 259
-0.039304473 0.773 -0.025751207 1.5760293e-38 291 259
-0.037949149 0.773 -0.025751207 1.5023451e-38 292 259
-0.036641158 0.77399999 -0.025784519 1.4746863e-38 293 259
-0.03528408 0.77399999 -0.025784519 1.4286981e-38 294 259
-0.034102332 0.778 -0.025917772 1.4286981e-38 295 259
-0.032738242 0.778 -0.025917772 1.4194437e-38 296 259
-0.031374145 0.778 -0.025917772 1.4102242e-38 297 259
-0.030087199 0.77999997 -0.025984399 1.3734901e-38 298 259
-0.028719598 0.77999997 -0.025984399 1.3458316e-38 299 259
-0.027387068 0.78100002 -0.026017714 1.3458316e-38 300 259
-0.026017714 0.78100002 -0.026017714 1.3273923e-38 301 259
-0.024711479 0.78299999 -0.026084339 1.3456872e-38 302 259
-0.023398234 0.78500003 -0.026150968 1.3364318e-38 303 259
-0.022077972 0.787 -0.026217593 1.3181006e-38 304 259
-0.0206981 0.787 -0.026217593 1.3181006e-38 305 259
-0.019367319 0.78899997 -0.026284218 1.308881e-38 306 259
-0.018006733 0.79000002 -0.026317533 1.2996614e-38 307 259
-0.016621601 0.79000002 -0.026317533 1.2995541e-38 308 259
-0.01527504 0.792 -0.02638416 1.2903345e-38 309 259
-0.013921468 0.79400003 -0.026450787 1.2627853e-38 310 259
-0.01256088 0.796 -0.026517414 1.3088472e-38 311 259
-0.011221333 0.80000001 -0.026650665 1.3364375e-38 312 259
-0.069838762 0.76599997 -0.026861066 1.8432524e-38 268 260
-0.068495713 0.76599997 -0.026861066 1.8893503e-38 269 260
-0.067152664 0.76599997 -0.026861066 1.9537775e-38 270 260
-0.065809615 0.76599997 -0.026861066 1.981472e-38 271 260
-0.064298242 0.764 -0.026790932 1.981579e-38 272 260
-0.062793881 0.76200002 -0.0267208 1.9907985e-38 273 260
-0.061457843 0.76200002 -0.0267208 2.0092381e-38 274 260
-0.0602796 0.764 -0.026790932 2.0000184e-38 275 260
-0.058940053 0.764 -0.026790932 2.009095e-38 276 260
-0.057449725 0.76200002 -0.0267208 1.9814364e-38 277 260
-0.056113683 0.76200002 -0.0267208 1.981437e-38 278 260
-0.054777641 0.76200002 -0.0267208 1.962962e-38 279 260
-0.053581864 0.764 -0.026790932 1.9354831e-38 280 260
-0.052242316 0.764 -0.026790932 1.8893853e-38 281 260
-0.051036026 0.76599997 -0.026861066 1.9077168e-38 282 260
-0.04969297 0.76599997 -0.026861066 1.8800941e-38 283 260
-0.048413042 0.76700002 -0.026896132 1.8616193e-38 284 260
-0.047068235 0.76700002 -0.026896132 1.8431801e-38 285 260
-0.045723427 0.76700002 -0.026896132 1.7970823e-38 286 260
-0.04437862 0.76700002 -0.026896132 1.7786432e-38 287 260
-0.043033812 0.76700002 -0.026896132 1.7233977e-38 288 260
-0.041797712 0.76899999 -0.026966266 1.6865196e-38 289 260
-0.0404494 0.76899999 -0.026966266 1.5484782e-38 290 260
-0.03920278 0.77100003 -0.027036399 1.4747216e-38 291 260
-0.037949149 0.773 -0.027106533 1.4195491e-38 292 260
-0.036641158 0.77399999 -0.027141599 1.4379882e-38 293 260
-0.03528408 0.77399999 -0.027141599 1.4562849e-38 294 260
-0.034014668 0.77600002 -0.027211733 1.4378097e-38 295 260
-0.032738242 0.778 -0.027281865 1.3918924e-38 296 260
-0.031374145 0.778 -0.027281865 1.3826728e-38 297 260
-0.030087199 0.77999997 -0.027351998 1.3641981e-38 298 260
-0.028719598 0.77999997 -0.027351998 1.3549784e-38 299 260
-0.027387068 0.78100002 -0.027387068 1.3456872e-38 300 260
-0.026017714 0.78100002 -0.027387068 1.3456872e-38 301 260
-0.024711479 0.78299999 -0.027457198 1.3364321e-38 302 260
-0.023398234 0.78500003 -0.027527334 1.3364321e-38 303 260
-0.022077972 0.787 -0.027597465 1.3088813e-38 304 260
-0.0206981 0.787 -0.027597465 1.3088813e-38 305 260
-0.019367319 0.78899997 -0.027667599 1.3088457e-38 306 260
-0.018006733 0.79000002 -0.027702667 1.2811869e-38 307 260
-0.01666368 0.792 -0.027772799 1.3085591e-38 308 260
-0.01527504 0.792 -0.027772799 1.3085591e-38 309 260
-0.013991599 0.79799998 -0.027983198 1.3087056e-38 310 260
-0.070810117 0.76200002 -0.028056841 1.7695332e-38 267 261
-0.069474079 0.76200002 -0.028056841 1.9261171e-38 268 261
-0.068316877 0.764 -0.028130481 1.9537758e-38 269 261
-0.06697733 0.764 -0.028130481 1.9998014e-38 270 261
-0.065465957 0.76200002 -0.028056841 2.02746e-38 271 261
-0.064129919 0.76200002 -0.028056841 1.9907982e-38 272 261
-0.062793881 0.76200002 -0.028056841 2.0092734e-38 273 261
-0.061457843 0.76200002 -0.028056841 2.01835e-38 274 261
-0.060121801 0.76200002 -0.028056841 2.01835e-38 275 261
-0.058785759 0.76200002 -0.028056841 2.009095e-38 276 261
-0.057449725 0.76200002 -0.028056841 1.9814364e-38 277 261
-0.056113683 0.76200002 -0.028056841 1.9630339e-38 278 261
-0.054777641 0.76200002 -0.028056841 1.9261915e-38 279 261
-0.053441599 0.76200002 -0.028056841 1.8984972e-38 280 261
-0.052105557 0.76200002 -0.028056841 1.8800941e-38 281 261
-0.050902773 0.764 -0.028130481 1.8616913e-38 282 261
-0.049563225 0.764 -0.028130481 1.8340685e-38 283 261
-0.048349917 0.76599997 -0.028204117 1.833925e-38 284 261
-0.047006864 0.76599997 -0.028204117 1.8063023e-38 285 261
-0.045723427 0.76700002 -0.02824094 1.7878628e-38 286 261
-0.04437862 0.76700002 -0.02824094 1.7417651e-38 287 261
-0.043033812 0.76700002 -0.02824094 1.6682252e-38 288 261
-0.041689005 0.76700002 -0.02824094 1.5944687e-38 289 261
-0.0404494 0.76899999 -0.028314579 1.5207845e-38 290 261
-0.03920278 0.77100003 -0.028388219 1.4746866e-38 291 261
-0.037949149 0.773 -0.028461859 1.4379885e-38 292 261
-0.036593821 0.773 -0.028461859 1.4379885e-38 293 261
-0.03528408 0.77399999 -0.028498679 1.4195504e-38 294 261
-0.034014668 0.77600002 -0.028572321 1.4011473e-38 295 261
-0.032738242 0.778 -0.028645959 1.3918571e-38 296 261
-0.031374145 0.778 -0.028645959 1.3734179e-38 297 261
-0.030087199 0.77999997 -0.028719598 1.33654e-38 298 261
-0.028719598 0.77999997 -0.028719598 1.3273204e-38 299 261
-0.027387068 0.78100002 -0.028756421 1.3088813e-38 300 261
-0.026017714 0.78100002 -0.028756421 1.3181009e-38 301 261
-0.024711479 0.78299999 -0.028830061 1.3272125e-38 302 261
-0.023398234 0.78500003 -0.0289037 1.3088094e-38 303 261
-0.022077972 0.787 -0.02897734 1.2995544e-38 304 261
-0.0207507 0.78899997 -0.02905098 1.2995544e-38 305 261
-0.019367319 0.78899997 -0.02905098 1.2993037e-38 306 261
-0.018006733 0.79000002 -0.029087799 1.2808646e-38 307 261
-0.016705759 0.79400003 -0.029235078 1.1980705e-38 308 261
-0.015313613 0.79400003 -0.029235078 1.2257292e-38 309 261
-0.07338576 0.76099998 -0.029354304 1.6867051e-38 265 262
-0.072051473 0.76099998 -0.029354304 1.824813e-38 266 262
-0.070531338 0.759 -0.029277159 1.8801304e-38 267 262
-0.069200553 0.759 -0.029277159 1.9445578e-38 268 262
-0.067869775 0.759 -0.029277159 1.962997e-38 269 262
-0.066714332 0.76099998 -0.029354304 2.0090226e-38 270 262
-0.065380037 0.76099998 -0.029354304 2.0274977e-38 271 262
-0.064045757 0.76099998 -0.029354304 2.0092028e-38 272 262
-0.06271147 0.76099998 -0.029354304 2.0092028e-38 273 262
-0.061377186 0.76099998 -0.029354304 2.0183144e-38 274 262
-0.060042895 0.76099998 -0.029354304 2.0090947e-38 275 262
-0.058708608 0.76099998 -0.029354304 2.0089875e-38 276 262
-0.057374325 0.76099998 -0.029354304 1.9813288e-38 277 262
-0.056040037 0.76099998 -0.029354304 1.9261912e-38 278 262
-0.05470575 0.76099998 -0.029354304 1.8985325e-38 279 262
-0.053371463 0.76099998 -0.029354304 1.8707662e-38 280 262
-0.052037176 0.76099998 -0.029354304 1.8707662e-38 281 262
-0.050769519 0.76200002 -0.029392879 1.8431445e-38 282 262
-0.049433477 0.76200002 -0.029392879 1.8155219e-38 283 262
-0.048223678 0.764 -0.029470026 1.7971541e-38 284 262
-0.046884131 0.764 -0.029470026 1.7695313e-38 285 262
-0.045663811 0.76599997 -0.029547172 1.741837e-38 286 262
-0.044320758 0.76599997 -0.029547172 1.7049946e-38 287 262
-0.043033812 0.76700002 -0.029585747 1.6220925e-38 288 262
-0.041689005 0.76700002 -0.029585747 1.5483359e-38 289 262
-0.0404494 0.76899999 -0.02966289 1.5206416e-38 290 262
-0.039101087 0.76899999 -0.02966289 1.4930189e-38 291 262
-0.037850961 0.77100003 -0.029740039 1.4563565e-38 292 262
-0.036593821 0.773 -0.029817186 1.4379532e-38 293 262
-0.03528408 0.77399999 -0.029855758 1.4195507e-38 294 262
-0.034014668 0.77600002 -0.029932907 1.4011475e-38 295 262
-0.032654081 0.77600002 -0.029932907 1.4010043e-38 296 262
-0.031374145 0.778 -0.03001005 1.3641261e-38 297 262
-0.030087199 0.77999997 -0.030087199 1.345687e-38 298 262
-0.028756421 0.78100002 -0.030125774 1.3272478e-38 299 262
-0.027387068 0.78100002 -0.030125774 1.3088444e-38 300 262
-0.026017714 0.78100002 -0.030125774 1.3088444e-38 301 262
-0.024711479 0.78299999 -0.03020292 1.3179204e-38 302 262
-0.023398234 0.78500003 -0.030280067 1.3179204e-38 303 262
-0.022077972 0.787 -0.03035721 1.2993746e-38 304 262
-0.0207507 0.78899997 -0.030434359 1.2624963e-38 305 262
-0.019391866 0.79000002 -0.030472934 1.1796299e-38 306 262
-0.018052319 0.792 -0.030550079 1.1704103e-38 307 262
-0.07452368 0.759 -0.030607941 1.7787187e-38 264 263
-0.07338576 0.76099998 -0.030688593 1.7418763e-38 265 263
-0.072051473 0.76099998 -0.030688593 1.861654e-38 266 263
-0.070531338 0.759 -0.030607941 1.9077518e-38 267 263
-0.069200553 0.759 -0.030607941 1.9261549e-38 268 263
-0.067869775 0.759 -0.030607941 1.9629973e-38 269 263
-0.066538997 0.759 -0.030607941 1.990656e-38 270 263
-0.065208219 0.759 -0.030607941 2.0183147e-38 271 263
-0.063877434 0.759 -0.030607941 1.9999835e-38 272 263
-0.062546656 0.759 -0.030607941 1.9999835e-38 273 263
-0.061215881 0.759 -0.030607941 2.0182427e-38 274 263
-0.059885096 0.759 -0.030607941 1.9998035e-38 275 263
-0.058554318 0.759 -0.030607941 1.9905481e-38 276 263
-0.05722354 0.759 -0.030607941 1.9537057e-38 277 263
-0.056040037 0.76099998 -0.030688593 1.8984604e-38 278 263
-0.05470575 0.76099998 -0.030688593 1.8800211e-38 279 263
-0.053371463 0.76099998 -0.030688593 1.8707306e-38 280 263
-0.052037176 0.76099998 -0.030688593 1.8338884e-38 281 263
-0.050702889 0.76099998 -0.030688593 1.8062667e-38 282 263
-0.049368605 0.76099998 -0.030688593 1.7970472e-38 283 263
-0.048097439 0.76200002 -0.030728921 1.7603114e-38 284 263
-0.046761397 0.76200002 -0.030728921 1.723433e-38 285 263
-0.045663811 0.76599997 -0.030890226 1.7049943e-38 286 263
-0.044320758 0.76599997 -0.030890226 1.6588605e-38 287 263
-0.042977702 0.76599997 -0.030890226 1.5668473e-38 288 263
-0.041689005 0.76700002 -0.030930554 1.5115299e-38 289 263
-0.040344197 0.76700002 -0.030930554 1.5206063e-38 290 263
-0.039101087 0.76899999 -0.031011207 1.4929836e-38 291 263
-0.037850961 0.77100003 -0.031091858 1.4562849e-38 292 263
-0.036593821 0.773 -0.03117251 1.4470652e-38 293 263
-0.035238493 0.773 -0.03117251 1.4194785e-38 294 263
-0.034014668 0.77600002 -0.031293493 1.4102589e-38 295 263
-0.032654081 0.77600002 -0.031293493 1.4009675e-38 296 263
-0.031374145 0.778 -0.031374145 1.3825282e-38 297 263
-0.030087199 0.77999997 -0.031454798 1.3456148e-38 298 263
-0.028756421 0.78100002 -0.031495128 1.2626387e-38 299 263
-0.027387068 0.78100002 -0.031495128 1.2167933e-38 300 263
-0.026017714 0.78100002 -0.031495128 1.2536355e-38 301 263
-0.024711479 0.78299999 -0.031575777 1.2809349e-38 302 263
-0.023398234 0.78500003 -0.031656433 1.2440925e-38 303 263
-0.022077972 0.787 -0.031737085 1.1887401e-38 304 263
-0.0207507 0.78899997 -0.031817738 1.1887401e-38 305 263
-0.075854458 0.759 -0.031938717 1.640897e-38 263 264
-0.07452368 0.759 -0.031938717 1.7970837e-38 264 264
-0.07338576 0.76099998 -0.032022879 1.8432176e-38 265 264
-0.072051473 0.76099998 -0.032022879 1.8984251e-38 266 264
-0.070531338 0.759 -0.031938717 1.9169001e-38 267 264
-0.069200553 0.759 -0.031938717 1.9629257e-38 268 264
-0.067690939 0.75700003 -0.031854562 1.9905484e-38 269 264
-0.06636367 0.75700003 -0.031854562 2.0090597e-38 270 264
-0.065036394 0.75700003 -0.031854562 2.0182794e-38 271 264
-0.063540794 0.755 -0.031770397 2.0091677e-38 272 264
-0.062217031 0.755 -0.031770397 1.9999482e-38 273 264
-0.061054576 0.75700003 -0.031854562 1.990656e-38 274 264
-0.059727304 0.75700003 -0.031854562 1.9722169e-38 275 264
-0.058554318 0.759 -0.031938717 1.9629254e-38 276 264
-0.05722354 0.759 -0.031938717 1.9444862e-38 277 264
-0.055892758 0.759 -0.031938717 1.9167916e-38 278 264
-0.054561976 0.759 -0.031938717 1.8799492e-38 279 264
-0.053231198 0.759 -0.031938717 1.8339956e-38 280 264
-0.051900417 0.759 -0.031938717 1.8063371e-38 281 264
-0.050702889 0.76099998 -0.032022879 1.7878628e-38 282 264
-0.049368605 0.76099998 -0.032022879 1.7786432e-38 283 264
-0.048097439 0.76200002 -0.032064959 1.7235057e-38 284 264
-0.046761397 0.76200002 -0.032064959 1.6681884e-38 285 264
-0.045544583 0.764 -0.032149121 1.6772647e-38 286 264
-0.044320758 0.76599997 -0.032233275 1.5942887e-38 287 264
-0.042977702 0.76599997 -0.032233275 1.5023467e-38 288 264
-0.041689005 0.76700002 -0.03227536 1.4839435e-38 289 264
-0.040344197 0.76700002 -0.03227536 1.4838003e-38 290 264
-0.039101087 0.76899999 -0.032359518 1.4838003e-38 291 264
-0.037850961 0.77100003 -0.032443684 1.4195507e-38 292 264
-0.036499143 0.77100003 -0.032443684 1.4011475e-38 293 264
-0.035238493 0.773 -0.032527838 1.391928e-38 294 264
-0.033927001 0.77399999 -0.032569919 1.373453e-38 295 264
-0.032654081 0.77600002 -0.032654081 1.3550134e-38 296 264
-0.031374145 0.778 -0.032738242 1.3181712e-38 297 264
-0.030087199 0.77999997 -0.032822397 1.3270683e-38 298 264
-0.028756421 0.78100002 -0.032864477 1.2163977e-38 299 264
-0.027387068 0.78100002 -0.032864477 1.12442e-38 300 264
-0.026017714 0.78100002 -0.032864477 1.1889569e-38 301 264
-0.024711479 0.78299999 -0.032948639 1.1794852e-38 302 264
-0.023398234 0.78500003 -0.033032801 1.1149483e-38 303 264
-0.022077972 0.787 -0.033116959 1.0689238e-38 304 264
-0.077185236 0.759 -0.033269498 1.7512774e-38 262 265
-0.075854458 0.759 -0.033269498 1.7052156e-38 263 265
-0.07452368 0.759 -0.033269498 1.8523275e-38 264 265
-0.073192894 0.759 -0.033269498 1.8984253e-38 265 265
-0.07167276 0.75700003 -0.033181835 1.9076799e-38 266 265
-0.070345491 0.75700003 -0.033181835 1.9445581e-38 267 265
-0.068835862 0.755 -0.033094164 1.9905118e-38 268 265
-0.067422673 0.75400001 -0.033050332 1.9997314e-38 269 265
-0.066100664 0.75400001 -0.033050332 2.0090594e-38 270 265
-0.064606823 0.75199997 -0.032962665 2.0182791e-38 271 265
-0.063288316 0.75199997 -0.032962665 2.0090597e-38 272 265
-0.061969809 0.75199997 -0.032962665 2.0090597e-38 273 265
-0.060812615 0.75400001 -0.033050332 1.9814367e-38 274 265
-0.059490599 0.75400001 -0.033050332 1.9629976e-38 275 265
-0.058245733 0.755 -0.033094164 1.9537057e-38 276 265
-0.056921966 0.755 -0.033094164 1.9352666e-38 277 265
-0.055745479 0.75700003 -0.033181835 1.8801289e-38 278 265
-0.054418206 0.75700003 -0.033181835 1.8432505e-38 279 265
-0.053090934 0.75700003 -0.033181835 1.7973329e-38 280 265
-0.051900417 0.759 -0.033269498 1.7696382e-38 281 265
-0.050569639 0.759 -0.033269498 1.7420524e-38 282 265
-0.049368605 0.76099998 -0.033357166 1.7235774e-38 283 265
-0.048034318 0.76099998 -0.033357166 1.695955e-38 284 265
-0.046761397 0.76200002 -0.033401001 1.6129429e-38 285 265
-0.045425359 0.76200002 -0.033401001 1.5943968e-38 286 265
-0.04420504 0.764 -0.033488665 1.5390795e-38 287 265
-0.042977702 0.76599997 -0.033576332 1.5206419e-38 288 265
-0.041689005 0.76700002 -0.033620168 1.5113864e-38 289 265
-0.040344197 0.76700002 -0.033620168 1.4655047e-38 290 265
-0.039101087 0.76899999 -0.033707831 1.4562493e-38 291 265
-0.037850961 0.77100003 -0.033795502 1.4011473e-38 292 265
-0.036499143 0.77100003 -0.033795502 1.3919277e-38 293 265
-0.035238493 0.773 -0.033883166 1.3734886e-38 294 265
-0.033927001 0.77399999 -0.033927001 1.3550134e-38 295 265
-0.032654081 0.77600002 -0.034014668 1.3456148e-38 296 265
-0.031374145 0.778 -0.034102332 1.3087364e-38 297 265
-0.030087199 0.77999997 -0.034189999 1.2991588e-38 298 265
-0.028756421 0.78100002 -0.034233831 1.2346579e-38 299 265
-0.027387068 0.78100002 -0.034233831 1.1609386e-38 300 265
-0.026084339 0.78299999 -0.034321502 1.1701582e-38 301 265
-0.0247746 0.78500003 -0.034409165 1.087219e-38 302 265
-0.023517458 0.78899997 -0.034584496 1.0595603e-38 303 265
-0.078309126 0.75700003 -0.034509107 1.567538e-38 261 266
-0.076981857 0.75700003 -0.034509107 1.7234357e-38 262 266
-0.075654581 0.75700003 -0.034509107 1.7879726e-38 263 266
-0.074327305 0.75700003 -0.034509107 1.8984601e-38 264 266
-0.07280717 0.755 -0.034417931 1.9169351e-38 265 266
-0.071483396 0.755 -0.034417931 1.9721076e-38 266 266
-0.070066705 0.75400001 -0.034372345 1.9813271e-38 267 266
-0.068562344 0.75199997 -0.034281172 2.0180979e-38 268 266
-0.067243837 0.75199997 -0.034281172 2.0273175e-38 269 266
-0.065749995 0.75 -0.034189999 2.0365742e-38 270 266
-0.064349085 0.74900001 -0.034144413 2.0365742e-38 271 266
-0.063035838 0.74900001 -0.034144413 2.0182074e-38 272 266
-0.061804999 0.75 -0.034189999 1.9997682e-38 273 266
-0.060489997 0.75 -0.034189999 1.9905484e-38 274 266
-0.059332799 0.75199997 -0.034281172 1.9629257e-38 275 266
-0.058168583 0.75400001 -0.034372345 1.9444862e-38 276 266
-0.056846574 0.75400001 -0.034372345 1.9260112e-38 277 266
-0.055598196 0.755 -0.034417931 1.8616896e-38 278 266
-0.054418206 0.75700003 -0.034509107 1.833995e-38 279 266
-0.053090934 0.75700003 -0.034509107 1.7605267e-38 280 266
-0.051763661 0.75700003 -0.034509107 1.7513069e-38 281 266
-0.050569639 0.759 -0.034600276 1.7511635e-38 282 266
-0.049238857 0.759 -0.034600276 1.7143212e-38 283 266
-0.047908079 0.759 -0.034600276 1.6958113e-38 284 266
-0.046700031 0.76099998 -0.034691449 1.6036517e-38 285 266
-0.045425359 0.76200002 -0.034737039 1.5298612e-38 286 266
-0.04420504 0.764 -0.034828212 1.5298612e-38 287 266
-0.042977702 0.76599997 -0.034919381 1.5113867e-38 288 266
-0.041689005 0.76700002 -0.034964975 1.4929836e-38 289 266
-0.040344197 0.76700002 -0.034964975 1.437918e-38 290 266
-0.039101087 0.76899999 -0.035056144 1.4286983e-38 291 266
-0.037850961 0.77100003 -0.03514732 1.3919277e-38 292 266
-0.036499143 0.77100003 -0.03514732 1.3827081e-38 293 266
-0.035238493 0.773 -0.035238493 1.3090958e-38 294 266
-0.033927001 0.77399999 -0.03528408 1.2814371e-38 295 266
-0.032654081 0.77600002 -0.035375252 1.2993746e-38 296 266
-0.031454798 0.77999997 -0.035557598 1.2440572e-38 297 266
-0.030125774 0.78100002 -0.035603184 1.2163632e-38 298 266
-0.028830061 0.78299999 -0.035694357 1.1702654e-38 299 266
-0.027457198 0.78299999 -0.035694357 1.124134e-38 300 266
-0.026084339 0.78299999 -0.035694357 1.078072e-38 301 266
-0.079425998 0.755 -0.035741698 1.7792254e-38 260 267
-0.078102231 0.755 -0.035741698 1.6224569e-38 261 267
-0.076778464 0.755 -0.035741698 1.8430727e-38 262 267
-0.075454697 0.755 -0.035741698 1.8799508e-38 263 267
-0.07413093 0.755 -0.035741698 1.9351947e-38 264 267
-0.07271073 0.75400001 -0.035694357 1.9812567e-38 265 267
-0.071388714 0.75400001 -0.035694357 1.9629605e-38 266 267
-0.069694996 0.75 -0.035505001 1.990619e-38 267 267
-0.068379998 0.75 -0.035505001 2.0273896e-38 268 267
-0.067065001 0.75 -0.035505001 2.0366092e-38 269 267
-0.065662332 0.74900001 -0.03545766 2.0182427e-38 270 267
-0.064349085 0.74900001 -0.03545766 2.0182427e-38 271 267
-0.063035838 0.74900001 -0.03545766 2.0181348e-38 272 267
-0.061722592 0.74900001 -0.03545766 2.0181348e-38 273 267
-0.060409348 0.74900001 -0.03545766 1.9629252e-38 274 267
-0.059096102 0.74900001 -0.03545766 1.9444859e-38 275 267
-0.057859998 0.75 -0.035505001 1.8892041e-38 276 267
-0.056695782 0.75199997 -0.035599679 1.8799487e-38 277 267
-0.055524562 0.75400001 -0.035694357 1.8523626e-38 278 267
-0.054202545 0.75400001 -0.035694357 1.8247039e-38 279 267
-0.052950665 0.755 -0.035741698 1.7788228e-38 280 267
-0.051626898 0.755 -0.035741698 1.7603836e-38 281 267
-0.050436385 0.75700003 -0.03583638 1.7327606e-38 282 267
-0.049238857 0.759 -0.035931058 1.7050659e-38 283 267
-0.047908079 0.759 -0.035931058 1.6863401e-38 284 267
-0.046577301 0.759 -0.035931058 1.6310227e-38 285 267
-0.045425359 0.76200002 -0.036073081 1.5666318e-38 286 267
-0.044089317 0.76200002 -0.036073081 1.5390091e-38 287 267
-0.042865492 0.764 -0.036167759 1.465541e-38 288 267
-0.041634649 0.76599997 -0.036262438 1.4563214e-38 289 267
-0.040291596 0.76599997 -0.036262438 1.4287704e-38 290 267
-0.038999394 0.76700002 -0.036309779 1.4195507e-38 291 267
-0.037654586 0.76700002 -0.036309779 1.3644488e-38 292 267
-0.036499143 0.77100003 -0.036499143 1.3091314e-38 293 267
-0.035238493 0.773 -0.036593821 1.2813297e-38 294 267
-0.033927001 0.77399999 -0.036641158 1.1522917e-38 295 267
-0.032654081 0.77600002 -0.036735836 1.1885601e-38 296 267
-0.031495128 0.78100002 -0.036972538 1.1701209e-38 297 267
-0.03020292 0.78299999 -0.037067216 1.1240249e-38 298 267
-0.079320803 0.75400001 -0.037016369 1.732873e-38 260 268
-0.077998787 0.75400001 -0.037016369 1.6868111e-38 261 268
-0.076676771 0.75400001 -0.037016369 1.8341388e-38 262 268
-0.075354755 0.75400001 -0.037016369 1.8617616e-38 263 268
