# .PCD v.7 - Point Cloud Data file format
FIELDS x y z rgb imX imY
SIZE 4 4 4 4 4 4
TYPE F F F F F F
COUNT 1 1 1 1 1 1
WIDTH 844
HEIGHT 1
VIEWPOINT 0 0 0 1 0 0 0
POINTS 844
DATA ascii
0.0191464 0.72799999 -0.028081384 1.3368289e-38 335 262
0.020422826 0.72799999 -0.028081384 1.4288801e-38 336 262
0.021609833 0.72500002 -0.027965667 1.4841975e-38 337 262
0.022880999 0.72500002 -0.027965667 1.5760681e-38 338 262
0.024052227 0.722 -0.027849946 1.5945433e-38 339 262
0.025248 0.72000003 -0.027772799 1.6314196e-38 340 262
0.02647358 0.71899998 -0.027734226 1.6314196e-38 341 262
0.02754136 0.71399999 -0.02754136 1.6406744e-38 342 262
0.028631933 0.70999998 -0.027387066 1.6682971e-38 343 262
0.02979264 0.708 -0.027309919 1.705031e-38 344 262
0.030858666 0.704 -0.027155625 1.723506e-38 345 262
0.032047424 0.70300001 -0.027117053 1.7880424e-38 346 262
0.033043321 0.69800001 -0.026924185 1.815701e-38 347 262
0.034267146 0.69800001 -0.026924185 1.8432149e-38 348 262
0.035440128 0.69700003 -0.026885614 1.8524345e-38 349 262
0.036609598 0.69599998 -0.026847038 1.861654e-38 350 262
0.037721213 0.69400001 -0.026769891 1.861654e-38 351 262
0.03888192 0.69300002 -0.02673132 1.8708743e-38 352 262
0.04009698 0.69300002 -0.02673132 1.8800938e-38 353 262
0.041192811 0.69099998 -0.026654173 1.8618342e-38 354 262
0.042404365 0.69099998 -0.026654173 1.8618342e-38 355 262
0.043615919 0.69099998 -0.026654173 1.8709809e-38 356 262
0.044827472 0.69099998 -0.026654173 1.8617614e-38 357 262
0.046039023 0.69099998 -0.026654173 1.8341739e-38 358 262
0.047250576 0.69099998 -0.026654173 1.8249543e-38 359 262
0.048602402 0.69300002 -0.02673132 1.8249187e-38 360 262
0.049817458 0.69300002 -0.02673132 1.79726e-38 361 262
0.051032521 0.69300002 -0.02673132 1.7697088e-38 362 262
0.05224758 0.69300002 -0.02673132 1.7512338e-38 363 262
0.053539783 0.69400001 -0.026769891 1.7236833e-38 364 262
0.054677699 0.69300002 -0.02673132 1.6960247e-38 365 262
0.055892758 0.69300002 -0.02673132 1.6682953e-38 366 262
0.057519849 0.69800001 -0.026924185 1.6590757e-38 367 262
0.058743682 0.69800001 -0.026924185 1.5854289e-38 368 262
0.06039707 0.70300001 -0.027117053 1.5485508e-38 369 262
0.061629668 0.70300001 -0.027117053 1.5397336e-38 370 262
0.0191464 0.72799999 -0.029357811 1.2538899e-38 335 263
0.020422826 0.72799999 -0.029357811 1.3367933e-38 336 263
0.021520413 0.722 -0.029115854 1.4105498e-38 337 263
0.022786319 0.722 -0.029115854 1.548482e-38 338 263
0.024052227 0.722 -0.029115854 1.6037994e-38 339 263
0.025248 0.72000003 -0.029035201 1.6221647e-38 340 263
0.02647358 0.71899998 -0.028994869 1.6313842e-38 341 263
0.02754136 0.71399999 -0.028793238 1.6589701e-38 342 263
0.028672259 0.71100003 -0.028672259 1.6774451e-38 343 263
0.029624319 0.704 -0.028389972 1.7050313e-38 344 263
0.030727165 0.70099998 -0.028268991 1.7142509e-38 345 263
0.031819493 0.69800001 -0.028148014 1.7695313e-38 346 263
0.03299598 0.69700003 -0.028107686 1.8063736e-38 347 263
0.034218054 0.69700003 -0.028107686 1.8339953e-38 348 263
0.035389278 0.69599998 -0.028067358 1.8432149e-38 349 263
0.036504399 0.69400001 -0.027986705 1.8524345e-38 350 263
0.037666857 0.69300002 -0.027946379 1.8524345e-38 351 263
0.03888192 0.69300002 -0.027946379 1.8616546e-38 352 263
0.039981257 0.69099998 -0.027865725 1.8708743e-38 353 263
0.041192811 0.69099998 -0.027865725 1.8709459e-38 354 263
0.042342998 0.69 -0.027825398 1.8801654e-38 355 263
0.043363437 0.68699998 -0.027704418 1.8801289e-38 356 263
0.044567976 0.68699998 -0.027704418 1.8616896e-38 357 263
0.045972396 0.69 -0.027825398 1.8524698e-38 358 263
0.047250576 0.69099998 -0.027865725 1.8432502e-38 359 263
0.048391998 0.69 -0.027825398 1.8340304e-38 360 263
0.049601797 0.69 -0.027825398 1.8064077e-38 361 263
0.050811596 0.69 -0.027825398 1.7604892e-38 362 263
0.052021399 0.69 -0.027825398 1.7512338e-38 363 263
0.053231198 0.69 -0.027825398 1.7235758e-38 364 263
0.054519895 0.69099998 -0.027865725 1.7051365e-38 365 263
0.055731449 0.69099998 -0.027865725 1.6775149e-38 366 263
0.056942999 0.69099998 -0.027865725 1.6590757e-38 367 263
0.058154557 0.69099998 -0.027865725 1.5946484e-38 368 263
0.06039707 0.70300001 -0.028349647 1.5762091e-38 369 263
0.061629668 0.70300001 -0.028349647 1.4935988e-38 370 263
0.020254506 0.722 -0.030381758 1.2354876e-38 336 264
0.021520413 0.722 -0.030381758 1.3184636e-38 337 264
0.022723202 0.72000003 -0.0302976 1.4749426e-38 338 264
0.0239856 0.72000003 -0.0302976 1.5394795e-38 339 264
0.025248 0.72000003 -0.0302976 1.6220938e-38 340 264
0.026510401 0.72000003 -0.0302976 1.6313492e-38 341 264
0.027155625 0.704 -0.029624319 1.6406038e-38 342 264
0.028389972 0.704 -0.029624319 1.6498234e-38 343 264
0.029498078 0.70099998 -0.029498078 1.7049607e-38 344 264
0.030683333 0.69999999 -0.029455997 1.7326552e-38 345 264
0.03177391 0.69700003 -0.02932976 1.7694962e-38 346 264
0.03299598 0.69700003 -0.02932976 1.797119e-38 347 264
0.034168959 0.69599998 -0.029287677 1.8431433e-38 348 264
0.035236739 0.69300002 -0.029161438 1.8431433e-38 349 264
0.036451802 0.69300002 -0.029161438 1.8432149e-38 350 264
0.03755815 0.69099998 -0.029077278 1.8524345e-38 351 264
0.038769703 0.69099998 -0.029077278 1.8617266e-38 352 264
0.039981257 0.69099998 -0.029077278 1.8709462e-38 353 264
0.041013971 0.68800002 -0.028951041 1.8526149e-38 354 264
0.042158898 0.68699998 -0.028908957 1.8526149e-38 355 264
0.043363437 0.68699998 -0.028908957 1.8800936e-38 356 264
0.044567976 0.68699998 -0.028908957 1.8616543e-38 357 264
0.045772515 0.68699998 -0.028908957 1.85247e-38 358 264
0.046977058 0.68699998 -0.028908957 1.8432505e-38 359 264
0.048181597 0.68699998 -0.028908957 1.8156991e-38 360 264
0.049386136 0.68699998 -0.028908957 1.79726e-38 361 264
0.050664321 0.68800002 -0.028951041 1.7604892e-38 362 264
0.051870614 0.68800002 -0.028951041 1.7512338e-38 363 264
0.053076908 0.68800002 -0.028951041 1.7235405e-38 364 264
0.054440998 0.69 -0.029035198 1.7051012e-38 365 264
0.055650797 0.69 -0.029035198 1.66826e-38 366 264
0.0568606 0.69 -0.029035198 1.6498208e-38 367 264
0.058070395 0.69 -0.029035198 1.6038682e-38 368 264
0.059366114 0.69099998 -0.029077278 1.5762094e-38 369 264
0.060577665 0.69099998 -0.029077278 1.4566477e-38 370 264
0.021520413 0.722 -0.031647664 1.1986816e-38 337 265
0.022723202 0.72000003 -0.03156 1.3552695e-38 338 265
0.0239856 0.72000003 -0.03156 1.4567205e-38 339 265
0.025248 0.72000003 -0.03156 1.6129827e-38 340 265
0.027039904 0.70099998 -0.030727165 1.6589706e-38 342 265
0.028268991 0.70099998 -0.030727165 1.6681902e-38 343 265
0.029455997 0.69999999 -0.030683333 1.6957763e-38 344 265
0.030595668 0.69800001 -0.030595668 1.7234351e-38 345 265
0.031728316 0.69599998 -0.030507999 1.7787155e-38 346 265
0.032853961 0.69400001 -0.030420333 1.7971546e-38 347 265
0.034021679 0.69300002 -0.0303765 1.8339237e-38 348 265
0.035135046 0.69099998 -0.030288832 1.8431433e-38 349 265
0.036346599 0.69099998 -0.030288832 1.8339956e-38 350 265
0.03755815 0.69099998 -0.030288832 1.8432152e-38 351 265
0.038713597 0.69 -0.030244999 1.8433231e-38 352 265
0.039691959 0.68599999 -0.030069664 1.8617263e-38 353 265
0.040775519 0.68400002 -0.029982001 1.8526144e-38 354 265
0.041974798 0.68400002 -0.029982001 1.8526144e-38 355 265
0.043174081 0.68400002 -0.029982001 1.8617263e-38 356 265
0.04437336 0.68400002 -0.029982001 1.8433231e-38 357 265
0.045705888 0.68599999 -0.030069664 1.8433231e-38 358 265
0.046977058 0.68699998 -0.030113498 1.8248839e-38 359 265
0.048111461 0.68599999 -0.030069664 1.8157357e-38 360 265
0.049314249 0.68599999 -0.030069664 1.7788935e-38 361 265
0.050590675 0.68699998 -0.030113498 1.7604183e-38 362 265
0.051795214 0.68699998 -0.030113498 1.7327957e-38 363 265
0.052999757 0.68699998 -0.030113498 1.7143934e-38 364 265
0.054204296 0.68699998 -0.030113498 1.6867347e-38 365 265
0.055408835 0.68699998 -0.030113498 1.6406739e-38 366 265
0.056695789 0.68800002 -0.030157333 1.6406739e-38 367 265
0.057902083 0.68800002 -0.030157333 1.5854654e-38 368 265
0.059108373 0.68800002 -0.030157333 1.5578426e-38 369 265
0.060489997 0.69 -0.030244999 1.465686e-38 370 265
0.061699796 0.69 -0.030244999 1.5210034e-38 371 265
0.027039904 0.70099998 -0.031956252 1.6406035e-38 342 266
0.028268991 0.70099998 -0.031956252 1.6682621e-38 343 266
0.029371841 0.69800001 -0.031819493 1.695741e-38 344 266
0.030551834 0.69700003 -0.03177391 1.7141802e-38 345 266
0.031728316 0.69599998 -0.031728316 1.7695327e-38 346 266
0.03280662 0.69300002 -0.031591557 1.7695327e-38 347 266
0.033923492 0.69099998 -0.031500384 1.8246333e-38 348 266
0.035084199 0.69 -0.031454802 1.8338528e-38 349 266
0.0361888 0.68800002 -0.031363625 1.8248486e-38 350 266
0.037286382 0.68599999 -0.031272452 1.8340682e-38 351 266
0.038320854 0.68300003 -0.031135695 1.8341754e-38 352 266
0.039518382 0.68300003 -0.031135695 1.8433951e-38 353 266
0.040656291 0.68199998 -0.031090107 1.85265e-38 354 266
0.041852064 0.68199998 -0.031090107 1.85265e-38 355 266
0.043047838 0.68199998 -0.031090107 1.870874e-38 356 266
0.044243611 0.68199998 -0.031090107 1.8616543e-38 357 266
0.045506012 0.68300003 -0.031135695 1.8340682e-38 358 266
0.046771921 0.68400002 -0.03118128 1.8248486e-38 359 266
0.0479712 0.68400002 -0.03118128 1.7972973e-38 360 266
0.049170479 0.68400002 -0.03118128 1.7696385e-38 361 266
0.050369758 0.68400002 -0.03118128 1.7696016e-38 362 266
0.051569041 0.68400002 -0.03118128 1.7511625e-38 363 266
0.05276832 0.68400002 -0.03118128 1.7143209e-38 364 266
0.054125395 0.68599999 -0.031272452 1.7051012e-38 365 266
0.055328183 0.68599999 -0.031272452 1.6590407e-38 366 266
0.056530971 0.68599999 -0.031272452 1.631418e-38 367 266
0.057817914 0.68699998 -0.031318039 1.6037602e-38 368 266
0.059108373 0.68800002 -0.031363625 1.5761375e-38 369 266
0.060314666 0.68800002 -0.031363625 1.456394e-38 370 266
0.06152096 0.68800002 -0.031363625 1.4656495e-38 371 266
0.026924185 0.69800001 -0.033043321 1.6589706e-38 342 267
0.028148014 0.69800001 -0.033043321 1.6681902e-38 343 267
0.029371841 0.69800001 -0.033043321 1.6774448e-38 344 267
0.030551834 0.69700003 -0.03299598 1.6958841e-38 345 267
0.031637147 0.69400001 -0.032853961 1.7972623e-38 346 267
0.032711938 0.69099998 -0.032711938 1.7788231e-38 347 267
0.0338744 0.69 -0.032664597 1.8338881e-38 348 267
0.034880809 0.68599999 -0.032475237 1.8431077e-38 349 267
0.035925802 0.68300003 -0.032333218 1.8248484e-38 350 267
0.037123326 0.68300003 -0.032333218 1.8340679e-38 351 267
0.038264744 0.68199998 -0.032285877 1.8617266e-38 352 267
0.039344799 0.68000001 -0.032191198 1.8433234e-38 353 267
0.040477451 0.67900002 -0.032143861 1.861726e-38 354 267
0.041667968 0.67900002 -0.032143861 1.8709815e-38 355 267
0.042858478 0.67900002 -0.032143861 1.8708387e-38 356 267
0.044048995 0.67900002 -0.032143861 1.8523994e-38 357 267
0.045306131 0.68000001 -0.032191198 1.8340329e-38 358 267
0.046498399 0.68000001 -0.032191198 1.8155938e-38 359 267
0.047690667 0.68000001 -0.032191198 1.7972976e-38 360 267
0.049026705 0.68199998 -0.032285877 1.7696029e-38 361 267
0.050222475 0.68199998 -0.032285877 1.7604183e-38 362 267
0.051418249 0.68199998 -0.032285877 1.7235761e-38 363 267
0.052691177 0.68300003 -0.032333218 1.69599e-38 364 267
0.053888701 0.68300003 -0.032333218 1.6775149e-38 365 267
0.055166878 0.68400002 -0.032380559 1.6406739e-38 366 267
0.056366164 0.68400002 -0.032380559 1.6314543e-38 367 267
0.057733759 0.68599999 -0.032475237 1.5762091e-38 368 267
0.058936544 0.68599999 -0.032475237 1.5485864e-38 369 267
0.060226995 0.68699998 -0.032522578 1.4655766e-38 370 267
0.061431535 0.68699998 -0.032522578 1.4286983e-38 371 267
0.062636077 0.68699998 -0.032522578 1.604452e-38 372 267
0.028148014 0.69800001 -0.034267146 1.6774098e-38 343 268
0.029371841 0.69800001 -0.034267146 1.6866645e-38 344 268
0.030507999 0.69599998 -0.034168959 1.7235426e-38 345 268
0.031637147 0.69400001 -0.034070771 1.7694962e-38 346 268
0.032664597 0.69 -0.0338744 1.797119e-38 347 268
0.033678025 0.68599999 -0.033678025 1.8155216e-38 348 268
0.034728274 0.68300003 -0.033530746 1.8339247e-38 349 268
0.035873197 0.68199998 -0.03348165 1.815701e-38 350 268
0.036905911 0.67900002 -0.033334374 1.8249205e-38 351 268
0.038040318 0.67799997 -0.033285279 1.8341398e-38 352 268
0.039229076 0.67799997 -0.033285279 1.8433954e-38 353 268
0.040417835 0.67799997 -0.033285279 1.8617263e-38 354 268
0.041606598 0.67799997 -0.033285279 1.8617263e-38 355 268
0.042795356 0.67799997 -0.033285279 1.8616546e-38 356 268
0.043984115 0.67799997 -0.033285279 1.852435e-38 357 268
0.045039624 0.676 -0.033187091 1.8431799e-38 358 268
0.046224877 0.676 -0.033187091 1.8155572e-38 359 268
0.047620531 0.67900002 -0.033334374 1.7788584e-38 360 268
0.048882935 0.68000001 -0.033383466 1.7603833e-38 361 268
0.050075196 0.68000001 -0.033383466 1.7511272e-38 362 268
0.051418249 0.68199998 -0.03348165 1.7419076e-38 363 268
0.052614026 0.68199998 -0.03348165 1.7051015e-38 364 268
0.053809796 0.68199998 -0.03348165 1.6866265e-38 365 268
0.055005573 0.68199998 -0.03348165 1.649749e-38 366 268
0.056201346 0.68199998 -0.03348165 1.6405293e-38 367 268
0.057565439 0.68400002 -0.033579841 1.5853921e-38 368 268
0.058764715 0.68400002 -0.033579841 1.5576975e-38 369 268
0.059964001 0.68400002 -0.033579841 1.4379536e-38 370 268
0.061163284 0.68400002 -0.033579841 1.3918198e-38 371 268
0.062362559 0.68400002 -0.033579841 1.5767213e-38 372 268
0.030507999 0.69599998 -0.035389278 1.723507e-38 345 269
0.031591557 0.69300002 -0.035236739 1.7878272e-38 346 269
0.032380559 0.68400002 -0.03477912 1.8063023e-38 347 269
0.033579841 0.68400002 -0.03477912 1.8063373e-38 348 269
0.034677424 0.68199998 -0.034677424 1.8155569e-38 349 269
0.035767999 0.68000001 -0.034575731 1.8156285e-38 350 269
0.036688499 0.67500001 -0.034321502 1.8248839e-38 351 269
0.037871998 0.67500001 -0.034321502 1.8341035e-38 352 269
0.039055496 0.67500001 -0.034321502 1.8433231e-38 353 269
0.040238999 0.67500001 -0.034321502 1.8616543e-38 354 269
0.041422497 0.67500001 -0.034321502 1.870874e-38 355 269
0.042606 0.67500001 -0.034321502 1.8341035e-38 356 269
0.043594878 0.67199999 -0.034168959 1.8341035e-38 357 269
0.044773117 0.67199999 -0.034168959 1.8248839e-38 358 269
0.0461565 0.67500001 -0.034321502 1.7971894e-38 359 269
0.047410134 0.676 -0.034372345 1.7696385e-38 360 269
0.048595384 0.676 -0.034372345 1.7511635e-38 361 269
0.049927916 0.67799997 -0.034474038 1.7419076e-38 362 269
0.051116679 0.67799997 -0.034474038 1.732688e-38 363 269
0.052382588 0.67900002 -0.034524884 1.6775504e-38 364 269
0.053573098 0.67900002 -0.034524884 1.6590754e-38 365 269
0.054844268 0.68000001 -0.034575731 1.6221978e-38 366 269
0.056201346 0.68199998 -0.034677424 1.6129782e-38 367 269
0.057565439 0.68400002 -0.03477912 1.5762078e-38 368 269
0.058764715 0.68400002 -0.03477912 1.5485131e-38 369 269
0.059964001 0.68400002 -0.03477912 1.4379532e-38 370 269
0.061163284 0.68400002 -0.03477912 1.3918195e-38 371 269
0.062362559 0.68400002 -0.03477912 1.5858329e-38 372 269
0.031591557 0.69300002 -0.036451802 1.7695313e-38 346 270
0.032380559 0.68400002 -0.035978399 1.7971541e-38 347 270
0.03348165 0.68199998 -0.035873197 1.8063373e-38 348 270
0.034524884 0.67900002 -0.035715401 1.8155569e-38 349 270
0.035557602 0.676 -0.035557602 1.8248839e-38 350 270
0.036525436 0.67199999 -0.035347197 1.8341035e-38 351 270
0.037703678 0.67199999 -0.035347197 1.8341032e-38 352 270
0.03888192 0.67199999 -0.035347197 1.8341032e-38 353 270
0.040000543 0.671 -0.0352946 1.8341035e-38 354 270
0.041177034 0.671 -0.0352946 1.8341035e-38 355 270
0.042416636 0.67199999 -0.035347197 1.852435e-38 356 270
0.043530006 0.671 -0.0352946 1.8431796e-38 357 270
0.044706494 0.671 -0.0352946 1.8339953e-38 358 270
0.045882981 0.671 -0.0352946 1.7971529e-38 359 270
0.047269866 0.67400002 -0.035452399 1.7603464e-38 360 270
0.048523501 0.67500001 -0.035505001 1.7511269e-38 361 270
0.049706999 0.67500001 -0.035505001 1.7326878e-38 362 270
0.050965894 0.676 -0.035557602 1.7234681e-38 363 270
0.052151144 0.676 -0.035557602 1.6866265e-38 364 270
0.053336397 0.676 -0.035557602 1.6590038e-38 365 270
0.054521654 0.676 -0.035557602 1.640529e-38 366 270
0.056201346 0.68199998 -0.035873197 1.6220899e-38 367 270
0.05739712 0.68199998 -0.035873197 1.5577331e-38 368 270
0.05867881 0.68300003 -0.035925802 1.5208549e-38 369 270
0.059964001 0.68400002 -0.035978399 1.4378097e-38 370 270
0.061073858 0.68300003 -0.035925802 1.3917479e-38 371 270
0.06227139 0.68300003 -0.035925802 1.5581745e-38 372 270
0.063561834 0.68400002 -0.035978399 1.7517854e-38 373 270
0.03348165 0.68199998 -0.037068974 1.7971891e-38 348 271
0.034118112 0.671 -0.036471087 1.8064445e-38 349 271
0.0352946 0.671 -0.036471087 1.8248837e-38 350 271
0.036471087 0.671 -0.036471087 1.8341032e-38 351 271
0.037647571 0.671 -0.036471087 1.8432505e-38 352 271
0.038824059 0.671 -0.036471087 1.85247e-38 353 271
0.040000543 0.671 -0.036471087 1.8524345e-38 354 271
0.041177034 0.671 -0.036471087 1.8432149e-38 355 271
0.042353518 0.671 -0.036471087 1.8431077e-38 356 271
0.043465134 0.67000002 -0.036416732 1.8338881e-38 357 271
0.044639867 0.67000002 -0.036416732 1.8063371e-38 358 271
0.0458146 0.67000002 -0.036416732 1.7786782e-38 359 271
0.047059465 0.671 -0.036471087 1.751055e-38 360 271
0.04830784 0.67199999 -0.036525436 1.7418354e-38 361 271
0.049633358 0.67400002 -0.036634147 1.7051012e-38 362 271
0.050815105 0.67400002 -0.036634147 1.6958817e-38 363 271
0.051996857 0.67400002 -0.036634147 1.6682234e-38 364 271
0.053178601 0.67400002 -0.036634147 1.6590038e-38 365 271
0.054441001 0.67500001 -0.036688499 1.640529e-38 366 271
0.0556245 0.67500001 -0.036688499 1.6036867e-38 367 271
0.057144642 0.67900002 -0.036905911 1.5485131e-38 368 271
0.05867881 0.68300003 -0.037123326 1.5024155e-38 369 271
0.059876334 0.68300003 -0.037123326 1.4101873e-38 370 271
0.061073858 0.68300003 -0.037123326 1.3917123e-38 371 271
0.06227139 0.68300003 -0.037123326 1.5397354e-38 372 271
0.063375987 0.68199998 -0.037068974 1.7333462e-38 373 271
0.064571753 0.68199998 -0.037068974 1.7242028e-38 374 271
0.030543067 0.67000002 -0.037591465 1.7878975e-38 346 272
0.0317178 0.67000002 -0.037591465 1.8063727e-38 347 272
0.032892533 0.67000002 -0.037591465 1.8155922e-38 348 272
0.034067266 0.67000002 -0.037591465 1.8339953e-38 349 272
0.035241999 0.67000002 -0.037591465 1.8432149e-38 350 272
0.036416732 0.67000002 -0.037591465 1.8432149e-38 351 272
0.037591465 0.67000002 -0.037591465 1.8341032e-38 352 272
0.038766202 0.67000002 -0.037591465 1.8433228e-38 353 272
0.039940935 0.67000002 -0.037591465 1.8432149e-38 354 272
0.041115668 0.67000002 -0.037591465 1.8339953e-38 355 272
0.042290401 0.67000002 -0.037591465 1.8521828e-38 356 272
0.043335386 0.66799998 -0.037479252 1.8337435e-38 357 272
0.044506609 0.66799998 -0.037479252 1.7786417e-38 358 272
0.045677837 0.66799998 -0.037479252 1.7693862e-38 359 272
0.047059465 0.671 -0.037647571 1.7234681e-38 360 272
0.048235953 0.671 -0.037647571 1.7234681e-38 361 272
0.049412437 0.671 -0.037647571 1.704994e-38 362 272
0.050588924 0.671 -0.037647571 1.6957745e-38 363 272
0.051765412 0.671 -0.037647571 1.6682237e-38 364 272
0.052941896 0.671 -0.037647571 1.6497846e-38 365 272
0.054360349 0.67400002 -0.037815895 1.6037949e-38 366 272
0.055542093 0.67400002 -0.037815895 1.5761722e-38 367 272
0.056808002 0.67500001 -0.037871998 1.5209273e-38 368 272
0.058077414 0.676 -0.037928104 1.4748296e-38 369 272
0.059788663 0.68199998 -0.038264744 1.4102236e-38 370 272
0.060984433 0.68199998 -0.038264744 1.3733814e-38 371 272
0.062180214 0.68199998 -0.038264744 1.5397351e-38 372 272
0.063375987 0.68199998 -0.038264744 1.7333459e-38 373 272
0.064571753 0.68199998 -0.038264744 1.7242028e-38 374 272
0.022319933 0.67000002 -0.038766202 1.3275429e-38 339 273
0.023424532 0.66799998 -0.038650475 1.3735644e-38 340 273
0.02459576 0.66799998 -0.038650475 1.5579555e-38 341 273
0.026897885 0.667 -0.038592618 1.6866648e-38 343 273
0.028067358 0.667 -0.038592618 1.7327253e-38 344 273
0.029236831 0.667 -0.038592618 1.760348e-38 345 273
0.030406304 0.667 -0.038592618 1.7971176e-38 346 273
0.03157578 0.667 -0.038592618 1.8063373e-38 347 273
0.032745253 0.667 -0.038592618 1.8064092e-38 348 273
0.033914726 0.667 -0.038592618 1.8064092e-38 349 273
0.035031598 0.66600001 -0.03853476 1.8248484e-38 350 273
0.03619932 0.66600001 -0.03853476 1.8248484e-38 351 273
0.037423145 0.667 -0.038592618 1.8524345e-38 352 273
0.03853476 0.66600001 -0.03853476 1.8524345e-38 353 273
0.039702479 0.66600001 -0.03853476 1.843143e-38 354 273
0.040870197 0.66600001 -0.03853476 1.8062646e-38 355 273
0.042101037 0.667 -0.038592618 1.8061571e-38 356 273
0.04327051 0.667 -0.038592618 1.7969376e-38 357 273
0.044439986 0.667 -0.038592618 1.7602022e-38 358 273
0.045609459 0.667 -0.038592618 1.7417271e-38 359 273
0.046849065 0.66799998 -0.038650475 1.7050293e-38 360 273
0.048020288 0.66799998 -0.038650475 1.7050293e-38 361 273
0.04919152 0.66799998 -0.038650475 1.6682603e-38 362 273
0.050513536 0.67000002 -0.038766202 1.6590407e-38 363 273
0.051688269 0.67000002 -0.038766202 1.6314177e-38 364 273
0.052863002 0.67000002 -0.038766202 1.6129785e-38 365 273
0.054199036 0.67199999 -0.03888192 1.6129779e-38 366 273
0.055377278 0.67199999 -0.03888192 1.5945388e-38 367 273
0.056723841 0.67400002 -0.038997639 1.5484415e-38 368 273
0.057905588 0.67400002 -0.038997639 1.520747e-38 369 273
0.059262663 0.676 -0.039113361 1.4101523e-38 370 273
0.060984433 0.68199998 -0.039460517 1.373238e-38 371 273
0.062180214 0.68199998 -0.039460517 1.5396998e-38 372 273
0.063190132 0.68000001 -0.039344799 1.7333106e-38 373 273
0.064382397 0.68000001 -0.039344799 1.7057638e-38 374 273
0.022253305 0.66799998 -0.039821707 1.3183584e-38 339 274
0.023389466 0.667 -0.039762091 1.4011138e-38 340 274
0.024558939 0.667 -0.039762091 1.585505e-38 341 274
0.025728412 0.667 -0.039762091 1.6958116e-38 342 274
0.026897885 0.667 -0.039762091 1.7142509e-38 343 274
0.028067358 0.667 -0.039762091 1.7511635e-38 344 274
0.029236831 0.667 -0.039762091 1.7696385e-38 345 274
0.030406304 0.667 -0.039762091 1.7788214e-38 346 274
0.03157578 0.667 -0.039762091 1.7972247e-38 347 274
0.032696161 0.66600001 -0.039702479 1.8063371e-38 348 274
0.03386388 0.66600001 -0.039702479 1.8155566e-38 349 274
0.034873798 0.66299999 -0.039523639 1.8248837e-38 350 274
0.036036257 0.66299999 -0.039523639 1.8248837e-38 351 274
0.037198719 0.66299999 -0.039523639 1.8432505e-38 352 274
0.038361177 0.66299999 -0.039523639 1.8432505e-38 353 274
0.039523639 0.66299999 -0.039523639 1.8154839e-38 354 274
0.040686097 0.66299999 -0.039523639 1.7601667e-38 355 274
0.041848559 0.66299999 -0.039523639 1.7692066e-38 356 274
0.043075889 0.66399997 -0.039583251 1.7692066e-38 357 274
0.04437336 0.66600001 -0.039702479 1.7234681e-38 358 274
0.045541082 0.66600001 -0.039702479 1.7050649e-38 359 274
0.046708796 0.66600001 -0.039702479 1.6958101e-38 360 274
0.047948405 0.667 -0.039762091 1.6865546e-38 361 274
0.049117878 0.667 -0.039762091 1.6589685e-38 362 274
0.050362743 0.66799998 -0.039821707 1.649749e-38 363 274
0.051533967 0.66799998 -0.039821707 1.640529e-38 364 274
0.052705199 0.66799998 -0.039821707 1.6313094e-38 365 274
0.054037735 0.67000002 -0.039940935 1.5854274e-38 366 274
0.055212468 0.67000002 -0.039940935 1.5669524e-38 367 274
0.056387197 0.67000002 -0.039940935 1.5025608e-38 368 274
0.057647847 0.671 -0.040000543 1.4656467e-38 369 274
0.059087332 0.67400002 -0.040179387 1.3918576e-38 370 274
0.060716182 0.67900002 -0.040477451 1.3733826e-38 371 274
0.062180214 0.68199998 -0.040656291 1.5581748e-38 372 274
0.063190132 0.68000001 -0.040537067 1.7333106e-38 373 274
0.022253305 0.66799998 -0.040992931 1.3459445e-38 339 275
0.023389466 0.667 -0.040931564 1.4655062e-38 340 275
0.024558939 0.667 -0.040931564 1.6222388e-38 341 275
0.02568984 0.66600001 -0.040870197 1.7142862e-38 342 275
0.026857559 0.66600001 -0.040870197 1.7327253e-38 343 275
0.028025279 0.66600001 -0.040870197 1.7604189e-38 344 275
0.029192999 0.66600001 -0.040870197 1.7604189e-38 345 275
0.030360719 0.66600001 -0.040870197 1.7971891e-38 346 275
0.031528439 0.66600001 -0.040870197 1.7971891e-38 347 275
0.03259797 0.66399997 -0.040747464 1.8063373e-38 348 275
0.033762183 0.66399997 -0.040747464 1.8155569e-38 349 275
0.034821201 0.662 -0.04062473 1.8248839e-38 350 275
0.035981905 0.662 -0.04062473 1.8248839e-38 351 275
0.037086505 0.66100001 -0.040563367 1.8432502e-38 352 275
0.038245458 0.66100001 -0.040563367 1.8156275e-38 353 275
0.039404415 0.66100001 -0.040563367 1.8246672e-38 354 275
0.040563367 0.66100001 -0.040563367 1.7969726e-38 355 275
0.04172232 0.66100001 -0.040563367 1.750947e-38 356 275
0.043011017 0.66299999 -0.040686097 1.750947e-38 357 275
0.044173479 0.66299999 -0.040686097 1.7233606e-38 358 275
0.045335937 0.66299999 -0.040686097 1.714141e-38 359 275
0.046568532 0.66399997 -0.040747464 1.659076e-38 360 275
0.047732744 0.66399997 -0.040747464 1.6498564e-38 361 275
0.049117878 0.667 -0.040931564 1.6497492e-38 362 275
0.050287351 0.667 -0.040931564 1.6405297e-38 363 275
0.051456824 0.667 -0.040931564 1.6038305e-38 364 275
0.052626297 0.667 -0.040931564 1.5854274e-38 365 275
0.054037735 0.67000002 -0.041115668 1.5945391e-38 366 275
0.055212468 0.67000002 -0.041115668 1.5760641e-38 367 275
0.056387197 0.67000002 -0.041115668 1.5024176e-38 368 275
0.057647847 0.671 -0.041177034 1.4471002e-38 369 275
0.059087332 0.67400002 -0.041361131 1.3458684e-38 370 275
0.060716182 0.67900002 -0.041667968 1.3643075e-38 371 275
0.061997864 0.68000001 -0.041729335 1.5674664e-38 372 275
0.023389466 0.667 -0.042101037 1.5114243e-38 340 276
0.02452212 0.66600001 -0.042037919 1.686596e-38 341 276
0.02568984 0.66600001 -0.042037919 1.7327256e-38 342 276
0.026857559 0.66600001 -0.042037919 1.7511287e-38 343 276
0.027941117 0.66399997 -0.041911677 1.7695663e-38 344 276
0.02910533 0.66399997 -0.041911677 1.7695663e-38 345 276
0.030269546 0.66399997 -0.041911677 1.7971174e-38 346 276
0.031433757 0.66399997 -0.041911677 1.8063371e-38 347 276
0.03259797 0.66399997 -0.041911677 1.7971541e-38 348 276
0.033609647 0.66100001 -0.04172232 1.8063736e-38 349 276
0.0347686 0.66100001 -0.04172232 1.8156641e-38 350 276
0.035818845 0.65899998 -0.041596077 1.8248837e-38 351 276
0.036974292 0.65899998 -0.041596077 1.8340306e-38 352 276
0.038129739 0.65899998 -0.041596077 1.8156275e-38 353 276
0.039285187 0.65899998 -0.041596077 1.8154836e-38 354 276
0.04044063 0.65899998 -0.041596077 1.7878609e-38 355 276
0.041596077 0.65899998 -0.041596077 1.7510906e-38 356 276
0.042881273 0.66100001 -0.04172232 1.7233959e-38 357 276
0.044106852 0.662 -0.041785441 1.6958098e-38 358 276
0.045335937 0.66299999 -0.041848559 1.6865902e-38 359 276
0.046498399 0.66299999 -0.041848559 1.6590041e-38 360 276
0.047732744 0.66399997 -0.041911677 1.6497846e-38 361 276
0.048896957 0.66399997 -0.041911677 1.6313097e-38 362 276
0.050211959 0.66600001 -0.042037919 1.6313097e-38 363 276
0.051379681 0.66600001 -0.042037919 1.6037586e-38 364 276
0.052547399 0.66600001 -0.042037919 1.5945391e-38 365 276
0.05379577 0.667 -0.042101037 1.5577331e-38 366 276
0.05504765 0.66799998 -0.042164158 1.539258e-38 367 276
0.056387197 0.67000002 -0.042290401 1.4380971e-38 368 276
0.057647847 0.671 -0.042353518 1.3827797e-38 369 276
0.058911994 0.67199999 -0.042416636 1.318282e-38 370 276
0.0608056 0.68000001 -0.042921599 1.3551602e-38 371 276
0.061997864 0.68000001 -0.042921599 1.576686e-38 372 276
0.02433802 0.66100001 -0.042881273 1.7234016e-38 341 277
0.025496973 0.66100001 -0.042881273 1.7878628e-38 342 277
0.026655925 0.66100001 -0.042881273 1.7878628e-38 343 277
0.02781488 0.66100001 -0.042881273 1.7878978e-38 344 277
0.029061496 0.66299999 -0.043011017 1.7878978e-38 345 277
0.030223956 0.66299999 -0.043011017 1.7971176e-38 346 277
0.031386416 0.66299999 -0.043011017 1.8063373e-38 347 277
0.032548878 0.66299999 -0.043011017 1.7788582e-38 348 277
0.033609647 0.66100001 -0.042881273 1.7880777e-38 349 277
0.034663398 0.65899998 -0.042751525 1.788113e-38 350 277
0.035764489 0.65799999 -0.042686652 1.788113e-38 351 277
0.036862079 0.65700001 -0.04262178 1.8156275e-38 352 277
0.038014017 0.65700001 -0.04262178 1.8063721e-38 353 277
0.039165959 0.65700001 -0.04262178 1.7879331e-38 354 277
0.0403179 0.65700001 -0.04262178 1.7694581e-38 355 277
0.041469838 0.65700001 -0.04262178 1.7509472e-38 356 277
0.04262178 0.65700001 -0.04262178 1.7140691e-38 357 277
0.043906972 0.65899998 -0.042751525 1.6772632e-38 358 277
0.045199182 0.66100001 -0.042881273 1.6772632e-38 359 277
0.046428263 0.662 -0.042946145 1.6405293e-38 360 277
0.047660857 0.66299999 -0.043011017 1.6313097e-38 361 277
0.048896957 0.66399997 -0.043075889 1.6037233e-38 362 277
0.05006117 0.66399997 -0.043075889 1.5945038e-38 363 277
0.051379681 0.66600001 -0.043205637 1.566953e-38 364 277
0.052547399 0.66600001 -0.043205637 1.566953e-38 365 277
0.05379577 0.667 -0.04327051 1.5301114e-38 366 277
0.05504765 0.66799998 -0.043335386 1.474794e-38 367 277
0.056218877 0.66799998 -0.043335386 1.4195504e-38 368 277
0.057561934 0.67000002 -0.043465134 1.3734886e-38 369 277
0.058824331 0.671 -0.043530006 1.3089905e-38 370 277
0.060000818 0.671 -0.043530006 1.3550883e-38 371 277
0.023179067 0.66100001 -0.044040225 1.6220925e-38 340 278
0.024264378 0.65899998 -0.043906972 1.7235076e-38 341 278
0.025419824 0.65899998 -0.043906972 1.8062646e-38 342 278
0.026575271 0.65899998 -0.043906972 1.8062646e-38 343 278
0.027730718 0.65899998 -0.043906972 1.8062646e-38 344 278
0.029017664 0.662 -0.044106852 1.8154842e-38 345 278
0.030041611 0.65899998 -0.043906972 1.7971174e-38 346 278
0.031197058 0.65899998 -0.043906972 1.8063371e-38 347 278
0.032352503 0.65899998 -0.043906972 1.7971894e-38 348 278
0.033507951 0.65899998 -0.043906972 1.8064089e-38 349 278
0.034610797 0.65799999 -0.043840345 1.7971891e-38 350 278
0.035710141 0.65700001 -0.043773718 1.7971891e-38 351 278
0.036862079 0.65700001 -0.043773718 1.7972247e-38 352 278
0.037898298 0.65499997 -0.043640465 1.7788214e-38 353 278
0.039046731 0.65499997 -0.043640465 1.7603464e-38 354 278
0.040195163 0.65499997 -0.043640465 1.7326878e-38 355 278
0.041343596 0.65499997 -0.043640465 1.7141766e-38 356 278
0.042492028 0.65499997 -0.043640465 1.6588592e-38 357 278
0.043773718 0.65700001 -0.043773718 1.6312375e-38 358 278
0.044994038 0.65799999 -0.043840345 1.6404571e-38 359 278
0.046217863 0.65899998 -0.043906972 1.6037236e-38 360 278
0.047588971 0.662 -0.044106852 1.6037236e-38 361 278
0.048896957 0.66399997 -0.044240102 1.5852486e-38 362 278
0.05006117 0.66399997 -0.044240102 1.5852486e-38 363 278
0.051379681 0.66600001 -0.04437336 1.5393666e-38 364 278
0.052547399 0.66600001 -0.04437336 1.530147e-38 365 278
0.05379577 0.667 -0.044439986 1.5391879e-38 366 278
0.054965243 0.667 -0.044439986 1.4562479e-38 367 278
0.056218877 0.66799998 -0.044506609 1.3734898e-38 368 278
0.057390101 0.66799998 -0.044506609 1.3550867e-38 369 278
0.058736663 0.67000002 -0.044639867 1.3090274e-38 370 278
0.0599114 0.67000002 -0.044639867 1.336722e-38 371 278
0.023179067 0.66100001 -0.045199182 1.7510218e-38 340 279
0.024117097 0.65499997 -0.044788897 1.7786806e-38 341 279
0.025265532 0.65499997 -0.044788897 1.7696019e-38 342 279
0.026413966 0.65499997 -0.044788897 1.7696019e-38 343 279
0.027646558 0.65700001 -0.04492566 1.7971527e-38 344 279
0.028798498 0.65700001 -0.04492566 1.7971527e-38 345 279
0.02995044 0.65700001 -0.04492566 1.7971527e-38 346 279
0.03110238 0.65700001 -0.04492566 1.7971527e-38 347 279
0.03225432 0.65700001 -0.04492566 1.7788214e-38 348 279
0.033507951 0.65899998 -0.045062415 1.7788214e-38 349 279
0.034558199 0.65700001 -0.04492566 1.8062643e-38 350 279
0.03560143 0.65499997 -0.044788897 1.8062643e-38 351 279
0.036749862 0.65499997 -0.044788897 1.778713e-38 352 279
0.037840437 0.65399998 -0.044720516 1.732651e-38 353 279
0.038987119 0.65399998 -0.044720516 1.7142116e-38 354 279
0.040133797 0.65399998 -0.044720516 1.6865531e-38 355 279
0.041280478 0.65399998 -0.044720516 1.6498196e-38 356 279
0.042492028 0.65499997 -0.044788897 1.6313444e-38 357 279
0.043640465 0.65499997 -0.044788897 1.6312731e-38 358 279
0.044788897 0.65499997 -0.044788897 1.6220177e-38 359 279
0.046077598 0.65700001 -0.04492566 1.5944672e-38 360 279
0.047301427 0.65799999 -0.044994038 1.5944672e-38 361 279
0.048749682 0.662 -0.04526756 1.5852842e-38 362 279
0.05006117 0.66399997 -0.045404319 1.5760646e-38 363 279
0.051225383 0.66399997 -0.045404319 1.530147e-38 364 279
0.052547399 0.66600001 -0.045541082 1.5116719e-38 365 279
0.053715117 0.66600001 -0.045541082 1.4747593e-38 366 279
0.054965243 0.667 -0.045609459 1.4010028e-38 367 279
0.056134716 0.667 -0.045609459 1.3458316e-38 368 279
0.057390101 0.66799998 -0.045677837 1.3550511e-38 369 279
0.058736663 0.67000002 -0.0458146 1.318247e-38 370 279
0.0599114 0.67000002 -0.0458146 1.3643447e-38 371 279
0.021753605 0.653 -0.045797065 1.6868503e-38 339 280
0.022933599 0.65399998 -0.045867197 1.760313e-38 340 280
0.024080278 0.65399998 -0.045867197 1.7695327e-38 341 280
0.025226958 0.65399998 -0.045867197 1.7878975e-38 342 280
0.026333313 0.653 -0.045797065 1.7971529e-38 343 280
0.027478239 0.653 -0.045797065 1.7971524e-38 344 280
0.028798498 0.65700001 -0.046077598 1.7971524e-38 345 280
0.029813679 0.65399998 -0.045867197 1.8155545e-38 346 280
0.030960357 0.65399998 -0.045867197 1.8247742e-38 347 280
0.03210704 0.65399998 -0.045867197 1.8155189e-38 348 280
0.033253718 0.65399998 -0.045867197 1.8155189e-38 349 280
0.034347799 0.653 -0.045797065 1.7879328e-38 350 280
0.035492726 0.653 -0.045797065 1.7694937e-38 351 280
0.036693759 0.65399998 -0.045867197 1.7418001e-38 352 280
0.03778258 0.653 -0.045797065 1.7233609e-38 353 280
0.038927507 0.653 -0.045797065 1.7049217e-38 354 280
0.04007243 0.653 -0.045797065 1.6772632e-38 355 280
0.041217357 0.653 -0.045797065 1.631345e-38 356 280
0.042362284 0.653 -0.045797065 1.6036865e-38 357 280
0.043573838 0.65399998 -0.045867197 1.5944316e-38 358 280
0.044720516 0.65399998 -0.045867197 1.603687e-38 359 280
0.045867197 0.65399998 -0.045867197 1.566953e-38 360 280
0.047085766 0.65499997 -0.04593733 1.566953e-38 361 280
0.048234195 0.65499997 -0.04593733 1.539331e-38 362 280
0.049985778 0.66299999 -0.046498399 1.5301114e-38 363 280
0.051225383 0.66399997 -0.046568532 1.5208917e-38 364 280
0.052389596 0.66399997 -0.046568532 1.4655745e-38 365 280
0.053715117 0.66600001 -0.046708796 1.3919993e-38 366 280
0.054965243 0.667 -0.046778932 1.3735602e-38 367 280
0.056134716 0.667 -0.046778932 1.3551236e-38 368 280
0.057390101 0.66799998 -0.046849065 1.3458681e-38 369 280
0.058736663 0.67000002 -0.046989333 1.3183918e-38 370 280
0.020608678 0.653 -0.046941992 1.8159592e-38 338 281
0.021753605 0.653 -0.046941992 1.7052884e-38 339 281
0.022898532 0.653 -0.046941992 1.7970826e-38 340 281
0.024006641 0.65200001 -0.046870105 1.7970826e-38 341 281
0.025149813 0.65200001 -0.046870105 1.7879331e-38 342 281
0.026212333 0.64999998 -0.046726331 1.7879331e-38 343 281
0.027351998 0.64999998 -0.046726331 1.797188e-38 344 281
0.028491667 0.64999998 -0.046726331 1.8064077e-38 345 281
0.029768093 0.653 -0.046941992 1.8064074e-38 346 281
0.030770998 0.64999998 -0.046726331 1.8064074e-38 347 281
0.031910665 0.64999998 -0.046726331 1.8064077e-38 348 281
0.033050328 0.64999998 -0.046726331 1.797188e-38 349 281
0.034189999 0.64999998 -0.046726331 1.7787133e-38 350 281
0.035329666 0.64999998 -0.046726331 1.7326154e-38 351 281
0.036581546 0.65200001 -0.046870105 1.7416558e-38 352 281
0.037724718 0.65200001 -0.046870105 1.7324003e-38 353 281
0.038748663 0.64999998 -0.046726331 1.6772988e-38 354 281
0.039888334 0.64999998 -0.046726331 1.6680791e-38 355 281
0.041027997 0.64999998 -0.046726331 1.622018e-38 356 281
0.042297412 0.65200001 -0.046870105 1.6127984e-38 357 281
0.043507211 0.653 -0.046941992 1.5851767e-38 358 281
0.044652138 0.653 -0.046941992 1.5851767e-38 359 281
0.045797065 0.653 -0.046941992 1.5576981e-38 360 281
0.047013879 0.65399998 -0.047013879 1.5484427e-38 361 281
0.048234195 0.65499997 -0.047085766 1.5209273e-38 362 281
0.049608808 0.65799999 -0.047301427 1.5116719e-38 363 281
0.051148236 0.66299999 -0.047660857 1.4747943e-38 364 281
0.052389596 0.66399997 -0.047732744 1.4010378e-38 365 281
0.053553808 0.66399997 -0.047732744 1.3824926e-38 366 281
0.054882839 0.66600001 -0.047876518 1.3917123e-38 367 281
0.056134716 0.667 -0.047948405 1.3366486e-38 368 281
0.021653665 0.64999998 -0.047865998 1.7052153e-38 339 282
0.022793332 0.64999998 -0.047865998 1.7787864e-38 340 282
0.023896178 0.64899999 -0.047792356 1.769531e-38 341 282
0.025034092 0.64899999 -0.047792356 1.7788214e-38 342 282
0.02613168 0.648 -0.047718719 1.7788214e-38 343 282
0.027225759 0.64700001 -0.047645077 1.7971524e-38 344 282
0.028360168 0.64700001 -0.047645077 1.8063721e-38 345 282
0.029585747 0.64899999 -0.047792356 1.815627e-38 346 282
0.030628979 0.64700001 -0.047645077 1.8064074e-38 347 282
0.031763386 0.64700001 -0.047645077 1.8155189e-38 348 282
0.032897793 0.64700001 -0.047645077 1.8062994e-38 349 282
0.034084801 0.648 -0.047718719 1.7786417e-38 350 282
0.035220958 0.648 -0.047718719 1.7601667e-38 351 282
0.036413226 0.64899999 -0.047792356 1.7232887e-38 352 282
0.037551139 0.64899999 -0.047792356 1.69563e-38 353 282
0.038689051 0.64899999 -0.047792356 1.6404924e-38 354 282
0.039888334 0.64999998 -0.047865998 1.6220533e-38 355 282
0.041027997 0.64999998 -0.047865998 1.5852839e-38 356 282
0.042167664 0.64999998 -0.047865998 1.5576612e-38 357 282
0.04330733 0.64999998 -0.047865998 1.5483709e-38 358 282
0.044652138 0.653 -0.048086919 1.5575906e-38 359 282
0.045797065 0.653 -0.048086919 1.5208567e-38 360 282
0.046941992 0.653 -0.048086919 1.5208567e-38 361 282
0.048234195 0.65499997 -0.048234195 1.4840861e-38 362 282
0.049382631 0.65499997 -0.048234195 1.4563915e-38 363 282
0.050762504 0.65799999 -0.048455119 1.4195141e-38 364 282
0.052310698 0.66299999 -0.048823316 1.3918195e-38 365 282
0.053553808 0.66399997 -0.048896957 1.3641261e-38 366 282
0.054882839 0.66600001 -0.04904424 1.3641261e-38 367 282
0.056134716 0.667 -0.049117878 1.3366486e-38 368 282
0.018122453 0.64600003 -0.048704095 1.8529116e-38 336 283
0.019255107 0.64600003 -0.048704095 1.7053986e-38 337 283
0.020387759 0.64600003 -0.048704095 1.7326918e-38 338 283
0.02158704 0.648 -0.04885488 1.7326918e-38 339 283
0.0227232 0.648 -0.04885488 1.769531e-38 340 283
0.023859359 0.648 -0.04885488 1.769531e-38 341 283
0.024995521 0.648 -0.04885488 1.7879331e-38 342 283
0.026091354 0.64700001 -0.048779488 1.7971527e-38 343 283
0.027225759 0.64700001 -0.048779488 1.8063724e-38 344 283
0.028360168 0.64700001 -0.048779488 1.8155919e-38 345 283
0.029494572 0.64700001 -0.048779488 1.8247392e-38 346 283
0.030581642 0.64600003 -0.048704095 1.8154836e-38 347 283
0.031714294 0.64600003 -0.048704095 1.7879328e-38 348 283
0.032846946 0.64600003 -0.048704095 1.7694937e-38 349 283
0.033979602 0.64600003 -0.048704095 1.7326875e-38 350 283
0.035112254 0.64600003 -0.048704095 1.6958451e-38 351 283
0.036301013 0.64700001 -0.048779488 1.6865536e-38 352 283
0.037493281 0.648 -0.04885488 1.6680785e-38 353 283
0.038629439 0.648 -0.04885488 1.5945741e-38 354 283
0.039826967 0.64899999 -0.048930272 1.5576958e-38 355 283
0.040964879 0.64899999 -0.048930272 1.5484415e-38 356 283
0.042167664 0.64999998 -0.049005665 1.5391861e-38 357 283
0.04330733 0.64999998 -0.049005665 1.511565e-38 358 283
0.044583756 0.65200001 -0.049156453 1.5207845e-38 359 283
0.045797065 0.653 -0.049231846 1.4839789e-38 360 283
0.046941992 0.653 -0.049231846 1.4747593e-38 361 283
0.048160557 0.65399998 -0.049307238 1.45632e-38 362 283
0.049382631 0.65499997 -0.049382631 1.4286255e-38 363 283
0.050531063 0.65499997 -0.049382631 1.3549418e-38 364 283
0.051995095 0.65899998 -0.049684204 1.3549418e-38 365 283
0.053473156 0.66299999 -0.049985778 1.3274273e-38 366 283
0.054882839 0.66600001 -0.050211959 1.3274273e-38 367 283
0.056134716 0.667 -0.050287351 1.3183529e-38 368 283
0.0169372 0.64399999 -0.049682453 1.7977775e-38 335 284
0.018122453 0.64600003 -0.049836747 1.7882651e-38 336 284
0.019255107 0.64600003 -0.049836747 1.6684109e-38 337 284
0.020387759 0.64600003 -0.049836747 1.7418019e-38 338 284
0.021520413 0.64600003 -0.049836747 1.7510215e-38 339 284
0.022653066 0.64600003 -0.049836747 1.7786426e-38 340 284
0.023822539 0.64700001 -0.049913891 1.7878981e-38 341 284
0.024918374 0.64600003 -0.049836747 1.7787858e-38 342 284
0.026051028 0.64600003 -0.049836747 1.7971891e-38 343 284
0.027099518 0.64399999 -0.049682453 1.8063724e-38 344 284
0.028228667 0.64399999 -0.049682453 1.8063724e-38 345 284
0.029448988 0.64600003 -0.049836747 1.8247389e-38 346 284
0.03048696 0.64399999 -0.049682453 1.8062996e-38 347 284
0.031616107 0.64399999 -0.049682453 1.7878963e-38 348 284
0.032745253 0.64399999 -0.049682453 1.7602017e-38 349 284
0.0338744 0.64399999 -0.049682453 1.6775855e-38 350 284
0.035112254 0.64600003 -0.049836747 1.6314878e-38 351 284
0.036244906 0.64600003 -0.049836747 1.6405277e-38 352 284
0.03743542 0.64700001 -0.049913891 1.6128332e-38 353 284
0.038569827 0.64700001 -0.049913891 1.5576961e-38 354 284
0.0397656 0.648 -0.049991041 1.539257e-38 355 284
0.040964879 0.64899999 -0.050068185 1.5116356e-38 356 284
0.042102791 0.64899999 -0.050068185 1.502416e-38 357 284
0.04330733 0.64999998 -0.050145328 1.474759e-38 358 284
0.044583756 0.65200001 -0.050299626 1.4655395e-38 359 284
0.045726933 0.65200001 -0.050299626 1.483871e-38 360 284
0.046870105 0.65200001 -0.050299626 1.4469927e-38 361 284
0.048086919 0.653 -0.050376773 1.4102226e-38 362 284
0.049307238 0.65399998 -0.050453916 1.3917476e-38 363 284
0.050531063 0.65499997 -0.050531063 1.3365027e-38 364 284
0.051837299 0.65700001 -0.050685361 1.3365027e-38 365 284
0.053150542 0.65899998 -0.050839648 1.2998765e-38 366 284
0.054718021 0.66399997 -0.051225383 1.2998765e-38 367 284
0.0169372 0.64399999 -0.050811596 1.7424954e-38 335 285
0.018066347 0.64399999 -0.050811596 1.7236184e-38 336 285
0.019195493 0.64399999 -0.050811596 1.668301e-38 337 285
0.02032464 0.64399999 -0.050811596 1.7418723e-38 338 285
0.021453787 0.64399999 -0.050811596 1.7603114e-38 339 285
0.022653066 0.64600003 -0.0509694 1.760347e-38 340 285
0.023785722 0.64600003 -0.0509694 1.7695666e-38 341 285
0.024918374 0.64600003 -0.0509694 1.7787858e-38 342 285
0.025970373 0.64399999 -0.050811596 1.7971891e-38 343 285
0.027099518 0.64399999 -0.050811596 1.8063721e-38 344 285
0.028228667 0.64399999 -0.050811596 1.8063721e-38 345 285
0.029357811 0.64399999 -0.050811596 1.7879681e-38 346 285
0.030439619 0.64300001 -0.050732698 1.7787486e-38 347 285
0.031567011 0.64300001 -0.050732698 1.7327225e-38 348 285
0.032694403 0.64300001 -0.050732698 1.7050997e-38 349 285
0.033821799 0.64300001 -0.050732698 1.6498909e-38 350 285
0.035003547 0.64399999 -0.050811596 1.6130485e-38 351 285
0.036132693 0.64399999 -0.050811596 1.5760994e-38 352 285
0.037377559 0.64600003 -0.0509694 1.539257e-38 353 285
0.038510215 0.64600003 -0.0509694 1.5116356e-38 354 285
0.039642867 0.64600003 -0.0509694 1.502416e-38 355 285
0.040901758 0.648 -0.051127199 1.4655397e-38 356 285
0.042037919 0.648 -0.051127199 1.45632e-38 357 285
0.043240704 0.64899999 -0.051206097 1.4379536e-38 358 285
0.044446997 0.64999998 -0.051284995 1.4286981e-38 359 285
0.045726933 0.65200001 -0.051442798 1.391928e-38 360 285
0.046870105 0.65200001 -0.051442798 1.3826725e-38 361 285
0.048086919 0.653 -0.0515217 1.3549418e-38 362 285
0.049307238 0.65399998 -0.051600594 1.3457223e-38 363 285
0.050531063 0.65499997 -0.051679496 1.3089882e-38 364 285
0.051679496 0.65499997 -0.051679496 1.3089882e-38 365 285
0.052989237 0.65700001 -0.051837299 1.2722904e-38 366 285
0.054718021 0.66399997 -0.052389596 1.2999131e-38 367 285
0.015783506 0.64300001 -0.051860094 1.8068876e-38 334 286
0.016910899 0.64300001 -0.051860094 1.6870333e-38 335 286
0.018038293 0.64300001 -0.051860094 1.6958506e-38 336 286
0.019165685 0.64300001 -0.051860094 1.7050701e-38 337 286
0.020293079 0.64300001 -0.051860094 1.7511272e-38 338 286
0.021420473 0.64300001 -0.051860094 1.7603467e-38 339 286
0.022582933 0.64399999 -0.051940747 1.7879684e-38 340 286
0.02371208 0.64399999 -0.051940747 1.7879684e-38 341 286
0.024841227 0.64399999 -0.051940747 1.8154836e-38 342 286
0.025970373 0.64399999 -0.051940747 1.8247392e-38 343 286
0.027057439 0.64300001 -0.051860094 1.8063721e-38 344 286
0.028184833 0.64300001 -0.051860094 1.7879328e-38 345 286
0.029312227 0.64300001 -0.051860094 1.7879679e-38 346 286
0.030392278 0.64200002 -0.051779442 1.7511256e-38 347 286
0.031517919 0.64200002 -0.051779442 1.7051353e-38 348 286
0.03264356 0.64200002 -0.051779442 1.6590015e-38 349 286
0.033769198 0.64200002 -0.051779442 1.6313435e-38 350 286
0.034949195 0.64300001 -0.051860094 1.5760261e-38 351 286
0.036076587 0.64300001 -0.051860094 1.5667359e-38 352 286
0.037261836 0.64399999 -0.051940747 1.5390772e-38 353 286
0.038390987 0.64399999 -0.051940747 1.4930887e-38 354 286
0.039642867 0.64600003 -0.052102055 1.483869e-38 355 286
0.04083864 0.64700001 -0.052182708 1.447028e-38 356 286
0.041973047 0.64700001 -0.052182708 1.4378085e-38 357 286
0.043174081 0.648 -0.05226336 1.4286252e-38 358 286
0.044446997 0.64999998 -0.052424666 1.3917828e-38 359 286
0.045726933 0.65200001 -0.052585974 1.3917828e-38 360 286
0.046870105 0.65200001 -0.052585974 1.3640882e-38 361 286
0.048086919 0.653 -0.052666627 1.2814006e-38 362 286
0.049231846 0.653 -0.052666627 1.3090232e-38 363 286
0.050531063 0.65499997 -0.052827932 1.290657e-38 364 286
0.051679496 0.65499997 -0.052827932 1.290657e-38 365 286
0.052827932 0.65499997 -0.052827932 1.2722902e-38 366 286
0.053976361 0.65499997 -0.052827932 1.2722902e-38 367 286
0.055124797 0.65499997 -0.052827932 1.272292e-38 368 286
0.014610525 0.64099997 -0.052822668 1.7886308e-38 333 287
0.015734414 0.64099997 -0.052822668 1.7514238e-38 334 287
0.016858298 0.64099997 -0.052822668 1.6592282e-38 335 287
0.01801024 0.64200002 -0.052905083 1.7233628e-38 336 287
0.019135879 0.64200002 -0.052905083 1.7510215e-38 337 287
0.020261521 0.64200002 -0.052905083 1.7511269e-38 338 287
0.02138716 0.64200002 -0.052905083 1.7603464e-38 339 287
0.022512799 0.64200002 -0.052905083 1.7787133e-38 340 287
0.023675259 0.64300001 -0.052987486 1.7971524e-38 341 287
0.024802653 0.64300001 -0.052987486 1.7971527e-38 342 287
0.025889721 0.64200002 -0.052905083 1.8063724e-38 343 287
0.02701536 0.64200002 -0.052905083 1.7971524e-38 344 287
0.028141001 0.64200002 -0.052905083 1.7879328e-38 345 287
0.029266641 0.64200002 -0.052905083 1.741907e-38 346 287
0.030344937 0.64099997 -0.052822668 1.7234678e-38 347 287
0.031468827 0.64099997 -0.052822668 1.6498193e-38 348 287
0.03259271 0.64099997 -0.052822668 1.6037215e-38 349 287
0.033716597 0.64099997 -0.052822668 1.5760629e-38 350 287
0.034894839 0.64200002 -0.052905083 1.5391848e-38 351 287
0.03602048 0.64200002 -0.052905083 1.5115271e-38 352 287
0.037261836 0.64399999 -0.05306989 1.4746847e-38 353 287
0.038390987 0.64399999 -0.05306989 1.4195491e-38 354 287
0.03952013 0.64399999 -0.05306989 1.4103296e-38 355 287
0.040775519 0.64600003 -0.053234708 1.373488e-38 356 287
0.041908171 0.64600003 -0.053234708 1.3642683e-38 357 287
0.043107454 0.64700001 -0.053317111 1.3366819e-38 358 287
0.044310238 0.648 -0.053399518 1.3274624e-38 359 287
0.045586664 0.64999998 -0.053564329 1.3273554e-38 360 287
0.046870105 0.65200001 -0.053729147 1.3181359e-38 361 287
0.048086919 0.653 -0.05381155 1.2814371e-38 362 287
0.049231846 0.653 -0.05381155 1.2906567e-38 363 287
0.050453916 0.65399998 -0.053893957 1.2722902e-38 364 287
0.051600594 0.65399998 -0.053893957 1.2722902e-38 365 287
0.052827932 0.65499997 -0.053976361 1.2722551e-38 366 287
0.053976361 0.65499997 -0.053976361 1.2630356e-38 367 287
0.013486639 0.64099997 -0.053946555 1.8346918e-38 332 288
0.014610525 0.64099997 -0.053946555 1.7516798e-38 333 288
0.015734414 0.64099997 -0.053946555 1.6774493e-38 334 288
0.016858298 0.64099997 -0.053946555 1.6774493e-38 335 288
0.017982185 0.64099997 -0.053946555 1.7418367e-38 336 288
0.019106071 0.64099997 -0.053946555 1.7510921e-38 337 288
