# .PCD v.7 - Point Cloud Data file format
FIELDS x y z rgb imX imY
SIZE 4 4 4 4 4 4
TYPE F F F F F F
COUNT 1 1 1 1 1 1
WIDTH 833
HEIGHT 1
VIEWPOINT 0 0 0 1 0 0 0
POINTS 833
DATA ascii
0.01006764 0.63800001 -0.059287209 1.3270645e-38 329 293
0.011221332 0.63999999 -0.05947306 1.2994405e-38 330 293
0.012343466 0.63999999 -0.05947306 1.2625623e-38 331 293
0.013486639 0.64099997 -0.059565991 1.2350113e-38 332 293
0.014610525 0.64099997 -0.059565991 1.2350113e-38 333 293
0.01575896 0.64200002 -0.059658919 1.2166819e-38 334 293
0.016910899 0.64300001 -0.059751842 1.2443046e-38 335 293
0.018038293 0.64300001 -0.059751842 1.2534172e-38 336 293
0.019195493 0.64399999 -0.05984477 1.2534172e-38 337 293
0.020387759 0.64600003 -0.060030628 1.2351579e-38 338 293
0.021520413 0.64600003 -0.060030628 1.2351579e-38 339 293
0.022653066 0.64600003 -0.060030628 1.2076434e-38 340 293
0.023822539 0.64700001 -0.060123552 1.2076434e-38 341 293
0.024995521 0.648 -0.060216483 1.207608e-38 342 293
0.026172007 0.64899999 -0.060309403 1.2168636e-38 343 293
0.027351998 0.64999998 -0.060402326 1.2076804e-38 344 293
0.028623167 0.653 -0.060681112 1.2168999e-38 345 293
0.029813679 0.65399998 -0.060774036 1.2351593e-38 346 293
0.030960357 0.65399998 -0.060774036 1.2444147e-38 347 293
0.032156132 0.65499997 -0.060866963 1.2260832e-38 348 293
0.033304565 0.65499997 -0.060866963 1.2260832e-38 349 293
0.034452997 0.65499997 -0.060866963 1.2260479e-38 350 293
0.035710141 0.65700001 -0.061052818 1.2260479e-38 351 293
0.037086505 0.66100001 -0.061424527 1.1984983e-38 352 293
0.038303319 0.662 -0.061517447 1.1800591e-38 353 293
0.039464023 0.662 -0.061517447 1.1431475e-38 354 293
-0.031223357 0.63599998 -0.060216475 1.8530243e-38 292 294
-0.030108238 0.63599998 -0.060216475 1.8069623e-38 293 294
-0.028901944 0.634 -0.060027119 1.7790102e-38 294 294
-0.027702669 0.63200003 -0.059837762 1.6775951e-38 295 294
-0.026594561 0.63200003 -0.059837762 1.741622e-38 296 294
-0.025486453 0.63200003 -0.059837762 1.7785004e-38 297 294
-0.024378346 0.63200003 -0.059837762 1.7787864e-38 298 294
-0.02327024 0.63200003 -0.059837762 1.769531e-38 299 294
-0.022162134 0.63200003 -0.059837762 1.7604189e-38 300 294
-0.021054026 0.63200003 -0.059837762 1.7604189e-38 301 294
-0.01994592 0.63200003 -0.059837762 1.7603833e-38 302 294
-0.018808005 0.63099998 -0.059743073 1.7603833e-38 303 294
-0.017701652 0.63099998 -0.059743073 1.7786779e-38 304 294
-0.0165953 0.63099998 -0.059743073 1.7510553e-38 305 294
-0.015488946 0.63099998 -0.059743073 1.7142114e-38 306 294
-0.014382593 0.63099998 -0.059743073 1.6865887e-38 307 294
-0.013276239 0.63099998 -0.059743073 1.6496378e-38 308 294
-0.012169886 0.63099998 -0.059743073 1.6311987e-38 309 294
-0.011063533 0.63099998 -0.059743073 1.5668781e-38 310 294
-0.0099571794 0.63099998 -0.059743073 1.5207805e-38 311 294
-0.008850826 0.63099998 -0.059743073 1.493086e-38 312 294
-0.0077444729 0.63099998 -0.059743073 1.4378045e-38 313 294
-0.0066381195 0.63099998 -0.059743073 1.4102181e-38 314 294
-0.0055317665 0.63099998 -0.059743073 1.391779e-38 315 294
-0.004425413 0.63099998 -0.059743073 1.3824888e-38 316 294
-0.0033190597 0.63099998 -0.059743073 1.3824888e-38 317 294
-0.0022162134 0.63200003 -0.059837762 1.3365012e-38 318 294
-0.0011081067 0.63200003 -0.059837762 1.3272456e-38 319 294
0 0.63200003 -0.059837762 1.3087361e-38 320 294
0.0011116134 0.634 -0.060027119 1.3179557e-38 321 294
0.0022267331 0.63499999 -0.060121801 1.3087358e-38 322 294
0.0033453598 0.63599998 -0.060216475 1.3087358e-38 323 294
0.0044604796 0.63599998 -0.060216475 1.2904402e-38 324 294
0.0055755996 0.63599998 -0.060216475 1.2812206e-38 325 294
0.0066907196 0.63599998 -0.060216475 1.2812551e-38 326 294
0.0078181131 0.63700002 -0.060311161 1.2444127e-38 327 294
0.0089349868 0.63700002 -0.060311161 1.2810757e-38 328 294
0.01006764 0.63800001 -0.060405839 1.2626368e-38 329 294
0.011186266 0.63800001 -0.060405839 1.2534187e-38 330 294
0.012343466 0.63999999 -0.060595192 1.2441992e-38 331 294
0.013486639 0.64099997 -0.060689874 1.2166481e-38 332 294
0.014610525 0.64099997 -0.060689874 1.2166481e-38 333 294
0.01575896 0.64200002 -0.060784556 1.2166837e-38 334 294
0.016910899 0.64300001 -0.060879238 1.2259033e-38 335 294
0.018038293 0.64300001 -0.060879238 1.2166834e-38 336 294
0.019195493 0.64399999 -0.06097392 1.225903e-38 337 294
0.020387759 0.64600003 -0.061163284 1.2076436e-38 338 294
0.021520413 0.64600003 -0.061163284 1.2076436e-38 339 294
0.022688134 0.64700001 -0.061257958 1.1892768e-38 340 294
0.023822539 0.64700001 -0.061257958 1.1800573e-38 341 294
0.024995521 0.648 -0.06135264 1.2076086e-38 342 294
0.026172007 0.64899999 -0.061447315 1.2076086e-38 343 294
0.027351998 0.64999998 -0.061541997 1.2076806e-38 344 294
0.028623167 0.653 -0.061826039 1.2076806e-38 345 294
0.029768093 0.653 -0.061826039 1.2167927e-38 346 294
0.03091302 0.653 -0.061826039 1.2167927e-38 347 294
0.032057945 0.653 -0.061826039 1.207645e-38 348 294
0.033304565 0.65499997 -0.062015396 1.2168646e-38 349 294
0.034452997 0.65499997 -0.062015396 1.1892788e-38 350 294
0.03560143 0.65499997 -0.062015396 1.1708395e-38 351 294
-0.032338478 0.63599998 -0.061331596 1.8071069e-38 291 295
-0.031174263 0.63499999 -0.061235163 1.7792648e-38 292 295
-0.0300609 0.63499999 -0.061235163 1.7055083e-38 293 295
-0.028901944 0.634 -0.06113873 1.6866313e-38 294 295
-0.027702669 0.63200003 -0.060945868 1.6958508e-38 295 295
-0.026594561 0.63200003 -0.060945868 1.760347e-38 296 295
-0.025486453 0.63200003 -0.060945868 1.760347e-38 297 295
-0.024378346 0.63200003 -0.060945868 1.7786779e-38 298 295
-0.02327024 0.63200003 -0.060945868 1.7786779e-38 299 295
-0.022162134 0.63200003 -0.060945868 1.7603114e-38 300 295
-0.021020712 0.63099998 -0.060849428 1.7510918e-38 301 295
-0.019914359 0.63099998 -0.060849428 1.7510918e-38 302 295
-0.018778199 0.63 -0.060752999 1.7418723e-38 303 295
-0.017673599 0.63 -0.060752999 1.7050293e-38 304 295
-0.016569 0.63 -0.060752999 1.6865902e-38 305 295
-0.015464399 0.63 -0.060752999 1.6313432e-38 306 295
-0.014359799 0.63 -0.060752999 1.6036486e-38 307 295
-0.013255199 0.63 -0.060752999 1.5482947e-38 308 295
-0.0121506 0.63 -0.060752999 1.5206358e-38 309 295
-0.011063533 0.63099998 -0.060849428 1.4746103e-38 310 295
-0.0099571794 0.63099998 -0.060849428 1.4469875e-38 311 295
-0.008850826 0.63099998 -0.060849428 1.3917437e-38 312 295
-0.0077444729 0.63099998 -0.060849428 1.3548655e-38 313 295
-0.0066381195 0.63099998 -0.060849428 1.3456827e-38 314 295
-0.0055317665 0.63099998 -0.060849428 1.3180601e-38 315 295
-0.004425413 0.63099998 -0.060849428 1.2996219e-38 316 295
-0.0033190597 0.63099998 -0.060849428 1.2812188e-38 317 295
-0.0022127065 0.63099998 -0.060849428 1.299515e-38 318 295
-0.0011063532 0.63099998 -0.060849428 1.2626368e-38 319 295
0 0.63200003 -0.060945868 1.2810036e-38 320 295
0.0011116134 0.634 -0.06113873 1.271784e-38 321 295
0.0022232267 0.634 -0.06113873 1.271784e-38 322 295
0.0033400999 0.63499999 -0.061235163 1.2810036e-38 323 295
0.0044604796 0.63599998 -0.061331596 1.2534891e-38 324 295
0.0055755996 0.63599998 -0.061331596 1.2534891e-38 325 295
0.0066907196 0.63599998 -0.061331596 1.2166819e-38 326 295
0.0078058392 0.63599998 -0.061331596 1.1889872e-38 327 295
0.0089349868 0.63700002 -0.061428033 1.2625639e-38 328 295
0.01006764 0.63800001 -0.061524466 1.2625639e-38 329 295
0.011186266 0.63800001 -0.061524466 1.2350497e-38 330 295
0.012343466 0.63999999 -0.061717331 1.2166466e-38 331 295
0.013486639 0.64099997 -0.061813761 1.2166466e-38 332 295
0.014610525 0.64099997 -0.061813761 1.2166466e-38 333 295
0.01575896 0.64200002 -0.061910201 1.2074992e-38 334 295
0.016910899 0.64300001 -0.062006634 1.2074992e-38 335 295
0.018066347 0.64399999 -0.062103063 1.2166831e-38 336 295
0.019195493 0.64399999 -0.062103063 1.2166831e-38 337 295
0.02032464 0.64399999 -0.062103063 1.1983522e-38 338 295
0.021520413 0.64600003 -0.062295936 1.2167553e-38 339 295
0.022688134 0.64700001 -0.062392361 1.2167556e-38 340 295
0.023859359 0.648 -0.062488798 1.2167556e-38 341 295
0.024995521 0.648 -0.062488798 1.198389e-38 342 295
0.026172007 0.64899999 -0.062585227 1.2076086e-38 343 295
0.027351998 0.64999998 -0.062681668 1.216793e-38 344 295
0.028623167 0.653 -0.062970966 1.2075733e-38 345 295
0.029768093 0.653 -0.062970966 1.2075733e-38 346 295
0.03091302 0.653 -0.062970966 1.1983537e-38 347 295
0.032057945 0.653 -0.062970966 1.1800225e-38 348 295
0.033202872 0.653 -0.062970966 1.1800225e-38 349 295
-0.034460012 0.634 -0.062250346 1.8163268e-38 289 296
-0.0333484 0.634 -0.062250346 1.8438034e-38 290 296
-0.032236785 0.634 -0.062250346 1.7792665e-38 291 296
-0.031026987 0.63200003 -0.062053975 1.7605342e-38 292 296
-0.029918881 0.63200003 -0.062053975 1.6959973e-38 293 296
-0.028810775 0.63200003 -0.062053975 1.704959e-38 294 296
-0.027702669 0.63200003 -0.062053975 1.7326177e-38 295 296
-0.026552478 0.63099998 -0.061955784 1.7694934e-38 296 296
-0.025446124 0.63099998 -0.061955784 1.778713e-38 297 296
-0.024339773 0.63099998 -0.061955784 1.7511272e-38 298 296
-0.023233417 0.63099998 -0.061955784 1.7511272e-38 299 296
-0.022092 0.63 -0.061857596 1.7418367e-38 300 296
-0.020987399 0.63 -0.061857596 1.7326171e-38 301 296
-0.019851239 0.62900001 -0.061759409 1.7233977e-38 302 296
-0.018748393 0.62900001 -0.061759409 1.7049946e-38 303 296
-0.017645547 0.62900001 -0.061759409 1.6772632e-38 304 296
-0.016542701 0.62900001 -0.061759409 1.6496043e-38 305 296
-0.015464399 0.63 -0.061857596 1.6035769e-38 306 296
-0.014337006 0.62900001 -0.061759409 1.5574792e-38 307 296
-0.01323416 0.62900001 -0.061759409 1.4930497e-38 308 296
-0.012131313 0.62900001 -0.061759409 1.465355e-38 309 296
-0.011046 0.63 -0.061857596 1.4101465e-38 310 296
-0.0099414 0.63 -0.061857596 1.3824518e-38 311 296
-0.0088367993 0.63 -0.061857596 1.3272446e-38 312 296
-0.0077321995 0.63 -0.061857596 1.3272446e-38 313 296
-0.0066381195 0.63099998 -0.061955784 1.2995866e-38 314 296
-0.0055317665 0.63099998 -0.061955784 1.2719639e-38 315 296
-0.004425413 0.63099998 -0.061955784 1.2810755e-38 316 296
-0.0033190597 0.63099998 -0.061955784 1.2626724e-38 317 296
-0.0022127065 0.63099998 -0.061955784 1.2259033e-38 318 296
-0.0011063532 0.63099998 -0.061955784 1.2074283e-38 319 296
0 0.63099998 -0.061955784 1.2073564e-38 320 296
0.0011081067 0.63200003 -0.062053975 1.2073564e-38 321 296
0.0022232267 0.634 -0.062250346 1.2073564e-38 322 296
0.0033400999 0.63499999 -0.062348526 1.2350149e-38 323 296
0.0044534663 0.63499999 -0.062348526 1.2166837e-38 324 296
0.0055668331 0.63499999 -0.062348526 1.2074283e-38 325 296
0.0066907196 0.63599998 -0.062446713 1.2074636e-38 326 296
0.0078058392 0.63599998 -0.062446713 1.2074636e-38 327 296
0.0089209592 0.63599998 -0.062446713 1.2166822e-38 328 296
0.01005186 0.63700002 -0.062544905 1.2166822e-38 329 296
0.011186266 0.63800001 -0.062643096 1.2166819e-38 330 296
0.012343466 0.63999999 -0.062839463 1.2166819e-38 331 296
0.013486639 0.64099997 -0.062937655 1.207427e-38 332 296
0.014610525 0.64099997 -0.062937655 1.2166466e-38 333 296
0.01575896 0.64200002 -0.063035838 1.1891326e-38 334 296
0.016910899 0.64300001 -0.063134022 1.1891326e-38 335 296
0.018066347 0.64399999 -0.063232213 1.189097e-38 336 296
0.019195493 0.64399999 -0.063232213 1.189097e-38 337 296
0.02032464 0.64399999 -0.063232213 1.189097e-38 338 296
0.021520413 0.64600003 -0.063428588 1.189097e-38 339 296
0.022688134 0.64700001 -0.063526772 1.1983885e-38 340 296
0.023822539 0.64700001 -0.063526772 1.1983885e-38 341 296
0.024995521 0.648 -0.063624963 1.1800219e-38 342 296
0.026172007 0.64899999 -0.063723139 1.1800219e-38 343 296
0.027351998 0.64999998 -0.063821331 1.1983181e-38 344 296
0.028623167 0.653 -0.064115889 1.1890986e-38 345 296
0.029768093 0.653 -0.064115889 1.170732e-38 346 296
0.03091302 0.653 -0.064115889 1.170732e-38 347 296
-0.035571627 0.634 -0.063361958 1.8254013e-38 288 297
-0.034460012 0.634 -0.063361958 1.8161817e-38 289 297
-0.0333484 0.634 -0.063361958 1.751604e-38 290 297
-0.032135095 0.63200003 -0.063162081 1.6593724e-38 291 297
-0.031026987 0.63200003 -0.063162081 1.6866292e-38 292 297
-0.029871536 0.63099998 -0.063062139 1.6774095e-38 293 297
-0.028765187 0.63099998 -0.063062139 1.7143562e-38 294 297
-0.027658831 0.63099998 -0.063062139 1.7235758e-38 295 297
-0.026552478 0.63099998 -0.063062139 1.7327231e-38 296 297
-0.025365472 0.62900001 -0.062862262 1.7419426e-38 297 297
-0.024262626 0.62900001 -0.062862262 1.732688e-38 298 297
-0.02315978 0.62900001 -0.062862262 1.732688e-38 299 297
-0.022056932 0.62900001 -0.062862262 1.7233609e-38 300 297
-0.020954086 0.62900001 -0.062862262 1.7141413e-38 301 297
-0.019819681 0.62800002 -0.06276232 1.7140691e-38 302 297
-0.018718587 0.62800002 -0.06276232 1.69563e-38 303 297
-0.017617494 0.62800002 -0.06276232 1.6220533e-38 304 297
-0.016542701 0.62900001 -0.062862262 1.5759555e-38 305 297
-0.015439852 0.62900001 -0.062862262 1.5298569e-38 306 297
-0.014337006 0.62900001 -0.062862262 1.4745397e-38 307 297
-0.01323416 0.62900001 -0.062862262 1.4284778e-38 308 297
-0.012131313 0.62900001 -0.062862262 1.4100028e-38 309 297
-0.011028466 0.62900001 -0.062862262 1.3731967e-38 310 297
-0.0099414 0.63 -0.062962197 1.3363544e-38 311 297
-0.0088367993 0.63 -0.062962197 1.29955e-38 312 297
-0.0077321995 0.63 -0.062962197 1.2903305e-38 313 297
-0.0066275997 0.63 -0.062962197 1.2626373e-38 314 297
-0.0055317665 0.63099998 -0.063062139 1.2441623e-38 315 297
-0.004425413 0.63099998 -0.063062139 1.234943e-38 316 297
-0.0033190597 0.63099998 -0.063062139 1.2257235e-38 317 297
-0.0022127065 0.63099998 -0.063062139 1.1798056e-38 318 297
-0.0011063532 0.63099998 -0.063062139 1.1613663e-38 319 297
0 0.63099998 -0.063062139 1.1796254e-38 320 297
0.0011081067 0.63200003 -0.063162081 1.1796254e-38 321 297
0.0022232267 0.634 -0.063361958 1.1796973e-38 322 297
0.0033400999 0.63499999 -0.0634619 1.1981724e-38 323 297
0.0044534663 0.63499999 -0.0634619 1.1981724e-38 324 297
0.0055668331 0.63499999 -0.0634619 1.1981724e-38 325 297
0.0066801999 0.63499999 -0.0634619 1.1799478e-38 326 297
0.0078058392 0.63599998 -0.063561834 1.1707281e-38 327 297
0.0089209592 0.63599998 -0.063561834 1.1983144e-38 328 297
0.01005186 0.63700002 -0.063661784 1.1983144e-38 329 297
0.011168733 0.63700002 -0.063661784 1.2166819e-38 330 297
0.012343466 0.63999999 -0.063961595 1.2166819e-38 331 297
0.013465599 0.63999999 -0.063961595 1.2166468e-38 332 297
0.014610525 0.64099997 -0.064061537 1.2166468e-38 333 297
0.01575896 0.64200002 -0.064161479 1.2074285e-38 334 297
0.016910899 0.64300001 -0.064261422 1.198209e-38 335 297
0.018066347 0.64399999 -0.064361356 1.1981015e-38 336 297
0.019195493 0.64399999 -0.064361356 1.2073569e-38 337 297
0.020387759 0.64600003 -0.06456124 1.1890617e-38 338 297
0.021520413 0.64600003 -0.06456124 1.1890617e-38 339 297
0.022688134 0.64700001 -0.064661182 1.179914e-38 340 297
0.023822539 0.64700001 -0.064661182 1.179914e-38 341 297
0.024995521 0.648 -0.064761117 1.1799143e-38 342 297
0.026172007 0.64899999 -0.064861059 1.1799143e-38 343 297
0.027309919 0.64899999 -0.064861059 1.1522926e-38 344 297
0.028623167 0.653 -0.06526082 1.1522926e-38 345 297
0.029768093 0.653 -0.06526082 1.1522576e-38 346 297
-0.036798958 0.63599998 -0.064676955 1.7978874e-38 287 298
-0.035571627 0.634 -0.064473569 1.8158551e-38 288 298
-0.034460012 0.634 -0.064473569 1.732879e-38 289 298
-0.033243202 0.63200003 -0.064270191 1.6868827e-38 290 298
-0.032135095 0.63200003 -0.064270191 1.6408209e-38 291 298
-0.030977892 0.63099998 -0.06416849 1.668259e-38 292 298
-0.029871536 0.63099998 -0.06416849 1.668259e-38 293 298
-0.028719598 0.63 -0.064066797 1.7326861e-38 294 298
-0.027615 0.63 -0.064066797 1.7234665e-38 295 298
-0.02646832 0.62900001 -0.063965112 1.7234309e-38 296 298
-0.025365472 0.62900001 -0.063965112 1.7234309e-38 297 298
-0.024262626 0.62900001 -0.063965112 1.7233962e-38 298 298
-0.02315978 0.62900001 -0.063965112 1.7141766e-38 299 298
-0.022056932 0.62900001 -0.063965112 1.7141047e-38 300 298
-0.020954086 0.62900001 -0.063965112 1.6771905e-38 301 298
-0.019819681 0.62800002 -0.063863412 1.6588224e-38 302 298
-0.018718587 0.62800002 -0.063863412 1.6311278e-38 303 298
-0.017617494 0.62800002 -0.063863412 1.5574798e-38 304 298
-0.016516401 0.62800002 -0.063863412 1.5390046e-38 305 298
-0.015439852 0.62900001 -0.063965112 1.4745397e-38 306 298
-0.014314214 0.62800002 -0.063863412 1.4192582e-38 307 298
-0.01321312 0.62800002 -0.063863412 1.3914919e-38 308 298
-0.012112026 0.62800002 -0.063863412 1.3914919e-38 309 298
-0.011028466 0.62900001 -0.063965112 1.3363191e-38 310 298
-0.0099256197 0.62900001 -0.063965112 1.2994407e-38 311 298
-0.0088367993 0.63 -0.064066797 1.2625995e-38 312 298
-0.0077321995 0.63 -0.064066797 1.2533799e-38 313 298
-0.0066275997 0.63 -0.064066797 1.2165036e-38 314 298
-0.0055229999 0.63 -0.064066797 1.1981004e-38 315 298
-0.004425413 0.63099998 -0.06416849 1.1888452e-38 316 298
-0.0033190597 0.63099998 -0.06416849 1.1796257e-38 317 298
-0.0022127065 0.63099998 -0.06416849 1.1429266e-38 318 298
-0.0011063532 0.63099998 -0.06416849 1.1429266e-38 319 298
0 0.63099998 -0.06416849 1.1337068e-38 320 298
0.0011081067 0.63200003 -0.064270191 1.1614014e-38 321 298
0.0022232267 0.634 -0.064473569 1.1614014e-38 322 298
0.0033348398 0.634 -0.064473569 1.1706209e-38 323 298
0.0044534663 0.63499999 -0.064575262 1.1706925e-38 324 298
0.0055668331 0.63499999 -0.064575262 1.1799481e-38 325 298
0.0066801999 0.63499999 -0.064575262 1.1707278e-38 326 298
0.0078058392 0.63599998 -0.064676955 1.1707278e-38 327 298
0.0089209592 0.63599998 -0.064676955 1.1799111e-38 328 298
0.01005186 0.63700002 -0.064778656 1.1799111e-38 329 298
0.011168733 0.63700002 -0.064778656 1.2257935e-38 330 298
0.012304893 0.63800001 -0.064880349 1.2257935e-38 331 298
0.013465599 0.63999999 -0.065083727 1.2074273e-38 332 298
0.014610525 0.64099997 -0.06518542 1.2074273e-38 333 298
0.01575896 0.64200002 -0.065287121 1.1981371e-38 334 298
0.016910899 0.64300001 -0.065388806 1.1981371e-38 335 298
0.018066347 0.64399999 -0.065490507 1.1797703e-38 336 298
0.019195493 0.64399999 -0.065490507 1.1797703e-38 337 298
0.020387759 0.64600003 -0.065693893 1.1798424e-38 338 298
0.021520413 0.64600003 -0.065693893 1.1706229e-38 339 298
0.022688134 0.64700001 -0.065795586 1.1614756e-38 340 298
0.023822539 0.64700001 -0.065795586 1.1614756e-38 341 298
0.024995521 0.648 -0.065897278 1.1522563e-38 342 298
0.02613168 0.648 -0.065897278 1.1522563e-38 343 298
0.027309919 0.64899999 -0.065998971 1.1337462e-38 344 298
-0.037854467 0.63499999 -0.065688632 1.8530593e-38 286 299
-0.036683239 0.634 -0.065585189 1.7424604e-38 287 299
-0.035459414 0.63200003 -0.065378293 1.7237619e-38 288 299
-0.034351308 0.63200003 -0.065378293 1.594688e-38 289 299
-0.033190601 0.63099998 -0.065274842 1.6498915e-38 290 299
-0.032084245 0.63099998 -0.065274842 1.659111e-38 291 299
-0.030879704 0.62900001 -0.065067954 1.6407442e-38 292 299
-0.029776858 0.62900001 -0.065067954 1.6407442e-38 293 299
-0.028674012 0.62900001 -0.065067954 1.6590757e-38 294 299
-0.027571166 0.62900001 -0.065067954 1.6590757e-38 295 299
-0.026426241 0.62800002 -0.064964511 1.6865902e-38 296 299
-0.025325146 0.62800002 -0.064964511 1.6773707e-38 297 299
-0.024224052 0.62800002 -0.064964511 1.6865546e-38 298 299
-0.023122961 0.62800002 -0.064964511 1.6681155e-38 299 299
-0.022021867 0.62800002 -0.064964511 1.6589308e-38 300 299
-0.020920772 0.62800002 -0.064964511 1.6220886e-38 301 299
-0.019788118 0.62699997 -0.064861059 1.5944289e-38 302 299
-0.018688779 0.62699997 -0.064861059 1.5575867e-38 303 299
-0.017589439 0.62699997 -0.064861059 1.5114541e-38 304 299
-0.016490098 0.62699997 -0.064861059 1.4929791e-38 305 299
-0.015415306 0.62800002 -0.064964511 1.4101112e-38 306 299
-0.014314214 0.62800002 -0.064964511 1.3824167e-38 307 299
-0.01321312 0.62800002 -0.064964511 1.3363194e-38 308 299
-0.012112026 0.62800002 -0.064964511 1.3270999e-38 309 299
-0.011028466 0.62900001 -0.065067954 1.2994051e-38 310 299
-0.0099256197 0.62900001 -0.065067954 1.2717825e-38 311 299
-0.0088227736 0.62900001 -0.065067954 1.1982073e-38 312 299
-0.0077321995 0.63 -0.065171398 1.1797323e-38 313 299
-0.0066275997 0.63 -0.065171398 1.1521114e-38 314 299
-0.0055229999 0.63 -0.065171398 1.1428919e-38 315 299
-0.004425413 0.63099998 -0.065274842 1.1521468e-38 316 299
-0.0033190597 0.63099998 -0.065274842 1.1428913e-38 317 299
-0.0022127065 0.63099998 -0.065274842 1.1429619e-38 318 299
-0.0011063532 0.63099998 -0.065274842 1.1429619e-38 319 299
0 0.63099998 -0.065274842 1.1338856e-38 320 299
0.0011081067 0.63200003 -0.065378293 1.1522887e-38 321 299
0.0022232267 0.634 -0.065585189 1.1522534e-38 322 299
0.0033348398 0.634 -0.065585189 1.1706925e-38 323 299
0.0044534663 0.63499999 -0.065688632 1.1523617e-38 324 299
0.0055668331 0.63499999 -0.065688632 1.1523617e-38 325 299
0.0066907196 0.63599998 -0.065792076 1.1706929e-38 326 299
0.0078058392 0.63599998 -0.065792076 1.1706929e-38 327 299
0.0089209592 0.63599998 -0.065792076 1.161473e-38 328 299
0.01005186 0.63700002 -0.065895528 1.1706925e-38 329 299
0.011168733 0.63700002 -0.065895528 1.1798761e-38 330 299
0.012304893 0.63800001 -0.065998971 1.1798761e-38 331 299
0.013465599 0.63999999 -0.066205859 1.1798056e-38 332 299
0.014610525 0.64099997 -0.06630931 1.1798056e-38 333 299
0.01575896 0.64200002 -0.066412762 1.1522561e-38 334 299
0.016910899 0.64300001 -0.066516206 1.1430364e-38 335 299
0.018066347 0.64399999 -0.06661965 1.143001e-38 336 299
0.019195493 0.64399999 -0.06661965 1.1337815e-38 337 299
0.020387759 0.64600003 -0.066826545 1.11545e-38 338 299
0.021520413 0.64600003 -0.066826545 1.11545e-38 339 299
0.022688134 0.64700001 -0.066929989 1.1154503e-38 340 299
0.023822539 0.64700001 -0.066929989 1.1062307e-38 341 299
0.024956945 0.64700001 -0.066929989 1.0877209e-38 342 299
0.02613168 0.648 -0.067033432 1.0969405e-38 343 299
0.02726784 0.648 -0.067033432 1.0601714e-38 344 299
-0.038783733 0.63200003 -0.066486403 1.7056545e-38 285 300
-0.037675627 0.63200003 -0.066486403 1.6226724e-38 286 300
-0.03656752 0.63200003 -0.066486403 1.4751592e-38 287 300
-0.035403304 0.63099998 -0.066381201 1.5669527e-38 288 300
-0.034296948 0.63099998 -0.066381201 1.5485136e-38 289 300
-0.033085402 0.62900001 -0.066170804 1.5762779e-38 290 300
-0.031982556 0.62900001 -0.066170804 1.6039006e-38 291 300
-0.030830612 0.62800002 -0.066065602 1.6405999e-38 292 300
-0.029729521 0.62800002 -0.066065602 1.6498196e-38 293 300
-0.028628428 0.62800002 -0.066065602 1.6681508e-38 294 300
-0.027527334 0.62800002 -0.066065602 1.6681508e-38 295 300
-0.026384158 0.62699997 -0.065960392 1.6773335e-38 296 300
-0.025284817 0.62699997 -0.065960392 1.6681138e-38 297 300
-0.024185479 0.62699997 -0.065960392 1.6405274e-38 298 300
-0.023086138 0.62699997 -0.065960392 1.6220883e-38 299 300
-0.021986797 0.62699997 -0.065960392 1.5943576e-38 300 300
-0.020887459 0.62699997 -0.065960392 1.5574795e-38 301 300
-0.019788118 0.62699997 -0.065960392 1.5297835e-38 302 300
-0.018688779 0.62699997 -0.065960392 1.4836497e-38 303 300
-0.017589439 0.62699997 -0.065960392 1.419293e-38 304 300
-0.016490098 0.62699997 -0.065960392 1.3824506e-38 305 300
-0.015390759 0.62699997 -0.065960392 1.3085879e-38 306 300
-0.01429142 0.62699997 -0.065960392 1.2993683e-38 307 300
-0.013192079 0.62699997 -0.065960392 1.2348682e-38 308 300
-0.012112026 0.62800002 -0.066065602 1.2256486e-38 309 300
-0.011010934 0.62800002 -0.066065602 1.1980623e-38 310 300
-0.0099098403 0.62800002 -0.066065602 1.1704396e-38 311 300
-0.0088227736 0.62900001 -0.066170804 1.170369e-38 312 300
-0.0077199261 0.62900001 -0.066170804 1.170369e-38 313 300
-0.0066275997 0.63 -0.066275999 1.142855e-38 314 300
-0.0055229999 0.63 -0.066275999 1.142855e-38 315 300
-0.0044183997 0.63 -0.066275999 1.1429622e-38 316 300
-0.0033190597 0.63099998 -0.066381201 1.1521818e-38 317 300
-0.0022127065 0.63099998 -0.066381201 1.1338503e-38 318 300
-0.0011063532 0.63099998 -0.066381201 1.1338503e-38 319 300
0 0.63099998 -0.066381201 1.1522534e-38 320 300
0.0011081067 0.63200003 -0.066486403 1.161473e-38 321 300
0.0022162134 0.63200003 -0.066486403 1.161473e-38 322 300
0.0033348398 0.634 -0.0666968 1.161473e-38 323 300
0.0044534663 0.63499999 -0.066801995 1.1706206e-38 324 300
0.0055755996 0.63599998 -0.066907197 1.1706206e-38 325 300
0.0066907196 0.63599998 -0.066907197 1.1797326e-38 326 300
0.0078058392 0.63599998 -0.066907197 1.1797326e-38 327 300
0.0089349868 0.63700002 -0.067012399 1.1706212e-38 328 300
0.01005186 0.63700002 -0.067012399 1.1706212e-38 329 300
0.011168733 0.63700002 -0.067012399 1.1889168e-38 330 300
0.012304893 0.63800001 -0.067117594 1.1889168e-38 331 300
0.013465599 0.63999999 -0.067327991 1.1888455e-38 332 300
0.014610525 0.64099997 -0.067433193 1.1796259e-38 333 300
0.01575896 0.64200002 -0.067538396 1.170443e-38 334 300
0.0169372 0.64399999 -0.0677488 1.152004e-38 335 300
0.018066347 0.64399999 -0.0677488 1.142821e-38 336 300
0.019255107 0.64600003 -0.067959204 1.1151983e-38 337 300
0.020387759 0.64600003 -0.067959204 1.1057632e-38 338 300
0.021553727 0.64700001 -0.068064399 1.0135676e-38 339 300
0.022688134 0.64700001 -0.068064399 9.4031583e-39 340 300
0.023822539 0.64700001 -0.068064399 1.0048528e-38 341 300
0.024956945 0.64700001 -0.068064399 1.0508079e-38 342 300
0.026091354 0.64700001 -0.068064399 1.0692112e-38 343 300
-0.039828718 0.63099998 -0.067487545 1.7333447e-38 284 301
-0.038722362 0.63099998 -0.067487545 1.5673565e-38 285 301
-0.037616011 0.63099998 -0.067487545 1.456892e-38 286 301
-0.036509659 0.63099998 -0.067487545 1.3831355e-38 287 301
-0.035291094 0.62900001 -0.067273647 1.4935514e-38 288 301
-0.034188248 0.62900001 -0.067273647 1.52121e-38 289 301
-0.033032801 0.62800002 -0.067166694 1.521177e-38 290 301
-0.031931706 0.62800002 -0.067166694 1.5304325e-38 291 301
-0.030830612 0.62800002 -0.067166694 1.5762439e-38 292 301
-0.029729521 0.62800002 -0.067166694 1.5947189e-38 293 301
-0.028582839 0.62699997 -0.067059733 1.6129785e-38 294 301
-0.027483499 0.62699997 -0.067059733 1.622198e-38 295 301
-0.026384158 0.62699997 -0.067059733 1.6221252e-38 296 301
-0.025284817 0.62699997 -0.067059733 1.6037221e-38 297 301
-0.024185479 0.62699997 -0.067059733 1.5852826e-38 298 301
-0.023086138 0.62699997 -0.067059733 1.5391848e-38 299 301
-0.021986797 0.62699997 -0.067059733 1.5298923e-38 300 301
-0.020887459 0.62699997 -0.067059733 1.474575e-38 301 301
-0.019788118 0.62699997 -0.067059733 1.4560989e-38 302 301
-0.018688779 0.62699997 -0.067059733 1.4192567e-38 303 301
-0.017589439 0.62699997 -0.067059733 1.3639759e-38 304 301
-0.016490098 0.62699997 -0.067059733 1.3362812e-38 305 301
-0.015390759 0.62699997 -0.067059733 1.2808939e-38 306 301
-0.01429142 0.62699997 -0.067059733 1.253271e-38 307 301
-0.013192079 0.62699997 -0.067059733 1.1889521e-38 308 301
-0.012112026 0.62800002 -0.067166694 1.1797326e-38 309 301
-0.011010934 0.62800002 -0.067166694 1.1796257e-38 310 301
-0.0099098403 0.62800002 -0.067166694 1.1704061e-38 311 301
-0.0088227736 0.62900001 -0.067273647 1.161186e-38 312 301
-0.0077199261 0.62900001 -0.067273647 1.161186e-38 313 301
-0.0066275997 0.63 -0.0673806 1.1337071e-38 314 301
-0.0055229999 0.63 -0.0673806 1.1429266e-38 315 301
-0.0044183997 0.63 -0.0673806 1.1154477e-38 316 301
-0.0033190597 0.63099998 -0.067487545 1.1246673e-38 317 301
-0.0022127065 0.63099998 -0.067487545 1.1522537e-38 318 301
-0.0011063532 0.63099998 -0.067487545 1.1338506e-38 319 301
0 0.63099998 -0.067487545 1.1522181e-38 320 301
0.0011081067 0.63200003 -0.067594506 1.1614376e-38 321 301
0.0022162134 0.63200003 -0.067594506 1.1522181e-38 322 301
0.0033348398 0.634 -0.067808412 1.1522181e-38 323 301
0.0044464534 0.634 -0.067808412 1.1522181e-38 324 301
0.0055668331 0.63499999 -0.067915365 1.1522181e-38 325 301
0.0066907196 0.63599998 -0.068022311 1.1522184e-38 326 301
0.0078058392 0.63599998 -0.068022311 1.1522184e-38 327 301
0.0089349868 0.63700002 -0.068129279 1.1521831e-38 328 301
0.01005186 0.63700002 -0.068129279 1.1521831e-38 329 301
0.011186266 0.63800001 -0.068236224 1.1520759e-38 330 301
0.012304893 0.63800001 -0.068236224 1.1520759e-38 331 301
0.013465599 0.63999999 -0.068450131 1.1428213e-38 332 301
0.014610525 0.64099997 -0.068557084 1.1336017e-38 333 301
0.01575896 0.64200002 -0.068664044 1.0874686e-38 334 301
0.0169372 0.64399999 -0.068877943 1.0874686e-38 335 301
0.018122453 0.64600003 -0.069091856 1.0691026e-38 336 301
0.019255107 0.64600003 -0.069091856 1.041408e-38 337 301
0.020387759 0.64600003 -0.069091856 1.0136067e-38 338 301
0.021553727 0.64700001 -0.069198802 1.0136067e-38 339 301
0.0227232 0.648 -0.069305755 9.7705283e-39 340 301
0.023859359 0.648 -0.069305755 1.0047115e-38 341 301
-0.040805325 0.62900001 -0.068376496 1.5673595e-38 283 302
-0.039702479 0.62900001 -0.068376496 1.4106558e-38 284 302
-0.038599633 0.62900001 -0.068376496 1.3184243e-38 285 302
-0.037496787 0.62900001 -0.068376496 1.327783e-38 286 302
-0.036336079 0.62800002 -0.068267785 1.3738807e-38 287 302
-0.035234988 0.62800002 -0.068267785 1.4199066e-38 288 302
-0.034133893 0.62800002 -0.068267785 1.4383457e-38 289 302
-0.033032801 0.62800002 -0.068267785 1.4659689e-38 290 302
-0.031931706 0.62800002 -0.068267785 1.4751887e-38 291 302
-0.030781519 0.62699997 -0.068159074 1.5669524e-38 292 302
-0.029682178 0.62699997 -0.068159074 1.6038305e-38 293 302
-0.028582839 0.62699997 -0.068159074 1.6405643e-38 294 302
-0.027483499 0.62699997 -0.068159074 1.6313447e-38 295 302
-0.026384158 0.62699997 -0.068159074 1.6036139e-38 296 302
-0.025284817 0.62699997 -0.068159074 1.5759911e-38 297 302
-0.024185479 0.62699997 -0.068159074 1.520781e-38 298 302
-0.023086138 0.62699997 -0.068159074 1.4377689e-38 299 302
-0.021986797 0.62699997 -0.068159074 1.3824869e-38 300 302
-0.020887459 0.62699997 -0.068159074 1.3271696e-38 301 302
-0.019724999 0.625 -0.067941666 1.3269544e-38 302 302
-0.018629165 0.625 -0.067941666 1.2901122e-38 303 302
-0.017589439 0.62699997 -0.068159074 1.2348314e-38 304 302
-0.016490098 0.62699997 -0.068159074 1.2256118e-38 305 302
-0.015390759 0.62699997 -0.068159074 1.188843e-38 306 302
-0.01429142 0.62699997 -0.068159074 1.2072821e-38 307 302
-0.013192079 0.62699997 -0.068159074 1.1796604e-38 308 302
-0.012112026 0.62800002 -0.068267785 1.1704408e-38 309 302
-0.011010934 0.62800002 -0.068267785 1.1612566e-38 310 302
-0.0099256197 0.62900001 -0.068376496 1.1612566e-38 311 302
-0.0088227736 0.62900001 -0.068376496 1.1336701e-38 312 302
-0.0077199261 0.62900001 -0.068376496 1.1336701e-38 313 302
-0.0066275997 0.63 -0.0684852 1.1337071e-38 314 302
-0.0055229999 0.63 -0.0684852 1.1337071e-38 315 302
-0.0044183997 0.63 -0.0684852 1.1336718e-38 316 302
-0.0033190597 0.63099998 -0.068593897 1.1428913e-38 317 302
-0.0022127065 0.63099998 -0.068593897 1.1521112e-38 318 302
-0.0011063532 0.63099998 -0.068593897 1.1521112e-38 319 302
0 0.63099998 -0.068593897 1.1521112e-38 320 302
0.0011081067 0.63200003 -0.068702616 1.1521112e-38 321 302
0.0022232267 0.634 -0.068920024 1.1521468e-38 322 302
0.0033348398 0.634 -0.068920024 1.1521468e-38 323 302
0.0044464534 0.634 -0.068920024 1.1521465e-38 324 302
0.0055668331 0.63499999 -0.069028728 1.1521465e-38 325 302
0.0066907196 0.63599998 -0.069137439 1.1521465e-38 326 302
0.0078058392 0.63599998 -0.069137439 1.1521465e-38 327 302
0.0089349868 0.63700002 -0.069246151 1.1521112e-38 328 302
0.01005186 0.63700002 -0.069246151 1.1428916e-38 329 302
0.011186266 0.63800001 -0.069354847 1.1428566e-38 330 302
0.012304893 0.63800001 -0.069354847 1.133637e-38 331 302
0.013486639 0.64099997 -0.069680966 1.1335301e-38 332 302
0.014610525 0.64099997 -0.069680966 1.1058354e-38 333 302
0.015808053 0.64399999 -0.070007093 1.0411562e-38 334 302
0.0169372 0.64399999 -0.070007093 1.0595953e-38 335 302
0.018122453 0.64600003 -0.070224509 1.0596679e-38 336 302
0.019255107 0.64600003 -0.070224509 1.0411928e-38 337 302
0.02041932 0.64700001 -0.070333213 1.0046022e-38 338 302
0.021553727 0.64700001 -0.070333213 1.0138219e-38 339 302
-0.044113863 0.62900001 -0.069479339 1.7609368e-38 280 303
-0.043011017 0.62900001 -0.069479339 1.6595216e-38 281 303
-0.041908171 0.62900001 -0.069479339 1.57636e-38 282 303
-0.040740453 0.62800002 -0.069368884 1.4011883e-38 283 303
-0.039639361 0.62800002 -0.069368884 1.3000535e-38 284 303
-0.03853827 0.62800002 -0.069368884 1.290834e-38 285 303
-0.037437174 0.62800002 -0.069368884 1.327783e-38 286 303
-0.036336079 0.62800002 -0.069368884 1.3646611e-38 287 303
-0.035234988 0.62800002 -0.069368884 1.3646989e-38 288 303
-0.034079537 0.62699997 -0.069258414 1.4015413e-38 289 303
-0.032980196 0.62699997 -0.069258414 1.4658262e-38 290 303
-0.031880856 0.62699997 -0.069258414 1.4658262e-38 291 303
-0.030781519 0.62699997 -0.069258414 1.493376e-38 292 303
-0.029682178 0.62699997 -0.069258414 1.5025955e-38 293 303
-0.028582839 0.62699997 -0.069258414 1.5300369e-38 294 303
-0.027483499 0.62699997 -0.069258414 1.5115977e-38 295 303
-0.026384158 0.62699997 -0.069258414 1.4837946e-38 296 303
-0.025284817 0.62699997 -0.069258414 1.4469522e-38 297 303
-0.024185479 0.62699997 -0.069258414 1.4007818e-38 298 303
-0.023086138 0.62699997 -0.069258414 1.3362449e-38 299 303
-0.021986797 0.62699997 -0.069258414 1.2627049e-38 300 303
-0.020887459 0.62699997 -0.069258414 1.216607e-38 301 303
-0.019724999 0.625 -0.069037497 1.2072099e-38 302 303
-0.018629165 0.625 -0.069037497 1.1979904e-38 303 303
-0.017589439 0.62699997 -0.069258414 1.1428901e-38 304 303
-0.016490098 0.62699997 -0.069258414 1.1428901e-38 305 303
-0.015390759 0.62699997 -0.069258414 1.1520746e-38 306 303
-0.01429142 0.62699997 -0.069258414 1.1520746e-38 307 303
-0.013192079 0.62699997 -0.069258414 1.1429266e-38 308 303
-0.012112026 0.62800002 -0.069368884 1.1337071e-38 309 303
-0.011010934 0.62800002 -0.069368884 1.1336705e-38 310 303
-0.0099256197 0.62900001 -0.069479339 1.1336705e-38 311 303
-0.0088227736 0.62900001 -0.069479339 1.1244152e-38 312 303
-0.0077199261 0.62900001 -0.069479339 1.1336349e-38 313 303
-0.0066275997 0.63 -0.069589794 1.1152686e-38 314 303
-0.0055229999 0.63 -0.069589794 1.1152686e-38 315 303
-0.0044183997 0.63 -0.069589794 1.1336367e-38 316 303
-0.0033190597 0.63099998 -0.069700256 1.1336367e-38 317 303
-0.0022127065 0.63099998 -0.069700256 1.133637e-38 318 303
-0.0011063532 0.63099998 -0.069700256 1.133637e-38 319 303
0 0.63099998 -0.069700256 1.1427847e-38 320 303
0.0011081067 0.63200003 -0.069810718 1.1520042e-38 321 303
0.0022232267 0.634 -0.070031643 1.1428916e-38 322 303
0.0033348398 0.634 -0.070031643 1.1521112e-38 323 303
0.0044534663 0.63499999 -0.070142098 1.1337797e-38 324 303
0.0055755996 0.63599998 -0.070252553 1.1245601e-38 325 303
0.0066907196 0.63599998 -0.070252553 1.1245601e-38 326 303
0.0078181131 0.63700002 -0.070363015 1.1245601e-38 327 303
0.0089349868 0.63700002 -0.070363015 1.1336364e-38 328 303
0.01006764 0.63800001 -0.070473477 1.1336364e-38 329 303
0.011186266 0.63800001 -0.070473477 1.1060509e-38 330 303
0.012343466 0.63999999 -0.070694394 1.1060509e-38 331 303
0.01352872 0.64300001 -0.071025774 1.1058004e-38 332 303
0.014656113 0.64300001 -0.071025774 1.0781777e-38 333 303
0.015808053 0.64399999 -0.071136236 1.0321167e-38 334 303
0.016989801 0.64600003 -0.071357161 1.0321167e-38 335 303
0.018122453 0.64600003 -0.071357161 1.004674e-38 336 303
-0.045216709 0.62900001 -0.070582189 1.8255829e-38 279 304
-0.044043735 0.62800002 -0.070469975 1.5674679e-38 280 304
-0.042942639 0.62800002 -0.070469975 1.3462344e-38 281 304
-0.041841544 0.62800002 -0.070469975 1.2720396e-38 282 304
-0.040740453 0.62800002 -0.070469975 1.2720396e-38 283 304
-0.039639361 0.62800002 -0.070469975 1.2632829e-38 284 304
-0.03853827 0.62800002 -0.070469975 1.281722e-38 285 304
-0.037437174 0.62800002 -0.070469975 1.3185267e-38 286 304
-0.036278218 0.62699997 -0.070357755 1.3185267e-38 287 304
-0.035178877 0.62699997 -0.070357755 1.3646245e-38 288 304
-0.034079537 0.62699997 -0.070357755 1.4106863e-38 289 304
-0.032980196 0.62699997 -0.070357755 1.4381655e-38 290 304
-0.031880856 0.62699997 -0.070357755 1.4289459e-38 291 304
-0.030781519 0.62699997 -0.070357755 1.4197617e-38 292 304
-0.029682178 0.62699997 -0.070357755 1.3921031e-38 293 304
-0.028491667 0.625 -0.070133328 1.4102898e-38 294 304
-0.027395833 0.625 -0.070133328 1.3734475e-38 295 304
-0.0263 0.625 -0.070133328 1.3364967e-38 296 304
-0.025204165 0.625 -0.070133328 1.2903989e-38 297 304
-0.024108332 0.625 -0.070133328 1.2534133e-38 298 304
-0.023086138 0.62699997 -0.070357755 1.2073156e-38 299 304
-0.021986797 0.62699997 -0.070357755 1.1429254e-38 300 304
-0.020887459 0.62699997 -0.070357755 1.1244502e-38 301 304
-0.019788118 0.62699997 -0.070357755 1.1335999e-38 302 304
-0.018688779 0.62699997 -0.070357755 1.1335999e-38 303 304
-0.017589439 0.62699997 -0.070357755 1.1060854e-38 304 304
-0.016490098 0.62699997 -0.070357755 1.1153408e-38 305 304
-0.015415306 0.62800002 -0.070469975 1.1428916e-38 306 304
-0.014314214 0.62800002 -0.070469975 1.1428916e-38 307 304
-0.01321312 0.62800002 -0.070469975 1.1337074e-38 308 304
-0.012112026 0.62800002 -0.070469975 1.1152684e-38 309 304
-0.011010934 0.62800002 -0.070469975 1.115304e-38 310 304
-0.0099256197 0.62900001 -0.070582189 1.115304e-38 311 304
-0.0088227736 0.62900001 -0.070582189 1.1152686e-38 312 304
-0.0077321995 0.63 -0.070694394 1.1152686e-38 313 304
-0.0066275997 0.63 -0.070694394 1.1153408e-38 314 304
-0.0055229999 0.63 -0.070694394 1.1153408e-38 315 304
-0.0044183997 0.63 -0.070694394 1.1153052e-38 316 304
-0.0033190597 0.63099998 -0.070806608 1.1153052e-38 317 304
-0.0022127065 0.63099998 -0.070806608 1.133637e-38 318 304
-0.0011063532 0.63099998 -0.070806608 1.133637e-38 319 304
0 0.63200003 -0.070918828 1.133637e-38 320 304
0.0011081067 0.63200003 -0.070918828 1.1428566e-38 321 304
0.0022232267 0.634 -0.071143255 1.1428919e-38 322 304
0.0033400999 0.63499999 -0.07125546 1.1521114e-38 323 304
0.0044534663 0.63499999 -0.07125546 1.1245604e-38 324 304
0.0055755996 0.63599998 -0.071367674 1.1245604e-38 325 304
0.0067012399 0.63700002 -0.071479894 1.1245604e-38 326 304
0.0078181131 0.63700002 -0.071479894 1.1153408e-38 327 304
0.0089349868 0.63700002 -0.071479894 1.1336367e-38 328 304
0.01006764 0.63800001 -0.071592107 1.1336367e-38 329 304
0.011186266 0.63800001 -0.071592107 1.0967953e-38 330 304
0.012304893 0.63800001 -0.071592107 1.0875758e-38 331 304
0.01352872 0.64300001 -0.072153173 1.0874688e-38 332 304
-0.046466835 0.63099998 -0.071912967 1.8164352e-38 278 305
-0.045216709 0.62900001 -0.071685031 1.8256549e-38 279 305
-0.044043735 0.62800002 -0.071571067 1.3648171e-38 280 305
-0.042942639 0.62800002 -0.071571067 9.8685099e-39 281 305
-0.041774917 0.62699997 -0.071457095 8.3911616e-39 282 305
-0.040675577 0.62699997 -0.071457095 1.0419824e-38 283 305
-0.039576236 0.62699997 -0.071457095 1.1526856e-38 284 305
-0.038476899 0.62699997 -0.071457095 1.1803444e-38 285 305
-0.037377559 0.62699997 -0.071457095 1.1894531e-38 286 305
-0.036278218 0.62699997 -0.071457095 1.1801977e-38 287 305
-0.035178877 0.62699997 -0.071457095 1.2262941e-38 288 305
-0.034079537 0.62699997 -0.071457095 1.2446973e-38 289 305
-0.032980196 0.62699997 -0.071457095 1.2538453e-38 290 305
-0.031880856 0.62699997 -0.071457095 1.2353702e-38 291 305
-0.030781519 0.62699997 -0.071457095 1.1986351e-38 292 305
-0.029682178 0.62699997 -0.071457095 1.1893797e-38 293 305
-0.028491667 0.625 -0.071229167 1.2076743e-38 294 305
-0.027395833 0.625 -0.071229167 1.1616124e-38 295 305
-0.0263 0.625 -0.071229167 1.1613616e-38 296 305
-0.025204165 0.625 -0.071229167 1.1798367e-38 297 305
-0.024108332 0.625 -0.071229167 1.1430323e-38 298 305
-0.023086138 0.62699997 -0.071457095 1.1154095e-38 299 305
-0.021986797 0.62699997 -0.071457095 1.115304e-38 300 305
-0.020887459 0.62699997 -0.071457095 1.115304e-38 301 305
-0.019788118 0.62699997 -0.071457095 1.1153408e-38 302 305
-0.018688779 0.62699997 -0.071457095 1.1060854e-38 303 305
-0.017589439 0.62699997 -0.071457095 1.1153408e-38 304 305
-0.016516401 0.62800002 -0.071571067 1.1060854e-38 305 305
-0.015415306 0.62800002 -0.071571067 1.133672e-38 306 305
-0.014314214 0.62800002 -0.071571067 1.133672e-38 307 305
-0.01321312 0.62800002 -0.071571067 1.1336718e-38 308 305
-0.012112026 0.62800002 -0.071571067 1.1152686e-38 309 305
-0.011028466 0.62900001 -0.071685031 1.1152686e-38 310 305
-0.0099256197 0.62900001 -0.071685031 1.1152686e-38 311 305
-0.0088367993 0.63 -0.071799003 1.106121e-38 312 305
-0.0077321995 0.63 -0.071799003 1.106121e-38 313 305
-0.0066275997 0.63 -0.071799003 1.1336718e-38 314 305
-0.0055317665 0.63099998 -0.071912967 1.1336718e-38 315 305
-0.004425413 0.63099998 -0.071912967 1.1154127e-38 316 305
-0.0033190597 0.63099998 -0.071912967 1.0969737e-38 317 305
-0.0022162134 0.63200003 -0.072026931 1.1153055e-38 318 305
-0.0011081067 0.63200003 -0.072026931 1.1153055e-38 319 305
0 0.63200003 -0.072026931 1.1153052e-38 320 305
0.0011116134 0.634 -0.072254866 1.1245248e-38 321 305
0.0022232267 0.634 -0.072254866 1.1337799e-38 322 305
0.0033400999 0.63499999 -0.07236883 1.1245604e-38 323 305
0.0044534663 0.63499999 -0.07236883 1.1245604e-38 324 305
0.0055755996 0.63599998 -0.072482795 1.1245604e-38 325 305
0.0067012399 0.63700002 -0.072596766 1.1245248e-38 326 305
0.0078181131 0.63700002 -0.072596766 1.1153052e-38 327 305
0.0089349868 0.63700002 -0.072596766 1.1153055e-38 328 305
0.01006764 0.63800001 -0.07271073 1.1153055e-38 329 305
0.011186266 0.63800001 -0.07271073 1.0784997e-38 330 305
0.012304893 0.63800001 -0.07271073 1.0692443e-38 331 305
-0.047648586 0.63200003 -0.073135041 1.7795571e-38 277 306
-0.046466835 0.63099998 -0.073019318 1.8163996e-38 278 306
-0.045144826 0.62800002 -0.072672158 1.788777e-38 279 306
-0.044043735 0.62800002 -0.072672158 9.8721225e-39 280 306
-0.042874258 0.62699997 -0.072556436 6.9215022e-39 281 306
-0.041774917 0.62699997 -0.072556436 7.4696089e-39 282 306
-0.040675577 0.62699997 -0.072556436 8.668152e-39 283 306
-0.039576236 0.62699997 -0.072556436 1.014361e-38 284 306
-0.038476899 0.62699997 -0.072556436 1.0328001e-38 285 306
-0.037377559 0.62699997 -0.072556436 1.0604901e-38 286 306
-0.036278218 0.62699997 -0.072556436 1.0604901e-38 287 306
-0.035066664 0.625 -0.072324999 1.1064427e-38 288 306
-0.033970833 0.625 -0.072324999 1.1249177e-38 289 306
-0.032874998 0.625 -0.072324999 1.1249174e-38 290 306
-0.031779166 0.625 -0.072324999 1.1156979e-38 291 306
-0.030683333 0.625 -0.072324999 1.1064783e-38 292 306
-0.0295875 0.625 -0.072324999 1.0972587e-38 293 306
-0.028491667 0.625 -0.072324999 1.088078e-38 294 306
-0.027395833 0.625 -0.072324999 1.0788584e-38 295 306
-0.0263 0.625 -0.072324999 1.0969755e-38 296 306
-0.025204165 0.625 -0.072324999 1.0969755e-38 297 306
-0.024185479 0.62699997 -0.072556436 1.0970106e-38 298 306
-0.023086138 0.62699997 -0.072556436 1.0693517e-38 299 306
-0.021986797 0.62699997 -0.072556436 1.0784991e-38 300 306
-0.020887459 0.62699997 -0.072556436 1.0784991e-38 301 306
-0.019788118 0.62699997 -0.072556436 1.0693871e-38 302 306
-0.018688779 0.62699997 -0.072556436 1.0786068e-38 303 306
-0.017589439 0.62699997 -0.072556436 1.0877541e-38 304 306
-0.016490098 0.62699997 -0.072556436 1.0969737e-38 305 306
-0.015415306 0.62800002 -0.072672158 1.133672e-38 306 306
-0.014314214 0.62800002 -0.072672158 1.133672e-38 307 306
-0.01321312 0.62800002 -0.072672158 1.1336718e-38 308 306
-0.012112026 0.62800002 -0.072672158 1.1336718e-38 309 306
-0.011028466 0.62900001 -0.072787881 1.106121e-38 310 306
-0.0099414 0.63 -0.072903596 1.1153405e-38 311 306
-0.0088367993 0.63 -0.072903596 1.1153405e-38 312 306
-0.0077321995 0.63 -0.072903596 1.1153405e-38 313 306
-0.0066275997 0.63 -0.072903596 1.1153408e-38 314 306
-0.0055317665 0.63099998 -0.073019318 1.1153408e-38 315 306
-0.004425413 0.63099998 -0.073019318 1.1245248e-38 316 306
-0.0033190597 0.63099998 -0.073019318 1.1245248e-38 317 306
-0.0022162134 0.63200003 -0.073135041 1.1153408e-38 318 306
-0.0011081067 0.63200003 -0.073135041 1.1245604e-38 319 306
0 0.63200003 -0.073135041 1.1245248e-38 320 306
0.0011116134 0.634 -0.073366478 1.1245248e-38 321 306
0.0022267331 0.63499999 -0.073482201 1.1153774e-38 322 306
0.0033400999 0.63499999 -0.073482201 1.1153774e-38 323 306
0.0044604796 0.63599998 -0.073597915 1.0969743e-38 324 306
0.0055843666 0.63700002 -0.073713638 1.1153774e-38 325 306
0.0067012399 0.63700002 -0.073713638 1.0969743e-38 326 306
0.0078181131 0.63700002 -0.073713638 1.1153774e-38 327 306
0.0089490134 0.63800001 -0.07382936 1.087791e-38 328 306
0.01006764 0.63800001 -0.07382936 1.0785714e-38 329 306
0.011221332 0.63999999 -0.07406079 1.04173e-38 330 306
-0.047648586 0.63200003 -0.074243151 1.7795571e-38 277 307
-0.046319559 0.62900001 -0.073890723 1.7427512e-38 278 307
-0.045144826 0.62800002 -0.07377325 1.6137132e-38 279 307
-0.043973595 0.62699997 -0.073655777 1.7650363e-39 280 307
-0.042874258 0.62699997 -0.073655777 1.0439674e-41 281 307
-0.041774917 0.62699997 -0.073655777 5.2497391e-39 282 307
-0.040675577 0.62699997 -0.073655777 7.5546312e-39 283 307
-0.039449997 0.625 -0.07342083 7.2877133e-39 284 307
-0.038354166 0.625 -0.07342083 7.1955177e-39 285 307
-0.037258331 0.625 -0.07342083 7.2880412e-39 286 307
-0.036162499 0.625 -0.07342083 7.3802368e-39 287 307
-0.035066664 0.625 -0.07342083 7.9330421e-39 288 307
-0.033970833 0.625 -0.07342083 8.5784115e-39 289 307
-0.032874998 0.625 -0.07342083 9.1319342e-39 290 307
-0.031779166 0.625 -0.07342083 9.685108e-39 291 307
-0.030683333 0.625 -0.07342083 1.1061563e-38 292 307
-0.0295875 0.625 -0.07342083 1.1061563e-38 293 307
-0.028491667 0.625 -0.07342083 1.1061207e-38 294 307
-0.027395833 0.625 -0.07342083 1.096901e-38 295 307
-0.0263 0.625 -0.07342083 1.0969013e-38 296 307
-0.025204165 0.625 -0.07342083 1.0969013e-38 297 307
-0.024185479 0.62699997 -0.073655777 1.0876461e-38 298 307
-0.023086138 0.62699997 -0.073655777 1.0876461e-38 299 307
-0.021986797 0.62699997 -0.073655777 1.0692433e-38 300 307
-0.020887459 0.62699997 -0.073655777 1.0692433e-38 301 307
-0.019788118 0.62699997 -0.073655777 1.0876111e-38 302 307
-0.018688779 0.62699997 -0.073655777 1.0968306e-38 303 307
-0.017589439 0.62699997 -0.073655777 1.1060857e-38 304 307
-0.016490098 0.62699997 -0.073655777 1.1245248e-38 305 307
-0.015415306 0.62800002 -0.07377325 1.1245601e-38 306 307
-0.014314214 0.62800002 -0.07377325 1.1337797e-38 307 307
-0.01321312 0.62800002 -0.07377325 1.1245601e-38 308 307
-0.012131313 0.62900001 -0.073890723 1.1153405e-38 309 307
-0.011028466 0.62900001 -0.073890723 1.0970093e-38 310 307
-0.0099414 0.63 -0.074008197 1.0970093e-38 311 307
-0.0088367993 0.63 -0.074008197 1.0970093e-38 312 307
-0.0077321995 0.63 -0.074008197 1.0970093e-38 313 307
-0.0066381195 0.63099998 -0.07412567 1.1336718e-38 314 307
-0.0055317665 0.63099998 -0.07412567 1.1336718e-38 315 307
-0.004425413 0.63099998 -0.07412567 1.1245604e-38 316 307
-0.0033190597 0.63099998 -0.07412567 1.1245604e-38 317 307
-0.0022162134 0.63200003 -0.074243151 1.1154127e-38 318 307
-0.0011081067 0.63200003 -0.074243151 1.0969737e-38 319 307
0 0.634 -0.07447809 1.1245604e-38 320 307
0.0011116134 0.634 -0.07447809 1.1153408e-38 321 307
0.0022267331 0.63499999 -0.074595563 1.1153052e-38 322 307
0.0033400999 0.63499999 -0.074595563 1.1060857e-38 323 307
0.0044604796 0.63599998 -0.074713036 1.1152702e-38 324 307
0.0055843666 0.63700002 -0.07483051 1.1152702e-38 325 307
0.0067012399 0.63700002 -0.07483051 1.0969392e-38 326 307
0.0078181131 0.63700002 -0.07483051 1.0969392e-38 327 307
0.0089490134 0.63800001 -0.07494799 1.0602052e-38 328 307
0.01006764 0.63800001 -0.07494799 1.0509497e-38 329 307
-0.047648586 0.63200003 -0.075351253 1.8071438e-38 277 308
-0.046319559 0.62900001 -0.074993573 1.6874691e-38 278 308
-0.045144826 0.62800002 -0.074874349 1.4938583e-38 279 308
-0.043973595 0.62699997 -0.074755117 6.4880119e-42 280 308
-0.042874258 0.62699997 -0.074755117 4.6887447e-42 281 308
-0.041774917 0.62699997 -0.074755117 4.2417248e-39 282 308
-0.040675577 0.62699997 -0.074755117 5.3477123e-39 283 308
