# .PCD v.7 - Point Cloud Data file format
FIELDS x y z rgb imX imY
SIZE 4 4 4 4 4 4
TYPE F F F F F F
COUNT 1 1 1 1 1 1
WIDTH 846
HEIGHT 1
VIEWPOINT 0 0 0 1 0 0 0
POINTS 846
DATA ascii
0.085522331 0.68699998 -0.074681476 1.8523994e-38 391 302
0.086726874 0.68699998 -0.074681476 1.8339603e-38 392 302
0.087931409 0.68699998 -0.074681476 1.8155572e-38 393 302
0.089135952 0.68699998 -0.074681476 1.8153773e-38 394 302
0.090340495 0.68699998 -0.074681476 1.7969023e-38 395 302
0.09154503 0.68699998 -0.074681476 1.7601316e-38 396 302
0.092749573 0.68699998 -0.074681476 1.7232892e-38 397 302
0.094090879 0.68800002 -0.074790187 1.7048498e-38 398 302
0.095297173 0.68800002 -0.074790187 1.6863747e-38 399 302
0.096503466 0.68800002 -0.074790187 1.6495322e-38 400 302
0.097993799 0.69 -0.075007595 1.6310931e-38 401 302
0.099203594 0.69 -0.075007595 1.5759557e-38 402 302
0.1004134 0.69 -0.075007595 1.5574807e-38 403 302
0.10177048 0.69099998 -0.075116299 1.5115277e-38 404 302
0.1032801 0.69300002 -0.075333714 1.4930887e-38 405 302
0.10464595 0.69400001 -0.075442426 1.4561397e-38 406 302
0.10586276 0.69400001 -0.075442426 1.4192973e-38 407 302
0.10707957 0.69400001 -0.075442426 1.3639463e-38 408 302
0.10876452 0.69700003 -0.075768545 1.3271039e-38 409 302
0.1101444 0.69800001 -0.075877249 1.3920779e-38 410 302
0.0723776 0.68800002 -0.075996481 1.8063036e-38 380 303
0.073476933 0.68699998 -0.075886011 1.8063036e-38 381 303
0.074681476 0.68699998 -0.075886011 1.8154863e-38 382 303
0.075886011 0.68699998 -0.075886011 1.8154863e-38 383 303
0.077090554 0.68699998 -0.075886011 1.833925e-38 384 303
0.078181133 0.68599999 -0.075775556 1.8431445e-38 385 303
0.079383917 0.68599999 -0.075775556 1.8523994e-38 386 303
0.080586702 0.68599999 -0.075775556 1.861619e-38 387 303
0.081789486 0.68599999 -0.075775556 1.8433231e-38 388 303
0.082992278 0.68599999 -0.075775556 1.8433231e-38 389 303
0.084195063 0.68599999 -0.075775556 1.870766e-38 390 303
0.085397847 0.68599999 -0.075775556 1.8523628e-38 391 303
0.086600631 0.68599999 -0.075775556 1.8338881e-38 392 303
0.087931409 0.68699998 -0.075886011 1.8246686e-38 393 303
0.089135952 0.68699998 -0.075886011 1.8244886e-38 394 303
0.090340495 0.68699998 -0.075886011 1.796866e-38 395 303
0.09154503 0.68699998 -0.075886011 1.7508398e-38 396 303
0.092749573 0.68699998 -0.075886011 1.7231811e-38 397 303
0.093954116 0.68699998 -0.075886011 1.6863747e-38 398 303
0.095158651 0.68699998 -0.075886011 1.658752e-38 399 303
0.096363194 0.68699998 -0.075886011 1.6219458e-38 400 303
0.09770976 0.68800002 -0.075996481 1.594287e-38 401 303
0.098916054 0.68800002 -0.075996481 1.5391498e-38 402 303
0.10012234 0.68800002 -0.075996481 1.5299302e-38 403 303
0.10162319 0.69 -0.076217398 1.5114558e-38 404 303
0.10298203 0.69099998 -0.076327853 1.4929807e-38 405 303
0.10464595 0.69400001 -0.07665924 1.4193693e-38 406 303
0.10586276 0.69400001 -0.07665924 1.3917106e-38 407 303
0.10707957 0.69400001 -0.07665924 1.363911e-38 408 303
0.10876452 0.69700003 -0.076990619 1.3454719e-38 409 303
0.1101444 0.69800001 -0.077101074 1.3828954e-38 410 303
0.071067855 0.68699998 -0.077090554 1.7879033e-38 379 304
0.07227239 0.68699998 -0.077090554 1.8155231e-38 380 304
0.073476933 0.68699998 -0.077090554 1.8155231e-38 381 304
0.074681476 0.68699998 -0.077090554 1.8339253e-38 382 304
0.075775556 0.68599999 -0.076978341 1.8431448e-38 383 304
0.076978341 0.68599999 -0.076978341 1.8523997e-38 384 304
0.077953197 0.68400002 -0.076753922 1.8616193e-38 385 304
0.07915248 0.68400002 -0.076753922 1.870874e-38 386 304
0.080351762 0.68400002 -0.076753922 1.8616543e-38 387 304
0.081551038 0.68400002 -0.076753922 1.8616543e-38 388 304
0.082750313 0.68400002 -0.076753922 1.8524347e-38 389 304
0.083949596 0.68400002 -0.076753922 1.8523628e-38 390 304
0.085148886 0.68400002 -0.076753922 1.8431433e-38 391 304
0.086600631 0.68599999 -0.076978341 1.8246686e-38 392 304
0.087803423 0.68599999 -0.076978341 1.8154489e-38 393 304
0.089006208 0.68599999 -0.076978341 1.7876824e-38 394 304
0.090209 0.68599999 -0.076978341 1.7692793e-38 395 304
0.091411777 0.68599999 -0.076978341 1.7416202e-38 396 304
0.092614569 0.68599999 -0.076978341 1.7231811e-38 397 304
0.093817353 0.68599999 -0.076978341 1.6404927e-38 398 304
0.095020145 0.68599999 -0.076978341 1.6220177e-38 399 304
0.096363194 0.68699998 -0.077090554 1.5852473e-38 400 304
0.097567737 0.68699998 -0.077090554 1.5575526e-38 401 304
0.098772272 0.68699998 -0.077090554 1.5482617e-38 402 304
0.099976815 0.68699998 -0.077090554 1.5390063e-38 403 304
0.10132864 0.68800002 -0.077202775 1.5022005e-38 404 304
0.10253493 0.68800002 -0.077202775 1.4653583e-38 405 304
0.10449516 0.69300002 -0.077763841 1.419262e-38 406 304
0.10571022 0.69300002 -0.077763841 1.4008229e-38 407 304
0.10692528 0.69300002 -0.077763841 1.3455094e-38 408 304
0.10876452 0.69700003 -0.078212693 1.3362898e-38 409 304
0.11046 0.69999999 -0.078549333 1.3736406e-38 410 304
0.069863312 0.68699998 -0.078295097 1.8062332e-38 378 305
0.071067855 0.68699998 -0.078295097 1.8154528e-38 379 305
0.072167195 0.68599999 -0.078181133 1.8338544e-38 380 305
0.073369987 0.68599999 -0.078181133 1.8338544e-38 381 305
0.074572764 0.68599999 -0.078181133 1.8431448e-38 382 305
0.075554639 0.68400002 -0.077953197 1.8523644e-38 383 305
0.076753922 0.68400002 -0.077953197 1.8432878e-38 384 305
0.077953197 0.68400002 -0.077953197 1.861691e-38 385 305
0.07915248 0.68400002 -0.077953197 1.8617266e-38 386 305
0.080351762 0.68400002 -0.077953197 1.8433234e-38 387 305
0.081431814 0.68300003 -0.077839233 1.870766e-38 388 305
0.082629345 0.68300003 -0.077839233 1.8523628e-38 389 305
0.08382687 0.68300003 -0.077839233 1.8339234e-38 390 305
0.085024394 0.68300003 -0.077839233 1.8247039e-38 391 305
0.086221918 0.68300003 -0.077839233 1.8153767e-38 392 305
0.087419443 0.68300003 -0.077839233 1.8061571e-38 393 305
0.088616975 0.68300003 -0.077839233 1.7693149e-38 394 305
0.089814499 0.68300003 -0.077839233 1.7508398e-38 395 305
0.091012023 0.68300003 -0.077839233 1.7140694e-38 396 305
0.092209555 0.68300003 -0.077839233 1.6956303e-38 397 305
0.09340708 0.68300003 -0.077839233 1.6312375e-38 398 305
0.094743125 0.68400002 -0.077953197 1.6127984e-38 399 305
0.096222922 0.68599999 -0.078181133 1.5759925e-38 400 305
0.097425714 0.68599999 -0.078181133 1.5391501e-38 401 305
0.098772272 0.68699998 -0.078295097 1.5298952e-38 402 305
0.099976815 0.68699998 -0.078295097 1.5114202e-38 403 305
0.10118135 0.68699998 -0.078295097 1.4746147e-38 404 305
0.10253493 0.68800002 -0.078409068 1.4561397e-38 405 305
0.10374123 0.68800002 -0.078409068 1.3916759e-38 406 305
0.10571022 0.69300002 -0.078978904 1.3732009e-38 407 305
0.10692528 0.69300002 -0.078978904 1.3362901e-38 408 305
0.10814034 0.69300002 -0.078978904 1.3455097e-38 409 305
0.068259016 0.68300003 -0.079036765 1.7145083e-38 377 306
0.069456547 0.68300003 -0.079036765 1.7879723e-38 378 306
0.070757523 0.68400002 -0.07915248 1.7879723e-38 379 306
0.071956798 0.68400002 -0.07915248 1.8155582e-38 380 306
0.073156074 0.68400002 -0.07915248 1.8248136e-38 381 306
0.074355356 0.68400002 -0.07915248 1.8523994e-38 382 306
0.075444184 0.68300003 -0.079036765 1.861619e-38 383 306
0.076641709 0.68300003 -0.079036765 1.8617266e-38 384 306
0.077839233 0.68300003 -0.079036765 1.8617266e-38 385 306
0.078921035 0.68199998 -0.078921035 1.8799858e-38 386 306
0.080116808 0.68199998 -0.078921035 1.8799858e-38 387 306
0.081074134 0.68000001 -0.078689598 1.8523628e-38 388 306
0.082145423 0.67900002 -0.078573883 1.8431433e-38 389 306
0.083335936 0.67900002 -0.078573883 1.8247039e-38 390 306
0.084526442 0.67900002 -0.078573883 1.8154842e-38 391 306
0.085716955 0.67900002 -0.078573883 1.815412e-38 392 306
0.086907476 0.67900002 -0.078573883 1.7877533e-38 393 306
0.088227727 0.68000001 -0.078689598 1.7600946e-38 394 306
0.089419998 0.68000001 -0.078689598 1.7416555e-38 395 306
0.090878762 0.68199998 -0.078921035 1.7048498e-38 396 306
0.092074543 0.68199998 -0.078921035 1.6771551e-38 397 306
0.093270317 0.68199998 -0.078921035 1.6403492e-38 398 306
0.094604604 0.68300003 -0.079036765 1.6127265e-38 399 306
0.0959424 0.68400002 -0.07915248 1.5575176e-38 400 306
0.097141676 0.68400002 -0.07915248 1.5391145e-38 401 306
0.098628499 0.68599999 -0.079383917 1.4931256e-38 402 306
0.099831291 0.68599999 -0.079383917 1.4746863e-38 403 306
0.10118135 0.68699998 -0.079499632 1.447028e-38 404 306
0.10238589 0.68699998 -0.079499632 1.4193693e-38 405 306
0.10374123 0.68800002 -0.079615362 1.4099002e-38 406 306
0.10494752 0.68800002 -0.079615362 1.3822056e-38 407 306
0.10661669 0.69099998 -0.079962514 1.3086331e-38 408 306
0.068159081 0.68199998 -0.080116808 1.7604246e-38 377 307
0.069354847 0.68199998 -0.080116808 1.7880077e-38 378 307
0.070550621 0.68199998 -0.080116808 1.7880077e-38 379 307
0.071746394 0.68199998 -0.080116808 1.824813e-38 380 307
0.072942168 0.68199998 -0.080116808 1.824813e-38 381 307
0.074137948 0.68199998 -0.080116808 1.8432878e-38 382 307
0.075333714 0.68199998 -0.080116808 1.861691e-38 383 307
0.076529488 0.68199998 -0.080116808 1.861691e-38 384 307
0.077725261 0.68199998 -0.080116808 1.8432878e-38 385 307
0.078689598 0.68000001 -0.079881869 1.8799858e-38 386 307
0.079881869 0.68000001 -0.079881869 1.8707662e-38 387 307
0.080954902 0.67900002 -0.079764389 1.8432152e-38 388 307
0.082145423 0.67900002 -0.079764389 1.8155566e-38 389 307
0.083213195 0.67799997 -0.079646915 1.8154842e-38 390 307
0.08440195 0.67799997 -0.079646915 1.8062646e-38 391 307
0.085590713 0.67799997 -0.079646915 1.7969729e-38 392 307
0.086779475 0.67799997 -0.079646915 1.7877533e-38 393 307
0.08796823 0.67799997 -0.079646915 1.7417274e-38 394 307
0.089288503 0.67900002 -0.079764389 1.7141047e-38 395 307
0.090479009 0.67900002 -0.079764389 1.6955582e-38 396 307
0.092074543 0.68199998 -0.080116808 1.6770833e-38 397 307
0.093270317 0.68199998 -0.080116808 1.6219464e-38 398 307
0.09446609 0.68199998 -0.080116808 1.5942517e-38 399 307
0.095802136 0.68300003 -0.080234289 1.5391148e-38 400 307
0.09699966 0.68300003 -0.080234289 1.5114202e-38 401 307
0.098340958 0.68400002 -0.080351762 1.5021652e-38 402 307
0.099831291 0.68599999 -0.080586702 1.4929456e-38 403 307
0.10118135 0.68699998 -0.080704175 1.4285533e-38 404 307
0.10238589 0.68699998 -0.080704175 1.410114e-38 405 307
0.10359043 0.68699998 -0.080704175 1.3639463e-38 406 307
0.10494752 0.68800002 -0.080821648 1.3271039e-38 407 307
0.10615382 0.68800002 -0.080821648 1.3270353e-38 408 307
0.066766933 0.68000001 -0.081074134 1.7602429e-38 376 308
0.067859262 0.67900002 -0.080954902 1.7879017e-38 377 308
0.069049768 0.67900002 -0.080954902 1.7972269e-38 378 308
0.070343733 0.68000001 -0.081074134 1.8156301e-38 379 308
0.071535997 0.68000001 -0.081074134 1.824813e-38 380 308
0.072728261 0.68000001 -0.081074134 1.8340685e-38 381 308
0.073920533 0.68000001 -0.081074134 1.843288e-38 382 308
0.075112797 0.68000001 -0.081074134 1.8616913e-38 383 308
0.076305062 0.68000001 -0.081074134 1.861691e-38 384 308
0.077497333 0.68000001 -0.081074134 1.8432878e-38 385 308
0.078458153 0.67799997 -0.08083567 1.8616546e-38 386 308
0.079646915 0.67799997 -0.08083567 1.852435e-38 387 308
0.08083567 0.67799997 -0.08083567 1.8339603e-38 388 308
0.082024433 0.67799997 -0.08083567 1.8063376e-38 389 308
0.083213195 0.67799997 -0.08083567 1.8062293e-38 390 308
0.08440195 0.67799997 -0.08083567 1.7785708e-38 391 308
0.085590713 0.67799997 -0.08083567 1.7601313e-38 392 308
0.086779475 0.67799997 -0.08083567 1.7416921e-38 393 308
0.08796823 0.67799997 -0.08083567 1.7140338e-38 394 308
0.089156993 0.67799997 -0.08083567 1.6955947e-38 395 308
0.090479009 0.67900002 -0.080954902 1.6587167e-38 396 308
0.091804534 0.68000001 -0.081074134 1.631058e-38 397 308
0.093270317 0.68199998 -0.081312582 1.6034716e-38 398 308
0.09446609 0.68199998 -0.081312582 1.5758128e-38 399 308
0.095661856 0.68199998 -0.081312582 1.52064e-38 400 308
0.09685763 0.68199998 -0.081312582 1.5022008e-38 401 308
0.098197185 0.68300003 -0.081431814 1.4653595e-38 402 308
0.099394716 0.68300003 -0.081431814 1.4653595e-38 403 308
0.10103408 0.68599999 -0.081789486 1.4192617e-38 404 308
0.10223686 0.68599999 -0.081789486 1.3823835e-38 405 308
0.10359043 0.68699998 -0.081908718 1.3272122e-38 406 308
0.10494752 0.68800002 -0.082027942 1.2995894e-38 407 308
0.10615382 0.68800002 -0.082027942 1.2811545e-38 408 308
0.06419304 0.67799997 -0.082024433 1.7603537e-38 374 309
0.065381795 0.67799997 -0.082024433 1.7419506e-38 375 309
0.066570558 0.67799997 -0.082024433 1.7970843e-38 376 309
0.06775932 0.67799997 -0.082024433 1.8063038e-38 377 309
0.068948075 0.67799997 -0.082024433 1.7972625e-38 378 309
0.070240289 0.67900002 -0.082145423 1.8156656e-38 379 309
0.071430802 0.67900002 -0.082145423 1.8340682e-38 380 309
0.072621316 0.67900002 -0.082145423 1.8432878e-38 381 309
0.073703118 0.67799997 -0.082024433 1.8616913e-38 382 309
0.074891873 0.67799997 -0.082024433 1.8616913e-38 383 309
0.076080635 0.67799997 -0.082024433 1.870839e-38 384 309
0.077269398 0.67799997 -0.082024433 1.8523997e-38 385 309
0.078226723 0.676 -0.081782483 1.8523994e-38 386 309
0.079411969 0.676 -0.081782483 1.8431799e-38 387 309
0.080597222 0.676 -0.081782483 1.8155219e-38 388 309
0.081782483 0.676 -0.081782483 1.7970826e-38 389 309
0.082967728 0.676 -0.081782483 1.7785713e-38 390 309
0.084152982 0.676 -0.081782483 1.7693159e-38 391 309
0.085338242 0.676 -0.081782483 1.7325451e-38 392 309
0.086523488 0.676 -0.081782483 1.714106e-38 393 309
0.08796823 0.67799997 -0.082024433 1.695595e-38 394 309
0.089156993 0.67799997 -0.082024433 1.6771198e-38 395 309
0.090479009 0.67900002 -0.082145423 1.6494971e-38 396 309
0.091669522 0.67900002 -0.082145423 1.6218385e-38 397 309
0.092996798 0.68000001 -0.082266398 1.5850324e-38 398 309
0.094189063 0.68000001 -0.082266398 1.5573738e-38 399 309
0.095381334 0.68000001 -0.082266398 1.529752e-38 400 309
0.09685763 0.68199998 -0.082508355 1.5020933e-38 401 309
0.098053411 0.68199998 -0.082508355 1.4560681e-38 402 309
0.099394716 0.68300003 -0.082629345 1.4468485e-38 403 309
0.10073952 0.68400002 -0.082750313 1.4100068e-38 404 309
0.1019388 0.68400002 -0.082750313 1.3547255e-38 405 309
0.10343964 0.68599999 -0.082992278 1.3178134e-38 406 309
0.10479497 0.68699998 -0.083113261 1.3178134e-38 407 309
0.10615382 0.68800002 -0.083234236 1.2536034e-38 408 309
0.063004278 0.67799997 -0.083213195 1.7513522e-38 373 310
0.06419304 0.67799997 -0.083213195 1.7694629e-38 374 310
0.065381795 0.67799997 -0.083213195 1.787902e-38 375 310
0.066570558 0.67799997 -0.083213195 1.8063386e-38 376 310
0.06775932 0.67799997 -0.083213195 1.8155582e-38 377 310
0.068948075 0.67799997 -0.083213195 1.8248484e-38 378 310
0.070136838 0.67799997 -0.083213195 1.8340679e-38 379 310
0.0713256 0.67799997 -0.083213195 1.8433231e-38 380 310
0.072514355 0.67799997 -0.083213195 1.8433231e-38 381 310
0.073485702 0.676 -0.082967728 1.8616913e-38 382 310
0.074560501 0.67500001 -0.082844995 1.8616913e-38 383 310
0.075743996 0.67500001 -0.082844995 1.8616193e-38 384 310
0.076927498 0.67500001 -0.082844995 1.8431801e-38 385 310
0.078110993 0.67500001 -0.082844995 1.8431801e-38 386 310
0.079294503 0.67500001 -0.082844995 1.806302e-38 387 310
0.080477998 0.67500001 -0.082844995 1.7878272e-38 388 310
0.0816615 0.67500001 -0.082844995 1.7786076e-38 389 310
0.082967728 0.676 -0.082967728 1.7418004e-38 390 310
0.084152982 0.676 -0.082967728 1.7325807e-38 391 310
0.085338242 0.676 -0.082967728 1.723289e-38 392 310
0.086523488 0.676 -0.082967728 1.6956303e-38 393 310
0.08796823 0.67799997 -0.083213195 1.6587167e-38 394 310
0.089156993 0.67799997 -0.083213195 1.6494971e-38 395 310
0.090345755 0.67799997 -0.083213195 1.6127265e-38 396 310
0.091669522 0.67900002 -0.083335936 1.5942873e-38 397 310
0.092860043 0.67900002 -0.083335936 1.5574457e-38 398 310
0.094189063 0.68000001 -0.083458669 1.529787e-38 399 310
0.095381334 0.68000001 -0.083458669 1.4929456e-38 400 310
0.096573599 0.68000001 -0.083458669 1.4561034e-38 401 310
0.098053411 0.68199998 -0.083704129 1.4468485e-38 402 310
0.099249184 0.68199998 -0.083704129 1.4283734e-38 403 310
0.10073952 0.68400002 -0.083949596 1.3732012e-38 404 310
0.1019388 0.68400002 -0.083949596 1.3455425e-38 405 310
0.10343964 0.68599999 -0.084195063 1.2994465e-38 406 310
0.10479497 0.68699998 -0.084317796 1.2810075e-38 407 310
0.10615382 0.68800002 -0.084440529 1.2260533e-38 408 310
0.1076722 0.69 -0.084685996 1.2076141e-38 409 310
0.055706903 0.676 -0.084152982 1.8161467e-38 367 311
0.056892153 0.676 -0.084152982 1.8620996e-38 368 311
0.058077414 0.676 -0.084152982 1.8620996e-38 369 311
0.059262663 0.676 -0.084152982 1.8711006e-38 370 311
0.06044792 0.676 -0.084152982 1.8157832e-38 371 311
0.061633173 0.676 -0.084152982 1.778684e-38 372 311
0.062818423 0.676 -0.084152982 1.7510613e-38 373 311
0.064003684 0.676 -0.084152982 1.7970837e-38 374 311
0.065188929 0.676 -0.084152982 1.8063392e-38 375 311
0.066374183 0.676 -0.084152982 1.7972623e-38 376 311
0.067559443 0.676 -0.084152982 1.8156654e-38 377 311
0.068744689 0.676 -0.084152982 1.8248837e-38 378 311
0.069929942 0.676 -0.084152982 1.8341032e-38 379 311
0.071010001 0.67500001 -0.084028497 1.8616543e-38 380 311
0.072193496 0.67500001 -0.084028497 1.8616543e-38 381 311
0.073268294 0.67400002 -0.083904013 1.843288e-38 382 311
0.074450038 0.67400002 -0.083904013 1.843288e-38 383 311
0.075407356 0.67199999 -0.083655037 1.8523641e-38 384 311
0.076585598 0.67199999 -0.083655037 1.833925e-38 385 311
0.077995278 0.67400002 -0.083904013 1.8246333e-38 386 311
0.079177029 0.67400002 -0.083904013 1.806194e-38 387 311
0.080358773 0.67400002 -0.083904013 1.7785708e-38 388 311
0.0816615 0.67500001 -0.084028497 1.7601316e-38 389 311
0.082844995 0.67500001 -0.084028497 1.7417277e-38 390 311
0.084028497 0.67500001 -0.084028497 1.7232887e-38 391 311
0.085338242 0.676 -0.084152982 1.7048498e-38 392 311
0.086523488 0.676 -0.084152982 1.6771551e-38 393 311
0.087708741 0.676 -0.084152982 1.6402773e-38 394 311
0.089156993 0.67799997 -0.08440195 1.6310577e-38 395 311
0.090345755 0.67799997 -0.08440195 1.5759557e-38 396 311
0.09153451 0.67799997 -0.08440195 1.5574807e-38 397 311
0.092723273 0.67799997 -0.08440195 1.5298946e-38 398 311
0.094050556 0.67900002 -0.084526442 1.5022358e-38 399 311
0.095241062 0.67900002 -0.084526442 1.4653227e-38 400 311
0.096573599 0.68000001 -0.084650926 1.4468835e-38 401 311
0.09776587 0.68000001 -0.084650926 1.4100424e-38 402 311
0.099249184 0.68199998 -0.084899902 1.3915674e-38 403 311
0.10073952 0.68400002 -0.085148886 1.36391e-38 404 311
0.1019388 0.68400002 -0.085148886 1.3362153e-38 405 311
0.10343964 0.68599999 -0.085397847 1.2718245e-38 406 311
0.10479497 0.68699998 -0.085522331 1.2718245e-38 407 311
0.10615382 0.68800002 -0.08564683 1.2075788e-38 408 311
0.10736011 0.68800002 -0.08564683 1.2075788e-38 409 311
0.054682959 0.67799997 -0.085590713 1.8436612e-38 366 312
0.055706903 0.676 -0.085338242 1.8620643e-38 367 312
0.056892153 0.676 -0.085338242 1.8711377e-38 368 312
0.058077414 0.676 -0.085338242 1.8158203e-38 369 312
0.059262663 0.676 -0.085338242 1.8247119e-38 370 312
0.060358498 0.67500001 -0.085212 1.797053e-38 371 312
0.061542001 0.67500001 -0.085212 1.8061966e-38 372 312
0.062725499 0.67500001 -0.085212 1.7969771e-38 373 312
0.063909002 0.67500001 -0.085212 1.8062673e-38 374 312
0.065092497 0.67500001 -0.085212 1.83389e-38 375 312
0.066275999 0.67500001 -0.085212 1.7972623e-38 376 312
0.067459501 0.67500001 -0.085212 1.8248849e-38 377 312
0.068643004 0.67500001 -0.085212 1.8524347e-38 378 312
0.069826499 0.67500001 -0.085212 1.8524347e-38 379 312
0.071010001 0.67500001 -0.085212 1.8616543e-38 380 312
0.072193496 0.67500001 -0.085212 1.8616543e-38 381 312
0.073268294 0.67400002 -0.085085757 1.861619e-38 382 312
0.074450038 0.67400002 -0.085085757 1.8523994e-38 383 312
0.075407356 0.67199999 -0.084833272 1.8431083e-38 384 312
0.076585598 0.67199999 -0.084833272 1.8246333e-38 385 312
0.077763841 0.67199999 -0.084833272 1.8154486e-38 386 312
0.078942075 0.67199999 -0.084833272 1.7786063e-38 387 312
0.080358773 0.67400002 -0.085085757 1.7693499e-38 388 312
0.081540518 0.67400002 -0.085085757 1.7509107e-38 389 312
0.082722262 0.67400002 -0.085085757 1.7048846e-38 390 312
0.083904013 0.67400002 -0.085085757 1.695665e-38 391 312
0.085212 0.67500001 -0.085212 1.6863384e-38 392 312
0.086395502 0.67500001 -0.085212 1.6586438e-38 393 312
0.087708741 0.676 -0.085338242 1.6127268e-38 394 312
0.088893995 0.676 -0.085338242 1.5942517e-38 395 312
0.090345755 0.67799997 -0.085590713 1.5850321e-38 396 312
0.09153451 0.67799997 -0.085590713 1.5574094e-38 397 312
0.092723273 0.67799997 -0.085590713 1.5114558e-38 398 312
0.094050556 0.67900002 -0.085716955 1.4745775e-38 399 312
0.095241062 0.67900002 -0.085716955 1.4561031e-38 400 312
0.096573599 0.68000001 -0.085843198 1.4284443e-38 401 312
0.09776587 0.68000001 -0.085843198 1.4008226e-38 402 312
0.098958135 0.68000001 -0.085843198 1.3823835e-38 403 312
0.10059224 0.68300003 -0.086221918 1.336215e-38 404 312
0.10178977 0.68300003 -0.086221918 1.2993728e-38 405 312
0.10313808 0.68400002 -0.086348161 1.244309e-38 406 312
0.10479497 0.68699998 -0.086726874 1.2350895e-38 407 312
0.10615382 0.68800002 -0.086853124 1.2442405e-38 408 312
0.10736011 0.68800002 -0.086853124 1.2442405e-38 409 312
0.052305438 0.67799997 -0.086779475 1.816182e-38 364 313
0.053336397 0.676 -0.086523488 1.8254016e-38 365 313
0.054521654 0.676 -0.086523488 1.8436962e-38 366 313
0.055706903 0.676 -0.086523488 1.8344765e-38 367 313
0.056808002 0.67500001 -0.086395502 1.8802113e-38 368 313
0.057991501 0.67500001 -0.086395502 1.7971992e-38 369 313
0.059087332 0.67400002 -0.086267509 1.8061969e-38 370 313
0.06026908 0.67400002 -0.086267509 1.7877218e-38 371 313
0.061450824 0.67400002 -0.086267509 1.8154138e-38 372 313
0.062632568 0.67400002 -0.086267509 1.8338531e-38 373 313
0.06381432 0.67400002 -0.086267509 1.833925e-38 374 313
0.064996064 0.67400002 -0.086267509 1.8431445e-38 375 313
0.066177815 0.67400002 -0.086267509 1.8249205e-38 376 313
0.067359567 0.67400002 -0.086267509 1.8249205e-38 377 313
0.068541311 0.67400002 -0.086267509 1.8707306e-38 378 313
0.069723055 0.67400002 -0.086267509 1.8799861e-38 379 313
0.070904799 0.67400002 -0.086267509 1.861619e-38 380 313
0.07208655 0.67400002 -0.086267509 1.8523994e-38 381 313
0.073268294 0.67400002 -0.086267509 1.8707312e-38 382 313
0.074450038 0.67400002 -0.086267509 1.8522922e-38 383 313
0.075407356 0.67199999 -0.086011514 1.8155219e-38 384 313
0.076585598 0.67199999 -0.086011514 1.8063023e-38 385 313
0.077763841 0.67199999 -0.086011514 1.7969376e-38 386 313
0.078942075 0.67199999 -0.086011514 1.7693149e-38 387 313
0.080120318 0.67199999 -0.086011514 1.7416552e-38 388 313
0.08129856 0.67199999 -0.086011514 1.7232161e-38 389 313
0.082476802 0.67199999 -0.086011514 1.7047774e-38 390 313
0.083655037 0.67199999 -0.086011514 1.6863381e-38 391 313
0.085085757 0.67400002 -0.086267509 1.6587523e-38 392 313
0.086395502 0.67500001 -0.086395502 1.6310577e-38 393 313
0.087578997 0.67500001 -0.086395502 1.6034719e-38 394 313
0.088893995 0.676 -0.086523488 1.5849968e-38 395 313
0.090079248 0.676 -0.086523488 1.5573744e-38 396 313
0.091264501 0.676 -0.086523488 1.5388994e-38 397 313
0.092723273 0.67799997 -0.086779475 1.5021286e-38 398 313
0.093912028 0.67799997 -0.086779475 1.4836895e-38 399 313
0.09510079 0.67799997 -0.086779475 1.4376638e-38 400 313
0.096431576 0.67900002 -0.086907476 1.4100053e-38 401 313
0.09776587 0.68000001 -0.087035462 1.3640522e-38 402 313
0.098958135 0.68000001 -0.087035462 1.327174e-38 403 313
0.10044495 0.68199998 -0.087291449 1.3177762e-38 404 313
0.10164072 0.68199998 -0.087291449 1.2993731e-38 405 313
0.1029873 0.68300003 -0.087419443 1.2441665e-38 406 313
0.10433736 0.68400002 -0.087547436 1.2441665e-38 407 313
0.10599951 0.68699998 -0.087931409 1.189033e-38 408 313
0.10736011 0.68800002 -0.088059418 1.2074721e-38 409 313
0.051116679 0.67799997 -0.08796823 1.8345132e-38 363 314
0.052151144 0.676 -0.087708741 1.8253289e-38 364 314
0.053336397 0.676 -0.087708741 1.8345486e-38 365 314
0.054441001 0.67500001 -0.087578997 1.8802478e-38 366 314
0.0556245 0.67500001 -0.087578997 1.7788327e-38 367 314
0.056723841 0.67400002 -0.087449253 1.7787922e-38 368 314
0.057905588 0.67400002 -0.087449253 1.7695367e-38 369 314
0.059087332 0.67400002 -0.087449253 1.8430745e-38 370 314
0.060090236 0.67199999 -0.087189756 1.8338549e-38 371 314
0.061268479 0.67199999 -0.087189756 1.8338178e-38 372 314
0.062446721 0.67199999 -0.087189756 1.8522928e-38 373 314
0.063624956 0.67199999 -0.087189756 1.8156654e-38 374 314
0.064803198 0.67199999 -0.087189756 1.8156654e-38 375 314
0.06598144 0.67199999 -0.087189756 1.8249202e-38 376 314
0.067159683 0.67199999 -0.087189756 1.8249202e-38 377 314
0.068337917 0.67199999 -0.087189756 1.8616546e-38 378 314
0.069516152 0.67199999 -0.087189756 1.8616546e-38 379 314
0.070694394 0.67199999 -0.087189756 1.8707306e-38 380 314
0.071872637 0.67199999 -0.087189756 1.8707306e-38 381 314
0.073050871 0.67199999 -0.087189756 1.8431083e-38 382 314
0.074229114 0.67199999 -0.087189756 1.8431083e-38 383 314
0.075407356 0.67199999 -0.087189756 1.8338165e-38 384 314
0.076585598 0.67199999 -0.087189756 1.8153773e-38 385 314
0.077648118 0.671 -0.087060012 1.7786063e-38 386 314
0.078824602 0.671 -0.087060012 1.7416921e-38 387 314
0.080120318 0.67199999 -0.087189756 1.7416202e-38 388 314
0.08129856 0.67199999 -0.087189756 1.704778e-38 389 314
0.082476802 0.67199999 -0.087189756 1.6863747e-38 390 314
0.083655037 0.67199999 -0.087189756 1.658752e-38 391 314
0.084833272 0.67199999 -0.087189756 1.6403129e-38 392 314
0.086267509 0.67400002 -0.087449253 1.6310933e-38 393 314
0.087449253 0.67400002 -0.087449253 1.5850318e-38 394 314
0.088762499 0.67500001 -0.087578997 1.5758123e-38 395 314
0.090079248 0.676 -0.087708741 1.548119e-38 396 314
0.091264501 0.676 -0.087708741 1.5296797e-38 397 314
0.092449754 0.676 -0.087708741 1.4928737e-38 398 314
0.093912028 0.67799997 -0.08796823 1.4652151e-38 399 314
0.09510079 0.67799997 -0.08796823 1.419297e-38 400 314
0.096289553 0.67799997 -0.08796823 1.3823829e-38 401 314
0.097622089 0.67900002 -0.08809799 1.3547255e-38 402 314
0.098958135 0.68000001 -0.088227727 1.3270308e-38 403 314
0.10044495 0.68199998 -0.088487223 1.2993731e-38 404 314
0.10164072 0.68199998 -0.088487223 1.2901176e-38 405 314
0.1028365 0.68199998 -0.088487223 1.2074678e-38 406 314
0.10418482 0.68300003 -0.088616975 1.2074678e-38 407 314
0.10584522 0.68599999 -0.089006208 1.1980722e-38 408 314
0.051116679 0.67799997 -0.089156993 1.8252933e-38 363 315
0.052074 0.67500001 -0.088762499 1.8343671e-38 364 315
0.053257499 0.67500001 -0.088762499 1.815892e-38 365 315
0.054441001 0.67500001 -0.088762499 1.8709169e-38 366 315
0.0556245 0.67500001 -0.088762499 1.7602821e-38 367 315
0.056723841 0.67400002 -0.088631004 1.797084e-38 368 315
0.057733759 0.67199999 -0.088367991 1.8063036e-38 369 315
0.058911994 0.67199999 -0.088367991 1.8339253e-38 370 315
0.060090236 0.67199999 -0.088367991 1.8339253e-38 371 315
0.061268479 0.67199999 -0.088367991 1.8431445e-38 372 315
0.06235379 0.671 -0.088236496 1.8431445e-38 373 315
0.063530281 0.671 -0.088236496 1.824813e-38 374 315
0.064706765 0.671 -0.088236496 1.8340685e-38 375 315
0.065883249 0.671 -0.088236496 1.8340685e-38 376 315
0.06705974 0.671 -0.088236496 1.8340685e-38 377 315
0.068236224 0.671 -0.088236496 1.8340685e-38 378 315
0.069412716 0.671 -0.088236496 1.8340685e-38 379 315
0.0705892 0.671 -0.088236496 1.8523641e-38 380 315
0.071765684 0.671 -0.088236496 1.8431445e-38 381 315
0.072942175 0.671 -0.088236496 1.8521843e-38 382 315
0.074118659 0.671 -0.088236496 1.8245615e-38 383 315
0.075295143 0.671 -0.088236496 1.8061221e-38 384 315
0.076357663 0.67000002 -0.088105001 1.787683e-38 385 315
0.077300951 0.66799998 -0.087841995 1.7233258e-38 386 315
0.078472182 0.66799998 -0.087841995 1.7141063e-38 387 315
0.080001086 0.671 -0.088236496 1.6772637e-38 388 315
0.081177577 0.671 -0.088236496 1.6680082e-38 389 315
0.082354069 0.671 -0.088236496 1.649569e-38 390 315
0.083530545 0.671 -0.088236496 1.6219464e-38 391 315
0.084833272 0.67199999 -0.088367991 1.6035068e-38 392 315
0.086011514 0.67199999 -0.088367991 1.5758123e-38 393 315
0.087449253 0.67400002 -0.088631004 1.5482617e-38 394 315
0.088631004 0.67400002 -0.088631004 1.5297867e-38 395 315
0.089945994 0.67500001 -0.088762499 1.5113129e-38 396 315
0.091129504 0.67500001 -0.088762499 1.4928737e-38 397 315
0.092449754 0.676 -0.088893995 1.4836542e-38 398 315
0.093635008 0.676 -0.088893995 1.4468118e-38 399 315
0.09510079 0.67799997 -0.089156993 1.4100056e-38 400 315
0.096289553 0.67799997 -0.089156993 1.382311e-38 401 315
0.097622089 0.67900002 -0.089288503 1.3362503e-38 402 315
0.098958135 0.68000001 -0.089419998 1.2994081e-38 403 315
0.10015039 0.68000001 -0.089419998 1.2626034e-38 404 315
0.10164072 0.68199998 -0.089682996 1.2533837e-38 405 315
0.1028365 0.68199998 -0.089682996 1.2256569e-38 406 315
0.10403228 0.68199998 -0.089682996 1.1979982e-38 407 315
0.10522805 0.68199998 -0.089682996 1.0877993e-38 408 315
0.051842555 0.67199999 -0.089546233 1.806561e-38 364 316
0.053020798 0.67199999 -0.089546233 1.742024e-38 365 316
0.054199036 0.67199999 -0.089546233 1.8155247e-38 366 316
0.055542093 0.67400002 -0.089812748 1.8155247e-38 367 316
0.056555521 0.67199999 -0.089546233 1.8247783e-38 368 316
0.057647847 0.671 -0.089412987 1.8247783e-38 369 316
0.058824331 0.671 -0.089412987 1.8431448e-38 370 316
0.060000818 0.671 -0.089412987 1.8431448e-38 371 316
0.061177302 0.671 -0.089412987 1.8523644e-38 372 316
0.06235379 0.671 -0.089412987 1.8523644e-38 373 316
0.063530281 0.671 -0.089412987 1.8340332e-38 374 316
0.064610332 0.67000002 -0.089279734 1.8248136e-38 375 316
0.065785065 0.67000002 -0.089279734 1.8431448e-38 376 316
0.066959806 0.67000002 -0.089279734 1.8339253e-38 377 316
0.068134531 0.67000002 -0.089279734 1.824778e-38 378 316
0.068998925 0.667 -0.088879973 1.824778e-38 379 316
0.070168398 0.667 -0.088879973 1.8430373e-38 380 316
0.071337871 0.667 -0.088879973 1.8338178e-38 381 316
0.072833464 0.67000002 -0.089279734 1.8245619e-38 382 316
0.074008204 0.67000002 -0.089279734 1.8060868e-38 383 316
0.07518293 0.67000002 -0.089279734 1.7876474e-38 384 316
0.076129727 0.66799998 -0.089013219 1.7600247e-38 385 316
0.077185236 0.667 -0.088879973 1.7140341e-38 386 316
0.078354709 0.667 -0.088879973 1.7048145e-38 387 316
0.079881869 0.67000002 -0.089279734 1.6863398e-38 388 316
0.081177577 0.671 -0.089412987 1.658717e-38 389 316
0.082354069 0.671 -0.089412987 1.621911e-38 390 316
0.083530545 0.671 -0.089412987 1.6034719e-38 391 316
0.084833272 0.67199999 -0.089546233 1.5759207e-38 392 316
0.086011514 0.67199999 -0.089546233 1.529787e-38 393 316
0.087189756 0.67199999 -0.089546233 1.5389347e-38 394 316
0.088367991 0.67199999 -0.089546233 1.529715e-38 395 316
0.089812748 0.67400002 -0.089812748 1.4745422e-38 396 316
0.091129504 0.67500001 -0.089945994 1.4561031e-38 397 316
0.092312999 0.67500001 -0.089945994 1.4285167e-38 398 316
0.093635008 0.676 -0.090079248 1.4100775e-38 399 316
0.09510079 0.67799997 -0.090345755 1.3823835e-38 400 316
0.096289553 0.67799997 -0.090345755 1.3362856e-38 401 316
0.097622089 0.67900002 -0.090479009 1.3178115e-38 402 316
0.09881261 0.67900002 -0.090479009 1.2901529e-38 403 316
0.10015039 0.68000001 -0.090612262 1.2441288e-38 404 316
0.10134266 0.68000001 -0.090612262 1.2441288e-38 405 316
0.10253493 0.68000001 -0.090612262 1.2164371e-38 406 316
0.10403228 0.68199998 -0.090878762 1.133461e-38 407 316
0.10522805 0.68199998 -0.090878762 1.0143299e-38 408 316
0.051533967 0.66799998 -0.090184443 1.7880837e-38 364 317
0.052705199 0.66799998 -0.090184443 1.7419859e-38 365 317
0.053876422 0.66799998 -0.090184443 1.8063038e-38 366 317
0.055212468 0.67000002 -0.090454467 1.8155234e-38 367 317
0.056471359 0.671 -0.090589471 1.8248133e-38 368 317
0.057561934 0.67000002 -0.090454467 1.8248133e-38 369 317
0.058736663 0.67000002 -0.090454467 1.8340685e-38 370 317
0.0599114 0.67000002 -0.090454467 1.8340685e-38 371 317
0.061086133 0.67000002 -0.090454467 1.8523644e-38 372 317
0.062075011 0.66799998 -0.090184443 1.8523644e-38 373 317
0.063151561 0.667 -0.090049446 1.8523647e-38 374 317
0.064321034 0.667 -0.090049446 1.8338897e-38 375 317
0.065490507 0.667 -0.090049446 1.8154866e-38 376 317
0.06665998 0.667 -0.090049446 1.806267e-38 377 317
0.067829452 0.667 -0.090049446 1.8062673e-38 378 317
0.068688579 0.66399997 -0.089644417 1.8062673e-38 379 317
0.069747597 0.66299999 -0.089509413 1.8154868e-38 380 317
0.070910059 0.66299999 -0.089509413 1.7877921e-38 381 317
0.072181225 0.66399997 -0.089644417 1.8060868e-38 382 317
0.073566355 0.66600001 -0.089914441 1.7692445e-38 383 317
0.07484629 0.667 -0.090049446 1.7508047e-38 384 317
0.076015763 0.667 -0.090049446 1.7323656e-38 385 317
0.077185236 0.667 -0.090049446 1.7048142e-38 386 317
0.078354709 0.667 -0.090049446 1.6771554e-38 387 317
0.079524182 0.667 -0.090049446 1.658717e-38 388 317
0.080814637 0.66799998 -0.090184443 1.6402779e-38 389 317
0.082231335 0.67000002 -0.090454467 1.5942887e-38 390 317
0.083530545 0.671 -0.090589471 1.5758854e-38 391 317
0.084707037 0.671 -0.090589471 1.5757772e-38 392 317
0.086011514 0.67199999 -0.090724476 1.538935e-38 393 317
0.087189756 0.67199999 -0.090724476 1.5021286e-38 394 317
0.088367991 0.67199999 -0.090724476 1.4929091e-38 395 317
0.089546233 0.67199999 -0.090724476 1.4561031e-38 396 317
0.091129504 0.67500001 -0.091129504 1.4376638e-38 397 317
0.092312999 0.67500001 -0.091129504 1.4100775e-38 398 317
0.093635008 0.676 -0.091264501 1.3823829e-38 399 317
0.09510079 0.67799997 -0.09153451 1.3454699e-38 400 317
0.096289553 0.67799997 -0.09153451 1.2994081e-38 401 317
0.097622089 0.67900002 -0.091669522 1.2901179e-38 402 317
0.09881261 0.67900002 -0.091669522 1.2716786e-38 403 317
0.10015039 0.68000001 -0.091804534 1.216578e-38 404 317
0.10134266 0.68000001 -0.091804534 1.216578e-38 405 317
0.10253493 0.68000001 -0.091804534 1.2071456e-38 406 317
0.1037272 0.68000001 -0.091804534 1.1241696e-38 407 317
0.045609459 0.667 -0.091218919 1.8068899e-38 359 318
0.046778932 0.667 -0.091218919 1.7974863e-38 360 318
0.047948405 0.667 -0.091218919 1.7329494e-38 361 318
0.049117878 0.667 -0.091218919 1.7327287e-38 362 318
0.050287351 0.667 -0.091218919 1.7419484e-38 363 318
0.051456824 0.667 -0.091218919 1.7880445e-38 364 318
0.052626297 0.667 -0.091218919 1.7880445e-38 365 318
0.05379577 0.667 -0.091218919 1.8155584e-38 366 318
0.054965243 0.667 -0.091218919 1.824778e-38 367 318
0.056218877 0.66799998 -0.091355674 1.8248486e-38 368 318
0.057390101 0.66799998 -0.091355674 1.8248486e-38 369 318
0.058473662 0.667 -0.091218919 1.8248849e-38 370 318
0.059643134 0.667 -0.091218919 1.8248849e-38 371 318
0.060812607 0.667 -0.091218919 1.8340332e-38 372 318
0.06198208 0.667 -0.091218919 1.8340332e-38 373 318
0.063056879 0.66600001 -0.091082163 1.8431448e-38 374 318
0.064031735 0.66399997 -0.090808637 1.8154863e-38 375 318
0.06519594 0.66399997 -0.090808637 1.8062673e-38 376 318
0.066360161 0.66399997 -0.090808637 1.7877921e-38 377 318
0.067524366 0.66399997 -0.090808637 1.7877924e-38 378 318
0.068585135 0.66299999 -0.090671875 1.7877924e-38 379 318
0.069747597 0.66299999 -0.090671875 1.7970121e-38 380 318
0.070803106 0.662 -0.090535119 1.7785729e-38 381 318
0.071963809 0.662 -0.090535119 1.7509496e-38 382 318
0.073234983 0.66299999 -0.090671875 1.7232908e-38 383 318
0.074397437 0.66299999 -0.090671875 1.7140341e-38 384 318
0.075901799 0.66600001 -0.091082163 1.695595e-38 385 318
0.077069521 0.66600001 -0.091082163 1.6587886e-38 386 318
0.078237243 0.66600001 -0.091082163 1.6403495e-38 387 318
0.079404958 0.66600001 -0.091082163 1.6219113e-38 388 318
0.080693655 0.667 -0.091218919 1.6034363e-38 389 318
0.081863128 0.667 -0.091218919 1.5666302e-38 390 318
0.083157085 0.66799998 -0.091355674 1.5481911e-38 391 318
0.084580801 0.67000002 -0.0916292 1.548119e-38 392 318
0.085883528 0.671 -0.091765963 1.5112406e-38 393 318
0.087060012 0.671 -0.091765963 1.4653227e-38 394 318
0.088236496 0.671 -0.091765963 1.4468835e-38 395 318
0.089546233 0.67199999 -0.091902718 1.419297e-38 396 318
0.090994492 0.67400002 -0.092176244 1.4008579e-38 397 318
0.092176244 0.67400002 -0.092176244 1.3640522e-38 398 318
0.093635008 0.676 -0.092449754 1.327174e-38 399 318
0.09510079 0.67799997 -0.092723273 1.3177759e-38 400 318
0.096289553 0.67799997 -0.092723273 1.2901532e-38 401 318
0.09776587 0.68000001 -0.092996798 1.2533118e-38 402 318
0.098958135 0.68000001 -0.092996798 1.2440923e-38 403 318
0.10015039 0.68000001 -0.092996798 1.2348742e-38 404 318
0.10134266 0.68000001 -0.092996798 1.2164711e-38 405 318
0.10253493 0.68000001 -0.092996798 1.1703753e-38 406 318
0.044439986 0.667 -0.092388391 1.7881242e-38 358 319
0.045541082 0.66600001 -0.092249878 1.7420623e-38 359 319
0.046708796 0.66600001 -0.092249878 1.7420944e-38 360 319
0.047948405 0.667 -0.092388391 1.7144717e-38 361 319
0.049117878 0.667 -0.092388391 1.7512383e-38 362 319
0.050287351 0.667 -0.092388391 1.7604578e-38 363 319
0.051379681 0.66600001 -0.092249878 1.7972269e-38 364 319
0.052547399 0.66600001 -0.092249878 1.7972269e-38 365 319
0.053715117 0.66600001 -0.092249878 1.8248133e-38 366 319
0.054882839 0.66600001 -0.092249878 1.8248133e-38 367 319
0.056050558 0.66600001 -0.092249878 1.8248849e-38 368 319
0.057218276 0.66600001 -0.092249878 1.8248849e-38 369 319
0.058035329 0.662 -0.091695823 1.8248849e-38 370 319
0.05919604 0.662 -0.091695823 1.8248849e-38 371 319
0.060447913 0.66299999 -0.091834337 1.8340332e-38 372 319
0.061703302 0.66399997 -0.091972843 1.8248136e-38 373 319
0.062867515 0.66399997 -0.091972843 1.8155582e-38 374 319
0.063935295 0.66299999 -0.091834337 1.797119e-38 375 319
0.064999565 0.662 -0.091695823 1.7970472e-38 376 319
0.066160277 0.662 -0.091695823 1.7693883e-38 377 319
0.067320988 0.662 -0.091695823 1.7968675e-38 378 319
0.068481691 0.662 -0.091695823 1.7968675e-38 379 319
0.069642402 0.662 -0.091695823 1.7785004e-38 380 319
0.070803106 0.662 -0.091695823 1.7600613e-38 381 319
0.071963809 0.662 -0.091695823 1.7415854e-38 382 319
0.07312452 0.662 -0.091695823 1.7231104e-38 383 319
0.074397437 0.66299999 -0.091834337 1.6863028e-38 384 319
0.075673863 0.66399997 -0.091972843 1.6678637e-38 385 319
0.076838076 0.66399997 -0.091972843 1.6586441e-38 386 319
0.078237243 0.66600001 -0.092249878 1.6310213e-38 387 319
0.079404958 0.66600001 -0.092249878 1.5942163e-38 388 319
0.08057268 0.66600001 -0.092249878 1.5757772e-38 389 319
0.081740394 0.66600001 -0.092249878 1.5206403e-38 390 319
0.083032601 0.667 -0.092388391 1.5113849e-38 391 319
0.084328316 0.66799998 -0.092526905 1.4929812e-38 392 319
0.085883528 0.671 -0.092942439 1.4561031e-38 393 319
0.087060012 0.671 -0.092942439 1.4376636e-38 394 319
0.088236496 0.671 -0.092942439 1.428444e-38 395 319
0.089546233 0.67199999 -0.093080953 1.4007857e-38 396 319
0.090724476 0.67199999 -0.093080953 1.3823466e-38 397 319
0.092176244 0.67400002 -0.093357988 1.363872e-38 398 319
0.093496501 0.67500001 -0.093496501 1.3269939e-38 399 319
0.09510079 0.67799997 -0.093912028 1.3176677e-38 400 319
0.096431576 0.67900002 -0.094050556 1.2991926e-38 401 319
0.09776587 0.68000001 -0.094189063 1.2440923e-38 402 319
0.098958135 0.68000001 -0.094189063 1.2348727e-38 403 319
0.10015039 0.68000001 -0.094189063 1.1797371e-38 404 319
0.10164072 0.68199998 -0.09446609 1.1612621e-38 405 319
0.1028365 0.68199998 -0.09446609 1.1426455e-38 406 319
0.043205637 0.66600001 -0.093417592 1.7420617e-38 357 320
0.04437336 0.66600001 -0.093417592 1.7420212e-38 358 320
0.045541082 0.66600001 -0.093417592 1.7235821e-38 359 320
0.046708796 0.66600001 -0.093417592 1.7788247e-38 360 320
0.047876518 0.66600001 -0.093417592 1.7788247e-38 361 320
0.04904424 0.66600001 -0.093417592 1.8155938e-38 362 320
0.050211959 0.66600001 -0.093417592 1.8155938e-38 363 320
0.051225383 0.66399997 -0.093137063 1.8431801e-38 364 320
0.052389596 0.66399997 -0.093137063 1.8431801e-38 365 320
0.053553808 0.66399997 -0.093137063 1.8431445e-38 366 320
0.054718021 0.66399997 -0.093137063 1.8523641e-38 367 320
0.055713918 0.662 -0.092856526 1.8340685e-38 368 320
0.056874625 0.662 -0.092856526 1.8340685e-38 369 320
0.057947662 0.66100001 -0.092716269 1.8248852e-38 370 320
0.059106622 0.66100001 -0.092716269 1.8248852e-38 371 320
0.060265575 0.66100001 -0.092716269 1.8156303e-38 372 320
0.061517447 0.662 -0.092856526 1.8156303e-38 373 320
0.062678158 0.662 -0.092856526 1.7879721e-38 374 320
0.063838862 0.662 -0.092856526 1.7695329e-38 375 320
0.064999565 0.662 -0.092856526 1.7786079e-38 376 320
0.066060342 0.66100001 -0.092716269 1.7509852e-38 377 320
0.067219295 0.66100001 -0.092716269 1.7418019e-38 378 320
0.068481691 0.662 -0.092856526 1.7233628e-38 379 320
0.069642402 0.662 -0.092856526 1.7508064e-38 380 320
0.070803106 0.662 -0.092856526 1.7231836e-38 381 320
0.071963809 0.662 -0.092856526 1.6955594e-38 382 320
0.07312452 0.662 -0.092856526 1.658717e-38 383 320
0.074285224 0.662 -0.092856526 1.6219461e-38 384 320
0.075673863 0.66399997 -0.093137063 1.6127265e-38 385 320
0.076838076 0.66399997 -0.093137063 1.5849968e-38 386 320
0.078237243 0.66600001 -0.093417592 1.5757772e-38 387 320
0.079404958 0.66600001 -0.093417592 1.5207122e-38 388 320
0.08057268 0.66600001 -0.093417592 1.5114568e-38 389 320
0.081740394 0.66600001 -0.093417592 1.4746866e-38 390 320
0.082908116 0.66600001 -0.093417592 1.4562476e-38 391 320
0.084202074 0.667 -0.093557864 1.4561753e-38 392 320
0.085499547 0.66799998 -0.093698129 1.419297e-38 393 320
0.086930268 0.67000002 -0.093978666 1.4100777e-38 394 320
0.088105001 0.67000002 -0.093978666 1.3823832e-38 395 320
0.089412987 0.671 -0.09411893 1.3547252e-38 396 320
0.090724476 0.67199999 -0.094259195 1.3362859e-38 397 320
0.091902718 0.67199999 -0.094259195 1.2994447e-38 398 320
0.093357988 0.67400002 -0.094539732 1.2625664e-38 399 320
0.094820268 0.676 -0.094820268 1.2349446e-38 400 320
0.096289553 0.67799997 -0.09510079 1.2349446e-38 401 320
0.09776587 0.68000001 -0.095381334 1.2073229e-38 402 320
0.098958135 0.68000001 -0.095381334 1.2073229e-38 403 320
0.10015039 0.68000001 -0.095381334 1.1979263e-38 404 320
0.10164072 0.68199998 -0.095661856 1.1702316e-38 405 320
0.038361177 0.66299999 -0.094159253 1.7698302e-38 353 321
0.039523639 0.66299999 -0.094159253 1.8155292e-38 354 321
0.040686097 0.66299999 -0.094159253 1.7694313e-38 355 321
0.041848559 0.66299999 -0.094159253 1.7328029e-38 356 321
0.043075889 0.66399997 -0.094301268 1.7420225e-38 357 321
0.044240102 0.66399997 -0.094301268 1.7971937e-38 358 321
0.045404319 0.66399997 -0.094301268 1.7879742e-38 359 321
0.046568532 0.66399997 -0.094301268 1.7972275e-38 360 321
0.047660857 0.66299999 -0.094159253 1.7972275e-38 361 321
0.048823316 0.66299999 -0.094159253 1.8155938e-38 362 321
0.05006117 0.66399997 -0.094301268 1.8248133e-38 363 321
0.051148236 0.66299999 -0.094159253 1.8523997e-38 364 321
0.052310698 0.66299999 -0.094159253 1.8523997e-38 365 321
0.053473156 0.66299999 -0.094159253 1.8341048e-38 366 321
0.054635618 0.66299999 -0.094159253 1.8341048e-38 367 321
0.05562976 0.66100001 -0.093875214 1.834105e-38 368 321
0.056788713 0.66100001 -0.093875214 1.834105e-38 369 321
0.057947662 0.66100001 -0.093875214 1.8248852e-38 370 321
0.059106622 0.66100001 -0.093875214 1.8156656e-38 371 321
0.060265575 0.66100001 -0.093875214 1.7972625e-38 372 321
0.061424527 0.66100001 -0.093875214 1.788043e-38 373 321
0.062583476 0.66100001 -0.093875214 1.7970472e-38 374 321
0.063742429 0.66100001 -0.093875214 1.7878274e-38 375 321
0.064901382 0.66100001 -0.093875214 1.7693883e-38 376 321
0.066060342 0.66100001 -0.093875214 1.7509852e-38 377 321
0.067219295 0.66100001 -0.093875214 1.7417301e-38 378 321
0.068481691 0.662 -0.094017237 1.7232908e-38 379 321
0.069642402 0.662 -0.094017237 1.7047442e-38 380 321
0.070803106 0.662 -0.094017237 1.6955246e-38 381 321
0.071963809 0.662 -0.094017237 1.6494618e-38 382 321
0.07312452 0.662 -0.094017237 1.6310227e-38 383 321
0.074285224 0.662 -0.094017237 1.6125829e-38 384 321
0.075559892 0.66299999 -0.094159253 1.5849602e-38 385 321
0.076838076 0.66399997 -0.094301268 1.5390066e-38 386 321
0.078002289 0.66399997 -0.094301268 1.5390066e-38 387 321
0.079404958 0.66600001 -0.094585314 1.5113849e-38 388 321
0.08057268 0.66600001 -0.094585314 1.5021652e-38 389 321
0.081740394 0.66600001 -0.094585314 1.465323e-38 390 321
0.082908116 0.66600001 -0.094585314 1.4561034e-38 391 321
0.084075838 0.66600001 -0.094585314 1.4376282e-38 392 321
0.085371546 0.667 -0.094727337 1.4100056e-38 393 321
0.086930268 0.67000002 -0.095153399 1.3730916e-38 394 321
0.088105001 0.67000002 -0.095153399 1.3454689e-38 395 321
0.089412987 0.671 -0.095295422 1.3453257e-38 396 321
0.090724476 0.67199999 -0.095437437 1.3176672e-38 397 321
0.091902718 0.67199999 -0.095437437 1.2991573e-38 398 321
0.093357988 0.67400002 -0.095721483 1.2807181e-38 399 321
0.094820268 0.676 -0.096005514 1.2348371e-38 400 321
0.096289553 0.67799997 -0.096289553 1.2256175e-38 401 321
0.09776587 0.68000001 -0.096573599 1.2163632e-38 402 321
0.098958135 0.68000001 -0.096573599 1.1979242e-38 403 321
0.10015039 0.68000001 -0.096573599 1.1702319e-38 404 321
0.03386388 0.66600001 -0.095753036 1.843516e-38 349 322
0.035031598 0.66600001 -0.095753036 1.8250399e-38 350 322
0.037198719 0.66299999 -0.095321715 1.7972342e-38 352 322
0.038361177 0.66299999 -0.095321715 1.7511724e-38 353 322
0.039464023 0.662 -0.095177941 1.7696071e-38 354 322
0.04062473 0.662 -0.095177941 1.7419484e-38 355 322
0.041848559 0.66299999 -0.095321715 1.7603506e-38 356 322
0.043075889 0.66399997 -0.095465489 1.7972288e-38 357 322
0.044240102 0.66399997 -0.095465489 1.7971922e-38 358 322
0.045404319 0.66399997 -0.095465489 1.7971922e-38 359 322
0.046568532 0.66399997 -0.095465489 1.8431445e-38 360 322
0.047660857 0.66299999 -0.095321715 1.8431445e-38 361 322
0.048823316 0.66299999 -0.095321715 1.8707309e-38 362 322
0.05006117 0.66399997 -0.095465489 1.8707309e-38 363 322
0.050993945 0.66100001 -0.095034167 1.8707309e-38 364 322
0.051995095 0.65899998 -0.094746619 1.8799505e-38 365 322
0.053150542 0.65899998 -0.094746619 1.8432527e-38 366 322
0.054305989 0.65899998 -0.094746619 1.8432527e-38 367 322
0.055461437 0.65899998 -0.094746619 1.8340696e-38 368 322
0.056616884 0.65899998 -0.094746619 1.8248499e-38 369 322
0.057772331 0.65899998 -0.094746619 1.8156301e-38 370 322
0.058927774 0.65899998 -0.094746619 1.7972269e-38 371 322
0.060083222 0.65899998 -0.094746619 1.7880074e-38 372 322
0.061238669 0.65899998 -0.094746619 1.7695682e-38 373 322
0.062394116 0.65899998 -0.094746619 1.7602413e-38 374 322
0.063549563 0.65899998 -0.094746619 1.7510218e-38 375 322
0.064705007 0.65899998 -0.094746619 1.7325468e-38 376 322
0.065860458 0.65899998 -0.094746619 1.704924e-38 377 322
0.067219295 0.66100001 -0.095034167 1.6956691e-38 378 322
0.068378247 0.66100001 -0.095034167 1.67723e-38 379 322
0.0695372 0.66100001 -0.095034167 1.6679385e-38 380 322
0.070803106 0.662 -0.095177941 1.6494634e-38 381 322
0.071963809 0.662 -0.095177941 1.6126565e-38 382 322
0.07312452 0.662 -0.095177941 1.5941813e-38 383 322
0.074285224 0.662 -0.095177941 1.5573741e-38 384 322
0.075559892 0.66299999 -0.095321715 1.5481545e-38 385 322
0.076722354 0.66299999 -0.095321715 1.5113485e-38 386 322
0.078002289 0.66399997 -0.095465489 1.5113485e-38 387 322
0.079166502 0.66399997 -0.095465489 1.4653592e-38 388 322
0.080330715 0.66399997 -0.095465489 1.4561397e-38 389 322
0.081740394 0.66600001 -0.095753036 1.428517e-38 390 322
0.082908116 0.66600001 -0.095753036 1.4100777e-38 391 322
0.084075838 0.66600001 -0.095753036 1.3916027e-38 392 322
0.085371546 0.667 -0.09589681 1.3547604e-38 393 322
0.086670771 0.66799998 -0.096040577 1.3361784e-38 394 322
0.088105001 0.67000002 -0.096328132 1.3085198e-38 395 322
0.089412987 0.671 -0.096471906 1.2900096e-38 396 322
0.090589471 0.671 -0.096471906 1.2623869e-38 397 322
0.091902718 0.67199999 -0.09661568 1.2348727e-38 398 322
0.093357988 0.67400002 -0.096903227 1.2348727e-38 399 322
