# .PCD v.7 - Point Cloud Data file format
FIELDS x y z rgb imX imY
SIZE 4 4 4 4 4 4
TYPE F F F F F F
COUNT 1 1 1 1 1 1
WIDTH 838
HEIGHT 1
VIEWPOINT 0 0 0 1 0 0 0
POINTS 838
DATA ascii
-0.037882518 0.83099997 0.052452717 1.050553e-38 294 204
-0.036513168 0.833 0.05257896 1.0413335e-38 295 204
-0.035052639 0.833 0.05257896 1.0412616e-38 296 204
-0.033592112 0.833 0.05257896 1.032042e-38 297 204
-0.032131586 0.833 0.05257896 9.9530825e-39 298 204
-0.030744698 0.83499998 0.052705199 9.6764956e-39 299 204
-0.029350799 0.83700001 0.052831437 9.4910351e-39 300 204
-0.082050733 0.82099998 0.050382029 1.6037979e-38 263 205
-0.080611244 0.82099998 0.050382029 1.7050649e-38 264 205
-0.079171762 0.82099998 0.050382029 1.7419073e-38 265 205
-0.07773228 0.82099998 0.050382029 1.7879679e-38 266 205
-0.07629279 0.82099998 0.050382029 1.7879679e-38 267 205
-0.074853301 0.82099998 0.050382029 1.7972597e-38 268 205
-0.073413812 0.82099998 0.050382029 1.8064793e-38 269 205
-0.071799003 0.81900001 0.0502593 1.797262e-38 270 205
-0.070363015 0.81900001 0.0502593 1.797262e-38 271 205
-0.068927035 0.81900001 0.0502593 1.788079e-38 272 205
-0.067655869 0.82099998 0.050382029 1.7788594e-38 273 205
-0.066216379 0.82099998 0.050382029 1.7696031e-38 274 205
-0.064776897 0.82099998 0.050382029 1.751164e-38 275 205
-0.063337415 0.82099998 0.050382029 1.7143215e-38 276 205
-0.061897919 0.82099998 0.050382029 1.6866268e-38 277 205
-0.06060572 0.82300001 0.050504766 1.640529e-38 278 205
-0.059162725 0.82300001 0.050504766 1.6220899e-38 279 205
-0.057719734 0.82300001 0.050504766 1.5208549e-38 280 205
-0.056276739 0.82300001 0.050504766 1.4931962e-38 281 205
-0.054966997 0.82499999 0.0506275 1.4838696e-38 282 205
-0.053520497 0.82499999 0.0506275 1.4653946e-38 283 205
-0.052073997 0.82499999 0.0506275 1.4285886e-38 284 205
-0.0506275 0.82499999 0.0506275 1.3917462e-38 285 205
-0.049300224 0.82700002 0.050750233 1.3824182e-38 286 205
-0.047850218 0.82700002 0.050750233 1.2902585e-38 287 205
-0.046400212 0.82700002 0.050750233 1.2257232e-38 288 205
-0.04505891 0.829 0.050872963 1.1611863e-38 289 205
-0.043710597 0.83099997 0.050995696 1.1424976e-38 290 205
-0.042253576 0.83099997 0.050995696 1.114803e-38 291 205
-0.040894743 0.833 0.051118433 1.0781397e-38 292 205
-0.039434217 0.833 0.051118433 1.0597366e-38 293 205
-0.037973695 0.833 0.051118433 9.9541587e-39 294 205
-0.036513168 0.833 0.051118433 9.861963e-39 295 205
-0.035052639 0.833 0.051118433 9.7690612e-39 296 205
-0.033592112 0.833 0.051118433 9.6768655e-39 297 205
-0.03220873 0.83499998 0.051241163 9.3088103e-39 298 205
-0.030818338 0.83700001 0.051363897 8.8478335e-39 299 205
-0.083693616 0.82300001 0.049061771 1.6681886e-38 262 206
-0.082050733 0.82099998 0.048942544 1.6958113e-38 263 206
-0.080611244 0.82099998 0.048942544 1.751199e-38 264 206
-0.079171762 0.82099998 0.048942544 1.7696382e-38 265 206
-0.077542923 0.81900001 0.048823319 1.8064445e-38 266 206
-0.076106943 0.81900001 0.048823319 1.8064445e-38 267 206
-0.074670963 0.81900001 0.048823319 1.7880774e-38 268 206
-0.073234983 0.81900001 0.048823319 1.7973329e-38 269 206
-0.071799003 0.81900001 0.048823319 1.797262e-38 270 206
-0.070363015 0.81900001 0.048823319 1.797262e-38 271 206
-0.068927035 0.81900001 0.048823319 1.7604919e-38 272 206
-0.067491055 0.81900001 0.048823319 1.7604919e-38 273 206
-0.066055074 0.81900001 0.048823319 1.7327606e-38 274 206
-0.064776897 0.82099998 0.048942544 1.6958464e-38 275 206
-0.063183114 0.81900001 0.048823319 1.7141413e-38 276 206
-0.061747137 0.81900001 0.048823319 1.6772632e-38 277 206
-0.060458437 0.82099998 0.048942544 1.6221252e-38 278 206
-0.059018951 0.82099998 0.048942544 1.5760274e-38 279 206
-0.057719734 0.82300001 0.049061771 1.4932315e-38 280 206
-0.056276739 0.82300001 0.049061771 1.4747564e-38 281 206
-0.054833744 0.82300001 0.049061771 1.4654296e-38 282 206
-0.053390753 0.82300001 0.049061771 1.4193676e-38 283 206
-0.052073997 0.82499999 0.049180996 1.3733421e-38 284 206
-0.0506275 0.82499999 0.049180996 1.3088052e-38 285 206
-0.049300224 0.82700002 0.049300224 1.2625642e-38 286 206
-0.047850218 0.82700002 0.049300224 1.1611849e-38 287 206
-0.046400212 0.82700002 0.049300224 1.2161446e-38 288 206
-0.04505891 0.829 0.049419452 1.1792304e-38 289 206
-0.043710597 0.83099997 0.049538679 1.1057269e-38 290 206
-0.042253576 0.83099997 0.049538679 1.0872877e-38 291 206
-0.040894743 0.833 0.049657907 1.0322574e-38 292 206
-0.039434217 0.833 0.049657907 1.0045628e-38 293 206
-0.037973695 0.833 0.049657907 9.9534356e-39 294 206
-0.036513168 0.833 0.049657907 9.6768487e-39 295 206
-0.035136797 0.83499998 0.049777132 9.4917512e-39 296 206
-0.033672765 0.83499998 0.049777132 9.3073599e-39 297 206
-0.03220873 0.83499998 0.049777132 8.9371607e-39 298 206
-0.0851366 0.82300001 0.04761878 1.5026719e-38 261 207
-0.083693616 0.82300001 0.04761878 1.6866255e-38 262 207
-0.082050733 0.82099998 0.047503054 1.7234678e-38 263 207
-0.080611244 0.82099998 0.047503054 1.7236833e-38 264 207
-0.079171762 0.82099998 0.047503054 1.751342e-38 265 207
-0.077542923 0.81900001 0.047387339 1.788113e-38 266 207
-0.076106943 0.81900001 0.047387339 1.788113e-38 267 207
-0.074670963 0.81900001 0.047387339 1.7972973e-38 268 207
-0.073234983 0.81900001 0.047387339 1.7972973e-38 269 207
-0.071799003 0.81900001 0.047387339 1.797262e-38 270 207
-0.070363015 0.81900001 0.047387339 1.7788228e-38 271 207
-0.068927035 0.81900001 0.047387339 1.7787508e-38 272 207
-0.067491055 0.81900001 0.047387339 1.7603117e-38 273 207
-0.066055074 0.81900001 0.047387339 1.7326171e-38 274 207
-0.064619094 0.81900001 0.047387339 1.6957748e-38 275 207
-0.063183114 0.81900001 0.047387339 1.6589688e-38 276 207
-0.061747137 0.81900001 0.047387339 1.6036514e-38 277 207
-0.060458437 0.82099998 0.047503054 1.5667725e-38 278 207
-0.059018951 0.82099998 0.047503054 1.5391498e-38 279 207
-0.057579465 0.82099998 0.047503054 1.4839763e-38 280 207
-0.05613998 0.82099998 0.047503054 1.4563535e-38 281 207
-0.054833744 0.82300001 0.04761878 1.4470258e-38 282 207
-0.053390753 0.82300001 0.04761878 1.400928e-38 283 207
-0.052073997 0.82499999 0.047734499 1.3180964e-38 284 207
-0.0506275 0.82499999 0.047734499 1.2351203e-38 285 207
-0.049180996 0.82499999 0.047734499 1.2346922e-38 286 207
-0.047850218 0.82700002 0.047850218 1.1886304e-38 287 207
-0.046400212 0.82700002 0.047850218 1.1425697e-38 288 207
-0.04505891 0.829 0.04796594 1.1056916e-38 289 207
-0.043710597 0.83099997 0.048081655 1.0414417e-38 290 207
-0.042355273 0.833 0.048197377 1.0322221e-38 291 207
-0.040894743 0.833 0.048197377 9.9545146e-39 292 207
-0.039434217 0.833 0.048197377 9.862319e-39 293 207
-0.038064864 0.83499998 0.048313096 9.4017066e-39 294 207
-0.036600832 0.83499998 0.048313096 9.0332842e-39 295 207
-0.0851366 0.82300001 0.046175785 1.6039404e-38 261 208
-0.083693616 0.82300001 0.046175785 1.6867697e-38 262 208
-0.082050733 0.82099998 0.046063572 1.723648e-38 263 208
-0.080611244 0.82099998 0.046063572 1.7421227e-38 264 208
-0.078978904 0.81900001 0.045951359 1.760562e-38 265 208
-0.077542923 0.81900001 0.045951359 1.7788945e-38 266 208
-0.076106943 0.81900001 0.045951359 1.7973694e-38 267 208
-0.074670963 0.81900001 0.045951359 1.7790029e-38 268 208
-0.073234983 0.81900001 0.045951359 1.7697833e-38 269 208
-0.071623661 0.81699997 0.045839142 1.7788584e-38 270 208
-0.07019119 0.81699997 0.045839142 1.7696029e-38 271 208
-0.068758719 0.81699997 0.045839142 1.7511272e-38 272 208
-0.067491055 0.81900001 0.045951359 1.732688e-38 273 208
-0.066055074 0.81900001 0.045951359 1.6865546e-38 274 208
-0.064619094 0.81900001 0.045951359 1.6681155e-38 275 208
-0.063183114 0.81900001 0.045951359 1.6312375e-38 276 208
-0.061747137 0.81900001 0.045951359 1.5943591e-38 277 208
-0.060311157 0.81900001 0.045951359 1.5115271e-38 278 208
-0.058875177 0.81900001 0.045951359 1.493124e-38 279 208
-0.057579465 0.82099998 0.046063572 1.474685e-38 280 208
-0.05613998 0.82099998 0.046063572 1.45621e-38 281 208
-0.054833744 0.82300001 0.046175785 1.4193676e-38 282 208
-0.053390753 0.82300001 0.046175785 1.3363557e-38 283 208
-0.051947758 0.82300001 0.046175785 1.2441974e-38 284 208
-0.0506275 0.82499999 0.046287999 1.1704408e-38 285 208
-0.049180996 0.82499999 0.046287999 1.20689e-38 286 208
-0.047850218 0.82700002 0.046400212 1.1884149e-38 287 208
-0.046400212 0.82700002 0.046400212 1.1057988e-38 288 208
-0.044950206 0.82700002 0.046400212 1.0873597e-38 289 208
-0.043710597 0.83099997 0.046624638 1.0322218e-38 290 208
-0.042355273 0.833 0.046736851 1.0230022e-38 291 208
-0.040894743 0.833 0.046736851 9.8626791e-39 292 208
-0.039528899 0.83499998 0.046849065 9.4942553e-39 293 208
-0.084722817 0.81900001 0.044515379 1.6683306e-38 261 209
-0.083286837 0.81900001 0.044515379 1.7144281e-38 262 209
-0.081850857 0.81900001 0.044515379 1.760562e-38 263 209
-0.080414876 0.81900001 0.044515379 1.7696732e-38 264 209
-0.078978904 0.81900001 0.044515379 1.7881483e-38 265 209
-0.077353559 0.81699997 0.044406671 1.7790382e-38 266 209
-0.075921081 0.81699997 0.044406671 1.7790382e-38 267 209
-0.074488603 0.81699997 0.044406671 1.7881146e-38 268 209
-0.073056139 0.81699997 0.044406671 1.778895e-38 269 209
-0.071623661 0.81699997 0.044406671 1.7696029e-38 270 209
-0.07019119 0.81699997 0.044406671 1.7511637e-38 271 209
-0.068758719 0.81699997 0.044406671 1.7418357e-38 272 209
-0.06732624 0.81699997 0.044406671 1.714141e-38 273 209
-0.065893769 0.81699997 0.044406671 1.6681155e-38 274 209
-0.064619094 0.81900001 0.044515379 1.6220177e-38 275 209
-0.063183114 0.81900001 0.044515379 1.575992e-38 276 209
-0.061747137 0.81900001 0.044515379 1.5575529e-38 277 209
-0.060311157 0.81900001 0.044515379 1.5115271e-38 278 209
-0.058875177 0.81900001 0.044515379 1.4839043e-38 279 209
-0.057439201 0.81900001 0.044515379 1.4378791e-38 280 209
-0.05613998 0.82099998 0.044624086 1.3917813e-38 281 209
-0.05470049 0.82099998 0.044624086 1.3179897e-38 282 209
-0.053390753 0.82300001 0.044732794 1.2441974e-38 283 209
-0.051947758 0.82300001 0.044732794 1.1795906e-38 284 209
-0.0506275 0.82499999 0.044841498 1.1611156e-38 285 209
-0.049180996 0.82499999 0.044841498 1.1517894e-38 286 209
-0.047850218 0.82700002 0.044950206 1.1333143e-38 287 209
-0.046400212 0.82700002 0.044950206 1.0782121e-38 288 209
-0.044950206 0.82700002 0.044950206 1.0689926e-38 289 209
-0.043710597 0.83099997 0.045167617 1.0230741e-38 290 209
-0.042355273 0.833 0.045276325 9.9545146e-39 291 209
-0.040894743 0.833 0.045276325 9.4939064e-39 292 209
-0.086158797 0.81900001 0.043079399 1.6315602e-38 260 210
-0.084722817 0.81900001 0.043079399 1.6684025e-38 261 210
-0.083083443 0.81699997 0.042974196 1.723683e-38 262 210
-0.08165098 0.81699997 0.042974196 1.7605973e-38 263 210
-0.080218501 0.81699997 0.042974196 1.7788579e-38 264 210
-0.078786023 0.81699997 0.042974196 1.7973329e-38 265 210
-0.077353559 0.81699997 0.042974196 1.7790029e-38 266 210
-0.075921081 0.81699997 0.042974196 1.7790029e-38 267 210
-0.074488603 0.81699997 0.042974196 1.7788594e-38 268 210
-0.073056139 0.81699997 0.042974196 1.7512366e-38 269 210
-0.071623661 0.81699997 0.042974196 1.7603117e-38 270 210
-0.07019119 0.81699997 0.042974196 1.7326171e-38 271 210
-0.068758719 0.81699997 0.042974196 1.7233611e-38 272 210
-0.06732624 0.81699997 0.042974196 1.686483e-38 273 210
-0.065893769 0.81699997 0.042974196 1.6312378e-38 274 210
-0.064461298 0.81699997 0.042974196 1.6035432e-38 275 210
-0.06302882 0.81699997 0.042974196 1.5575529e-38 276 210
-0.061596353 0.81699997 0.042974196 1.5207107e-38 277 210
-0.060311157 0.81900001 0.043079399 1.4839396e-38 278 210
-0.058875177 0.81900001 0.043079399 1.4562451e-38 279 210
-0.057439201 0.81900001 0.043079399 1.4102197e-38 280 210
-0.05613998 0.82099998 0.043184597 1.3456827e-38 281 210
-0.05470049 0.82099998 0.043184597 1.2349781e-38 282 210
-0.053390753 0.82300001 0.043289799 1.1796607e-38 283 210
-0.051947758 0.82300001 0.043289799 1.1610437e-38 284 210
-0.0506275 0.82499999 0.043394998 1.1610437e-38 285 210
-0.049180996 0.82499999 0.043394998 1.1058351e-38 286 210
-0.047850218 0.82700002 0.0435002 1.087432e-38 287 210
-0.046400212 0.82700002 0.0435002 1.050626e-38 288 210
-0.044950206 0.82700002 0.0435002 1.0414065e-38 289 210
-0.043710597 0.83099997 0.043710597 1.004636e-38 290 210
-0.042355273 0.833 0.043815799 9.7694143e-39 291 210
-0.087166965 0.815 0.041440032 1.6129095e-38 259 211
-0.085948393 0.81699997 0.041541722 1.6408161e-38 260 211
-0.084515922 0.81699997 0.041541722 1.6685108e-38 261 211
-0.083083443 0.81699997 0.041541722 1.7329026e-38 262 211
-0.08165098 0.81699997 0.041541722 1.7605973e-38 263 211
-0.080218501 0.81699997 0.041541722 1.8064445e-38 264 211
-0.078786023 0.81699997 0.041541722 1.8156641e-38 265 211
-0.077353559 0.81699997 0.041541722 1.7790026e-38 266 211
-0.075921081 0.81699997 0.041541722 1.7697831e-38 267 211
-0.074306265 0.815 0.041440032 1.7787875e-38 268 211
-0.072877295 0.815 0.041440032 1.7603483e-38 269 211
-0.071448334 0.815 0.041440032 1.741837e-38 270 211
-0.070019364 0.815 0.041440032 1.7049946e-38 271 211
-0.068590395 0.815 0.041440032 1.7048864e-38 272 211
-0.06732624 0.81699997 0.041541722 1.6680082e-38 273 211
-0.065893769 0.81699997 0.041541722 1.6220182e-38 274 211
-0.064461298 0.81699997 0.041541722 1.5943237e-38 275 211
-0.06302882 0.81699997 0.041541722 1.5391498e-38 276 211
-0.061596353 0.81699997 0.041541722 1.5114552e-38 277 211
-0.060311157 0.81900001 0.041643418 1.4654652e-38 278 211
-0.058875177 0.81900001 0.041643418 1.4469902e-38 279 211
-0.057439201 0.81900001 0.041643418 1.3363563e-38 280 211
-0.056003217 0.81900001 0.041643418 1.2902585e-38 281 211
-0.05470049 0.82099998 0.041745111 1.1979925e-38 282 211
-0.053261004 0.82099998 0.041745111 1.188737e-38 283 211
-0.051947758 0.82300001 0.041846808 1.1335651e-38 284 211
-0.0506275 0.82499999 0.041948497 1.11509e-38 285 211
-0.049180996 0.82499999 0.041948497 1.0691727e-38 286 211
-0.047850218 0.82700002 0.04205019 1.0599531e-38 287 211
-0.046400212 0.82700002 0.04205019 1.0414786e-38 288 211
-0.044950206 0.82700002 0.04205019 1.0230035e-38 289 211
-0.088813342 0.81699997 0.040109251 1.6129429e-38 258 212
-0.087166965 0.815 0.040011063 1.6590407e-38 259 212
-0.085527599 0.81300002 0.039912879 1.650071e-38 260 212
-0.084102139 0.81300002 0.039912879 1.6961688e-38 261 212
-0.082676686 0.81300002 0.039912879 1.7421227e-38 262 212
-0.081251219 0.81300002 0.039912879 1.7789651e-38 263 212
-0.080218501 0.81699997 0.040109251 1.7789298e-38 264 212
-0.078786023 0.81699997 0.040109251 1.7881493e-38 265 212
-0.077164195 0.815 0.040011063 1.7880424e-38 266 212
-0.075735234 0.815 0.040011063 1.7880424e-38 267 212
-0.074306265 0.815 0.040011063 1.7787155e-38 268 212
-0.072877295 0.815 0.040011063 1.7510568e-38 269 212
-0.071448334 0.815 0.040011063 1.7233258e-38 270 212
-0.070019364 0.815 0.040011063 1.7048508e-38 271 212
-0.068590395 0.815 0.040011063 1.6680082e-38 272 212
-0.067161433 0.815 0.040011063 1.6403495e-38 273 212
-0.065893769 0.81699997 0.040109251 1.6035068e-38 274 212
-0.064461298 0.81699997 0.040109251 1.5758123e-38 275 212
-0.06302882 0.81699997 0.040109251 1.5114552e-38 276 212
-0.061596353 0.81699997 0.040109251 1.4746129e-38 277 212
-0.060311157 0.81900001 0.040207438 1.4469907e-38 278 212
-0.058875177 0.81900001 0.040207438 1.4193321e-38 279 212
-0.057439201 0.81900001 0.040207438 1.290188e-38 280 212
-0.056003217 0.81900001 0.040207438 1.2533096e-38 281 212
-0.05470049 0.82099998 0.040305622 1.1795903e-38 282 212
-0.053261004 0.82099998 0.040305622 1.1611512e-38 283 212
-0.051947758 0.82300001 0.040403813 1.1151256e-38 284 212
-0.0506275 0.82499999 0.040502001 1.105906e-38 285 212
-0.049300224 0.82700002 0.040600184 1.0874673e-38 286 212
-0.047850218 0.82700002 0.040600184 1.0782477e-38 287 212
-0.046400212 0.82700002 0.040600184 1.059738e-38 288 212
-0.04505891 0.829 0.040698372 1.0136402e-38 289 212
-0.088813342 0.81699997 0.03867678 1.6498912e-38 258 213
-0.087166965 0.815 0.038582098 1.6683303e-38 259 213
-0.085527599 0.81300002 0.038487419 1.6961322e-38 260 213
-0.084102139 0.81300002 0.038487419 1.7145713e-38 261 213
-0.082676686 0.81300002 0.038487419 1.751342e-38 262 213
-0.081251219 0.81300002 0.038487419 1.7789648e-38 263 213
-0.080022126 0.815 0.038582098 1.7880774e-38 264 213
-0.078593165 0.815 0.038582098 1.7880774e-38 265 213
-0.076974839 0.81300002 0.038487419 1.8064092e-38 266 213
-0.075549379 0.81300002 0.038487419 1.7787864e-38 267 213
-0.074123919 0.81300002 0.038487419 1.7602761e-38 268 213
-0.072698459 0.81300002 0.038487419 1.7326174e-38 269 213
-0.071448334 0.815 0.038582098 1.6866268e-38 270 213
-0.070019364 0.815 0.038582098 1.6313094e-38 271 213
-0.068590395 0.815 0.038582098 1.6219458e-38 272 213
-0.067161433 0.815 0.038582098 1.6219458e-38 273 213
-0.065732464 0.815 0.038582098 1.5667006e-38 274 213
-0.064461298 0.81699997 0.03867678 1.5390419e-38 275 213
-0.06302882 0.81699997 0.03867678 1.5022355e-38 276 213
-0.061596353 0.81699997 0.03867678 1.4653933e-38 277 213
-0.060311157 0.81900001 0.038771462 1.3548674e-38 278 213
-0.058875177 0.81900001 0.038771462 1.29955e-38 279 213
-0.057439201 0.81900001 0.038771462 1.179661e-38 280 213
-0.05613998 0.82099998 0.03886614 1.1704414e-38 281 213
-0.05470049 0.82099998 0.03886614 1.1702636e-38 282 213
-0.053390753 0.82300001 0.038960818 1.1518243e-38 283 213
-0.051947758 0.82300001 0.038960818 1.0967237e-38 284 213
-0.0506275 0.82499999 0.039055496 1.0967237e-38 285 213
-0.049300224 0.82700002 0.039150178 1.069065e-38 286 213
-0.047850218 0.82700002 0.039150178 1.050626e-38 287 213
-0.046400212 0.82700002 0.039150178 9.6757921e-39 288 213
-0.090024896 0.815 0.037153132 1.6037604e-38 257 214
-0.088595927 0.815 0.037153132 1.6408146e-38 258 214
-0.086953059 0.81300002 0.03706196 1.6776927e-38 259 214
-0.085527599 0.81300002 0.03706196 1.7053518e-38 260 214
-0.084102139 0.81300002 0.03706196 1.7329745e-38 261 214
-0.082676686 0.81300002 0.03706196 1.7513067e-38 262 214
-0.081251219 0.81300002 0.03706196 1.7789654e-38 263 214
-0.080022126 0.815 0.037153132 1.7788228e-38 264 214
-0.078593165 0.815 0.037153132 1.7788228e-38 265 214
-0.076974839 0.81300002 0.03706196 1.7695678e-38 266 214
-0.075549379 0.81300002 0.03706196 1.7511287e-38 267 214
-0.074123919 0.81300002 0.03706196 1.7327253e-38 268 214
-0.072698459 0.81300002 0.03706196 1.7142862e-38 269 214
-0.071272999 0.81300002 0.03706196 1.6773351e-38 270 214
-0.069847539 0.81300002 0.03706196 1.6312731e-38 271 214
-0.068422079 0.81300002 0.03706196 1.6310577e-38 272 214
-0.067161433 0.815 0.037153132 1.5942154e-38 273 214
-0.065732464 0.815 0.037153132 1.5573738e-38 274 214
-0.064303495 0.815 0.037153132 1.5389347e-38 275 214
-0.06302882 0.81699997 0.037244301 1.4929441e-38 276 214
-0.061596353 0.81699997 0.037244301 1.4468463e-38 277 214
-0.060311157 0.81900001 0.037335481 1.3362841e-38 278 214
-0.058875177 0.81900001 0.037335481 1.2901503e-38 279 214
-0.057439201 0.81900001 0.037335481 1.2072118e-38 280 214
-0.05613998 0.82099998 0.037426651 1.1887726e-38 281 214
-0.05470049 0.82099998 0.037426651 1.1518963e-38 282 214
-0.053390753 0.82300001 0.037517827 1.1426766e-38 283 214
-0.052073997 0.82499999 0.037608996 1.1150905e-38 284 214
-0.0506275 0.82499999 0.037608996 1.1058351e-38 285 214
-0.049300224 0.82700002 0.037700173 1.1058354e-38 286 214
-0.047850218 0.82700002 0.037700173 9.8598106e-39 287 214
-0.089803979 0.81300002 0.0356365 1.6314546e-38 257 215
-0.088378519 0.81300002 0.0356365 1.6776208e-38 258 215
-0.086953059 0.81300002 0.0356365 1.6960601e-38 259 215
-0.085527599 0.81300002 0.0356365 1.7330101e-38 260 215
-0.084102139 0.81300002 0.0356365 1.7330101e-38 261 215
-0.082676686 0.81300002 0.0356365 1.7605267e-38 262 215
-0.081251219 0.81300002 0.0356365 1.7789298e-38 263 215
-0.079825759 0.81300002 0.0356365 1.7880424e-38 264 215
-0.078400299 0.81300002 0.0356365 1.7788228e-38 265 215
-0.076974839 0.81300002 0.0356365 1.7603483e-38 266 215
-0.075549379 0.81300002 0.0356365 1.723506e-38 267 215
-0.073941574 0.81099999 0.035548832 1.7049946e-38 268 215
-0.072519615 0.81099999 0.035548832 1.6865196e-38 269 215
-0.071097665 0.81099999 0.035548832 1.6680435e-38 270 215
-0.069675706 0.81099999 0.035548832 1.6219458e-38 271 215
-0.068253763 0.81099999 0.035548832 1.6126185e-38 272 215
-0.066996619 0.81300002 0.0356365 1.5849599e-38 273 215
-0.065571159 0.81300002 0.0356365 1.5389344e-38 274 215
-0.064303495 0.815 0.035724167 1.5204952e-38 275 215
-0.06302882 0.81699997 0.03581183 1.4561028e-38 276 215
-0.061596353 0.81699997 0.03581183 1.3915659e-38 277 215
-0.060311157 0.81900001 0.035899501 1.2533093e-38 278 215
-0.058875177 0.81900001 0.035899501 1.1979919e-38 279 215
-0.057439201 0.81900001 0.035899501 1.2071046e-38 280 215
-0.05613998 0.82099998 0.035987165 1.1794459e-38 281 215
-0.05470049 0.82099998 0.035987165 1.1426764e-38 282 215
-0.053390753 0.82300001 0.036074832 1.1242732e-38 283 215
-0.052073997 0.82499999 0.036162499 1.1058707e-38 284 215
-0.0506275 0.82499999 0.036162499 1.0874676e-38 285 215
-0.049300224 0.82700002 0.036250167 1.0321882e-38 286 215
-0.047850218 0.82700002 0.036250167 8.0173498e-39 287 215
-0.091453865 0.815 0.034295198 1.6129785e-38 256 216
-0.089803979 0.81300002 0.03421104 1.6590404e-38 257 216
-0.088378519 0.81300002 0.03421104 1.695952e-38 258 216
-0.086953059 0.81300002 0.03421104 1.7236108e-38 259 216
-0.085527599 0.81300002 0.03421104 1.7421221e-38 260 216
-0.083895244 0.81099999 0.034126882 1.7513776e-38 261 216
-0.082473285 0.81099999 0.034126882 1.7788579e-38 262 216
-0.081251219 0.81300002 0.03421104 1.7880774e-38 263 216
-0.079825759 0.81300002 0.03421104 1.7788228e-38 264 216
-0.078400299 0.81300002 0.03421104 1.7696031e-38 265 216
-0.076785475 0.81099999 0.034126882 1.7327972e-38 266 216
-0.075363517 0.81099999 0.034126882 1.7143581e-38 267 216
-0.073941574 0.81099999 0.034126882 1.6865915e-38 268 216
-0.072519615 0.81099999 0.034126882 1.6497492e-38 269 216
-0.071097665 0.81099999 0.034126882 1.6403495e-38 270 216
-0.069675706 0.81099999 0.034126882 1.6127268e-38 271 216
-0.068253763 0.81099999 0.034126882 1.6125113e-38 272 216
-0.066831805 0.81099999 0.034126882 1.5848526e-38 273 216
-0.065571159 0.81300002 0.03421104 1.5113482e-38 274 216
-0.064303495 0.815 0.034295198 1.4929091e-38 275 216
-0.062874533 0.815 0.034295198 1.4100059e-38 276 216
-0.061596353 0.81699997 0.034379359 1.3269939e-38 277 216
-0.060163878 0.81699997 0.034379359 1.1888818e-38 278 216
-0.058875177 0.81900001 0.034463517 1.1335646e-38 279 216
-0.057439201 0.81900001 0.034463517 1.1611156e-38 280 216
-0.05613998 0.82099998 0.034547675 1.1426764e-38 281 216
-0.05470049 0.82099998 0.034547675 1.124273e-38 282 216
-0.053390753 0.82300001 0.034631841 1.124273e-38 283 216
-0.052073997 0.82499999 0.034715999 1.1242379e-38 284 216
-0.050750233 0.82700002 0.034800157 1.0412619e-38 285 216
-0.049300224 0.82700002 0.034800157 8.5734103e-39 286 216
-0.091453865 0.815 0.032866232 1.6314884e-38 256 217
-0.090024896 0.815 0.032866232 1.6683306e-38 257 217
-0.088595927 0.815 0.032866232 1.6960601e-38 258 217
-0.086953059 0.81300002 0.03278558 1.7236827e-38 259 217
-0.085527599 0.81300002 0.03278558 1.7421221e-38 260 217
-0.083895244 0.81099999 0.032704927 1.7513776e-38 261 217
-0.082473285 0.81099999 0.032704927 1.7696382e-38 262 217
-0.081051342 0.81099999 0.032704927 1.7696382e-38 263 217
-0.079629384 0.81099999 0.032704927 1.7696029e-38 264 217
-0.078400299 0.81300002 0.03278558 1.7511637e-38 265 217
-0.076785475 0.81099999 0.032704927 1.7327606e-38 266 217
-0.075363517 0.81099999 0.032704927 1.6958464e-38 267 217
-0.073759228 0.80900002 0.032624274 1.6773351e-38 268 217
-0.072340779 0.80900002 0.032624274 1.6404927e-38 269 217
-0.071097665 0.81099999 0.032704927 1.6219461e-38 270 217
-0.069675706 0.81099999 0.032704927 1.5942873e-38 271 217
-0.068253763 0.81099999 0.032704927 1.5573738e-38 272 217
-0.066831805 0.81099999 0.032704927 1.529715e-38 273 217
-0.065409854 0.81099999 0.032704927 1.4929093e-38 274 217
-0.064303495 0.815 0.032866232 1.4652148e-38 275 217
-0.062874533 0.815 0.032866232 1.3547252e-38 276 217
-0.061596353 0.81699997 0.032946885 1.2348709e-38 277 217
-0.060163878 0.81699997 0.032946885 1.1704427e-38 278 217
-0.058875177 0.81900001 0.033027537 1.14282e-38 279 217
-0.057439201 0.81900001 0.033027537 1.1427844e-38 280 217
-0.05613998 0.82099998 0.03310819 1.1243451e-38 281 217
-0.054833744 0.82300001 0.033188846 1.124273e-38 282 217
-0.053520497 0.82499999 0.033269498 1.1058338e-38 283 217
-0.052073997 0.82499999 0.033269498 1.0965437e-38 284 217
-0.092654899 0.81300002 0.03136012 1.5578092e-38 255 218
-0.091229439 0.81300002 0.03136012 1.6498559e-38 256 218
-0.089803979 0.81300002 0.03136012 1.68677e-38 257 218
-0.088378519 0.81300002 0.03136012 1.7144634e-38 258 218
-0.086739153 0.81099999 0.031282969 1.7329026e-38 259 218
-0.085317194 0.81099999 0.031282969 1.7604892e-38 260 218
-0.083895244 0.81099999 0.031282969 1.7604892e-38 261 218
-0.082473285 0.81099999 0.031282969 1.7604186e-38 262 218
-0.081051342 0.81099999 0.031282969 1.7696382e-38 263 218
-0.079629384 0.81099999 0.031282969 1.7511637e-38 264 218
-0.078207433 0.81099999 0.031282969 1.7235411e-38 265 218
-0.076785475 0.81099999 0.031282969 1.7143215e-38 266 218
-0.075363517 0.81099999 0.031282969 1.6682237e-38 267 218
-0.073759228 0.80900002 0.031205826 1.6681155e-38 268 218
-0.072340779 0.80900002 0.031205826 1.6220177e-38 269 218
-0.071097665 0.81099999 0.031282969 1.5943589e-38 270 218
-0.069675706 0.81099999 0.031282969 1.5574807e-38 271 218
-0.068253763 0.81099999 0.031282969 1.5390063e-38 272 218
-0.066831805 0.81099999 0.031282969 1.5113835e-38 273 218
-0.065409854 0.81099999 0.031282969 1.4561397e-38 274 218
-0.064145707 0.81300002 0.03136012 1.3639801e-38 275 218
-0.062874533 0.815 0.031437267 1.262674e-38 276 218
-0.061596353 0.81699997 0.03151441 1.1796978e-38 277 218
-0.060163878 0.81699997 0.03151441 1.1703355e-38 278 218
-0.058875177 0.81900001 0.031591557 1.1518963e-38 279 218
-0.057439201 0.81900001 0.031591557 1.1335295e-38 280 218
-0.056003217 0.81900001 0.031591557 1.1150903e-38 281 218
-0.05470049 0.82099998 0.031668708 1.1058351e-38 282 218
-0.053520497 0.82499999 0.031822998 1.0689929e-38 283 218
-0.094080359 0.81300002 0.02993466 1.5485524e-38 254 219
-0.092654899 0.81300002 0.02993466 1.6038697e-38 255 219
-0.091229439 0.81300002 0.02993466 1.6499638e-38 256 219
-0.089803979 0.81300002 0.02993466 1.6776223e-38 257 219
-0.088378519 0.81300002 0.02993466 1.6960969e-38 258 219
-0.086739153 0.81099999 0.02986102 1.714536e-38 259 219
-0.085317194 0.81099999 0.02986102 1.7604183e-38 260 219
-0.083895244 0.81099999 0.02986102 1.7604183e-38 261 219
-0.082269907 0.80900002 0.02978738 1.7603833e-38 262 219
-0.080851458 0.80900002 0.02978738 1.7603833e-38 263 219
-0.079629384 0.81099999 0.02986102 1.751164e-38 264 219
-0.078207433 0.81099999 0.02986102 1.7235055e-38 265 219
-0.076596119 0.80900002 0.02978738 1.704994e-38 266 219
-0.07517767 0.80900002 0.02978738 1.6681158e-38 267 219
-0.073759228 0.80900002 0.02978738 1.6587517e-38 268 219
-0.072340779 0.80900002 0.02978738 1.6403126e-38 269 219
-0.07092233 0.80900002 0.02978738 1.5942867e-38 270 219
-0.069503881 0.80900002 0.02978738 1.5482249e-38 271 219
-0.06808544 0.80900002 0.02978738 1.5389344e-38 272 219
-0.066666998 0.80900002 0.02978738 1.4928725e-38 273 219
-0.065409854 0.81099999 0.02986102 1.4100775e-38 274 219
-0.063987896 0.81099999 0.02986102 1.317846e-38 275 219
-0.062874533 0.815 0.030008299 1.2165765e-38 276 219
-0.061596353 0.81699997 0.030081939 1.1796622e-38 277 219
-0.060163878 0.81699997 0.030081939 1.1427491e-38 278 219
-0.058875177 0.81900001 0.030155579 1.1335295e-38 279 219
-0.057439201 0.81900001 0.030155579 1.1059789e-38 280 219
-0.056003217 0.81900001 0.030155579 1.0875039e-38 281 219
-0.05470049 0.82099998 0.030229218 1.0689944e-38 282 219
-0.095270865 0.81099999 0.028439065 1.4291707e-38 253 220
-0.093848921 0.81099999 0.028439065 1.6129799e-38 254 220
-0.092426963 0.81099999 0.028439065 1.631419e-38 255 220
-0.091005012 0.81099999 0.028439065 1.6775504e-38 256 220
-0.089583054 0.81099999 0.028439065 1.6959897e-38 257 220
-0.088161096 0.81099999 0.028439065 1.7144284e-38 258 220
-0.086525239 0.80900002 0.028368933 1.7328675e-38 259 220
-0.085106798 0.80900002 0.028368933 1.7604186e-38 260 220
-0.083895244 0.81099999 0.028439065 1.7604186e-38 261 220
-0.082269907 0.80900002 0.028368933 1.7604189e-38 262 220
-0.080851458 0.80900002 0.028368933 1.7511635e-38 263 220
-0.079433009 0.80900002 0.028368933 1.7327606e-38 264 220
-0.078014567 0.80900002 0.028368933 1.7050659e-38 265 220
-0.076596119 0.80900002 0.028368933 1.6958098e-38 266 220
-0.07517767 0.80900002 0.028368933 1.6404924e-38 267 220
-0.073576882 0.80699998 0.028298797 1.6403845e-38 268 220
-0.072161935 0.80699998 0.028298797 1.6035421e-38 269 220
-0.07092233 0.80900002 0.028368933 1.5758123e-38 270 220
-0.069503881 0.80900002 0.028368933 1.5481896e-38 271 220
-0.06808544 0.80900002 0.028368933 1.4745775e-38 272 220
-0.066666998 0.80900002 0.028368933 1.4469189e-38 273 220
-0.065409854 0.81099999 0.028439065 1.3729118e-38 274 220
-0.063987896 0.81099999 0.028439065 1.262277e-38 275 220
-0.062874533 0.815 0.028579332 1.2620995e-38 276 220
-0.061596353 0.81699997 0.028649466 1.2436604e-38 277 220
-0.060163878 0.81699997 0.028649466 1.1335301e-38 278 220
-0.058875177 0.81900001 0.0287196 1.1242746e-38 279 220
-0.057439201 0.81900001 0.0287196 1.1059437e-38 280 220
-0.056003217 0.81900001 0.0287196 1.078249e-38 281 220
-0.095035926 0.80900002 0.026950486 1.4383161e-38 253 221
-0.093617477 0.80900002 0.026950486 1.6314893e-38 254 221
-0.092426963 0.81099999 0.027017111 1.6407448e-38 255 221
-0.090780586 0.80900002 0.026950486 1.6775149e-38 256 221
-0.089362144 0.80900002 0.026950486 1.7143931e-38 257 221
-0.087943695 0.80900002 0.026950486 1.7328675e-38 258 221
-0.086311333 0.80699998 0.026883857 1.7420871e-38 259 221
-0.084896393 0.80699998 0.026883857 1.7604539e-38 260 221
-0.083688356 0.80900002 0.026950486 1.7604539e-38 261 221
-0.082066514 0.80699998 0.026883857 1.7695663e-38 262 221
-0.080651581 0.80699998 0.026883857 1.7603467e-38 263 221
-0.079433009 0.80900002 0.026950486 1.732688e-38 264 221
-0.078014567 0.80900002 0.026950486 1.7050293e-38 265 221
-0.076596119 0.80900002 0.026950486 1.6681861e-38 266 221
-0.07517767 0.80900002 0.026950486 1.6313079e-38 267 221
-0.073576882 0.80699998 0.026883857 1.6403477e-38 268 221
-0.072161935 0.80699998 0.026883857 1.6126888e-38 269 221
-0.07092233 0.80900002 0.026950486 1.5574798e-38 270 221
-0.069503881 0.80900002 0.026950486 1.5297851e-38 271 221
-0.06808544 0.80900002 0.026950486 1.5112753e-38 272 221
-0.066666998 0.80900002 0.026950486 1.4006764e-38 273 221
-0.065409854 0.81099999 0.027017111 1.2994797e-38 274 221
-0.063987896 0.81099999 0.027017111 1.1888449e-38 275 221
-0.062565938 0.81099999 0.027017111 1.1888105e-38 276 221
-0.061596353 0.81699997 0.027216991 1.1611159e-38 277 221
-0.060163878 0.81699997 0.027216991 1.151861e-38 278 221
-0.058875177 0.81900001 0.027283618 1.1242382e-38 279 221
-0.057439201 0.81900001 0.027283618 1.0782493e-38 280 221
-0.056003217 0.81900001 0.027283618 1.0137123e-38 281 221
-0.096454374 0.80900002 0.025532039 1.4841972e-38 252 222
-0.095035926 0.80900002 0.025532039 1.530295e-38 253 222
-0.093617477 0.80900002 0.025532039 1.6314528e-38 254 222
-0.092199028 0.80900002 0.025532039 1.6590754e-38 255 222
-0.090780586 0.80900002 0.025532039 1.7143565e-38 256 222
-0.089362144 0.80900002 0.025532039 1.7327957e-38 257 222
-0.087943695 0.80900002 0.025532039 1.7604183e-38 258 222
-0.086311333 0.80699998 0.025468919 1.7604183e-38 259 222
-0.084896393 0.80699998 0.025468919 1.7696385e-38 260 222
-0.083688356 0.80900002 0.025532039 1.7696385e-38 261 222
-0.082066514 0.80699998 0.025468919 1.7695663e-38 262 222
-0.080651581 0.80699998 0.025468919 1.7603467e-38 263 222
-0.079236634 0.80699998 0.025468919 1.741907e-38 264 222
-0.077821694 0.80699998 0.025468919 1.7050647e-38 265 222
-0.076406755 0.80699998 0.025468919 1.6590392e-38 266 222
-0.074991815 0.80699998 0.025468919 1.6037218e-38 267 222
-0.073576882 0.80699998 0.025468919 1.6127615e-38 268 222
-0.072161935 0.80699998 0.025468919 1.5851027e-38 269 222
-0.070746996 0.80699998 0.025468919 1.5391122e-38 270 222
-0.069503881 0.80900002 0.025532039 1.502234e-38 271 222
-0.06808544 0.80900002 0.025532039 1.447134e-38 272 222
-0.066666998 0.80900002 0.025532039 1.3088046e-38 273 222
-0.065248549 0.80900002 0.025532039 1.2350146e-38 274 222
-0.063987896 0.81099999 0.025595158 1.1796973e-38 275 222
-0.062565938 0.81099999 0.025595158 1.2254008e-38 276 222
-0.061596353 0.81699997 0.025784519 1.1885585e-38 277 222
-0.060163878 0.81699997 0.025784519 1.11509e-38 278 222
-0.058875177 0.81900001 0.02584764 1.0874673e-38 279 222
-0.057439201 0.81900001 0.02584764 1.0505183e-38 280 222
-0.096454374 0.80900002 0.024113594 1.5025634e-38 252 223
-0.095035926 0.80900002 0.024113594 1.5486973e-38 253 223
-0.093617477 0.80900002 0.024113594 1.649784e-38 254 223
-0.092199028 0.80900002 0.024113594 1.6958817e-38 255 223
-0.090556152 0.80699998 0.02405398 1.732688e-38 256 223
-0.08914122 0.80699998 0.02405398 1.7603467e-38 257 223
-0.08772628 0.80699998 0.02405398 1.7604186e-38 258 223
-0.086097427 0.80500001 0.023994366 1.7696382e-38 259 223
-0.084685996 0.80500001 0.023994366 1.7696385e-38 260 223
-0.083274566 0.80500001 0.023994366 1.7696385e-38 261 223
-0.081863128 0.80500001 0.023994366 1.7695663e-38 262 223
-0.080451705 0.80500001 0.023994366 1.7511272e-38 263 223
-0.079040267 0.80500001 0.023994366 1.7326875e-38 264 223
-0.077821694 0.80699998 0.02405398 1.6958451e-38 265 223
-0.076217398 0.80500001 0.023994366 1.6222331e-38 266 223
-0.074805968 0.80500001 0.023994366 1.5945385e-38 267 223
-0.073576882 0.80699998 0.02405398 1.6035065e-38 268 223
-0.072161935 0.80699998 0.02405398 1.5758478e-38 269 223
-0.070746996 0.80699998 0.02405398 1.5298925e-38 270 223
-0.069332056 0.80699998 0.02405398 1.4837949e-38 271 223
-0.06808544 0.80900002 0.024113594 1.4010726e-38 272 223
-0.066666998 0.80900002 0.024113594 1.2720346e-38 273 223
-0.065248549 0.80900002 0.024113594 1.2624219e-38 274 223
-0.063830093 0.80900002 0.024113594 1.2347631e-38 275 223
-0.062565938 0.81099999 0.024173206 1.1978497e-38 276 223
-0.06144556 0.815 0.024292432 1.1701909e-38 277 223
-0.060016599 0.815 0.024292432 1.1242735e-38 278 223
-0.058875177 0.81900001 0.02441166 1.096579e-38 279 223
-0.096454374 0.80900002 0.022695147 1.5025269e-38 252 224
-0.095035926 0.80900002 0.022695147 1.5578441e-38 253 224
-0.093617477 0.80900002 0.022695147 1.6590038e-38 254 224
-0.091971092 0.80699998 0.022639038 1.7051015e-38 255 224
-0.090556152 0.80699998 0.022639038 1.7235408e-38 256 224
-0.088920295 0.80500001 0.022582933 1.7327603e-38 257 224
-0.087291449 0.80299997 0.022526825 1.7328322e-38 258 224
-0.085883521 0.80299997 0.022526825 1.7420518e-38 259 224
-0.084685996 0.80500001 0.022582933 1.7696382e-38 260 224
-0.08306767 0.80299997 0.022526825 1.7604186e-38 261 224
-0.081659742 0.80299997 0.022526825 1.7511269e-38 262 224
-0.08025182 0.80299997 0.022526825 1.7419073e-38 263 224
-0.078843892 0.80299997 0.022526825 1.7234315e-38 264 224
-0.077628836 0.80500001 0.022582933 1.6865534e-38 265 224
-0.076217398 0.80500001 0.022582933 1.6221605e-38 266 224
-0.074805968 0.80500001 0.022582933 1.5945019e-38 267 224
-0.07339453 0.80500001 0.022582933 1.5943223e-38 268 224
-0.071983099 0.80500001 0.022582933 1.5574442e-38 269 224
-0.070571661 0.80500001 0.022582933 1.5297851e-38 270 224
-0.069332056 0.80699998 0.022639038 1.4837233e-38 271 224
-0.067917116 0.80699998 0.022639038 1.4467384e-38 272 224
-0.066502176 0.80699998 0.022639038 1.3361395e-38 273 224
-0.065248549 0.80900002 0.022695147 1.3082674e-38 274 224
-0.063830093 0.80900002 0.022695147 1.2622054e-38 275 224
-0.062565938 0.81099999 0.022751253 1.1886654e-38 276 224
-0.061294779 0.81300002 0.02280736 1.1609707e-38 277 224
-0.060016599 0.815 0.022863466 1.105762e-38 278 224
-0.058587633 0.815 0.022863466 1.0688477e-38 279 224
-0.098114774 0.81099999 0.021329299 1.3187886e-38 251 225
-0.096454374 0.80900002 0.021276699 1.5485511e-38 252 225
-0.095035926 0.80900002 0.021276699 1.5946131e-38 253 225
-0.093617477 0.80900002 0.021276699 1.6590036e-38 254 225
-0.091971092 0.80699998 0.021224098 1.7051012e-38 255 225
-0.090331733 0.80500001 0.021171499 1.732688e-38 256 225
-0.088920295 0.80500001 0.021171499 1.7511272e-38 257 225
-0.087291449 0.80299997 0.0211189 1.7511635e-38 258 225
-0.085883521 0.80299997 0.0211189 1.7604189e-38 259 225
-0.084475599 0.80299997 0.0211189 1.769531e-38 260 225
-0.08306767 0.80299997 0.0211189 1.769531e-38 261 225
-0.081659742 0.80299997 0.0211189 1.7511272e-38 262 225
-0.08025182 0.80299997 0.0211189 1.732688e-38 263 225
-0.078843892 0.80299997 0.0211189 1.7050649e-38 264 225
-0.077435955 0.80299997 0.0211189 1.6681508e-38 265 225
-0.076028034 0.80299997 0.0211189 1.6404924e-38 266 225
-0.074805968 0.80500001 0.021171499 1.6036142e-38 267 225
-0.073212177 0.80299997 0.0211189 1.5759557e-38 268 225
-0.071804255 0.80299997 0.0211189 1.5574807e-38 269 225
-0.070571661 0.80500001 0.021171499 1.5114907e-38 270 225
-0.06916023 0.80500001 0.021171499 1.465393e-38 271 225
-0.067917116 0.80699998 0.021224098 1.3824185e-38 272 225
-0.066502176 0.80699998 0.021224098 1.2349415e-38 273 225
-0.065248549 0.80900002 0.021276699 1.2714264e-38 274 225
-0.063830093 0.80900002 0.021276699 1.2437676e-38 275 225
-0.062565938 0.81099999 0.021329299 1.1611156e-38 276 225
-0.061294779 0.81300002 0.0213819 1.1242732e-38 277 225
-0.059869319 0.81300002 0.0213819 1.0782477e-38 278 225
-0.097872816 0.80900002 0.019858252 1.3369382e-38 251 226
-0.096454374 0.80900002 0.019858252 1.566953e-38 252 226
-0.094800979 0.80699998 0.019809159 1.6037952e-38 253 226
-0.093386032 0.80699998 0.019809159 1.6682237e-38 254 226
-0.091515228 0.80299997 0.019710973 1.7050659e-38 255 226
-0.090107299 0.80299997 0.019710973 1.7143215e-38 256 226
-0.088699371 0.80299997 0.019710973 1.7327606e-38 257 226
-0.087291449 0.80299997 0.019710973 1.7511637e-38 258 226
-0.085883521 0.80299997 0.019710973 1.7511637e-38 259 226
-0.084475599 0.80299997 0.019710973 1.7603833e-38 260 226
-0.08306767 0.80299997 0.019710973 1.7511637e-38 261 226
-0.081659742 0.80299997 0.019710973 1.7419076e-38 262 226
-0.08025182 0.80299997 0.019710973 1.7234325e-38 263 226
-0.078843892 0.80299997 0.019710973 1.6865899e-38 264 226
-0.077435955 0.80299997 0.019710973 1.6589311e-38 265 226
-0.076028034 0.80299997 0.019710973 1.6220886e-38 266 226
-0.074620105 0.80299997 0.019710973 1.6036136e-38 267 226
-0.073212177 0.80299997 0.019710973 1.5851024e-38 268 226
-0.071804255 0.80299997 0.019710973 1.5482602e-38 269 226
-0.070396326 0.80299997 0.019710973 1.5296784e-38 270 226
-0.06916023 0.80500001 0.019760067 1.4559219e-38 271 226
-0.0677488 0.80500001 0.019760067 1.3180263e-38 272 226
-0.066502176 0.80699998 0.019809159 1.2350502e-38 273 226
-0.065248549 0.80900002 0.019858252 1.2530955e-38 274 226
-0.063987896 0.81099999 0.019907346 1.2254008e-38 275 226
-0.062720239 0.81300002 0.01995644 1.1611156e-38 276 226
-0.06144556 0.815 0.020005532 1.1242732e-38 277 226
-0.060016599 0.815 0.020005532 9.8612624e-39 278 226
-0.098554865 0.80299997 0.018303044 1.4660827e-38 250 227
-0.097146936 0.80299997 0.018303044 1.3738511e-38 251 227
-0.095739007 0.80299997 0.018303044 1.6127615e-38 252 227
-0.094331078 0.80299997 0.018303044 1.6680788e-38 253 227
-0.092923149 0.80299997 0.018303044 1.6865181e-38 254 227
-0.091515228 0.80299997 0.018303044 1.7326157e-38 255 227
-0.090107299 0.80299997 0.018303044 1.7326878e-38 256 227
-0.088699371 0.80299997 0.018303044 1.7511269e-38 257 227
-0.087291449 0.80299997 0.018303044 1.751199e-38 258 227
-0.085883521 0.80299997 0.018303044 1.751199e-38 259 227
-0.084475599 0.80299997 0.018303044 1.7327969e-38 260 227
-0.08306767 0.80299997 0.018303044 1.7327969e-38 261 227
-0.081659742 0.80299997 0.018303044 1.732725e-38 262 227
-0.08025182 0.80299997 0.018303044 1.7050662e-38 263 227
-0.078843892 0.80299997 0.018303044 1.659076e-38 264 227
-0.077435955 0.80299997 0.018303044 1.6129782e-38 265 227
-0.076028034 0.80299997 0.018303044 1.5945391e-38 266 227
-0.074620105 0.80299997 0.018303044 1.5484412e-38 267 227
-0.073212177 0.80299997 0.018303044 1.5574457e-38 268 227
-0.071804255 0.80299997 0.018303044 1.5390066e-38 269 227
-0.070396326 0.80299997 0.018303044 1.4745791e-38 270 227
-0.06916023 0.80500001 0.018348632 1.3639803e-38 271 227
-0.0677488 0.80500001 0.018348632 1.2626384e-38 272 227
-0.066337362 0.80500001 0.018348632 1.1981015e-38 273 227
-0.065248549 0.80900002 0.018439807 1.1980298e-38 274 227
-0.063987896 0.81099999 0.018485393 1.1795906e-38 275 227
-0.062720239 0.81300002 0.01853098 1.1334945e-38 276 227
-0.061596353 0.81699997 0.018622151 1.1150552e-38 277 227
-0.098554865 0.80299997 0.016895119 1.4659378e-38 250 228
-0.097146936 0.80299997 0.016895119 1.4014009e-38 251 228
-0.095739007 0.80299997 0.016895119 1.5945019e-38 252 228
-0.094331078 0.80299997 0.016895119 1.63138e-38 253 228
-0.092923149 0.80299997 0.016895119 1.6866265e-38 254 228
-0.091515228 0.80299997 0.016895119 1.7051015e-38 255 228
-0.090107299 0.80299997 0.016895119 1.7235411e-38 256 228
-0.088699371 0.80299997 0.016895119 1.7327606e-38 257 228
-0.087182745 0.80199999 0.016874079 1.7511637e-38 258 228
-0.085776575 0.80199999 0.016874079 1.7511637e-38 259 228
-0.084475599 0.80299997 0.016895119 1.751164e-38 260 228
-0.08306767 0.80299997 0.016895119 1.732725e-38 261 228
-0.081659742 0.80299997 0.016895119 1.741872e-38 262 228
-0.080151878 0.80199999 0.016874079 1.7050296e-38 263 228
-0.0787457 0.80199999 0.016874079 1.6773704e-38 264 228
-0.07733953 0.80199999 0.016874079 1.6312726e-38 265 228
-0.075933352 0.80199999 0.016874079 1.6036139e-38 266 228
-0.074527182 0.80199999 0.016874079 1.5759911e-38 267 228
-0.073121011 0.80199999 0.016874079 1.5299302e-38 268 228
-0.071714841 0.80199999 0.016874079 1.5022355e-38 269 228
-0.070396326 0.80299997 0.016895119 1.4286255e-38 270 228
-0.06916023 0.80500001 0.0169372 1.3179907e-38 271 228
-0.0677488 0.80500001 0.0169372 1.2533471e-38 272 228
-0.066337362 0.80500001 0.0169372 1.2256526e-38 273 228
-0.065248549 0.80900002 0.01702136 1.1888102e-38 274 228
-0.063987896 0.81099999 0.017063441 1.1703711e-38 275 228
-0.062565938 0.81099999 0.017063441 1.11509e-38 276 228
-0.099838302 0.80199999 0.015467905 1.4294992e-38 249 229
-0.098432131 0.80199999 0.015467905 1.4749776e-38 250 229
-0.097146936 0.80299997 0.015487193 1.4749776e-38 251 229
-0.095739007 0.80299997 0.015487193 1.622053e-38 252 229
-0.094331078 0.80299997 0.015487193 1.6681508e-38 253 229
-0.092923149 0.80299997 0.015487193 1.6866265e-38 254 229
-0.091515228 0.80299997 0.015487193 1.7143212e-38 255 229
-0.090107299 0.80299997 0.015487193 1.7327253e-38 256 229
-0.088588916 0.80199999 0.015467905 1.7511284e-38 257 229
-0.087182745 0.80199999 0.015467905 1.7511284e-38 258 229
-0.085776575 0.80199999 0.015467905 1.7511284e-38 259 229
-0.084370397 0.80199999 0.015467905 1.7511637e-38 260 229
-0.082964227 0.80199999 0.015467905 1.7327606e-38 261 229
-0.081558049 0.80199999 0.015467905 1.7143212e-38 262 229
-0.080151878 0.80199999 0.015467905 1.6958819e-38 263 229
-0.0787457 0.80199999 0.015467905 1.6772985e-38 264 229
-0.07733953 0.80199999 0.015467905 1.6403842e-38 265 229
-0.075933352 0.80199999 0.015467905 1.6036139e-38 266 229
-0.074527182 0.80199999 0.015467905 1.5667356e-38 267 229
-0.073121011 0.80199999 0.015467905 1.52993e-38 268 229
-0.071714841 0.80199999 0.015467905 1.4746126e-38 269 229
-0.070308663 0.80199999 0.015467905 1.382563e-38 270 229
-0.068988405 0.80299997 0.015487193 1.2811838e-38 271 229
-0.0677488 0.80500001 0.015525767 1.2991929e-38 272 229
-0.066502176 0.80699998 0.015564339 1.2714983e-38 273 229
-0.065248549 0.80900002 0.015602913 1.1796625e-38 274 229
-0.063830093 0.80900002 0.015602913 1.1427844e-38 275 229
-0.062565938 0.81099999 0.015641484 1.1058351e-38 276 229
-0.10124448 0.80199999 0.014061732 1.687502e-38 248 230
-0.099838302 0.80199999 0.014061732 1.4017316e-38 249 230
-0.098432131 0.80199999 0.014061732 1.4656857e-38 250 230
-0.097025953 0.80199999 0.014061732 1.484125e-38 251 230
-0.095739007 0.80299997 0.014079265 1.6312375e-38 252 230
-0.094331078 0.80299997 0.014079265 1.6773353e-38 253 230
-0.092923149 0.80299997 0.014079265 1.695811e-38 254 230
-0.091401257 0.80199999 0.014061732 1.7142862e-38 255 230
-0.089995086 0.80199999 0.014061732 1.73269e-38 256 230
-0.088588916 0.80199999 0.014061732 1.7510931e-38 257 230
-0.087182745 0.80199999 0.014061732 1.7603483e-38 258 230
-0.085776575 0.80199999 0.014061732 1.7603483e-38 259 230
-0.084370397 0.80199999 0.014061732 1.7235774e-38 260 230
-0.082964227 0.80199999 0.014061732 1.7143578e-38 261 230
-0.081558049 0.80199999 0.014061732 1.7234327e-38 262 230
-0.080151878 0.80199999 0.014061732 1.6865546e-38 263 230
-0.0787457 0.80199999 0.014061732 1.6680791e-38 264 230
-0.07733953 0.80199999 0.014061732 1.6403845e-38 265 230
-0.075933352 0.80199999 0.014061732 1.6036139e-38 266 230
-0.074527182 0.80199999 0.014061732 1.5575161e-38 267 230
-0.073121011 0.80199999 0.014061732 1.5482612e-38 268 230
-0.071714841 0.80199999 0.014061732 1.4929797e-38 269 230
-0.070308663 0.80199999 0.014061732 1.3916383e-38 270 230
-0.068902493 0.80199999 0.014061732 1.336321e-38 271 230
-0.067580476 0.80299997 0.014079265 1.2991926e-38 272 230
-0.066502176 0.80699998 0.014149399 1.2531308e-38 273 230
-0.065087236 0.80699998 0.014149399 1.1796625e-38 274 230
-0.063672297 0.80699998 0.014149399 1.1427844e-38 275 230
-0.062257357 0.80699998 0.014149399 1.1057638e-38 276 230
-0.10213868 0.79799998 0.012592439 1.7888839e-38 247 231
-0.10073951 0.79799998 0.012592439 1.6598065e-38 248 231
-0.099589325 0.80000001 0.012624 1.3647805e-38 249 231
-0.098186664 0.80000001 0.012624 1.4932002e-38 250 231
-0.097025953 0.80199999 0.01265556 1.5300426e-38 251 231
-0.095619783 0.80199999 0.01265556 1.6312747e-38 252 231
-0.094213605 0.80199999 0.01265556 1.6589335e-38 253 231
-0.092923149 0.80299997 0.012671339 1.695776e-38 254 231
-0.091401257 0.80199999 0.01265556 1.7234707e-38 255 231
-0.089770667 0.80000001 0.012624 1.7235426e-38 256 231
-0.088367999 0.80000001 0.012624 1.7235426e-38 257 231
-0.086965337 0.80000001 0.012624 1.7510931e-38 258 231
-0.085562661 0.80000001 0.012624 1.7510931e-38 259 231
-0.08416 0.80000001 0.012624 1.732725e-38 260 231
-0.082757331 0.80000001 0.012624 1.7235055e-38 261 231
-0.08135467 0.80000001 0.012624 1.7325804e-38 262 231
-0.079952002 0.80000001 0.012624 1.6864827e-38 263 231
-0.078549333 0.80000001 0.012624 1.6771907e-38 264 231
-0.077146664 0.80000001 0.012624 1.6403126e-38 265 231
-0.075743996 0.80000001 0.012624 1.5943939e-38 266 231
-0.074341334 0.80000001 0.012624 1.5575517e-38 267 231
-0.073121011 0.80199999 0.01265556 1.5390769e-38 268 231
-0.071714841 0.80199999 0.01265556 1.4837596e-38 269 231
-0.070308663 0.80199999 0.01265556 1.3548674e-38 270 231
-0.068902493 0.80199999 0.01265556 1.29955e-38 271 231
-0.067580476 0.80299997 0.012671339 1.289973e-38 272 231
-0.066337362 0.80500001 0.012702899 1.2438752e-38 273 231
-0.064764626 0.80299997 0.012671339 1.1888105e-38 274 231
-0.063356698 0.80299997 0.012671339 1.179555e-38 275 231
-0.10353784 0.79799998 0.011193279 1.7336385e-38 246 232
-0.10213868 0.79799998 0.011193279 1.7521135e-38 247 232
-0.10073951 0.79799998 0.011193279 1.5861929e-38 248 232
-0.099589325 0.80000001 0.011221333 1.3095702e-38 249 232
-0.098186664 0.80000001 0.011221333 1.5207862e-38 250 232
-0.096783996 0.80000001 0.011221333 1.5668839e-38 251 232
-0.095619783 0.80199999 0.011249386 1.6312022e-38 252 232
-0.094213605 0.80199999 0.011249386 1.6865196e-38 253 232
-0.092575997 0.80000001 0.011221333 1.7141063e-38 254 232
-0.091173328 0.80000001 0.011221333 1.7417651e-38 255 232
-0.089770667 0.80000001 0.011221333 1.723506e-38 256 232
