# .PCD v.7 - Point Cloud Data file format
FIELDS x y z rgb imX imY
SIZE 4 4 4 4 4 4
TYPE F F F F F F
COUNT 1 1 1 1 1 1
WIDTH 854
HEIGHT 1
VIEWPOINT 0 0 0 1 0 0 0
POINTS 854
DATA ascii
0.029000133 0.82700002 0.050750233 1.6129782e-38 340 205
0.030376498 0.82499999 0.0506275 1.6037586e-38 341 205
0.031822998 0.82499999 0.0506275 1.622018e-38 342 205
0.033269498 0.82499999 0.0506275 1.5943591e-38 343 205
0.034631841 0.82300001 0.050504766 1.5574445e-38 344 205
0.036074832 0.82300001 0.050504766 1.4836879e-38 345 205
0.037517827 0.82300001 0.050504766 1.501732e-38 346 205
0.038960818 0.82300001 0.050504766 1.4279755e-38 347 205
0.040305622 0.82099998 0.050382029 1.4189376e-38 348 205
0.041745111 0.82099998 0.050382029 1.455816e-38 349 205
0.043184597 0.82099998 0.050382029 1.4837989e-38 350 205
0.044624086 0.82099998 0.050382029 1.5391163e-38 351 205
0.046063572 0.82099998 0.050382029 1.6036514e-38 352 205
0.047503054 0.82099998 0.050382029 1.5759927e-38 353 205
0.048942544 0.82099998 0.050382029 1.5851731e-38 354 205
0.050382029 0.82099998 0.050382029 1.548295e-38 355 205
0.051821519 0.82099998 0.050382029 1.5665542e-38 356 205
0.053261004 0.82099998 0.050382029 1.5296759e-38 357 205
0.054567236 0.81900001 0.0502593 1.3087714e-38 358 205
0.056003217 0.81900001 0.0502593 1.317991e-38 359 205
0.057018399 0.81300002 0.049891099 1.3371941e-38 360 205
0.058443859 0.81300002 0.049891099 1.5308049e-38 361 205
0.0147806 0.84299999 0.050254039 1.3826378e-38 330 206
0.016181514 0.83899999 0.050015584 1.3918574e-38 331 206
0.017610481 0.83700001 0.049896359 1.4286255e-38 332 206
0.019032432 0.83499998 0.049777132 1.4286255e-38 333 206
0.020447372 0.833 0.049657907 1.4378082e-38 334 206
0.021855298 0.83099997 0.049538679 1.4378082e-38 335 206
0.023256212 0.829 0.049419452 1.4929091e-38 336 206
0.024709726 0.829 0.049419452 1.4929091e-38 337 206
0.02610012 0.82700002 0.049300224 1.4837242e-38 338 206
0.027550125 0.82700002 0.049300224 1.4837242e-38 339 206
0.028929999 0.82499999 0.049180996 1.4931959e-38 340 206
0.030376498 0.82499999 0.049180996 1.5392936e-38 341 206
0.031822998 0.82499999 0.049180996 1.5852123e-38 342 206
0.033188846 0.82300001 0.049061771 1.5944319e-38 343 206
0.034631841 0.82300001 0.049061771 1.5944316e-38 344 206
0.035987165 0.82099998 0.048942544 1.5667728e-38 345 206
0.037426651 0.82099998 0.048942544 1.5572659e-38 346 206
0.03886614 0.82099998 0.048942544 1.5019485e-38 347 206
0.040305622 0.82099998 0.048942544 1.4375566e-38 348 206
0.041745111 0.82099998 0.048942544 1.4283371e-38 349 206
0.043184597 0.82099998 0.048942544 1.5018785e-38 350 206
0.044624086 0.82099998 0.048942544 1.5479762e-38 351 206
0.046063572 0.82099998 0.048942544 1.5574107e-38 352 206
0.047503054 0.82099998 0.048942544 1.5758498e-38 353 206
0.048942544 0.82099998 0.048942544 1.5577331e-38 354 206
0.050382029 0.82099998 0.048942544 1.539258e-38 355 206
0.051821519 0.82099998 0.048942544 1.5941419e-38 356 206
0.053131256 0.81900001 0.048823319 1.5572996e-38 357 206
0.054567236 0.81900001 0.048823319 1.4742882e-38 358 206
0.055866458 0.81699997 0.048704091 1.4281904e-38 359 206
0.057018399 0.81300002 0.048465639 1.2261956e-38 360 206
0.058300085 0.81099999 0.048346411 1.382964e-38 361 206
0.05972204 0.81099999 0.048346411 1.4293932e-38 362 206
0.016181514 0.83899999 0.048544537 1.3458687e-38 331 207
0.017610481 0.83700001 0.048428819 1.4010747e-38 332 207
0.019032432 0.83499998 0.048313096 1.4010747e-38 333 207
0.020447372 0.833 0.048197377 1.4378085e-38 334 207
0.021855298 0.83099997 0.048081655 1.4378085e-38 335 207
0.023256212 0.829 0.04796594 1.4468848e-38 336 207
0.024709726 0.829 0.04796594 1.4468848e-38 337 207
0.02610012 0.82700002 0.047850218 1.4285188e-38 338 207
0.027550125 0.82700002 0.047850218 1.4285188e-38 339 207
0.028929999 0.82499999 0.047734499 1.4284113e-38 340 207
0.03030286 0.82300001 0.04761878 1.520571e-38 341 207
0.031745855 0.82300001 0.04761878 1.5575909e-38 342 207
0.033188846 0.82300001 0.04761878 1.5852136e-38 343 207
0.034631841 0.82300001 0.04761878 1.6220182e-38 344 207
0.035987165 0.82099998 0.047503054 1.6312378e-38 345 207
0.037426651 0.82099998 0.047503054 1.6402407e-38 346 207
0.03886614 0.82099998 0.047503054 1.5941069e-38 347 207
0.040305622 0.82099998 0.047503054 1.5387179e-38 348 207
0.041745111 0.82099998 0.047503054 1.5110591e-38 349 207
0.043079399 0.81900001 0.047387339 1.5202453e-38 350 207
0.044515379 0.81900001 0.047387339 1.547904e-38 351 207
0.045951359 0.81900001 0.047387339 1.511422e-38 352 207
0.047387339 0.81900001 0.047387339 1.5483362e-38 353 207
0.048823319 0.81900001 0.047387339 1.585212e-38 354 207
0.0502593 0.81900001 0.047387339 1.585212e-38 355 207
0.05169528 0.81900001 0.047387339 1.6218715e-38 356 207
0.053131256 0.81900001 0.047387339 1.5849574e-38 357 207
0.054567236 0.81900001 0.047387339 1.5571898e-38 358 207
0.055866458 0.81699997 0.047271617 1.5018725e-38 359 207
0.057158664 0.815 0.047155898 1.3822743e-38 360 207
0.058300085 0.81099999 0.046924461 1.4006775e-38 361 207
0.05972204 0.81099999 0.046924461 1.2908442e-38 362 207
0.061143994 0.81099999 0.046924461 1.4936746e-38 363 207
0.016181514 0.83899999 0.047073491 1.2905176e-38 331 208
0.017610481 0.83700001 0.046961278 1.3916773e-38 332 208
0.019032432 0.83499998 0.046849065 1.4285554e-38 333 208
0.020447372 0.833 0.046736851 1.4102224e-38 334 208
0.021855298 0.83099997 0.046624638 1.4010028e-38 335 208
0.023256212 0.829 0.046512425 1.4192617e-38 336 208
0.024709726 0.829 0.046512425 1.4100421e-38 337 208
0.02610012 0.82700002 0.046400212 1.428409e-38 338 208
0.027550125 0.82700002 0.046400212 1.428409e-38 339 208
0.028929999 0.82499999 0.046287999 1.446848e-38 340 208
0.03030286 0.82300001 0.046175785 1.4561034e-38 341 208
0.031745855 0.82300001 0.046175785 1.5299318e-38 342 208
0.033188846 0.82300001 0.046175785 1.5852492e-38 343 208
0.034631841 0.82300001 0.046175785 1.6220548e-38 344 208
0.035987165 0.82099998 0.046063572 1.6312744e-38 345 208
0.037426651 0.82099998 0.046063572 1.6956303e-38 346 208
0.03886614 0.82099998 0.046063572 1.658752e-38 347 208
0.040305622 0.82099998 0.046063572 1.6308775e-38 348 208
0.041745111 0.82099998 0.046063572 1.575596e-38 349 208
0.043079399 0.81900001 0.045951359 1.520388e-38 350 208
0.044515379 0.81900001 0.045951359 1.520388e-38 351 208
0.045951359 0.81900001 0.045951359 1.52968e-38 352 208
0.047387339 0.81900001 0.045951359 1.5849615e-38 353 208
0.048823319 0.81900001 0.045951359 1.6036517e-38 354 208
0.050136562 0.81699997 0.045839142 1.6220548e-38 355 208
0.051569037 0.81699997 0.045839142 1.6495322e-38 356 208
0.053001508 0.81699997 0.045839142 1.6310931e-38 357 208
0.054433983 0.81699997 0.045839142 1.6216549e-38 358 208
0.055866458 0.81699997 0.045839142 1.5847765e-38 359 208
0.057158664 0.815 0.045726933 1.5478999e-38 360 208
0.058443859 0.81300002 0.045614719 1.5202771e-38 361 208
0.059869319 0.81300002 0.045614719 1.3088826e-38 362 208
0.061294779 0.81300002 0.045614719 1.3918586e-38 363 208
0.062720239 0.81300002 0.045614719 1.3832581e-38 364 208
0.016258659 0.84299999 0.045819856 1.2352382e-38 331 209
0.017610481 0.83700001 0.045493741 1.290516e-38 332 209
0.019032432 0.83499998 0.045385033 1.3366138e-38 333 209
0.020447372 0.833 0.045276325 1.3916406e-38 334 209
0.021855298 0.83099997 0.045167617 1.4100438e-38 335 209
0.023256212 0.829 0.04505891 1.4100068e-38 336 209
0.024709726 0.829 0.04505891 1.4007873e-38 337 209
0.02610012 0.82700002 0.044950206 1.4007873e-38 338 209
0.027550125 0.82700002 0.044950206 1.4007873e-38 339 209
0.028929999 0.82499999 0.044841498 1.3917106e-38 340 209
0.030376498 0.82499999 0.044841498 1.4193693e-38 341 209
0.031745855 0.82300001 0.044732794 1.4838342e-38 342 209
0.033188846 0.82300001 0.044732794 1.5391516e-38 343 209
0.034631841 0.82300001 0.044732794 1.5944687e-38 344 209
0.035987165 0.82099998 0.044624086 1.6036883e-38 345 209
0.037426651 0.82099998 0.044624086 1.6404571e-38 346 209
0.03886614 0.82099998 0.044624086 1.6681158e-38 347 209
0.040207438 0.81900001 0.044515379 1.6127262e-38 348 209
0.041643418 0.81900001 0.044515379 1.594287e-38 349 209
0.043079399 0.81900001 0.044515379 1.5667377e-38 350 209
0.044406671 0.81699997 0.044406671 1.5667377e-38 351 209
0.045839142 0.81699997 0.044406671 1.5851773e-38 352 209
0.047271617 0.81699997 0.044406671 1.6036164e-38 353 209
0.048704091 0.81699997 0.044406671 1.6404571e-38 354 209
0.050013833 0.815 0.044297963 1.6588961e-38 355 209
0.051442798 0.815 0.044297963 1.68641e-38 356 209
0.052871767 0.815 0.044297963 1.6587873e-38 357 209
0.054300729 0.815 0.044297963 1.6678598e-38 358 209
0.055729698 0.815 0.044297963 1.6033228e-38 359 209
0.057158664 0.815 0.044297963 1.5756646e-38 360 209
0.058443859 0.81300002 0.044189259 1.5572254e-38 361 209
0.059869319 0.81300002 0.044189259 1.4284443e-38 362 209
0.061294779 0.81300002 0.044189259 1.4100053e-38 363 209
0.062720239 0.81300002 0.044189259 1.3276486e-38 364 209
0.064461298 0.81699997 0.044406671 1.5027843e-38 365 209
0.01765256 0.83899999 0.044131398 1.2168336e-38 332 210
0.019032432 0.83499998 0.043920998 1.2353088e-38 333 210
0.020447372 0.833 0.043815799 1.3271419e-38 334 210
0.021855298 0.83099997 0.043710597 1.3456169e-38 335 210
0.023256212 0.829 0.043605398 1.3640538e-38 336 210
0.024709726 0.829 0.043605398 1.3456148e-38 337 210
0.02610012 0.82700002 0.0435002 1.3823484e-38 338 210
0.027550125 0.82700002 0.0435002 1.3823484e-38 339 210
0.028929999 0.82499999 0.043394998 1.3823484e-38 340 210
0.030376498 0.82499999 0.043394998 1.4192268e-38 341 210
0.031745855 0.82300001 0.043289799 1.4102226e-38 342 210
0.033188846 0.82300001 0.043289799 1.4470649e-38 343 210
0.034547675 0.82099998 0.043184597 1.5392235e-38 344 210
0.035987165 0.82099998 0.043184597 1.5853215e-38 345 210
0.037426651 0.82099998 0.043184597 1.6129429e-38 346 210
0.038771462 0.81900001 0.043079399 1.6129429e-38 347 210
0.040207438 0.81900001 0.043079399 1.6221252e-38 348 210
0.041643418 0.81900001 0.043079399 1.6221252e-38 349 210
0.042974196 0.81699997 0.042974196 1.6313447e-38 350 210
0.044406671 0.81699997 0.042974196 1.649784e-38 351 210
0.045726933 0.815 0.042869002 1.6590754e-38 352 210
0.047155898 0.815 0.042869002 1.6314528e-38 353 210
0.048584864 0.815 0.042869002 1.6773707e-38 354 210
0.050013833 0.815 0.042869002 1.6865902e-38 355 210
0.051442798 0.815 0.042869002 1.6865902e-38 356 210
0.052871767 0.815 0.042869002 1.6681511e-38 357 210
0.054300729 0.815 0.042869002 1.6954848e-38 358 210
0.055729698 0.815 0.042869002 1.6494229e-38 359 210
0.057158664 0.815 0.042869002 1.6033956e-38 360 210
0.058587633 0.815 0.042869002 1.5757008e-38 361 210
0.059869319 0.81300002 0.042763799 1.5297485e-38 362 210
0.061294779 0.81300002 0.042763799 1.5020898e-38 363 210
0.062720239 0.81300002 0.042763799 1.364091e-38 364 210
0.064461298 0.81699997 0.042974196 1.4194084e-38 365 210
0.065893769 0.81699997 0.042974196 1.4015884e-38 366 210
0.06732624 0.81699997 0.042974196 1.6044188e-38 367 210
0.01765256 0.83899999 0.042660352 1.1983239e-38 332 211
0.01907802 0.83700001 0.042558659 1.1983239e-38 333 211
0.020447372 0.833 0.042355273 1.2902289e-38 334 211
0.021855298 0.83099997 0.042253576 1.2994486e-38 335 211
0.023256212 0.829 0.042151887 1.354727e-38 336 211
0.024709726 0.829 0.042151887 1.354727e-38 337 211
0.026163239 0.829 0.042151887 1.3639094e-38 338 211
0.027550125 0.82700002 0.04205019 1.3639094e-38 339 211
0.029000133 0.82700002 0.04205019 1.3639094e-38 340 211
0.030376498 0.82499999 0.041948497 1.391568e-38 341 211
0.031745855 0.82300001 0.041846808 1.3916756e-38 342 211
0.03310819 0.82099998 0.041745111 1.4193343e-38 343 211
0.034547675 0.82099998 0.041745111 1.4837989e-38 344 211
0.035987165 0.82099998 0.041745111 1.5483359e-38 345 211
0.037335481 0.81900001 0.041643418 1.5853571e-38 346 211
0.038771462 0.81900001 0.041643418 1.6037602e-38 347 211
0.040207438 0.81900001 0.041643418 1.6588961e-38 348 211
0.041643418 0.81900001 0.041643418 1.6588961e-38 349 211
0.042974196 0.81699997 0.041541722 1.649784e-38 350 211
0.044297963 0.815 0.041440032 1.6590036e-38 351 211
0.045726933 0.815 0.041440032 1.6683309e-38 352 211
0.047155898 0.815 0.041440032 1.6683309e-38 353 211
0.048584864 0.815 0.041440032 1.6866268e-38 354 211
0.050013833 0.815 0.041440032 1.6958464e-38 355 211
0.051316559 0.81300002 0.041338343 1.6958101e-38 356 211
0.052742019 0.81300002 0.041338343 1.6865546e-38 357 211
0.054300729 0.815 0.041440032 1.6865536e-38 358 211
0.055729698 0.815 0.041440032 1.6496394e-38 359 211
0.057158664 0.815 0.041440032 1.6677891e-38 360 211
0.058587633 0.815 0.041440032 1.6309469e-38 361 211
0.060016599 0.815 0.041440032 1.5666262e-38 362 211
0.06144556 0.815 0.041440032 1.5297838e-38 363 211
0.062874533 0.815 0.041440032 1.4653577e-38 364 211
0.064303495 0.815 0.041440032 1.4376989e-38 365 211
0.065893769 0.81699997 0.041541722 1.3184274e-38 366 211
0.06732624 0.81699997 0.041541722 1.4382458e-38 367 211
0.068758719 0.81699997 0.041541722 1.44812e-38 368 211
0.07019119 0.81699997 0.041541722 1.5679744e-38 369 211
0.019123605 0.83899999 0.041189305 1.1707012e-38 333 212
0.020496465 0.83499998 0.040992931 1.1707718e-38 334 212
0.0219079 0.833 0.040894743 1.1891749e-38 335 212
0.023312319 0.83099997 0.040796559 1.262785e-38 336 212
0.02476934 0.83099997 0.040796559 1.2720047e-38 337 212
0.026163239 0.829 0.040698372 1.2995891e-38 338 212
0.027616752 0.829 0.040698372 1.3088088e-38 339 212
0.029000133 0.82700002 0.040600184 1.3455072e-38 340 212
0.030376498 0.82499999 0.040502001 1.3547267e-38 341 212
0.031745855 0.82300001 0.040403813 1.373238e-38 342 212
0.03310819 0.82099998 0.040305622 1.3916773e-38 343 212
0.034547675 0.82099998 0.040305622 1.4285904e-38 344 212
0.035987165 0.82099998 0.040305622 1.4562493e-38 345 212
0.037335481 0.81900001 0.040207438 1.5208567e-38 346 212
0.038771462 0.81900001 0.040207438 1.5761741e-38 347 212
0.040207438 0.81900001 0.040207438 1.6129799e-38 348 212
0.041541722 0.81699997 0.040109251 1.6221994e-38 349 212
0.042869002 0.815 0.040011063 1.6498211e-38 350 212
0.044297963 0.815 0.040011063 1.6590407e-38 351 212
0.045726933 0.815 0.040011063 1.649929e-38 352 212
0.047155898 0.815 0.040011063 1.6683321e-38 353 212
0.048465639 0.81300002 0.039912879 1.6958466e-38 354 212
0.049891099 0.81300002 0.039912879 1.7050662e-38 355 212
0.051316559 0.81300002 0.039912879 1.7234325e-38 356 212
0.052742019 0.81300002 0.039912879 1.7050293e-38 357 212
0.054167479 0.81300002 0.039912879 1.7142467e-38 358 212
0.055729698 0.815 0.040011063 1.6773686e-38 359 212
0.057158664 0.815 0.040011063 1.6955908e-38 360 212
0.058587633 0.815 0.040011063 1.6587125e-38 361 212
0.060016599 0.815 0.040011063 1.6126501e-38 362 212
0.06144556 0.815 0.040011063 1.5942109e-38 363 212
0.062874533 0.815 0.040011063 1.5573702e-38 364 212
0.064303495 0.815 0.040011063 1.5296756e-38 365 212
0.065732464 0.815 0.040011063 1.3639798e-38 366 212
0.067161433 0.815 0.040011063 1.3455405e-38 367 212
0.068590395 0.815 0.040011063 1.2820908e-38 368 212
0.070019364 0.815 0.040011063 1.5126159e-38 369 212
0.071448334 0.815 0.040011063 1.6137497e-38 370 212
0.020594653 0.83899999 0.039718259 1.1522618e-38 334 213
0.0220131 0.83700001 0.039623581 1.1061999e-38 335 213
0.023424532 0.83499998 0.039528899 1.1247084e-38 336 213
0.024828954 0.833 0.039434217 1.1892453e-38 337 213
0.026226358 0.83099997 0.039339535 1.2627838e-38 338 213
0.027616752 0.829 0.039244857 1.2811869e-38 339 213
0.029000133 0.82700002 0.039150178 1.3271389e-38 340 213
0.030376498 0.82499999 0.039055496 1.3271389e-38 341 213
0.031745855 0.82300001 0.038960818 1.3639094e-38 342 213
0.03310819 0.82099998 0.03886614 1.391568e-38 343 213
0.034547675 0.82099998 0.03886614 1.3916759e-38 344 213
0.035987165 0.82099998 0.03886614 1.4377378e-38 345 213
0.037335481 0.81900001 0.038771462 1.4655763e-38 346 213
0.038771462 0.81900001 0.038771462 1.5208937e-38 347 213
0.040109251 0.81699997 0.03867678 1.6037604e-38 348 213
0.041541722 0.81699997 0.03867678 1.6129802e-38 349 213
0.042869002 0.815 0.038582098 1.6773356e-38 350 213
0.044189259 0.81300002 0.038487419 1.6865552e-38 351 213
0.045614719 0.81300002 0.038487419 1.6866271e-38 352 213
0.047040179 0.81300002 0.038487419 1.6958466e-38 353 213
0.048465639 0.81300002 0.038487419 1.7050662e-38 354 213
0.049891099 0.81300002 0.038487419 1.7050662e-38 355 213
0.051316559 0.81300002 0.038487419 1.686807e-38 356 213
0.052742019 0.81300002 0.038487419 1.686807e-38 357 213
0.054167479 0.81300002 0.038487419 1.68677e-38 358 213
0.055592939 0.81300002 0.038487419 1.6775504e-38 359 213
0.057018399 0.81300002 0.038487419 1.7416905e-38 360 213
0.058443859 0.81300002 0.038487419 1.6955927e-38 361 213
0.059869319 0.81300002 0.038487419 1.6313429e-38 362 213
0.061294779 0.81300002 0.038487419 1.5944645e-38 363 213
0.062720239 0.81300002 0.038487419 1.5758811e-38 364 213
0.064145707 0.81300002 0.038487419 1.5482222e-38 365 213
0.065571159 0.81300002 0.038487419 1.4746106e-38 366 213
0.066996619 0.81300002 0.038487419 1.4377324e-38 367 213
0.068422079 0.81300002 0.038487419 1.3090976e-38 368 213
0.070019364 0.815 0.038582098 1.3828543e-38 369 213
0.071448334 0.815 0.038582098 1.4112411e-38 370 213
0.027616752 0.829 0.037791345 1.2351986e-38 339 214
0.029000133 0.82700002 0.037700173 1.2994812e-38 340 214
0.030376498 0.82499999 0.037608996 1.3179204e-38 341 214
0.031745855 0.82300001 0.037517827 1.3088444e-38 342 214
0.03310819 0.82099998 0.037426651 1.3364671e-38 343 214
0.034547675 0.82099998 0.037426651 1.3732027e-38 344 214
0.035987165 0.82099998 0.037426651 1.391642e-38 345 214
0.037335481 0.81900001 0.037335481 1.4102242e-38 346 214
0.038771462 0.81900001 0.037335481 1.4562861e-38 347 214
0.040109251 0.81699997 0.037244301 1.5300767e-38 348 214
0.041541722 0.81699997 0.037244301 1.5761385e-38 349 214
0.042869002 0.815 0.037153132 1.5947205e-38 350 214
0.044189259 0.81300002 0.03706196 1.6131597e-38 351 214
0.045614719 0.81300002 0.03706196 1.6682249e-38 352 214
0.047040179 0.81300002 0.03706196 1.6774445e-38 353 214
0.048465639 0.81300002 0.03706196 1.6775521e-38 354 214
0.049891099 0.81300002 0.03706196 1.6867717e-38 355 214
0.051316559 0.81300002 0.03706196 1.6867714e-38 356 214
0.052742019 0.81300002 0.03706196 1.6775517e-38 357 214
0.054167479 0.81300002 0.03706196 1.7051368e-38 358 214
0.055592939 0.81300002 0.03706196 1.6958814e-38 359 214
0.057018399 0.81300002 0.03706196 1.7051e-38 360 214
0.058443859 0.81300002 0.03706196 1.686625e-38 361 214
0.059869319 0.81300002 0.03706196 1.6864806e-38 362 214
0.061294779 0.81300002 0.03706196 1.6496025e-38 363 214
0.062720239 0.81300002 0.03706196 1.6310182e-38 364 214
0.064145707 0.81300002 0.03706196 1.594176e-38 365 214
0.065571159 0.81300002 0.03706196 1.5848491e-38 366 214
0.066996619 0.81300002 0.03706196 1.5387153e-38 367 214
0.068422079 0.81300002 0.03706196 1.3730903e-38 368 214
0.069847539 0.81300002 0.03706196 1.3638349e-38 369 214
0.071272999 0.81300002 0.03706196 1.2543953e-38 370 214
0.072698459 0.81300002 0.03706196 1.4664453e-38 371 214
0.029000133 0.82700002 0.036250167 1.2627835e-38 340 215
0.030376498 0.82499999 0.036162499 1.2627835e-38 341 215
0.031745855 0.82300001 0.036074832 1.3179557e-38 342 215
0.03310819 0.82099998 0.035987165 1.3364308e-38 343 215
0.034547675 0.82099998 0.035987165 1.3639819e-38 344 215
0.035987165 0.82099998 0.035987165 1.382421e-38 345 215
0.037335481 0.81900001 0.035899501 1.3824929e-38 346 215
0.038771462 0.81900001 0.035899501 1.4378103e-38 347 215
0.040109251 0.81699997 0.03581183 1.4563567e-38 348 215
0.041440032 0.815 0.035724167 1.5208937e-38 349 215
0.042869002 0.815 0.035724167 1.5854289e-38 350 215
0.044189259 0.81300002 0.0356365 1.6038682e-38 351 215
0.045614719 0.81300002 0.0356365 1.6590407e-38 352 215
0.047040179 0.81300002 0.0356365 1.6682603e-38 353 215
0.048465639 0.81300002 0.0356365 1.6683319e-38 354 215
0.049891099 0.81300002 0.0356365 1.6775873e-38 355 215
0.051316559 0.81300002 0.0356365 1.6867714e-38 356 215
0.052612271 0.81099999 0.035548832 1.6960268e-38 357 215
0.054034222 0.81099999 0.035548832 1.695955e-38 358 215
0.055592939 0.81300002 0.0356365 1.7143581e-38 359 215
0.056878131 0.81099999 0.035548832 1.695955e-38 360 215
0.058300085 0.81099999 0.035548832 1.6774798e-38 361 215
0.05972204 0.81099999 0.035548832 1.6958101e-38 362 215
0.061143994 0.81099999 0.035548832 1.6681155e-38 363 215
0.062565938 0.81099999 0.035548832 1.677117e-38 364 215
0.063987896 0.81099999 0.035548832 1.6402028e-38 365 215
0.065409854 0.81099999 0.035548832 1.5849577e-38 366 215
0.066831805 0.81099999 0.035548832 1.5573349e-38 367 215
0.068253763 0.81099999 0.035548832 1.474505e-38 368 215
0.069675706 0.81099999 0.035548832 1.4376267e-38 369 215
0.071272999 0.81300002 0.0356365 1.2630005e-38 370 215
0.072698459 0.81300002 0.0356365 1.3551602e-38 371 215
0.030450139 0.82700002 0.034800157 1.2534933e-38 341 216
0.031745855 0.82300001 0.034631841 1.2812219e-38 342 216
0.03310819 0.82099998 0.034547675 1.2996612e-38 343 216
0.034547675 0.82099998 0.034547675 1.3363955e-38 344 216
0.035899501 0.81900001 0.034463517 1.3456151e-38 345 216
0.037335481 0.81900001 0.034463517 1.4099365e-38 346 216
0.038771462 0.81900001 0.034463517 1.4284116e-38 347 216
0.040109251 0.81699997 0.034379359 1.446993e-38 348 216
0.041440032 0.815 0.034295198 1.4930908e-38 349 216
0.042869002 0.815 0.034295198 1.5759937e-38 350 216
0.044189259 0.81300002 0.03421104 1.6129078e-38 351 216
0.045614719 0.81300002 0.03421104 1.6039035e-38 352 216
0.047040179 0.81300002 0.03421104 1.6131231e-38 353 216
0.048465639 0.81300002 0.03421104 1.6407092e-38 354 216
0.049768366 0.81099999 0.034126882 1.6683319e-38 355 216
0.051190317 0.81099999 0.034126882 1.6775517e-38 356 216
0.052612271 0.81099999 0.034126882 1.6867714e-38 357 216
0.054034222 0.81099999 0.034126882 1.7143225e-38 358 216
0.055456176 0.81099999 0.034126882 1.7143225e-38 359 216
0.056878131 0.81099999 0.034126882 1.723506e-38 360 216
0.058300085 0.81099999 0.034126882 1.7142506e-38 361 216
0.05972204 0.81099999 0.034126882 1.7049943e-38 362 216
0.060993209 0.80900002 0.03404272 1.6865552e-38 363 216
0.062411651 0.80900002 0.03404272 1.6772985e-38 364 216
0.063830093 0.80900002 0.03404272 1.6219811e-38 365 216
0.065248549 0.80900002 0.03404272 1.5942857e-38 366 216
0.066666998 0.80900002 0.03404272 1.5758107e-38 367 216
0.06808544 0.80900002 0.03404272 1.5113459e-38 368 216
0.069675706 0.81099999 0.034126882 1.4652481e-38 369 216
0.071097665 0.81099999 0.034126882 1.3639801e-38 370 216
0.072519615 0.81099999 0.034126882 1.3547604e-38 371 216
0.074123919 0.81300002 0.03421104 1.2911312e-38 372 216
0.07517767 0.80900002 0.03404272 1.5031811e-38 373 216
0.076596119 0.80900002 0.03404272 1.6045296e-38 374 216
0.030450139 0.82700002 0.033350151 1.1708422e-38 341 217
0.031668708 0.82099998 0.03310819 1.2811503e-38 342 217
0.03310819 0.82099998 0.03310819 1.2995894e-38 343 217
0.034463517 0.81900001 0.033027537 1.3088444e-38 344 217
0.035899501 0.81900001 0.033027537 1.3364671e-38 345 217
0.037335481 0.81900001 0.033027537 1.3732014e-38 346 217
0.038771462 0.81900001 0.033027537 1.3916406e-38 347 217
0.040109251 0.81699997 0.032946885 1.4009672e-38 348 217
0.041440032 0.815 0.032866232 1.4378453e-38 349 217
0.042869002 0.815 0.032866232 1.5023451e-38 350 217
0.044189259 0.81300002 0.03278558 1.5576625e-38 351 217
0.045614719 0.81300002 0.03278558 1.6037955e-38 352 217
0.047040179 0.81300002 0.03278558 1.6222347e-38 353 217
0.048346411 0.81099999 0.032704927 1.6040107e-38 354 217
0.049768366 0.81099999 0.032704927 1.6224498e-38 355 217
0.051190317 0.81099999 0.032704927 1.6500009e-38 356 217
0.052612271 0.81099999 0.032704927 1.6684402e-38 357 217
0.054034222 0.81099999 0.032704927 1.6958841e-38 358 217
0.055456176 0.81099999 0.032704927 1.714323e-38 359 217
0.056878131 0.81099999 0.032704927 1.7234351e-38 360 217
0.058300085 0.81099999 0.032704927 1.7234351e-38 361 217
0.05957476 0.80900002 0.032624274 1.7326174e-38 362 217
0.060993209 0.80900002 0.032624274 1.7049946e-38 363 217
0.062411651 0.80900002 0.032624274 1.6865534e-38 364 217
0.063830093 0.80900002 0.032624274 1.6588945e-38 365 217
0.065087236 0.80699998 0.032543618 1.6586776e-38 366 217
0.066502176 0.80699998 0.032543618 1.6125798e-38 367 217
0.067917116 0.80699998 0.032543618 1.5757364e-38 368 217
0.069332056 0.80699998 0.032543618 1.5388583e-38 369 217
0.07092233 0.80900002 0.032624274 1.4652837e-38 370 217
0.072340779 0.80900002 0.032624274 1.419186e-38 371 217
0.073941574 0.81099999 0.032704927 1.2537457e-38 372 217
0.07517767 0.80900002 0.032624274 1.3920391e-38 373 217
0.076596119 0.80900002 0.032624274 1.4939655e-38 374 217
0.078014567 0.80900002 0.032624274 1.6046002e-38 375 217
0.031668708 0.82099998 0.031668708 1.2535289e-38 342 218
0.03310819 0.82099998 0.031668708 1.2811516e-38 343 218
0.034463517 0.81900001 0.031591557 1.2995891e-38 344 218
0.035899501 0.81900001 0.031591557 1.3272478e-38 345 218
0.037335481 0.81900001 0.031591557 1.3456504e-38 346 218
0.038771462 0.81900001 0.031591557 1.3640535e-38 347 218
0.040109251 0.81699997 0.03151441 1.3916756e-38 348 218
0.041440032 0.815 0.031437267 1.4285539e-38 349 218
0.042869002 0.815 0.031437267 1.474651e-38 350 218
0.044189259 0.81300002 0.03136012 1.5207848e-38 351 218
0.045614719 0.81300002 0.03136012 1.5394034e-38 352 218
0.046924461 0.81099999 0.031282969 1.5854654e-38 353 218
0.048346411 0.81099999 0.031282969 1.6039035e-38 354 218
0.049768366 0.81099999 0.031282969 1.6315262e-38 355 218
0.051190317 0.81099999 0.031282969 1.6499287e-38 356 218
0.052612271 0.81099999 0.031282969 1.6775873e-38 357 218
0.054034222 0.81099999 0.031282969 1.6866645e-38 358 218
0.055456176 0.81099999 0.031282969 1.6958841e-38 359 218
0.056878131 0.81099999 0.031282969 1.7325468e-38 360 218
0.058156308 0.80900002 0.031205826 1.7418022e-38 361 218
0.05957476 0.80900002 0.031205826 1.7418367e-38 362 218
0.060842417 0.80699998 0.031128678 1.7326171e-38 363 218
0.062257357 0.80699998 0.031128678 1.6958095e-38 364 218
0.063672297 0.80699998 0.031128678 1.6773704e-38 365 218
0.065087236 0.80699998 0.031128678 1.6587871e-38 366 218
0.066502176 0.80699998 0.031128678 1.6311284e-38 367 218
0.067917116 0.80699998 0.031128678 1.5942128e-38 368 218
0.069332056 0.80699998 0.031128678 1.548115e-38 369 218
0.070746996 0.80699998 0.031128678 1.5020172e-38 370 218
0.072161935 0.80699998 0.031128678 1.4835781e-38 371 218
0.073576882 0.80699998 0.031128678 1.354762e-38 372 218
0.074991815 0.80699998 0.031128678 1.3916403e-38 373 218
0.076406755 0.80699998 0.031128678 1.2912405e-38 374 218
0.078014567 0.80900002 0.031205826 1.4848513e-38 375 218
0.03310819 0.82099998 0.030229218 1.1984295e-38 343 219
0.034547675 0.82099998 0.030229218 1.2904064e-38 344 219
0.035899501 0.81900001 0.030155579 1.2996261e-38 345 219
0.037335481 0.81900001 0.030155579 1.308881e-38 346 219
0.038771462 0.81900001 0.030155579 1.3181006e-38 347 219
0.040109251 0.81699997 0.030081939 1.3549068e-38 348 219
0.041440032 0.815 0.030008299 1.3733461e-38 349 219
0.042869002 0.815 0.030008299 1.4010043e-38 350 219
0.044189259 0.81300002 0.02993466 1.4378827e-38 351 219
0.045614719 0.81300002 0.02993466 1.4656839e-38 352 219
0.046924461 0.81099999 0.02986102 1.5302209e-38 353 219
0.048346411 0.81099999 0.02986102 1.6129802e-38 354 219
0.049768366 0.81099999 0.02986102 1.6314193e-38 355 219
0.051190317 0.81099999 0.02986102 1.6407463e-38 356 219
0.052612271 0.81099999 0.02986102 1.6591856e-38 357 219
0.053900972 0.80900002 0.02978738 1.6866292e-38 358 219
0.055319421 0.80900002 0.02978738 1.6866292e-38 359 219
0.056737866 0.80900002 0.02978738 1.7142158e-38 360 219
0.058012534 0.80699998 0.029713741 1.7234354e-38 361 219
0.059427481 0.80699998 0.029713741 1.7143934e-38 362 219
0.060691636 0.80500001 0.029640101 1.6959544e-38 363 219
0.062103067 0.80500001 0.029640101 1.7235031e-38 364 219
0.063514493 0.80500001 0.029640101 1.6958804e-38 365 219
0.064925931 0.80500001 0.029640101 1.7048846e-38 366 219
0.066337362 0.80500001 0.029640101 1.6588227e-38 367 219
0.0677488 0.80500001 0.029640101 1.6311261e-38 368 219
0.06916023 0.80500001 0.029640101 1.5665892e-38 369 219
0.070571661 0.80500001 0.029640101 1.5664429e-38 370 219
0.071983099 0.80500001 0.029640101 1.5572232e-38 371 219
0.07339453 0.80500001 0.029640101 1.4467719e-38 372 219
0.074805968 0.80500001 0.029640101 1.4283326e-38 373 219
0.076217398 0.80500001 0.029640101 1.2354876e-38 374 219
0.077435955 0.80299997 0.029566457 1.4014399e-38 375 219
0.078843892 0.80299997 0.029566457 1.5399927e-38 376 219
0.034547675 0.82099998 0.028789733 1.2810081e-38 344 220
0.035987165 0.82099998 0.028789733 1.3086307e-38 345 220
0.037335481 0.81900001 0.0287196 1.3271403e-38 346 220
0.038771462 0.81900001 0.0287196 1.3456153e-38 347 220
0.040109251 0.81699997 0.028649466 1.3732014e-38 348 220
0.041440032 0.815 0.028579332 1.382421e-38 349 220
0.042869002 0.815 0.028579332 1.4284469e-38 350 220
0.044189259 0.81300002 0.0285092 1.4745087e-38 351 220
0.045502506 0.81099999 0.028439065 1.419659e-38 352 220
0.046924461 0.81099999 0.028439065 1.502599e-38 353 220
0.048346411 0.81099999 0.028439065 1.5944334e-38 354 220
0.049768366 0.81099999 0.028439065 1.6128725e-38 355 220
0.051190317 0.81099999 0.028439065 1.6313824e-38 356 220
0.052482527 0.80900002 0.028368933 1.659041e-38 357 220
0.053900972 0.80900002 0.028368933 1.6865562e-38 358 220
0.055182658 0.80699998 0.028298797 1.7050313e-38 359 220
0.056597594 0.80699998 0.028298797 1.7233625e-38 360 220
0.058012534 0.80699998 0.028298797 1.7418017e-38 361 220
0.059280202 0.80500001 0.028228667 1.7235057e-38 362 220
0.060691636 0.80500001 0.028228667 1.7235057e-38 363 220
0.062103067 0.80500001 0.028228667 1.69599e-38 364 220
0.063514493 0.80500001 0.028228667 1.6867703e-38 365 220
0.064925931 0.80500001 0.028228667 1.6682584e-38 366 220
0.066337362 0.80500001 0.028228667 1.6405996e-38 367 220
0.0677488 0.80500001 0.028228667 1.6587142e-38 368 220
0.06916023 0.80500001 0.028228667 1.6218718e-38 369 220
0.070571661 0.80500001 0.028228667 1.5575498e-38 370 220
0.071983099 0.80500001 0.028228667 1.529891e-38 371 220
0.07339453 0.80500001 0.028228667 1.5387883e-38 372 220
0.074805968 0.80500001 0.028228667 1.520349e-38 373 220
0.076217398 0.80500001 0.028228667 1.3364318e-38 374 220
0.077435955 0.80299997 0.028158531 1.3733461e-38 375 220
0.078843892 0.80299997 0.028158531 1.3555622e-38 376 220
0.035987165 0.82099998 0.027350245 1.2536385e-38 345 221
0.037335481 0.81900001 0.027283618 1.3087738e-38 346 221
0.038771462 0.81900001 0.027283618 1.3271769e-38 347 221
0.040109251 0.81699997 0.027216991 1.3640185e-38 348 221
0.041541722 0.81699997 0.027216991 1.3640185e-38 349 221
0.042869002 0.815 0.027150365 1.3733463e-38 350 221
0.044189259 0.81300002 0.02708374 1.3917495e-38 351 221
0.045502506 0.81099999 0.027017111 1.4102242e-38 352 221
0.046924461 0.81099999 0.027017111 1.4655057e-38 353 221
0.048346411 0.81099999 0.027017111 1.5024899e-38 354 221
0.049768366 0.81099999 0.027017111 1.5578072e-38 355 221
0.051190317 0.81099999 0.027017111 1.6037602e-38 356 221
0.052482527 0.80900002 0.026950486 1.631419e-38 357 221
0.053767715 0.80699998 0.026883857 1.6498584e-38 358 221
0.055182658 0.80699998 0.026883857 1.6682615e-38 359 221
0.056457333 0.80500001 0.026817232 1.6682615e-38 360 221
0.057868768 0.80500001 0.026817232 1.6775171e-38 361 221
0.059280202 0.80500001 0.026817232 1.6959913e-38 362 221
0.060691636 0.80500001 0.026817232 1.6959913e-38 363 221
0.062103067 0.80500001 0.026817232 1.7143209e-38 364 221
0.063514493 0.80500001 0.026817232 1.7051012e-38 365 221
0.064925931 0.80500001 0.026817232 1.7142116e-38 366 221
0.066337362 0.80500001 0.026817232 1.6865531e-38 367 221
0.0677488 0.80500001 0.026817232 1.70474e-38 368 221
0.06916023 0.80500001 0.026817232 1.6678619e-38 369 221
0.070571661 0.80500001 0.026817232 1.6403084e-38 370 221
0.071983099 0.80500001 0.026817232 1.584991e-38 371 221
0.07339453 0.80500001 0.026817232 1.5482557e-38 372 221
0.074805968 0.80500001 0.026817232 1.5298166e-38 373 221
0.076217398 0.80500001 0.026817232 1.419186e-38 374 221
0.077435955 0.80299997 0.026750606 1.4007468e-38 375 221
0.078843892 0.80299997 0.026750606 1.2448149e-38 376 221
0.035987165 0.82099998 0.025910759 1.2259443e-38 345 222
0.037426651 0.82099998 0.025910759 1.308666e-38 346 222
0.03886614 0.82099998 0.025910759 1.3455444e-38 347 222
0.040207438 0.81900001 0.02584764 1.3456151e-38 348 222
0.041541722 0.81699997 0.025784519 1.3640182e-38 349 222
0.042869002 0.815 0.025721399 1.3732731e-38 350 222
0.044189259 0.81300002 0.02565828 1.3824926e-38 351 222
0.045614719 0.81300002 0.02565828 1.4101517e-38 352 222
0.046924461 0.81099999 0.025595158 1.4562495e-38 353 222
0.048346411 0.81099999 0.025595158 1.4747959e-38 354 222
0.049768366 0.81099999 0.025595158 1.5393328e-38 355 222
0.051190317 0.81099999 0.025595158 1.6036886e-38 356 222
0.052482527 0.80900002 0.025532039 1.6313474e-38 357 222
0.053767715 0.80699998 0.025468919 1.6590057e-38 358 222
0.055045899 0.80500001 0.025405798 1.6682252e-38 359 222
0.056457333 0.80500001 0.025405798 1.6865564e-38 360 222
0.057868768 0.80500001 0.025405798 1.695776e-38 361 222
0.059280202 0.80500001 0.025405798 1.7142506e-38 362 222
0.060691636 0.80500001 0.025405798 1.723506e-38 363 222
0.062103067 0.80500001 0.025405798 1.7235057e-38 364 222
0.063514493 0.80500001 0.025405798 1.7235057e-38 365 222
0.064925931 0.80500001 0.025405798 1.7233974e-38 366 222
0.066337362 0.80500001 0.025405798 1.7049943e-38 367 222
0.0677488 0.80500001 0.025405798 1.7048846e-38 368 222
0.06916023 0.80500001 0.025405798 1.6772258e-38 369 222
0.070571661 0.80500001 0.025405798 1.6403461e-38 370 222
0.071983099 0.80500001 0.025405798 1.6126873e-38 371 222
0.07339453 0.80500001 0.025405798 1.5575851e-38 372 222
0.074805968 0.80500001 0.025405798 1.5114513e-38 373 222
0.076217398 0.80500001 0.025405798 1.4928695e-38 374 222
0.077435955 0.80299997 0.025342679 1.4560273e-38 375 222
0.078843892 0.80299997 0.025342679 1.2996259e-38 376 222
0.08025182 0.80299997 0.025342679 1.4286997e-38 377 222
0.037426651 0.82099998 0.024471272 1.2443103e-38 346 223
0.03886614 0.82099998 0.024471272 1.2904441e-38 347 223
0.040207438 0.81900001 0.02441166 1.3455072e-38 348 223
0.041643418 0.81900001 0.02441166 1.3639463e-38 349 223
0.042974196 0.81699997 0.024352046 1.3457223e-38 350 223
0.044297963 0.815 0.024292432 1.3549418e-38 351 223
0.045614719 0.81300002 0.02423282 1.3917123e-38 352 223
0.046924461 0.81099999 0.024173206 1.4101873e-38 353 223
0.048346411 0.81099999 0.024173206 1.4746161e-38 354 223
0.049768366 0.81099999 0.024173206 1.5207498e-38 355 223
0.051064078 0.80900002 0.024113594 1.5669189e-38 356 223
0.052352779 0.80699998 0.02405398 1.5946136e-38 357 223
0.053767715 0.80699998 0.02405398 1.6588985e-38 358 223
0.055045899 0.80500001 0.023994366 1.668118e-38 359 223
0.056457333 0.80500001 0.023994366 1.6865562e-38 360 223
0.057868768 0.80500001 0.023994366 1.6958116e-38 361 223
0.059280202 0.80500001 0.023994366 1.705031e-38 362 223
0.060540844 0.80299997 0.023934752 1.7142506e-38 363 223
0.061948773 0.80299997 0.023934752 1.7235057e-38 364 223
0.063356698 0.80299997 0.023934752 1.7235057e-38 365 223
0.064925931 0.80500001 0.023994366 1.7326527e-38 366 223
0.066337362 0.80500001 0.023994366 1.7326527e-38 367 223
0.067580476 0.80299997 0.023934752 1.7050649e-38 368 223
0.068988405 0.80299997 0.023934752 1.6681508e-38 369 223
0.070396326 0.80299997 0.023934752 1.6496744e-38 370 223
0.071804255 0.80299997 0.023934752 1.6036125e-38 371 223
0.073212177 0.80299997 0.023934752 1.5852078e-38 372 223
0.074620105 0.80299997 0.023934752 1.53911e-38 373 223
0.076217398 0.80500001 0.023994366 1.511451e-38 374 223
0.077435955 0.80299997 0.023934752 1.4653891e-38 375 223
0.078843892 0.80299997 0.023934752 1.3640151e-38 376 223
0.08025182 0.80299997 0.023934752 1.3547954e-38 377 223
0.081863128 0.80500001 0.023994366 1.2634729e-38 378 223
0.03886614 0.82099998 0.023031786 1.2352355e-38 347 224
0.040207438 0.81900001 0.022975679 1.3455072e-38 348 224
0.041643418 0.81900001 0.022975679 1.3547267e-38 349 224
0.042974196 0.81699997 0.022919571 1.3640532e-38 350 224
0.044297963 0.815 0.022863466 1.3640532e-38 351 224
0.045614719 0.81300002 0.02280736 1.3824207e-38 352 224
0.046924461 0.81099999 0.022751253 1.4100794e-38 353 224
0.048346411 0.81099999 0.022751253 1.4378097e-38 354 224
0.049768366 0.81099999 0.022751253 1.4655044e-38 355 224
0.051064078 0.80900002 0.022695147 1.5392606e-38 356 224
0.052352779 0.80699998 0.022639038 1.5853583e-38 357 224
0.053634465 0.80500001 0.022582933 1.6221644e-38 358 224
0.055045899 0.80500001 0.022582933 1.6221644e-38 359 224
0.056317061 0.80299997 0.022526825 1.6681533e-38 360 224
0.057724994 0.80299997 0.022526825 1.6681533e-38 361 224
0.059132915 0.80299997 0.022526825 1.6865915e-38 362 224
0.060540844 0.80299997 0.022526825 1.7050665e-38 363 224
0.061948773 0.80299997 0.022526825 1.695955e-38 364 224
0.063356698 0.80299997 0.022526825 1.7143581e-38 365 224
0.064764626 0.80299997 0.022526825 1.7235057e-38 366 224
0.066172548 0.80299997 0.022526825 1.7142862e-38 367 224
0.067580476 0.80299997 0.022526825 1.7233258e-38 368 224
0.068988405 0.80299997 0.022526825 1.7048508e-38 369 224
0.070396326 0.80299997 0.022526825 1.6680438e-38 370 224
0.071804255 0.80299997 0.022526825 1.6403492e-38 371 224
0.073212177 0.80299997 0.022526825 1.6036119e-38 372 224
0.074620105 0.80299997 0.022526825 1.5575501e-38 373 224
0.076028034 0.80299997 0.022526825 1.5299964e-38 374 224
0.077435955 0.80299997 0.022526825 1.4838986e-38 375 224
0.078843892 0.80299997 0.022526825 1.4469147e-38 376 224
0.080451705 0.80500001 0.022582933 1.3547192e-38 377 224
0.081863128 0.80500001 0.022582933 1.1986801e-38 378 224
0.040305622 0.82099998 0.021592299 1.2995908e-38 348 225
0.041643418 0.81900001 0.021539699 1.3088104e-38 349 225
0.042974196 0.81699997 0.021487098 1.3639816e-38 350 225
0.044297963 0.815 0.021434501 1.3732012e-38 351 225
0.045614719 0.81300002 0.0213819 1.3824563e-38 352 225
0.046924461 0.81099999 0.021329299 1.3916759e-38 353 225
0.048346411 0.81099999 0.021329299 1.4193343e-38 354 225
0.049645633 0.80900002 0.021276699 1.446993e-38 355 225
0.051064078 0.80900002 0.021276699 1.4839789e-38 356 225
0.05222303 0.80500001 0.021171499 1.5485158e-38 357 225
0.053634465 0.80500001 0.021171499 1.6219479e-38 358 225
0.055045899 0.80500001 0.021171499 1.6587903e-38 359 225
0.056317061 0.80299997 0.0211189 1.6680807e-38 360 225
0.057724994 0.80299997 0.0211189 1.6865199e-38 361 225
0.059132915 0.80299997 0.0211189 1.6865549e-38 362 225
0.060540844 0.80299997 0.0211189 1.704994e-38 363 225
0.061948773 0.80299997 0.0211189 1.6867703e-38 364 225
0.063356698 0.80299997 0.0211189 1.69599e-38 365 225
0.064764626 0.80299997 0.0211189 1.723506e-38 366 225
0.066172548 0.80299997 0.0211189 1.7327256e-38 367 225
0.067580476 0.80299997 0.0211189 1.7325821e-38 368 225
0.068902493 0.80199999 0.021092599 1.7049593e-38 369 225
0.070308663 0.80199999 0.021092599 1.6772635e-38 370 225
0.071714841 0.80199999 0.021092599 1.6495688e-38 371 225
0.073121011 0.80199999 0.021092599 1.5945375e-38 372 225
0.074527182 0.80199999 0.021092599 1.5576233e-38 373 225
0.076028034 0.80299997 0.0211189 1.5301428e-38 374 225
0.077435955 0.80299997 0.0211189 1.4656059e-38 375 225
0.078843892 0.80299997 0.0211189 1.4653906e-38 376 225
0.08025182 0.80299997 0.0211189 1.419293e-38 377 225
0.081863128 0.80500001 0.021171499 1.2996614e-38 378 225
0.083274566 0.80500001 0.021171499 1.3181006e-38 379 225
0.040305622 0.82099998 0.020152811 1.2074681e-38 348 226
0.041643418 0.81900001 0.020103719 1.2627853e-38 349 226
0.042974196 0.81699997 0.020054625 1.308881e-38 350 226
0.044189259 0.81300002 0.01995644 1.3181006e-38 351 226
0.045614719 0.81300002 0.01995644 1.3732731e-38 352 226
0.046924461 0.81099999 0.019907346 1.3824926e-38 353 226
0.048346411 0.81099999 0.019907346 1.3733811e-38 354 226
0.049645633 0.80900002 0.019858252 1.3917842e-38 355 226
0.050937839 0.80699998 0.019809159 1.446993e-38 356 226
0.05222303 0.80500001 0.019760067 1.5115299e-38 357 226
0.053634465 0.80500001 0.019760067 1.5668821e-38 358 226
0.055045899 0.80500001 0.019760067 1.5853571e-38 359 226
0.056317061 0.80299997 0.019710973 1.6313827e-38 360 226
0.057724994 0.80299997 0.019710973 1.6313827e-38 361 226
0.059132915 0.80299997 0.019710973 1.6406742e-38 362 226
0.060540844 0.80299997 0.019710973 1.6498937e-38 363 226
0.061948773 0.80299997 0.019710973 1.6592209e-38 364 226
0.063277796 0.80199999 0.019686425 1.6684405e-38 365 226
0.064683966 0.80199999 0.019686425 1.6959559e-38 366 226
0.066090144 0.80199999 0.019686425 1.7052114e-38 367 226
0.067496315 0.80199999 0.019686425 1.7143578e-38 368 226
0.068902493 0.80199999 0.019686425 1.686735e-38 369 226
0.070308663 0.80199999 0.019686425 1.7049918e-38 370 226
0.071535997 0.80000001 0.019637333 1.6681135e-38 371 226
0.072938666 0.80000001 0.019637333 1.6497085e-38 372 226
0.074341334 0.80000001 0.019637333 1.6220138e-38 373 226
0.075933352 0.80199999 0.019686425 1.5760589e-38 374 226
0.07733953 0.80199999 0.019686425 1.5299611e-38 375 226
0.0787457 0.80199999 0.019686425 1.5297457e-38 376 226
0.08025182 0.80299997 0.019710973 1.4836837e-38 377 226
0.081659742 0.80299997 0.019710973 1.373232e-38 378 226
0.08306767 0.80299997 0.019710973 1.2902559e-38 379 226
0.084685996 0.80500001 0.019760067 1.217301e-38 380 226
0.040403813 0.82300001 0.018758914 1.096907e-38 348 227
0.041643418 0.81900001 0.018667741 1.1891028e-38 349 227
0.042974196 0.81699997 0.018622151 1.3089179e-38 350 227
0.044189259 0.81300002 0.01853098 1.3089179e-38 351 227
0.045502506 0.81099999 0.018485393 1.3549415e-38 352 227
0.046924461 0.81099999 0.018485393 1.3549415e-38 353 227
0.048346411 0.81099999 0.018485393 1.3825277e-38 354 227
0.049645633 0.80900002 0.018439807 1.4010028e-38 355 227
0.050937839 0.80699998 0.018394221 1.437845e-38 356 227
0.05222303 0.80500001 0.018348632 1.4655397e-38 357 227
0.053634465 0.80500001 0.018348632 1.5209287e-38 358 227
0.055045899 0.80500001 0.018348632 1.5578428e-38 359 227
0.056317061 0.80299997 0.018303044 1.6311672e-38 360 227
0.057724994 0.80299997 0.018303044 1.677265e-38 361 227
0.059132915 0.80299997 0.018303044 1.6497861e-38 362 227
0.060540844 0.80299997 0.018303044 1.6590057e-38 363 227
0.061871622 0.80199999 0.018280253 1.6865567e-38 364 227
0.063277796 0.80199999 0.018280253 1.6957763e-38 365 227
0.064683966 0.80199999 0.018280253 1.6867364e-38 366 227
0.066090144 0.80199999 0.018280253 1.6959559e-38 367 227
0.067496315 0.80199999 0.018280253 1.7143225e-38 368 227
0.068730667 0.80000001 0.018234666 1.6959194e-38 369 227
0.070133328 0.80000001 0.018234666 1.6775151e-38 370 227
0.071535997 0.80000001 0.018234666 1.6498564e-38 371 227
0.072938666 0.80000001 0.018234666 1.6588955e-38 372 227
0.074341334 0.80000001 0.018234666 1.6128337e-38 373 227
0.075743996 0.80000001 0.018234666 1.5576958e-38 374 227
0.077146664 0.80000001 0.018234666 1.5300372e-38 375 227
0.0787457 0.80199999 0.018280253 1.5298923e-38 376 227
0.080151878 0.80199999 0.018280253 1.4653553e-38 377 227
0.081558049 0.80199999 0.018280253 1.4468087e-38 378 227
0.08306767 0.80299997 0.018303044 1.3914913e-38 379 227
0.084475599 0.80299997 0.018303044 1.3088828e-38 380 227
0.085883521 0.80299997 0.018303044 1.4840547e-38 381 227
0.041643418 0.81900001 0.017231759 1.1613365e-38 349 228
0.042974196 0.81699997 0.01718968 1.2811162e-38 350 228
0.044189259 0.81300002 0.01710552 1.3088109e-38 351 228
0.045502506 0.81099999 0.017063441 1.3182075e-38 352 228
0.046924461 0.81099999 0.017063441 1.3274629e-38 353 228
0.048346411 0.81099999 0.017063441 1.3641967e-38 354 228
0.049645633 0.80900002 0.01702136 1.3918195e-38 355 228
0.050937839 0.80699998 0.016979279 1.3919277e-38 356 228
0.05222303 0.80500001 0.0169372 1.4195504e-38 357 228
0.053634465 0.80500001 0.0169372 1.4839791e-38 358 228
0.055045899 0.80500001 0.0169372 1.5392606e-38 359 228
0.056317061 0.80299997 0.016895119 1.5853939e-38 360 228
0.057724994 0.80299997 0.016895119 1.5946136e-38 361 228
0.059132915 0.80299997 0.016895119 1.6221644e-38 362 228
0.060465451 0.80199999 0.016874079 1.631384e-38 363 228
0.061871622 0.80199999 0.016874079 1.649859e-38 364 228
0.063277796 0.80199999 0.016874079 1.6682621e-38 365 228
0.064522661 0.80000001 0.016832 1.6684051e-38 366 228
0.065925337 0.80000001 0.016832 1.6684051e-38 367 228
0.067159683 0.79799998 0.016789921 1.695955e-38 368 228
0.068558834 0.79799998 0.016789921 1.695955e-38 369 228
0.069957994 0.79799998 0.016789921 1.7050293e-38 370 228
0.071357153 0.79799998 0.016789921 1.6865902e-38 371 228
0.072756313 0.79799998 0.016789921 1.6773691e-38 372 228
0.074155472 0.79799998 0.016789921 1.6496744e-38 373 228
0.075554639 0.79799998 0.016789921 1.6128319e-38 374 228
0.076953799 0.79799998 0.016789921 1.5851731e-38 375 228
0.078549333 0.80000001 0.016832 1.5575501e-38 376 228
0.079952002 0.80000001 0.016832 1.5114163e-38 377 228
0.081558049 0.80199999 0.016874079 1.4652832e-38 378 228
0.082964227 0.80199999 0.016874079 1.4007462e-38 379 228
0.084475599 0.80299997 0.016895119 1.3178841e-38 380 228
0.085883521 0.80299997 0.016895119 1.3916406e-38 381 228
0.042974196 0.81699997 0.015757205 1.2075049e-38 350 229
0.044189259 0.81300002 0.01568006 1.2536029e-38 351 229
0.045502506 0.81099999 0.015641484 1.3456872e-38 352 229
0.046924461 0.81099999 0.015641484 1.3549068e-38 353 229
0.048227187 0.80900002 0.015602913 1.3641967e-38 354 229
0.049645633 0.80900002 0.015602913 1.3734164e-38 355 229
0.050937839 0.80699998 0.015564339 1.4009675e-38 356 229
0.05222303 0.80500001 0.015525767 1.4378097e-38 357 229
0.053634465 0.80500001 0.015525767 1.4654691e-38 358 229
0.055045899 0.80500001 0.015525767 1.5115668e-38 359 229
0.056317061 0.80299997 0.015487193 1.5760666e-38 360 229
0.057724994 0.80299997 0.015487193 1.6037251e-38 361 229
0.059059273 0.80199999 0.015467905 1.6221278e-38 362 229
0.060465451 0.80199999 0.015467905 1.6313474e-38 363 229
0.061717331 0.80000001 0.015429333 1.6497505e-38 364 229
0.06312 0.80000001 0.015429333 1.6682255e-38 365 229
0.064361356 0.79799998 0.015390759 1.686772e-38 366 229
0.065760516 0.79799998 0.015390759 1.686772e-38 367 229
0.066991359 0.796 0.015352187 1.7143228e-38 368 229
0.068387017 0.796 0.015352187 1.6959196e-38 369 229
0.069782659 0.796 0.015352187 1.686735e-38 370 229
0.071178317 0.796 0.015352187 1.66826e-38 371 229
0.072573967 0.796 0.015352187 1.6682587e-38 372 229
0.073969625 0.796 0.015352187 1.6313444e-38 373 229
0.075554639 0.79799998 0.015390759 1.6220883e-38 374 229
0.076953799 0.79799998 0.015390759 1.5944295e-38 375 229
0.078352958 0.79799998 0.015390759 1.5759532e-38 376 229
0.079952002 0.80000001 0.015429333 1.5206358e-38 377 229
0.08135467 0.80000001 0.015429333 1.4928327e-38 378 229
0.082964227 0.80199999 0.015467905 1.4743936e-38 379 229
0.084370397 0.80199999 0.015467905 1.3730903e-38 380 229
0.085883521 0.80299997 0.015487193 1.3177729e-38 381 229
0.087291449 0.80299997 0.015487193 1.2635435e-38 382 229
0.044189259 0.81300002 0.0142546 1.1800633e-38 351 230
0.045502506 0.81099999 0.014219533 1.3088107e-38 352 230
0.046924461 0.81099999 0.014219533 1.3272498e-38 353 230
0.048227187 0.80900002 0.014184467 1.3550137e-38 354 230
0.049522895 0.80699998 0.014149399 1.3642334e-38 355 230
0.050937839 0.80699998 0.014149399 1.3917842e-38 356 230
0.05222303 0.80500001 0.014114333 1.4102592e-38 357 230
0.053634465 0.80500001 0.014114333 1.4561778e-38 358 230
0.055045899 0.80500001 0.014114333 1.4930202e-38 359 230
0.056317061 0.80299997 0.014079265 1.5391526e-38 360 230
0.057653103 0.80199999 0.014061732 1.5760669e-38 361 230
0.058912002 0.80000001 0.014026666 1.6129078e-38 362 230
0.060314666 0.80000001 0.014026666 1.6313471e-38 363 230
0.061563037 0.79799998 0.013991599 1.6497858e-38 364 230
0.062962197 0.79799998 0.013991599 1.6682249e-38 365 230
0.064200051 0.796 0.013956533 1.6775521e-38 366 230
0.065595701 0.796 0.013956533 1.6775521e-38 367 230
0.066991359 0.796 0.013956533 1.6959194e-38 368 230
