# .PCD v.7 - Point Cloud Data file format
FIELDS x y z rgb imX imY
SIZE 4 4 4 4 4 4
TYPE F F F F F F
COUNT 1 1 1 1 1 1
WIDTH 845
HEIGHT 1
VIEWPOINT 0 0 0 1 0 0 0
POINTS 845
DATA ascii
0.081095167 0.74599999 -0.0091559067 1.7418354e-38 382 247
0.082403161 0.74599999 -0.0091559067 1.7694581e-38 383 247
0.08371114 0.74599999 -0.0091559067 1.7416205e-38 384 247
0.085019127 0.74599999 -0.0091559067 1.6217662e-38 385 247
0.086327121 0.74599999 -0.0091559067 1.4463421e-38 386 247
-0.069873832 0.73799998 -0.010351679 1.7144367e-38 266 248
-0.068579875 0.73799998 -0.010351679 1.7236562e-38 267 248
-0.067285918 0.73799998 -0.010351679 1.843291e-38 268 248
-0.06599196 0.73799998 -0.010351679 1.8709855e-38 269 248
-0.064785667 0.73900002 -0.010365707 1.8986071e-38 270 248
-0.063489959 0.73900002 -0.010365707 1.9078267e-38 271 248
-0.062194239 0.73900002 -0.010365707 1.9170813e-38 272 248
-0.061063338 0.741 -0.010393759 1.9170813e-38 273 248
-0.059764117 0.741 -0.010393759 1.9077894e-38 274 248
-0.0584649 0.741 -0.010393759 1.9077894e-38 275 248
-0.057165679 0.741 -0.010393759 1.880167e-38 276 248
-0.055866458 0.741 -0.010393759 1.8617639e-38 277 248
-0.054640878 0.74199998 -0.010407786 1.8525443e-38 278 248
-0.053339902 0.74199998 -0.010407786 1.8433248e-38 279 248
-0.05203893 0.74199998 -0.010407786 1.843288e-38 280 248
-0.050737958 0.74199998 -0.010407786 1.843288e-38 281 248
-0.049436983 0.74199998 -0.010407786 1.8248855e-38 282 248
-0.048136011 0.74199998 -0.010407786 1.8248855e-38 283 248
-0.046961278 0.74400002 -0.01043584 1.7880074e-38 284 248
-0.0456568 0.74400002 -0.01043584 1.7695682e-38 285 248
-0.044352323 0.74400002 -0.01043584 1.742017e-38 286 248
-0.043047838 0.74400002 -0.01043584 1.6959194e-38 287 248
-0.04174336 0.74400002 -0.01043584 1.66826e-38 288 248
-0.040438879 0.74400002 -0.01043584 1.66826e-38 289 248
-0.039292198 0.74699998 -0.010477919 1.6497843e-38 290 248
-0.03798246 0.74699998 -0.010477919 1.6220896e-38 291 248
-0.036770906 0.74900001 -0.010505973 1.5577328e-38 292 248
-0.03545766 0.74900001 -0.010505973 1.5392936e-38 293 248
-0.034144413 0.74900001 -0.010505973 1.5024523e-38 294 248
-0.032874998 0.75 -0.01052 1.4748296e-38 295 248
-0.03156 0.75 -0.01052 1.5114573e-38 296 248
-0.030244999 0.75 -0.01052 1.5114573e-38 297 248
-0.028929999 0.75 -0.01052 1.4655397e-38 298 248
-0.027688639 0.75199997 -0.010548052 1.45632e-38 299 248
-0.02637013 0.75199997 -0.010548052 1.4563921e-38 300 248
-0.025118252 0.75400001 -0.010576107 1.4563921e-38 301 248
-0.02379624 0.75400001 -0.010576107 1.474724e-38 302 248
-0.022474226 0.75400001 -0.010576107 1.474724e-38 303 248
-0.021152213 0.75400001 -0.010576107 1.4655041e-38 304 248
-0.019830201 0.75400001 -0.010576107 1.4562844e-38 305 248
-0.018459093 0.75199997 -0.010548052 1.45632e-38 306 248
-0.017140586 0.75199997 -0.010548052 1.45632e-38 307 248
-0.015822079 0.75199997 -0.010548052 1.45632e-38 308 248
-0.014503572 0.75199997 -0.010548052 1.4470646e-38 309 248
-0.013185065 0.75199997 -0.010548052 1.4379532e-38 310 248
-0.011866559 0.75199997 -0.010548052 1.4379532e-38 311 248
-0.010548052 0.75199997 -0.010548052 1.4286981e-38 312 248
-0.0092295464 0.75199997 -0.010548052 1.4286981e-38 313 248
-0.00793208 0.75400001 -0.010576107 1.4287336e-38 314 248
-0.0066100666 0.75400001 -0.010576107 1.4287336e-38 315 248
-0.0052880533 0.75400001 -0.010576107 1.4379532e-38 316 248
-0.0039712996 0.755 -0.010590133 1.4287336e-38 317 248
-0.0026475333 0.755 -0.010590133 1.4286981e-38 318 248
-0.0013237667 0.755 -0.010590133 1.4286981e-38 319 248
0 0.755 -0.010590133 1.4287336e-38 320 248
0.0013237667 0.755 -0.010590133 1.4287336e-38 321 248
0.0026475333 0.755 -0.010590133 1.4470649e-38 322 248
0.0039712996 0.755 -0.010590133 1.4470649e-38 323 248
0.0052880533 0.75400001 -0.010576107 1.4287336e-38 324 248
0.0066100666 0.75400001 -0.010576107 1.4287336e-38 325 248
0.00793208 0.75400001 -0.010576107 1.4470646e-38 326 248
0.0092540924 0.75400001 -0.010576107 1.4470646e-38 327 248
0.010576107 0.75400001 -0.010576107 1.428769e-38 328 248
0.01189812 0.75400001 -0.010576107 1.428769e-38 329 248
0.013220133 0.75400001 -0.010576107 1.4563197e-38 330 248
0.014542146 0.75400001 -0.010576107 1.4563197e-38 331 248
0.01586416 0.75400001 -0.010576107 1.4746157e-38 332 248
0.017186172 0.75400001 -0.010576107 1.4562125e-38 333 248
0.018508185 0.75400001 -0.010576107 1.4562125e-38 334 248
0.019830201 0.75400001 -0.010576107 1.4562125e-38 335 248
0.021152213 0.75400001 -0.010576107 1.4562125e-38 336 248
0.022474226 0.75400001 -0.010576107 1.4562125e-38 337 248
0.02379624 0.75400001 -0.010576107 1.4470652e-38 338 248
0.025118252 0.75400001 -0.010576107 1.4470652e-38 339 248
0.026440267 0.75400001 -0.010576107 1.4470652e-38 340 248
0.027688639 0.75199997 -0.010548052 1.4378097e-38 341 248
0.029007144 0.75199997 -0.010548052 1.446993e-38 342 248
0.030325651 0.75199997 -0.010548052 1.446993e-38 343 248
0.031644158 0.75199997 -0.010548052 1.4378453e-38 344 248
0.032962665 0.75199997 -0.010548052 1.4470649e-38 345 248
0.034281172 0.75199997 -0.010548052 1.4470649e-38 346 248
0.035505001 0.75 -0.01052 1.4470649e-38 347 248
0.036819998 0.75 -0.01052 1.4378453e-38 348 248
0.038135 0.75 -0.01052 1.4378453e-38 349 248
0.039555199 0.75199997 -0.010548052 1.4286255e-38 350 248
0.040873703 0.75199997 -0.010548052 1.4286255e-38 351 248
0.04219221 0.75199997 -0.010548052 1.4561397e-38 352 248
0.04351072 0.75199997 -0.010548052 1.4561397e-38 353 248
0.044709999 0.75 -0.01052 1.4653595e-38 354 248
0.046024997 0.75 -0.01052 1.4653595e-38 355 248
0.047339998 0.75 -0.01052 1.4286255e-38 356 248
0.048590127 0.74900001 -0.010505973 1.4102224e-38 357 248
0.049770117 0.74699998 -0.010477919 1.4010025e-38 358 248
0.051079858 0.74699998 -0.010477919 1.4286252e-38 359 248
0.052389596 0.74699998 -0.010477919 1.4469201e-38 360 248
0.053699337 0.74699998 -0.010477919 1.4469201e-38 361 248
0.055009075 0.74699998 -0.010477919 1.4101847e-38 362 248
0.056318816 0.74699998 -0.010477919 1.3825261e-38 363 248
0.057551414 0.74599999 -0.010463892 1.4652118e-38 364 248
0.058859397 0.74599999 -0.010463892 1.4282976e-38 365 248
0.06016738 0.74599999 -0.010463892 1.3364616e-38 366 248
0.06147537 0.74599999 -0.010463892 1.3825236e-38 367 248
0.062783353 0.74599999 -0.010463892 1.4469198e-38 368 248
0.064091347 0.74599999 -0.010463892 1.5114568e-38 369 248
0.065223999 0.74400002 -0.01043584 1.5666302e-38 370 248
0.066528477 0.74400002 -0.01043584 1.5942889e-38 371 248
0.067832954 0.74400002 -0.01043584 1.6127987e-38 372 248
0.069137439 0.74400002 -0.01043584 1.6220182e-38 373 248
0.070441924 0.74400002 -0.01043584 1.6496041e-38 374 248
0.071746401 0.74400002 -0.01043584 1.6588236e-38 375 248
0.073050879 0.74400002 -0.01043584 1.7047403e-38 376 248
0.074355356 0.74400002 -0.01043584 1.7231795e-38 377 248
0.075659841 0.74400002 -0.01043584 1.7048483e-38 378 248
0.077171214 0.74599999 -0.010463892 1.7048483e-38 379 248
0.078479193 0.74599999 -0.010463892 1.6773338e-38 380 248
0.079787187 0.74599999 -0.010463892 1.6773338e-38 381 248
0.080877759 0.74400002 -0.01043584 1.6774054e-38 382 248
0.082182243 0.74400002 -0.01043584 1.6681858e-38 383 248
0.083486721 0.74400002 -0.01043584 1.6958098e-38 384 248
0.085019127 0.74599999 -0.010463892 1.732688e-38 385 248
0.086327121 0.74599999 -0.010463892 1.7693159e-38 386 248
-0.071167797 0.73799998 -0.011645639 1.7329497e-38 265 249
-0.069873832 0.73799998 -0.011645639 1.7603159e-38 266 249
-0.068579875 0.73799998 -0.011645639 1.7971581e-38 267 249
-0.067285918 0.73799998 -0.011645639 1.8893871e-38 268 249
-0.06599196 0.73799998 -0.011645639 1.8893871e-38 269 249
-0.064697996 0.73799998 -0.011645639 1.9261929e-38 270 249
-0.063404039 0.73799998 -0.011645639 1.9261929e-38 271 249
-0.062194239 0.73900002 -0.01166142 1.9353409e-38 272 249
-0.060898528 0.73900002 -0.01166142 1.9169016e-38 273 249
-0.059602812 0.73900002 -0.01166142 1.8800957e-38 274 249
-0.0583071 0.73900002 -0.01166142 1.8708761e-38 275 249
-0.057011388 0.73900002 -0.01166142 1.8433969e-38 276 249
-0.055866458 0.741 -0.01169298 1.8249579e-38 277 249
-0.054567236 0.741 -0.01169298 1.8157738e-38 278 249
-0.053268019 0.741 -0.01169298 1.8065184e-38 279 249
-0.051968798 0.741 -0.01169298 1.7972623e-38 280 249
-0.050669577 0.741 -0.01169298 1.7972623e-38 281 249
-0.049370356 0.741 -0.01169298 1.7788594e-38 282 249
-0.048136011 0.74199998 -0.01170876 1.7604563e-38 283 249
-0.046835039 0.74199998 -0.01170876 1.742017e-38 284 249
-0.0456568 0.74400002 -0.011740319 1.7143225e-38 285 249
-0.044352323 0.74400002 -0.011740319 1.6774798e-38 286 249
-0.043047838 0.74400002 -0.011740319 1.6590407e-38 287 249
-0.04174336 0.74400002 -0.011740319 1.6130504e-38 288 249
-0.040438879 0.74400002 -0.011740319 1.5853918e-38 289 249
-0.039134398 0.74400002 -0.011740319 1.5760997e-38 290 249
-0.03798246 0.74699998 -0.011787659 1.5576964e-38 291 249
-0.036672719 0.74699998 -0.011787659 1.5024879e-38 292 249
-0.035362978 0.74699998 -0.011787659 1.4840489e-38 293 249
-0.034144413 0.74900001 -0.01181922 1.484051e-38 294 249
-0.032874998 0.75 -0.011835 1.484051e-38 295 249
-0.03156 0.75 -0.011835 1.4747255e-38 296 249
-0.030244999 0.75 -0.011835 1.4747255e-38 297 249
-0.028929999 0.75 -0.011835 1.456394e-38 298 249
-0.027688639 0.75199997 -0.011866559 1.4471745e-38 299 249
-0.02637013 0.75199997 -0.011866559 1.4472095e-38 300 249
-0.025051624 0.75199997 -0.011866559 1.4472095e-38 301 249
-0.02379624 0.75400001 -0.01189812 1.4472095e-38 302 249
-0.022474226 0.75400001 -0.01189812 1.4379899e-38 303 249
-0.021152213 0.75400001 -0.01189812 1.437918e-38 304 249
-0.019830201 0.75400001 -0.01189812 1.437918e-38 305 249
-0.018459093 0.75199997 -0.011866559 1.4379536e-38 306 249
-0.017140586 0.75199997 -0.011866559 1.4379536e-38 307 249
-0.015822079 0.75199997 -0.011866559 1.4379536e-38 308 249
-0.014503572 0.75199997 -0.011866559 1.4286981e-38 309 249
-0.013185065 0.75199997 -0.011866559 1.4286981e-38 310 249
-0.011866559 0.75199997 -0.011866559 1.4286981e-38 311 249
-0.010548052 0.75199997 -0.011866559 1.4194788e-38 312 249
-0.0092295464 0.75199997 -0.011866559 1.4194788e-38 313 249
-0.00793208 0.75400001 -0.01189812 1.4194788e-38 314 249
-0.0066100666 0.75400001 -0.01189812 1.4286983e-38 315 249
-0.0052880533 0.75400001 -0.01189812 1.4195507e-38 316 249
-0.00396604 0.75400001 -0.01189812 1.4011475e-38 317 249
-0.0026475333 0.755 -0.011913899 1.4194785e-38 318 249
-0.0013237667 0.755 -0.011913899 1.4194785e-38 319 249
0 0.755 -0.011913899 1.4286257e-38 320 249
0.0013237667 0.755 -0.011913899 1.4286257e-38 321 249
0.0026440267 0.75400001 -0.01189812 1.4286257e-38 322 249
0.00396604 0.75400001 -0.01189812 1.4378453e-38 323 249
0.0052880533 0.75400001 -0.01189812 1.4194785e-38 324 249
0.0066100666 0.75400001 -0.01189812 1.4286981e-38 325 249
0.00793208 0.75400001 -0.01189812 1.4287336e-38 326 249
0.0092540924 0.75400001 -0.01189812 1.4287336e-38 327 249
0.010576107 0.75400001 -0.01189812 1.4195138e-38 328 249
0.01189812 0.75400001 -0.01189812 1.4195138e-38 329 249
0.013220133 0.75400001 -0.01189812 1.4378453e-38 330 249
0.014542146 0.75400001 -0.01189812 1.4470649e-38 331 249
0.01586416 0.75400001 -0.01189812 1.4469933e-38 332 249
0.017186172 0.75400001 -0.01189812 1.4562128e-38 333 249
0.018508185 0.75400001 -0.01189812 1.4469933e-38 334 249
0.019830201 0.75400001 -0.01189812 1.4562128e-38 335 249
0.021152213 0.75400001 -0.01189812 1.4469933e-38 336 249
0.022474226 0.75400001 -0.01189812 1.4562128e-38 337 249
0.02379624 0.75400001 -0.01189812 1.4286981e-38 338 249
0.025118252 0.75400001 -0.01189812 1.4286981e-38 339 249
0.026440267 0.75400001 -0.01189812 1.4378453e-38 340 249
0.027688639 0.75199997 -0.011866559 1.4378453e-38 341 249
0.029007144 0.75199997 -0.011866559 1.4378453e-38 342 249
0.030325651 0.75199997 -0.011866559 1.4470649e-38 343 249
0.031644158 0.75199997 -0.011866559 1.4194785e-38 344 249
0.032962665 0.75199997 -0.011866559 1.4194785e-38 345 249
0.034281172 0.75199997 -0.011866559 1.4194785e-38 346 249
0.035505001 0.75 -0.011835 1.4102589e-38 347 249
0.036819998 0.75 -0.011835 1.4102589e-38 348 249
0.038135 0.75 -0.011835 1.4102589e-38 349 249
0.039555199 0.75199997 -0.011866559 1.4102586e-38 350 249
0.040873703 0.75199997 -0.011866559 1.4010391e-38 351 249
0.04208 0.75 -0.011835 1.4102942e-38 352 249
0.043394998 0.75 -0.011835 1.4010747e-38 353 249
0.044709999 0.75 -0.011835 1.4010391e-38 354 249
0.046024997 0.75 -0.011835 1.4102586e-38 355 249
0.047276881 0.74900001 -0.01181922 1.4102592e-38 356 249
0.048590127 0.74900001 -0.01181922 1.4010396e-38 357 249
0.049770117 0.74699998 -0.011787659 1.4009687e-38 358 249
0.051079858 0.74699998 -0.011787659 1.4009687e-38 359 249
0.052389596 0.74699998 -0.011787659 1.410117e-38 360 249
0.053699337 0.74699998 -0.011787659 1.410117e-38 361 249
0.055009075 0.74699998 -0.011787659 1.3917495e-38 362 249
0.056243423 0.74599999 -0.011771879 1.3733463e-38 363 249
0.057551414 0.74599999 -0.011771879 1.4099703e-38 364 249
0.058859397 0.74599999 -0.011771879 1.3454333e-38 365 249
0.06016738 0.74599999 -0.011771879 1.2901859e-38 366 249
0.06147537 0.74599999 -0.011771879 1.2717469e-38 367 249
0.062615044 0.74400002 -0.011740319 1.2995869e-38 368 249
0.063919522 0.74400002 -0.011740319 1.3917825e-38 369 249
0.065223999 0.74400002 -0.011740319 1.4652876e-38 370 249
0.066528477 0.74400002 -0.011740319 1.4929103e-38 371 249
0.067832954 0.74400002 -0.011740319 1.5206754e-38 372 249
0.069137439 0.74400002 -0.011740319 1.5391145e-38 373 249
0.070441924 0.74400002 -0.011740319 1.5668081e-38 374 249
0.071746401 0.74400002 -0.011740319 1.5668081e-38 375 249
0.073050879 0.74400002 -0.011740319 1.6127969e-38 376 249
0.074355356 0.74400002 -0.011740319 1.6404195e-38 377 249
0.075659841 0.74400002 -0.011740319 1.6771902e-38 378 249
0.076964319 0.74400002 -0.011740319 1.6771902e-38 379 249
0.078268796 0.74400002 -0.011740319 1.6405996e-38 380 249
0.079573281 0.74400002 -0.011740319 1.6405996e-38 381 249
0.080660343 0.74199998 -0.01170876 1.6406349e-38 382 249
0.081961311 0.74199998 -0.01170876 1.6314154e-38 383 249
0.083262287 0.74199998 -0.01170876 1.6588943e-38 384 249
0.084563263 0.74199998 -0.01170876 1.6681138e-38 385 249
0.085748516 0.741 -0.01169298 1.6590392e-38 386 249
0.087047733 0.741 -0.01169298 1.6682587e-38 387 249
-0.071167797 0.73799998 -0.012939599 1.7420575e-38 265 250
-0.069873832 0.73799998 -0.012939599 1.8340346e-38 266 250
-0.068579875 0.73799998 -0.012939599 1.8617291e-38 267 250
-0.067285918 0.73799998 -0.012939599 1.8986071e-38 268 250
-0.06599196 0.73799998 -0.012939599 1.8986071e-38 269 250
-0.064697996 0.73799998 -0.012939599 1.9170459e-38 270 250
-0.063404039 0.73799998 -0.012939599 1.9078264e-38 271 250
-0.062110078 0.73799998 -0.012939599 1.8892796e-38 272 250
-0.060816113 0.73799998 -0.012939599 1.8708405e-38 273 250
-0.059522156 0.73799998 -0.012939599 1.8340702e-38 274 250
-0.0583071 0.73900002 -0.012957133 1.8248146e-38 275 250
-0.057011388 0.73900002 -0.012957133 1.7972991e-38 276 250
-0.055866458 0.741 -0.0129922 1.7972991e-38 277 250
-0.054567236 0.741 -0.0129922 1.7697483e-38 278 250
-0.053268019 0.741 -0.0129922 1.7604929e-38 279 250
-0.051968798 0.741 -0.0129922 1.7696031e-38 280 250
-0.050669577 0.741 -0.0129922 1.7603836e-38 281 250
-0.049370356 0.741 -0.0129922 1.7511637e-38 282 250
-0.048071139 0.741 -0.0129922 1.7235411e-38 283 250
-0.046835039 0.74199998 -0.013009733 1.6866994e-38 284 250
-0.045534063 0.74199998 -0.013009733 1.6498211e-38 285 250
-0.044233091 0.74199998 -0.013009733 1.603723e-38 286 250
-0.042932119 0.74199998 -0.013009733 1.5852839e-38 287 250
-0.04174336 0.74400002 -0.0130448 1.5301465e-38 288 250
-0.040438879 0.74400002 -0.0130448 1.5024876e-38 289 250
-0.039134398 0.74400002 -0.0130448 1.4748659e-38 290 250
-0.03793161 0.74599999 -0.013079867 1.4748659e-38 291 250
-0.036672719 0.74699998 -0.013097399 1.4472801e-38 292 250
-0.035362978 0.74699998 -0.013097399 1.4564997e-38 293 250
-0.034053236 0.74699998 -0.013097399 1.4472448e-38 294 250
-0.032831166 0.74900001 -0.013132467 1.4472448e-38 295 250
-0.031517919 0.74900001 -0.013132467 1.4472095e-38 296 250
-0.030244999 0.75 -0.01315 1.4379899e-38 297 250
-0.028929999 0.75 -0.01315 1.4472451e-38 298 250
-0.027615 0.75 -0.01315 1.4380255e-38 299 250
-0.02637013 0.75199997 -0.013185065 1.4472451e-38 300 250
-0.025051624 0.75199997 -0.013185065 1.4380255e-38 301 250
-0.023733119 0.75199997 -0.013185065 1.4379902e-38 302 250
-0.022474226 0.75400001 -0.013220133 1.4287706e-38 303 250
-0.021152213 0.75400001 -0.013220133 1.4195151e-38 304 250
-0.019830201 0.75400001 -0.013220133 1.4195151e-38 305 250
-0.018459093 0.75199997 -0.013185065 1.401112e-38 306 250
-0.017140586 0.75199997 -0.013185065 1.401112e-38 307 250
-0.015822079 0.75199997 -0.013185065 1.401112e-38 308 250
-0.014503572 0.75199997 -0.013185065 1.401112e-38 309 250
-0.013185065 0.75199997 -0.013185065 1.4194432e-38 310 250
-0.011866559 0.75199997 -0.013185065 1.4194432e-38 311 250
-0.010548052 0.75199997 -0.013185065 1.3918924e-38 312 250
-0.0092295464 0.75199997 -0.013185065 1.3918924e-38 313 250
-0.00793208 0.75400001 -0.013220133 1.3918924e-38 314 250
-0.0066100666 0.75400001 -0.013220133 1.401112e-38 315 250
-0.0052880533 0.75400001 -0.013220133 1.401112e-38 316 250
-0.00396604 0.75400001 -0.013220133 1.3918924e-38 317 250
-0.0026475333 0.755 -0.013237666 1.4102236e-38 318 250
-0.0013237667 0.755 -0.013237666 1.4102236e-38 319 250
0 0.755 -0.013237666 1.4102589e-38 320 250
0.0013237667 0.755 -0.013237666 1.4102589e-38 321 250
0.0026440267 0.75400001 -0.013220133 1.4102589e-38 322 250
0.00396604 0.75400001 -0.013220133 1.4194785e-38 323 250
0.0052880533 0.75400001 -0.013220133 1.4011475e-38 324 250
0.0066100666 0.75400001 -0.013220133 1.4011475e-38 325 250
0.00793208 0.75400001 -0.013220133 1.4011475e-38 326 250
0.0092540924 0.75400001 -0.013220133 1.4011475e-38 327 250
0.010576107 0.75400001 -0.013220133 1.4102589e-38 328 250
0.01189812 0.75400001 -0.013220133 1.4102589e-38 329 250
0.013220133 0.75400001 -0.013220133 1.4285902e-38 330 250
0.014542146 0.75400001 -0.013220133 1.4378097e-38 331 250
0.01586416 0.75400001 -0.013220133 1.4285907e-38 332 250
0.017186172 0.75400001 -0.013220133 1.4378103e-38 333 250
0.018508185 0.75400001 -0.013220133 1.4377747e-38 334 250
0.019830201 0.75400001 -0.013220133 1.4377747e-38 335 250
0.021096105 0.75199997 -0.013185065 1.43781e-38 336 250
0.022414612 0.75199997 -0.013185065 1.43781e-38 337 250
0.02379624 0.75400001 -0.013220133 1.4011473e-38 338 250
0.025118252 0.75400001 -0.013220133 1.4011473e-38 339 250
0.026440267 0.75400001 -0.013220133 1.4195141e-38 340 250
0.027688639 0.75199997 -0.013185065 1.4195141e-38 341 250
0.029007144 0.75199997 -0.013185065 1.4011475e-38 342 250
0.030325651 0.75199997 -0.013185065 1.4011475e-38 343 250
0.031644158 0.75199997 -0.013185065 1.4194432e-38 344 250
0.032962665 0.75199997 -0.013185065 1.4102236e-38 345 250
0.034281172 0.75199997 -0.013185065 1.401112e-38 346 250
0.035599679 0.75199997 -0.013185065 1.3918924e-38 347 250
0.036819998 0.75 -0.01315 1.391928e-38 348 250
0.038135 0.75 -0.01315 1.391928e-38 349 250
0.039449997 0.75 -0.01315 1.3827081e-38 350 250
0.040764999 0.75 -0.01315 1.3734886e-38 351 250
0.04208 0.75 -0.01315 1.3918195e-38 352 250
0.043394998 0.75 -0.01315 1.3734164e-38 353 250
0.044650383 0.74900001 -0.013132467 1.3642687e-38 354 250
0.045963634 0.74900001 -0.013132467 1.3734883e-38 355 250
0.047276881 0.74900001 -0.013132467 1.3734886e-38 356 250
0.048460379 0.74699998 -0.013097399 1.3642331e-38 357 250
0.049770117 0.74699998 -0.013097399 1.3733811e-38 358 250
0.051079858 0.74699998 -0.013097399 1.3733811e-38 359 250
0.052389596 0.74699998 -0.013097399 1.3641617e-38 360 250
0.053627454 0.74599999 -0.013079867 1.3549421e-38 361 250
0.054935437 0.74599999 -0.013079867 1.3549421e-38 362 250
0.056243423 0.74599999 -0.013079867 1.3456867e-38 363 250
0.057551414 0.74599999 -0.013079867 1.3547618e-38 364 250
0.058859397 0.74599999 -0.013079867 1.2994444e-38 365 250
0.06016738 0.74599999 -0.013079867 1.2901885e-38 366 250
0.06147537 0.74599999 -0.013079867 1.2348712e-38 367 250
0.062615044 0.74400002 -0.0130448 1.2166831e-38 368 250
0.063919522 0.74400002 -0.0130448 1.2996951e-38 369 250
0.065223999 0.74400002 -0.0130448 1.3732715e-38 370 250
0.066528477 0.74400002 -0.0130448 1.3917106e-38 371 250
0.067650609 0.74199998 -0.013009733 1.4286608e-38 372 250
0.068951584 0.74199998 -0.013009733 1.4378803e-38 373 250
0.07025256 0.74199998 -0.013009733 1.4471349e-38 374 250
0.071553528 0.74199998 -0.013009733 1.4563904e-38 375 250
0.072854504 0.74199998 -0.013009733 1.4931592e-38 376 250
0.074355356 0.74400002 -0.0130448 1.5300374e-38 377 250
0.075659841 0.74400002 -0.0130448 1.6035786e-38 378 250
0.076964319 0.74400002 -0.0130448 1.6220177e-38 379 250
0.078058399 0.74199998 -0.013009733 1.6220899e-38 380 250
0.079359367 0.74199998 -0.013009733 1.6220899e-38 381 250
0.080660343 0.74199998 -0.013009733 1.6037939e-38 382 250
0.081850857 0.741 -0.0129922 1.6130135e-38 383 250
0.083150074 0.741 -0.0129922 1.6037215e-38 384 250
0.084563263 0.74199998 -0.013009733 1.6037215e-38 385 250
0.085748516 0.741 -0.0129922 1.585354e-38 386 250
0.087047733 0.741 -0.0129922 1.603829e-38 387 250
0.088346958 0.741 -0.0129922 1.6681158e-38 388 250
-0.073755711 0.73799998 -0.014233559 1.7050743e-38 263 251
-0.072265387 0.736 -0.014194986 1.7603512e-38 264 251
-0.070974931 0.736 -0.014194986 1.806413e-38 265 251
-0.069684476 0.736 -0.014194986 1.852509e-38 266 251
-0.06839402 0.736 -0.014194986 1.8893871e-38 267 251
-0.067103572 0.736 -0.014194986 1.8893868e-38 268 251
-0.065813117 0.736 -0.014194986 1.8893868e-38 269 251
-0.064522661 0.736 -0.014194986 1.8985345e-38 270 251
-0.063232213 0.736 -0.014194986 1.8800954e-38 271 251
-0.061941758 0.736 -0.014194986 1.8432176e-38 272 251
-0.060651302 0.736 -0.014194986 1.8247783e-38 273 251
-0.059360851 0.736 -0.014194986 1.8155587e-38 274 251
-0.058070395 0.736 -0.014194986 1.7970837e-38 275 251
-0.056779943 0.736 -0.014194986 1.760421e-38 276 251
-0.055715673 0.73900002 -0.014252847 1.7512014e-38 277 251
-0.054419957 0.73900002 -0.014252847 1.7327622e-38 278 251
-0.053124249 0.73900002 -0.014252847 1.7327622e-38 279 251
-0.051828533 0.73900002 -0.014252847 1.7142859e-38 280 251
-0.050532822 0.73900002 -0.014252847 1.6866271e-38 281 251
-0.049370356 0.741 -0.01429142 1.6590038e-38 282 251
-0.048071139 0.741 -0.01429142 1.6497843e-38 283 251
-0.046771921 0.741 -0.01429142 1.6037952e-38 284 251
-0.045534063 0.74199998 -0.014310705 1.566953e-38 285 251
-0.044233091 0.74199998 -0.014310705 1.548478e-38 286 251
-0.042932119 0.74199998 -0.014310705 1.502416e-38 287 251
-0.041631144 0.74199998 -0.014310705 1.4749015e-38 288 251
-0.040330172 0.74199998 -0.014310705 1.4749015e-38 289 251
-0.0390292 0.74199998 -0.014310705 1.4656113e-38 290 251
-0.037829921 0.74400002 -0.01434928 1.4656113e-38 291 251
-0.036623627 0.74599999 -0.014387853 1.4380252e-38 292 251
-0.03531564 0.74599999 -0.014387853 1.4472448e-38 293 251
-0.034007654 0.74599999 -0.014387853 1.4380255e-38 294 251
-0.032743499 0.74699998 -0.014407139 1.4380255e-38 295 251
-0.031433757 0.74699998 -0.014407139 1.4379899e-38 296 251
-0.030204674 0.74900001 -0.014445714 1.4379899e-38 297 251
-0.028891427 0.74900001 -0.014445714 1.4196584e-38 298 251
-0.027615 0.75 -0.014465 1.4196584e-38 299 251
-0.0263 0.75 -0.014465 1.4104035e-38 300 251
-0.025051624 0.75199997 -0.014503572 1.4104035e-38 301 251
-0.023733119 0.75199997 -0.014503572 1.4104038e-38 302 251
-0.022414612 0.75199997 -0.014503572 1.4011841e-38 303 251
-0.021152213 0.75400001 -0.014542146 1.4194435e-38 304 251
-0.019830201 0.75400001 -0.014542146 1.4194435e-38 305 251
-0.018459093 0.75199997 -0.014503572 1.4194435e-38 306 251
-0.017140586 0.75199997 -0.014503572 1.4102239e-38 307 251
-0.015822079 0.75199997 -0.014503572 1.4194432e-38 308 251
-0.014503572 0.75199997 -0.014503572 1.4102236e-38 309 251
-0.013185065 0.75199997 -0.014503572 1.4102592e-38 310 251
-0.011866559 0.75199997 -0.014503572 1.4010396e-38 311 251
-0.010548052 0.75199997 -0.014503572 1.4010396e-38 312 251
-0.0092540924 0.75400001 -0.014542146 1.4010396e-38 313 251
-0.00793208 0.75400001 -0.014542146 1.4010396e-38 314 251
-0.0066100666 0.75400001 -0.014542146 1.4010396e-38 315 251
-0.0052880533 0.75400001 -0.014542146 1.3826728e-38 316 251
-0.00396604 0.75400001 -0.014542146 1.3734533e-38 317 251
-0.0026475333 0.755 -0.014561433 1.4009678e-38 318 251
-0.0013237667 0.755 -0.014561433 1.4009678e-38 319 251
0 0.755 -0.014561433 1.4009675e-38 320 251
0.0013220133 0.75400001 -0.014542146 1.4009675e-38 321 251
0.0026440267 0.75400001 -0.014542146 1.4101873e-38 322 251
0.00396604 0.75400001 -0.014542146 1.4101873e-38 323 251
0.0052880533 0.75400001 -0.014542146 1.4101873e-38 324 251
0.0066100666 0.75400001 -0.014542146 1.4101873e-38 325 251
0.00793208 0.75400001 -0.014542146 1.4102592e-38 326 251
0.0092540924 0.75400001 -0.014542146 1.4010396e-38 327 251
0.010576107 0.75400001 -0.014542146 1.4009675e-38 328 251
0.01189812 0.75400001 -0.014542146 1.4009675e-38 329 251
0.013220133 0.75400001 -0.014542146 1.4009675e-38 330 251
0.014542146 0.75400001 -0.014542146 1.4009675e-38 331 251
0.01586416 0.75400001 -0.014542146 1.4009675e-38 332 251
0.017186172 0.75400001 -0.014542146 1.410187e-38 333 251
0.018508185 0.75400001 -0.014542146 1.4101517e-38 334 251
0.019830201 0.75400001 -0.014542146 1.4101517e-38 335 251
0.021096105 0.75199997 -0.014503572 1.4101517e-38 336 251
0.022414612 0.75199997 -0.014503572 1.4101517e-38 337 251
0.02379624 0.75400001 -0.014542146 1.4010394e-38 338 251
0.025118252 0.75400001 -0.014542146 1.4010394e-38 339 251
0.026440267 0.75400001 -0.014542146 1.4010394e-38 340 251
0.027688639 0.75199997 -0.014503572 1.4010394e-38 341 251
0.029007144 0.75199997 -0.014503572 1.4010396e-38 342 251
0.030325651 0.75199997 -0.014503572 1.4010396e-38 343 251
0.031644158 0.75199997 -0.014503572 1.4101517e-38 344 251
0.032962665 0.75199997 -0.014503572 1.4101517e-38 345 251
0.034281172 0.75199997 -0.014503572 1.4010041e-38 346 251
0.035599679 0.75199997 -0.014503572 1.4010041e-38 347 251
0.036819998 0.75 -0.014465 1.3917845e-38 348 251
0.038135 0.75 -0.014465 1.3917845e-38 349 251
0.039449997 0.75 -0.014465 1.3917842e-38 350 251
0.040764999 0.75 -0.014465 1.3733811e-38 351 251
0.04208 0.75 -0.014465 1.3733811e-38 352 251
0.043394998 0.75 -0.014465 1.3733811e-38 353 251
0.044650383 0.74900001 -0.014445714 1.3641614e-38 354 251
0.045963634 0.74900001 -0.014445714 1.3733811e-38 355 251
0.047276881 0.74900001 -0.014445714 1.3641611e-38 356 251
0.048460379 0.74699998 -0.014407139 1.3641611e-38 357 251
0.049770117 0.74699998 -0.014407139 1.3549418e-38 358 251
0.051079858 0.74699998 -0.014407139 1.3457223e-38 359 251
0.052319467 0.74599999 -0.014387853 1.3640538e-38 360 251
0.053627454 0.74599999 -0.014387853 1.3456148e-38 361 251
0.054935437 0.74599999 -0.014387853 1.3364671e-38 362 251
0.056243423 0.74599999 -0.014387853 1.3272475e-38 363 251
0.057551414 0.74599999 -0.014387853 1.3271036e-38 364 251
0.058859397 0.74599999 -0.014387853 1.2901895e-38 365 251
0.06016738 0.74599999 -0.014387853 1.2533471e-38 366 251
0.06147537 0.74599999 -0.014387853 1.2256526e-38 367 251
0.062615044 0.74400002 -0.01434928 1.2349074e-38 368 251
0.063919522 0.74400002 -0.01434928 1.3179194e-38 369 251
0.065048665 0.74199998 -0.014310705 1.3273182e-38 370 251
0.066349633 0.74199998 -0.014310705 1.3549769e-38 371 251
0.067650609 0.74199998 -0.014310705 1.4100789e-38 372 251
0.068951584 0.74199998 -0.014310705 1.4193343e-38 373 251
0.07025256 0.74199998 -0.014310705 1.3735236e-38 374 251
0.071553528 0.74199998 -0.014310705 1.3735236e-38 375 251
0.072854504 0.74199998 -0.014310705 1.4102927e-38 376 251
0.074155472 0.74199998 -0.014310705 1.4286958e-38 377 251
0.075456448 0.74199998 -0.014310705 1.4563182e-38 378 251
0.076757424 0.74199998 -0.014310705 1.502416e-38 379 251
0.078058399 0.74199998 -0.014310705 1.5208198e-38 380 251
0.079252414 0.741 -0.01429142 1.5576981e-38 381 251
0.080551639 0.741 -0.01429142 1.5669893e-38 382 251
0.081850857 0.741 -0.01429142 1.5762088e-38 383 251
0.083150074 0.741 -0.01429142 1.6221252e-38 384 251
0.084449299 0.741 -0.01429142 1.6037221e-38 385 251
0.085748516 0.741 -0.01429142 1.5578032e-38 386 251
0.087047733 0.741 -0.01429142 1.5393639e-38 387 251
0.088346958 0.741 -0.01429142 1.5117775e-38 388 251
0.089646183 0.741 -0.01429142 1.5117775e-38 389 251
0.090945393 0.741 -0.01429142 1.4749366e-38 390 251
0.092244618 0.741 -0.01429142 1.4103996e-38 391 251
0.093543842 0.741 -0.01429142 1.3358175e-38 392 251
-0.07592985 0.73400003 -0.01544336 1.6407191e-38 261 252
-0.07484629 0.736 -0.015485439 1.7601377e-38 262 252
-0.073555835 0.736 -0.015485439 1.7970159e-38 263 252
-0.072265387 0.736 -0.015485439 1.8247442e-38 264 252
-0.070974931 0.736 -0.015485439 1.8339998e-38 265 252
-0.069684476 0.736 -0.015485439 1.8617288e-38 266 252
-0.06839402 0.736 -0.015485439 1.880132e-38 267 252
-0.067103572 0.736 -0.015485439 1.8617291e-38 268 252
-0.065813117 0.736 -0.015485439 1.8801322e-38 269 252
-0.064522661 0.736 -0.015485439 1.8525093e-38 270 252
-0.063232213 0.736 -0.015485439 1.8340702e-38 271 252
-0.061941758 0.736 -0.015485439 1.824778e-38 272 252
-0.060651302 0.736 -0.015485439 1.7971193e-38 273 252
-0.059360851 0.736 -0.015485439 1.7512014e-38 274 252
-0.058070395 0.736 -0.015485439 1.7327622e-38 275 252
-0.056779943 0.736 -0.015485439 1.7143953e-38 276 252
-0.055489492 0.736 -0.015485439 1.6959562e-38 277 252
-0.05419904 0.736 -0.015485439 1.7142156e-38 278 252
-0.052908584 0.736 -0.015485439 1.7142156e-38 279 252
-0.051758397 0.73799998 -0.015527519 1.6406744e-38 280 252
-0.050532822 0.73900002 -0.01554856 1.6037602e-38 281 252
-0.049237106 0.73900002 -0.01554856 1.5852842e-38 282 252
-0.048071139 0.741 -0.01559064 1.5852842e-38 283 252
-0.046771921 0.741 -0.01559064 1.5301114e-38 284 252
-0.045472696 0.741 -0.01559064 1.5116722e-38 285 252
-0.044233091 0.74199998 -0.015611678 1.4656842e-38 286 252
-0.042932119 0.74199998 -0.015611678 1.4564646e-38 287 252
-0.041631144 0.74199998 -0.015611678 1.4472814e-38 288 252
-0.040330172 0.74199998 -0.015611678 1.4380618e-38 289 252
-0.0390292 0.74199998 -0.015611678 1.4196584e-38 290 252
-0.037829921 0.74400002 -0.015653761 1.4104389e-38 291 252
-0.036623627 0.74599999 -0.015695838 1.410511e-38 292 252
-0.03531564 0.74599999 -0.015695838 1.410511e-38 293 252
-0.034007654 0.74599999 -0.015695838 1.4012559e-38 294 252
-0.032743499 0.74699998 -0.015716879 1.4104754e-38 295 252
-0.031433757 0.74699998 -0.015716879 1.410476e-38 296 252
-0.030204674 0.74900001 -0.01575896 1.4012206e-38 297 252
-0.028891427 0.74900001 -0.01575896 1.4012208e-38 298 252
-0.027615 0.75 -0.01578 1.4012208e-38 299 252
-0.0263 0.75 -0.01578 1.4103685e-38 300 252
-0.024984999 0.75 -0.01578 1.4011488e-38 301 252
-0.023733119 0.75199997 -0.015822079 1.3828176e-38 302 252
-0.022414612 0.75199997 -0.015822079 1.373598e-38 303 252
-0.021096105 0.75199997 -0.015822079 1.3827097e-38 304 252
-0.019830201 0.75400001 -0.01586416 1.3827097e-38 305 252
-0.018459093 0.75199997 -0.015822079 1.3918576e-38 306 252
-0.017140586 0.75199997 -0.015822079 1.3918576e-38 307 252
-0.015822079 0.75199997 -0.015822079 1.3826375e-38 308 252
-0.014503572 0.75199997 -0.015822079 1.3826375e-38 309 252
-0.013185065 0.75199997 -0.015822079 1.3826731e-38 310 252
-0.01189812 0.75400001 -0.01586416 1.3734177e-38 311 252
-0.010576107 0.75400001 -0.01586416 1.3734177e-38 312 252
-0.0092295464 0.75199997 -0.015822079 1.3641981e-38 313 252
-0.0079110395 0.75199997 -0.015822079 1.3641628e-38 314 252
-0.0066100666 0.75400001 -0.01586416 1.3549431e-38 315 252
-0.0052880533 0.75400001 -0.01586416 1.3549437e-38 316 252
-0.00396604 0.75400001 -0.01586416 1.3549437e-38 317 252
-0.0026475333 0.755 -0.015885198 1.3732733e-38 318 252
-0.0013237667 0.755 -0.015885198 1.3732733e-38 319 252
0 0.755 -0.015885198 1.3549769e-38 320 252
0.0013220133 0.75400001 -0.01586416 1.3549769e-38 321 252
0.0026440267 0.75400001 -0.01586416 1.3549769e-38 322 252
0.00396604 0.75400001 -0.01586416 1.3641964e-38 323 252
0.0052880533 0.75400001 -0.01586416 1.3641611e-38 324 252
0.0066100666 0.75400001 -0.01586416 1.3641611e-38 325 252
0.00793208 0.75400001 -0.01586416 1.3917126e-38 326 252
0.0092540924 0.75400001 -0.01586416 1.3732733e-38 327 252
0.010576107 0.75400001 -0.01586416 1.3549781e-38 328 252
0.01189812 0.75400001 -0.01586416 1.3549781e-38 329 252
0.013220133 0.75400001 -0.01586416 1.3641611e-38 330 252
0.014542146 0.75400001 -0.01586416 1.3734167e-38 331 252
0.01586416 0.75400001 -0.01586416 1.3642334e-38 332 252
0.017186172 0.75400001 -0.01586416 1.3642334e-38 333 252
0.018532733 0.755 -0.015885198 1.3641984e-38 334 252
0.019830201 0.75400001 -0.01586416 1.3641984e-38 335 252
0.021152213 0.75400001 -0.01586416 1.3733108e-38 336 252
0.022474226 0.75400001 -0.01586416 1.3733108e-38 337 252
0.02379624 0.75400001 -0.01586416 1.3641628e-38 338 252
0.025118252 0.75400001 -0.01586416 1.3641628e-38 339 252
0.026440267 0.75400001 -0.01586416 1.3641984e-38 340 252
0.027762281 0.75400001 -0.01586416 1.3549787e-38 341 252
0.029007144 0.75199997 -0.015822079 1.3641631e-38 342 252
0.030325651 0.75199997 -0.015822079 1.3549434e-38 343 252
0.031644158 0.75199997 -0.015822079 1.3640913e-38 344 252
0.032962665 0.75199997 -0.015822079 1.3640913e-38 345 252
0.034281172 0.75199997 -0.015822079 1.3548715e-38 346 252
0.035599679 0.75199997 -0.015822079 1.3548715e-38 347 252
0.036819998 0.75 -0.01578 1.3273926e-38 348 252
0.038135 0.75 -0.01578 1.3273926e-38 349 252
0.039449997 0.75 -0.01578 1.3365047e-38 350 252
0.040710647 0.74900001 -0.01575896 1.3365047e-38 351 252
0.042023893 0.74900001 -0.01575896 1.3366121e-38 352 252
0.04333714 0.74900001 -0.01575896 1.3458318e-38 353 252
0.044650383 0.74900001 -0.01575896 1.3366121e-38 354 252
0.045963634 0.74900001 -0.01575896 1.3273926e-38 355 252
0.047276881 0.74900001 -0.01575896 1.3181371e-38 356 252
0.048460379 0.74699998 -0.015716879 1.3181371e-38 357 252
0.049770117 0.74699998 -0.015716879 1.308846e-38 358 252
0.051011477 0.74599999 -0.015695838 1.308846e-38 359 252
0.052319467 0.74599999 -0.015695838 1.3270686e-38 360 252
0.053627454 0.74599999 -0.015695838 1.3270686e-38 361 252
0.054935437 0.74599999 -0.015695838 1.2904415e-38 362 252
0.056243423 0.74599999 -0.015695838 1.2812219e-38 363 252
0.057551414 0.74599999 -0.015695838 1.2811503e-38 364 252
0.058859397 0.74599999 -0.015695838 1.2350525e-38 365 252
0.06016738 0.74599999 -0.015695838 1.234909e-38 366 252
0.06147537 0.74599999 -0.015695838 1.1980667e-38 367 252
0.062615044 0.74400002 -0.015653761 1.2350528e-38 368 252
0.063919522 0.74400002 -0.015653761 1.2995897e-38 369 252
0.065048665 0.74199998 -0.015611678 1.3181359e-38 370 252
0.066349633 0.74199998 -0.015611678 1.3273554e-38 371 252
0.067650609 0.74199998 -0.015611678 1.3549421e-38 372 252
0.068951584 0.74199998 -0.015611678 1.3641617e-38 373 252
0.07025256 0.74199998 -0.015611678 1.3549784e-38 374 252
0.071553528 0.74199998 -0.015611678 1.3549784e-38 375 252
0.072854504 0.74199998 -0.015611678 1.3641981e-38 376 252
0.074155472 0.74199998 -0.015611678 1.3641981e-38 377 252
0.075456448 0.74199998 -0.015611678 1.3734164e-38 378 252
0.076653972 0.741 -0.01559064 1.4102586e-38 379 252
0.077953197 0.741 -0.01559064 1.4471355e-38 380 252
0.079252414 0.741 -0.01559064 1.4655748e-38 381 252
0.080551639 0.741 -0.01559064 1.5116003e-38 382 252
0.081850857 0.741 -0.01559064 1.5208198e-38 383 252
0.083150074 0.741 -0.01559064 1.5486215e-38 384 252
0.084449299 0.741 -0.01559064 1.5854637e-38 385 252
0.085517079 0.73900002 -0.01554856 1.5485484e-38 386 252
0.086812794 0.73900002 -0.01554856 1.5116703e-38 387 252
0.088346958 0.741 -0.01559064 1.4474208e-38 388 252
0.089646183 0.741 -0.01559064 1.4289457e-38 389 252
0.090945393 0.741 -0.01559064 1.4013601e-38 390 252
0.092244618 0.741 -0.01559064 1.4105797e-38 391 252
0.093291357 0.73900002 -0.01554856 1.4562479e-38 392 252
0.094587073 0.73900002 -0.01554856 1.161186e-38 393 252
-0.077216797 0.73400003 -0.016730307 1.6775224e-38 260 253
-0.07592985 0.73400003 -0.016730307 1.7052171e-38 261 253
-0.074642912 0.73400003 -0.016730307 1.7878667e-38 262 253
-0.073555835 0.736 -0.016775893 1.7970862e-38 263 253
-0.072069012 0.73400003 -0.016730307 1.8247795e-38 264 253
-0.070782073 0.73400003 -0.016730307 1.8432547e-38 265 253
-0.069495119 0.73400003 -0.016730307 1.8432897e-38 266 253
-0.068208173 0.73400003 -0.016730307 1.8525093e-38 267 253
-0.066921227 0.73400003 -0.016730307 1.8800235e-38 268 253
-0.06563428 0.73400003 -0.016730307 1.8708039e-38 269 253
-0.064347334 0.73400003 -0.016730307 1.8523644e-38 270 253
-0.063060381 0.73400003 -0.016730307 1.8062667e-38 271 253
-0.061773442 0.73400003 -0.016730307 1.7695682e-38 272 253
-0.060486492 0.73400003 -0.016730307 1.7510931e-38 273 253
-0.059199546 0.73400003 -0.016730307 1.6776247e-38 274 253
-0.057912603 0.73400003 -0.016730307 1.6591856e-38 275 253
-0.056625653 0.73400003 -0.016730307 1.6958843e-38 276 253
-0.055338707 0.73400003 -0.016730307 1.6682255e-38 277 253
-0.054051761 0.73400003 -0.016730307 1.6311672e-38 278 253
-0.052908584 0.736 -0.016775893 1.5942889e-38 279 253
-0.051618133 0.736 -0.016775893 1.5390792e-38 280 253
-0.050464436 0.73799998 -0.016821479 1.52064e-38 281 253
-0.049237106 0.73900002 -0.016844273 1.5023457e-38 282 253
-0.047941394 0.73900002 -0.016844273 1.5207848e-38 283 253
-0.046771921 0.741 -0.016889861 1.4564646e-38 284 253
-0.045472696 0.741 -0.016889861 1.4656842e-38 285 253
-0.044233091 0.74199998 -0.016912652 1.4564293e-38 286 253
-0.042932119 0.74199998 -0.016912652 1.4472098e-38 287 253
-0.041631144 0.74199998 -0.016912652 1.419659e-38 288 253
-0.040330172 0.74199998 -0.016912652 1.4380621e-38 289 253
-0.0390292 0.74199998 -0.016912652 1.4196237e-38 290 253
-0.037829921 0.74400002 -0.016958239 1.4104041e-38 291 253
-0.036525439 0.74400002 -0.016958239 1.4104041e-38 292 253
-0.035220962 0.74400002 -0.016958239 1.4104041e-38 293 253
-0.034007654 0.74599999 -0.017003827 1.4103685e-38 294 253
-0.032743499 0.74699998 -0.017026618 1.4011488e-38 295 253
-0.031433757 0.74699998 -0.017026618 1.4194803e-38 296 253
-0.030204674 0.74900001 -0.017072206 1.4194803e-38 297 253
-0.028891427 0.74900001 -0.017072206 1.4010772e-38 298 253
-0.027578179 0.74900001 -0.017072206 1.4010772e-38 299 253
-0.026264934 0.74900001 -0.017072206 1.4010769e-38 300 253
-0.024984999 0.75 -0.017095 1.4010769e-38 301 253
-0.023669999 0.75 -0.017095 1.3918927e-38 302 253
-0.022414612 0.75199997 -0.017140586 1.3918927e-38 303 253
-0.021096105 0.75199997 -0.017140586 1.4010043e-38 304 253
-0.019830201 0.75400001 -0.017186172 1.3917848e-38 305 253
-0.018459093 0.75199997 -0.017140586 1.3917492e-38 306 253
-0.017140586 0.75199997 -0.017140586 1.3917492e-38 307 253
-0.015822079 0.75199997 -0.017140586 1.3917848e-38 308 253
-0.014503572 0.75199997 -0.017140586 1.3733458e-38 309 253
-0.013185065 0.75199997 -0.017140586 1.3733814e-38 310 253
-0.011866559 0.75199997 -0.017140586 1.3733814e-38 311 253
-0.010548052 0.75199997 -0.017140586 1.3549418e-38 312 253
-0.0092295464 0.75199997 -0.017140586 1.3641614e-38 313 253
-0.0079110395 0.75199997 -0.017140586 1.3640182e-38 314 253
-0.0066100666 0.75400001 -0.017186172 1.3640182e-38 315 253
-0.0052880533 0.75400001 -0.017186172 1.363911e-38 316 253
-0.00396604 0.75400001 -0.017186172 1.3454719e-38 317 253
-0.0026475333 0.755 -0.017208965 1.2809332e-38 318 253
-0.0013237667 0.755 -0.017208965 1.225616e-38 319 253
0 0.755 -0.017208965 1.1889158e-38 320 253
0.0013237667 0.755 -0.017208965 1.1889158e-38 321 253
0.0026440267 0.75400001 -0.017186172 1.1889158e-38 322 253
0.00396604 0.75400001 -0.017186172 1.1889158e-38 323 253
0.0052880533 0.75400001 -0.017186172 1.1889168e-38 324 253
0.0066100666 0.75400001 -0.017186172 1.2534538e-38 325 253
0.00793208 0.75400001 -0.017186172 1.317956e-38 326 253
0.0092540924 0.75400001 -0.017186172 1.3363952e-38 327 253
0.010576107 0.75400001 -0.017186172 1.3639819e-38 328 253
0.01189812 0.75400001 -0.017186172 1.3639819e-38 329 253
0.013220133 0.75400001 -0.017186172 1.3732365e-38 330 253
0.014561433 0.755 -0.017208965 1.382456e-38 331 253
0.015885198 0.755 -0.017208965 1.382456e-38 332 253
0.017208965 0.755 -0.017208965 1.382456e-38 333 253
0.018532733 0.755 -0.017208965 1.3824929e-38 334 253
0.0198565 0.755 -0.017208965 1.3732733e-38 335 253
0.021152213 0.75400001 -0.017186172 1.3823857e-38 336 253
0.022474226 0.75400001 -0.017186172 1.3823857e-38 337 253
0.02379624 0.75400001 -0.017186172 1.3456516e-38 338 253
0.025118252 0.75400001 -0.017186172 1.3456516e-38 339 253
0.026440267 0.75400001 -0.017186172 1.3640182e-38 340 253
0.027762281 0.75400001 -0.017186172 1.3640182e-38 341 253
0.029084291 0.75400001 -0.017186172 1.3638744e-38 342 253
0.030406307 0.75400001 -0.017186172 1.3822775e-38 343 253
0.03172832 0.75400001 -0.017186172 1.3822781e-38 344 253
0.032962665 0.75199997 -0.017140586 1.3546195e-38 345 253
0.034281172 0.75199997 -0.017140586 1.3546198e-38 346 253
0.035599679 0.75199997 -0.017140586 1.3454001e-38 347 253
0.036819998 0.75 -0.017095 1.3179209e-38 348 253
0.038135 0.75 -0.017095 1.3179209e-38 349 253
0.0393974 0.74900001 -0.017072206 1.3178488e-38 350 253
0.040710647 0.74900001 -0.017072206 1.3270683e-38 351 253
0.042023893 0.74900001 -0.017072206 1.3179209e-38 352 253
0.04333714 0.74900001 -0.017072206 1.3363602e-38 353 253
0.044531155 0.74699998 -0.017026618 1.3270683e-38 354 253
0.045840897 0.74699998 -0.017026618 1.3270683e-38 355 253
0.047150634 0.74699998 -0.017026618 1.3454719e-38 356 253
0.048460379 0.74699998 -0.017026618 1.317849e-38 357 253
0.049770117 0.74699998 -0.017026618 1.2994096e-38 358 253
0.051011477 0.74599999 -0.017003827 1.3086292e-38 359 253
0.052319467 0.74599999 -0.017003827 1.2441995e-38 360 253
0.053627454 0.74599999 -0.017003827 1.1888821e-38 361 253
0.054935437 0.74599999 -0.017003827 1.1336017e-38 362 253
0.056243423 0.74599999 -0.017003827 1.1520408e-38 363 253
0.057551414 0.74599999 -0.017003827 1.2072876e-38 364 253
0.058701597 0.74400002 -0.016958239 1.2257626e-38 365 253
0.060006075 0.74400002 -0.016958239 1.2440216e-38 366 253
0.06147537 0.74599999 -0.017003827 1.2255825e-38 367 253
0.062615044 0.74400002 -0.016958239 1.2901545e-38 368 253
0.063919522 0.74400002 -0.016958239 1.3546914e-38 369 253
0.065223999 0.74400002 -0.016958239 1.3271759e-38 370 253
0.066349633 0.74199998 -0.016912652 1.3363955e-38 371 253
0.067650609 0.74199998 -0.016912652 1.3640532e-38 372 253
0.068951584 0.74199998 -0.016912652 1.3640532e-38 373 253
0.07025256 0.74199998 -0.016912652 1.3640535e-38 374 253
0.071553528 0.74199998 -0.016912652 1.3640535e-38 375 253
0.072854504 0.74199998 -0.016912652 1.3732009e-38 376 253
0.074155472 0.74199998 -0.016912652 1.3824563e-38 377 253
0.075354755 0.741 -0.016889861 1.3915674e-38 378 253
0.076653972 0.741 -0.016889861 1.3915674e-38 379 253
0.077953197 0.741 -0.016889861 1.3365728e-38 380 253
0.079252414 0.741 -0.016889861 1.3365728e-38 381 253
0.080334224 0.73900002 -0.016844273 1.3733784e-38 382 253
0.081629939 0.73900002 -0.016844273 1.3918534e-38 383 253
0.082925655 0.73900002 -0.016844273 1.4195841e-38 384 253
0.084221363 0.73900002 -0.016844273 1.4380233e-38 385 253
0.085517079 0.73900002 -0.016844273 1.4841198e-38 386 253
0.086812794 0.73900002 -0.016844273 1.4748644e-38 387 253
0.08810851 0.73900002 -0.016844273 1.4197261e-38 388 253
0.089646183 0.741 -0.016889861 1.3736642e-38 389 253
0.090945393 0.741 -0.016889861 1.2817573e-38 390 253
0.091995649 0.73900002 -0.016844273 1.2633182e-38 391 253
0.093291357 0.73900002 -0.016844273 1.2631056e-38 392 253
0.094587073 0.73900002 -0.016844273 1.2354468e-38 393 253
0.095882788 0.73900002 -0.016844273 1.2082625e-38 394 253
-0.077216797 0.73400003 -0.018017253 1.6867013e-38 260 254
-0.07592985 0.73400003 -0.018017253 1.7051405e-38 261 254
-0.074642912 0.73400003 -0.018017253 1.7786822e-38 262 254
-0.073355958 0.73400003 -0.018017253 1.7971572e-38 263 254
-0.072069012 0.73400003 -0.018017253 1.8064483e-38 264 254
-0.070782073 0.73400003 -0.018017253 1.815668e-38 265 254
-0.069495119 0.73400003 -0.018017253 1.8432541e-38 266 254
-0.068208173 0.73400003 -0.018017253 1.8432541e-38 267 254
-0.066921227 0.73400003 -0.018017253 1.8616212e-38 268 254
-0.06563428 0.73400003 -0.018017253 1.824743e-38 269 254
-0.064347334 0.73400003 -0.018017253 1.7879726e-38 270 254
-0.062974468 0.73299998 -0.017992707 1.7787172e-38 271 254
-0.061689276 0.73299998 -0.017992707 1.7602782e-38 272 254
-0.060486492 0.73400003 -0.018017253 1.7326197e-38 273 254
-0.059199546 0.73400003 -0.018017253 1.6774465e-38 274 254
-0.057912603 0.73400003 -0.018017253 1.6682268e-38 275 254
-0.056625653 0.73400003 -0.018017253 1.6221641e-38 276 254
-0.055338707 0.73400003 -0.018017253 1.5484076e-38 277 254
-0.054051761 0.73400003 -0.018017253 1.52064e-38 278 254
-0.052764814 0.73400003 -0.018017253 1.5022008e-38 279 254
-0.051618133 0.736 -0.018066347 1.4655397e-38 280 254
-0.050327681 0.736 -0.018066347 1.4747593e-38 281 254
-0.049170475 0.73799998 -0.018115439 1.4839804e-38 282 254
-0.047941394 0.73900002 -0.018139986 1.4932e-38 283 254
-0.046645679 0.73900002 -0.018139986 1.4564659e-38 284 254
-0.045472696 0.741 -0.018189078 1.4472463e-38 285 254
-0.044233091 0.74199998 -0.018213626 1.4471745e-38 286 254
-0.042932119 0.74199998 -0.018213626 1.4379549e-38 287 254
-0.041631144 0.74199998 -0.018213626 1.4195884e-38 288 254
-0.040330172 0.74199998 -0.018213626 1.4103688e-38 289 254
-0.0390292 0.74199998 -0.018213626 1.4011855e-38 290 254
-0.037728224 0.74199998 -0.018213626 1.3827823e-38 291 254
-0.036525439 0.74400002 -0.01826272 1.3827825e-38 292 254
-0.035220962 0.74400002 -0.01826272 1.3827825e-38 293 254
-0.034007654 0.74599999 -0.018311813 1.4011138e-38 294 254
-0.032743499 0.74699998 -0.018336359 1.3918942e-38 295 254
-0.031433757 0.74699998 -0.018336359 1.3918942e-38 296 254
-0.030204674 0.74900001 -0.018385453 1.3826746e-38 297 254
-0.028891427 0.74900001 -0.018385453 1.3643431e-38 298 254
-0.027578179 0.74900001 -0.018385453 1.3643431e-38 299 254
-0.026264934 0.74900001 -0.018385453 1.3826741e-38 300 254
-0.024984999 0.75 -0.018409999 1.3734545e-38 301 254
-0.023669999 0.75 -0.018409999 1.3826375e-38 302 254
-0.022414612 0.75199997 -0.018459093 1.3734179e-38 303 254
-0.021096105 0.75199997 -0.018459093 1.3734179e-38 304 254
-0.019830201 0.75400001 -0.018508185 1.3734179e-38 305 254
-0.018459093 0.75199997 -0.018459093 1.3734182e-38 306 254
-0.017140586 0.75199997 -0.018459093 1.3641628e-38 307 254
-0.015822079 0.75199997 -0.018459093 1.3549431e-38 308 254
-0.014503572 0.75199997 -0.018459093 1.3641628e-38 309 254
-0.013185065 0.75199997 -0.018459093 1.3549784e-38 310 254
-0.011866559 0.75199997 -0.018459093 1.3549784e-38 311 254
-0.010548052 0.75199997 -0.018459093 1.3549421e-38 312 254
-0.0092295464 0.75199997 -0.018459093 1.3456867e-38 313 254
-0.00793208 0.75400001 -0.018508185 1.3456148e-38 314 254
-0.0066100666 0.75400001 -0.018508185 1.3363952e-38 315 254
-0.0052950666 0.755 -0.018532733 1.3271403e-38 316 254
-0.0039712996 0.755 -0.018532733 1.3087011e-38 317 254
-0.0026475333 0.755 -0.018532733 1.3085939e-38 318 254
-0.0013237667 0.755 -0.018532733 1.2809352e-38 319 254
0 0.755 -0.018532733 1.2165415e-38 320 254
0.0013237667 0.755 -0.018532733 1.2349446e-38 321 254
0.0026475333 0.755 -0.018532733 1.2165409e-38 322 254
0.00396604 0.75400001 -0.018508185 1.2165409e-38 323 254
0.0052880533 0.75400001 -0.018508185 1.179735e-38 324 254
0.0066100666 0.75400001 -0.018508185 1.2627109e-38 325 254
0.00793208 0.75400001 -0.018508185 1.2995891e-38 326 254
0.0092540924 0.75400001 -0.018508185 1.3088088e-38 327 254
0.010576107 0.75400001 -0.018508185 1.3271757e-38 328 254
0.011913899 0.755 -0.018532733 1.3363952e-38 329 254
0.013237666 0.755 -0.018532733 1.3456504e-38 330 254
0.014561433 0.755 -0.018532733 1.3640535e-38 331 254
0.015885198 0.755 -0.018532733 1.3364671e-38 332 254
0.017208965 0.755 -0.018532733 1.3456867e-38 333 254
