# .PCD v.7 - Point Cloud Data file format
FIELDS x y z rgb imX imY
SIZE 4 4 4 4 4 4
TYPE F F F F F F
COUNT 1 1 1 1 1 1
WIDTH 831
HEIGHT 1
VIEWPOINT 0 0 0 1 0 0 0
POINTS 831
DATA ascii
-0.025535546 0.662 -0.04526756 1.7328338e-38 298 279
-0.024374841 0.662 -0.04526756 1.7420535e-38 299 279
-0.023214132 0.662 -0.04526756 1.7512733e-38 300 279
-0.022053426 0.662 -0.04526756 1.7512733e-38 301 279
-0.020798039 0.65899998 -0.045062415 1.7788597e-38 302 279
-0.019642593 0.65899998 -0.045062415 1.7788597e-38 303 279
-0.018487146 0.65899998 -0.045062415 1.8063386e-38 304 279
-0.017305398 0.65799999 -0.044994038 1.8155582e-38 305 279
-0.016151706 0.65799999 -0.044994038 1.7880077e-38 306 279
-0.015020805 0.65899998 -0.045062415 1.7972272e-38 307 279
-0.013865359 0.65899998 -0.045062415 1.7790042e-38 308 279
-0.012709912 0.65899998 -0.045062415 1.7697846e-38 309 279
-0.011589534 0.66100001 -0.045199182 1.7973357e-38 310 279
-0.010399019 0.65899998 -0.045062415 1.7973357e-38 311 279
-0.0092435731 0.65899998 -0.045062415 1.8064834e-38 312 279
-0.0081126727 0.66100001 -0.045199182 1.8157031e-38 313 279
-0.00695372 0.66100001 -0.045199182 1.8065554e-38 314 279
-0.0057947668 0.66100001 -0.045199182 1.7973357e-38 315 279
-0.0046217865 0.65899998 -0.045062415 1.8432178e-38 316 279
-0.0034663398 0.65899998 -0.045062415 1.8339981e-38 317 279
-0.0023108933 0.65899998 -0.045062415 1.8432178e-38 318 279
-0.0011554466 0.65899998 -0.045062415 1.8616209e-38 319 279
0 0.65899998 -0.045062415 1.8249232e-38 320 279
0.0011554466 0.65899998 -0.045062415 1.8433263e-38 321 279
0.0023073866 0.65799999 -0.044994038 1.8157752e-38 322 279
0.0034610799 0.65799999 -0.044994038 1.8065557e-38 323 279
0.0046217865 0.65899998 -0.045062415 1.7973354e-38 324 279
0.0057772328 0.65899998 -0.045062415 1.7973354e-38 325 279
0.0069221598 0.65799999 -0.044994038 1.7973357e-38 326 279
0.0080758529 0.65799999 -0.044994038 1.7973357e-38 327 279
0.0092435731 0.65899998 -0.045062415 1.7972288e-38 328 279
0.010399019 0.65899998 -0.045062415 1.7880092e-38 329 279
0.011554466 0.65899998 -0.045062415 1.7604228e-38 330 279
0.012709912 0.65899998 -0.045062415 1.7604228e-38 331 279
0.013865359 0.65899998 -0.045062415 1.7419481e-38 332 279
0.015020805 0.65899998 -0.045062415 1.7419481e-38 333 279
0.016249891 0.662 -0.04526756 1.7143256e-38 334 279
0.017436899 0.66299999 -0.045335937 1.7143256e-38 335 279
0.018599359 0.66299999 -0.045335937 1.7327287e-38 336 279
0.019761819 0.66299999 -0.045335937 1.7327287e-38 337 279
0.020924279 0.66299999 -0.045335937 1.6775191e-38 338 279
0.022120051 0.66399997 -0.045404319 1.6498602e-38 339 279
0.023284266 0.66399997 -0.045404319 1.6404588e-38 340 279
0.024448479 0.66399997 -0.045404319 1.5759218e-38 341 279
0.025612691 0.66399997 -0.045404319 1.5114555e-38 342 279
0.026776904 0.66399997 -0.045404319 1.5206751e-38 343 279
0.027941117 0.66399997 -0.045404319 1.5210016e-38 344 279
0.029192999 0.66600001 -0.045541082 1.5578438e-38 345 279
0.030360719 0.66600001 -0.045541082 1.4749445e-38 346 279
0.031528439 0.66600001 -0.045541082 1.5763597e-38 347 279
0.039807681 0.68800002 -0.047045439 1.6777434e-38 353 279
0.040954359 0.68699998 -0.046977058 1.6315717e-38 354 279
0.042158898 0.68699998 -0.046977058 1.5117174e-38 355 279
0.043363437 0.68699998 -0.046977058 1.4379943e-38 356 279
0.044567976 0.68699998 -0.046977058 1.3734573e-38 357 279
0.045772515 0.68699998 -0.046977058 1.3181751e-38 358 279
0.046977058 0.68699998 -0.046977058 1.3365782e-38 359 279
0.048391998 0.69 -0.047182199 1.3455813e-38 360 279
0.050033119 0.69599998 -0.047592476 1.2902639e-38 361 279
0.051327083 0.69700003 -0.047660861 1.2624612e-38 362 279
0.052549154 0.69700003 -0.047660861 1.2624612e-38 363 279
-0.082981758 0.69599998 -0.048812799 1.2906567e-38 252 280
-0.081761435 0.69599998 -0.048812799 1.2906567e-38 253 280
-0.080309682 0.69400001 -0.048672531 1.3457923e-38 254 280
-0.079092868 0.69400001 -0.048672531 1.3457923e-38 255 280
-0.077539407 0.69099998 -0.04846213 1.3641942e-38 256 280
-0.076217398 0.69 -0.048391998 1.3641942e-38 257 280
-0.074790187 0.68800002 -0.048251733 1.3733419e-38 258 280
-0.073476933 0.68699998 -0.048181597 1.3733419e-38 259 280
-0.072167195 0.68599999 -0.048111461 1.3641589e-38 260 280
-0.070757523 0.68400002 -0.0479712 1.3641589e-38 261 280
-0.069354847 0.68199998 -0.047830928 1.3457204e-38 262 280
-0.067959204 0.68000001 -0.047690667 1.3641236e-38 263 280
-0.066668749 0.67900002 -0.047620531 1.3365021e-38 264 280
-0.065478235 0.67900002 -0.047620531 1.3549771e-38 265 280
-0.06419304 0.67799997 -0.047550395 1.3366807e-38 266 280
-0.062818423 0.676 -0.047410134 1.3274611e-38 267 280
-0.061542001 0.67500001 -0.047339998 1.3641573e-38 268 280
-0.060358498 0.67500001 -0.047339998 1.3457181e-38 269 280
-0.059087332 0.67400002 -0.047269866 1.2537399e-38 270 280
-0.057733759 0.67199999 -0.047129598 1.2998017e-38 271 280
-0.056471359 0.671 -0.047059465 1.3459371e-38 272 280
-0.055294871 0.671 -0.047059465 1.410474e-38 273 280
-0.054037735 0.67000002 -0.046989333 1.4933056e-38 274 280
-0.052863002 0.67000002 -0.046989333 1.530148e-38 275 280
-0.051688269 0.67000002 -0.046989333 1.5762088e-38 276 280
-0.050362743 0.66799998 -0.046849065 1.594684e-38 277 280
-0.04919152 0.66799998 -0.046849065 1.6406739e-38 278 280
-0.047948405 0.667 -0.046778932 1.6406739e-38 279 280
-0.046778932 0.667 -0.046778932 1.6314546e-38 280 280
-0.045609459 0.667 -0.046778932 1.6406742e-38 281 280
-0.04437336 0.66600001 -0.046708796 1.6590054e-38 282 280
-0.043205637 0.66600001 -0.046708796 1.6682249e-38 283 280
-0.042037919 0.66600001 -0.046708796 1.66826e-38 284 280
-0.040870197 0.66600001 -0.046708796 1.66826e-38 285 280
-0.039583251 0.66399997 -0.046568532 1.6499287e-38 286 280
-0.038361177 0.66299999 -0.046498399 1.6499287e-38 287 280
-0.037198719 0.66299999 -0.046498399 1.6592209e-38 288 280
-0.036036257 0.66299999 -0.046498399 1.6499653e-38 289 280
-0.034873798 0.66299999 -0.046498399 1.6682971e-38 290 280
-0.033660494 0.662 -0.046428263 1.6775168e-38 291 280
-0.032499783 0.662 -0.046428263 1.6774451e-38 292 280
-0.031339079 0.662 -0.046428263 1.6866648e-38 293 280
-0.030178372 0.662 -0.046428263 1.6682621e-38 294 280
-0.029017664 0.662 -0.046428263 1.6867013e-38 295 280
-0.027856959 0.662 -0.046428263 1.6774818e-38 296 280
-0.026696252 0.662 -0.046428263 1.6867013e-38 297 280
-0.025496973 0.66100001 -0.046358135 1.6683701e-38 298 280
-0.02433802 0.66100001 -0.046358135 1.6959928e-38 299 280
-0.023179067 0.66100001 -0.046358135 1.6776263e-38 300 280
-0.022020113 0.66100001 -0.046358135 1.6776263e-38 301 280
-0.020798039 0.65899998 -0.046217863 1.6775894e-38 302 280
-0.019642593 0.65899998 -0.046217863 1.6960284e-38 303 280
-0.018459093 0.65799999 -0.04614773 1.73269e-38 304 280
-0.017305398 0.65799999 -0.04614773 1.7510931e-38 305 280
-0.016151706 0.65799999 -0.04614773 1.7419817e-38 306 280
-0.014998012 0.65799999 -0.04614773 1.7419817e-38 307 280
-0.01384432 0.65799999 -0.04614773 1.7419817e-38 308 280
-0.012690626 0.65799999 -0.04614773 1.7419817e-38 309 280
-0.011554466 0.65899998 -0.046217863 1.7420538e-38 310 280
-0.010399019 0.65899998 -0.046217863 1.7512733e-38 311 280
-0.0092435731 0.65899998 -0.046217863 1.7604566e-38 312 280
-0.0080881258 0.65899998 -0.046217863 1.7788597e-38 313 280
-0.0069326796 0.65899998 -0.046217863 1.7788597e-38 314 280
-0.0057772328 0.65899998 -0.046217863 1.7604566e-38 315 280
-0.0046217865 0.65899998 -0.046217863 1.7788244e-38 316 280
-0.0034610799 0.65799999 -0.04614773 1.7788244e-38 317 280
-0.0023073866 0.65799999 -0.04614773 1.7788247e-38 318 280
-0.00115194 0.65700001 -0.046077598 1.7880442e-38 319 280
0 0.65700001 -0.046077598 1.7973004e-38 320 280
0.0011536933 0.65799999 -0.04614773 1.8065201e-38 321 280
0.0023073866 0.65799999 -0.04614773 1.7696774e-38 322 280
0.0034610799 0.65799999 -0.04614773 1.7604578e-38 323 280
0.0046147732 0.65799999 -0.04614773 1.7604932e-38 324 280
0.0057684663 0.65799999 -0.04614773 1.7512736e-38 325 280
0.0069221598 0.65799999 -0.04614773 1.742054e-38 326 280
0.0080758529 0.65799999 -0.04614773 1.742054e-38 327 280
0.0092295464 0.65799999 -0.04614773 1.7512017e-38 328 280
0.01038324 0.65799999 -0.04614773 1.741982e-38 329 280
0.011536933 0.65799999 -0.04614773 1.7144672e-38 330 280
0.012690626 0.65799999 -0.04614773 1.7144672e-38 331 280
0.01384432 0.65799999 -0.04614773 1.6593303e-38 332 280
0.014998012 0.65799999 -0.04614773 1.6408553e-38 333 280
0.016225345 0.66100001 -0.046358135 1.6684067e-38 334 280
0.017410601 0.662 -0.046428263 1.6776263e-38 335 280
0.018571306 0.662 -0.046428263 1.6501123e-38 336 280
0.019732011 0.662 -0.046428263 1.6408569e-38 337 280
0.020924279 0.66299999 -0.046498399 1.6315654e-38 338 280
0.02208674 0.66299999 -0.046498399 1.5947231e-38 339 280
0.0232492 0.66299999 -0.046498399 1.5484782e-38 340 280
0.024411658 0.66299999 -0.046498399 1.4839413e-38 341 280
0.025574118 0.66299999 -0.046498399 1.4561381e-38 342 280
0.026736578 0.66299999 -0.046498399 1.4561381e-38 343 280
0.027941117 0.66399997 -0.046568532 1.4381322e-38 344 280
0.029192999 0.66600001 -0.046708796 1.4565713e-38 345 280
0.030360719 0.66600001 -0.046708796 1.4288055e-38 346 280
0.031528439 0.66600001 -0.046708796 1.4564644e-38 347 280
0.038601387 0.68800002 -0.048251733 1.5855443e-38 352 280
0.039807681 0.68800002 -0.048251733 1.5210073e-38 353 280
0.040954359 0.68699998 -0.048181597 1.4473192e-38 354 280
0.042158898 0.68699998 -0.048181597 1.3827823e-38 355 280
0.043363437 0.68699998 -0.048181597 1.3918927e-38 356 280
0.044567976 0.68699998 -0.048181597 1.4195153e-38 357 280
0.045772515 0.68699998 -0.048181597 1.3734921e-38 358 280
0.046977058 0.68699998 -0.048181597 1.3734921e-38 359 280
0.048391998 0.69 -0.048391998 1.1891366e-38 360 280
0.049889345 0.69400001 -0.048672531 1.0876853e-38 361 280
0.051253434 0.69599998 -0.048812799 1.0325485e-38 362 280
0.052549154 0.69700003 -0.048882935 1.0970854e-38 363 280
-0.082981758 0.69599998 -0.050033119 1.3089532e-38 252 281
-0.081761435 0.69599998 -0.050033119 1.2905142e-38 253 281
-0.080309682 0.69400001 -0.049889345 1.3456851e-38 254 281
-0.079092868 0.69400001 -0.049889345 1.3640882e-38 255 281
-0.077539407 0.69099998 -0.049673684 1.3641586e-38 256 281
-0.076217398 0.69 -0.049601797 1.3641586e-38 257 281
-0.074790187 0.68800002 -0.049458027 1.3641942e-38 258 281
-0.073476933 0.68699998 -0.049386136 1.3641942e-38 259 281
-0.072167195 0.68599999 -0.049314249 1.3274961e-38 260 281
-0.070757523 0.68400002 -0.049170479 1.3274961e-38 261 281
-0.069354847 0.68199998 -0.049026705 1.3366078e-38 262 281
-0.067959204 0.68000001 -0.048882935 1.3366078e-38 263 281
-0.066668749 0.67900002 -0.048811045 1.3365362e-38 264 281
-0.065478235 0.67900002 -0.048811045 1.3365362e-38 265 281
-0.06419304 0.67799997 -0.048739154 1.3548321e-38 266 281
-0.062818423 0.676 -0.048595384 1.3548321e-38 267 281
-0.061542001 0.67500001 -0.048523501 1.3088062e-38 268 281
-0.06026908 0.67400002 -0.048451614 1.2350497e-38 269 281
-0.059087332 0.67400002 -0.048451614 1.0786045e-38 270 281
-0.057733759 0.67199999 -0.04830784 1.0878599e-38 271 281
-0.056471359 0.671 -0.048235953 1.1709083e-38 272 281
-0.055294871 0.671 -0.048235953 1.3092018e-38 273 281
-0.054037735 0.67000002 -0.048164066 1.4286605e-38 274 281
-0.052705199 0.66799998 -0.048020288 1.4655748e-38 275 281
-0.051533967 0.66799998 -0.048020288 1.4657543e-38 276 281
-0.050362743 0.66799998 -0.048020288 1.5026325e-38 277 281
-0.049117878 0.667 -0.047948405 1.5669893e-38 278 281
-0.047948405 0.667 -0.047948405 1.5854284e-38 279 281
-0.046778932 0.667 -0.047948405 1.6588605e-38 280 281
-0.045541082 0.66600001 -0.047876518 1.6680802e-38 281 281
-0.04437336 0.66600001 -0.047876518 1.649749e-38 282 281
-0.043205637 0.66600001 -0.047876518 1.6681881e-38 283 281
-0.041911677 0.66399997 -0.047732744 1.6590041e-38 284 281
-0.040747464 0.66399997 -0.047732744 1.6682237e-38 285 281
-0.039583251 0.66399997 -0.047732744 1.6590036e-38 286 281
-0.038361177 0.66299999 -0.047660857 1.6590036e-38 287 281
-0.037142612 0.662 -0.047588971 1.659076e-38 288 281
-0.035981905 0.662 -0.047588971 1.6498564e-38 289 281
-0.034821201 0.662 -0.047588971 1.6590041e-38 290 281
-0.033660494 0.662 -0.047588971 1.6590041e-38 291 281
-0.032499783 0.662 -0.047588971 1.6773353e-38 292 281
-0.031291738 0.66100001 -0.047517084 1.6773353e-38 293 281
-0.030132787 0.66100001 -0.047517084 1.6865199e-38 294 281
-0.028973831 0.66100001 -0.047517084 1.6865199e-38 295 281
-0.02781488 0.66100001 -0.047517084 1.6681531e-38 296 281
-0.026655925 0.66100001 -0.047517084 1.6681531e-38 297 281
-0.025496973 0.66100001 -0.047517084 1.6681886e-38 298 281
-0.02433802 0.66100001 -0.047517084 1.6865918e-38 299 281
-0.023108931 0.65899998 -0.04737331 1.6498937e-38 300 281
-0.021953486 0.65899998 -0.04737331 1.6498937e-38 301 281
-0.02076648 0.65799999 -0.047301427 1.6589701e-38 302 281
-0.019582979 0.65700001 -0.04722954 1.6682255e-38 303 281
-0.01843104 0.65700001 -0.04722954 1.6406035e-38 304 281
-0.0172791 0.65700001 -0.04722954 1.6406035e-38 305 281
-0.01612716 0.65700001 -0.04722954 1.6498234e-38 306 281
-0.01497522 0.65700001 -0.04722954 1.6498234e-38 307 281
-0.013823279 0.65700001 -0.04722954 1.6681902e-38 308 281
-0.01267134 0.65700001 -0.04722954 1.6774098e-38 309 281
-0.011536933 0.65799999 -0.047301427 1.6315991e-38 310 281
-0.01038324 0.65799999 -0.047301427 1.6315991e-38 311 281
-0.0092295464 0.65799999 -0.047301427 1.6774798e-38 312 281
-0.0080758529 0.65799999 -0.047301427 1.6774798e-38 313 281
-0.0069221598 0.65799999 -0.047301427 1.6958098e-38 314 281
-0.0057684663 0.65799999 -0.047301427 1.6865902e-38 315 281
-0.0046147732 0.65799999 -0.047301427 1.6867347e-38 316 281
-0.0034558198 0.65700001 -0.04722954 1.6867347e-38 317 281
-0.0023038799 0.65700001 -0.04722954 1.6866645e-38 318 281
-0.00115194 0.65700001 -0.04722954 1.6774448e-38 319 281
0 0.65700001 -0.04722954 1.6957763e-38 320 281
0.0011536933 0.65799999 -0.047301427 1.6957763e-38 321 281
0.0023038799 0.65700001 -0.04722954 1.6866648e-38 322 281
0.0034558198 0.65700001 -0.04722954 1.6774451e-38 323 281
0.0046077599 0.65700001 -0.04722954 1.6774095e-38 324 281
0.0057421662 0.65499997 -0.047085766 1.6774095e-38 325 281
0.0068905996 0.65499997 -0.047085766 1.6682255e-38 326 281
0.0080635799 0.65700001 -0.04722954 1.6682255e-38 327 281
0.0092155198 0.65700001 -0.04722954 1.6589701e-38 328 281
0.01036746 0.65700001 -0.04722954 1.6774451e-38 329 281
0.011519399 0.65700001 -0.04722954 1.6406757e-38 330 281
0.01267134 0.65700001 -0.04722954 1.6498953e-38 331 281
0.013823279 0.65700001 -0.04722954 1.5948303e-38 332 281
0.01497522 0.65700001 -0.04722954 1.5948303e-38 333 281
0.016151706 0.65799999 -0.047301427 1.6131262e-38 334 281
0.0173843 0.66100001 -0.047517084 1.6223459e-38 335 281
0.018543253 0.66100001 -0.047517084 1.6314938e-38 336 281
0.019702207 0.66100001 -0.047517084 1.6314938e-38 337 281
0.020892721 0.662 -0.047588971 1.6223462e-38 338 281
0.022053426 0.662 -0.047588971 1.5946875e-38 339 281
0.0232492 0.66299999 -0.047660857 1.5669569e-38 340 281
0.024411658 0.66299999 -0.047660857 1.5485176e-38 341 281
0.025574118 0.66299999 -0.047660857 1.5115668e-38 342 281
0.026736578 0.66299999 -0.047660857 1.4562495e-38 343 281
0.027941117 0.66399997 -0.047732744 1.4102589e-38 344 281
0.029192999 0.66600001 -0.047876518 1.4194785e-38 345 281
0.030360719 0.66600001 -0.047876518 1.3551583e-38 346 281
0.03157578 0.667 -0.047948405 1.4289148e-38 347 281
0.032745253 0.667 -0.047948405 1.4843066e-38 348 281
0.034067266 0.67000002 -0.048164066 1.5304044e-38 349 281
0.035241999 0.67000002 -0.048164066 1.5213298e-38 350 281
0.038601387 0.68800002 -0.049458027 1.4563956e-38 352 281
0.039807681 0.68800002 -0.049458027 1.4563956e-38 353 281
0.040954359 0.68699998 -0.049386136 1.447391e-38 354 281
0.042158898 0.68699998 -0.049386136 1.447391e-38 355 281
0.043363437 0.68699998 -0.049386136 1.4473195e-38 356 281
0.044567976 0.68699998 -0.049386136 1.4657227e-38 357 281
0.045772515 0.68699998 -0.049386136 1.428846e-38 358 281
0.047045439 0.68800002 -0.049458027 1.3090277e-38 359 281
0.048391998 0.69 -0.049601797 6.9164098e-39 360 281
0.049889345 0.69400001 -0.049889345 5.2568899e-39 361 281
-0.081761435 0.69599998 -0.051253434 1.2169396e-38 253 282
-0.080309682 0.69400001 -0.051106159 1.2813299e-38 254 282
-0.079092868 0.69400001 -0.051106159 1.2905495e-38 255 282
-0.077539407 0.69099998 -0.050885238 1.3457204e-38 256 282
-0.076217398 0.69 -0.050811596 1.3641236e-38 257 282
-0.074790187 0.68800002 -0.050664321 1.3641942e-38 258 282
-0.073476933 0.68699998 -0.050590675 1.3734137e-38 259 282
-0.072167195 0.68599999 -0.050517038 1.3734135e-38 260 282
-0.070757523 0.68400002 -0.050369758 1.3641939e-38 261 282
-0.069456547 0.68300003 -0.05029612 1.3457908e-38 262 282
-0.067959204 0.68000001 -0.050075196 1.3457908e-38 263 282
-0.066668749 0.67900002 -0.050001562 1.3365359e-38 264 282
-0.065381795 0.67799997 -0.049927916 1.3365359e-38 265 282
-0.064003684 0.676 -0.049780637 1.3272809e-38 266 282
-0.062818423 0.676 -0.049780637 1.3272809e-38 267 282
-0.061542001 0.67500001 -0.049706999 1.2995869e-38 268 282
-0.06026908 0.67400002 -0.049633358 1.2442695e-38 269 282
-0.059087332 0.67400002 -0.049633358 1.1428194e-38 270 282
-0.057733759 0.67199999 -0.049486078 1.1520749e-38 271 282
-0.056471359 0.671 -0.049412437 1.1614376e-38 272 282
-0.055294871 0.671 -0.049412437 1.2905115e-38 273 282
-0.054037735 0.67000002 -0.049338799 1.3457921e-38 274 282
-0.052705199 0.66799998 -0.04919152 1.3734866e-38 275 282
-0.051533967 0.66799998 -0.04919152 1.4103646e-38 276 282
-0.050362743 0.66799998 -0.04919152 1.4380233e-38 277 282
-0.049117878 0.667 -0.049117878 1.4748296e-38 278 282
-0.047948405 0.667 -0.049117878 1.5116719e-38 279 282
-0.046708796 0.66600001 -0.04904424 1.5484782e-38 280 282
-0.045541082 0.66600001 -0.04904424 1.5761369e-38 281 282
-0.04437336 0.66600001 -0.04904424 1.5761375e-38 282 282
-0.043205637 0.66600001 -0.04904424 1.6037602e-38 283 282
-0.041911677 0.66399997 -0.048896957 1.6129799e-38 284 282
-0.040747464 0.66399997 -0.048896957 1.6221994e-38 285 282
-0.039523639 0.66299999 -0.048823316 1.6222345e-38 286 282
-0.038361177 0.66299999 -0.048823316 1.6222345e-38 287 282
-0.037142612 0.662 -0.048749682 1.6222345e-38 288 282
-0.035981905 0.662 -0.048749682 1.6130149e-38 289 282
-0.034821201 0.662 -0.048749682 1.6405297e-38 290 282
-0.033660494 0.662 -0.048749682 1.6405297e-38 291 282
-0.032499783 0.662 -0.048749682 1.6404941e-38 292 282
-0.031291738 0.66100001 -0.04867604 1.6404941e-38 293 282
-0.030132787 0.66100001 -0.04867604 1.6221275e-38 294 282
-0.028973831 0.66100001 -0.04867604 1.6221275e-38 295 282
-0.02781488 0.66100001 -0.04867604 1.6221278e-38 296 282
-0.026655925 0.66100001 -0.04867604 1.6221278e-38 297 282
-0.025419824 0.65899998 -0.048528757 1.5946486e-38 298 282
-0.024264378 0.65899998 -0.048528757 1.5946486e-38 299 282
-0.023108931 0.65899998 -0.048528757 1.6038685e-38 300 282
-0.021953486 0.65899998 -0.048528757 1.6038685e-38 301 282
-0.020734919 0.65700001 -0.048381478 1.6220928e-38 302 282
-0.019582979 0.65700001 -0.048381478 1.6313124e-38 303 282
-0.01843104 0.65700001 -0.048381478 1.6220938e-38 304 282
-0.0172791 0.65700001 -0.048381478 1.6220938e-38 305 282
-0.01612716 0.65700001 -0.048381478 1.6128748e-38 306 282
-0.01497522 0.65700001 -0.048381478 1.6220943e-38 307 282
-0.013823279 0.65700001 -0.048381478 1.6220941e-38 308 282
-0.01267134 0.65700001 -0.048381478 1.6313136e-38 309 282
-0.011519399 0.65700001 -0.048381478 1.6314561e-38 310 282
-0.01036746 0.65700001 -0.048381478 1.6314561e-38 311 282
-0.0092155198 0.65700001 -0.048381478 1.6497858e-38 312 282
-0.0080635799 0.65700001 -0.048381478 1.6497858e-38 313 282
-0.0069116396 0.65700001 -0.048381478 1.6498211e-38 314 282
-0.0057421662 0.65499997 -0.048234195 1.6498211e-38 315 282
-0.0045937328 0.65499997 -0.048234195 1.6498211e-38 316 282
-0.0034452998 0.65499997 -0.048234195 1.6221626e-38 317 282
-0.0022968664 0.65499997 -0.048234195 1.6038685e-38 318 282
-0.0011484332 0.65499997 -0.048234195 1.6130881e-38 319 282
0 0.65499997 -0.048234195 1.6129802e-38 320 282
0.00115194 0.65700001 -0.048381478 1.6129802e-38 321 282
0.0023038799 0.65700001 -0.048381478 1.6038682e-38 322 282
0.0034452998 0.65499997 -0.048234195 1.5946486e-38 323 282
0.0045937328 0.65499997 -0.048234195 1.5946133e-38 324 282
0.0057421662 0.65499997 -0.048234195 1.6038329e-38 325 282
0.0068905996 0.65499997 -0.048234195 1.6037249e-38 326 282
0.008039033 0.65499997 -0.048234195 1.6037249e-38 327 282
0.0091874655 0.65499997 -0.048234195 1.6037249e-38 328 282
0.010335899 0.65499997 -0.048234195 1.6129446e-38 329 282
0.011484332 0.65499997 -0.048234195 1.5853583e-38 330 282
0.012632766 0.65499997 -0.048234195 1.594578e-38 331 282
0.013781199 0.65499997 -0.048234195 1.58536e-38 332 282
0.014929632 0.65499997 -0.048234195 1.5945796e-38 333 282
0.01612716 0.65700001 -0.048381478 1.5945448e-38 334 282
0.017305398 0.65799999 -0.048455119 1.6037644e-38 335 282
0.018487146 0.65899998 -0.048528757 1.5762849e-38 336 282
0.019642593 0.65899998 -0.048528757 1.5762849e-38 337 282
0.02086116 0.66100001 -0.04867604 1.5946875e-38 338 282
0.022053426 0.662 -0.048749682 1.5854679e-38 339 282
0.023214132 0.662 -0.048749682 1.5853953e-38 340 282
0.024374841 0.662 -0.048749682 1.5392975e-38 341 282
0.025535546 0.662 -0.048749682 1.5025625e-38 342 282
0.026736578 0.66299999 -0.048823316 1.4656842e-38 343 282
0.027941117 0.66399997 -0.048896957 1.4472817e-38 344 282
0.02910533 0.66399997 -0.048896957 1.4657208e-38 345 282
0.030360719 0.66600001 -0.04904424 1.4198403e-38 346 282
0.031528439 0.66600001 -0.04904424 1.42906e-38 347 282
0.032745253 0.667 -0.049117878 1.5118208e-38 348 282
0.034067266 0.67000002 -0.049338799 1.5302241e-38 349 282
0.035241999 0.67000002 -0.049338799 1.5394795e-38 350 282
0.036416732 0.67000002 -0.049338799 1.5118208e-38 351 282
0.037591465 0.67000002 -0.049338799 1.4841972e-38 352 282
0.039807681 0.68800002 -0.050664321 1.4749776e-38 353 282
0.040954359 0.68699998 -0.050590675 1.4566464e-38 354 282
0.042158898 0.68699998 -0.050590675 1.447391e-38 355 282
0.043363437 0.68699998 -0.050590675 1.4381718e-38 356 282
0.044567976 0.68699998 -0.050590675 1.4105133e-38 357 282
0.045839146 0.68800002 -0.050664321 1.3459781e-38 358 282
0.047182199 0.69 -0.050811596 1.2537466e-38 359 282
0.04846213 0.69099998 -0.050885238 7.3756126e-39 360 282
-0.081409015 0.69300002 -0.05224758 1.161552e-38 253 283
-0.080193959 0.69300002 -0.05224758 1.2261216e-38 254 283
-0.078978904 0.69300002 -0.05224758 1.2445607e-38 255 283
-0.077539407 0.69099998 -0.052096792 1.3365021e-38 256 283
-0.076217398 0.69 -0.052021399 1.3457576e-38 257 283
-0.074790187 0.68800002 -0.051870614 1.3274961e-38 258 283
-0.073583893 0.68800002 -0.051870614 1.3274961e-38 259 283
-0.072167195 0.68599999 -0.051719822 1.3458627e-38 260 283
-0.070757523 0.68400002 -0.051569041 1.3458627e-38 261 283
-0.069456547 0.68300003 -0.051493648 1.3641939e-38 262 283
-0.067959204 0.68000001 -0.051267464 1.3457908e-38 263 283
-0.066668749 0.67900002 -0.051192071 1.3457908e-38 264 283
-0.065381795 0.67799997 -0.051116679 1.3365712e-38 265 283
-0.064003684 0.676 -0.050965894 1.3273512e-38 266 283
-0.062818423 0.676 -0.050965894 1.3273512e-38 267 283
-0.061633173 0.676 -0.050965894 1.3088402e-38 268 283
-0.060358498 0.67500001 -0.050890498 1.2535229e-38 269 283
-0.059087332 0.67400002 -0.050815105 1.1980275e-38 270 283
-0.057733759 0.67199999 -0.050664317 1.1980275e-38 271 283
-0.056555521 0.67199999 -0.050664317 1.1798056e-38 272 283
-0.055294871 0.671 -0.050588924 1.2812206e-38 273 283
-0.054037735 0.67000002 -0.050513536 1.2813999e-38 274 283
-0.052705199 0.66799998 -0.050362743 1.3182781e-38 275 283
-0.051533967 0.66799998 -0.050362743 1.33661e-38 276 283
-0.050287351 0.667 -0.050287351 1.3734883e-38 277 283
-0.049117878 0.667 -0.050287351 1.3827432e-38 278 283
-0.047948405 0.667 -0.050287351 1.3919627e-38 279 283
-0.046708796 0.66600001 -0.050211959 1.4378435e-38 280 283
-0.045541082 0.66600001 -0.050211959 1.4839413e-38 281 283
-0.04437336 0.66600001 -0.050211959 1.5024526e-38 282 283
-0.043075889 0.66399997 -0.05006117 1.5208917e-38 283 283
-0.041911677 0.66399997 -0.05006117 1.5393313e-38 284 283
-0.040747464 0.66399997 -0.05006117 1.5669539e-38 285 283
-0.039523639 0.66299999 -0.049985778 1.6129782e-38 286 283
-0.038303319 0.662 -0.049910385 1.6037586e-38 287 283
-0.037142612 0.662 -0.049910385 1.6221605e-38 288 283
-0.035981905 0.662 -0.049910385 1.6037215e-38 289 283
-0.034821201 0.662 -0.049910385 1.6128334e-38 290 283
-0.033609647 0.66100001 -0.049834993 1.622053e-38 291 283
-0.032450691 0.66100001 -0.049834993 1.6128337e-38 292 283
-0.031291738 0.66100001 -0.049834993 1.6220533e-38 293 283
-0.030132787 0.66100001 -0.049834993 1.594504e-38 294 283
-0.028886165 0.65899998 -0.049684204 1.594504e-38 295 283
-0.027730718 0.65899998 -0.049684204 1.5944684e-38 296 283
-0.026575271 0.65899998 -0.049684204 1.5944684e-38 297 283
-0.025419824 0.65899998 -0.049684204 1.5761369e-38 298 283
-0.02422756 0.65799999 -0.049608808 1.5761369e-38 299 283
-0.023073865 0.65799999 -0.049608808 1.5853568e-38 300 283
-0.021920172 0.65799999 -0.049608808 1.5853568e-38 301 283
-0.020734919 0.65700001 -0.049533416 1.6036886e-38 302 283
-0.019523365 0.65499997 -0.049382631 1.6036886e-38 303 283
-0.018374931 0.65499997 -0.049382631 1.6220198e-38 304 283
-0.017226499 0.65499997 -0.049382631 1.5943612e-38 305 283
-0.016078066 0.65499997 -0.049382631 1.5943966e-38 306 283
-0.014929632 0.65499997 -0.049382631 1.6036161e-38 307 283
-0.013781199 0.65499997 -0.049382631 1.5944687e-38 308 283
-0.012632766 0.65499997 -0.049382631 1.6036883e-38 309 283
-0.011484332 0.65499997 -0.049382631 1.5761385e-38 310 283
-0.010335899 0.65499997 -0.049382631 1.5761385e-38 311 283
-0.0091874655 0.65499997 -0.049382631 1.6036895e-38 312 283
-0.008039033 0.65499997 -0.049382631 1.5852864e-38 313 283
-0.0068905996 0.65499997 -0.049382631 1.6036895e-38 314 283
-0.0057421662 0.65499997 -0.049382631 1.5852864e-38 315 283
-0.0045937328 0.65499997 -0.049382631 1.5760669e-38 316 283
-0.0034452998 0.65499997 -0.049382631 1.5668473e-38 317 283
-0.0022968664 0.65499997 -0.049382631 1.5302214e-38 318 283
-0.0011484332 0.65499997 -0.049382631 1.5486245e-38 319 283
0 0.65499997 -0.049382631 1.5300779e-38 320 283
0.0011484332 0.65499997 -0.049382631 1.5392975e-38 321 283
0.0022968664 0.65499997 -0.049382631 1.5301132e-38 322 283
0.0034452998 0.65499997 -0.049382631 1.5301132e-38 323 283
0.0045937328 0.65499997 -0.049382631 1.5117817e-38 324 283
0.0057421662 0.65499997 -0.049382631 1.5025622e-38 325 283
0.0068905996 0.65499997 -0.049382631 1.5208934e-38 326 283
0.008039033 0.65499997 -0.049382631 1.5208934e-38 327 283
0.0091874655 0.65499997 -0.049382631 1.530006e-38 328 283
0.010335899 0.65499997 -0.049382631 1.530006e-38 329 283
0.011484332 0.65499997 -0.049382631 1.5208587e-38 330 283
0.012632766 0.65499997 -0.049382631 1.5300782e-38 331 283
0.013781199 0.65499997 -0.049382631 1.5392625e-38 332 283
0.014929632 0.65499997 -0.049382631 1.548482e-38 333 283
0.01612716 0.65700001 -0.049533416 1.5668133e-38 334 283
0.0172791 0.65700001 -0.049533416 1.5668133e-38 335 283
0.018459093 0.65799999 -0.049608808 1.5485539e-38 336 283
0.019612785 0.65799999 -0.049608808 1.5577736e-38 337 283
0.020798039 0.65899998 -0.049684204 1.5669937e-38 338 283
0.022020113 0.66100001 -0.049834993 1.5577742e-38 339 283
0.023179067 0.66100001 -0.049834993 1.5577742e-38 340 283
0.024374841 0.662 -0.049910385 1.5208959e-38 341 283
0.025535546 0.662 -0.049910385 1.502564e-38 342 283
0.026696252 0.662 -0.049910385 1.484125e-38 343 283
0.027899038 0.66299999 -0.049985778 1.4934518e-38 344 283
0.02910533 0.66399997 -0.05006117 1.53033e-38 345 283
0.030360719 0.66600001 -0.050211959 1.4844123e-38 346 283
0.031528439 0.66600001 -0.050211959 1.4844123e-38 347 283
0.032696161 0.66600001 -0.050211959 1.5027085e-38 348 283
0.033914726 0.667 -0.050287351 1.5119282e-38 349 283
0.035136797 0.66799998 -0.050362743 1.5118208e-38 350 283
0.036308024 0.66799998 -0.050362743 1.5118208e-38 351 283
0.037591465 0.67000002 -0.050513536 1.4934889e-38 352 283
0.038766202 0.67000002 -0.050513536 1.4934889e-38 353 283
0.040954359 0.68699998 -0.051795214 1.4841972e-38 354 283
0.042158898 0.68699998 -0.051795214 1.4657581e-38 355 283
0.043363437 0.68699998 -0.051795214 1.4288448e-38 356 283
0.044567976 0.68699998 -0.051795214 1.382747e-38 357 283
0.045772515 0.68699998 -0.051795214 1.2631467e-38 358 283
0.047182199 0.69 -0.052021399 1.18939e-38 359 283
0.04846213 0.69099998 -0.052096792 9.1269596e-39 360 283
-0.081409015 0.69300002 -0.053462639 1.1891046e-38 253 284
-0.080193959 0.69300002 -0.053462639 1.1246009e-38 254 284
-0.078978904 0.69300002 -0.053462639 1.1706985e-38 255 284
-0.077427194 0.69 -0.053231198 1.2261213e-38 256 284
-0.076217398 0.69 -0.053231198 1.253816e-38 257 284
-0.074790187 0.68800002 -0.053076908 1.309023e-38 258 284
-0.073583893 0.68800002 -0.053076908 1.309023e-38 259 284
-0.072167195 0.68599999 -0.05292261 1.3182413e-38 260 284
-0.070757523 0.68400002 -0.05276832 1.3274608e-38 261 284
-0.069456547 0.68300003 -0.052691177 1.3457911e-38 262 284
-0.068159081 0.68199998 -0.052614026 1.3457911e-38 263 284
-0.066668749 0.67900002 -0.052382588 1.3366431e-38 264 284
-0.065381795 0.67799997 -0.052305438 1.3274236e-38 265 284
-0.06419304 0.67799997 -0.052305438 1.3274233e-38 266 284
-0.062818423 0.676 -0.052151144 1.30902e-38 267 284
-0.061633173 0.676 -0.052151144 1.3089121e-38 268 284
-0.060358498 0.67500001 -0.052074 1.2628143e-38 269 284
-0.059087332 0.67400002 -0.051996857 1.2165382e-38 270 284
-0.057733759 0.67199999 -0.051842555 1.1981351e-38 271 284
-0.056555521 0.67199999 -0.051842555 1.1982443e-38 272 284
-0.055294871 0.671 -0.051765412 1.2443422e-38 273 284
-0.054037735 0.67000002 -0.051688269 1.2721806e-38 274 284
-0.052705199 0.66799998 -0.051533967 1.2906198e-38 275 284
-0.051533967 0.66799998 -0.051533967 1.3273905e-38 276 284
-0.050287351 0.667 -0.051456824 1.355049e-38 277 284
-0.049117878 0.667 -0.051456824 1.373416e-38 278 284
-0.047948405 0.667 -0.051456824 1.373416e-38 279 284
-0.046708796 0.66600001 -0.051379681 1.3733068e-38 280 284
-0.045541082 0.66600001 -0.051379681 1.391746e-38 281 284
-0.044240102 0.66399997 -0.051225383 1.3827782e-38 282 284
-0.043075889 0.66399997 -0.051225383 1.4196563e-38 283 284
-0.041848559 0.66299999 -0.051148236 1.4380236e-38 284 284
-0.040686097 0.66299999 -0.051148236 1.4380236e-38 285 284
-0.039523639 0.66299999 -0.051148236 1.4932312e-38 286 284
-0.038303319 0.662 -0.051071092 1.4932312e-38 287 284
-0.037142612 0.662 -0.051071092 1.5115254e-38 288 284
-0.035981905 0.662 -0.051071092 1.5115254e-38 289 284
-0.0347686 0.66100001 -0.050993945 1.5115977e-38 290 284
-0.033609647 0.66100001 -0.050993945 1.5208173e-38 291 284
-0.032450691 0.66100001 -0.050993945 1.5117422e-38 292 284
-0.031291738 0.66100001 -0.050993945 1.5302172e-38 293 284
-0.030041611 0.65899998 -0.050839648 1.5759927e-38 294 284
-0.028886165 0.65899998 -0.050839648 1.5944319e-38 295 284
-0.027730718 0.65899998 -0.050839648 1.5760293e-38 296 284
-0.026534945 0.65799999 -0.050762504 1.5576262e-38 297 284
-0.025381252 0.65799999 -0.050762504 1.5484782e-38 298 284
-0.02422756 0.65799999 -0.050762504 1.5576978e-38 299 284
-0.023038799 0.65700001 -0.050685361 1.5576981e-38 300 284
-0.021886859 0.65700001 -0.050685361 1.5576981e-38 301 284
-0.020671798 0.65499997 -0.050531063 1.5668823e-38 302 284
-0.019523365 0.65499997 -0.050531063 1.5668823e-38 303 284
-0.018374931 0.65499997 -0.050531063 1.5483712e-38 304 284
-0.017226499 0.65499997 -0.050531063 1.5298962e-38 305 284
-0.016078066 0.65499997 -0.050531063 1.5298952e-38 306 284
-0.014929632 0.65499997 -0.050531063 1.5575179e-38 307 284
-0.013781199 0.65499997 -0.050531063 1.5484429e-38 308 284
-0.012632766 0.65499997 -0.050531063 1.5484429e-38 309 284
-0.011484332 0.65499997 -0.050531063 1.5576272e-38 310 284
-0.010335899 0.65499997 -0.050531063 1.5576272e-38 311 284
-0.0091874655 0.65499997 -0.050531063 1.566847e-38 312 284
-0.008039033 0.65499997 -0.050531063 1.5576275e-38 313 284
-0.0068905996 0.65499997 -0.050531063 1.5485161e-38 314 284
-0.0057333997 0.65399998 -0.050453916 1.5485161e-38 315 284
-0.0045867199 0.65399998 -0.050453916 1.5392609e-38 316 284
-0.0034452998 0.65499997 -0.050531063 1.5300414e-38 317 284
-0.0022968664 0.65499997 -0.050531063 1.5208581e-38 318 284
-0.0011484332 0.65499997 -0.050531063 1.5208581e-38 319 284
0 0.65499997 -0.050531063 1.5300416e-38 320 284
0.0011484332 0.65499997 -0.050531063 1.5207862e-38 321 284
0.0022968664 0.65499997 -0.050531063 1.5024553e-38 322 284
0.0034452998 0.65499997 -0.050531063 1.4932356e-38 323 284
0.0045937328 0.65499997 -0.050531063 1.4932353e-38 324 284
0.0057421662 0.65499997 -0.050531063 1.4932353e-38 325 284
0.0068800794 0.65399998 -0.050453916 1.4839801e-38 326 284
0.0080267601 0.65399998 -0.050453916 1.4932356e-38 327 284
0.0091734398 0.65399998 -0.050453916 1.5115312e-38 328 284
0.01032012 0.65399998 -0.050453916 1.5115312e-38 329 284
0.011466799 0.65399998 -0.050453916 1.4932e-38 330 284
0.012613479 0.65399998 -0.050453916 1.4932e-38 331 284
0.013760159 0.65399998 -0.050453916 1.5024199e-38 332 284
0.014929632 0.65499997 -0.050531063 1.5208231e-38 333 284
0.016078066 0.65499997 -0.050531063 1.484125e-38 334 284
0.0172791 0.65700001 -0.050685361 1.502564e-38 335 284
0.01843104 0.65700001 -0.050685361 1.520788e-38 336 284
0.019612785 0.65799999 -0.050762504 1.5392272e-38 337 284
0.020798039 0.65899998 -0.050839648 1.5301155e-38 338 284
0.021953486 0.65899998 -0.050839648 1.5208959e-38 339 284
0.023179067 0.66100001 -0.050993945 1.5208959e-38 340 284
0.02433802 0.66100001 -0.050993945 1.5116764e-38 341 284
0.025496973 0.66100001 -0.050993945 1.4841253e-38 342 284
0.026696252 0.662 -0.051071092 1.5025284e-38 343 284
0.027856959 0.662 -0.051071092 1.5117836e-38 344 284
0.02910533 0.66399997 -0.051225383 1.5210031e-38 345 284
0.030269546 0.66399997 -0.051225383 1.5026719e-38 346 284
0.031433757 0.66399997 -0.051225383 1.5118915e-38 347 284
0.032696161 0.66600001 -0.051379681 1.5027085e-38 348 284
0.033914726 0.667 -0.051456824 1.4934889e-38 349 284
0.035084199 0.667 -0.051456824 1.4934533e-38 350 284
0.036253672 0.667 -0.051456824 1.4750502e-38 351 284
0.037479252 0.66799998 -0.051533967 1.4750502e-38 352 284
0.038592618 0.667 -0.051456824 1.4750502e-38 353 284
0.039762091 0.667 -0.051456824 1.4750505e-38 354 284
0.042097531 0.68599999 -0.05292261 1.4658309e-38 355 284
0.043300316 0.68599999 -0.05292261 1.4102984e-38 356 284
0.044567976 0.68699998 -0.052999757 1.3273222e-38 357 284
0.045772515 0.68699998 -0.052999757 1.1710585e-38 358 284
0.046977058 0.68699998 -0.052999757 1.1341444e-38 359 284
-0.080193959 0.69300002 -0.054677699 1.1430421e-38 254 285
-0.078978904 0.69300002 -0.054677699 1.0969444e-38 255 285
-0.077427194 0.69 -0.054440998 1.152332e-38 256 285
-0.076217398 0.69 -0.054440998 1.1984298e-38 257 285
-0.074790187 0.68800002 -0.054283202 1.2537807e-38 258 285
-0.073583893 0.68800002 -0.054283202 1.2630003e-38 259 285
-0.07227239 0.68699998 -0.054204296 1.3274261e-38 260 285
-0.070757523 0.68400002 -0.053967599 1.3182065e-38 261 285
-0.069456547 0.68300003 -0.053888701 1.3365725e-38 262 285
-0.068159081 0.68199998 -0.053809796 1.3365725e-38 263 285
-0.066766933 0.68000001 -0.053652 1.3457911e-38 264 285
-0.065478235 0.67900002 -0.053573098 1.3457911e-38 265 285
-0.06419304 0.67799997 -0.053494196 1.3457905e-38 266 285
-0.062818423 0.676 -0.053336397 1.3365709e-38 267 285
-0.061633173 0.676 -0.053336397 1.327315e-38 268 285
-0.060358498 0.67500001 -0.053257499 1.2996204e-38 269 285
-0.059087332 0.67400002 -0.053178601 1.2627074e-38 270 285
-0.057733759 0.67199999 -0.053020798 1.2350128e-38 271 285
-0.056555521 0.67199999 -0.053020798 1.2350502e-38 272 285
-0.055294871 0.671 -0.052941896 1.2719286e-38 273 285
-0.054037735 0.67000002 -0.052863002 1.2905115e-38 274 285
-0.052705199 0.66799998 -0.052705199 1.3089867e-38 275 285
-0.051533967 0.66799998 -0.052705199 1.3182062e-38 276 285
-0.050362743 0.66799998 -0.052705199 1.3274258e-38 277 285
-0.049117878 0.667 -0.052626297 1.3457573e-38 278 285
-0.047948405 0.667 -0.052626297 1.3549769e-38 279 285
-0.046708796 0.66600001 -0.052547399 1.3640532e-38 280 285
-0.045541082 0.66600001 -0.052547399 1.3825282e-38 281 285
-0.044240102 0.66399997 -0.052389596 1.3458666e-38 282 285
-0.043075889 0.66399997 -0.052389596 1.355122e-38 283 285
-0.041848559 0.66299999 -0.052310698 1.3551939e-38 284 285
-0.040686097 0.66299999 -0.052310698 1.3459385e-38 285 285
-0.039523639 0.66299999 -0.052310698 1.4102221e-38 286 285
-0.038303319 0.662 -0.0522318 1.4286252e-38 287 285
-0.037142612 0.662 -0.0522318 1.4011823e-38 288 285
-0.035927553 0.66100001 -0.052152898 1.3919627e-38 289 285
-0.0347686 0.66100001 -0.052152898 1.4102942e-38 290 285
-0.033609647 0.66100001 -0.052152898 1.4195138e-38 291 285
-0.032450691 0.66100001 -0.052152898 1.4288756e-38 292 285
-0.031291738 0.66100001 -0.052152898 1.4657899e-38 293 285
-0.030041611 0.65899998 -0.051995095 1.5299668e-38 294 285
-0.028886165 0.65899998 -0.051995095 1.5484059e-38 295 285
-0.027730718 0.65899998 -0.051995095 1.5208554e-38 296 285
-0.026534945 0.65799999 -0.051916201 1.5116e-38 297 285
-0.025381252 0.65799999 -0.051916201 1.5116003e-38 298 285
-0.02422756 0.65799999 -0.051916201 1.5208198e-38 299 285
-0.023038799 0.65700001 -0.051837299 1.5483712e-38 300 285
-0.021886859 0.65700001 -0.051837299 1.5483712e-38 301 285
-0.020671798 0.65499997 -0.051679496 1.520857e-38 302 285
-0.019523365 0.65499997 -0.051679496 1.520857e-38 303 285
-0.018374931 0.65499997 -0.051679496 1.4839789e-38 304 285
-0.017200198 0.65399998 -0.051600594 1.45632e-38 305 285
-0.01605352 0.65399998 -0.051600594 1.4470646e-38 306 285
-0.014906839 0.65399998 -0.051600594 1.45632e-38 307 285
-0.013760159 0.65399998 -0.051600594 1.5115299e-38 308 285
-0.012632766 0.65499997 -0.051679496 1.5207495e-38 309 285
-0.011484332 0.65499997 -0.051679496 1.5116018e-38 310 285
-0.010335899 0.65499997 -0.051679496 1.5116018e-38 311 285
-0.0091874655 0.65499997 -0.051679496 1.5300411e-38 312 285
-0.008039033 0.65499997 -0.051679496 1.5208214e-38 313 285
-0.0068905996 0.65499997 -0.051679496 1.5208934e-38 314 285
-0.0057333997 0.65399998 -0.051600594 1.5024902e-38 315 285
-0.0045867199 0.65399998 -0.051600594 1.5116021e-38 316 285
-0.0034400397 0.65399998 -0.051600594 1.5116021e-38 317 285
-0.00229336 0.65399998 -0.051600594 1.4840157e-38 318 285
-0.00114668 0.65399998 -0.051600594 1.4840157e-38 319 285
0 0.65399998 -0.051600594 1.4839082e-38 320 285
0.00114668 0.65399998 -0.051600594 1.5023472e-38 321 285
0.0022968664 0.65499997 -0.051679496 1.4839082e-38 322 285
0.0034452998 0.65499997 -0.051679496 1.4746887e-38 323 285
0.0045937328 0.65499997 -0.051679496 1.4379196e-38 324 285
0.0057333997 0.65399998 -0.051600594 1.4287e-38 325 285
0.0068800794 0.65399998 -0.051600594 1.428665e-38 326 285
0.0080267601 0.65399998 -0.051600594 1.4378845e-38 327 285
0.0091734398 0.65399998 -0.051600594 1.4195886e-38 328 285
0.01032012 0.65399998 -0.051600594 1.4379917e-38 329 285
0.011466799 0.65399998 -0.051600594 1.4380271e-38 330 285
0.012613479 0.65399998 -0.051600594 1.4472466e-38 331 285
0.013760159 0.65399998 -0.051600594 1.4564665e-38 332 285
0.014929632 0.65499997 -0.051679496 1.4564665e-38 333 285
0.016078066 0.65499997 -0.051679496 1.4473192e-38 334 285
0.0172791 0.65700001 -0.051837299 1.4473192e-38 335 285
0.01843104 0.65700001 -0.051837299 1.4839822e-38 336 285
0.019582979 0.65700001 -0.051837299 1.4932019e-38 337 285
0.02076648 0.65799999 -0.051916201 1.4840903e-38 338 285
0.021920172 0.65799999 -0.051916201 1.4748707e-38 339 285
0.023108931 0.65899998 -0.051995095 1.4748704e-38 340 285
0.02433802 0.66100001 -0.052152898 1.4748704e-38 341 285
0.025496973 0.66100001 -0.052152898 1.4749426e-38 342 285
0.026655925 0.66100001 -0.052152898 1.4749426e-38 343 285
0.027856959 0.662 -0.0522318 1.4565758e-38 344 285
0.029061496 0.66299999 -0.052310698 1.4657953e-38 345 285
0.030269546 0.66399997 -0.052389596 1.4657953e-38 346 285
0.031433757 0.66399997 -0.052389596 1.4657953e-38 347 285
0.03259797 0.66399997 -0.052389596 1.4657953e-38 348 285
0.03386388 0.66600001 -0.052547399 1.4657953e-38 349 285
0.035084199 0.667 -0.052626297 1.4658309e-38 350 285
0.036253672 0.667 -0.052626297 1.4565755e-38 351 285
0.037479252 0.66799998 -0.052705199 1.4474281e-38 352 285
0.038592618 0.667 -0.052626297 1.4474281e-38 353 285
0.039762091 0.667 -0.052626297 1.4566123e-38 354 285
0.041115668 0.67000002 -0.052863002 1.4289897e-38 355 285
0.042795356 0.67799997 -0.053494196 1.3276113e-38 356 285
-0.078750968 0.69099998 -0.055731449 1.161338e-38 255 286
-0.077539407 0.69099998 -0.055731449 1.0325503e-38 256 286
-0.076217398 0.69 -0.055650797 1.0232948e-38 257 286
-0.074790187 0.68800002 -0.055489492 1.0513118e-38 258 286
-0.073583893 0.68800002 -0.055489492 1.1342879e-38 259 286
-0.07227239 0.68699998 -0.055408835 1.3088813e-38 260 286
-0.070757523 0.68400002 -0.055166878 1.2996259e-38 261 286
-0.069456547 0.68300003 -0.055086225 1.3457207e-38 262 286
-0.068159081 0.68199998 -0.055005573 1.3457207e-38 263 286
-0.066766933 0.68000001 -0.054844268 1.3457558e-38 264 286
-0.065478235 0.67900002 -0.054763615 1.3457558e-38 265 286
-0.06419304 0.67799997 -0.054682959 1.3458276e-38 266 286
-0.063004278 0.67799997 -0.054682959 1.3366081e-38 267 286
-0.061633173 0.676 -0.054521654 1.3273882e-38 268 286
-0.060358498 0.67500001 -0.054441001 1.308985e-38 269 286
-0.059087332 0.67400002 -0.054360349 1.3088415e-38 270 286
-0.057733759 0.67199999 -0.054199036 1.2996219e-38 271 286
-0.056555521 0.67199999 -0.054199036 1.2537759e-38 272 286
-0.055294871 0.671 -0.054118387 1.2630314e-38 273 286
-0.054037735 0.67000002 -0.054037735 1.3089494e-38 274 286
-0.052705199 0.66799998 -0.053876422 1.3273885e-38 275 286
-0.051533967 0.66799998 -0.053876422 1.3182769e-38 276 286
-0.050362743 0.66799998 -0.053876422 1.3182769e-38 277 286
-0.049117878 0.667 -0.05379577 1.3366081e-38 278 286
-0.047948405 0.667 -0.05379577 1.3458276e-38 279 286
-0.046708796 0.66600001 -0.053715117 1.3457923e-38 280 286
-0.045541082 0.66600001 -0.053715117 1.3457923e-38 281 286
-0.044240102 0.66399997 -0.053553808 1.3733431e-38 282 286
-0.043075889 0.66399997 -0.053553808 1.3733431e-38 283 286
-0.041848559 0.66299999 -0.053473156 1.3366804e-38 284 286
-0.040686097 0.66299999 -0.053473156 1.3366804e-38 285 286
-0.039464023 0.662 -0.053392503 1.3550472e-38 286 286
-0.038303319 0.662 -0.053392503 1.3550472e-38 287 286
-0.037086505 0.66100001 -0.053311851 1.3825261e-38 288 286
-0.035927553 0.66100001 -0.053311851 1.3825261e-38 289 286
-0.0347686 0.66100001 -0.053311851 1.4008576e-38 290 286
-0.033609647 0.66100001 -0.053311851 1.4008576e-38 291 286
-0.032450691 0.66100001 -0.053311851 1.3734863e-38 292 286
-0.031291738 0.66100001 -0.053311851 1.3734863e-38 293 286
-0.030041611 0.65899998 -0.053150542 1.3919252e-38 294 286
-0.028886165 0.65899998 -0.053150542 1.3919252e-38 295 286
-0.027688639 0.65799999 -0.05306989 1.410328e-38 296 286
-0.026534945 0.65799999 -0.05306989 1.3826333e-38 297 286
-0.025381252 0.65799999 -0.05306989 1.3918899e-38 298 286
-0.024190739 0.65700001 -0.052989237 1.4195844e-38 299 286
-0.023038799 0.65700001 -0.052989237 1.4931256e-38 300 286
-0.021886859 0.65700001 -0.052989237 1.5023451e-38 301 286
-0.020671798 0.65499997 -0.052827932 1.5298962e-38 302 286
-0.019523365 0.65499997 -0.052827932 1.5391516e-38 303 286
-0.018374931 0.65499997 -0.052827932 1.4287334e-38 304 286
-0.017200198 0.65399998 -0.052747279 1.3457573e-38 305 286
-0.01605352 0.65399998 -0.052747279 1.3454699e-38 306 286
-0.014906839 0.65399998 -0.052747279 1.428482e-38 307 286
-0.013760159 0.65399998 -0.052747279 1.4469927e-38 308 286
-0.012613479 0.65399998 -0.052747279 1.483871e-38 309 286
-0.011466799 0.65399998 -0.052747279 1.5114217e-38 310 286
-0.01032012 0.65399998 -0.052747279 1.5298967e-38 311 286
-0.0091734398 0.65399998 -0.052747279 1.5115652e-38 312 286
-0.0080267601 0.65399998 -0.052747279 1.5115652e-38 313 286
-0.0068800794 0.65399998 -0.052747279 1.5024173e-38 314 286
-0.0057333997 0.65399998 -0.052747279 1.4840142e-38 315 286
-0.0045867199 0.65399998 -0.052747279 1.4747946e-38 316 286
-0.0034400397 0.65399998 -0.052747279 1.4747946e-38 317 286
-0.00229336 0.65399998 -0.052747279 1.474759e-38 318 286
-0.00114668 0.65399998 -0.052747279 1.4655395e-38 319 286
0 0.65399998 -0.052747279 1.483871e-38 320 286
0.00114668 0.65399998 -0.052747279 1.4746513e-38 321 286
0.00229336 0.65399998 -0.052747279 1.4378097e-38 322 286
0.0034400397 0.65399998 -0.052747279 1.4378097e-38 323 286
0.0045867199 0.65399998 -0.052747279 1.4101517e-38 324 286
0.0057333997 0.65399998 -0.052747279 1.3917126e-38 325 286
0.0068800794 0.65399998 -0.052747279 1.4008969e-38 326 286
0.0080267601 0.65399998 -0.052747279 1.4101523e-38 327 286
0.0091734398 0.65399998 -0.052747279 1.4194432e-38 328 286
0.01032012 0.65399998 -0.052747279 1.4194432e-38 329 286
0.011466799 0.65399998 -0.052747279 1.4470296e-38 330 286
0.012613479 0.65399998 -0.052747279 1.4562493e-38 331 286
0.013760159 0.65399998 -0.052747279 1.4654694e-38 332 286
0.014906839 0.65399998 -0.052747279 1.4654694e-38 333 286
0.016078066 0.65499997 -0.052827932 1.4746892e-38 334 286
0.017226499 0.65499997 -0.052827932 1.4746892e-38 335 286
0.018374931 0.65499997 -0.052827932 1.4746539e-38 336 286
0.019523365 0.65499997 -0.052827932 1.4838735e-38 337 286
0.020734919 0.65700001 -0.052989237 1.4839088e-38 338 286
0.021920172 0.65799999 -0.05306989 1.4839088e-38 339 286
0.023073865 0.65799999 -0.05306989 1.4564293e-38 340 286
0.024264378 0.65899998 -0.053150542 1.4564293e-38 341 286
0.025496973 0.66100001 -0.053311851 1.4381347e-38 342 286
0.026655925 0.66100001 -0.053311851 1.4473542e-38 343 286
0.027856959 0.662 -0.053392503 1.4473548e-38 344 286
0.029061496 0.66299999 -0.053473156 1.4657581e-38 345 286
0.030223956 0.66299999 -0.053473156 1.4748701e-38 346 286
0.031433757 0.66399997 -0.053553808 1.4656504e-38 347 286
0.03259797 0.66399997 -0.053553808 1.4748701e-38 348 286
0.03386388 0.66600001 -0.053715117 1.4748701e-38 349 286
0.035031598 0.66600001 -0.053715117 1.4566464e-38 350 286
0.036253672 0.667 -0.05379577 1.447391e-38 351 286
0.037423145 0.667 -0.05379577 1.4381715e-38 352 286
0.038592618 0.667 -0.05379577 1.4381715e-38 353 286
0.039762091 0.667 -0.05379577 1.382999e-38 354 286
0.040931564 0.667 -0.05379577 1.3460848e-38 355 286
0.042416636 0.67199999 -0.054199036 1.2355955e-38 356 286
-0.075996481 0.68800002 -0.056695789 1.0785066e-38 257 287
-0.074790187 0.68800002 -0.056695789 1.0602104e-38 258 287
-0.073583893 0.68800002 -0.056695789 1.0694658e-38 259 287
-0.07227239 0.68699998 -0.056613375 1.1156686e-38 260 287
-0.070757523 0.68400002 -0.056366164 1.170986e-38 261 287
-0.069456547 0.68300003 -0.056283753 1.2905851e-38 262 287
-0.068159081 0.68199998 -0.056201346 1.2905851e-38 263 287
-0.066766933 0.68000001 -0.056036532 1.2906554e-38 264 287
-0.065574668 0.68000001 -0.056036532 1.2906554e-38 265 287
-0.06419304 0.67799997 -0.055871718 1.3182062e-38 266 287
-0.063004278 0.67799997 -0.055871718 1.3182062e-38 267 287
-0.061633173 0.676 -0.055706903 1.3273529e-38 268 287
-0.060358498 0.67500001 -0.0556245 1.3089497e-38 269 287
-0.059175 0.67500001 -0.0556245 1.3272796e-38 270 287
-0.057905588 0.67400002 -0.055542093 1.3272796e-38 271 287
-0.056555521 0.67199999 -0.055377278 1.318132e-38 272 287
-0.055377278 0.67199999 -0.055377278 1.3273515e-38 273 287
-0.054037735 0.67000002 -0.055212468 1.299802e-38 274 287
-0.052705199 0.66799998 -0.05504765 1.3090217e-38 275 287
-0.051533967 0.66799998 -0.05504765 1.3365725e-38 276 287
-0.050287351 0.667 -0.054965243 1.3365725e-38 277 287
-0.049117878 0.667 -0.054965243 1.3365725e-38 278 287
-0.047876518 0.66600001 -0.054882839 1.3457921e-38 279 287
-0.046708796 0.66600001 -0.054882839 1.3641236e-38 280 287
-0.045404319 0.66399997 -0.054718021 1.3641236e-38 281 287
