# .PCD v.7 - Point Cloud Data file format
FIELDS x y z rgb imX imY
SIZE 4 4 4 4 4 4
TYPE F F F F F F
COUNT 1 1 1 1 1 1
WIDTH 839
HEIGHT 1
VIEWPOINT 0 0 0 1 0 0 0
POINTS 839
DATA ascii
0.040118016 0.78899997 -0.012450419 1.5851783e-38 349 249
0.041554 0.79000002 -0.0124662 1.6219845e-38 350 249
0.04293913 0.79000002 -0.0124662 1.6219845e-38 351 249
0.044268157 0.78899997 -0.012450419 1.5946136e-38 352 249
0.045651536 0.78899997 -0.012450419 1.6038332e-38 353 249
0.047034916 0.78899997 -0.012450419 1.6588997e-38 354 249
0.048418298 0.78899997 -0.012450419 1.6773747e-38 355 249
0.049801677 0.78899997 -0.012450419 1.6590449e-38 356 249
0.051185057 0.78899997 -0.012450419 1.677484e-38 357 249
0.052435186 0.787 -0.01241886 1.6775191e-38 358 249
0.053815059 0.787 -0.01241886 1.6775191e-38 359 249
0.055194929 0.787 -0.01241886 1.7326915e-38 360 249
0.056431033 0.78500003 -0.0123873 1.7419111e-38 361 249
0.057807401 0.78500003 -0.0123873 1.8154165e-38 362 249
0.059183765 0.78500003 -0.0123873 1.8338196e-38 363 249
0.06071442 0.787 -0.01241886 1.8062688e-38 364 249
0.061936498 0.78500003 -0.0123873 1.7417319e-38 365 249
0.063312866 0.78500003 -0.0123873 1.6864145e-38 366 249
0.064689234 0.78500003 -0.0123873 1.6034026e-38 367 249
0.066065602 0.78500003 -0.0123873 1.4564312e-38 368 249
0.067441963 0.78500003 -0.0123873 1.5209681e-38 369 249
0.068818331 0.78500003 -0.0123873 1.6406056e-38 370 249
0.070194699 0.78500003 -0.0123873 1.7143623e-38 371 249
0.071571067 0.78500003 -0.0123873 1.7234707e-38 372 249
0.073133282 0.787 -0.01241886 1.7142512e-38 373 249
0.07451316 0.787 -0.01241886 1.6591853e-38 374 249
0.076085895 0.78899997 -0.012450419 1.6591853e-38 375 249
0.077076539 0.78500003 -0.0123873 1.6224161e-38 376 249
0.0784529 0.78500003 -0.0123873 1.6131965e-38 377 249
0.079829268 0.78500003 -0.0123873 1.5762499e-38 378 249
0.081205636 0.78500003 -0.0123873 1.594689e-38 379 249
0.082582004 0.78500003 -0.0123873 1.8789884e-38 380 249
0.083958365 0.78500003 -0.0123873 1.9343057e-38 381 249
-0.045015078 0.778 -0.013640933 1.9353131e-38 287 250
-0.043650985 0.778 -0.013640933 1.8342159e-38 288 250
-0.042286891 0.778 -0.013640933 1.8249963e-38 289 250
-0.040712398 0.77399999 -0.013570799 1.9262282e-38 290 250
-0.039355319 0.77399999 -0.013570799 1.9538869e-38 291 250
-0.037998237 0.77399999 -0.013570799 1.9814718e-38 292 250
-0.036735836 0.77600002 -0.013605867 1.9814718e-38 293 250
-0.035375252 0.77600002 -0.013605867 2.0275696e-38 294 250
-0.034014668 0.77600002 -0.013605867 2.01835e-38 295 250
-0.032738242 0.778 -0.013640933 2.0182794e-38 296 250
-0.031454798 0.77999997 -0.013675999 2.027499e-38 297 250
-0.030087199 0.77999997 -0.013675999 2.0182074e-38 298 250
-0.028719598 0.77999997 -0.013675999 2.0182074e-38 299 250
-0.027351998 0.77999997 -0.013675999 2.0090231e-38 300 250
-0.025984399 0.77999997 -0.013675999 2.0090231e-38 301 250
-0.024648361 0.78100002 -0.013693534 1.9722535e-38 302 250
-0.023279008 0.78100002 -0.013693534 1.9630339e-38 303 250
-0.021881599 0.77999997 -0.013675999 1.9261562e-38 304 250
-0.020513998 0.77999997 -0.013675999 1.9077171e-38 305 250
-0.0191464 0.77999997 -0.013675999 1.9076452e-38 306 250
-0.017801592 0.78100002 -0.013693534 1.8891702e-38 307 250
-0.016432239 0.78100002 -0.013693534 1.8340332e-38 308 250
-0.01510146 0.78299999 -0.013728599 1.8340332e-38 309 250
-0.013728599 0.78299999 -0.013728599 1.8431092e-38 310 250
-0.012355739 0.78299999 -0.013728599 1.8338897e-38 311 250
-0.010982879 0.78299999 -0.013728599 1.8154868e-38 312 250
-0.0096100196 0.78299999 -0.013728599 1.8062673e-38 313 250
-0.0082371598 0.78299999 -0.013728599 1.7786806e-38 314 250
-0.0068642995 0.78299999 -0.013728599 1.7602413e-38 315 250
-0.0055054668 0.78500003 -0.013763667 1.7602058e-38 316 250
-0.0041396199 0.787 -0.013798732 1.7509862e-38 317 250
-0.0027597465 0.787 -0.013798732 1.7509862e-38 318 250
-0.0013798733 0.787 -0.013798732 1.7325471e-38 319 250
0 0.787 -0.013798732 1.7233977e-38 320 250
0.0013798733 0.787 -0.013798732 1.7049946e-38 321 250
0.0027597465 0.787 -0.013798732 1.6865915e-38 322 250
0.0041396199 0.787 -0.013798732 1.6681884e-38 323 250
0.005519493 0.787 -0.013798732 1.6588961e-38 324 250
0.0068993662 0.787 -0.013798732 1.622018e-38 325 250
0.0082792398 0.787 -0.013798732 1.6036136e-38 326 250
0.0096836593 0.78899997 -0.013833799 1.5667712e-38 327 250
0.011067039 0.78899997 -0.013833799 1.5575529e-38 328 250
0.012450419 0.78899997 -0.013833799 1.5299302e-38 329 250
0.013833799 0.78899997 -0.013833799 1.4930537e-38 330 250
0.015236467 0.79000002 -0.013851333 1.483834e-38 331 250
0.016621601 0.79000002 -0.013851333 1.4562476e-38 332 250
0.018006733 0.79000002 -0.013851333 1.4562476e-38 333 250
0.019391866 0.79000002 -0.013851333 1.4378801e-38 334 250
0.020777 0.79000002 -0.013851333 1.4286605e-38 335 250
0.022162134 0.79000002 -0.013851333 1.4286961e-38 336 250
0.023547266 0.79000002 -0.013851333 1.4102571e-38 337 250
0.024932399 0.79000002 -0.013851333 1.4193676e-38 338 250
0.026317533 0.79000002 -0.013851333 1.4008926e-38 339 250
0.027702667 0.79000002 -0.013851333 1.4284087e-38 340 250
0.029087799 0.79000002 -0.013851333 1.4284087e-38 341 250
0.030472934 0.79000002 -0.013851333 1.3825282e-38 342 250
0.031858064 0.79000002 -0.013851333 1.3640532e-38 343 250
0.033201117 0.78899997 -0.013833799 1.3639448e-38 344 250
0.034584496 0.78899997 -0.013833799 1.3823479e-38 345 250
0.035967879 0.78899997 -0.013833799 1.3641967e-38 346 250
0.037351258 0.78899997 -0.013833799 1.3734164e-38 347 250
0.038734637 0.78899997 -0.013833799 1.4009678e-38 348 250
0.040118016 0.78899997 -0.013833799 1.4285904e-38 349 250
0.041501399 0.78899997 -0.013833799 1.4929833e-38 350 250
0.04293913 0.79000002 -0.013851333 1.5206419e-38 351 250
0.044268157 0.78899997 -0.013833799 1.4933069e-38 352 250
0.045651536 0.78899997 -0.013833799 1.5210016e-38 353 250
0.047034916 0.78899997 -0.013833799 1.6128378e-38 354 250
0.048418298 0.78899997 -0.013833799 1.6220575e-38 355 250
0.049675439 0.787 -0.013798732 1.6037626e-38 356 250
0.051055312 0.787 -0.013798732 1.6129821e-38 357 250
0.052301936 0.78500003 -0.013763667 1.6129821e-38 358 250
0.0536783 0.78500003 -0.013763667 1.6129821e-38 359 250
0.055054668 0.78500003 -0.013763667 1.6406407e-38 360 250
0.056431033 0.78500003 -0.013763667 1.6498602e-38 361 250
0.057807401 0.78500003 -0.013763667 1.7141455e-38 362 250
0.059183765 0.78500003 -0.013763667 1.7233651e-38 363 250
0.060560133 0.78500003 -0.013763667 1.7051776e-38 364 250
0.061936498 0.78500003 -0.013763667 1.7328364e-38 365 250
0.063151553 0.78299999 -0.013728599 1.7972307e-38 366 250
0.064524412 0.78299999 -0.013728599 1.7972307e-38 367 250
0.065897278 0.78299999 -0.013728599 1.7328383e-38 368 250
0.067270137 0.78299999 -0.013728599 1.7052156e-38 369 250
0.068643004 0.78299999 -0.013728599 1.705142e-38 370 250
0.070194699 0.78500003 -0.013763667 1.705142e-38 371 250
0.071571067 0.78500003 -0.013763667 1.7235076e-38 372 250
0.072947428 0.78500003 -0.013763667 1.7142521e-38 373 250
0.074323803 0.78500003 -0.013763667 1.6592219e-38 374 250
0.075700171 0.78500003 -0.013763667 1.6500023e-38 375 250
0.077076539 0.78500003 -0.013763667 1.6224517e-38 376 250
0.0784529 0.78500003 -0.013763667 1.5947931e-38 377 250
0.079829268 0.78500003 -0.013763667 1.5303673e-38 378 250
0.081205636 0.78500003 -0.013763667 1.4934889e-38 379 250
0.082582004 0.78500003 -0.013763667 1.8234909e-38 380 250
0.083958365 0.78500003 -0.013763667 1.8511495e-38 381 250
0.085334733 0.78500003 -0.013763667 1.9704297e-38 382 250
-0.047436431 0.773 -0.014908593 1.8802851e-38 285 251
-0.046081103 0.773 -0.014908593 1.9169777e-38 286 251
-0.045015078 0.778 -0.015005025 1.8616603e-38 287 251
-0.043650985 0.778 -0.015005025 1.88935e-38 288 251
-0.042178184 0.77600002 -0.014966453 1.907825e-38 289 251
-0.040712398 0.77399999 -0.014927879 1.9906563e-38 290 251
-0.039355319 0.77399999 -0.014927879 2.0182791e-38 291 251
-0.037998237 0.77399999 -0.014927879 2.00913e-38 292 251
-0.036641158 0.77399999 -0.014927879 2.00913e-38 293 251
-0.035375252 0.77600002 -0.014966453 2.00913e-38 294 251
-0.034014668 0.77600002 -0.014966453 2.0183496e-38 295 251
-0.032738242 0.778 -0.015005025 2.0090594e-38 296 251
-0.031374145 0.778 -0.015005025 2.0090594e-38 297 251
-0.030087199 0.77999997 -0.0150436 2.0089881e-38 298 251
-0.028719598 0.77999997 -0.0150436 1.9905131e-38 299 251
-0.027351998 0.77999997 -0.0150436 1.9446308e-38 300 251
-0.025984399 0.77999997 -0.0150436 1.9354112e-38 301 251
-0.024616797 0.77999997 -0.0150436 1.9537424e-38 302 251
-0.023249198 0.77999997 -0.0150436 1.9445227e-38 303 251
-0.021881599 0.77999997 -0.0150436 1.8800585e-38 304 251
-0.020513998 0.77999997 -0.0150436 1.870839e-38 305 251
-0.0191464 0.77999997 -0.0150436 1.8891705e-38 306 251
-0.017801592 0.78100002 -0.015062887 1.8522922e-38 307 251
-0.016432239 0.78100002 -0.015062887 1.8430729e-38 308 251
-0.01510146 0.78299999 -0.01510146 1.8338534e-38 309 251
-0.013728599 0.78299999 -0.01510146 1.7970826e-38 310 251
-0.012355739 0.78299999 -0.01510146 1.7878272e-38 311 251
-0.010982879 0.78299999 -0.01510146 1.7877553e-38 312 251
-0.0096100196 0.78299999 -0.01510146 1.7785357e-38 313 251
-0.0082371598 0.78299999 -0.01510146 1.7418017e-38 314 251
-0.0068642995 0.78299999 -0.01510146 1.7233625e-38 315 251
-0.0055054668 0.78500003 -0.015140033 1.6681533e-38 316 251
-0.0041291001 0.78500003 -0.015140033 1.6497142e-38 317 251
-0.0027527334 0.78500003 -0.015140033 1.6404588e-38 318 251
-0.0013798733 0.787 -0.015178605 1.6036164e-38 319 251
0 0.787 -0.015178605 1.5943237e-38 320 251
0.0013798733 0.787 -0.015178605 1.5759204e-38 321 251
0.0027597465 0.787 -0.015178605 1.5482617e-38 322 251
0.0041396199 0.787 -0.015178605 1.5390063e-38 323 251
0.005519493 0.787 -0.015178605 1.4746482e-38 324 251
0.0068993662 0.787 -0.015178605 1.4469535e-38 325 251
0.0082792398 0.787 -0.015178605 1.4194377e-38 326 251
0.0096836593 0.78899997 -0.015217179 1.4194377e-38 327 251
0.011067039 0.78899997 -0.015217179 1.3917813e-38 328 251
0.012450419 0.78899997 -0.015217179 1.3825617e-38 329 251
0.013833799 0.78899997 -0.015217179 1.3733437e-38 330 251
0.015236467 0.79000002 -0.015236467 1.3733437e-38 331 251
0.016621601 0.79000002 -0.015236467 1.3733084e-38 332 251
0.018006733 0.79000002 -0.015236467 1.4009672e-38 333 251
0.019391866 0.79000002 -0.015236467 1.4100071e-38 334 251
0.020777 0.79000002 -0.015236467 1.4007876e-38 335 251
0.022162134 0.79000002 -0.015236467 1.4099352e-38 336 251
0.023547266 0.79000002 -0.015236467 1.4007157e-38 337 251
0.024932399 0.79000002 -0.015236467 1.3823481e-38 338 251
0.026317533 0.79000002 -0.015236467 1.3823481e-38 339 251
0.027702667 0.79000002 -0.015236467 1.3639094e-38 340 251
0.029087799 0.79000002 -0.015236467 1.3823484e-38 341 251
0.030472934 0.79000002 -0.015236467 1.3456151e-38 342 251
0.031817738 0.78899997 -0.015217179 1.3363955e-38 343 251
0.033201117 0.78899997 -0.015217179 1.3546546e-38 344 251
0.034584496 0.78899997 -0.015217179 1.3454349e-38 345 251
0.035967879 0.78899997 -0.015217179 1.2904417e-38 346 251
0.037351258 0.78899997 -0.015217179 1.2904417e-38 347 251
0.038734637 0.78899997 -0.015217179 1.2812219e-38 348 251
0.040118016 0.78899997 -0.015217179 1.2812219e-38 349 251
0.041501399 0.78899997 -0.015217179 1.3639097e-38 350 251
0.04293913 0.79000002 -0.015236467 1.3915324e-38 351 251
0.044268157 0.78899997 -0.015217179 1.3642334e-38 352 251
0.045651536 0.78899997 -0.015217179 1.391928e-38 353 251
0.047034916 0.78899997 -0.015217179 1.43781e-38 354 251
0.048418298 0.78899997 -0.015217179 1.4655047e-38 355 251
0.049675439 0.787 -0.015178605 1.4932356e-38 356 251
0.051055312 0.787 -0.015178605 1.5300779e-38 357 251
0.052301936 0.78500003 -0.015140033 1.511747e-38 358 251
0.0536783 0.78500003 -0.015140033 1.5485892e-38 359 251
0.055054668 0.78500003 -0.015140033 1.6128745e-38 360 251
0.056287259 0.78299999 -0.01510146 1.6128745e-38 361 251
0.057660121 0.78299999 -0.01510146 1.6496451e-38 362 251
0.059032977 0.78299999 -0.01510146 1.6680843e-38 363 251
0.060405839 0.78299999 -0.01510146 1.6498251e-38 364 251
0.061778698 0.78299999 -0.01510146 1.6683001e-38 365 251
0.063151553 0.78299999 -0.01510146 1.7326215e-38 366 251
0.064524412 0.78299999 -0.01510146 1.7326215e-38 367 251
0.065897278 0.78299999 -0.01510146 1.71429e-38 368 251
0.067270137 0.78299999 -0.01510146 1.7050704e-38 369 251
0.068643004 0.78299999 -0.01510146 1.7051054e-38 370 251
0.070015855 0.78299999 -0.01510146 1.7051054e-38 371 251
0.071388714 0.78299999 -0.01510146 1.723472e-38 372 251
0.07276158 0.78299999 -0.01510146 1.6958493e-38 373 251
0.074134432 0.78299999 -0.01510146 1.6683701e-38 374 251
0.075700171 0.78500003 -0.015140033 1.6406754e-38 375 251
0.076880157 0.78299999 -0.01510146 1.6131243e-38 376 251
0.078253016 0.78299999 -0.01510146 1.5854657e-38 377 251
0.079829268 0.78500003 -0.015140033 1.5302944e-38 378 251
0.080998734 0.78299999 -0.01510146 1.4750129e-38 379 251
0.0823716 0.78299999 -0.01510146 1.6855918e-38 380 251
0.083744459 0.78299999 -0.01510146 1.6948114e-38 381 251
-0.046081103 0.773 -0.016263919 1.870801e-38 286 252
-0.044725779 0.773 -0.016263919 1.8984957e-38 287 252
-0.043370452 0.773 -0.016263919 1.9721076e-38 288 252
-0.042015124 0.773 -0.016263919 2.0273891e-38 289 252
-0.0406598 0.773 -0.016263919 2.0183496e-38 290 252
-0.039355319 0.77399999 -0.016284959 2.0183496e-38 291 252
-0.037998237 0.77399999 -0.016284959 2.0183496e-38 292 252
-0.036641158 0.77399999 -0.016284959 2.00913e-38 293 252
-0.03528408 0.77399999 -0.016284959 1.9724323e-38 294 252
-0.033927001 0.77399999 -0.016284959 1.9724323e-38 295 252
-0.032654081 0.77600002 -0.01632704 1.9631421e-38 296 252
-0.031293493 0.77600002 -0.01632704 1.9539225e-38 297 252
-0.03001005 0.778 -0.016369121 1.9722187e-38 298 252
-0.028572321 0.77600002 -0.01632704 1.9353406e-38 299 252
-0.027211733 0.77600002 -0.01632704 1.9261576e-38 300 252
-0.025917772 0.778 -0.016369121 1.8893152e-38 301 252
-0.024553679 0.778 -0.016369121 1.8893152e-38 302 252
-0.023189586 0.778 -0.016369121 1.8800957e-38 303 252
-0.021825492 0.778 -0.016369121 1.8432178e-38 304 252
-0.020461399 0.778 -0.016369121 1.8339981e-38 305 252
-0.019097306 0.778 -0.016369121 1.8155231e-38 306 252
-0.017778799 0.77999997 -0.016411198 1.8155231e-38 307 252
-0.016432239 0.78100002 -0.016432239 1.7787155e-38 308 252
-0.01510146 0.78299999 -0.01647432 1.7694959e-38 309 252
-0.013728599 0.78299999 -0.01647432 1.7694584e-38 310 252
-0.012355739 0.78299999 -0.01647432 1.7418357e-38 311 252
-0.010982879 0.78299999 -0.01647432 1.7417274e-38 312 252
-0.0096100196 0.78299999 -0.01647432 1.7233243e-38 313 252
-0.0082371598 0.78299999 -0.01647432 1.6773351e-38 314 252
-0.0068642995 0.78299999 -0.01647432 1.6404927e-38 315 252
-0.0054914397 0.78299999 -0.01647432 1.622018e-38 316 252
-0.0041185799 0.78299999 -0.01647432 1.5943591e-38 317 252
-0.0027527334 0.78500003 -0.016516401 1.5391864e-38 318 252
-0.0013763667 0.78500003 -0.016516401 1.5115277e-38 319 252
0 0.78500003 -0.016516401 1.4838696e-38 320 252
0.0013798733 0.787 -0.01655848 1.4746141e-38 321 252
0.0027667598 0.78899997 -0.016600559 1.4469201e-38 322 252
0.0041396199 0.787 -0.01655848 1.4469201e-38 323 252
0.005519493 0.787 -0.01655848 1.4101143e-38 324 252
0.0068993662 0.787 -0.01655848 1.3824558e-38 325 252
0.0082792398 0.787 -0.01655848 1.3641611e-38 326 252
0.0096836593 0.78899997 -0.016600559 1.345722e-38 327 252
0.011067039 0.78899997 -0.016600559 1.3456872e-38 328 252
0.012450419 0.78899997 -0.016600559 1.3364318e-38 329 252
0.013833799 0.78899997 -0.016600559 1.3456519e-38 330 252
0.015236467 0.79000002 -0.016621601 1.3456519e-38 331 252
0.016621601 0.79000002 -0.016621601 1.3456519e-38 332 252
0.018006733 0.79000002 -0.016621601 1.3456519e-38 333 252
0.019391866 0.79000002 -0.016621601 1.3364324e-38 334 252
0.020777 0.79000002 -0.016621601 1.3271769e-38 335 252
0.022162134 0.79000002 -0.016621601 1.3363605e-38 336 252
0.023547266 0.79000002 -0.016621601 1.3363605e-38 337 252
0.024932399 0.79000002 -0.016621601 1.3088094e-38 338 252
0.026317533 0.79000002 -0.016621601 1.2995897e-38 339 252
0.027702667 0.79000002 -0.016621601 1.2903699e-38 340 252
0.029087799 0.79000002 -0.016621601 1.2903699e-38 341 252
0.030472934 0.79000002 -0.016621601 1.2904415e-38 342 252
0.031817738 0.78899997 -0.016600559 1.2904415e-38 343 252
0.033201117 0.78899997 -0.016600559 1.3086658e-38 344 252
0.034584496 0.78899997 -0.016600559 1.3178853e-38 345 252
0.035967879 0.78899997 -0.016600559 1.2902639e-38 346 252
0.037351258 0.78899997 -0.016600559 1.2995195e-38 347 252
0.038734637 0.78899997 -0.016600559 1.2810809e-38 348 252
0.040118016 0.78899997 -0.016600559 1.2810809e-38 349 252
0.041501399 0.78899997 -0.016600559 1.3178504e-38 350 252
0.042884778 0.78899997 -0.016600559 1.32707e-38 351 252
0.044268157 0.78899997 -0.016600559 1.3181024e-38 352 252
0.045651536 0.78899997 -0.016600559 1.3181024e-38 353 252
0.047034916 0.78899997 -0.016600559 1.3088457e-38 354 252
0.048418298 0.78899997 -0.016600559 1.3273207e-38 355 252
0.049675439 0.787 -0.01655848 1.373453e-38 356 252
0.051055312 0.787 -0.01655848 1.4011475e-38 357 252
0.052301936 0.78500003 -0.016516401 1.4379546e-38 358 252
0.0536783 0.78500003 -0.016516401 1.4840523e-38 359 252
0.054914396 0.78299999 -0.01647432 1.5208587e-38 360 252
0.056287259 0.78299999 -0.01647432 1.5485173e-38 361 252
0.057660121 0.78299999 -0.01647432 1.5852881e-38 362 252
0.059032977 0.78299999 -0.01647432 1.6037631e-38 363 252
0.060405839 0.78299999 -0.01647432 1.5762855e-38 364 252
0.061778698 0.78299999 -0.01647432 1.585505e-38 365 252
0.063151553 0.78299999 -0.01647432 1.5946893e-38 366 252
0.064524412 0.78299999 -0.01647432 1.603909e-38 367 252
0.065897278 0.78299999 -0.01647432 1.6223111e-38 368 252
0.067270137 0.78299999 -0.01647432 1.6315307e-38 369 252
0.068643004 0.78299999 -0.01647432 1.6866307e-38 370 252
0.070015855 0.78299999 -0.01647432 1.6866307e-38 371 252
0.071388714 0.78299999 -0.01647432 1.6774465e-38 372 252
0.07276158 0.78299999 -0.01647432 1.6682268e-38 373 252
0.074134432 0.78299999 -0.01647432 1.649859e-38 374 252
0.075507298 0.78299999 -0.01647432 1.631384e-38 375 252
0.076880157 0.78299999 -0.01647432 1.5671344e-38 376 252
0.078253016 0.78299999 -0.01647432 1.5486593e-38 377 252
0.079625882 0.78299999 -0.01647432 1.5392975e-38 378 252
0.080998734 0.78299999 -0.01647432 1.5024553e-38 379 252
0.0823716 0.78299999 -0.01647432 1.5293616e-38 380 252
0.083744459 0.78299999 -0.01647432 1.5201419e-38 381 252
-0.048791755 0.773 -0.017619247 1.8342146e-38 284 253
-0.047436431 0.773 -0.017619247 1.871057e-38 285 253
-0.046081103 0.773 -0.017619247 1.9446661e-38 286 253
-0.044725779 0.773 -0.017619247 1.9815083e-38 287 253
-0.043370452 0.773 -0.017619247 2.0550488e-38 288 253
-0.042015124 0.773 -0.017619247 2.0550488e-38 289 253
-0.0406598 0.773 -0.017619247 1.9999479e-38 290 253
-0.039304473 0.773 -0.017619247 1.9999479e-38 291 253
-0.037949149 0.773 -0.017619247 2.0183147e-38 292 253
-0.036593821 0.773 -0.017619247 2.009095e-38 293 253
-0.035238493 0.773 -0.017619247 1.9907279e-38 294 253
-0.033927001 0.77399999 -0.01764204 1.9722888e-38 295 253
-0.032569919 0.77399999 -0.01764204 1.9721816e-38 296 253
-0.031212838 0.77399999 -0.01764204 1.9537424e-38 297 253
-0.029932907 0.77600002 -0.017687626 1.9719666e-38 298 253
-0.028572321 0.77600002 -0.017687626 1.9535275e-38 299 253
-0.027211733 0.77600002 -0.017687626 1.9074297e-38 300 253
-0.025851147 0.77600002 -0.017687626 1.9074297e-38 301 253
-0.024553679 0.778 -0.017733213 1.8523275e-38 302 253
-0.023189586 0.778 -0.017733213 1.843108e-38 303 253
-0.021825492 0.778 -0.017733213 1.8431083e-38 304 253
-0.020461399 0.778 -0.017733213 1.8246333e-38 305 253
-0.019097306 0.778 -0.017733213 1.8338884e-38 306 253
-0.017778799 0.77999997 -0.017778799 1.8154491e-38 307 253
-0.016432239 0.78100002 -0.017801592 1.7878975e-38 308 253
-0.015062887 0.78100002 -0.017801592 1.7233606e-38 309 253
-0.013728599 0.78299999 -0.017847179 1.6864453e-38 310 253
-0.012355739 0.78299999 -0.017847179 1.6219084e-38 311 253
-0.010982879 0.78299999 -0.017847179 1.5575517e-38 312 253
-0.0096100196 0.78299999 -0.017847179 1.5298569e-38 313 253
-0.0082371598 0.78299999 -0.017847179 1.4746832e-38 314 253
-0.0068642995 0.78299999 -0.017847179 1.4746832e-38 315 253
-0.0054914397 0.78299999 -0.017847179 1.4837596e-38 316 253
-0.0041185799 0.78299999 -0.017847179 1.4653203e-38 317 253
-0.0027457199 0.78299999 -0.017847179 1.4010731e-38 318 253
-0.0013763667 0.78500003 -0.017892767 1.3918534e-38 319 253
0 0.78500003 -0.017892767 1.4101496e-38 320 253
0.0013763667 0.78500003 -0.017892767 1.4101496e-38 321 253
0.0027667598 0.78899997 -0.017983939 1.4100789e-38 322 253
0.0041396199 0.787 -0.017938353 1.4193343e-38 323 253
0.005519493 0.787 -0.017938353 1.4100438e-38 324 253
0.0068993662 0.787 -0.017938353 1.3916406e-38 325 253
0.0082792398 0.787 -0.017938353 1.3549418e-38 326 253
0.0096836593 0.78899997 -0.017983939 1.3457223e-38 327 253
0.011067039 0.78899997 -0.017983939 1.3640538e-38 328 253
0.0124662 0.79000002 -0.018006733 1.3456148e-38 329 253
0.013851333 0.79000002 -0.018006733 1.3456148e-38 330 253
0.015236467 0.79000002 -0.018006733 1.3363952e-38 331 253
0.016621601 0.79000002 -0.018006733 1.3456504e-38 332 253
0.018006733 0.79000002 -0.018006733 1.3364308e-38 333 253
0.019391866 0.79000002 -0.018006733 1.3088442e-38 334 253
0.020777 0.79000002 -0.018006733 1.2996245e-38 335 253
0.022162134 0.79000002 -0.018006733 1.2995891e-38 336 253
0.023547266 0.79000002 -0.018006733 1.2903696e-38 337 253
0.024932399 0.79000002 -0.018006733 1.2812219e-38 338 253
0.026317533 0.79000002 -0.018006733 1.2812219e-38 339 253
0.027702667 0.79000002 -0.018006733 1.2628188e-38 340 253
0.029087799 0.79000002 -0.018006733 1.2628188e-38 341 253
0.030472934 0.79000002 -0.018006733 1.2628185e-38 342 253
0.031858064 0.79000002 -0.018006733 1.2628185e-38 343 253
0.033243202 0.79000002 -0.018006733 1.2994812e-38 344 253
0.034628332 0.79000002 -0.018006733 1.2994812e-38 345 253
0.036013465 0.79000002 -0.018006733 1.2903343e-38 346 253
0.037351258 0.78899997 -0.017983939 1.2811147e-38 347 253
0.038734637 0.78899997 -0.017983939 1.2903343e-38 348 253
0.040118016 0.78899997 -0.017983939 1.2811147e-38 349 253
0.041501399 0.78899997 -0.017983939 1.3087014e-38 350 253
0.042884778 0.78899997 -0.017983939 1.3087014e-38 351 253
0.044268157 0.78899997 -0.017983939 1.2995897e-38 352 253
0.045651536 0.78899997 -0.017983939 1.2995897e-38 353 253
0.047034916 0.78899997 -0.017983939 1.3088091e-38 354 253
0.048418298 0.78899997 -0.017983939 1.2903699e-38 355 253
0.049675439 0.787 -0.017938353 1.2628541e-38 356 253
0.051055312 0.787 -0.017938353 1.2628541e-38 357 253
0.052301936 0.78500003 -0.017892767 1.2996965e-38 358 253
0.0536783 0.78500003 -0.017892767 1.3366106e-38 359 253
0.054914396 0.78299999 -0.017847179 1.3918927e-38 360 253
0.056287259 0.78299999 -0.017847179 1.44721e-38 361 253
0.057660121 0.78299999 -0.017847179 1.465686e-38 362 253
0.059032977 0.78299999 -0.017847179 1.4841253e-38 363 253
0.060405839 0.78299999 -0.017847179 1.5392627e-38 364 253
0.061778698 0.78299999 -0.017847179 1.5577019e-38 365 253
0.063151553 0.78299999 -0.017847179 1.5852161e-38 366 253
0.064524412 0.78299999 -0.017847179 1.6036193e-38 367 253
0.065897278 0.78299999 -0.017847179 1.5392975e-38 368 253
0.067270137 0.78299999 -0.017847179 1.5485171e-38 369 253
0.068643004 0.78299999 -0.017847179 1.5760316e-38 370 253
0.070015855 0.78299999 -0.017847179 1.5852511e-38 371 253
0.071388714 0.78299999 -0.017847179 1.6036898e-38 372 253
0.072575726 0.78100002 -0.017801592 1.6129095e-38 373 253
0.073945075 0.78100002 -0.017801592 1.5853583e-38 374 253
0.075314432 0.78100002 -0.017801592 1.5761388e-38 375 253
0.076683782 0.78100002 -0.017801592 1.5669545e-38 376 253
0.078053139 0.78100002 -0.017801592 1.539296e-38 377 253
0.079422489 0.78100002 -0.017801592 1.5025622e-38 378 253
0.080791846 0.78100002 -0.017801592 1.4841229e-38 379 253
0.082055993 0.77999997 -0.017778799 1.4010419e-38 380 253
0.083423592 0.77999997 -0.017778799 1.4010419e-38 381 253
-0.04866552 0.77100003 -0.018925481 1.8986402e-38 284 254
-0.047313701 0.77100003 -0.018925481 1.944738e-38 285 254
-0.045961879 0.77100003 -0.018925481 2.0182424e-38 286 254
-0.044610061 0.77100003 -0.018925481 2.0182424e-38 287 254
-0.043258239 0.77100003 -0.018925481 2.0642683e-38 288 254
-0.04190642 0.77100003 -0.018925481 2.0550488e-38 289 254
-0.0406598 0.773 -0.018974574 2.0182794e-38 290 254
-0.039304473 0.773 -0.018974574 2.0182794e-38 291 254
-0.037949149 0.773 -0.018974574 1.9814733e-38 292 254
-0.036593821 0.773 -0.018974574 1.9814733e-38 293 254
-0.035238493 0.773 -0.018974574 1.944703e-38 294 254
-0.033883166 0.773 -0.018974574 1.926228e-38 295 254
-0.032569919 0.77399999 -0.018999118 1.9261209e-38 296 254
-0.031212838 0.77399999 -0.018999118 1.9076818e-38 297 254
-0.029855758 0.77399999 -0.018999118 1.8708761e-38 298 254
-0.028498679 0.77399999 -0.018999118 1.8616207e-38 299 254
-0.027141599 0.77399999 -0.018999118 1.8522922e-38 300 254
-0.025784519 0.77399999 -0.018999118 1.8430727e-38 301 254
-0.024490559 0.77600002 -0.019048214 1.8155216e-38 302 254
-0.023129974 0.77600002 -0.019048214 1.8155216e-38 303 254
-0.021769386 0.77600002 -0.019048214 1.7694962e-38 304 254
-0.0204088 0.77600002 -0.019048214 1.7510212e-38 305 254
-0.019048214 0.77600002 -0.019048214 1.75102e-38 306 254
-0.017778799 0.77999997 -0.0191464 1.7233611e-38 307 254
-0.016432239 0.78100002 -0.019170946 1.6956653e-38 308 254
-0.015062887 0.78100002 -0.019170946 1.6587871e-38 309 254
-0.013693534 0.78100002 -0.019170946 1.5760629e-38 310 254
-0.01232418 0.78100002 -0.019170946 1.511526e-38 311 254
-0.010982879 0.78299999 -0.019220039 1.4746482e-38 312 254
-0.0096100196 0.78299999 -0.019220039 1.4654286e-38 313 254
-0.0082371598 0.78299999 -0.019220039 1.4469535e-38 314 254
-0.0068642995 0.78299999 -0.019220039 1.4469535e-38 315 254
-0.0054914397 0.78299999 -0.019220039 1.4561031e-38 316 254
-0.0041185799 0.78299999 -0.019220039 1.4468835e-38 317 254
-0.0027457199 0.78299999 -0.019220039 1.4192284e-38 318 254
-0.0013728599 0.78299999 -0.019220039 1.4100088e-38 319 254
0 0.78500003 -0.019269135 1.3916776e-38 320 254
0.0013763667 0.78500003 -0.019269135 1.3916776e-38 321 254
0.0027667598 0.78899997 -0.019367319 1.3549787e-38 322 254
0.0041396199 0.787 -0.019318225 1.3641984e-38 323 254
0.005519493 0.787 -0.019318225 1.3641264e-38 324 254
0.0068993662 0.787 -0.019318225 1.3549068e-38 325 254
0.0082792398 0.787 -0.019318225 1.3640182e-38 326 254
0.0096836593 0.78899997 -0.019367319 1.3640182e-38 327 254
0.011067039 0.78899997 -0.019367319 1.3456867e-38 328 254
0.0124662 0.79000002 -0.019391866 1.3364671e-38 329 254
0.013851333 0.79000002 -0.019391866 1.3365027e-38 330 254
0.015236467 0.79000002 -0.019391866 1.3365027e-38 331 254
0.016621601 0.79000002 -0.019391866 1.308916e-38 332 254
0.018006733 0.79000002 -0.019391866 1.2996965e-38 333 254
0.019391866 0.79000002 -0.019391866 1.2996968e-38 334 254
0.020777 0.79000002 -0.019391866 1.2904412e-38 335 254
0.022162134 0.79000002 -0.019391866 1.2628551e-38 336 254
0.023547266 0.79000002 -0.019391866 1.2536355e-38 337 254
0.024932399 0.79000002 -0.019391866 1.2536358e-38 338 254
0.026317533 0.79000002 -0.019391866 1.2536358e-38 339 254
0.027702667 0.79000002 -0.019391866 1.2536358e-38 340 254
0.029087799 0.79000002 -0.019391866 1.2536358e-38 341 254
0.030472934 0.79000002 -0.019391866 1.2536358e-38 342 254
0.031858064 0.79000002 -0.019391866 1.2444162e-38 343 254
0.033243202 0.79000002 -0.019391866 1.2535283e-38 344 254
0.034628332 0.79000002 -0.019391866 1.2627838e-38 345 254
0.036013465 0.79000002 -0.019391866 1.2535283e-38 346 254
0.037398599 0.79000002 -0.019391866 1.2535283e-38 347 254
0.038734637 0.78899997 -0.019367319 1.2444162e-38 348 254
0.040118016 0.78899997 -0.019367319 1.2536358e-38 349 254
0.041501399 0.78899997 -0.019367319 1.2260497e-38 350 254
0.042884778 0.78899997 -0.019367319 1.2352693e-38 351 254
0.044268157 0.78899997 -0.019367319 1.2352337e-38 352 254
0.045651536 0.78899997 -0.019367319 1.2444891e-38 353 254
0.047034916 0.78899997 -0.019367319 1.2537084e-38 354 254
0.048418298 0.78899997 -0.019367319 1.2537084e-38 355 254
0.049675439 0.787 -0.019318225 1.2904061e-38 356 254
0.051055312 0.787 -0.019318225 1.2535639e-38 357 254
0.052301936 0.78500003 -0.019269135 1.2994812e-38 358 254
0.0536783 0.78500003 -0.019269135 1.3271759e-38 359 254
0.055054668 0.78500003 -0.019269135 1.3088088e-38 360 254
0.056287259 0.78299999 -0.019220039 1.345687e-38 361 254
0.057660121 0.78299999 -0.019220039 1.3734182e-38 362 254
0.059032977 0.78299999 -0.019220039 1.4010769e-38 363 254
0.060405839 0.78299999 -0.019220039 1.4104051e-38 364 254
0.061778698 0.78299999 -0.019220039 1.4288801e-38 365 254
0.063151553 0.78299999 -0.019220039 1.5023493e-38 366 254
0.064524412 0.78299999 -0.019220039 1.5023493e-38 367 254
0.065897278 0.78299999 -0.019220039 1.4931649e-38 368 254
0.067270137 0.78299999 -0.019220039 1.5023846e-38 369 254
0.068467662 0.78100002 -0.019170946 1.5391533e-38 370 254
0.069837019 0.78100002 -0.019170946 1.5575924e-38 371 254
0.071206369 0.78100002 -0.019170946 1.5301135e-38 372 254
0.072575726 0.78100002 -0.019170946 1.5301135e-38 373 254
0.073945075 0.78100002 -0.019170946 1.5117467e-38 374 254
0.075314432 0.78100002 -0.019170946 1.5025271e-38 375 254
0.076683782 0.78100002 -0.019170946 1.4841959e-38 376 254
0.078053139 0.78100002 -0.019170946 1.4749405e-38 377 254
0.079422489 0.78100002 -0.019170946 1.4473896e-38 378 254
0.080791846 0.78100002 -0.019170946 1.43817e-38 379 254
0.082055993 0.77999997 -0.0191464 1.4379567e-38 380 254
0.083423592 0.77999997 -0.0191464 1.4471763e-38 381 254
-0.051235907 0.76899999 -0.0202247 1.926084e-38 282 255
-0.04988759 0.76899999 -0.0202247 1.9721819e-38 283 255
-0.048539277 0.76899999 -0.0202247 2.0090597e-38 284 255
-0.047190964 0.76899999 -0.0202247 2.027499e-38 285 255
-0.045842651 0.76899999 -0.0202247 2.0182791e-38 286 255
-0.044494338 0.76899999 -0.0202247 2.0182791e-38 287 255
-0.043146025 0.76899999 -0.0202247 2.0274271e-38 288 255
-0.041797712 0.76899999 -0.0202247 2.0274271e-38 289 255
-0.040554602 0.77100003 -0.020277301 2.0090241e-38 290 255
-0.03920278 0.77100003 -0.020277301 1.990621e-38 291 255
-0.037850961 0.77100003 -0.020277301 1.9814367e-38 292 255
-0.036499143 0.77100003 -0.020277301 1.9629976e-38 293 255
-0.035238493 0.773 -0.0203299 1.9445581e-38 294 255
-0.033883166 0.773 -0.0203299 1.9168995e-38 295 255
-0.032527838 0.773 -0.0203299 1.9076449e-38 296 255
-0.03117251 0.773 -0.0203299 1.8892058e-38 297 255
-0.029855758 0.77399999 -0.020356199 1.8432527e-38 298 255
-0.028498679 0.77399999 -0.020356199 1.8340332e-38 299 255
-0.027141599 0.77399999 -0.020356199 1.833925e-38 300 255
-0.025784519 0.77399999 -0.020356199 1.8063023e-38 301 255
-0.02442744 0.77399999 -0.020356199 1.8153767e-38 302 255
-0.023129974 0.77600002 -0.0204088 1.8061571e-38 303 255
-0.021769386 0.77600002 -0.0204088 1.750982e-38 304 255
-0.0204088 0.77600002 -0.0204088 1.6956647e-38 305 255
-0.019048214 0.77600002 -0.0204088 1.6587498e-38 306 255
-0.017733213 0.778 -0.020461399 1.6218715e-38 307 255
-0.016432239 0.78100002 -0.020540299 1.5574798e-38 308 255
-0.015062887 0.78100002 -0.020540299 1.5390046e-38 309 255
-0.013693534 0.78100002 -0.020540299 1.4562453e-38 310 255
-0.01232418 0.78100002 -0.020540299 1.4101475e-38 311 255
-0.010954826 0.78100002 -0.020540299 1.3917813e-38 312 255
-0.0095854728 0.78100002 -0.020540299 1.3825617e-38 313 255
-0.0082371598 0.78299999 -0.0205929 1.419369e-38 314 255
-0.0068642995 0.78299999 -0.0205929 1.4101493e-38 315 255
-0.0054914397 0.78299999 -0.0205929 1.428409e-38 316 255
-0.0041185799 0.78299999 -0.0205929 1.4100059e-38 317 255
-0.0027457199 0.78299999 -0.0205929 1.4007873e-38 318 255
-0.0013728599 0.78299999 -0.0205929 1.4007873e-38 319 255
0 0.78500003 -0.020645501 1.3732731e-38 320 255
0.0013798733 0.787 -0.0206981 1.3732731e-38 321 255
0.0027597465 0.787 -0.0206981 1.3549421e-38 322 255
0.0041501396 0.78899997 -0.0207507 1.3549421e-38 323 255
0.0055335197 0.78899997 -0.0207507 1.3549065e-38 324 255
0.0069168997 0.78899997 -0.0207507 1.345687e-38 325 255
0.0083002793 0.78899997 -0.0207507 1.3640185e-38 326 255
0.0096836593 0.78899997 -0.0207507 1.3640185e-38 327 255
0.011067039 0.78899997 -0.0207507 1.345687e-38 328 255
0.0124662 0.79000002 -0.020777 1.3364674e-38 329 255
0.013851333 0.79000002 -0.020777 1.3272473e-38 330 255
0.015236467 0.79000002 -0.020777 1.3272473e-38 331 255
0.016621601 0.79000002 -0.020777 1.3088442e-38 332 255
0.018006733 0.79000002 -0.020777 1.2996245e-38 333 255
0.019391866 0.79000002 -0.020777 1.2904052e-38 334 255
0.020777 0.79000002 -0.020777 1.2811497e-38 335 255
0.022162134 0.79000002 -0.020777 1.2627835e-38 336 255
0.023547266 0.79000002 -0.020777 1.2627835e-38 337 255
0.024932399 0.79000002 -0.020777 1.2535283e-38 338 255
0.026317533 0.79000002 -0.020777 1.2535283e-38 339 255
0.027702667 0.79000002 -0.020777 1.244416e-38 340 255
0.029087799 0.79000002 -0.020777 1.2260128e-38 341 255
0.030472934 0.79000002 -0.020777 1.2443443e-38 342 255
0.031858064 0.79000002 -0.020777 1.2351248e-38 343 255
0.033243202 0.79000002 -0.020777 1.2443088e-38 344 255
0.034628332 0.79000002 -0.020777 1.2443088e-38 345 255
0.036013465 0.79000002 -0.020777 1.2443443e-38 346 255
0.037398599 0.79000002 -0.020777 1.2443443e-38 347 255
0.038783733 0.79000002 -0.020777 1.2259772e-38 348 255
0.040118016 0.78899997 -0.0207507 1.2167577e-38 349 255
0.041501399 0.78899997 -0.0207507 1.216758e-38 350 255
0.042884778 0.78899997 -0.0207507 1.216758e-38 351 255
0.044268157 0.78899997 -0.0207507 1.2168299e-38 352 255
0.045651536 0.78899997 -0.0207507 1.2260494e-38 353 255
0.047034916 0.78899997 -0.0207507 1.2353046e-38 354 255
0.048418298 0.78899997 -0.0207507 1.2353046e-38 355 255
0.049675439 0.787 -0.0206981 1.2627835e-38 356 255
0.051055312 0.787 -0.0206981 1.2535639e-38 357 255
0.052301936 0.78500003 -0.020645501 1.3086295e-38 358 255
0.0536783 0.78500003 -0.020645501 1.317849e-38 359 255
0.055054668 0.78500003 -0.020645501 1.2810431e-38 360 255
0.056287259 0.78299999 -0.0205929 1.2994462e-38 361 255
0.057660121 0.78299999 -0.0205929 1.2627832e-38 362 255
0.059032977 0.78299999 -0.0205929 1.2812222e-38 363 255
0.060405839 0.78299999 -0.0205929 1.2906217e-38 364 255
0.061778698 0.78299999 -0.0205929 1.3366836e-38 365 255
0.063151553 0.78299999 -0.0205929 1.3919292e-38 366 255
0.064524412 0.78299999 -0.0205929 1.4011488e-38 367 255
0.065897278 0.78299999 -0.0205929 1.4562864e-38 368 255
0.067098312 0.78100002 -0.020540299 1.465506e-38 369 255
0.068467662 0.78100002 -0.020540299 1.4838732e-38 370 255
0.069837019 0.78100002 -0.020540299 1.5022763e-38 371 255
0.071206369 0.78100002 -0.020540299 1.4656495e-38 372 255
0.072575726 0.78100002 -0.020540299 1.4656495e-38 373 255
0.073945075 0.78100002 -0.020540299 1.4565015e-38 374 255
0.075314432 0.78100002 -0.020540299 1.4657211e-38 375 255
0.076585598 0.77999997 -0.020513998 1.4656845e-38 376 255
0.077953197 0.77999997 -0.020513998 1.4656845e-38 377 255
0.079320796 0.77999997 -0.020513998 1.4290223e-38 378 255
0.080274612 0.77600002 -0.0204088 1.4106192e-38 379 255
0.081635199 0.77600002 -0.0204088 1.4105135e-38 380 255
0.082995787 0.77600002 -0.0204088 1.4105135e-38 381 255
-0.057751291 0.76599997 -0.021488851 1.8990485e-38 277 256
-0.056408234 0.76599997 -0.021488851 1.8985756e-38 278 256
-0.055137072 0.76700002 -0.021516906 1.8340386e-38 279 256
-0.053932533 0.76899999 -0.021573013 1.8707309e-38 280 256
-0.052584216 0.76899999 -0.021573013 1.9168648e-38 281 256
-0.051102653 0.76700002 -0.021516906 1.9814718e-38 282 256
-0.049757849 0.76700002 -0.021516906 1.9906913e-38 283 256
-0.048413042 0.76700002 -0.021516906 2.0274624e-38 284 256
-0.047190964 0.76899999 -0.021573013 2.0274624e-38 285 256
-0.045723427 0.76700002 -0.021516906 2.0089878e-38 286 256
-0.04437862 0.76700002 -0.021516906 2.0182074e-38 287 256
-0.043033812 0.76700002 -0.021516906 2.018172e-38 288 256
-0.041797712 0.76899999 -0.021573013 2.0089525e-38 289 256
-0.0404494 0.76899999 -0.021573013 1.981438e-38 290 256
-0.039101087 0.76899999 -0.021573013 1.9629989e-38 291 256
-0.037850961 0.77100003 -0.021629119 1.9812935e-38 292 256
-0.036499143 0.77100003 -0.021629119 1.9536707e-38 293 256
-0.03514732 0.77100003 -0.021629119 1.9169001e-38 294 256
-0.033883166 0.773 -0.021685226 1.8984251e-38 295 256
-0.032527838 0.773 -0.021685226 1.8708387e-38 296 256
-0.03117251 0.773 -0.021685226 1.8523994e-38 297 256
-0.029817186 0.773 -0.021685226 1.8248136e-38 298 256
-0.028461859 0.773 -0.021685226 1.8155582e-38 299 256
-0.027106533 0.773 -0.021685226 1.7970823e-38 300 256
-0.025784519 0.77399999 -0.021713279 1.7417651e-38 301 256
-0.02442744 0.77399999 -0.021713279 1.7324713e-38 302 256
-0.02307036 0.77399999 -0.021713279 1.6863734e-38 303 256
-0.021713279 0.77399999 -0.021713279 1.6403816e-38 304 256
-0.020356199 0.77399999 -0.021713279 1.612687e-38 305 256
-0.018999118 0.77399999 -0.021713279 1.5300356e-38 306 256
-0.017733213 0.778 -0.021825492 1.5115963e-38 307 256
-0.016369121 0.778 -0.021825492 1.5022358e-38 308 256
-0.0150436 0.77999997 -0.021881599 1.4930163e-38 309 256
-0.013693534 0.78100002 -0.021909652 1.4285889e-38 310 256
-0.01232418 0.78100002 -0.021909652 1.4285889e-38 311 256
-0.010954826 0.78100002 -0.021909652 1.4101143e-38 312 256
-0.0095854728 0.78100002 -0.021909652 1.3917112e-38 313 256
-0.0082371598 0.78299999 -0.021965759 1.3917112e-38 314 256
-0.0068642995 0.78299999 -0.021965759 1.3824558e-38 315 256
-0.0054914397 0.78299999 -0.021965759 1.382456e-38 316 256
-0.0041185799 0.78299999 -0.021965759 1.382456e-38 317 256
-0.0027527334 0.78500003 -0.022021867 1.3824207e-38 318 256
-0.0013763667 0.78500003 -0.022021867 1.3824207e-38 319 256
0 0.78500003 -0.022021867 1.3640538e-38 320 256
0.0013798733 0.787 -0.022077972 1.3732733e-38 321 256
0.0027597465 0.787 -0.022077972 1.336575e-38 322 256
0.0041501396 0.78899997 -0.022134079 1.336575e-38 323 256
0.0055335197 0.78899997 -0.022134079 1.3549065e-38 324 256
0.0069168997 0.78899997 -0.022134079 1.345687e-38 325 256
0.0083002793 0.78899997 -0.022134079 1.3456872e-38 326 256
0.0096836593 0.78899997 -0.022134079 1.3456872e-38 327 256
0.011067039 0.78899997 -0.022134079 1.3272478e-38 328 256
0.0124662 0.79000002 -0.022162134 1.3272478e-38 329 256
0.013851333 0.79000002 -0.022162134 1.2904768e-38 330 256
0.015236467 0.79000002 -0.022162134 1.2904768e-38 331 256
0.016621601 0.79000002 -0.022162134 1.2812572e-38 332 256
0.018006733 0.79000002 -0.022162134 1.2812572e-38 333 256
0.019391866 0.79000002 -0.022162134 1.2628188e-38 334 256
0.020777 0.79000002 -0.022162134 1.2628188e-38 335 256
0.022162134 0.79000002 -0.022162134 1.2535639e-38 336 256
0.023547266 0.79000002 -0.022162134 1.2535639e-38 337 256
0.024932399 0.79000002 -0.022162134 1.2444162e-38 338 256
0.026317533 0.79000002 -0.022162134 1.2259772e-38 339 256
0.027702667 0.79000002 -0.022162134 1.2443441e-38 340 256
0.029087799 0.79000002 -0.022162134 1.2259048e-38 341 256
0.030472934 0.79000002 -0.022162134 1.2258695e-38 342 256
0.031858064 0.79000002 -0.022162134 1.2166499e-38 343 256
0.033243202 0.79000002 -0.022162134 1.1800238e-38 344 256
0.034628332 0.79000002 -0.022162134 1.1800238e-38 345 256
0.036013465 0.79000002 -0.022162134 1.2167577e-38 346 256
0.037398599 0.79000002 -0.022162134 1.2259772e-38 347 256
0.038783733 0.79000002 -0.022162134 1.1983184e-38 348 256
0.040168867 0.79000002 -0.022162134 1.1983184e-38 349 256
0.041501399 0.78899997 -0.022134079 1.1799519e-38 350 256
0.042884778 0.78899997 -0.022134079 1.1799519e-38 351 256
0.044268157 0.78899997 -0.022134079 1.1800235e-38 352 256
0.045651536 0.78899997 -0.022134079 1.1984986e-38 353 256
0.047034916 0.78899997 -0.022134079 1.2260491e-38 354 256
0.048418298 0.78899997 -0.022134079 1.2260491e-38 355 256
0.049675439 0.787 -0.022077972 1.2443088e-38 356 256
0.051055312 0.787 -0.022077972 1.2535283e-38 357 256
0.052301936 0.78500003 -0.022021867 1.2718954e-38 358 256
0.0536783 0.78500003 -0.022021867 1.2718954e-38 359 256
0.055054668 0.78500003 -0.022021867 1.2810797e-38 360 256
0.056287259 0.78299999 -0.021965759 1.2810797e-38 361 256
0.057660121 0.78299999 -0.021965759 1.2535283e-38 362 256
0.059032977 0.78299999 -0.021965759 1.2627838e-38 363 256
0.060405839 0.78299999 -0.021965759 1.2812216e-38 364 256
0.061778698 0.78299999 -0.021965759 1.2904412e-38 365 256
0.063151553 0.78299999 -0.021965759 1.2905861e-38 366 256
0.064524412 0.78299999 -0.021965759 1.3090611e-38 367 256
0.065728955 0.78100002 -0.021909652 1.3366491e-38 368 256
0.067098312 0.78100002 -0.021909652 1.3550883e-38 369 256
0.068467662 0.78100002 -0.021909652 1.3736349e-38 370 256
0.069837019 0.78100002 -0.021909652 1.3920741e-38 371 256
0.071206369 0.78100002 -0.021909652 1.4562864e-38 372 256
0.072482795 0.77999997 -0.021881599 1.4747255e-38 373 256
0.073850393 0.77999997 -0.021881599 1.4564296e-38 374 256
0.075025134 0.778 -0.021825492 1.4656492e-38 375 256
0.076389223 0.778 -0.021825492 1.4289501e-38 376 256
0.077953197 0.77999997 -0.021881599 1.4289501e-38 377 256
0.07911741 0.778 -0.021825492 1.4106908e-38 378 256
0.080274612 0.77600002 -0.021769386 1.4106908e-38 379 256
0.081635199 0.77600002 -0.021769386 1.4380996e-38 380 256
0.082995787 0.77600002 -0.021769386 1.4288801e-38 381 256
0.084356368 0.77600002 -0.021769386 1.6673347e-38 382 256
-0.059171494 0.76700002 -0.022861714 1.8803532e-38 276 257
-0.057751291 0.76599997 -0.022831906 1.7144011e-38 277 257
-0.056408234 0.76599997 -0.022831906 1.8245985e-38 278 257
-0.055137072 0.76700002 -0.022861714 1.8799159e-38 279 257
-0.053792264 0.76700002 -0.022861714 1.9629267e-38 280 257
-0.052447457 0.76700002 -0.022861714 2.0090244e-38 281 257
-0.051102653 0.76700002 -0.022861714 2.0182074e-38 282 257
-0.049757849 0.76700002 -0.022861714 2.0182074e-38 283 257
-0.048413042 0.76700002 -0.022861714 2.0274271e-38 284 257
-0.047068235 0.76700002 -0.022861714 2.0182074e-38 285 257
-0.045723427 0.76700002 -0.022861714 1.9906566e-38 286 257
-0.044320758 0.76599997 -0.022831906 1.9906566e-38 287 257
-0.042977702 0.76599997 -0.022831906 1.9814014e-38 288 257
-0.041634649 0.76599997 -0.022831906 1.9814014e-38 289 257
-0.040344197 0.76700002 -0.022861714 1.9629991e-38 290 257
-0.038999394 0.76700002 -0.022861714 1.9353406e-38 291 257
-0.037654586 0.76700002 -0.022861714 1.9169013e-38 292 257
-0.036404461 0.76899999 -0.022921326 1.8984622e-38 293 257
-0.035056144 0.76899999 -0.022921326 1.8892055e-38 294 257
-0.033795502 0.77100003 -0.02298094 1.8799858e-38 295 257
-0.032443684 0.77100003 -0.02298094 1.8523628e-38 296 257
-0.031091858 0.77100003 -0.02298094 1.8339237e-38 297 257
-0.029817186 0.773 -0.023040552 1.8063373e-38 298 257
-0.028461859 0.773 -0.023040552 1.7971176e-38 299 257
-0.027106533 0.773 -0.023040552 1.69599e-38 300 257
-0.025751207 0.773 -0.023040552 1.6222333e-38 301 257
-0.02442744 0.77399999 -0.02307036 1.6403111e-38 302 257
-0.02307036 0.77399999 -0.02307036 1.6033968e-38 303 257
-0.021713279 0.77399999 -0.02307036 1.5298554e-38 304 257
-0.020356199 0.77399999 -0.02307036 1.5298554e-38 305 257
-0.018999118 0.77399999 -0.02307036 1.474685e-38 306 257
-0.017733213 0.778 -0.023189586 1.4654296e-38 307 257
-0.016369121 0.778 -0.023189586 1.4377734e-38 308 257
-0.0150436 0.77999997 -0.023249198 1.4377734e-38 309 257
-0.013693534 0.78100002 -0.023279008 1.4101143e-38 310 257
-0.01232418 0.78100002 -0.023279008 1.4101143e-38 311 257
-0.010954826 0.78100002 -0.023279008 1.3825277e-38 312 257
-0.0095854728 0.78100002 -0.023279008 1.3733081e-38 313 257
-0.0082371598 0.78299999 -0.02333862 1.3733084e-38 314 257
-0.0068642995 0.78299999 -0.02333862 1.3733084e-38 315 257
-0.0054914397 0.78299999 -0.02333862 1.3732731e-38 316 257
-0.0041185799 0.78299999 -0.02333862 1.3640535e-38 317 257
-0.0027527334 0.78500003 -0.023398234 1.3640535e-38 318 257
-0.0013763667 0.78500003 -0.023398234 1.3640535e-38 319 257
0 0.78500003 -0.023398234 1.3457223e-38 320 257
0.0013798733 0.787 -0.023457846 1.3457223e-38 321 257
0.0027597465 0.787 -0.023457846 1.3457223e-38 322 257
0.0041501396 0.78899997 -0.023517458 1.3457223e-38 323 257
0.0055335197 0.78899997 -0.023517458 1.3457223e-38 324 257
0.0069168997 0.78899997 -0.023517458 1.3457223e-38 325 257
0.0083002793 0.78899997 -0.023517458 1.3365027e-38 326 257
0.0096959332 0.79000002 -0.023547266 1.3272473e-38 327 257
0.011081067 0.79000002 -0.023547266 1.3272473e-38 328 257
0.0124662 0.79000002 -0.023547266 1.3088442e-38 329 257
0.013851333 0.79000002 -0.023547266 1.2904765e-38 330 257
0.015236467 0.79000002 -0.023547266 1.2812569e-38 331 257
0.016621601 0.79000002 -0.023547266 1.2628538e-38 332 257
0.018006733 0.79000002 -0.023547266 1.2628538e-38 333 257
0.019391866 0.79000002 -0.023547266 1.2535992e-38 334 257
0.020777 0.79000002 -0.023547266 1.2535992e-38 335 257
0.022162134 0.79000002 -0.023547266 1.2626756e-38 336 257
0.023547266 0.79000002 -0.023547266 1.2626756e-38 337 257
0.024932399 0.79000002 -0.023547266 1.2626753e-38 338 257
0.026317533 0.79000002 -0.023547266 1.2626753e-38 339 257
0.027772799 0.792 -0.02360688 1.2350522e-38 340 257
0.029161438 0.792 -0.02360688 1.2258326e-38 341 257
0.030550079 0.792 -0.02360688 1.1889917e-38 342 257
0.031938717 0.792 -0.02360688 1.1797721e-38 343 257
0.03332736 0.792 -0.02360688 1.1247437e-38 344 257
0.034715999 0.792 -0.02360688 1.1431828e-38 345 257
0.036013465 0.79000002 -0.023547266 1.1706617e-38 346 257
0.037398599 0.79000002 -0.023547266 1.1706617e-38 347 257
0.038783733 0.79000002 -0.023547266 1.1798087e-38 348 257
0.040168867 0.79000002 -0.023547266 1.1798087e-38 349 257
0.041554 0.79000002 -0.023547266 1.1614772e-38 350 257
0.042884778 0.78899997 -0.023517458 1.1706967e-38 351 257
0.044268157 0.78899997 -0.023517458 1.1708039e-38 352 257
0.045651536 0.78899997 -0.023517458 1.1800235e-38 353 257
0.047034916 0.78899997 -0.023517458 1.2076103e-38 354 257
0.048418298 0.78899997 -0.023517458 1.2168299e-38 355 257
0.049675439 0.787 -0.023457846 1.2350895e-38 356 257
0.051055312 0.787 -0.023457846 1.244309e-38 357 257
0.052435186 0.787 -0.023457846 1.2443088e-38 358 257
0.0536783 0.78500003 -0.023398234 1.2443088e-38 359 257
0.055054668 0.78500003 -0.023398234 1.2626756e-38 360 257
0.056287259 0.78299999 -0.02333862 1.2626756e-38 361 257
0.057660121 0.78299999 -0.02333862 1.2626756e-38 362 257
0.059032977 0.78299999 -0.02333862 1.2626756e-38 363 257
0.060405839 0.78299999 -0.02333862 1.2535636e-38 364 257
0.061778698 0.78299999 -0.02333862 1.2443441e-38 365 257
0.063151553 0.78299999 -0.02333862 1.2261213e-38 366 257
0.064524412 0.78299999 -0.02333862 1.2261213e-38 367 257
0.065728955 0.78100002 -0.023279008 1.2444885e-38 368 257
0.067098312 0.78100002 -0.023279008 1.2721472e-38 369 257
0.068467662 0.78100002 -0.023279008 1.3090961e-38 370 257
0.069747597 0.77999997 -0.023249198 1.3459385e-38 371 257
0.071115196 0.77999997 -0.023249198 1.4102592e-38 372 257
0.072482795 0.77999997 -0.023249198 1.437918e-38 373 257
0.073661037 0.778 -0.023189586 1.4196584e-38 374 257
0.074832268 0.77600002 -0.023129974 1.4380974e-38 375 257
0.076192856 0.77600002 -0.023129974 1.4380971e-38 376 257
0.077553444 0.77600002 -0.023129974 1.4473167e-38 377 257
0.078914031 0.77600002 -0.023129974 1.4290576e-38 378 257
0.080274612 0.77600002 -0.023129974 1.4290576e-38 379 257
0.081635199 0.77600002 -0.023129974 1.447391e-38 380 257
0.082995787 0.77600002 -0.023129974 1.447391e-38 381 257
0.084356368 0.77600002 -0.023129974 1.6680903e-38 382 257
0.085716955 0.77600002 -0.023129974 1.8801404e-38 383 257
-0.061780453 0.76599997 -0.024174958 1.9264901e-38 274 258
-0.060437392 0.76599997 -0.024174958 1.7881967e-38 275 258
-0.059094343 0.76599997 -0.024174958 1.8155252e-38 276 258
-0.057751291 0.76599997 -0.024174958 1.7878667e-38 277 258
-0.056408234 0.76599997 -0.024174958 1.8707309e-38 278 258
-0.055065181 0.76599997 -0.024174958 1.9168648e-38 279 258
-0.053792264 0.76700002 -0.024206521 1.9629623e-38 280 258
