# .PCD v.7 - Point Cloud Data file format
FIELDS x y z rgb imX imY
SIZE 4 4 4 4 4 4
TYPE F F F F F F
COUNT 1 1 1 1 1 1
WIDTH 852
HEIGHT 1
VIEWPOINT 0 0 0 1 0 0 0
POINTS 852
DATA ascii
0.067766331 0.773 -0.033883166 1.5853936e-38 370 265
0.068942823 0.77100003 -0.033795502 1.6038329e-38 371 265
0.070112288 0.76899999 -0.033707831 1.631419e-38 372 265
0.071460605 0.76899999 -0.033707831 1.6682971e-38 373 265
0.072808921 0.76899999 -0.033707831 1.6682615e-38 374 265
0.074157231 0.76899999 -0.033707831 1.6775171e-38 375 265
0.075309172 0.76700002 -0.033620168 1.6774818e-38 376 265
0.07665398 0.76700002 -0.033620168 1.6774818e-38 377 265
0.077998787 0.76700002 -0.033620168 1.649859e-38 378 265
0.079343595 0.76700002 -0.033620168 1.631384e-38 379 265
0.080688395 0.76700002 -0.033620168 1.6127283e-38 380 265
0.08203321 0.76700002 -0.033620168 1.5942533e-38 381 265
0.083378009 0.76700002 -0.033620168 1.5022005e-38 382 265
0.084722824 0.76700002 -0.033620168 1.4468833e-38 383 265
0.086067624 0.76700002 -0.033620168 1.437627e-38 384 265
0.087640367 0.76899999 -0.033707831 1.4099324e-38 385 265
0.088988677 0.76899999 -0.033707831 1.345683e-38 386 265
0.09057194 0.77100003 -0.033795502 1.2903658e-38 387 265
0.092162207 0.773 -0.033883166 1.2534172e-38 388 265
0.093517542 0.773 -0.033883166 1.2257585e-38 389 265
0.094872862 0.773 -0.033883166 1.1796269e-38 390 265
0.09622819 0.773 -0.033883166 1.11509e-38 391 265
0.09758351 0.773 -0.033883166 1.0877249e-38 392 265
0.061068594 0.77399999 -0.03528408 1.4288466e-38 365 266
0.062425677 0.77399999 -0.03528408 1.4656139e-38 366 266
0.063782752 0.77399999 -0.03528408 1.484017e-38 367 266
0.065055676 0.773 -0.035238493 1.5025625e-38 368 266
0.066411003 0.773 -0.035238493 1.5302211e-38 369 266
0.067591004 0.77100003 -0.03514732 1.5670621e-38 370 266
0.068763971 0.76899999 -0.035056144 1.5946849e-38 371 266
0.070112288 0.76899999 -0.035056144 1.6314912e-38 372 266
0.071460605 0.76899999 -0.035056144 1.6407107e-38 373 266
0.072619557 0.76700002 -0.034964975 1.6499306e-38 374 266
0.073964365 0.76700002 -0.034964975 1.6591503e-38 375 266
0.075309172 0.76700002 -0.034964975 1.6774815e-38 376 266
0.076554038 0.76599997 -0.034919381 1.6682618e-38 377 266
0.077897087 0.76599997 -0.034919381 1.6681536e-38 378 266
0.079343595 0.76700002 -0.034964975 1.6404591e-38 379 266
0.080688395 0.76700002 -0.034964975 1.6402423e-38 380 266
0.08203321 0.76700002 -0.034964975 1.5849249e-38 381 266
0.083378009 0.76700002 -0.034964975 1.5204233e-38 382 266
0.084722824 0.76700002 -0.034964975 1.4651059e-38 383 266
0.086067624 0.76700002 -0.034964975 1.4008564e-38 384 266
0.087640367 0.76899999 -0.035056144 1.3823814e-38 385 266
0.088988677 0.76899999 -0.035056144 1.3271712e-38 386 266
0.090336986 0.76899999 -0.035056144 1.2903288e-38 387 266
0.091923758 0.77100003 -0.03514732 1.2717474e-38 388 266
0.093275577 0.77100003 -0.03514732 1.2440527e-38 389 266
0.094872862 0.773 -0.035238493 1.1795556e-38 390 266
0.09622819 0.773 -0.035238493 1.1150187e-38 391 266
0.09758351 0.773 -0.035238493 1.0601386e-38 392 266
0.059634373 0.773 -0.036593821 1.5023877e-38 364 267
0.060989697 0.773 -0.036593821 1.4655455e-38 365 267
0.06234502 0.773 -0.036593821 1.5114962e-38 366 267
0.063700356 0.773 -0.036593821 1.5207159e-38 367 267
0.064887367 0.77100003 -0.036499143 1.5393325e-38 368 267
0.066239186 0.77100003 -0.036499143 1.5578075e-38 369 267
0.067415662 0.76899999 -0.036404461 1.5854287e-38 370 267
0.068763971 0.76899999 -0.036404461 1.6038679e-38 371 267
0.070112288 0.76899999 -0.036404461 1.6497861e-38 372 267
0.07127475 0.76700002 -0.036309779 1.6682252e-38 373 267
0.072619557 0.76700002 -0.036309779 1.6682621e-38 374 267
0.073964365 0.76700002 -0.036309779 1.6774818e-38 375 267
0.075309172 0.76700002 -0.036309779 1.6774818e-38 376 267
0.076554038 0.76599997 -0.036262438 1.6682621e-38 377 267
0.077897087 0.76599997 -0.036262438 1.6589706e-38 378 267
0.079240143 0.76599997 -0.036262438 1.6313121e-38 379 267
0.080583192 0.76599997 -0.036262438 1.585142e-38 380 267
0.081926249 0.76599997 -0.036262438 1.5390441e-38 381 267
0.083378009 0.76700002 -0.036309779 1.4836542e-38 382 267
0.084722824 0.76700002 -0.036309779 1.4283368e-38 383 267
0.086067624 0.76700002 -0.036309779 1.4191879e-38 384 267
0.087412432 0.76700002 -0.036309779 1.3823096e-38 385 267
0.088988677 0.76899999 -0.036404461 1.3180601e-38 386 267
0.090336986 0.76899999 -0.036404461 1.2535231e-38 387 267
0.091923758 0.77100003 -0.036499143 1.2533446e-38 388 267
0.093275577 0.77100003 -0.036499143 1.2072468e-38 389 267
0.094627403 0.77100003 -0.036499143 1.1886673e-38 390 267
0.09622819 0.773 -0.036593821 1.1425694e-38 391 267
0.09770976 0.77399999 -0.036641158 1.0602828e-38 392 267
0.059480079 0.77100003 -0.037850961 1.4471789e-38 364 268
0.060831897 0.77100003 -0.037850961 1.4655821e-38 365 268
0.062183715 0.77100003 -0.037850961 1.4932372e-38 366 268
0.063535534 0.77100003 -0.037850961 1.5024568e-38 367 268
0.064719036 0.76899999 -0.03775277 1.548588e-38 368 268
0.066067353 0.76899999 -0.03775277 1.5578075e-38 369 268
0.067415662 0.76899999 -0.03775277 1.5946131e-38 370 268
0.068763971 0.76899999 -0.03775277 1.6038685e-38 371 268
0.06992995 0.76700002 -0.037654586 1.6406391e-38 372 268
0.07127475 0.76700002 -0.037654586 1.6498587e-38 373 268
0.072619557 0.76700002 -0.037654586 1.640676e-38 374 268
0.073964365 0.76700002 -0.037654586 1.6498955e-38 375 268
0.075210981 0.76599997 -0.037605491 1.6498237e-38 376 268
0.076554038 0.76599997 -0.037605491 1.6498237e-38 377 268
0.077897087 0.76599997 -0.037605491 1.6313477e-38 378 268
0.079240143 0.76599997 -0.037605491 1.6128725e-38 379 268
0.080583192 0.76599997 -0.037605491 1.6034363e-38 380 268
0.081926249 0.76599997 -0.037605491 1.5388994e-38 381 268
0.083269298 0.76599997 -0.037605491 1.4928369e-38 382 268
0.084612355 0.76599997 -0.037605491 1.4559585e-38 383 268
0.085955404 0.76599997 -0.037605491 1.4099677e-38 384 268
0.087412432 0.76700002 -0.037654586 1.3731254e-38 385 268
0.088757239 0.76700002 -0.037654586 1.2995485e-38 386 268
0.090102047 0.76700002 -0.037654586 1.2718897e-38 387 268
0.091685303 0.76899999 -0.03775277 1.2440174e-38 388 268
0.093033619 0.76899999 -0.03775277 1.2071752e-38 389 268
0.094381928 0.76899999 -0.03775277 1.1427146e-38 390 268
0.095730245 0.76899999 -0.03775277 1.1242396e-38 391 268
0.09770976 0.77399999 -0.037998237 1.069575e-38 392 268
0.059480079 0.77100003 -0.03920278 1.4104076e-38 364 269
0.060831897 0.77100003 -0.03920278 1.4472859e-38 365 269
0.062183715 0.77100003 -0.03920278 1.5024921e-38 366 269
0.063535534 0.77100003 -0.03920278 1.5209312e-38 367 269
0.064719036 0.76899999 -0.039101087 1.5578072e-38 368 269
0.066067353 0.76899999 -0.039101087 1.5854659e-38 369 269
0.067415662 0.76899999 -0.039101087 1.6314193e-38 370 269
0.068585135 0.76700002 -0.038999394 1.6314193e-38 371 269
0.06992995 0.76700002 -0.038999394 1.6406391e-38 372 269
0.071181826 0.76599997 -0.038948543 1.6498587e-38 373 269
0.072524875 0.76599997 -0.038948543 1.6406041e-38 374 269
0.073867925 0.76599997 -0.038948543 1.6406041e-38 375 269
0.075210981 0.76599997 -0.038948543 1.6496802e-38 376 269
0.076554038 0.76599997 -0.038948543 1.631277e-38 377 269
0.077897087 0.76599997 -0.038948543 1.6128731e-38 378 269
0.079240143 0.76599997 -0.038948543 1.5943981e-38 379 269
0.080583192 0.76599997 -0.038948543 1.5391516e-38 380 269
0.081926249 0.76599997 -0.038948543 1.4746147e-38 381 269
0.083269298 0.76599997 -0.038948543 1.4652145e-38 382 269
0.084612355 0.76599997 -0.038948543 1.4375917e-38 383 269
0.085955404 0.76599997 -0.038948543 1.3824167e-38 384 269
0.087412432 0.76700002 -0.038999394 1.3455743e-38 385 269
0.088757239 0.76700002 -0.038999394 1.2995485e-38 386 269
0.090102047 0.76700002 -0.038999394 1.2350116e-38 387 269
0.091446854 0.76700002 -0.038999394 1.2164666e-38 388 269
0.092791654 0.76700002 -0.038999394 1.1980275e-38 389 269
0.094136469 0.76700002 -0.038999394 1.1335311e-38 390 269
0.095481269 0.76700002 -0.038999394 1.115128e-38 391 269
0.058128256 0.77100003 -0.040554602 1.4568332e-38 363 270
0.059480079 0.77100003 -0.040554602 1.4655805e-38 364 270
0.060831897 0.77100003 -0.040554602 1.4840196e-38 365 270
0.062022414 0.76899999 -0.0404494 1.511747e-38 366 270
0.063370727 0.76899999 -0.0404494 1.5209666e-38 367 270
0.064719036 0.76899999 -0.0404494 1.5670624e-38 368 270
0.066067353 0.76899999 -0.0404494 1.5946852e-38 369 270
0.067240335 0.76700002 -0.040344197 1.6314193e-38 370 270
0.068585135 0.76700002 -0.040344197 1.6406388e-38 371 270
0.069838762 0.76599997 -0.040291596 1.6681899e-38 372 270
0.071181826 0.76599997 -0.040291596 1.6313477e-38 373 270
0.072335519 0.764 -0.040186398 1.6403884e-38 374 270
0.073675066 0.764 -0.040186398 1.6219492e-38 375 270
0.075014614 0.764 -0.040186398 1.6219138e-38 376 270
0.076354161 0.764 -0.040186398 1.6035107e-38 377 270
0.077693708 0.764 -0.040186398 1.5851785e-38 378 270
0.079033248 0.764 -0.040186398 1.575959e-38 379 270
0.080372795 0.764 -0.040186398 1.5206766e-38 380 270
0.081712343 0.764 -0.040186398 1.4746147e-38 381 270
0.083269298 0.76599997 -0.040291596 1.4468835e-38 382 270
0.084391437 0.764 -0.040186398 1.4100053e-38 383 270
0.085730985 0.764 -0.040186398 1.3824169e-38 384 270
0.08729846 0.76599997 -0.040291596 1.3363191e-38 385 270
0.088641517 0.76599997 -0.040291596 1.2994407e-38 386 270
0.089984566 0.76599997 -0.040291596 1.2441234e-38 387 270
0.091446854 0.76700002 -0.040344197 1.2164669e-38 388 270
0.092791654 0.76700002 -0.040344197 1.1703692e-38 389 270
0.094013728 0.76599997 -0.040291596 1.0691392e-38 390 270
0.095356777 0.76599997 -0.040291596 1.0783589e-38 391 270
0.057977475 0.76899999 -0.041797712 1.4384294e-38 363 271
0.059325781 0.76899999 -0.041797712 1.4931666e-38 364 271
0.060831897 0.77100003 -0.04190642 1.5208612e-38 365 271
0.062022414 0.76899999 -0.041797712 1.5393331e-38 366 271
0.063370727 0.76899999 -0.041797712 1.5577722e-38 367 271
0.064719036 0.76899999 -0.041797712 1.5946133e-38 368 271
0.065895528 0.76700002 -0.041689005 1.6038329e-38 369 271
0.067240335 0.76700002 -0.041689005 1.6314196e-38 370 271
0.068495713 0.76599997 -0.041634649 1.6406391e-38 371 271
0.069838762 0.76599997 -0.041634649 1.6588631e-38 372 271
0.070995972 0.764 -0.041525945 1.6312043e-38 373 271
0.072146162 0.76200002 -0.041417241 1.5758871e-38 374 271
0.073482201 0.76200002 -0.041417241 1.5574478e-38 375 271
0.075014614 0.764 -0.041525945 1.5391163e-38 376 271
0.076354161 0.764 -0.041525945 1.5575556e-38 377 271
0.077693708 0.764 -0.041525945 1.5576272e-38 378 271
0.079033248 0.764 -0.041525945 1.5391879e-38 379 271
0.080372795 0.764 -0.041525945 1.5481911e-38 380 271
0.081712343 0.764 -0.041525945 1.5020933e-38 381 271
0.08305189 0.764 -0.041525945 1.4468112e-38 382 271
0.084391437 0.764 -0.041525945 1.4191525e-38 383 271
0.085730985 0.764 -0.041525945 1.3823096e-38 384 271
0.087070532 0.764 -0.041525945 1.3361759e-38 385 271
0.088641517 0.76599997 -0.041634649 1.2993335e-38 386 271
0.089984566 0.76599997 -0.041634649 1.2532357e-38 387 271
0.091327623 0.76599997 -0.041634649 1.2072118e-38 388 271
0.092670672 0.76599997 -0.041634649 1.1518944e-38 389 271
0.093768261 0.764 -0.041525945 1.0046389e-38 390 271
0.095107809 0.764 -0.041525945 1.0691759e-38 391 271
0.056481879 0.76700002 -0.043033812 1.5490271e-38 362 272
0.057826683 0.76700002 -0.043033812 1.429173e-38 363 272
0.059325781 0.76899999 -0.043146025 1.5207883e-38 364 272
0.060674097 0.76899999 -0.043146025 1.5392274e-38 365 272
0.062022414 0.76899999 -0.043146025 1.5761388e-38 366 272
0.063370727 0.76899999 -0.043146025 1.5761388e-38 367 272
0.06455072 0.76700002 -0.043033812 1.6221641e-38 368 272
0.065895528 0.76700002 -0.043033812 1.6221641e-38 369 272
0.067152664 0.76599997 -0.042977702 1.6313842e-38 370 272
0.068495713 0.76599997 -0.042977702 1.6221647e-38 371 272
0.069656424 0.764 -0.042865492 1.5944337e-38 372 272
0.070995972 0.764 -0.042865492 1.5114217e-38 373 272
0.072146162 0.76200002 -0.042753279 1.4283737e-38 374 272
0.073482201 0.76200002 -0.042753279 1.4560325e-38 375 272
0.074818239 0.76200002 -0.042753279 1.4746161e-38 376 272
0.076154284 0.76200002 -0.042753279 1.5207498e-38 377 272
0.077693708 0.764 -0.042865492 1.5483006e-38 378 272
0.079033248 0.764 -0.042865492 1.5298614e-38 379 272
0.080372795 0.764 -0.042865492 1.5113855e-38 380 272
0.081712343 0.764 -0.042865492 1.4745072e-38 381 272
0.08305189 0.764 -0.042865492 1.4284087e-38 382 272
0.084391437 0.764 -0.042865492 1.382311e-38 383 272
0.085730985 0.764 -0.042865492 1.3729471e-38 384 272
0.087070532 0.764 -0.042865492 1.3268493e-38 385 272
0.088410079 0.764 -0.042865492 1.271784e-38 386 272
0.089749627 0.764 -0.042865492 1.2164666e-38 387 272
0.091089167 0.764 -0.042865492 1.1796254e-38 388 272
0.092670672 0.76599997 -0.042977702 1.1058689e-38 389 272
0.093522795 0.76200002 -0.042753279 9.9527574e-39 390 272
0.09485884 0.76200002 -0.042753279 1.1150942e-38 391 272
0.056408234 0.76599997 -0.044320758 1.4844533e-38 362 273
0.057751291 0.76599997 -0.044320758 1.4106968e-38 363 273
0.059171494 0.76700002 -0.04437862 1.5024921e-38 364 273
0.060516298 0.76700002 -0.04437862 1.5301508e-38 365 273
0.061861109 0.76700002 -0.04437862 1.5485524e-38 366 273
0.063205913 0.76700002 -0.04437862 1.5670274e-38 367 273
0.06455072 0.76700002 -0.04437862 1.5945783e-38 368 273
0.065809615 0.76599997 -0.044320758 1.6130174e-38 369 273
0.067152664 0.76599997 -0.044320758 1.6496083e-38 370 273
0.068316877 0.764 -0.04420504 1.631169e-38 371 273
0.069656424 0.764 -0.04420504 1.5297895e-38 372 273
0.070995972 0.764 -0.04420504 1.4468135e-38 373 273
0.072146162 0.76200002 -0.044089317 1.3545453e-38 374 273
0.073482201 0.76200002 -0.044089317 1.3729844e-38 375 273
0.074818239 0.76200002 -0.044089317 1.4009675e-38 376 273
0.076154284 0.76200002 -0.044089317 1.4562849e-38 377 273
0.077490322 0.76200002 -0.044089317 1.4747959e-38 378 273
0.07882636 0.76200002 -0.044089317 1.4563567e-38 379 273
0.080162399 0.76200002 -0.044089317 1.5204604e-38 380 273
0.081498444 0.76200002 -0.044089317 1.4743627e-38 381 273
0.082834482 0.76200002 -0.044089317 1.4374838e-38 382 273
0.084391437 0.764 -0.04420504 1.391386e-38 383 273
0.085730985 0.764 -0.04420504 1.3453605e-38 384 273
0.087070532 0.764 -0.04420504 1.3085181e-38 385 273
0.088410079 0.764 -0.04420504 1.2532724e-38 386 273
0.089749627 0.764 -0.04420504 1.2256136e-38 387 273
0.091089167 0.764 -0.04420504 1.1611141e-38 388 273
0.092428714 0.764 -0.04420504 1.0965771e-38 389 273
0.093522795 0.76200002 -0.044089317 9.2169888e-39 390 273
0.09485884 0.76200002 -0.044089317 1.10609e-38 391 273
0.056260962 0.764 -0.045544583 1.428919e-38 362 274
0.057600506 0.764 -0.045544583 1.447358e-38 363 274
0.059171494 0.76700002 -0.045723427 1.5300426e-38 364 274
0.060516298 0.76700002 -0.045723427 1.5392981e-38 365 274
0.061861109 0.76700002 -0.045723427 1.5761388e-38 366 274
0.063123502 0.76599997 -0.045663811 1.5761388e-38 367 274
0.064466551 0.76599997 -0.045663811 1.6221291e-38 368 274
0.06563779 0.764 -0.045544583 1.6313487e-38 369 274
0.06697733 0.764 -0.045544583 1.5666322e-38 370 274
0.068316877 0.764 -0.045544583 1.4928756e-38 371 274
0.069656424 0.764 -0.045544583 1.3545453e-38 372 274
0.070810117 0.76200002 -0.045425359 1.2346909e-38 373 274
0.072146162 0.76200002 -0.045425359 1.298796e-38 374 274
0.073482201 0.76200002 -0.045425359 1.3910276e-38 375 274
0.074818239 0.76200002 -0.045425359 1.3732365e-38 376 274
0.076154284 0.76200002 -0.045425359 1.4377734e-38 377 274
0.077490322 0.76200002 -0.045425359 1.4745438e-38 378 274
0.07882636 0.76200002 -0.045425359 1.4837992e-38 379 274
0.080162399 0.76200002 -0.045425359 1.4652876e-38 380 274
0.081498444 0.76200002 -0.045425359 1.4376288e-38 381 274
0.082834482 0.76200002 -0.045425359 1.4098621e-38 382 274
0.08417052 0.76200002 -0.045425359 1.3730197e-38 383 274
0.085506558 0.76200002 -0.045425359 1.3270295e-38 384 274
0.086842604 0.76200002 -0.045425359 1.2901152e-38 385 274
0.088410079 0.764 -0.045544583 1.2349778e-38 386 274
0.089749627 0.764 -0.045544583 1.1889158e-38 387 274
0.091089167 0.764 -0.045544583 1.1335646e-38 388 274
0.092428714 0.764 -0.045544583 1.0690276e-38 389 274
0.093768261 0.764 -0.045544583 9.4928652e-39 390 274
0.05470575 0.76099998 -0.046700031 1.4846717e-38 361 275
0.056113683 0.76200002 -0.046761397 1.4748001e-38 362 275
0.057600506 0.764 -0.046884131 1.5024227e-38 363 275
0.058940053 0.764 -0.046884131 1.5484455e-38 364 275
0.060437392 0.76599997 -0.047006864 1.5668486e-38 365 275
0.061780453 0.76599997 -0.047006864 1.5485524e-38 366 275
0.063123502 0.76599997 -0.047006864 1.5670274e-38 367 275
0.064298242 0.764 -0.046884131 1.6220941e-38 368 275
0.06563779 0.764 -0.046884131 1.5759962e-38 369 275
0.066802002 0.76200002 -0.046761397 1.4192634e-38 370 275
0.068138041 0.76200002 -0.046761397 1.2994449e-38 371 275
0.069474079 0.76200002 -0.046761397 1.27139e-38 372 275
0.070810117 0.76200002 -0.046761397 1.2344758e-38 373 275
0.072146162 0.76200002 -0.046761397 1.280466e-38 374 275
0.073482201 0.76200002 -0.046761397 1.3542584e-38 375 275
0.074818239 0.76200002 -0.046761397 1.4099705e-38 376 275
0.076154284 0.76200002 -0.046761397 1.4560325e-38 377 275
0.077490322 0.76200002 -0.046761397 1.4562479e-38 378 275
0.07882636 0.76200002 -0.046761397 1.4470283e-38 379 275
0.080162399 0.76200002 -0.046761397 1.4744346e-38 380 275
0.081498444 0.76200002 -0.046761397 1.4283368e-38 381 275
0.082834482 0.76200002 -0.046761397 1.4006781e-38 382 275
0.08417052 0.76200002 -0.046761397 1.3545803e-38 383 275
0.085506558 0.76200002 -0.046761397 1.2902587e-38 384 275
0.086842604 0.76200002 -0.046761397 1.2625642e-38 385 275
0.088178635 0.76200002 -0.046761397 1.2165382e-38 386 275
0.08951468 0.76200002 -0.046761397 1.1704764e-38 387 275
0.090850718 0.76200002 -0.046761397 1.0599528e-38 388 275
0.092428714 0.764 -0.046884131 1.0046354e-38 389 275
0.093768261 0.764 -0.046884131 9.033336e-39 390 275
0.053371463 0.76099998 -0.048034318 1.5306607e-38 360 276
0.05470575 0.76099998 -0.048034318 1.4568682e-38 361 276
0.056113683 0.76200002 -0.048097439 1.5208609e-38 362 276
0.057600506 0.764 -0.048223678 1.5300805e-38 363 276
0.058940053 0.764 -0.048223678 1.5484808e-38 364 276
0.0602796 0.764 -0.048223678 1.5668839e-38 365 276
0.061457843 0.76200002 -0.048097439 1.5761034e-38 366 276
0.062793881 0.76200002 -0.048097439 1.5945786e-38 367 276
0.064129919 0.76200002 -0.048097439 1.5668135e-38 368 276
0.065465957 0.76200002 -0.048097439 1.4377397e-38 369 276
0.066802002 0.76200002 -0.048097439 1.2992294e-38 370 276
0.068138041 0.76200002 -0.048097439 1.1333133e-38 371 276
0.069474079 0.76200002 -0.048097439 1.1976344e-38 372 276
0.070810117 0.76200002 -0.048097439 1.2437323e-38 373 276
0.072051473 0.76099998 -0.048034318 1.2620998e-38 374 276
0.07338576 0.76099998 -0.048034318 1.3542595e-38 375 276
0.074720047 0.76099998 -0.048034318 1.4467409e-38 376 276
0.076054335 0.76099998 -0.048034318 1.4836191e-38 377 276
0.077388622 0.76099998 -0.048034318 1.4653592e-38 378 276
0.07882636 0.76200002 -0.048097439 1.4561397e-38 379 276
0.080057196 0.76099998 -0.048034318 1.4376288e-38 380 276
0.081391476 0.76099998 -0.048034318 1.4007507e-38 381 276
0.082834482 0.76200002 -0.048097439 1.3730916e-38 382 276
0.08417052 0.76200002 -0.048097439 1.3269939e-38 383 276
0.085506558 0.76200002 -0.048097439 1.2810033e-38 384 276
0.086842604 0.76200002 -0.048097439 1.2533446e-38 385 276
0.088178635 0.76200002 -0.048097439 1.1889877e-38 386 276
0.08951468 0.76200002 -0.048097439 1.1336705e-38 387 276
0.090850718 0.76200002 -0.048097439 1.0689931e-38 388 276
0.092186764 0.76200002 -0.048097439 1.0228953e-38 389 276
0.053371463 0.76099998 -0.049368605 1.4751263e-38 360 277
0.05470575 0.76099998 -0.049368605 1.4474675e-38 361 277
0.056113683 0.76200002 -0.049433477 1.5300076e-38 362 277
0.057449725 0.76200002 -0.049433477 1.5392272e-38 363 277
0.058785759 0.76200002 -0.049433477 1.5485527e-38 364 277
0.060121801 0.76200002 -0.049433477 1.5577722e-38 365 277
0.061457843 0.76200002 -0.049433477 1.5485171e-38 366 277
0.062793881 0.76200002 -0.049433477 1.5669922e-38 367 277
0.064129919 0.76200002 -0.049433477 1.4378833e-38 368 277
0.065465957 0.76200002 -0.049433477 1.1981386e-38 369 277
0.066802002 0.76200002 -0.049433477 1.1513938e-38 370 277
0.068048611 0.76099998 -0.049368605 1.1053319e-38 371 277
0.069382899 0.76099998 -0.049368605 1.234154e-38 372 277
0.070717193 0.76099998 -0.049368605 1.2894713e-38 373 277
0.072051473 0.76099998 -0.049368605 1.2901898e-38 374 277
0.07338576 0.76099998 -0.049368605 1.3547267e-38 375 277
0.074720047 0.76099998 -0.049368605 1.4468848e-38 376 277
0.076054335 0.76099998 -0.049368605 1.4468848e-38 377 277
0.077388622 0.76099998 -0.049368605 1.4285889e-38 378 277
0.078722909 0.76099998 -0.049368605 1.4193693e-38 379 277
0.080057196 0.76099998 -0.049368605 1.4099705e-38 380 277
0.081391476 0.76099998 -0.049368605 1.382276e-38 381 277
0.082725771 0.76099998 -0.049368605 1.3454333e-38 382 277
0.08417052 0.76200002 -0.049433477 1.3085551e-38 383 277
0.085506558 0.76200002 -0.049433477 1.2442329e-38 384 277
0.086842604 0.76200002 -0.049433477 1.2165382e-38 385 277
0.088178635 0.76200002 -0.049433477 1.1614016e-38 386 277
0.08951468 0.76200002 -0.049433477 1.0968647e-38 387 277
0.090850718 0.76200002 -0.049433477 1.0504833e-38 388 277
0.052037176 0.76099998 -0.050702889 1.595092e-38 359 278
0.053371463 0.76099998 -0.050702889 1.4564701e-38 360 278
0.05470575 0.76099998 -0.050702889 1.4564701e-38 361 278
0.056113683 0.76200002 -0.050769519 1.5392981e-38 362 278
0.057449725 0.76200002 -0.050769519 1.5392981e-38 363 278
0.058785759 0.76200002 -0.050769519 1.5485527e-38 364 278
0.060042895 0.76099998 -0.050702889 1.5577722e-38 365 278
0.061377186 0.76099998 -0.050702889 1.5668135e-38 366 278
0.06271147 0.76099998 -0.050702889 1.4561789e-38 367 278
0.064045757 0.76099998 -0.050702889 1.2812599e-38 368 278
0.065380037 0.76099998 -0.050702889 1.0138925e-38 369 278
0.066714332 0.76099998 -0.050702889 1.0866782e-38 370 278
0.068048611 0.76099998 -0.050702889 1.1235206e-38 371 278
0.069382899 0.76099998 -0.050702889 1.2158946e-38 372 278
0.070531338 0.759 -0.050569639 1.2803957e-38 373 278
0.071862116 0.759 -0.050569639 1.400751e-38 374 278
0.073192894 0.759 -0.050569639 1.4468129e-38 375 278
0.07452368 0.759 -0.050569639 1.4285536e-38 376 278
0.075854458 0.759 -0.050569639 1.4285536e-38 377 278
0.077185236 0.759 -0.050569639 1.419334e-38 378 278
0.078722909 0.76099998 -0.050702889 1.3824558e-38 379 278
0.080057196 0.76099998 -0.050702889 1.3823481e-38 380 278
0.081391476 0.76099998 -0.050702889 1.3454699e-38 381 278
0.082725771 0.76099998 -0.050702889 1.3177746e-38 382 278
0.084060051 0.76099998 -0.050702889 1.2992995e-38 383 278
0.085506558 0.76200002 -0.050769519 1.2350134e-38 384 278
0.086842604 0.76200002 -0.050769519 1.1981351e-38 385 278
0.088178635 0.76200002 -0.050769519 1.133637e-38 386 278
0.08951468 0.76200002 -0.050769519 1.0783196e-38 387 278
0.052037176 0.76099998 -0.052037176 1.5488496e-38 359 279
0.053371463 0.76099998 -0.052037176 1.5024233e-38 360 279
0.05470575 0.76099998 -0.052037176 1.5116429e-38 361 279
0.056040037 0.76099998 -0.052037176 1.5392981e-38 362 279
0.057374325 0.76099998 -0.052037176 1.5485176e-38 363 279
0.058708608 0.76099998 -0.052037176 1.5301858e-38 364 279
0.060042895 0.76099998 -0.052037176 1.5670641e-38 365 279
0.061377186 0.76099998 -0.052037176 1.5208231e-38 366 279
0.06271147 0.76099998 -0.052037176 1.2166134e-38 367 279
0.064045757 0.76099998 -0.052037176 1.0693894e-38 368 279
0.065380037 0.76099998 -0.052037176 8.6655905e-39 369 279
0.066714332 0.76099998 -0.052037176 1.1416356e-38 370 279
0.067869775 0.759 -0.051900417 1.1692944e-38 371 279
0.069200553 0.759 -0.051900417 1.2530604e-38 372 279
0.070531338 0.759 -0.051900417 1.34522e-38 373 279
0.071862116 0.759 -0.051900417 1.4838003e-38 374 279
0.073192894 0.759 -0.051900417 1.4561775e-38 375 279
0.074327305 0.75700003 -0.051763661 1.4194785e-38 376 279
0.075654581 0.75700003 -0.051763661 1.4010394e-38 377 279
0.077185236 0.759 -0.051900417 1.3825277e-38 378 279
0.078516021 0.759 -0.051900417 1.3640885e-38 379 279
0.079846799 0.759 -0.051900417 1.3454699e-38 380 279
0.081177577 0.759 -0.051900417 1.3362503e-38 381 279
0.082725771 0.76099998 -0.052037176 1.2901882e-38 382 279
0.084060051 0.76099998 -0.052037176 1.2624935e-38 383 279
0.085506558 0.76200002 -0.052105557 1.1981721e-38 384 279
0.086842604 0.76200002 -0.052105557 1.1520743e-38 385 279
0.088178635 0.76200002 -0.052105557 1.0782477e-38 386 279
0.08951468 0.76200002 -0.052105557 1.0413335e-38 387 279
0.052037176 0.76099998 -0.053371463 1.4567963e-38 359 280
0.053371463 0.76099998 -0.053371463 1.5024218e-38 360 280
0.05470575 0.76099998 -0.053371463 1.5208609e-38 361 280
0.056040037 0.76099998 -0.053371463 1.5392978e-38 362 280
0.057374325 0.76099998 -0.053371463 1.5485173e-38 363 280
0.058708608 0.76099998 -0.053371463 1.6036549e-38 364 280
0.059885096 0.759 -0.053231198 1.5483376e-38 365 280
0.061215881 0.759 -0.053231198 1.4285932e-38 366 280
0.062546656 0.759 -0.053231198 1.0505913e-38 367 280
0.063877434 0.759 -0.053231198 1.1142313e-38 368 280
0.065208219 0.759 -0.053231198 1.0865726e-38 369 280
0.06636367 0.75700003 -0.053090934 1.1328126e-38 370 280
0.067690939 0.75700003 -0.053090934 1.1697269e-38 371 280
0.069018215 0.75700003 -0.053090934 1.3084141e-38 372 280
0.070345491 0.75700003 -0.053090934 1.3913902e-38 373 280
0.07167276 0.75700003 -0.053090934 1.4745455e-38 374 280
0.073000036 0.75700003 -0.053090934 1.4745455e-38 375 280
0.074327305 0.75700003 -0.053090934 1.4653245e-38 376 280
0.075654581 0.75700003 -0.053090934 1.4284464e-38 377 280
0.076981857 0.75700003 -0.053090934 1.4007873e-38 378 280
0.078309126 0.75700003 -0.053090934 1.3547255e-38 379 280
0.079846799 0.759 -0.053231198 1.3271389e-38 380 280
0.081177577 0.759 -0.053231198 1.2902248e-38 381 280
0.082508355 0.759 -0.053231198 1.2809332e-38 382 280
0.084060051 0.76099998 -0.053371463 1.2348356e-38 383 280
0.085394338 0.76099998 -0.053371463 1.1888452e-38 384 280
0.086728632 0.76099998 -0.053371463 1.1519311e-38 385 280
0.088062912 0.76099998 -0.053371463 1.0597733e-38 386 280
0.052037176 0.76099998 -0.05470575 1.4289925e-38 359 281
0.053371463 0.76099998 -0.05470575 1.5116766e-38 360 281
0.05470575 0.76099998 -0.05470575 1.5208962e-38 361 281
0.056040037 0.76099998 -0.05470575 1.5392981e-38 362 281
0.057374325 0.76099998 -0.05470575 1.5577372e-38 363 281
0.058708608 0.76099998 -0.05470575 1.5852884e-38 364 281
0.059727304 0.75700003 -0.054418206 1.3916776e-38 365 281
0.061054576 0.75700003 -0.054418206 1.2622812e-38 366 281
0.062381849 0.75700003 -0.054418206 9.764748e-39 367 281
0.063709125 0.75700003 -0.054418206 1.1873394e-38 368 281
0.065036394 0.75700003 -0.054418206 1.2057785e-38 369 281
0.06636367 0.75700003 -0.054418206 1.2068209e-38 370 281
0.067690939 0.75700003 -0.054418206 1.3451144e-38 371 281
0.069018215 0.75700003 -0.054418206 1.4559996e-38 372 281
0.070345491 0.75700003 -0.054418206 1.5297561e-38 373 281
0.07167276 0.75700003 -0.054418206 1.4379552e-38 374 281
0.073000036 0.75700003 -0.054418206 1.4286997e-38 375 281
0.074327305 0.75700003 -0.054418206 1.4377381e-38 376 281
0.075654581 0.75700003 -0.054418206 1.3916403e-38 377 281
0.076981857 0.75700003 -0.054418206 1.3547618e-38 378 281
0.078309126 0.75700003 -0.054418206 1.3455422e-38 379 281
0.079846799 0.759 -0.054561976 1.2994447e-38 380 281
0.081177577 0.759 -0.054561976 1.2810055e-38 381 281
0.082508355 0.759 -0.054561976 1.2716065e-38 382 281
0.084060051 0.76099998 -0.05470575 1.2346922e-38 383 281
0.085169919 0.759 -0.054561976 1.1611156e-38 384 281
0.051900417 0.759 -0.055892758 1.4197714e-38 359 282
0.053231198 0.759 -0.055892758 1.5116761e-38 360 282
0.054561976 0.759 -0.055892758 1.5116761e-38 361 282
0.056040037 0.76099998 -0.056040037 1.5392625e-38 362 282
0.05722354 0.759 -0.055892758 1.548482e-38 363 282
0.058554318 0.759 -0.055892758 1.520931e-38 364 282
0.059727304 0.75700003 -0.055745479 1.2627832e-38 365 282
0.061054576 0.75700003 -0.055745479 1.1515386e-38 366 282
0.062381849 0.75700003 -0.055745479 1.0132451e-38 367 282
0.063709125 0.75700003 -0.055745479 1.1143739e-38 368 282
0.064864561 0.755 -0.055598196 1.215789e-38 369 282
0.066188328 0.755 -0.055598196 1.2900841e-38 370 282
0.067512102 0.755 -0.055598196 1.3915353e-38 371 282
0.068835862 0.755 -0.055598196 1.48373e-38 372 282
0.070159629 0.755 -0.055598196 1.5206441e-38 373 282
0.071483396 0.755 -0.055598196 1.4654338e-38 374 282
0.07280717 0.755 -0.055598196 1.437775e-38 375 282
0.074327305 0.75700003 -0.055745479 1.4284464e-38 376 282
0.075654581 0.75700003 -0.055745479 1.391568e-38 377 282
0.076981857 0.75700003 -0.055745479 1.3547255e-38 378 282
0.078309126 0.75700003 -0.055745479 1.3362503e-38 379 282
0.079636402 0.75700003 -0.055745479 1.2993725e-38 380 282
0.080963671 0.75700003 -0.055745479 1.2717137e-38 381 282
0.082290947 0.75700003 -0.055745479 1.2255807e-38 382 282
0.083839141 0.759 -0.055892758 1.1887023e-38 383 282
0.085169919 0.759 -0.055892758 1.1333496e-38 384 282
0.050702889 0.76099998 -0.057374325 1.4197348e-38 358 283
0.051900417 0.759 -0.05722354 1.4289544e-38 359 283
0.053231198 0.759 -0.05722354 1.5207877e-38 360 283
0.054561976 0.759 -0.05722354 1.5300432e-38 361 283
0.055892758 0.759 -0.05722354 1.5300782e-38 362 283
0.05722354 0.759 -0.05722354 1.5300782e-38 363 283
0.058554318 0.759 -0.05722354 1.4840861e-38 364 283
0.059727304 0.75700003 -0.057072755 1.2351579e-38 365 283
0.061054576 0.75700003 -0.057072755 1.0964325e-38 366 283
0.062217031 0.755 -0.056921966 1.022676e-38 367 283
0.063540794 0.755 -0.056921966 1.1057635e-38 368 283
0.064864561 0.755 -0.056921966 1.2993743e-38 369 283
0.066188328 0.755 -0.056921966 1.4283779e-38 370 283
0.067512102 0.755 -0.056921966 1.5021344e-38 371 283
0.068835862 0.755 -0.056921966 1.5022766e-38 372 283
0.070159629 0.755 -0.056921966 1.4746539e-38 373 283
0.071483396 0.755 -0.056921966 1.4561775e-38 374 283
0.07280717 0.755 -0.056921966 1.4285188e-38 375 283
0.07413093 0.755 -0.056921966 1.4007873e-38 376 283
0.075654581 0.75700003 -0.057072755 1.3547255e-38 377 283
0.076981857 0.75700003 -0.057072755 1.3362859e-38 378 283
0.078309126 0.75700003 -0.057072755 1.3178109e-38 379 283
0.079636402 0.75700003 -0.057072755 1.2809332e-38 380 283
0.080963671 0.75700003 -0.057072755 1.2532745e-38 381 283
0.082290947 0.75700003 -0.057072755 1.1888102e-38 382 283
0.083839141 0.759 -0.05722354 1.1242732e-38 383 283
0.049368605 0.76099998 -0.058708608 1.3921868e-38 357 284
0.050569639 0.759 -0.058554318 1.4380646e-38 358 284
0.051900417 0.759 -0.058554318 1.4656874e-38 359 284
0.053231198 0.759 -0.058554318 1.5299713e-38 360 284
0.054561976 0.759 -0.058554318 1.5391909e-38 361 284
0.055745479 0.75700003 -0.058400027 1.5392981e-38 362 284
0.057072755 0.75700003 -0.058400027 1.5300426e-38 363 284
0.058245733 0.755 -0.058245733 1.4840507e-38 364 284
0.059569497 0.755 -0.058245733 1.3641964e-38 365 284
0.060893264 0.755 -0.058245733 1.3084474e-38 366 284
0.062217031 0.755 -0.058245733 1.2807888e-38 367 284
0.063540794 0.755 -0.058245733 1.2810428e-38 368 284
0.064864561 0.755 -0.058245733 1.3824579e-38 369 284
0.066188328 0.755 -0.058245733 1.4837303e-38 370 284
0.067512102 0.755 -0.058245733 1.5206444e-38 371 284
0.068835862 0.755 -0.058245733 1.465506e-38 372 284
0.070159629 0.755 -0.058245733 1.4286277e-38 373 284
0.071483396 0.755 -0.058245733 1.465217e-38 374 284
0.07280717 0.755 -0.058245733 1.4099355e-38 375 284
0.07413093 0.755 -0.058245733 1.3547618e-38 376 284
0.075454697 0.755 -0.058245733 1.3179194e-38 377 284
0.076981857 0.75700003 -0.058400027 1.2902248e-38 378 284
0.078309126 0.75700003 -0.058400027 1.262602e-38 379 284
0.079636402 0.75700003 -0.058400027 1.2441273e-38 380 284
0.080963671 0.75700003 -0.058400027 1.1980295e-38 381 284
0.082290947 0.75700003 -0.058400027 1.1243454e-38 382 284
0.048034318 0.76099998 -0.060042895 1.5025676e-38 356 285
0.049238857 0.759 -0.059885096 1.3919688e-38 357 285
0.050569639 0.759 -0.059885096 1.456359e-38 358 285
0.051900417 0.759 -0.059885096 1.4839817e-38 359 285
0.053090934 0.75700003 -0.059727304 1.5024212e-38 360 285
0.054418206 0.75700003 -0.059727304 1.5024212e-38 361 285
0.055745479 0.75700003 -0.059727304 1.520931e-38 362 285
0.057072755 0.75700003 -0.059727304 1.5024918e-38 363 285
0.058245733 0.755 -0.059569497 1.4932e-38 364 285
0.059569497 0.755 -0.059569497 1.4655413e-38 365 285
0.060893264 0.755 -0.059569497 1.4377747e-38 366 285
0.062217031 0.755 -0.059569497 1.4009324e-38 367 285
0.063540794 0.755 -0.059569497 1.4192637e-38 368 285
0.064864561 0.755 -0.059569497 1.4469224e-38 369 285
0.066188328 0.755 -0.059569497 1.4837653e-38 370 285
0.067512102 0.755 -0.059569497 1.4929849e-38 371 285
0.068835862 0.755 -0.059569497 1.4745457e-38 372 285
0.070159629 0.755 -0.059569497 1.4469229e-38 373 285
0.071483396 0.755 -0.059569497 1.4192271e-38 374 285
0.07280717 0.755 -0.059569497 1.3823128e-38 375 285
0.07413093 0.755 -0.059569497 1.3271034e-38 376 285
0.075454697 0.755 -0.059569497 1.2994447e-38 377 285
0.076778464 0.755 -0.059569497 1.2808982e-38 378 285
0.078102231 0.755 -0.059569497 1.2624591e-38 379 285
0.079636402 0.75700003 -0.059727304 1.1981018e-38 380 285
0.080963671 0.75700003 -0.059727304 1.152004e-38 381 285
0.046454567 0.75700003 -0.061054576 1.4291026e-38 355 286
0.04778184 0.75700003 -0.061054576 1.4012587e-38 356 286
0.049109112 0.75700003 -0.061054576 1.3828195e-38 357 286
0.050436385 0.75700003 -0.061054576 1.4746892e-38 358 286
0.051763661 0.75700003 -0.061054576 1.5115315e-38 359 286
0.053090934 0.75700003 -0.061054576 1.4931646e-38 360 286
0.054418206 0.75700003 -0.061054576 1.5208233e-38 361 286
0.055745479 0.75700003 -0.061054576 1.5300426e-38 362 286
0.056921966 0.755 -0.060893264 1.5300426e-38 363 286
0.058245733 0.755 -0.060893264 1.5024199e-38 364 286
0.059569497 0.755 -0.060893264 1.4932002e-38 365 286
0.060893264 0.755 -0.060893264 1.4747611e-38 366 286
0.062217031 0.755 -0.060893264 1.4655057e-38 367 286
0.063540794 0.755 -0.060893264 1.4379546e-38 368 286
0.064864561 0.755 -0.060893264 1.4379546e-38 369 286
0.066188328 0.755 -0.060893264 1.4745808e-38 370 286
0.067512102 0.755 -0.060893264 1.4561775e-38 371 286
0.068835862 0.755 -0.060893264 1.4744371e-38 372 286
0.070159629 0.755 -0.060893264 1.4467426e-38 373 286
0.071483396 0.755 -0.060893264 1.3640169e-38 374 286
0.07280717 0.755 -0.060893264 1.3271387e-38 375 286
0.07413093 0.755 -0.060893264 1.3178109e-38 376 286
0.075454697 0.755 -0.060893264 1.2809685e-38 377 286
0.076778464 0.755 -0.060893264 1.2624585e-38 378 286
0.078102231 0.755 -0.060893264 1.2348358e-38 379 286
0.079636402 0.75700003 -0.061054576 1.1611509e-38 380 286
0.045127295 0.75700003 -0.062381849 1.4664455e-38 354 287
0.046454567 0.75700003 -0.062381849 1.2359925e-38 355 287
0.04778184 0.75700003 -0.062381849 1.3734901e-38 356 287
0.049109112 0.75700003 -0.062381849 1.3919292e-38 357 287
0.050436385 0.75700003 -0.062381849 1.4379199e-38 358 287
0.051763661 0.75700003 -0.062381849 1.456359e-38 359 287
0.052950665 0.755 -0.062217031 1.4656507e-38 360 287
0.054274432 0.755 -0.062217031 1.4748704e-38 361 287
0.055598196 0.755 -0.062217031 1.4748701e-38 362 287
0.056921966 0.755 -0.062217031 1.4748701e-38 363 287
0.058245733 0.755 -0.062217031 1.4656495e-38 364 287
0.059569497 0.755 -0.062217031 1.4471745e-38 365 287
0.060893264 0.755 -0.062217031 1.4562498e-38 366 287
0.062134624 0.75400001 -0.062134624 1.4654694e-38 367 287
0.06345664 0.75400001 -0.062134624 1.4286997e-38 368 287
0.064778648 0.75400001 -0.062134624 1.41948e-38 369 287
0.066100664 0.75400001 -0.062134624 1.4284482e-38 370 287
0.067422673 0.75400001 -0.062134624 1.4192286e-38 371 287
0.068835862 0.755 -0.062217031 1.3824576e-38 372 287
0.070159629 0.755 -0.062217031 1.373238e-38 373 287
0.071483396 0.755 -0.062217031 1.3271389e-38 374 287
0.07280717 0.755 -0.062217031 1.3086998e-38 375 287
0.07413093 0.755 -0.062217031 1.2901529e-38 376 287
0.075454697 0.755 -0.062217031 1.2624941e-38 377 287
0.076778464 0.755 -0.062217031 1.1980295e-38 378 287
0.043800019 0.75700003 -0.063709125 1.4566168e-38 353 288
0.045127295 0.75700003 -0.063709125 1.3828195e-38 354 288
0.04633183 0.755 -0.063540794 1.2905879e-38 355 288
0.047655597 0.755 -0.063540794 1.3366475e-38 356 288
0.049109112 0.75700003 -0.063709125 1.3734898e-38 357 288
0.050303131 0.755 -0.063540794 1.4194437e-38 358 288
0.051626898 0.755 -0.063540794 1.437883e-38 359 288
0.052950665 0.755 -0.063540794 1.4654338e-38 360 288
0.054274432 0.755 -0.063540794 1.4746892e-38 361 288
0.055598196 0.755 -0.063540794 1.4747255e-38 362 288
0.056921966 0.755 -0.063540794 1.465506e-38 363 288
0.058168583 0.75400001 -0.06345664 1.4379546e-38 364 288
0.059490599 0.75400001 -0.06345664 1.3734177e-38 365 288
0.060812615 0.75400001 -0.06345664 1.410152e-38 366 288
0.062134624 0.75400001 -0.06345664 1.410152e-38 367 288
0.06345664 0.75400001 -0.06345664 1.419264e-38 368 288
0.064778648 0.75400001 -0.06345664 1.3916053e-38 369 288
0.066100664 0.75400001 -0.06345664 1.3271036e-38 370 288
0.067422673 0.75400001 -0.06345664 1.3455069e-38 371 288
0.068744689 0.75400001 -0.06345664 1.3821693e-38 372 288
0.070159629 0.755 -0.063540794 1.3636942e-38 373 288
0.071483396 0.755 -0.063540794 1.3178115e-38 374 288
0.07280717 0.755 -0.063540794 1.2809332e-38 375 288
0.07413093 0.755 -0.063540794 1.2532743e-38 376 288
0.075454697 0.755 -0.063540794 1.216396e-38 377 288
0.042472746 0.75700003 -0.065036394 1.5118944e-38 352 289
0.043800019 0.75700003 -0.065036394 1.3459781e-38 353 289
0.045127295 0.75700003 -0.065036394 1.3366472e-38 354 289
0.04633183 0.755 -0.064864561 1.3274276e-38 355 289
0.047655597 0.755 -0.064864561 1.3366475e-38 356 289
0.048979364 0.755 -0.064864561 1.3550867e-38 357 289
0.050303131 0.755 -0.064864561 1.3734545e-38 358 289
0.051626898 0.755 -0.064864561 1.3919295e-38 359 289
0.052950665 0.755 -0.064864561 1.4194803e-38 360 289
0.054274432 0.755 -0.064864561 1.4194803e-38 361 289
0.055524562 0.75400001 -0.064778648 1.4011135e-38 362 289
0.056846574 0.75400001 -0.064778648 1.4011135e-38 363 289
0.058168583 0.75400001 -0.064778648 1.3826741e-38 364 289
0.059490599 0.75400001 -0.064778648 1.3550514e-38 365 289
0.060812615 0.75400001 -0.064778648 1.3549431e-38 366 289
0.062134624 0.75400001 -0.064778648 1.33654e-38 367 289
0.06345664 0.75400001 -0.064778648 1.3639463e-38 368 289
0.064778648 0.75400001 -0.064778648 1.3639463e-38 369 289
0.066100664 0.75400001 -0.064778648 1.3454349e-38 370 289
0.067422673 0.75400001 -0.064778648 1.3362153e-38 371 289
0.068744689 0.75400001 -0.064778648 1.3086292e-38 372 289
0.070066705 0.75400001 -0.064778648 1.2901901e-38 373 289
0.071483396 0.755 -0.064864561 1.262567e-38 374 289
0.07280717 0.755 -0.064864561 1.2256528e-38 375 289
0.07413093 0.755 -0.064864561 1.1520759e-38 376 289
0.041145474 0.75700003 -0.06636367 1.4194842e-38 351 290
0.042472746 0.75700003 -0.06636367 1.3183524e-38 352 290
0.043684296 0.755 -0.066188328 1.263035e-38 353 290
0.045008067 0.755 -0.066188328 1.3090235e-38 354 290
0.04633183 0.755 -0.066188328 1.3090235e-38 355 290
0.047655597 0.755 -0.066188328 1.290658e-38 356 290
0.048979364 0.755 -0.066188328 1.2999134e-38 357 290
0.050303131 0.755 -0.066188328 1.3182453e-38 358 290
0.051558517 0.75400001 -0.066100664 1.3458681e-38 359 290
0.052880533 0.75400001 -0.066100664 1.3550517e-38 360 290
0.054202545 0.75400001 -0.066100664 1.3734548e-38 361 290
0.055524562 0.75400001 -0.066100664 1.3459037e-38 362 290
0.056846574 0.75400001 -0.066100664 1.3459037e-38 363 290
0.058168583 0.75400001 -0.066100664 1.3458669e-38 364 290
0.059490599 0.75400001 -0.066100664 1.3274276e-38 365 290
0.060812615 0.75400001 -0.066100664 1.3365027e-38 366 290
0.062134624 0.75400001 -0.066100664 1.3272473e-38 367 290
0.06345664 0.75400001 -0.066100664 1.3271754e-38 368 290
0.064778648 0.75400001 -0.066100664 1.3087361e-38 369 290
0.066100664 0.75400001 -0.066100664 1.3086642e-38 370 290
0.067422673 0.75400001 -0.066100664 1.2994447e-38 371 290
0.068744689 0.75400001 -0.066100664 1.2626387e-38 372 290
0.070066705 0.75400001 -0.066100664 1.2441995e-38 373 290
0.071388714 0.75400001 -0.066100664 1.216433e-38 374 290
0.07280717 0.755 -0.066188328 1.1703711e-38 375 290
0.038389232 0.755 -0.067512102 1.4471805e-38 349 291
0.039712999 0.755 -0.067512102 1.3827477e-38 350 291
0.041036766 0.755 -0.067512102 1.3366138e-38 351 291
0.042360533 0.755 -0.067512102 1.3090961e-38 352 291
0.043684296 0.755 -0.067512102 1.272182e-38 353 291
0.045008067 0.755 -0.067512102 1.2905845e-38 354 291
0.04633183 0.755 -0.067512102 1.281365e-38 355 291
0.047655597 0.755 -0.067512102 1.253851e-38 356 291
0.048979364 0.755 -0.067512102 1.2722902e-38 357 291
0.050236505 0.75400001 -0.067422673 1.2998415e-38 358 291
0.051558517 0.75400001 -0.067422673 1.2998415e-38 359 291
0.052880533 0.75400001 -0.067422673 1.3365403e-38 360 291
0.054202545 0.75400001 -0.067422673 1.3365403e-38 361 291
0.055524562 0.75400001 -0.067422673 1.327392e-38 362 291
0.056846574 0.75400001 -0.067422673 1.3181725e-38 363 291
0.058168583 0.75400001 -0.067422673 1.3089879e-38 364 291
0.059490599 0.75400001 -0.067422673 1.3089879e-38 365 291
0.060812615 0.75400001 -0.067422673 1.3088797e-38 366 291
0.062134624 0.75400001 -0.067422673 1.2996242e-38 367 291
0.063288316 0.75199997 -0.067243837 1.2811132e-38 368 291
0.064606823 0.75199997 -0.067243837 1.2718936e-38 369 291
0.066100664 0.75400001 -0.067422673 1.2901529e-38 370 291
0.067422673 0.75400001 -0.067422673 1.2717137e-38 371 291
0.068744689 0.75400001 -0.067422673 1.2349077e-38 372 291
0.070066705 0.75400001 -0.067422673 1.1795903e-38 373 291
0.071388714 0.75400001 -0.067422673 1.0690995e-38 374 291
0.035694357 0.75400001 -0.068744689 1.4564351e-38 347 292
0.037016369 0.75400001 -0.068744689 1.3366486e-38 348 292
0.038389232 0.755 -0.068835862 1.2905866e-38 349 292
0.039712999 0.755 -0.068835862 1.2998412e-38 350 292
0.041036766 0.755 -0.068835862 1.3090608e-38 351 292
0.042360533 0.755 -0.068835862 1.2999131e-38 352 292
0.043684296 0.755 -0.068835862 1.263035e-38 353 292
0.045008067 0.755 -0.068835862 1.2537787e-38 354 292
0.046270464 0.75400001 -0.068744689 1.2445592e-38 355 292
0.04759248 0.75400001 -0.068744689 1.217045e-38 356 292
0.048914492 0.75400001 -0.068744689 1.2262645e-38 357 292
0.050236505 0.75400001 -0.068744689 1.2354139e-38 358 292
0.051558517 0.75400001 -0.068744689 1.2354139e-38 359 292
0.052880533 0.75400001 -0.068744689 1.2354142e-38 360 292
0.054202545 0.75400001 -0.068744689 1.2538173e-38 361 292
0.055524562 0.75400001 -0.068744689 1.198715e-38 362 292
0.056846574 0.75400001 -0.068744689 1.2079347e-38 363 292
0.058168583 0.75400001 -0.068744689 1.2262645e-38 364 292
0.059490599 0.75400001 -0.068744689 1.2262645e-38 365 292
0.060812615 0.75400001 -0.068744689 1.2628535e-38 366 292
0.062134624 0.75400001 -0.068744689 1.2444144e-38 367 292
0.063288316 0.75199997 -0.068562344 1.2441992e-38 368 292
0.064606823 0.75199997 -0.068562344 1.2349796e-38 369 292
0.066100664 0.75400001 -0.068744689 1.2073567e-38 370 292
0.067422673 0.75400001 -0.068744689 1.1796978e-38 371 292
0.068744689 0.75400001 -0.068744689 1.1428547e-38 372 292
0.070066705 0.75400001 -0.068744689 1.1059764e-38 373 292
0.033050332 0.75400001 -0.070066705 1.3731722e-38 345 293
0.034372345 0.75400001 -0.070066705 1.327035e-38 346 293
0.035694357 0.75400001 -0.070066705 1.3454741e-38 347 293
0.037016369 0.75400001 -0.070066705 1.3182809e-38 348 293
0.038389232 0.755 -0.070159629 1.3182809e-38 349 293
0.039712999 0.755 -0.070159629 1.327392e-38 350 293
0.041036766 0.755 -0.070159629 1.3181725e-38 351 293
0.042360533 0.755 -0.070159629 1.2814021e-38 352 293
0.043684296 0.755 -0.070159629 1.2721825e-38 353 293
0.045008067 0.755 -0.070159629 1.235304e-38 354 293
0.046270464 0.75400001 -0.070066705 1.235304e-38 355 293
0.04759248 0.75400001 -0.070066705 1.2260844e-38 356 293
0.048914492 0.75400001 -0.070066705 1.2168649e-38 357 293
0.050236505 0.75400001 -0.070066705 1.2443438e-38 358 293
0.051558517 0.75400001 -0.070066705 1.2443438e-38 359 293
0.052880533 0.75400001 -0.070066705 1.2444147e-38 360 293
0.054202545 0.75400001 -0.070066705 1.21672e-38 361 293
0.055524562 0.75400001 -0.070066705 1.1250273e-38 362 293
0.056846574 0.75400001 -0.070066705 1.1250273e-38 363 293
0.058168583 0.75400001 -0.070066705 1.1799847e-38 364 293
0.059490599 0.75400001 -0.070066705 1.1523261e-38 365 293
0.060812615 0.75400001 -0.070066705 1.1614376e-38 366 293
0.062134624 0.75400001 -0.070066705 1.1522181e-38 367 293
0.063288316 0.75199997 -0.069880851 1.170478e-38 368 293
0.064606823 0.75199997 -0.069880851 1.1243802e-38 369 293
0.066100664 0.75400001 -0.070066705 1.0598069e-38 370 293
0.067422673 0.75400001 -0.070066705 1.0228928e-38 371 293
0.030446632 0.755 -0.071483396 1.4010454e-38 343 294
0.031770397 0.755 -0.071483396 1.3362901e-38 344 294
0.033050332 0.75400001 -0.071388714 1.2717532e-38 345 294
0.034372345 0.75400001 -0.071388714 1.2718598e-38 346 294
0.035694357 0.75400001 -0.071388714 1.3087741e-38 347 294
0.037016369 0.75400001 -0.071388714 1.3088823e-38 348 294
0.038338386 0.75400001 -0.071388714 1.3088823e-38 349 294
0.039712999 0.755 -0.071483396 1.2904797e-38 350 294
0.041036766 0.755 -0.071483396 1.2720047e-38 351 294
0.042360533 0.755 -0.071483396 1.2260144e-38 352 294
0.043684296 0.755 -0.071483396 1.2167948e-38 353 294
0.045008067 0.755 -0.071483396 1.1984999e-38 354 294
0.046270464 0.75400001 -0.071388714 1.1524021e-38 355 294
0.04759248 0.75400001 -0.071388714 1.1339983e-38 356 294
0.048914492 0.75400001 -0.071388714 1.0971201e-38 357 294
0.050236505 0.75400001 -0.071388714 1.1338887e-38 358 294
0.051558517 0.75400001 -0.071388714 1.1338887e-38 359 294
0.052880533 0.75400001 -0.071388714 1.1063005e-38 360 294
0.054202545 0.75400001 -0.071388714 1.0970809e-38 361 294
0.055524562 0.75400001 -0.071388714 1.0878964e-38 362 294
0.056846574 0.75400001 -0.071388714 1.0694571e-38 363 294
0.058168583 0.75400001 -0.071388714 1.0786045e-38 364 294
0.059490599 0.75400001 -0.071388714 1.0693849e-38 365 294
0.060812615 0.75400001 -0.071388714 1.096759e-38 366 294
0.062134624 0.75400001 -0.071388714 1.0690645e-38 367 294
0.06345664 0.75400001 -0.071388714 9.8641281e-39 368 294
0.064778648 0.75400001 -0.071388714 9.311313e-39 369 294
0.066100664 0.75400001 -0.071388714 9.5850034e-39 370 294
0.029084291 0.75400001 -0.07271073 1.1889216e-38 342 295
0.030406307 0.75400001 -0.07271073 1.244239e-38 343 295
0.031770397 0.755 -0.07280717 1.2810815e-38 344 295
0.033050332 0.75400001 -0.07271073 1.2903012e-38 345 295
0.034372345 0.75400001 -0.07271073 1.2994842e-38 346 295
0.035694357 0.75400001 -0.07271073 1.2994842e-38 347 295
0.037016369 0.75400001 -0.07271073 1.3178859e-38 348 295
0.038338386 0.75400001 -0.07271073 1.2994109e-38 349 295
0.039712999 0.755 -0.07280717 1.2718233e-38 350 295
0.041036766 0.755 -0.07280717 1.2441644e-38 351 295
0.042360533 0.755 -0.07280717 1.1705873e-38 352 295
0.043684296 0.755 -0.07280717 1.1613676e-38 353 295
0.045008067 0.755 -0.07280717 1.1520761e-38 354 295
0.046270464 0.75400001 -0.07271073 1.0967588e-38 355 295
0.04759248 0.75400001 -0.07271073 9.6797326e-39 356 295
0.048914492 0.75400001 -0.07271073 9.3113102e-39 357 295
0.050236505 0.75400001 -0.07271073 9.2187614e-39 358 295
0.051558517 0.75400001 -0.07271073 9.0343688e-39 359 295
0.052880533 0.75400001 -0.07271073 9.0347219e-39 360 295
0.054202545 0.75400001 -0.07271073 8.8503321e-39 361 295
0.055524562 0.75400001 -0.07271073 8.5744612e-39 362 295
0.056846574 0.75400001 -0.07271073 8.3904301e-39 363 295
0.058168583 0.75400001 -0.07271073 8.5737452e-39 364 295
0.059490599 0.75400001 -0.07271073 8.5737452e-39 365 295
0.060812615 0.75400001 -0.07271073 9.0340185e-39 366 295
0.062134624 0.75400001 -0.07271073 9.0340185e-39 367 295
0.06345664 0.75400001 -0.07271073 8.5723242e-39 368 295
0.064778648 0.75400001 -0.07271073 8.1109874e-39 369 295
0.0263 0.75 -0.073639996 1.1334595e-38 340 296
