# .PCD v.7 - Point Cloud Data file format
FIELDS x y z rgb imX imY
SIZE 4 4 4 4 4 4
TYPE F F F F F F
COUNT 1 1 1 1 1 1
WIDTH 835
HEIGHT 1
VIEWPOINT 0 0 0 1 0 0 0
POINTS 835
DATA ascii
-0.00526 0.75 -0.065749995 1.6034366e-38 316 290
-0.003945 0.75 -0.065749995 1.5942169e-38 317 290
-0.0026264933 0.74900001 -0.065662332 1.5295352e-38 318 290
-0.0013132467 0.74900001 -0.065662332 1.4373397e-38 319 290
0 0.74900001 -0.065662332 1.4279402e-38 320 290
0.0013132467 0.74900001 -0.065662332 1.4463794e-38 321 290
0.0026264933 0.74900001 -0.065662332 1.4371966e-38 322 290
0.0039397399 0.74900001 -0.065662332 1.409574e-38 323 290
0.0052529867 0.74900001 -0.065662332 1.4186503e-38 324 290
0.0065662335 0.74900001 -0.065662332 1.3910276e-38 325 290
0.00789 0.75 -0.065749995 1.3911361e-38 326 290
0.0092049995 0.75 -0.065749995 1.4280504e-38 327 290
0.01052 0.75 -0.065749995 1.4375936e-38 328 290
0.011835 0.75 -0.065749995 1.4560328e-38 329 290
0.01315 0.75 -0.065749995 1.5020939e-38 330 290
0.014465 0.75 -0.065749995 1.5389362e-38 331 290
0.01578 0.75 -0.065749995 1.5482264e-38 332 290
0.017095 0.75 -0.065749995 1.557446e-38 333 290
0.018409999 0.75 -0.065749995 1.557481e-38 334 290
0.0197776 0.75199997 -0.06592533 1.5482615e-38 335 290
0.021096105 0.75199997 -0.06592533 1.5390416e-38 336 290
0.022414612 0.75199997 -0.06592533 1.5298219e-38 337 290
0.023733119 0.75199997 -0.06592533 1.5022358e-38 338 290
0.025118252 0.75400001 -0.066100664 1.4653577e-38 339 290
0.026440267 0.75400001 -0.066100664 1.4744696e-38 340 290
0.027762281 0.75400001 -0.066100664 1.4652501e-38 341 290
0.029084291 0.75400001 -0.066100664 1.4376633e-38 342 290
0.030406307 0.75400001 -0.066100664 1.4100406e-38 343 290
0.03172832 0.75400001 -0.066100664 1.3916381e-38 344 290
0.033094164 0.755 -0.066188328 1.3916381e-38 345 290
0.034417931 0.755 -0.066188328 1.364052e-38 346 290
0.03583638 0.75700003 -0.06636367 1.3548324e-38 347 290
0.037163652 0.75700003 -0.06636367 1.2812201e-38 348 290
0.038592618 0.759 -0.066538997 1.2720005e-38 349 290
0.0399234 0.759 -0.066538997 1.1249188e-38 350 290
0.041254178 0.759 -0.066538997 1.0419788e-38 351 290
0.042697169 0.76099998 -0.066714332 9.5889719e-39 352 290
-0.087412432 0.76700002 -0.068585135 1.0321907e-38 255 291
-0.085730985 0.764 -0.068316877 1.0596674e-38 256 291
-0.08417052 0.76200002 -0.068138041 1.0412281e-38 257 291
-0.082834482 0.76200002 -0.068138041 1.0687057e-38 258 291
-0.081391476 0.76099998 -0.068048611 1.0687057e-38 259 291
-0.080057196 0.76099998 -0.068048611 1.0779603e-38 260 291
-0.078516021 0.759 -0.067869775 1.1056189e-38 261 291
-0.076981857 0.75700003 -0.067690939 1.1240213e-38 262 291
-0.075654581 0.75700003 -0.067690939 1.1608994e-38 263 291
-0.07413093 0.755 -0.067512102 1.2068527e-38 264 291
-0.07280717 0.755 -0.067512102 1.2345114e-38 265 291
-0.071388714 0.75400001 -0.067422673 1.2621698e-38 266 291
-0.070066705 0.75400001 -0.067422673 1.2898285e-38 267 291
-0.068744689 0.75400001 -0.067422673 1.2807882e-38 268 291
-0.067243837 0.75199997 -0.067243837 1.2900436e-38 269 291
-0.06592533 0.75199997 -0.067243837 1.2901506e-38 270 291
-0.064606823 0.75199997 -0.067243837 1.3085897e-38 271 291
-0.063288316 0.75199997 -0.067243837 1.317845e-38 272 291
-0.061969809 0.75199997 -0.067243837 1.3270645e-38 273 291
-0.060489997 0.75 -0.067065001 1.3638705e-38 274 291
-0.059175 0.75 -0.067065001 1.3823096e-38 275 291
-0.057859998 0.75 -0.067065001 1.3823463e-38 276 291
-0.056544997 0.75 -0.067065001 1.4008213e-38 277 291
-0.055156358 0.74900001 -0.066975579 1.4283724e-38 278 291
-0.053843111 0.74900001 -0.066975579 1.4468115e-38 279 291
-0.052529868 0.74900001 -0.066975579 1.428552e-38 280 291
-0.051216617 0.74900001 -0.066975579 1.4561747e-38 281 291
-0.049770117 0.74699998 -0.066796735 1.4471352e-38 282 291
-0.048460379 0.74699998 -0.066796735 1.4655745e-38 283 291
-0.047150634 0.74699998 -0.066796735 1.5114921e-38 284 291
-0.045840897 0.74699998 -0.066796735 1.5207117e-38 285 291
-0.044531155 0.74699998 -0.066796735 1.5574813e-38 286 291
-0.043221418 0.74699998 -0.066796735 1.5574813e-38 287 291
-0.041911677 0.74699998 -0.066796735 1.5666653e-38 288 291
-0.040601939 0.74699998 -0.066796735 1.5574457e-38 289 291
-0.039292198 0.74699998 -0.066796735 1.5666658e-38 290 291
-0.03798246 0.74699998 -0.066796735 1.5758854e-38 291 291
-0.036672719 0.74699998 -0.066796735 1.6034363e-38 292 291
-0.03531564 0.74599999 -0.066707321 1.6034363e-38 293 291
-0.034007654 0.74599999 -0.066707321 1.5484782e-38 294 291
-0.032699663 0.74599999 -0.066707321 1.5576978e-38 295 291
-0.031433757 0.74699998 -0.066796735 1.6127283e-38 296 291
-0.030124018 0.74699998 -0.066796735 1.6311675e-38 297 291
-0.028814279 0.74699998 -0.066796735 1.6129081e-38 298 291
-0.027504537 0.74699998 -0.066796735 1.6129081e-38 299 291
-0.026194798 0.74699998 -0.066796735 1.6312391e-38 300 291
-0.024885058 0.74699998 -0.066796735 1.6312391e-38 301 291
-0.023575317 0.74699998 -0.066796735 1.6587536e-38 302 291
-0.022265578 0.74699998 -0.066796735 1.6679733e-38 303 291
-0.020955838 0.74699998 -0.066796735 1.6680089e-38 304 291
-0.0196987 0.74900001 -0.066975579 1.6680089e-38 305 291
-0.018385453 0.74900001 -0.066975579 1.6772281e-38 306 291
-0.017072206 0.74900001 -0.066975579 1.6772281e-38 307 291
-0.01575896 0.74900001 -0.066975579 1.6772281e-38 308 291
-0.014445714 0.74900001 -0.066975579 1.6772281e-38 309 291
-0.013132467 0.74900001 -0.066975579 1.6680089e-38 310 291
-0.01181922 0.74900001 -0.066975579 1.6587533e-38 311 291
-0.010505973 0.74900001 -0.066975579 1.658682e-38 312 291
-0.0091927266 0.74900001 -0.066975579 1.6494624e-38 313 291
-0.0078794798 0.74900001 -0.066975579 1.6218757e-38 314 291
-0.0065662335 0.74900001 -0.066975579 1.6218757e-38 315 291
-0.0052529867 0.74900001 -0.066975579 1.6035082e-38 316 291
-0.0039397399 0.74900001 -0.066975579 1.5758854e-38 317 291
-0.0026264933 0.74900001 -0.066975579 1.5571939e-38 318 291
-0.0013132467 0.74900001 -0.066975579 1.492657e-38 319 291
0 0.74900001 -0.066975579 1.5017689e-38 320 291
0.0013132467 0.74900001 -0.066975579 1.4833658e-38 321 291
0.0026264933 0.74900001 -0.066975579 1.446668e-38 322 291
0.0039397399 0.74900001 -0.066975579 1.4190453e-38 323 291
0.0052529867 0.74900001 -0.066975579 1.4649279e-38 324 291
0.0065662335 0.74900001 -0.066975579 1.4741475e-38 325 291
0.00789 0.75 -0.067065001 1.4651447e-38 326 291
0.0091927266 0.74900001 -0.066975579 1.5112785e-38 327 291
0.010505973 0.74900001 -0.066975579 1.5297893e-38 328 291
0.011835 0.75 -0.067065001 1.5205697e-38 329 291
0.01315 0.75 -0.067065001 1.52064e-38 330 291
0.014465 0.75 -0.067065001 1.5298596e-38 331 291
0.01578 0.75 -0.067065001 1.557481e-38 332 291
0.017095 0.75 -0.067065001 1.557481e-38 333 291
0.018409999 0.75 -0.067065001 1.5758123e-38 334 291
0.019724999 0.75 -0.067065001 1.5481896e-38 335 291
0.021096105 0.75199997 -0.067243837 1.5389344e-38 336 291
0.022414612 0.75199997 -0.067243837 1.5204952e-38 337 291
0.02379624 0.75400001 -0.067422673 1.4929091e-38 338 291
0.025118252 0.75400001 -0.067422673 1.4744699e-38 339 291
0.026440267 0.75400001 -0.067422673 1.4468468e-38 340 291
0.027762281 0.75400001 -0.067422673 1.4376273e-38 341 291
0.029084291 0.75400001 -0.067422673 1.4008208e-38 342 291
0.030406307 0.75400001 -0.067422673 1.3916012e-38 343 291
0.03172832 0.75400001 -0.067422673 1.3823819e-38 344 291
0.033094164 0.755 -0.067512102 1.3731622e-38 345 291
0.034417931 0.755 -0.067512102 1.3456121e-38 346 291
0.03583638 0.75700003 -0.067690939 1.3179894e-38 347 291
0.037163652 0.75700003 -0.067690939 1.2720355e-38 348 291
0.038490929 0.75700003 -0.067690939 1.2259736e-38 349 291
0.0399234 0.759 -0.067869775 1.1065509e-38 350 291
0.041254178 0.759 -0.067869775 1.0696368e-38 351 291
0.042697169 0.76099998 -0.068048611 9.5918431e-39 352 291
-0.086067624 0.76700002 -0.06992995 1.0505913e-38 256 292
-0.08417052 0.76200002 -0.069474079 1.0228966e-38 257 292
-0.082834482 0.76200002 -0.069474079 1.0319717e-38 258 292
-0.081391476 0.76099998 -0.069382899 1.0227521e-38 259 292
-0.080057196 0.76099998 -0.069382899 1.0226805e-38 260 292
-0.078516021 0.759 -0.069200553 1.0319001e-38 261 292
-0.076981857 0.75700003 -0.069018215 1.0411915e-38 262 292
-0.075654581 0.75700003 -0.069018215 1.0596306e-38 263 292
-0.07413093 0.755 -0.068835862 1.1056919e-38 264 292
-0.07280717 0.755 -0.068835862 1.1425341e-38 265 292
-0.071388714 0.75400001 -0.068744689 1.1610093e-38 266 292
-0.070066705 0.75400001 -0.068744689 1.1886319e-38 267 292
-0.068744689 0.75400001 -0.068744689 1.2163613e-38 268 292
-0.067243837 0.75199997 -0.068562344 1.225581e-38 269 292
-0.06592533 0.75199997 -0.068562344 1.2257232e-38 270 292
-0.064606823 0.75199997 -0.068562344 1.2441623e-38 271 292
-0.063288316 0.75199997 -0.068562344 1.2626724e-38 272 292
-0.061969809 0.75199997 -0.068562344 1.2810755e-38 273 292
-0.060489997 0.75 -0.068379998 1.2994428e-38 274 292
-0.059175 0.75 -0.068379998 1.317846e-38 275 292
-0.057859998 0.75 -0.068379998 1.3270661e-38 276 292
-0.056469604 0.74900001 -0.068288825 1.3455052e-38 277 292
-0.055156358 0.74900001 -0.068288825 1.3547255e-38 278 292
-0.053843111 0.74900001 -0.068288825 1.3915677e-38 279 292
-0.052529868 0.74900001 -0.068288825 1.400752e-38 280 292
-0.051216617 0.74900001 -0.068288825 1.4192271e-38 281 292
-0.049770117 0.74699998 -0.068106472 1.4101873e-38 282 292
-0.048460379 0.74699998 -0.068106472 1.4285904e-38 283 292
-0.047150634 0.74699998 -0.068106472 1.4470283e-38 284 292
-0.045840897 0.74699998 -0.068106472 1.4562479e-38 285 292
-0.044531155 0.74699998 -0.068106472 1.483834e-38 286 292
-0.043221418 0.74699998 -0.068106472 1.483834e-38 287 292
-0.041911677 0.74699998 -0.068106472 1.4839063e-38 288 292
-0.040601939 0.74699998 -0.068106472 1.4839063e-38 289 292
-0.039292198 0.74699998 -0.068106472 1.5114217e-38 290 292
-0.03798246 0.74699998 -0.068106472 1.5206413e-38 291 292
-0.036672719 0.74699998 -0.068106472 1.5297895e-38 292 292
-0.03531564 0.74599999 -0.068015307 1.5574122e-38 293 292
-0.034007654 0.74599999 -0.068015307 1.5206066e-38 294 292
-0.032699663 0.74599999 -0.068015307 1.5390457e-38 295 292
-0.031433757 0.74699998 -0.068106472 1.5665969e-38 296 292
-0.030124018 0.74699998 -0.068106472 1.5758165e-38 297 292
-0.028814279 0.74699998 -0.068106472 1.5576275e-38 298 292
-0.027504537 0.74699998 -0.068106472 1.5576275e-38 299 292
-0.026194798 0.74699998 -0.068106472 1.6310224e-38 300 292
-0.024885058 0.74699998 -0.068106472 1.6310224e-38 301 292
-0.023575317 0.74699998 -0.068106472 1.6219108e-38 302 292
-0.022265578 0.74699998 -0.068106472 1.6403139e-38 303 292
-0.020955838 0.74699998 -0.068106472 1.6219832e-38 304 292
-0.0196987 0.74900001 -0.068288825 1.6312028e-38 305 292
-0.018385453 0.74900001 -0.068288825 1.6036886e-38 306 292
-0.017072206 0.74900001 -0.068288825 1.6129081e-38 307 292
-0.01575896 0.74900001 -0.068288825 1.6312394e-38 308 292
-0.014445714 0.74900001 -0.068288825 1.6220198e-38 309 292
-0.013132467 0.74900001 -0.068288825 1.649499e-38 310 292
-0.01181922 0.74900001 -0.068288825 1.6402794e-38 311 292
-0.010505973 0.74900001 -0.068288825 1.6218773e-38 312 292
-0.0091927266 0.74900001 -0.068288825 1.6126577e-38 313 292
-0.0078794798 0.74900001 -0.068288825 1.5851064e-38 314 292
-0.0065662335 0.74900001 -0.068288825 1.5851064e-38 315 292
-0.0052529867 0.74900001 -0.068288825 1.5576262e-38 316 292
-0.0039397399 0.74900001 -0.068288825 1.5391511e-38 317 292
-0.0026194798 0.74699998 -0.068106472 1.5481543e-38 318 292
-0.0013097399 0.74699998 -0.068106472 1.5389347e-38 319 292
0 0.74699998 -0.068106472 1.4929072e-38 320 292
0.0013097399 0.74699998 -0.068106472 1.4836877e-38 321 292
0.0026264933 0.74900001 -0.068288825 1.4929776e-38 322 292
0.0039397399 0.74900001 -0.068288825 1.4745383e-38 323 292
0.0052529867 0.74900001 -0.068288825 1.4928698e-38 324 292
0.0065662335 0.74900001 -0.068288825 1.5205286e-38 325 292
0.0078794798 0.74900001 -0.068288825 1.5299653e-38 326 292
0.0091927266 0.74900001 -0.068288825 1.5299653e-38 327 292
0.010505973 0.74900001 -0.068288825 1.5299302e-38 328 292
0.01181922 0.74900001 -0.068288825 1.5299302e-38 329 292
0.013132467 0.74900001 -0.068288825 1.520747e-38 330 292
0.014445714 0.74900001 -0.068288825 1.520747e-38 331 292
0.01575896 0.74900001 -0.068288825 1.5390069e-38 332 292
0.017072206 0.74900001 -0.068288825 1.5390069e-38 333 292
0.018385453 0.74900001 -0.068288825 1.5206403e-38 334 292
0.019724999 0.75 -0.068379998 1.5021652e-38 335 292
0.02104 0.75 -0.068379998 1.5021652e-38 336 292
0.022414612 0.75199997 -0.068562344 1.465323e-38 337 292
0.02379624 0.75400001 -0.068744689 1.4561034e-38 338 292
0.025118252 0.75400001 -0.068744689 1.4376282e-38 339 292
0.026440267 0.75400001 -0.068744689 1.4008576e-38 340 292
0.027762281 0.75400001 -0.068744689 1.3916381e-38 341 292
0.029084291 0.75400001 -0.068744689 1.3640154e-38 342 292
0.030446632 0.755 -0.068835862 1.3547957e-38 343 292
0.031770397 0.755 -0.068835862 1.336321e-38 344 292
0.033094164 0.755 -0.068835862 1.3455405e-38 345 292
0.034417931 0.755 -0.068835862 1.2995866e-38 346 292
0.03583638 0.75700003 -0.069018215 1.2719639e-38 347 292
0.037163652 0.75700003 -0.069018215 1.2260452e-38 348 292
0.038490929 0.75700003 -0.069018215 1.189203e-38 349 292
0.0399234 0.759 -0.069200553 1.1156976e-38 350 292
0.041254178 0.759 -0.069200553 1.0696358e-38 351 292
0.042697169 0.76099998 -0.069382899 1.0693146e-38 352 292
0.044031456 0.76099998 -0.069382899 9.6793542e-39 353 292
0.045544583 0.764 -0.069656424 5.53889e-39 354 292
-0.081391476 0.76099998 -0.070717193 9.9506036e-39 259 293
-0.080057196 0.76099998 -0.070717193 1.0224653e-38 260 293
-0.078516021 0.759 -0.070531338 1.0316848e-38 261 293
-0.077185236 0.759 -0.070531338 1.0500861e-38 262 293
-0.075654581 0.75700003 -0.070345491 1.0685613e-38 263 293
-0.074327305 0.75700003 -0.070345491 1.1053304e-38 264 293
-0.07280717 0.755 -0.070159629 1.132953e-38 265 293
-0.071483396 0.755 -0.070159629 1.1697587e-38 266 293
-0.070066705 0.75400001 -0.070066705 1.1974534e-38 267 293
-0.068744689 0.75400001 -0.070066705 1.1517496e-38 268 293
-0.067243837 0.75199997 -0.069880851 1.1886638e-38 269 293
-0.06592533 0.75199997 -0.069880851 1.2438364e-38 270 293
-0.064606823 0.75199997 -0.069880851 1.2714951e-38 271 293
-0.063288316 0.75199997 -0.069880851 1.2716746e-38 272 293
-0.061969809 0.75199997 -0.069880851 1.2808941e-38 273 293
-0.060489997 0.75 -0.069694996 1.2901134e-38 274 293
-0.059175 0.75 -0.069694996 1.2993689e-38 275 293
-0.057859998 0.75 -0.069694996 1.3269199e-38 276 293
-0.056469604 0.74900001 -0.069602072 1.3361395e-38 277 293
-0.055156358 0.74900001 -0.069602072 1.3636551e-38 278 293
-0.053843111 0.74900001 -0.069602072 1.3913497e-38 279 293
-0.052389596 0.74699998 -0.069416218 1.4096456e-38 280 293
-0.051079858 0.74699998 -0.069416218 1.4373403e-38 281 293
-0.049770117 0.74699998 -0.069416218 1.419116e-38 282 293
-0.048460379 0.74699998 -0.069416218 1.4375191e-38 283 293
-0.047150634 0.74699998 -0.069416218 1.4559214e-38 284 293
-0.045840897 0.74699998 -0.069416218 1.4651409e-38 285 293
-0.044531155 0.74699998 -0.069416218 1.4652851e-38 286 293
-0.043221418 0.74699998 -0.069416218 1.4652851e-38 287 293
-0.041911677 0.74699998 -0.069416218 1.4836524e-38 288 293
-0.040601939 0.74699998 -0.069416218 1.4836524e-38 289 293
-0.039292198 0.74699998 -0.069416218 1.511239e-38 290 293
-0.03798246 0.74699998 -0.069416218 1.5204586e-38 291 293
-0.036623627 0.74599999 -0.069323286 1.5204235e-38 292 293
-0.03531564 0.74599999 -0.069323286 1.5204235e-38 293 293
-0.034007654 0.74599999 -0.069323286 1.5203882e-38 294 293
-0.032699663 0.74599999 -0.069323286 1.5480109e-38 295 293
-0.031433757 0.74699998 -0.069416218 1.5480112e-38 296 293
-0.030124018 0.74699998 -0.069416218 1.5572309e-38 297 293
-0.028775707 0.74599999 -0.069323286 1.5389713e-38 298 293
-0.027467718 0.74599999 -0.069323286 1.5389713e-38 299 293
-0.026159734 0.74599999 -0.069323286 1.5665564e-38 300 293
-0.024851745 0.74599999 -0.069323286 1.5480813e-38 301 293
-0.023543758 0.74599999 -0.069323286 1.5114541e-38 302 293
-0.022235774 0.74599999 -0.069323286 1.5390769e-38 303 293
-0.020955838 0.74699998 -0.069416218 1.5848873e-38 304 293
-0.0196987 0.74900001 -0.069602072 1.5848873e-38 305 293
-0.018385453 0.74900001 -0.069602072 1.5849952e-38 306 293
-0.017072206 0.74900001 -0.069602072 1.5849952e-38 307 293
-0.01575896 0.74900001 -0.069602072 1.6401327e-38 308 293
-0.014445714 0.74900001 -0.069602072 1.61251e-38 309 293
-0.013132467 0.74900001 -0.069602072 1.5665564e-38 310 293
-0.011787659 0.74699998 -0.069416218 1.5665564e-38 311 293
-0.010477919 0.74699998 -0.069416218 1.53897e-38 312 293
-0.0091681797 0.74699998 -0.069416218 1.53897e-38 313 293
-0.0078584393 0.74699998 -0.069416218 1.5849602e-38 314 293
-0.0065486995 0.74699998 -0.069416218 1.5849602e-38 315 293
-0.0052389596 0.74699998 -0.069416218 1.5758128e-38 316 293
-0.0039292197 0.74699998 -0.069416218 1.5758128e-38 317 293
-0.0026194798 0.74699998 -0.069416218 1.5298952e-38 318 293
-0.0013097399 0.74699998 -0.069416218 1.5114202e-38 319 293
0 0.74699998 -0.069416218 1.4839413e-38 320 293
0.0013097399 0.74699998 -0.069416218 1.4839413e-38 321 293
0.0026194798 0.74699998 -0.069416218 1.4931243e-38 322 293
0.0039292197 0.74699998 -0.069416218 1.4839046e-38 323 293
0.0052389596 0.74699998 -0.069416218 1.511526e-38 324 293
0.0065486995 0.74699998 -0.069416218 1.5022706e-38 325 293
0.0078794798 0.74900001 -0.069602072 1.5114185e-38 326 293
0.0091927266 0.74900001 -0.069602072 1.5114185e-38 327 293
0.010505973 0.74900001 -0.069602072 1.5297147e-38 328 293
0.01181922 0.74900001 -0.069602072 1.5389344e-38 329 293
0.013132467 0.74900001 -0.069602072 1.5572659e-38 330 293
0.014445714 0.74900001 -0.069602072 1.5480462e-38 331 293
0.01575896 0.74900001 -0.069602072 1.5571939e-38 332 293
0.017072206 0.74900001 -0.069602072 1.5479743e-38 333 293
0.018385453 0.74900001 -0.069602072 1.520388e-38 334 293
0.0196987 0.74900001 -0.069602072 1.5019488e-38 335 293
0.02104 0.75 -0.069694996 1.474398e-38 336 293
0.022355 0.75 -0.069694996 1.4651425e-38 337 293
0.023733119 0.75199997 -0.069880851 1.4467033e-38 338 293
0.025118252 0.75400001 -0.070066705 1.4374838e-38 339 293
0.026440267 0.75400001 -0.070066705 1.3914216e-38 340 293
0.027762281 0.75400001 -0.070066705 1.382202e-38 341 293
0.029122867 0.755 -0.070159629 1.3453955e-38 342 293
0.030446632 0.755 -0.070159629 1.3546509e-38 343 293
0.031770397 0.755 -0.070159629 1.3454311e-38 344 293
0.033094164 0.755 -0.070159629 1.3362115e-38 345 293
0.034417931 0.755 -0.070159629 1.3178444e-38 346 293
0.035741698 0.755 -0.070159629 1.2901856e-38 347 293
0.037163652 0.75700003 -0.070345491 1.198422e-38 348 293
0.038490929 0.75700003 -0.070345491 1.1707631e-38 349 293
0.039818201 0.75700003 -0.070345491 1.0880762e-38 350 293
0.041254178 0.759 -0.070531338 1.0880762e-38 351 293
0.042584959 0.759 -0.070531338 1.023541e-38 352 293
0.043915741 0.759 -0.070531338 9.2216187e-39 353 293
0.045425359 0.76200002 -0.070810117 7.7397035e-39 354 293
0.046884131 0.764 -0.070995972 6.0805409e-39 355 293
-0.078722909 0.76099998 -0.072051473 9.6736439e-39 261 294
-0.077185236 0.759 -0.071862116 9.6739943e-39 262 294
-0.075654581 0.75700003 -0.07167276 9.8587443e-39 263 294
-0.074327305 0.75700003 -0.07167276 1.004241e-38 264 294
-0.073000036 0.75700003 -0.07167276 1.0134605e-38 265 294
-0.071483396 0.755 -0.071483396 1.0502313e-38 266 294
-0.070066705 0.75400001 -0.071388714 1.0594509e-38 267 294
-0.068744689 0.75400001 -0.071388714 1.0872522e-38 268 294
-0.067422673 0.75400001 -0.071388714 1.1241303e-38 269 294
-0.06592533 0.75199997 -0.071199358 1.1518591e-38 270 294
-0.064606823 0.75199997 -0.071199358 1.1703342e-38 271 294
-0.063288316 0.75199997 -0.071199358 1.1704777e-38 272 294
-0.061969809 0.75199997 -0.071199358 1.1796973e-38 273 294
-0.060651302 0.75199997 -0.071199358 1.1980648e-38 274 294
-0.059175 0.75 -0.071010001 1.216468e-38 275 294
-0.057859998 0.75 -0.071010001 1.2257235e-38 276 294
-0.056469604 0.74900001 -0.070915319 1.2441626e-38 277 294
-0.055156358 0.74900001 -0.070915319 1.2717137e-38 278 294
-0.053843111 0.74900001 -0.070915319 1.2901529e-38 279 294
-0.052389596 0.74699998 -0.070725955 1.3177759e-38 280 294
-0.051079858 0.74699998 -0.070725955 1.3269955e-38 281 294
-0.049770117 0.74699998 -0.070725955 1.3088067e-38 282 294
-0.048460379 0.74699998 -0.070725955 1.3180263e-38 283 294
-0.047150634 0.74699998 -0.070725955 1.3730194e-38 284 294
-0.045840897 0.74699998 -0.070725955 1.4006781e-38 285 294
-0.044531155 0.74699998 -0.070725955 1.364052e-38 286 294
-0.043221418 0.74699998 -0.070725955 1.3732715e-38 287 294
-0.041911677 0.74699998 -0.070725955 1.4191879e-38 288 294
-0.040547583 0.74599999 -0.070631281 1.4191879e-38 289 294
-0.039239597 0.74599999 -0.070631281 1.4375917e-38 290 294
-0.03793161 0.74599999 -0.070631281 1.4468112e-38 291 294
-0.036623627 0.74599999 -0.070631281 1.4100071e-38 292 294
-0.03531564 0.74599999 -0.070631281 1.4284464e-38 293 294
-0.034007654 0.74599999 -0.070631281 1.446706e-38 294 294
-0.032699663 0.74599999 -0.070631281 1.4743287e-38 295 294
-0.031391677 0.74599999 -0.070631281 1.4468501e-38 296 294
-0.03008369 0.74599999 -0.070631281 1.4468501e-38 297 294
-0.028775707 0.74599999 -0.070631281 1.4377734e-38 298 294
-0.027467718 0.74599999 -0.070631281 1.4377734e-38 299 294
-0.026159734 0.74599999 -0.070631281 1.4928725e-38 300 294
-0.024851745 0.74599999 -0.070631281 1.4928725e-38 301 294
-0.023543758 0.74599999 -0.070631281 1.4929791e-38 302 294
-0.022235774 0.74599999 -0.070631281 1.5114541e-38 303 294
-0.020927785 0.74599999 -0.070631281 1.548045e-38 304 294
-0.019646099 0.74699998 -0.070725955 1.5572645e-38 305 294
-0.018336359 0.74699998 -0.070725955 1.5572645e-38 306 294
-0.017026618 0.74699998 -0.070725955 1.5572645e-38 307 294
-0.015716879 0.74699998 -0.070725955 1.5572289e-38 308 294
-0.014407139 0.74699998 -0.070725955 1.5480094e-38 309 294
-0.013097399 0.74699998 -0.070725955 1.5113109e-38 310 294
-0.011787659 0.74699998 -0.070725955 1.4836524e-38 311 294
-0.010477919 0.74699998 -0.070725955 1.4836524e-38 312 294
-0.0091681797 0.74699998 -0.070725955 1.4929078e-38 313 294
-0.0078584393 0.74699998 -0.070725955 1.511239e-38 314 294
-0.0065486995 0.74699998 -0.070725955 1.5204586e-38 315 294
-0.0052389596 0.74699998 -0.070725955 1.5021286e-38 316 294
-0.0039292197 0.74699998 -0.070725955 1.5113482e-38 317 294
-0.0026194798 0.74699998 -0.070725955 1.4746157e-38 318 294
-0.0013097399 0.74699998 -0.070725955 1.4562125e-38 319 294
0 0.74699998 -0.070725955 1.5021302e-38 320 294
0.0013097399 0.74699998 -0.070725955 1.4929106e-38 321 294
0.0026194798 0.74699998 -0.070725955 1.4929093e-38 322 294
0.0039292197 0.74699998 -0.070725955 1.4929093e-38 323 294
0.0052389596 0.74699998 -0.070725955 1.4745778e-38 324 294
0.0065486995 0.74699998 -0.070725955 1.4745778e-38 325 294
0.0078584393 0.74699998 -0.070725955 1.4653592e-38 326 294
0.0091681797 0.74699998 -0.070725955 1.4653592e-38 327 294
0.010477919 0.74699998 -0.070725955 1.4744719e-38 328 294
0.01181922 0.74900001 -0.070915319 1.4652523e-38 329 294
0.013132467 0.74900001 -0.070915319 1.456033e-38 330 294
0.014445714 0.74900001 -0.070915319 1.4652526e-38 331 294
0.01575896 0.74900001 -0.070915319 1.4560328e-38 332 294
0.017072206 0.74900001 -0.070915319 1.4560328e-38 333 294
0.018385453 0.74900001 -0.070915319 1.4283737e-38 334 294
0.0196987 0.74900001 -0.070915319 1.4283737e-38 335 294
0.021011947 0.74900001 -0.070915319 1.4007507e-38 336 294
0.022355 0.75 -0.071010001 1.3915311e-38 337 294
0.023669999 0.75 -0.071010001 1.3823113e-38 338 294
0.025051624 0.75199997 -0.071199358 1.3454689e-38 339 294
0.026440267 0.75400001 -0.071388714 1.3362135e-38 340 294
0.027762281 0.75400001 -0.071388714 1.3177743e-38 341 294
0.029084291 0.75400001 -0.071388714 1.3085546e-38 342 294
0.030446632 0.755 -0.071483396 1.3085546e-38 343 294
0.031770397 0.755 -0.071483396 1.2626368e-38 344 294
0.033094164 0.755 -0.071483396 1.2534172e-38 345 294
0.034417931 0.755 -0.071483396 1.225938e-38 346 294
0.035741698 0.755 -0.071483396 1.2074989e-38 347 294
0.037163652 0.75700003 -0.07167276 1.161581e-38 348 294
0.038490929 0.75700003 -0.07167276 1.1431417e-38 349 294
0.039818201 0.75700003 -0.07167276 1.0971165e-38 350 294
0.041145474 0.75700003 -0.07167276 1.0417991e-38 351 294
0.042472746 0.75700003 -0.07167276 1.0415137e-38 352 294
0.043800019 0.75700003 -0.07167276 8.386833e-39 353 294
0.045365743 0.76099998 -0.072051473 5.3516247e-39 354 294
0.046700031 0.76099998 -0.072051473 6.1813854e-39 355 294
-0.077185236 0.759 -0.073192894 9.5828832e-39 262 295
-0.075654581 0.75700003 -0.073000036 9.5828832e-39 263 295
-0.074327305 0.75700003 -0.073000036 1.0042041e-38 264 295
-0.07280717 0.755 -0.07280717 9.9498455e-39 265 295
-0.071483396 0.755 -0.07280717 1.0500851e-38 266 295
-0.070066705 0.75400001 -0.07271073 1.0593047e-38 267 295
-0.068744689 0.75400001 -0.07271073 1.0869271e-38 268 295
-0.067422673 0.75400001 -0.07271073 1.1054022e-38 269 295
-0.066100664 0.75400001 -0.07271073 1.0781028e-38 270 295
-0.064606823 0.75199997 -0.072517857 1.0965421e-38 271 295
-0.063288316 0.75199997 -0.072517857 1.1334555e-38 272 295
-0.061969809 0.75199997 -0.072517857 1.1518947e-38 273 295
-0.060651302 0.75199997 -0.072517857 1.1703692e-38 274 295
-0.059175 0.75 -0.072324999 1.1887724e-38 275 295
-0.057859998 0.75 -0.072324999 1.1980275e-38 276 295
-0.056469604 0.74900001 -0.072228566 1.2164666e-38 277 295
-0.055156358 0.74900001 -0.072228566 1.253201e-38 278 295
-0.053843111 0.74900001 -0.072228566 1.2808238e-38 279 295
-0.052529868 0.74900001 -0.072228566 1.2899717e-38 280 295
-0.051079858 0.74699998 -0.072035693 1.3175944e-38 281 295
-0.049770117 0.74699998 -0.072035693 1.2993348e-38 282 295
-0.048460379 0.74699998 -0.072035693 1.2993348e-38 283 295
-0.047150634 0.74699998 -0.072035693 1.3085897e-38 284 295
-0.045840897 0.74699998 -0.072035693 1.3270289e-38 285 295
-0.044531155 0.74699998 -0.072035693 1.3546156e-38 286 295
-0.043221418 0.74699998 -0.072035693 1.3546156e-38 287 295
-0.04185557 0.74599999 -0.07193926 1.3638352e-38 288 295
-0.040547583 0.74599999 -0.07193926 1.3638352e-38 289 295
-0.039239597 0.74599999 -0.07193926 1.3913865e-38 290 295
-0.03793161 0.74599999 -0.07193926 1.4006061e-38 291 295
-0.036623627 0.74599999 -0.07193926 1.4097902e-38 292 295
-0.03531564 0.74599999 -0.07193926 1.4097902e-38 293 295
-0.034007654 0.74599999 -0.07193926 1.4281567e-38 294 295
-0.032699663 0.74599999 -0.07193926 1.4374122e-38 295 295
-0.031391677 0.74599999 -0.07193926 1.4374119e-38 296 295
-0.03008369 0.74599999 -0.07193926 1.4466315e-38 297 295
-0.028775707 0.74599999 -0.07193926 1.4283724e-38 298 295
-0.027467718 0.74599999 -0.07193926 1.4098974e-38 299 295
-0.026159734 0.74599999 -0.07193926 1.4008213e-38 300 295
-0.024851745 0.74599999 -0.07193926 1.4008213e-38 301 295
-0.023543758 0.74599999 -0.07193926 1.4284437e-38 302 295
-0.022235774 0.74599999 -0.07193926 1.4376633e-38 303 295
-0.020927785 0.74599999 -0.07193926 1.4927293e-38 304 295
-0.019646099 0.74699998 -0.072035693 1.4927293e-38 305 295
-0.018336359 0.74699998 -0.072035693 1.5201729e-38 306 295
-0.017026618 0.74699998 -0.072035693 1.5201729e-38 307 295
-0.015716879 0.74699998 -0.072035693 1.5018416e-38 308 295
-0.014407139 0.74699998 -0.072035693 1.5018416e-38 309 295
-0.013097399 0.74699998 -0.072035693 1.4559585e-38 310 295
-0.011787659 0.74699998 -0.072035693 1.4098608e-38 311 295
-0.010463892 0.74599999 -0.07193926 1.4098608e-38 312 295
-0.0091559067 0.74599999 -0.07193926 1.4190804e-38 313 295
-0.0078479191 0.74599999 -0.07193926 1.4190804e-38 314 295
-0.0065399334 0.74599999 -0.07193926 1.4098608e-38 315 295
-0.0052389596 0.74699998 -0.072035693 1.419116e-38 316 295
-0.0039292197 0.74699998 -0.072035693 1.4559582e-38 317 295
-0.0026159731 0.74599999 -0.07193926 1.4651074e-38 318 295
-0.0013079866 0.74599999 -0.07193926 1.4743271e-38 319 295
0 0.74699998 -0.072035693 1.4926236e-38 320 295
0.0013097399 0.74699998 -0.072035693 1.4926236e-38 321 295
0.0026194798 0.74699998 -0.072035693 1.4651444e-38 322 295
0.0039292197 0.74699998 -0.072035693 1.4651444e-38 323 295
0.0052389596 0.74699998 -0.072035693 1.446848e-38 324 295
0.0065486995 0.74699998 -0.072035693 1.446848e-38 325 295
0.0078584393 0.74699998 -0.072035693 1.4376282e-38 326 295
0.0091681797 0.74699998 -0.072035693 1.4376282e-38 327 295
0.010477919 0.74699998 -0.072035693 1.4466686e-38 328 295
0.011787659 0.74699998 -0.072035693 1.4558881e-38 329 295
0.013097399 0.74699998 -0.072035693 1.4650711e-38 330 295
0.014445714 0.74900001 -0.072228566 1.4465961e-38 331 295
0.01575896 0.74900001 -0.072228566 1.4466317e-38 332 295
0.017072206 0.74900001 -0.072228566 1.4281567e-38 333 295
0.018385453 0.74900001 -0.072228566 1.4098258e-38 334 295
0.0196987 0.74900001 -0.072228566 1.4006061e-38 335 295
0.021011947 0.74900001 -0.072228566 1.3913862e-38 336 295
0.022325192 0.74900001 -0.072228566 1.3821667e-38 337 295
0.023669999 0.75 -0.072324999 1.3545084e-38 338 295
0.024984999 0.75 -0.072324999 1.3360691e-38 339 295
0.02637013 0.75199997 -0.072517857 1.2992276e-38 340 295
0.027688639 0.75199997 -0.072517857 1.2992276e-38 341 295
0.029007144 0.75199997 -0.072517857 1.2900436e-38 342 295
0.030406307 0.75400001 -0.07271073 1.2900436e-38 343 295
0.031770397 0.755 -0.07280717 1.2624926e-38 344 295
0.033094164 0.755 -0.07280717 1.2624926e-38 345 295
0.034417931 0.755 -0.07280717 1.207427e-38 346 295
0.035741698 0.755 -0.07280717 1.1982073e-38 347 295
0.037065465 0.755 -0.07280717 1.1522534e-38 348 295
0.038490929 0.75700003 -0.073000036 1.1246307e-38 349 295
0.039818201 0.75700003 -0.073000036 1.0325796e-38 350 295
0.041145474 0.75700003 -0.073000036 9.2194481e-39 351 295
0.042472746 0.75700003 -0.073000036 8.848537e-39 352 295
0.043800019 0.75700003 -0.073000036 6.7280361e-39 353 295
0.045365743 0.76099998 -0.07338576 5.2590731e-39 354 295
0.047006864 0.76599997 -0.073867925 7.6561581e-39 355 295
-0.075654581 0.75700003 -0.074327305 9.307388e-39 263 296
-0.074327305 0.75700003 -0.074327305 9.6739943e-39 264 296
-0.07280717 0.755 -0.07413093 9.6739943e-39 265 296
-0.071483396 0.755 -0.07413093 1.0041688e-38 266 296
-0.070066705 0.75400001 -0.074032739 1.0041688e-38 267 296
-0.068744689 0.75400001 -0.074032739 9.8590918e-39 268 296
-0.067422673 0.75400001 -0.074032739 9.9512874e-39 269 296
-0.066100664 0.75400001 -0.074032739 1.0044556e-38 270 296
-0.064778648 0.75400001 -0.074032739 1.0136752e-38 271 296
-0.063288316 0.75199997 -0.073836371 1.050553e-38 272 296
-0.061969809 0.75199997 -0.073836371 1.0690282e-38 273 296
-0.060651302 0.75199997 -0.073836371 1.0875026e-38 274 296
-0.059332799 0.75199997 -0.073836371 1.1151253e-38 275 296
-0.057859998 0.75 -0.073639996 1.1519667e-38 276 296
-0.056544997 0.75 -0.073639996 1.1611863e-38 277 296
-0.055156358 0.74900001 -0.073541813 1.1979925e-38 278 296
-0.053843111 0.74900001 -0.073541813 1.2164316e-38 279 296
-0.052529868 0.74900001 -0.073541813 1.2347631e-38 280 296
-0.051079858 0.74699998 -0.073345438 1.2439828e-38 281 296
-0.049770117 0.74699998 -0.073345438 1.2348712e-38 282 296
-0.048460379 0.74699998 -0.073345438 1.2532743e-38 283 296
-0.047150634 0.74699998 -0.073345438 1.2625291e-38 284 296
-0.045840897 0.74699998 -0.073345438 1.2717487e-38 285 296
-0.044531155 0.74699998 -0.073345438 1.2810036e-38 286 296
-0.043221418 0.74699998 -0.073345438 1.271784e-38 287 296
-0.04185557 0.74599999 -0.073247254 1.2993704e-38 288 296
-0.040547583 0.74599999 -0.073247254 1.30859e-38 289 296
-0.039239597 0.74599999 -0.073247254 1.3361056e-38 290 296
-0.03793161 0.74599999 -0.073247254 1.3453251e-38 291 296
-0.036623627 0.74599999 -0.073247254 1.354545e-38 292 296
-0.03531564 0.74599999 -0.073247254 1.354545e-38 293 296
-0.034007654 0.74599999 -0.073247254 1.3545803e-38 294 296
-0.032699663 0.74599999 -0.073247254 1.3637999e-38 295 296
-0.031391677 0.74599999 -0.073247254 1.3638355e-38 296 296
-0.03008369 0.74599999 -0.073247254 1.373055e-38 297 296
-0.028775707 0.74599999 -0.073247254 1.3639071e-38 298 296
-0.027467718 0.74599999 -0.073247254 1.3639071e-38 299 296
-0.026159734 0.74599999 -0.073247254 1.3639798e-38 300 296
-0.024851745 0.74599999 -0.073247254 1.3547601e-38 301 296
-0.023543758 0.74599999 -0.073247254 1.3639798e-38 302 296
-0.022235774 0.74599999 -0.073247254 1.3823829e-38 303 296
-0.020927785 0.74599999 -0.073247254 1.4098977e-38 304 296
-0.019646099 0.74699998 -0.073345438 1.4098977e-38 305 296
-0.018336359 0.74699998 -0.073345438 1.4373766e-38 306 296
-0.017026618 0.74699998 -0.073345438 1.4373766e-38 307 296
-0.015716879 0.74699998 -0.073345438 1.4190453e-38 308 296
-0.014407139 0.74699998 -0.073345438 1.4190453e-38 309 296
-0.013097399 0.74699998 -0.073345438 1.4006781e-38 310 296
-0.011771879 0.74599999 -0.073247254 1.3822749e-38 311 296
-0.010463892 0.74599999 -0.073247254 1.3730194e-38 312 296
-0.0091559067 0.74599999 -0.073247254 1.3730194e-38 313 296
-0.0078479191 0.74599999 -0.073247254 1.3822393e-38 314 296
-0.0065399334 0.74599999 -0.073247254 1.3730197e-38 315 296
-0.0052319462 0.74599999 -0.073247254 1.3454684e-38 316 296
-0.0039239596 0.74599999 -0.073247254 1.3639073e-38 317 296
-0.0026159731 0.74599999 -0.073247254 1.4005705e-38 318 296
-0.0013079866 0.74599999 -0.073247254 1.4190456e-38 319 296
0 0.74599999 -0.073247254 1.4098276e-38 320 296
0.0013079866 0.74599999 -0.073247254 1.4190472e-38 321 296
0.0026159731 0.74599999 -0.073247254 1.4098273e-38 322 296
0.0039239596 0.74599999 -0.073247254 1.4190469e-38 323 296
0.0052319462 0.74599999 -0.073247254 1.4007504e-38 324 296
0.0065399334 0.74599999 -0.073247254 1.3915309e-38 325 296
0.0078584393 0.74699998 -0.073345438 1.3915664e-38 326 296
0.0091681797 0.74699998 -0.073345438 1.382311e-38 327 296
0.010477919 0.74699998 -0.073345438 1.3730919e-38 328 296
0.011787659 0.74699998 -0.073345438 1.3730919e-38 329 296
0.013097399 0.74699998 -0.073345438 1.363872e-38 330 296
0.014407139 0.74699998 -0.073345438 1.3454689e-38 331 296
0.015716879 0.74699998 -0.073345438 1.3637999e-38 332 296
0.017072206 0.74900001 -0.073541813 1.3545803e-38 333 296
0.018385453 0.74900001 -0.073541813 1.3453257e-38 334 296
0.0196987 0.74900001 -0.073541813 1.3453257e-38 335 296
0.021011947 0.74900001 -0.073541813 1.3361059e-38 336 296
0.022325192 0.74900001 -0.073541813 1.3177027e-38 337 296
0.02363844 0.74900001 -0.073541813 1.3175594e-38 338 296
0.024984999 0.75 -0.073639996 1.2899367e-38 339 296
0.0263 0.75 -0.073639996 1.2715336e-38 340 296
0.027615 0.75 -0.073639996 1.2715336e-38 341 296
0.029007144 0.75199997 -0.073836371 1.2439825e-38 342 296
0.030406307 0.75400001 -0.074032739 1.2439825e-38 343 296
0.03172832 0.75400001 -0.074032739 1.216396e-38 344 296
0.033094164 0.755 -0.07413093 1.216396e-38 345 296
0.034417931 0.755 -0.07413093 1.1704777e-38 346 296
0.035741698 0.755 -0.07413093 1.142855e-38 347 296
0.037065465 0.755 -0.07413093 1.0692783e-38 348 296
0.038490929 0.75700003 -0.074327305 1.0600587e-38 349 296
0.039818201 0.75700003 -0.074327305 9.6790039e-39 350 296
0.041254178 0.759 -0.07452368 8.5722962e-39 351 296
0.042584959 0.759 -0.07452368 7.4674158e-39 352 296
0.044031456 0.76099998 -0.074720047 6.0844814e-39 353 296
0.045425359 0.76200002 -0.074818239 5.7214988e-39 354 296
0.047006864 0.76599997 -0.075210981 1.0239085e-38 355 296
-0.071483396 0.755 -0.075454697 9.6743502e-39 266 297
-0.070159629 0.755 -0.075454697 9.6743502e-39 267 297
-0.068835862 0.755 -0.075454697 9.7672493e-39 268 297
-0.067512102 0.755 -0.075454697 9.7672493e-39 269 297
-0.066100664 0.75400001 -0.075354755 9.859798e-39 270 297
-0.064778648 0.75400001 -0.075354755 9.9519937e-39 271 297
-0.06345664 0.75400001 -0.075354755 1.0044912e-38 272 297
-0.062134624 0.75400001 -0.075354755 1.0137108e-38 273 297
-0.060651302 0.75199997 -0.075154878 1.0413691e-38 274 297
-0.059332799 0.75199997 -0.075154878 1.0598082e-38 275 297
-0.057859998 0.75 -0.074954994 1.0782831e-38 276 297
-0.056544997 0.75 -0.074954994 1.1059057e-38 277 297
-0.055229999 0.75 -0.074954994 1.124273e-38 278 297
-0.053843111 0.74900001 -0.074855059 1.1519317e-38 279 297
-0.052529868 0.74900001 -0.074855059 1.1610793e-38 280 297
-0.051216617 0.74900001 -0.074855059 1.188702e-38 281 297
-0.04990337 0.74900001 -0.074855059 1.1887373e-38 282 297
-0.048460379 0.74699998 -0.074655175 1.1979569e-38 283 297
-0.047150634 0.74699998 -0.074655175 1.2072115e-38 284 297
-0.045840897 0.74699998 -0.074655175 1.2164669e-38 285 297
-0.044531155 0.74699998 -0.074655175 1.2165738e-38 286 297
-0.043221418 0.74699998 -0.074655175 1.2165738e-38 287 297
-0.04185557 0.74599999 -0.074555233 1.2349768e-38 288 297
-0.040547583 0.74599999 -0.074555233 1.2533799e-38 289 297
-0.039239597 0.74599999 -0.074555233 1.2717118e-38 290 297
-0.03793161 0.74599999 -0.074555233 1.290115e-38 291 297
-0.036623627 0.74599999 -0.074555233 1.3175941e-38 292 297
-0.03531564 0.74599999 -0.074555233 1.3268496e-38 293 297
-0.034007654 0.74599999 -0.074555233 1.3085181e-38 294 297
-0.032699663 0.74599999 -0.074555233 1.3177376e-38 295 297
-0.031391677 0.74599999 -0.074555233 1.3361042e-38 296 297
-0.03008369 0.74599999 -0.074555233 1.3361042e-38 297 297
-0.028775707 0.74599999 -0.074555233 1.317845e-38 298 297
-0.027467718 0.74599999 -0.074555233 1.3270645e-38 299 297
-0.026159734 0.74599999 -0.074555233 1.3270292e-38 300 297
-0.024851745 0.74599999 -0.074555233 1.3270292e-38 301 297
-0.023543758 0.74599999 -0.074555233 1.3362135e-38 302 297
-0.022235774 0.74599999 -0.074555233 1.3454689e-38 303 297
-0.020927785 0.74599999 -0.074555233 1.3545803e-38 304 297
-0.019646099 0.74699998 -0.074655175 1.3730194e-38 305 297
-0.018336359 0.74699998 -0.074655175 1.3821311e-38 306 297
-0.017026618 0.74699998 -0.074655175 1.3821311e-38 307 297
-0.015716879 0.74699998 -0.074655175 1.3729471e-38 308 297
-0.014407139 0.74699998 -0.074655175 1.3821667e-38 309 297
-0.013097399 0.74699998 -0.074655175 1.35458e-38 310 297
-0.011771879 0.74599999 -0.074555233 1.3453605e-38 311 297
-0.010463892 0.74599999 -0.074555233 1.3545084e-38 312 297
-0.0091559067 0.74599999 -0.074555233 1.3452888e-38 313 297
-0.0078584393 0.74699998 -0.074655175 1.3452535e-38 314 297
-0.0065399334 0.74599999 -0.074555233 1.336034e-38 315 297
-0.0052319462 0.74599999 -0.074555233 1.2809683e-38 316 297
-0.0039239596 0.74599999 -0.074555233 1.290188e-38 317 297
-0.0026159731 0.74599999 -0.074555233 1.3452538e-38 318 297
-0.0013079866 0.74599999 -0.074555233 1.3544734e-38 319 297
0 0.74599999 -0.074555233 1.3728412e-38 320 297
0.0013079866 0.74599999 -0.074555233 1.3728412e-38 321 297
0.0026159731 0.74599999 -0.074555233 1.3545097e-38 322 297
0.0039239596 0.74599999 -0.074555233 1.3637651e-38 323 297
0.0052179201 0.74400002 -0.074355356 1.3454333e-38 324 297
0.0065223998 0.74400002 -0.074355356 1.3362138e-38 325 297
0.0078479191 0.74599999 -0.074555233 1.3453605e-38 326 297
0.0091559067 0.74599999 -0.074555233 1.3453605e-38 327 297
0.010477919 0.74699998 -0.074655175 1.3177743e-38 328 297
0.011787659 0.74699998 -0.074655175 1.3177743e-38 329 297
0.013097399 0.74699998 -0.074655175 1.2901885e-38 330 297
0.014407139 0.74699998 -0.074655175 1.2901885e-38 331 297
0.015716879 0.74699998 -0.074655175 1.3359987e-38 332 297
0.017072206 0.74900001 -0.074855059 1.326779e-38 333 297
0.018385453 0.74900001 -0.074855059 1.2992282e-38 334 297
0.0196987 0.74900001 -0.074855059 1.2899727e-38 335 297
0.021011947 0.74900001 -0.074855059 1.2807532e-38 336 297
0.022325192 0.74900001 -0.074855059 1.2715336e-38 337 297
0.02363844 0.74900001 -0.074855059 1.2622423e-38 338 297
0.024951685 0.74900001 -0.074855059 1.2529869e-38 339 297
0.0263 0.75 -0.074954994 1.2254361e-38 340 297
0.027615 0.75 -0.074954994 1.2254361e-38 341 297
0.028929999 0.75 -0.074954994 1.1978853e-38 342 297
0.030406307 0.75400001 -0.075354755 1.1978853e-38 343 297
0.03172832 0.75400001 -0.075354755 1.1702992e-38 344 297
0.033050332 0.75400001 -0.075354755 1.1610437e-38 345 297
0.034417931 0.755 -0.075454697 1.1150537e-38 346 297
0.035741698 0.755 -0.075454697 1.0965787e-38 347 297
0.037065465 0.755 -0.075454697 9.8623162e-39 348 297
0.038490929 0.75700003 -0.075654581 9.7701205e-39 349 297
0.039818201 0.75700003 -0.075654581 8.8489027e-39 350 297
0.041254178 0.759 -0.075854458 7.8351095e-39 351 297
0.042584959 0.759 -0.075854458 7.2819652e-39 352 297
0.044031456 0.76099998 -0.076054335 6.4525646e-39 353 297
0.045425359 0.76200002 -0.076154284 8.1146419e-39 354 297
-0.070159629 0.755 -0.076778464 9.4903345e-39 267 298
-0.068835862 0.755 -0.076778464 9.6747033e-39 268 298
-0.067690939 0.75700003 -0.076981857 9.766899e-39 269 298
-0.06636367 0.75700003 -0.076981857 9.583937e-39 270 298
-0.064864561 0.755 -0.076778464 9.7679681e-39 271 298
-0.063540794 0.755 -0.076778464 9.7679681e-39 272 298
-0.062134624 0.75400001 -0.076676771 9.9523608e-39 273 298
-0.060812615 0.75400001 -0.076676771 1.0136028e-38 274 298
-0.059332799 0.75199997 -0.076473378 1.032042e-38 275 298
-0.058014289 0.75199997 -0.076473378 1.0595565e-38 276 298
-0.056695782 0.75199997 -0.076473378 1.0963988e-38 277 298
-0.055229999 0.75 -0.076269999 1.1148013e-38 278 298
-0.053914998 0.75 -0.076269999 1.1240569e-38 279 298
-0.0526 0.75 -0.076269999 1.151643e-38 280 298
-0.051216617 0.74900001 -0.076168306 1.1792657e-38 281 298
-0.04990337 0.74900001 -0.076168306 1.1609342e-38 282 298
-0.048460379 0.74699998 -0.07596492 1.1794092e-38 283 298
-0.047150634 0.74699998 -0.07596492 1.1795161e-38 284 298
-0.045840897 0.74699998 -0.07596492 1.1887358e-38 285 298
-0.044531155 0.74699998 -0.07596492 1.1704043e-38 286 298
-0.043221418 0.74699998 -0.07596492 1.1704043e-38 287 298
-0.041911677 0.74699998 -0.07596492 1.2163219e-38 288 298
-0.040547583 0.74599999 -0.07586322 1.2255414e-38 289 298
-0.039239597 0.74599999 -0.07586322 1.2530925e-38 290 298
-0.03793161 0.74599999 -0.07586322 1.2623121e-38 291 298
-0.036623627 0.74599999 -0.07586322 1.2991182e-38 292 298
-0.03531564 0.74599999 -0.07586322 1.3083377e-38 293 298
-0.034007654 0.74599999 -0.07586322 1.3083733e-38 294 298
-0.032699663 0.74599999 -0.07586322 1.3083733e-38 295 298
-0.031391677 0.74599999 -0.07586322 1.3084452e-38 296 298
-0.03008369 0.74599999 -0.07586322 1.3084452e-38 297 298
-0.028775707 0.74599999 -0.07586322 1.2992979e-38 298 298
-0.027467718 0.74599999 -0.07586322 1.2992979e-38 299 298
-0.026159734 0.74599999 -0.07586322 1.2901506e-38 300 298
-0.024851745 0.74599999 -0.07586322 1.2993701e-38 301 298
-0.023543758 0.74599999 -0.07586322 1.3085178e-38 302 298
-0.022235774 0.74599999 -0.07586322 1.3085178e-38 303 298
-0.020927785 0.74599999 -0.07586322 1.3360326e-38 304 298
-0.019646099 0.74699998 -0.07596492 1.3544357e-38 305 298
-0.018336359 0.74699998 -0.07596492 1.3635831e-38 306 298
-0.017026618 0.74699998 -0.07596492 1.3543635e-38 307 298
-0.015716879 0.74699998 -0.07596492 1.336032e-38 308 298
-0.014407139 0.74699998 -0.07596492 1.336032e-38 309 298
-0.013097399 0.74699998 -0.07596492 1.326849e-38 310 298
-0.011771879 0.74599999 -0.07586322 1.326849e-38 311 298
-0.010463892 0.74599999 -0.07586322 1.3175941e-38 312 298
-0.0091681797 0.74699998 -0.07596492 1.3175941e-38 313 298
-0.0078584393 0.74699998 -0.07596492 1.3083749e-38 314 298
-0.0065399334 0.74599999 -0.07586322 1.2899717e-38 315 298
-0.0052319462 0.74599999 -0.07586322 1.2899362e-38 316 298
-0.0039239596 0.74599999 -0.07586322 1.2899362e-38 317 298
-0.0026159731 0.74599999 -0.07586322 1.3082674e-38 318 298
-0.0013079866 0.74599999 -0.07586322 1.3267424e-38 319 298
0 0.74599999 -0.07586322 1.3542932e-38 320 298
0.0013079866 0.74599999 -0.07586322 1.3450736e-38 321 298
0.0026159731 0.74599999 -0.07586322 1.3267777e-38 322 298
0.0039239596 0.74599999 -0.07586322 1.3359973e-38 323 298
0.0052179201 0.74400002 -0.075659841 1.3085181e-38 324 298
0.0065223998 0.74400002 -0.075659841 1.2992985e-38 325 298
0.0078479191 0.74599999 -0.07586322 1.3083746e-38 326 298
0.0091559067 0.74599999 -0.07586322 1.3083746e-38 327 298
0.010463892 0.74599999 -0.07586322 1.2807882e-38 328 298
0.011787659 0.74699998 -0.07596492 1.2807882e-38 329 298
0.013097399 0.74699998 -0.07596492 1.2807882e-38 330 298
0.014407139 0.74699998 -0.07596492 1.2715686e-38 331 298
0.015716879 0.74699998 -0.07596492 1.2989762e-38 332 298
0.017072206 0.74900001 -0.076168306 1.2989762e-38 333 298
0.018385453 0.74900001 -0.076168306 1.2621701e-38 334 298
0.0196987 0.74900001 -0.076168306 1.2621701e-38 335 298
0.021011947 0.74900001 -0.076168306 1.2529506e-38 336 298
0.022325192 0.74900001 -0.076168306 1.243731e-38 337 298
0.02363844 0.74900001 -0.076168306 1.2345114e-38 338 298
0.024951685 0.74900001 -0.076168306 1.225256e-38 339 298
0.0263 0.75 -0.076269999 1.1793738e-38 340 298
0.027615 0.75 -0.076269999 1.1793738e-38 341 298
0.028929999 0.75 -0.076269999 1.1609347e-38 342 298
0.030406307 0.75400001 -0.076676771 1.1609347e-38 343 298
0.03172832 0.75400001 -0.076676771 1.151608e-38 344 298
0.033050332 0.75400001 -0.076676771 1.1331328e-38 345 298
0.034417931 0.755 -0.076778464 1.1055467e-38 346 298
0.035741698 0.755 -0.076778464 1.0502293e-38 347 298
0.037065465 0.755 -0.076778464 8.9392963e-39 348 298
0.038490929 0.75700003 -0.076981857 9.0318521e-39 349 298
0.039818201 0.75700003 -0.076981857 8.1113601e-39 350 298
0.041254178 0.759 -0.077185236 7.5581863e-39 351 298
0.042697169 0.76099998 -0.077388622 7.0075517e-39 352 298
0.044089317 0.76200002 -0.077490322 8.4826832e-39 353 298
-0.069018215 0.75700003 -0.078309126 8.939676e-39 268 299
-0.067690939 0.75700003 -0.078309126 8.939676e-39 269 299
-0.066538997 0.759 -0.078516021 9.3992024e-39 270 299
-0.065036394 0.75700003 -0.078309126 9.4917568e-39 271 299
-0.063540794 0.755 -0.078102231 9.5835867e-39 272 299
-0.062217031 0.755 -0.078102231 9.7676178e-39 273 299
-0.060812615 0.75400001 -0.077998787 9.7676178e-39 274 299
-0.059332799 0.75199997 -0.077791892 9.8598135e-39 275 299
-0.058014289 0.75199997 -0.077791892 9.951293e-39 276 299
-0.056695782 0.75199997 -0.077791892 1.0227521e-38 277 299
-0.055229999 0.75 -0.077584997 1.0227521e-38 278 299
-0.053914998 0.75 -0.077584997 1.0411912e-38 279 299
-0.0526 0.75 -0.077584997 1.0687779e-38 280 299
-0.051284999 0.75 -0.077584997 1.0872172e-38 281 299
-0.04990337 0.74900001 -0.077481553 1.0597377e-38 282 299
-0.048590127 0.74900001 -0.077481553 1.0874323e-38 283 299
-0.047150634 0.74699998 -0.07727465 1.0783193e-38 284 299
-0.045840897 0.74699998 -0.07727465 1.0783193e-38 285 299
-0.044531155 0.74699998 -0.07727465 1.1059054e-38 286 299
-0.043221418 0.74699998 -0.07727465 1.1151609e-38 287 299
-0.041911677 0.74699998 -0.07727465 1.1243086e-38 288 299
-0.040601939 0.74699998 -0.07727465 1.1427117e-38 289 299
-0.039292198 0.74699998 -0.07727465 1.1611509e-38 290 299
-0.03793161 0.74599999 -0.077171214 1.1703705e-38 291 299
-0.036623627 0.74599999 -0.077171214 1.2255433e-38 292 299
-0.03531564 0.74599999 -0.077171214 1.2255433e-38 293 299
-0.034007654 0.74599999 -0.077171214 1.225543e-38 294 299
-0.032699663 0.74599999 -0.077171214 1.2347625e-38 295 299
-0.031391677 0.74599999 -0.077171214 1.2439825e-38 296 299
-0.03008369 0.74599999 -0.077171214 1.2439825e-38 297 299
-0.028775707 0.74599999 -0.077171214 1.2348712e-38 298 299
-0.027467718 0.74599999 -0.077171214 1.2348712e-38 299 299
-0.026159734 0.74599999 -0.077171214 1.2348356e-38 300 299
-0.024851745 0.74599999 -0.077171214 1.2348356e-38 301 299
-0.023543758 0.74599999 -0.077171214 1.2348356e-38 302 299
-0.022235774 0.74599999 -0.077171214 1.2532745e-38 303 299
-0.020927785 0.74599999 -0.077171214 1.2624219e-38 304 299
-0.019646099 0.74699998 -0.07727465 1.2716415e-38 305 299
-0.018336359 0.74699998 -0.07727465 1.2716771e-38 306 299
-0.017026618 0.74699998 -0.07727465 1.2624575e-38 307 299
-0.015716879 0.74699998 -0.07727465 1.2533096e-38 308 299
-0.014407139 0.74699998 -0.07727465 1.2533096e-38 309 299
-0.013097399 0.74699998 -0.07727465 1.2807532e-38 310 299
-0.011771879 0.74599999 -0.077171214 1.2715336e-38 311 299
-0.010463892 0.74599999 -0.077171214 1.2715336e-38 312 299
-0.0091559067 0.74599999 -0.077171214 1.2531305e-38 313 299
