# .PCD v.7 - Point Cloud Data file format
FIELDS x y z rgb imX imY
SIZE 4 4 4 4 4 4
TYPE F F F F F F
COUNT 1 1 1 1 1 1
WIDTH 845
HEIGHT 1
VIEWPOINT 0 0 0 1 0 0 0
POINTS 845
DATA ascii
0.015352187 0.796 -0.0097695729 1.6128029e-38 331 247
0.01674784 0.796 -0.0097695729 1.5852514e-38 332 247
0.018143492 0.796 -0.0097695729 1.5760318e-38 333 247
0.019588239 0.79799998 -0.0097941197 1.5760671e-38 334 247
0.020987399 0.79799998 -0.0097941197 1.5760671e-38 335 247
0.022386558 0.79799998 -0.0097941197 1.5576277e-38 336 247
0.023845334 0.80000001 -0.0098186666 1.5576277e-38 337 247
0.025248 0.80000001 -0.0098186666 1.5301135e-38 338 247
0.026650665 0.80000001 -0.0098186666 1.5301135e-38 339 247
0.028053332 0.80000001 -0.0098186666 1.5117467e-38 340 247
0.029456001 0.80000001 -0.0098186666 1.5025271e-38 341 247
0.030858666 0.80000001 -0.0098186666 1.4474619e-38 342 247
0.032261331 0.80000001 -0.0098186666 1.4474619e-38 343 247
0.033579841 0.79799998 -0.0097941197 1.3923258e-38 344 247
0.034978997 0.79799998 -0.0097941197 1.4568628e-38 345 247
0.036286984 0.796 -0.0097695729 1.5582112e-38 346 247
0.037682641 0.796 -0.0097695729 1.6596623e-38 347 247
0.038980108 0.79400003 -0.0097450269 1.7518614e-38 348 247
0.040372252 0.79400003 -0.0097450269 1.8348376e-38 349 247
-0.047927368 0.78100002 -0.010954826 1.879849e-38 285 248
-0.046558015 0.78100002 -0.010954826 1.9075414e-38 286 248
-0.045188658 0.78100002 -0.010954826 1.9167609e-38 287 248
-0.043819305 0.78100002 -0.010954826 1.9261582e-38 288 248
-0.042449951 0.78100002 -0.010954826 1.9722561e-38 289 248
-0.041080598 0.78100002 -0.010954826 2.0274636e-38 290 248
-0.039711244 0.78100002 -0.010954826 2.0367191e-38 291 248
-0.038440078 0.78299999 -0.010982879 2.0367541e-38 292 248
-0.037161902 0.78500003 -0.011010934 2.0090594e-38 293 248
-0.035785533 0.78500003 -0.011010934 1.9815086e-38 294 248
-0.034409165 0.78500003 -0.011010934 1.9722891e-38 295 248
-0.033032801 0.78500003 -0.011010934 1.9631421e-38 296 248
-0.031656433 0.78500003 -0.011010934 1.9631421e-38 297 248
-0.030280067 0.78500003 -0.011010934 1.9539225e-38 298 248
-0.028830061 0.78299999 -0.010982879 1.944703e-38 299 248
-0.027457198 0.78299999 -0.010982879 1.9629986e-38 300 248
-0.026150968 0.78500003 -0.011010934 1.9445955e-38 301 248
-0.0247746 0.78500003 -0.011010934 1.9537074e-38 302 248
-0.023457846 0.787 -0.011038986 1.9444877e-38 303 248
-0.022077972 0.787 -0.011038986 1.9076818e-38 304 248
-0.0206981 0.787 -0.011038986 1.8984622e-38 305 248
-0.019318225 0.787 -0.011038986 1.8341048e-38 306 248
-0.017983939 0.78899997 -0.011067039 1.8248852e-38 307 248
-0.016600559 0.78899997 -0.011067039 1.8155938e-38 308 248
-0.015217179 0.78899997 -0.011067039 1.8155938e-38 309 248
-0.013851333 0.79000002 -0.011081067 1.8338528e-38 310 248
-0.0124662 0.79000002 -0.011081067 1.806194e-38 311 248
-0.011081067 0.79000002 -0.011081067 1.7510565e-38 312 248
-0.0096959332 0.79000002 -0.011081067 1.7326174e-38 313 248
-0.0083108004 0.79000002 -0.011081067 1.7233258e-38 314 248
-0.0069431998 0.792 -0.011109119 1.7141063e-38 315 248
-0.0055685868 0.79400003 -0.011137174 1.7233255e-38 316 248
-0.0041764397 0.79400003 -0.011137174 1.7048864e-38 317 248
-0.0027842934 0.79400003 -0.011137174 1.7047439e-38 318 248
-0.0013921467 0.79400003 -0.011137174 1.6863048e-38 319 248
0 0.79400003 -0.011137174 1.6403873e-38 320 248
0.0013921467 0.79400003 -0.011137174 1.6403873e-38 321 248
0.0027842934 0.79400003 -0.011137174 1.5668836e-38 322 248
0.00416592 0.792 -0.011109119 1.5484805e-38 323 248
0.0055545596 0.792 -0.011109119 1.5943984e-38 324 248
0.0069607338 0.79400003 -0.011137174 1.5759234e-38 325 248
0.0083528794 0.79400003 -0.011137174 1.5851785e-38 326 248
0.0097695729 0.796 -0.011165227 1.5943981e-38 327 248
0.011165227 0.796 -0.011165227 1.5943262e-38 328 248
0.01256088 0.796 -0.011165227 1.5943262e-38 329 248
0.013956533 0.796 -0.011165227 1.5851069e-38 330 248
0.015352187 0.796 -0.011165227 1.5758515e-38 331 248
0.01674784 0.796 -0.011165227 1.5757799e-38 332 248
0.018143492 0.796 -0.011165227 1.5757799e-38 333 248
0.019588239 0.79799998 -0.011193279 1.5666318e-38 334 248
0.020987399 0.79799998 -0.011193279 1.5666318e-38 335 248
0.022386558 0.79799998 -0.011193279 1.4747956e-38 336 248
0.023845334 0.80000001 -0.011221333 1.4747956e-38 337 248
0.025248 0.80000001 -0.011221333 1.5115296e-38 338 248
0.026650665 0.80000001 -0.011221333 1.5207851e-38 339 248
0.028053332 0.80000001 -0.011221333 1.4932706e-38 340 248
0.029456001 0.80000001 -0.011221333 1.5024902e-38 341 248
0.030858666 0.80000001 -0.011221333 1.4841956e-38 342 248
0.032261331 0.80000001 -0.011221333 1.5118183e-38 343 248
0.033579841 0.79799998 -0.011193279 1.4751574e-38 344 248
0.034978997 0.79799998 -0.011193279 1.4935967e-38 345 248
0.036286984 0.796 -0.011165227 1.5303338e-38 346 248
0.037682641 0.796 -0.011165227 1.4934916e-38 347 248
0.038980108 0.79400003 -0.011137174 1.4383206e-38 348 248
0.040372252 0.79400003 -0.011137174 1.5489552e-38 349 248
0.041869599 0.796 -0.011165227 1.6043469e-38 350 248
0.043373957 0.79799998 -0.011193279 1.6596643e-38 351 248
0.044660907 0.796 -0.011165227 1.7609012e-38 352 248
0.046056557 0.796 -0.011165227 1.871536e-38 353 248
-0.050601196 0.77999997 -0.012308398 1.8982889e-38 283 249
-0.049233593 0.77999997 -0.012308398 1.9075761e-38 284 249
-0.047865998 0.77999997 -0.012308398 1.8983565e-38 285 249
-0.046498396 0.77999997 -0.012308398 1.9444521e-38 286 249
-0.045130797 0.77999997 -0.012308398 1.9721468e-38 287 249
-0.043763198 0.77999997 -0.012308398 2.0089881e-38 288 249
-0.042449951 0.78100002 -0.01232418 2.0274273e-38 289 249
-0.041080598 0.78100002 -0.01232418 2.0275696e-38 290 249
-0.039711244 0.78100002 -0.01232418 2.0275696e-38 291 249
-0.038440078 0.78299999 -0.012355739 2.0275693e-38 292 249
-0.037067216 0.78299999 -0.012355739 2.0183496e-38 293 249
-0.035694357 0.78299999 -0.012355739 2.0090947e-38 294 249
-0.034321502 0.78299999 -0.012355739 1.9906916e-38 295 249
-0.032864477 0.78100002 -0.01232418 1.9814733e-38 296 249
-0.031495128 0.78100002 -0.01232418 1.9630342e-38 297 249
-0.030125774 0.78100002 -0.01232418 1.9629989e-38 298 249
-0.028756421 0.78100002 -0.01232418 1.9445958e-38 299 249
-0.027387068 0.78100002 -0.01232418 1.9261565e-38 300 249
-0.026084339 0.78299999 -0.012355739 1.916901e-38 301 249
-0.024711479 0.78299999 -0.012355739 1.8984622e-38 302 249
-0.023398234 0.78500003 -0.0123873 1.8800232e-38 303 249
-0.022021867 0.78500003 -0.0123873 1.8616563e-38 304 249
-0.020645501 0.78500003 -0.0123873 1.8432531e-38 305 249
-0.019269135 0.78500003 -0.0123873 1.8063386e-38 306 249
-0.017938353 0.787 -0.01241886 1.7787159e-38 307 249
-0.016600559 0.78899997 -0.012450419 1.7603485e-38 308 249
-0.015217179 0.78899997 -0.012450419 1.7510931e-38 309 249
-0.013851333 0.79000002 -0.0124662 1.723506e-38 310 249
-0.0124662 0.79000002 -0.0124662 1.705031e-38 311 249
-0.011081067 0.79000002 -0.0124662 1.6865915e-38 312 249
-0.0096959332 0.79000002 -0.0124662 1.6681884e-38 313 249
-0.0083108004 0.79000002 -0.0124662 1.6863401e-38 314 249
-0.0069256667 0.79000002 -0.0124662 1.6586814e-38 315 249
-0.0055545596 0.792 -0.012497759 1.6403139e-38 316 249
-0.00416592 0.792 -0.012497759 1.6219108e-38 317 249
-0.0027772798 0.792 -0.012497759 1.6035085e-38 318 249
-0.0013886399 0.792 -0.012497759 1.5942889e-38 319 249
0 0.792 -0.012497759 1.539116e-38 320 249
0.0013886399 0.792 -0.012497759 1.5206769e-38 321 249
0.0027772798 0.792 -0.012497759 1.4930189e-38 322 249
0.00416592 0.792 -0.012497759 1.4837992e-38 323 249
0.0055545596 0.792 -0.012497759 1.4837992e-38 324 249
0.0069607338 0.79400003 -0.01252932 1.4745438e-38 325 249
0.0083528794 0.79400003 -0.01252932 1.4929459e-38 326 249
0.0097450269 0.79400003 -0.01252932 1.4929459e-38 327 249
0.011137174 0.79400003 -0.01252932 1.4653948e-38 328 249
0.01256088 0.796 -0.01256088 1.4469198e-38 329 249
0.013956533 0.796 -0.01256088 1.4286255e-38 330 249
0.015352187 0.796 -0.01256088 1.4286255e-38 331 249
0.016789921 0.79799998 -0.012592439 1.4377734e-38 332 249
0.018189078 0.79799998 -0.012592439 1.4377734e-38 333 249
0.019588239 0.79799998 -0.012592439 1.4378087e-38 334 249
0.020987399 0.79799998 -0.012592439 1.4193337e-38 335 249
0.022386558 0.79799998 -0.012592439 1.364232e-38 336 249
0.02378572 0.79799998 -0.012592439 1.3734516e-38 337 249
0.025248 0.80000001 -0.012624 1.3735955e-38 338 249
0.026650665 0.80000001 -0.012624 1.3735955e-38 339 249
0.027983198 0.79799998 -0.012592439 1.4195141e-38 340 249
0.029382357 0.79799998 -0.012592439 1.4563565e-38 341 249
0.030781519 0.79799998 -0.012592439 1.4105836e-38 342 249
0.032180678 0.79799998 -0.012592439 1.4474619e-38 343 249
0.033579841 0.79799998 -0.012592439 1.4473542e-38 344 249
0.034978997 0.79799998 -0.012592439 1.4657575e-38 345 249
0.036286984 0.796 -0.01256088 1.5025284e-38 346 249
0.037682641 0.796 -0.01256088 1.4749057e-38 347 249
0.038980108 0.79400003 -0.01252932 1.4472842e-38 348 249
0.040372252 0.79400003 -0.01252932 1.474907e-38 349 249
0.041764401 0.79400003 -0.01252932 1.5117878e-38 350 249
0.043265253 0.796 -0.01256088 1.5671051e-38 351 249
0.044660907 0.796 -0.01256088 1.5947303e-38 352 249
0.045825116 0.792 -0.012497759 1.6223892e-38 353 249
0.047213759 0.792 -0.012497759 1.6683802e-38 354 249
0.048847865 0.796 -0.01256088 1.7144421e-38 355 249
-0.049233593 0.77999997 -0.013675999 1.9443802e-38 284 250
-0.047865998 0.77999997 -0.013675999 1.9628554e-38 285 250
-0.046498396 0.77999997 -0.013675999 1.9905487e-38 286 250
-0.045015078 0.778 -0.013640933 2.0274271e-38 287 250
-0.043650985 0.778 -0.013640933 2.0642686e-38 288 250
-0.042395595 0.77999997 -0.013675999 2.0642686e-38 289 250
-0.041027997 0.77999997 -0.013675999 2.0276062e-38 290 250
-0.039660398 0.77999997 -0.013675999 2.0276062e-38 291 250
-0.038341891 0.78100002 -0.013693534 2.009203e-38 292 250
-0.036972538 0.78100002 -0.013693534 1.9999835e-38 293 250
-0.035603184 0.78100002 -0.013693534 1.990656e-38 294 250
-0.034233831 0.78100002 -0.013693534 1.9722169e-38 295 250
-0.032864477 0.78100002 -0.013693534 1.9354828e-38 296 250
-0.031495128 0.78100002 -0.013693534 1.9262633e-38 297 250
-0.030125774 0.78100002 -0.013693534 1.9169714e-38 298 250
-0.028756421 0.78100002 -0.013693534 1.9169714e-38 299 250
-0.027387068 0.78100002 -0.013693534 1.8985325e-38 300 250
-0.026017714 0.78100002 -0.013693534 1.8985325e-38 301 250
-0.024648361 0.78100002 -0.013693534 1.8432524e-38 302 250
-0.02333862 0.78299999 -0.013728599 1.8340329e-38 303 250
-0.021965759 0.78299999 -0.013728599 1.8155584e-38 304 250
-0.0205929 0.78299999 -0.013728599 1.8063389e-38 305 250
-0.019269135 0.78500003 -0.013763667 1.7602761e-38 306 250
-0.017938353 0.787 -0.013798732 1.741837e-38 307 250
-0.016600559 0.78899997 -0.013833799 1.7049943e-38 308 250
-0.015217179 0.78899997 -0.013833799 1.6957748e-38 309 250
-0.013833799 0.78899997 -0.013833799 1.6865549e-38 310 250
-0.012450419 0.78899997 -0.013833799 1.6588961e-38 311 250
-0.011081067 0.79000002 -0.013851333 1.603687e-38 312 250
-0.0096959332 0.79000002 -0.013851333 1.585212e-38 313 250
-0.0083108004 0.79000002 -0.013851333 1.5849968e-38 314 250
-0.0069256667 0.79000002 -0.013851333 1.538935e-38 315 250
-0.0055545596 0.792 -0.0138864 1.4929091e-38 316 250
-0.00416592 0.792 -0.0138864 1.4836895e-38 317 250
-0.0027772798 0.792 -0.0138864 1.4561034e-38 318 250
-0.0013886399 0.792 -0.0138864 1.4561034e-38 319 250
0 0.792 -0.0138864 1.3917828e-38 320 250
0.0013886399 0.792 -0.0138864 1.3640882e-38 321 250
0.0027772798 0.792 -0.0138864 1.354762e-38 322 250
0.00416592 0.792 -0.0138864 1.354762e-38 323 250
0.0055545596 0.792 -0.0138864 1.3731664e-38 324 250
0.0069607338 0.79400003 -0.013921468 1.363911e-38 325 250
0.0083528794 0.79400003 -0.013921468 1.3455425e-38 326 250
0.0097450269 0.79400003 -0.013921468 1.3086642e-38 327 250
0.011137174 0.79400003 -0.013921468 1.3087349e-38 328 250
0.01256088 0.796 -0.013956533 1.3179544e-38 329 250
0.013956533 0.796 -0.013956533 1.3087358e-38 330 250
0.015352187 0.796 -0.013956533 1.3087358e-38 331 250
0.016789921 0.79799998 -0.013991599 1.2996598e-38 332 250
0.018189078 0.79799998 -0.013991599 1.3088795e-38 333 250
0.019539146 0.796 -0.013956533 1.3088418e-38 334 250
0.0209348 0.796 -0.013956533 1.2719637e-38 335 250
0.022386558 0.79799998 -0.013991599 1.2535597e-38 336 250
0.02378572 0.79799998 -0.013991599 1.2627793e-38 337 250
0.025248 0.80000001 -0.014026666 1.2261179e-38 338 250
0.026584039 0.79799998 -0.013991599 1.2445569e-38 339 250
0.027983198 0.79799998 -0.013991599 1.2996595e-38 340 250
0.029382357 0.79799998 -0.013991599 1.3365377e-38 341 250
0.030781519 0.79799998 -0.013991599 1.3091677e-38 342 250
0.032180678 0.79799998 -0.013991599 1.3368624e-38 343 250
0.033579841 0.79799998 -0.013991599 1.3826728e-38 344 250
0.034978997 0.79799998 -0.013991599 1.401112e-38 345 250
0.036286984 0.796 -0.013956533 1.4196237e-38 346 250
0.037587963 0.79400003 -0.013921468 1.4380268e-38 347 250
0.038980108 0.79400003 -0.013921468 1.4379199e-38 348 250
0.040372252 0.79400003 -0.013921468 1.4471394e-38 349 250
0.041764401 0.79400003 -0.013921468 1.4655791e-38 350 250
0.043265253 0.796 -0.013956533 1.4563237e-38 351 250
0.044660907 0.796 -0.013956533 1.4561807e-38 352 250
0.045825116 0.792 -0.0138864 1.4285581e-38 353 250
0.047213759 0.792 -0.0138864 1.373241e-38 354 250
0.048725132 0.79400003 -0.013921468 1.3363267e-38 355 250
0.05011728 0.79400003 -0.013921468 1.3638409e-38 356 250
-0.050471451 0.778 -0.015005025 1.9168648e-38 283 251
-0.049107358 0.778 -0.015005025 1.9537775e-38 284 251
-0.047743265 0.778 -0.015005025 2.0090947e-38 285 251
-0.046379171 0.778 -0.015005025 2.0182424e-38 286 251
-0.045015078 0.778 -0.015005025 2.0274621e-38 287 251
-0.043650985 0.778 -0.015005025 2.0275696e-38 288 251
-0.042286891 0.778 -0.015005025 2.0367891e-38 289 251
-0.040922798 0.778 -0.015005025 2.0275343e-38 290 251
-0.039558705 0.778 -0.015005025 2.0183147e-38 291 251
-0.038292799 0.77999997 -0.0150436 2.0183147e-38 292 251
-0.036925197 0.77999997 -0.0150436 1.9814364e-38 293 251
-0.035557598 0.77999997 -0.0150436 1.9537778e-38 294 251
-0.034189999 0.77999997 -0.0150436 1.9537778e-38 295 251
-0.032864477 0.78100002 -0.015062887 1.9261549e-38 296 251
-0.031495128 0.78100002 -0.015062887 1.9076799e-38 297 251
-0.030125774 0.78100002 -0.015062887 1.8617263e-38 298 251
-0.028756421 0.78100002 -0.015062887 1.8433231e-38 299 251
-0.027387068 0.78100002 -0.015062887 1.861619e-38 300 251
-0.026017714 0.78100002 -0.015062887 1.8523994e-38 301 251
-0.024648361 0.78100002 -0.015062887 1.833925e-38 302 251
-0.023279008 0.78100002 -0.015062887 1.8155219e-38 303 251
-0.021909652 0.78100002 -0.015062887 1.7971546e-38 304 251
-0.0205929 0.78299999 -0.01510146 1.7602764e-38 305 251
-0.019220039 0.78299999 -0.01510146 1.7049943e-38 306 251
-0.017892767 0.78500003 -0.015140033 1.6773356e-38 307 251
-0.016600559 0.78899997 -0.015217179 1.6127981e-38 308 251
-0.015217179 0.78899997 -0.015217179 1.5759557e-38 309 251
-0.013833799 0.78899997 -0.015217179 1.5850308e-38 310 251
-0.012450419 0.78899997 -0.015217179 1.5297135e-38 311 251
-0.011067039 0.78899997 -0.015217179 1.4929072e-38 312 251
-0.0096959332 0.79000002 -0.015236467 1.4652484e-38 313 251
-0.0083108004 0.79000002 -0.015236467 1.4376636e-38 314 251
-0.0069256667 0.79000002 -0.015236467 1.428444e-38 315 251
-0.0055545596 0.792 -0.01527504 1.3823835e-38 316 251
-0.00416592 0.792 -0.01527504 1.3823835e-38 317 251
-0.0027772798 0.792 -0.01527504 1.4466333e-38 318 251
-0.0013886399 0.792 -0.01527504 1.4374137e-38 319 251
0 0.792 -0.01527504 1.2996245e-38 320 251
0.0013886399 0.792 -0.01527504 1.2811853e-38 321 251
0.0027772798 0.792 -0.01527504 1.3178844e-38 322 251
0.00416592 0.792 -0.01527504 1.3271039e-38 323 251
0.0055545596 0.792 -0.01527504 1.3178853e-38 324 251
0.0069607338 0.79400003 -0.015313613 1.3178853e-38 325 251
0.0083528794 0.79400003 -0.015313613 1.3087011e-38 326 251
0.0097450269 0.79400003 -0.015313613 1.2810784e-38 327 251
0.011137174 0.79400003 -0.015313613 1.2901895e-38 328 251
0.01256088 0.796 -0.015352187 1.2994449e-38 329 251
0.013956533 0.796 -0.015352187 1.2994094e-38 330 251
0.015352187 0.796 -0.015352187 1.2901898e-38 331 251
0.016789921 0.79799998 -0.015390759 1.2811134e-38 332 251
0.018189078 0.79799998 -0.015390759 1.2811134e-38 333 251
0.019539146 0.796 -0.015352187 1.2902604e-38 334 251
0.0209348 0.796 -0.015352187 1.2626017e-38 335 251
0.022386558 0.79799998 -0.015390759 1.2441979e-38 336 251
0.02378572 0.79799998 -0.015390759 1.2349783e-38 337 251
0.025248 0.80000001 -0.015429333 1.1706212e-38 338 251
0.026584039 0.79799998 -0.015390759 1.1429266e-38 339 251
0.027983198 0.79799998 -0.015390759 1.1521462e-38 340 251
0.029382357 0.79799998 -0.015390759 1.1429266e-38 341 251
0.030781519 0.79799998 -0.015390759 1.133815e-38 342 251
0.032180678 0.79799998 -0.015390759 1.1522181e-38 343 251
0.033579841 0.79799998 -0.015390759 1.1797329e-38 344 251
0.03489133 0.796 -0.015352187 1.1797329e-38 345 251
0.036195815 0.79400003 -0.015313613 1.1980295e-38 346 251
0.037587963 0.79400003 -0.015313613 1.2625664e-38 347 251
0.038980108 0.79400003 -0.015313613 1.2627835e-38 348 251
0.040372252 0.79400003 -0.015313613 1.2996259e-38 349 251
0.041764401 0.79400003 -0.015313613 1.308846e-38 350 251
0.043265253 0.796 -0.015352187 1.3180655e-38 351 251
0.044660907 0.796 -0.015352187 1.3730955e-38 352 251
0.046056557 0.796 -0.015352187 1.3730955e-38 353 251
0.047452211 0.796 -0.015352187 1.3545842e-38 354 251
0.048725132 0.79400003 -0.015313613 1.3269254e-38 355 251
0.05011728 0.79400003 -0.015313613 1.3912105e-38 356 251
0.051379677 0.792 -0.01527504 1.3543324e-38 357 251
0.052635066 0.79000002 -0.015236467 1.2715011e-38 358 251
0.0540202 0.79000002 -0.015236467 1.253062e-38 359 251
0.055405334 0.79000002 -0.015236467 1.133461e-38 360 251
0.056790464 0.79000002 -0.015236467 1.1979979e-38 361 251
0.058175597 0.79000002 -0.015236467 1.4105912e-38 362 251
-0.054213066 0.773 -0.016263919 1.8707306e-38 280 252
-0.051569037 0.77399999 -0.016284959 1.9628521e-38 282 252
-0.050211959 0.77399999 -0.016284959 1.9813271e-38 283 252
-0.048981119 0.77600002 -0.01632704 1.9998014e-38 284 252
-0.047620531 0.77600002 -0.01632704 2.0366796e-38 285 252
-0.046259947 0.77600002 -0.01632704 2.0459005e-38 286 252
-0.044899363 0.77600002 -0.01632704 2.0459005e-38 287 252
-0.043538772 0.77600002 -0.01632704 2.0091674e-38 288 252
-0.042178184 0.77600002 -0.01632704 2.0091674e-38 289 252
-0.0408176 0.77600002 -0.01632704 1.9907649e-38 290 252
-0.039457016 0.77600002 -0.01632704 1.9723616e-38 291 252
-0.038194612 0.778 -0.016369121 1.9906213e-38 292 252
-0.036925197 0.77999997 -0.016411198 1.9814017e-38 293 252
-0.035557598 0.77999997 -0.016411198 1.907825e-38 294 252
-0.034189999 0.77999997 -0.016411198 1.88935e-38 295 252
-0.032822397 0.77999997 -0.016411198 1.8800588e-38 296 252
-0.031454798 0.77999997 -0.016411198 1.8616195e-38 297 252
-0.030087199 0.77999997 -0.016411198 1.8248499e-38 298 252
-0.028719598 0.77999997 -0.016411198 1.8156303e-38 299 252
-0.027351998 0.77999997 -0.016411198 1.8155587e-38 300 252
-0.025984399 0.77999997 -0.016411198 1.8063392e-38 301 252
-0.024648361 0.78100002 -0.016432239 1.7970837e-38 302 252
-0.023279008 0.78100002 -0.016432239 1.7694609e-38 303 252
-0.021909652 0.78100002 -0.016432239 1.7510568e-38 304 252
-0.020540299 0.78100002 -0.016432239 1.704959e-38 305 252
-0.019170946 0.78100002 -0.016432239 1.6773707e-38 306 252
-0.017847179 0.78299999 -0.01647432 1.6128337e-38 307 252
-0.01655848 0.787 -0.01655848 1.5299653e-38 308 252
-0.015178605 0.787 -0.01655848 1.493051e-38 309 252
-0.013833799 0.78899997 -0.016600559 1.474505e-38 310 252
-0.012450419 0.78899997 -0.016600559 1.4284071e-38 311 252
-0.011067039 0.78899997 -0.016600559 1.4098621e-38 312 252
-0.0096959332 0.79000002 -0.016621601 1.4191175e-38 313 252
-0.0083108004 0.79000002 -0.016621601 1.3732377e-38 314 252
-0.0069256667 0.79000002 -0.016621601 1.3640182e-38 315 252
-0.0055405335 0.79000002 -0.016621601 1.3456153e-38 316 252
-0.00416592 0.792 -0.01666368 1.3363599e-38 317 252
-0.0027772798 0.792 -0.01666368 1.3546917e-38 318 252
-0.0013886399 0.792 -0.01666368 1.3454721e-38 319 252
0 0.792 -0.01666368 1.2904064e-38 320 252
0.0013886399 0.792 -0.01666368 1.2811869e-38 321 252
0.0027772798 0.792 -0.01666368 1.2903345e-38 322 252
0.00416592 0.792 -0.01666368 1.281115e-38 323 252
0.0055545596 0.792 -0.01666368 1.2627482e-38 324 252
0.0069607338 0.79400003 -0.016705759 1.2535286e-38 325 252
0.0083528794 0.79400003 -0.016705759 1.2443443e-38 326 252
0.0097695729 0.796 -0.01674784 1.2351248e-38 327 252
0.011165227 0.796 -0.01674784 1.2626753e-38 328 252
0.01256088 0.796 -0.01674784 1.2442722e-38 329 252
0.013956533 0.796 -0.01674784 1.2442725e-38 330 252
0.015352187 0.796 -0.01674784 1.2442725e-38 331 252
0.016789921 0.79799998 -0.016789921 1.2351248e-38 332 252
0.018189078 0.79799998 -0.016789921 1.2351248e-38 333 252
0.019588239 0.79799998 -0.016789921 1.2259045e-38 334 252
0.020987399 0.79799998 -0.016789921 1.1982818e-38 335 252
0.022386558 0.79799998 -0.016789921 1.1798424e-38 336 252
0.023845334 0.80000001 -0.016832 1.1706229e-38 337 252
0.025248 0.80000001 -0.016832 1.1520761e-38 338 252
0.026584039 0.79799998 -0.016789921 1.133637e-38 339 252
0.027983198 0.79799998 -0.016789921 1.1151983e-38 340 252
0.029382357 0.79799998 -0.016789921 1.096759e-38 341 252
0.030781519 0.79799998 -0.016789921 1.050732e-38 342 252
0.032100026 0.796 -0.01674784 1.0322568e-38 343 252
0.033495679 0.796 -0.01674784 1.0598069e-38 344 252
0.03489133 0.796 -0.01674784 1.0598069e-38 345 252
0.036195815 0.79400003 -0.016705759 1.0597729e-38 346 252
0.037587963 0.79400003 -0.016705759 1.0782121e-38 347 252
0.038980108 0.79400003 -0.016705759 1.1335313e-38 348 252
0.040372252 0.79400003 -0.016705759 1.1704456e-38 349 252
0.041764401 0.79400003 -0.016705759 1.1889216e-38 350 252
0.043265253 0.796 -0.01674784 1.225764e-38 351 252
0.044660907 0.796 -0.01674784 1.2717182e-38 352 252
0.046056557 0.796 -0.01674784 1.2809377e-38 353 252
0.047452211 0.796 -0.01674784 1.2993405e-38 354 252
0.048725132 0.79400003 -0.016705759 1.2993405e-38 355 252
0.05011728 0.79400003 -0.016705759 1.3452949e-38 356 252
0.051379677 0.792 -0.01666368 1.3360393e-38 357 252
0.052635066 0.79000002 -0.016621601 1.3360749e-38 358 252
0.0540202 0.79000002 -0.016621601 1.3268553e-38 359 252
0.055405334 0.79000002 -0.016621601 1.2623181e-38 360 252
0.056790464 0.79000002 -0.016621601 1.2715377e-38 361 252
0.058175597 0.79000002 -0.016621601 1.502426e-38 362 252
0.059560735 0.79000002 -0.016621601 1.8435498e-38 363 252
0.060945868 0.79000002 -0.016621601 1.9545123e-38 364 252
0.062252093 0.78899997 -0.016600559 1.9176341e-38 365 252
-0.055568393 0.773 -0.017619247 1.8616935e-38 279 253
-0.054213066 0.773 -0.017619247 1.9354831e-38 280 253
-0.052857738 0.773 -0.017619247 1.9539222e-38 281 253
-0.051569037 0.77399999 -0.01764204 1.9813288e-38 282 253
-0.050211959 0.77399999 -0.01764204 2.0274627e-38 283 253
-0.04885488 0.77399999 -0.01764204 2.0459008e-38 284 253
-0.047497798 0.77399999 -0.01764204 2.0274977e-38 285 253
-0.046140719 0.77399999 -0.01764204 2.0459005e-38 286 253
-0.044783637 0.77399999 -0.01764204 2.0274973e-38 287 253
-0.043426558 0.77399999 -0.01764204 2.0183144e-38 288 253
-0.042069476 0.77399999 -0.01764204 2.0183144e-38 289 253
-0.040712398 0.77399999 -0.01764204 1.9906563e-38 290 253
-0.039355319 0.77399999 -0.01764204 1.9722172e-38 291 253
-0.037998237 0.77399999 -0.01764204 1.9445227e-38 292 253
-0.036641158 0.77399999 -0.01764204 1.9261196e-38 293 253
-0.035375252 0.77600002 -0.017687626 1.8617266e-38 294 253
-0.034014668 0.77600002 -0.017687626 1.8248484e-38 295 253
-0.032822397 0.77999997 -0.017778799 1.8155219e-38 296 253
-0.031454798 0.77999997 -0.017778799 1.8155219e-38 297 253
-0.030087199 0.77999997 -0.017778799 1.8245982e-38 298 253
-0.028719598 0.77999997 -0.017778799 1.8245982e-38 299 253
-0.027351998 0.77999997 -0.017778799 1.806159e-38 300 253
-0.025984399 0.77999997 -0.017778799 1.7877558e-38 301 253
-0.024648361 0.78100002 -0.017801592 1.7693159e-38 302 253
-0.023279008 0.78100002 -0.017801592 1.7508766e-38 303 253
-0.021909652 0.78100002 -0.017801592 1.6680438e-38 304 253
-0.020540299 0.78100002 -0.017801592 1.6219461e-38 305 253
-0.019170946 0.78100002 -0.017801592 1.557481e-38 306 253
-0.017847179 0.78299999 -0.017847179 1.4929441e-38 307 253
-0.01655848 0.787 -0.017938353 1.4561028e-38 308 253
-0.015178605 0.787 -0.017938353 1.4561028e-38 309 253
-0.013833799 0.78899997 -0.017983939 1.428517e-38 310 253
-0.012450419 0.78899997 -0.017983939 1.4192973e-38 311 253
-0.011067039 0.78899997 -0.017983939 1.4099705e-38 312 253
-0.0096959332 0.79000002 -0.018006733 1.4099705e-38 313 253
-0.0083108004 0.79000002 -0.018006733 1.3639813e-38 314 253
-0.0069256667 0.79000002 -0.018006733 1.3639813e-38 315 253
-0.0055405335 0.79000002 -0.018006733 1.3364308e-38 316 253
-0.00416592 0.792 -0.018052319 1.3271754e-38 317 253
-0.0027772798 0.792 -0.018052319 1.317956e-38 318 253
-0.0013886399 0.792 -0.018052319 1.317956e-38 319 253
0 0.792 -0.018052319 1.2904052e-38 320 253
0.0013886399 0.792 -0.018052319 1.2811497e-38 321 253
0.0027772798 0.792 -0.018052319 1.2628188e-38 322 253
0.00416592 0.792 -0.018052319 1.2535992e-38 323 253
0.0055545596 0.792 -0.018052319 1.2443088e-38 324 253
0.0069607338 0.79400003 -0.018097907 1.2443088e-38 325 253
0.0083528794 0.79400003 -0.018097907 1.2350892e-38 326 253
0.0097695729 0.796 -0.018143492 1.2443088e-38 327 253
0.011165227 0.796 -0.018143492 1.216793e-38 328 253
0.01256088 0.796 -0.018143492 1.216793e-38 329 253
0.013956533 0.796 -0.018143492 1.2350878e-38 330 253
0.015352187 0.796 -0.018143492 1.2350878e-38 331 253
0.016789921 0.79799998 -0.018189078 1.2259398e-38 332 253
0.018189078 0.79799998 -0.018189078 1.2167203e-38 333 253
0.019588239 0.79799998 -0.018189078 1.198389e-38 334 253
0.020987399 0.79799998 -0.018189078 1.179914e-38 335 253
0.022386558 0.79799998 -0.018189078 1.1798787e-38 336 253
0.023845334 0.80000001 -0.018234666 1.1430364e-38 337 253
0.025248 0.80000001 -0.018234666 1.115307e-38 338 253
0.026584039 0.79799998 -0.018189078 1.0876844e-38 339 253
0.027983198 0.79799998 -0.018189078 1.087614e-38 340 253
0.029382357 0.79799998 -0.018189078 1.087614e-38 341 253
0.030781519 0.79799998 -0.018189078 1.0598474e-38 342 253
0.032100026 0.796 -0.018143492 1.0321887e-38 343 253
0.033495679 0.796 -0.018143492 1.0228597e-38 344 253
0.03489133 0.796 -0.018143492 1.0044206e-38 345 253
0.036195815 0.79400003 -0.018097907 9.8587387e-39 346 253
0.037587963 0.79400003 -0.018097907 1.0135326e-38 347 253
0.038980108 0.79400003 -0.018097907 1.0594158e-38 348 253
0.040372252 0.79400003 -0.018097907 1.077855e-38 349 253
0.041764401 0.79400003 -0.018097907 1.0962583e-38 350 253
0.043265253 0.796 -0.018143492 1.1054781e-38 351 253
0.044660907 0.796 -0.018143492 1.0413011e-38 352 253
0.045940842 0.79400003 -0.018097907 1.0413011e-38 353 253
0.047332987 0.79400003 -0.018097907 1.1334607e-38 354 253
0.048725132 0.79400003 -0.018097907 1.2072531e-38 355 253
0.049991038 0.792 -0.018052319 1.3083087e-38 356 253
0.051379677 0.792 -0.018052319 1.3359674e-38 357 253
0.052635066 0.79000002 -0.018006733 1.3360396e-38 358 253
0.0540202 0.79000002 -0.018006733 1.3452593e-38 359 253
0.055405334 0.79000002 -0.018006733 1.2531731e-38 360 253
0.056790464 0.79000002 -0.018006733 1.3269296e-38 361 253
0.058175597 0.79000002 -0.018006733 1.6221389e-38 362 253
0.059560735 0.79000002 -0.018006733 1.8895064e-38 363 253
0.060945868 0.79000002 -0.018006733 1.9635894e-38 364 253
0.062252093 0.78899997 -0.017983939 1.9359305e-38 365 253
0.063635476 0.78899997 -0.017983939 1.8991962e-38 366 253
-0.057977475 0.76899999 -0.018876385 1.7972304e-38 277 254
-0.056629159 0.76899999 -0.018876385 1.9076446e-38 278 254
-0.055424623 0.77100003 -0.018925481 1.9445227e-38 279 254
-0.054072797 0.77100003 -0.018925481 2.0273187e-38 280 254
-0.052720979 0.77100003 -0.018925481 2.0273187e-38 281 254
-0.051502414 0.773 -0.018974574 2.0365742e-38 282 254
-0.050147086 0.773 -0.018974574 2.0365742e-38 283 254
-0.048791755 0.773 -0.018974574 2.0457936e-38 284 254
-0.047436431 0.773 -0.018974574 2.0457936e-38 285 254
-0.046081103 0.773 -0.018974574 2.0183147e-38 286 254
-0.044725779 0.773 -0.018974574 2.0183147e-38 287 254
-0.043370452 0.773 -0.018974574 2.0090597e-38 288 254
-0.042015124 0.773 -0.018974574 1.981437e-38 289 254
-0.0406598 0.773 -0.018974574 1.9721821e-38 290 254
-0.039355319 0.77399999 -0.018999118 1.9537071e-38 291 254
-0.037998237 0.77399999 -0.018999118 1.9169366e-38 292 254
-0.036641158 0.77399999 -0.018999118 1.8984616e-38 293 254
-0.03528408 0.77399999 -0.018999118 1.8432524e-38 294 254
-0.033927001 0.77399999 -0.018999118 1.8155938e-38 295 254
-0.032654081 0.77600002 -0.019048214 1.8063392e-38 296 254
-0.031293493 0.77600002 -0.019048214 1.7786806e-38 297 254
-0.030087199 0.77999997 -0.0191464 1.7694612e-38 298 254
-0.028719598 0.77999997 -0.0191464 1.7509862e-38 299 254
-0.027351998 0.77999997 -0.0191464 1.7418022e-38 300 254
-0.025984399 0.77999997 -0.0191464 1.704924e-38 301 254
-0.024616797 0.77999997 -0.0191464 1.6865918e-38 302 254
-0.023249198 0.77999997 -0.0191464 1.6589691e-38 303 254
-0.021881599 0.77999997 -0.0191464 1.6402773e-38 304 254
-0.020540299 0.78100002 -0.019170946 1.5942154e-38 305 254
-0.019170946 0.78100002 -0.019170946 1.4838693e-38 306 254
-0.017847179 0.78299999 -0.019220039 1.4561747e-38 307 254
-0.01655848 0.787 -0.019318225 1.4285536e-38 308 254
-0.015178605 0.787 -0.019318225 1.419334e-38 309 254
-0.013833799 0.78899997 -0.019367319 1.4100791e-38 310 254
-0.012450419 0.78899997 -0.019367319 1.3916759e-38 311 254
-0.011067039 0.78899997 -0.019367319 1.3824563e-38 312 254
-0.0096836593 0.78899997 -0.019367319 1.3639813e-38 313 254
-0.0083108004 0.79000002 -0.019391866 1.3456504e-38 314 254
-0.0069256667 0.79000002 -0.019391866 1.3364308e-38 315 254
-0.0055405335 0.79000002 -0.019391866 1.3088444e-38 316 254
-0.00416592 0.792 -0.01944096 1.2996247e-38 317 254
-0.0027772798 0.792 -0.01944096 1.2628551e-38 318 254
-0.0013886399 0.792 -0.01944096 1.2536355e-38 319 254
0 0.792 -0.01944096 1.2627835e-38 320 254
0.0013886399 0.792 -0.01944096 1.2627835e-38 321 254
0.0027772798 0.792 -0.01944096 1.2718954e-38 322 254
0.00416592 0.792 -0.01944096 1.2718954e-38 323 254
0.0055545596 0.792 -0.01944096 1.2443088e-38 324 254
0.0069607338 0.79400003 -0.019490054 1.2350892e-38 325 254
0.0083528794 0.79400003 -0.019490054 1.2443438e-38 326 254
0.0097695729 0.796 -0.019539146 1.2351242e-38 327 254
0.011165227 0.796 -0.019539146 1.2443075e-38 328 254
0.01256088 0.796 -0.019539146 1.2350878e-38 329 254
0.013956533 0.796 -0.019539146 1.2259045e-38 330 254
0.015390759 0.79799998 -0.019588239 1.2259045e-38 331 254
0.016789921 0.79799998 -0.019588239 1.207573e-38 332 254
0.018189078 0.79799998 -0.019588239 1.207573e-38 333 254
0.019588239 0.79799998 -0.019588239 1.2167203e-38 334 254
0.020987399 0.79799998 -0.019588239 1.2259398e-38 335 254
0.022442667 0.80000001 -0.019637333 1.2258329e-38 336 254
0.023845334 0.80000001 -0.019637333 1.2258329e-38 337 254
0.025248 0.80000001 -0.019637333 1.1523673e-38 338 254
0.026584039 0.79799998 -0.019588239 1.2076847e-38 339 254
0.027983198 0.79799998 -0.019588239 1.2170873e-38 340 254
0.029382357 0.79799998 -0.019588239 1.2632211e-38 341 254
0.030781519 0.79799998 -0.019588239 1.2999922e-38 342 254
0.032100026 0.796 -0.019539146 1.281517e-38 343 254
0.033495679 0.796 -0.019539146 1.272116e-38 344 254
0.03489133 0.796 -0.019539146 1.1891399e-38 345 254
0.036195815 0.79400003 -0.019490054 1.1796301e-38 346 254
0.037587963 0.79400003 -0.019490054 1.0966181e-38 347 254
0.038980108 0.79400003 -0.019490054 1.0872175e-38 348 254
0.040270559 0.792 -0.01944096 1.0134249e-38 349 254
0.041659199 0.792 -0.01944096 9.6732754e-39 350 254
0.043156546 0.79400003 -0.019490054 9.9498609e-39 351 254
0.044548694 0.79400003 -0.019490054 1.0409789e-38 352 254
0.045709401 0.79000002 -0.019391866 1.0593821e-38 353 254
0.047094531 0.79000002 -0.019391866 1.0872578e-38 354 254
0.048602398 0.792 -0.01944096 1.1610145e-38 355 254
0.049864799 0.79000002 -0.019391866 1.2164023e-38 356 254
0.051249932 0.79000002 -0.019391866 1.2440611e-38 357 254
0.052635066 0.79000002 -0.019391866 1.3270002e-38 358 254
0.0540202 0.79000002 -0.019391866 1.3362198e-38 359 254
0.055405334 0.79000002 -0.019391866 1.3544453e-38 360 254
0.056790464 0.79000002 -0.019391866 1.446677e-38 361 254
0.058175597 0.79000002 -0.019391866 1.5670756e-38 362 254
0.059560735 0.79000002 -0.019391866 1.7606863e-38 363 254
0.060945868 0.79000002 -0.019391866 1.7888141e-38 364 254
0.062252093 0.78899997 -0.019367319 1.853351e-38 365 254
0.063635476 0.78899997 -0.019367319 1.9083442e-38 366 254
0.065018855 0.78899997 -0.019367319 1.9083442e-38 367 254
-0.059171494 0.76700002 -0.020172099 1.8433966e-38 276 255
-0.057826683 0.76700002 -0.020172099 1.8895305e-38 277 255
-0.056481879 0.76700002 -0.020172099 1.9997682e-38 278 255
-0.055137072 0.76700002 -0.020172099 2.0182074e-38 279 255
-0.053792264 0.76700002 -0.020172099 2.0274624e-38 280 255
-0.052584216 0.76899999 -0.0202247 2.0274624e-38 281 255
-0.05136916 0.77100003 -0.020277301 2.0458655e-38 282 255
-0.050017338 0.77100003 -0.020277301 2.0458655e-38 283 255
-0.04866552 0.77100003 -0.020277301 2.0458655e-38 284 255
-0.047313701 0.77100003 -0.020277301 2.0182427e-38 285 255
-0.046081103 0.773 -0.0203299 2.0089875e-38 286 255
-0.044610061 0.77100003 -0.020277301 1.999768e-38 287 255
-0.043258239 0.77100003 -0.020277301 1.9905487e-38 288 255
-0.042015124 0.773 -0.0203299 1.9628901e-38 289 255
-0.0406598 0.773 -0.0203299 1.9536707e-38 290 255
-0.039304473 0.773 -0.0203299 1.9351957e-38 291 255
-0.037949149 0.773 -0.0203299 1.8984604e-38 292 255
-0.036593821 0.773 -0.0203299 1.8523626e-38 293 255
-0.035238493 0.773 -0.0203299 1.8339953e-38 294 255
-0.033927001 0.77399999 -0.020356199 1.7971529e-38 295 255
-0.032569919 0.77399999 -0.020356199 1.7694959e-38 296 255
-0.031293493 0.77600002 -0.0204088 1.7510568e-38 297 255
-0.029932907 0.77600002 -0.0204088 1.7510218e-38 298 255
-0.028572321 0.77600002 -0.0204088 1.7233272e-38 299 255
-0.027211733 0.77600002 -0.0204088 1.6498211e-38 300 255
-0.025984399 0.77999997 -0.020513998 1.6037233e-38 301 255
-0.024616797 0.77999997 -0.020513998 1.5760627e-38 302 255
-0.023249198 0.77999997 -0.020513998 1.529965e-38 303 255
-0.021881599 0.77999997 -0.020513998 1.5113109e-38 304 255
-0.020540299 0.78100002 -0.020540299 1.5113109e-38 305 255
-0.019170946 0.78100002 -0.020540299 1.4193693e-38 306 255
-0.017892767 0.78500003 -0.020645501 1.4285889e-38 307 255
-0.016516401 0.78500003 -0.020645501 1.4193343e-38 308 255
-0.015178605 0.787 -0.0206981 1.4100789e-38 309 255
-0.013798732 0.787 -0.0206981 1.3825279e-38 310 255
-0.012450419 0.78899997 -0.0207507 1.3825279e-38 311 255
-0.011067039 0.78899997 -0.0207507 1.3640535e-38 312 255
-0.0096836593 0.78899997 -0.0207507 1.3640535e-38 313 255
-0.0083108004 0.79000002 -0.020777 1.3272478e-38 314 255
-0.0069256667 0.79000002 -0.020777 1.3088088e-38 315 255
-0.0055405335 0.79000002 -0.020777 1.2903699e-38 316 255
-0.00416592 0.792 -0.020829599 1.2718949e-38 317 255
-0.0027772798 0.792 -0.020829599 1.2443443e-38 318 255
-0.0013886399 0.792 -0.020829599 1.2443443e-38 319 255
0 0.79400003 -0.0208822 1.2718233e-38 320 255
0.0013921467 0.79400003 -0.0208822 1.2718233e-38 321 255
0.0027842934 0.79400003 -0.0208822 1.2626756e-38 322 255
0.0041764397 0.79400003 -0.0208822 1.2626756e-38 323 255
0.0055685868 0.79400003 -0.0208822 1.2443443e-38 324 255
0.0069607338 0.79400003 -0.0208822 1.2443443e-38 325 255
0.0083528794 0.79400003 -0.0208822 1.2442722e-38 326 255
0.0097695729 0.796 -0.0209348 1.2626753e-38 327 255
0.011165227 0.796 -0.0209348 1.2351245e-38 328 255
0.01256088 0.796 -0.0209348 1.2351245e-38 329 255
0.013991599 0.79799998 -0.020987399 1.2075736e-38 330 255
0.015390759 0.79799998 -0.020987399 1.2075736e-38 331 255
0.016789921 0.79799998 -0.020987399 1.2259048e-38 332 255
0.018189078 0.79799998 -0.020987399 1.2259048e-38 333 255
0.019588239 0.79799998 -0.020987399 1.2075747e-38 334 255
0.020987399 0.79799998 -0.020987399 1.2260497e-38 335 255
0.022442667 0.80000001 -0.02104 1.2353088e-38 336 255
0.023845334 0.80000001 -0.02104 1.336688e-38 337 255
0.036195815 0.79400003 -0.0208822 1.7605753e-38 346 255
0.037587963 0.79400003 -0.0208822 1.6683796e-38 347 255
0.038980108 0.79400003 -0.0208822 1.5669628e-38 348 255
0.040270559 0.792 -0.020829599 1.3733521e-38 349 255
0.041659199 0.792 -0.020829599 1.2347683e-38 350 255
0.043156546 0.79400003 -0.0208822 1.050413e-38 351 255
0.044548694 0.79400003 -0.0208822 9.3988549e-39 352 255
0.045709401 0.79000002 -0.020777 9.4910506e-39 353 255
0.047094531 0.79000002 -0.020777 1.1054427e-38 354 255
0.048602398 0.792 -0.020829599 1.1792351e-38 355 255
0.049864799 0.79000002 -0.020777 1.2252617e-38 356 255
0.051249932 0.79000002 -0.020777 1.2713954e-38 357 255
0.052635066 0.79000002 -0.020777 1.30867e-38 358 255
0.0540202 0.79000002 -0.020777 1.3732069e-38 359 255
0.055405334 0.79000002 -0.020777 1.3548051e-38 360 255
0.056790464 0.79000002 -0.020777 1.419342e-38 361 255
0.058175597 0.79000002 -0.020777 1.3922615e-38 362 255
0.059560735 0.79000002 -0.020777 1.4660181e-38 363 255
0.060945868 0.79000002 -0.020777 1.5124772e-38 364 255
0.062252093 0.78899997 -0.0207507 1.7337467e-38 365 255
0.063635476 0.78899997 -0.0207507 1.9084511e-38 366 255
0.065018855 0.78899997 -0.0207507 1.9176708e-38 367 255
-0.060437392 0.76599997 -0.021488851 1.7973357e-38 275 256
-0.059094343 0.76599997 -0.021488851 1.907715e-38 276 256
-0.057751291 0.76599997 -0.021488851 1.9630324e-38 277 256
-0.056408234 0.76599997 -0.021488851 2.0181345e-38 278 256
-0.055065181 0.76599997 -0.021488851 2.0365736e-38 279 256
-0.053792264 0.76700002 -0.021516906 2.0275343e-38 280 256
-0.052447457 0.76700002 -0.021516906 2.0275343e-38 281 256
-0.051102653 0.76700002 -0.021516906 2.0550132e-38 282 256
-0.04988759 0.76899999 -0.021573013 2.0550132e-38 283 256
-0.048539277 0.76899999 -0.021573013 2.0365386e-38 284 256
-0.047190964 0.76899999 -0.021573013 2.027319e-38 285 256
-0.045961879 0.77100003 -0.021629119 1.9997329e-38 286 256
-0.044494338 0.76899999 -0.021573013 1.9905134e-38 287 256
-0.043146025 0.76899999 -0.021573013 1.9536354e-38 288 256
-0.04190642 0.77100003 -0.021629119 1.9444158e-38 289 256
-0.0406598 0.773 -0.021685226 1.8984616e-38 290 256
-0.039304473 0.773 -0.021685226 1.870839e-38 291 256
-0.037949149 0.773 -0.021685226 1.8156285e-38 292 256
-0.036593821 0.773 -0.021685226 1.7971894e-38 293 256
-0.035238493 0.773 -0.021685226 1.7604189e-38 294 256
-0.033927001 0.77399999 -0.021713279 1.7511635e-38 295 256
-0.032569919 0.77399999 -0.021713279 1.7511287e-38 296 256
-0.031212838 0.77399999 -0.021713279 1.723506e-38 297 256
-0.029855758 0.77399999 -0.021713279 1.7049593e-38 298 256
-0.028572321 0.77600002 -0.021769386 1.6588256e-38 299 256
-0.027211733 0.77600002 -0.021769386 1.5944316e-38 300 256
-0.025917772 0.778 -0.021825492 1.5391501e-38 301 256
-0.024553679 0.778 -0.021825492 1.5114907e-38 302 256
-0.023249198 0.77999997 -0.021881599 1.4746126e-38 303 256
-0.021881599 0.77999997 -0.021881599 1.4653227e-38 304 256
-0.020540299 0.78100002 -0.021909652 1.4653227e-38 305 256
-0.019170946 0.78100002 -0.021909652 1.4009678e-38 306 256
-0.017892767 0.78500003 -0.022021867 1.4009678e-38 307 256
-0.016516401 0.78500003 -0.022021867 1.3641611e-38 308 256
-0.015140033 0.78500003 -0.022021867 1.3641611e-38 309 256
-0.013798732 0.787 -0.022077972 1.3549415e-38 310 256
-0.012450419 0.78899997 -0.022134079 1.3549415e-38 311 256
-0.011067039 0.78899997 -0.022134079 1.3732733e-38 312 256
-0.0096836593 0.78899997 -0.022134079 1.3456148e-38 313 256
-0.0083108004 0.79000002 -0.022162134 1.3363599e-38 314 256
-0.0069256667 0.79000002 -0.022162134 1.3087011e-38 315 256
-0.0055405335 0.79000002 -0.022162134 1.2811147e-38 316 256
-0.00416592 0.792 -0.022218239 1.2626756e-38 317 256
-0.0027772798 0.792 -0.022218239 1.216758e-38 318 256
-0.0013886399 0.792 -0.022218239 1.216758e-38 319 256
0 0.79400003 -0.022274347 1.2443088e-38 320 256
0.0013921467 0.79400003 -0.022274347 1.2350892e-38 321 256
0.0027842934 0.79400003 -0.022274347 1.2442369e-38 322 256
0.0041764397 0.79400003 -0.022274347 1.26264e-38 323 256
0.0055685868 0.79400003 -0.022274347 1.2626756e-38 324 256
0.0069607338 0.79400003 -0.022274347 1.2626756e-38 325 256
0.0083528794 0.79400003 -0.022274347 1.2442722e-38 326 256
0.0097695729 0.796 -0.022330454 1.2350525e-38 327 256
0.011165227 0.796 -0.022330454 1.2350525e-38 328 256
0.01256088 0.796 -0.022330454 1.2350525e-38 329 256
0.013991599 0.79799998 -0.022386558 1.2166499e-38 330 256
0.015390759 0.79799998 -0.022386558 1.2166499e-38 331 256
0.016832 0.80000001 -0.022442667 1.2166149e-38 332 256
0.018280253 0.80199999 -0.022498772 1.2350542e-38 333 256
0.040270559 0.792 -0.022218239 1.7422803e-38 349 256
0.041659199 0.792 -0.022218239 1.6867815e-38 350 256
0.043156546 0.79400003 -0.022274347 1.5484881e-38 351 256
0.044548694 0.79400003 -0.022274347 1.4374923e-38 352 256
0.045825116 0.792 -0.022218239 1.2623208e-38 353 256
0.047213759 0.792 -0.022218239 1.1884544e-38 354 256
0.048479669 0.79000002 -0.022162134 1.1146979e-38 355 256
0.049864799 0.79000002 -0.022162134 1.1058027e-38 356 256
0.051249932 0.79000002 -0.022162134 1.2164373e-38 357 256
0.052635066 0.79000002 -0.022162134 1.271829e-38 358 256
0.0540202 0.79000002 -0.022162134 1.3271464e-38 359 256
0.055405334 0.79000002 -0.022162134 1.3639167e-38 360 256
0.056790464 0.79000002 -0.022162134 1.3731722e-38 361 256
0.058322877 0.792 -0.022218239 1.2539662e-38 362 256
0.059711516 0.792 -0.022218239 1.2815889e-38 363 256
0.061100159 0.792 -0.022218239 1.3006051e-38 364 256
0.062330995 0.79000002 -0.022162134 1.6601322e-38 365 256
0.063635476 0.78899997 -0.022134079 1.8808281e-38 366 256
0.065018855 0.78899997 -0.022134079 1.9177064e-38 367 256
-0.063123502 0.76599997 -0.022831906 1.6776278e-38 273 257
-0.061780453 0.76599997 -0.022831906 1.8432502e-38 274 257
-0.060437392 0.76599997 -0.022831906 1.9170067e-38 275 257
-0.059094343 0.76599997 -0.022831906 2.0088781e-38 276 257
-0.057751291 0.76599997 -0.022831906 2.0273172e-38 277 257
-0.056408234 0.76599997 -0.022831906 1.9906913e-38 278 257
-0.055065181 0.76599997 -0.022831906 2.0275696e-38 279 257
-0.053722132 0.76599997 -0.022831906 2.0367541e-38 280 257
-0.052379075 0.76599997 -0.022831906 2.0367541e-38 281 257
-0.051102653 0.76700002 -0.022861714 2.0457583e-38 282 257
-0.049757849 0.76700002 -0.022861714 2.0457583e-38 283 257
-0.048413042 0.76700002 -0.022861714 2.0180641e-38 284 257
-0.047068235 0.76700002 -0.022861714 1.999661e-38 285 257
-0.045723427 0.76700002 -0.022861714 1.9537074e-38 286 257
-0.04437862 0.76700002 -0.022861714 1.9444877e-38 287 257
-0.043033812 0.76700002 -0.022861714 1.9260843e-38 288 257
-0.041689005 0.76700002 -0.022861714 1.9076452e-38 289 257
-0.0404494 0.76899999 -0.022921326 1.8523641e-38 290 257
-0.03920278 0.77100003 -0.02298094 1.8523641e-38 291 257
-0.037850961 0.77100003 -0.02298094 1.7788228e-38 292 257
-0.036593821 0.773 -0.023040552 1.7603836e-38 293 257
-0.035238493 0.773 -0.023040552 1.7235774e-38 294 257
-0.033883166 0.773 -0.023040552 1.7235774e-38 295 257
-0.032569919 0.77399999 -0.02307036 1.723506e-38 296 257
-0.031212838 0.77399999 -0.02307036 1.6865918e-38 297 257
-0.029855758 0.77399999 -0.02307036 1.6587886e-38 298 257
-0.028498679 0.77399999 -0.02307036 1.5942517e-38 299 257
-0.027211733 0.77600002 -0.023129974 1.5391148e-38 300 257
-0.025917772 0.778 -0.023189586 1.5022005e-38 301 257
-0.024553679 0.778 -0.023189586 1.4562479e-38 302 257
-0.023249198 0.77999997 -0.023249198 1.4470283e-38 303 257
-0.021881599 0.77999997 -0.023249198 1.4561044e-38 304 257
-0.020540299 0.78100002 -0.023279008 1.4284817e-38 305 257
-0.019170946 0.78100002 -0.023279008 1.3734167e-38 306 257
-0.017892767 0.78500003 -0.023398234 1.3734167e-38 307 257
-0.016516401 0.78500003 -0.023398234 1.3550134e-38 308 257
-0.015140033 0.78500003 -0.023398234 1.3366103e-38 309 257
-0.013833799 0.78899997 -0.023517458 1.3273554e-38 310 257
-0.012450419 0.78899997 -0.023517458 1.3273554e-38 311 257
-0.011067039 0.78899997 -0.023517458 1.3273557e-38 312 257
-0.0096836593 0.78899997 -0.023517458 1.3088807e-38 313 257
-0.0083108004 0.79000002 -0.023547266 1.2995894e-38 314 257
-0.0069256667 0.79000002 -0.023547266 1.2811503e-38 315 257
-0.0055545596 0.792 -0.02360688 1.244309e-38 316 257
-0.00416592 0.792 -0.02360688 1.2258698e-38 317 257
-0.0027772798 0.792 -0.02360688 1.1982478e-38 318 257
-0.0013921467 0.79400003 -0.023666494 1.1982478e-38 319 257
0 0.79400003 -0.023666494 1.2258346e-38 320 257
0.0013921467 0.79400003 -0.023666494 1.2258346e-38 321 257
0.0027842934 0.79400003 -0.023666494 1.234982e-38 322 257
0.0041764397 0.79400003 -0.023666494 1.2442374e-38 323 257
0.0055685868 0.79400003 -0.023666494 1.2258343e-38 324 257
0.0069782664 0.796 -0.023726106 1.2258343e-38 325 257
0.0083739199 0.796 -0.023726106 1.2257979e-38 326 257
0.0097695729 0.796 -0.023726106 1.2165424e-38 327 257
0.011165227 0.796 -0.023726106 1.2165793e-38 328 257
0.01256088 0.796 -0.023726106 1.1981762e-38 329 257
0.013956533 0.796 -0.023726106 1.170662e-38 330 257
0.044548694 0.79400003 -0.023666494 1.9170927e-38 352 257
0.045825116 0.792 -0.02360688 1.6866395e-38 353 257
0.047094531 0.79000002 -0.023547266 1.4743682e-38 354 257
0.048479669 0.79000002 -0.023547266 1.1609389e-38 355 257
0.049864799 0.79000002 -0.023547266 1.0966531e-38 356 257
0.051249932 0.79000002 -0.023547266 1.2165074e-38 357 257
0.052635066 0.79000002 -0.023547266 1.3084554e-38 358 257
0.0540202 0.79000002 -0.023547266 1.3361141e-38 359 257
0.055405334 0.79000002 -0.023547266 1.3268946e-38 360 257
0.056790464 0.79000002 -0.023547266 1.2991999e-38 361 257
0.058322877 0.792 -0.02360688 1.2352747e-38 362 257
0.059711516 0.792 -0.02360688 1.3090312e-38 363 257
0.061100159 0.792 -0.02360688 1.3924767e-38 364 257
0.062488798 0.792 -0.02360688 1.7336006e-38 365 257
0.063716128 0.79000002 -0.023547266 1.8808637e-38 366 257
-0.064298242 0.764 -0.024111839 1.7512736e-38 272 258
-0.062958695 0.764 -0.024111839 1.806591e-38 273 258
-0.061619148 0.764 -0.024111839 1.9352298e-38 274 258
-0.0602796 0.764 -0.024111839 1.9812917e-38 275 258
-0.058940053 0.764 -0.024111839 1.9997664e-38 276 258
-0.057600506 0.764 -0.024111839 2.0366445e-38 277 258
-0.056260962 0.764 -0.024111839 2.01835e-38 278 258
-0.055065181 0.76599997 -0.024174958 2.0275696e-38 279 258
-0.053722132 0.76599997 -0.024174958 2.0458658e-38 280 258
-0.052379075 0.76599997 -0.024174958 2.0458658e-38 281 258
-0.051036026 0.76599997 -0.024174958 2.0365742e-38 282 258
-0.04969297 0.76599997 -0.024174958 2.0180992e-38 283 258
-0.048349917 0.76599997 -0.024174958 1.9537427e-38 284 258
-0.047006864 0.76599997 -0.024174958 1.9537427e-38 285 258
-0.045663811 0.76599997 -0.024174958 1.9168648e-38 286 258
-0.044320758 0.76599997 -0.024174958 1.9168648e-38 287 258
-0.042977702 0.76599997 -0.024174958 1.8983898e-38 288 258
-0.041689005 0.76700002 -0.024206521 1.8799505e-38 289 258
-0.040344197 0.76700002 -0.024206521 1.8431799e-38 290 258
-0.038999394 0.76700002 -0.024206521 1.8155572e-38 291 258
-0.03775277 0.76899999 -0.024269639 1.7971894e-38 292 258
-0.036499143 0.77100003 -0.02433276 1.7510916e-38 293 258
-0.035238493 0.773 -0.024395877 1.7143212e-38 294 258
-0.033883166 0.773 -0.024395877 1.6866265e-38 295 258
-0.032569919 0.77399999 -0.02442744 1.6404574e-38 296 258
-0.031212838 0.77399999 -0.02442744 1.5943237e-38 297 258
-0.029855758 0.77399999 -0.02442744 1.5849968e-38 298 258
-0.028498679 0.77399999 -0.02442744 1.5481545e-38 299 258
-0.027141599 0.77399999 -0.02442744 1.5205694e-38 300 258
-0.025851147 0.77600002 -0.024490559 1.5113499e-38 301 258
-0.024553679 0.778 -0.024553679 1.4470296e-38 302 258
-0.023249198 0.77999997 -0.024616797 1.4285904e-38 303 258
