# .PCD v.7 - Point Cloud Data file format
FIELDS x y z rgb imX imY
SIZE 4 4 4 4 4 4
TYPE F F F F F F
COUNT 1 1 1 1 1 1
WIDTH 851
HEIGHT 1
VIEWPOINT 0 0 0 1 0 0 0
POINTS 851
DATA ascii
-0.019032432 0.83499998 0.055633266 1.3639421e-38 307 202
-0.017568398 0.83499998 0.055633266 1.3639408e-38 308 202
-0.016104365 0.83499998 0.055633266 1.3547213e-38 309 202
-0.014605266 0.833 0.055500012 1.3270993e-38 310 202
-0.01314474 0.833 0.055500012 1.3270993e-38 311 202
-0.011684213 0.833 0.055500012 1.3179897e-38 312 202
-0.010223686 0.833 0.055500012 1.3548321e-38 313 202
-0.0087421201 0.83099997 0.055366758 1.3916383e-38 314 202
-0.0072850995 0.83099997 0.055366758 1.419297e-38 315 202
-0.0058280798 0.83099997 0.055366758 1.4286955e-38 316 202
-0.0043710601 0.83099997 0.055366758 1.4563901e-38 317 202
-0.0029070266 0.829 0.055233505 1.5024526e-38 318 202
-0.0014535133 0.829 0.055233505 1.5116722e-38 319 202
0 0.829 0.055233505 1.5483706e-38 320 202
0.0014535133 0.829 0.055233505 1.5576262e-38 321 202
0.0029000132 0.82700002 0.055100251 1.5851417e-38 322 202
0.0043500196 0.82700002 0.055100251 1.6036167e-38 323 202
0.0058000265 0.82700002 0.055100251 1.5669189e-38 324 202
0.0072500333 0.82700002 0.055100251 1.5853939e-38 325 202
0.0087000392 0.82700002 0.055100251 1.6037604e-38 326 202
0.010150046 0.82700002 0.055100251 1.6129802e-38 327 202
0.011600053 0.82700002 0.055100251 1.6313477e-38 328 202
0.01305006 0.82700002 0.055100251 1.6313477e-38 329 202
0.014500067 0.82700002 0.055100251 1.6589706e-38 330 202
0.015950073 0.82700002 0.055100251 1.6681902e-38 331 202
0.017400078 0.82700002 0.055100251 1.6682255e-38 332 202
0.018850086 0.82700002 0.055100251 1.6682255e-38 333 202
0.020300092 0.82700002 0.055100251 1.6682249e-38 334 202
0.0217501 0.82700002 0.055100251 1.6774445e-38 335 202
0.023143999 0.82499999 0.054966997 1.6774801e-38 336 202
0.024590498 0.82499999 0.054966997 1.6866998e-38 337 202
0.026036998 0.82499999 0.054966997 1.6867347e-38 338 202
0.027416872 0.82300001 0.054833744 1.6959544e-38 339 202
0.028859867 0.82300001 0.054833744 1.6960263e-38 340 202
0.030376498 0.82499999 0.054966997 1.6960263e-38 341 202
0.031745855 0.82300001 0.054833744 1.7143934e-38 342 202
0.03310819 0.82099998 0.05470049 1.7236129e-38 343 202
0.034547675 0.82099998 0.05470049 1.7327959e-38 344 202
0.035987165 0.82099998 0.05470049 1.7235405e-38 345 202
0.037426651 0.82099998 0.05470049 1.7235761e-38 346 202
0.03886614 0.82099998 0.05470049 1.7143565e-38 347 202
0.040403813 0.82300001 0.054833744 1.7051719e-38 348 202
0.041846808 0.82300001 0.054833744 1.7051719e-38 349 202
0.043289799 0.82300001 0.054833744 1.6958798e-38 350 202
0.044732794 0.82300001 0.054833744 1.6958798e-38 351 202
0.046175785 0.82300001 0.054833744 1.6865884e-38 352 202
0.04761878 0.82300001 0.054833744 1.6865884e-38 353 202
0.049061771 0.82300001 0.054833744 1.6589293e-38 354 202
0.050504766 0.82300001 0.054833744 1.6497097e-38 355 202
0.051821519 0.82099998 0.05470049 1.6403832e-38 356 202
0.053261004 0.82099998 0.05470049 1.5850659e-38 357 202
0.05470049 0.82099998 0.05470049 1.529787e-38 358 202
0.056003217 0.81900001 0.054567236 1.5113838e-38 359 202
0.057298932 0.81699997 0.054433983 1.4195177e-38 360 202
0.058731399 0.81699997 0.054433983 1.4748351e-38 361 202
-0.04138568 0.84299999 0.054688219 5.9090542e-39 292 203
-0.039812941 0.84100002 0.054558471 7.9373581e-39 293 203
-0.038338386 0.84100002 0.054558471 1.0049581e-38 294 203
-0.03686383 0.84100002 0.054558471 1.0325808e-38 295 203
-0.035389278 0.84100002 0.054558471 1.1427114e-38 296 203
-0.033914726 0.84100002 0.054558471 1.1611865e-38 297 203
-0.032440174 0.84100002 0.054558471 1.1338153e-38 298 203
-0.030891977 0.83899999 0.054428723 1.1614379e-38 299 203
-0.029420931 0.83899999 0.054428723 1.2257229e-38 300 203
-0.027949886 0.83899999 0.054428723 1.2257229e-38 301 203
-0.026415719 0.83700001 0.054298978 1.2900802e-38 302 203
-0.02494818 0.83700001 0.054298978 1.3085195e-38 303 203
-0.023424532 0.83499998 0.05416923 1.2809335e-38 304 203
-0.021960499 0.83499998 0.05416923 1.2809335e-38 305 203
-0.020496465 0.83499998 0.05416923 1.2900449e-38 306 203
-0.019032432 0.83499998 0.05416923 1.2900449e-38 307 203
-0.017568398 0.83499998 0.05416923 1.2624923e-38 308 203
-0.016104365 0.83499998 0.05416923 1.244053e-38 309 203
-0.014640332 0.83499998 0.05416923 1.2257938e-38 310 203
-0.01314474 0.833 0.054039486 1.2350134e-38 311 203
-0.011684213 0.833 0.054039486 1.2441992e-38 312 203
-0.010223686 0.833 0.054039486 1.2626384e-38 313 203
-0.0087421201 0.83099997 0.053909738 1.2718583e-38 314 203
-0.0072850995 0.83099997 0.053909738 1.2718583e-38 315 203
-0.0058280798 0.83099997 0.053909738 1.2995153e-38 316 203
-0.0043710601 0.83099997 0.053909738 1.327174e-38 317 203
-0.0029070266 0.829 0.053779993 1.3641238e-38 318 203
-0.0014535133 0.829 0.053779993 1.3917825e-38 319 203
0 0.829 0.053779993 1.4378082e-38 320 203
0.0014535133 0.829 0.053779993 1.4562832e-38 321 203
0.0029000132 0.82700002 0.053650245 1.548119e-38 322 203
0.0043500196 0.82700002 0.053650245 1.5849971e-38 323 203
0.0058000265 0.82700002 0.053650245 1.5392232e-38 324 203
0.0072500333 0.82700002 0.053650245 1.5484429e-38 325 203
0.0087000392 0.82700002 0.053650245 1.6127634e-38 326 203
0.010150046 0.82700002 0.053650245 1.6219829e-38 327 203
0.011600053 0.82700002 0.053650245 1.6219827e-38 328 203
0.01305006 0.82700002 0.053650245 1.6312022e-38 329 203
0.014500067 0.82700002 0.053650245 1.6404588e-38 330 203
0.015950073 0.82700002 0.053650245 1.6497142e-38 331 203
0.017400078 0.82700002 0.053650245 1.6497508e-38 332 203
0.018850086 0.82700002 0.053650245 1.6497508e-38 333 203
0.020251 0.82499999 0.053520497 1.6589338e-38 334 203
0.021697499 0.82499999 0.053520497 1.6681533e-38 335 203
0.023143999 0.82499999 0.053520497 1.6681886e-38 336 203
0.024530886 0.82300001 0.053390753 1.6865918e-38 337 203
0.025973879 0.82300001 0.053390753 1.6774798e-38 338 203
0.027416872 0.82300001 0.053390753 1.6866994e-38 339 203
0.028859867 0.82300001 0.053390753 1.6867717e-38 340 203
0.03030286 0.82300001 0.053390753 1.6867717e-38 341 203
0.031668708 0.82099998 0.053261004 1.6959913e-38 342 203
0.03310819 0.82099998 0.053261004 1.7052108e-38 343 203
0.034547675 0.82099998 0.053261004 1.732725e-38 344 203
0.035987165 0.82099998 0.053261004 1.732725e-38 345 203
0.037426651 0.82099998 0.053261004 1.732725e-38 346 203
0.03886614 0.82099998 0.053261004 1.732725e-38 347 203
0.040305622 0.82099998 0.053261004 1.7235408e-38 348 203
0.041745111 0.82099998 0.053261004 1.7235408e-38 349 203
0.043184597 0.82099998 0.053261004 1.7051368e-38 350 203
0.044624086 0.82099998 0.053261004 1.6958814e-38 351 203
0.046063572 0.82099998 0.053261004 1.7234315e-38 352 203
0.047503054 0.82099998 0.053261004 1.714176e-38 353 203
0.048942544 0.82099998 0.053261004 1.7049918e-38 354 203
0.050382029 0.82099998 0.053261004 1.6773691e-38 355 203
0.051821519 0.82099998 0.053261004 1.6864435e-38 356 203
0.053261004 0.82099998 0.053261004 1.6587848e-38 357 203
0.054567236 0.81900001 0.053131256 1.6311278e-38 358 203
0.056003217 0.81900001 0.053131256 1.5942854e-38 359 203
0.057439201 0.81900001 0.053131256 1.5298952e-38 360 203
0.058875177 0.81900001 0.053131256 1.4745778e-38 361 203
0.060163878 0.81699997 0.053001508 1.3275735e-38 362 203
0.061596353 0.81699997 0.053001508 1.4290247e-38 363 203
0.06302882 0.81699997 0.053001508 1.4661976e-38 364 203
0.064619094 0.81900001 0.053131256 1.586052e-38 365 203
0.066055074 0.81900001 0.053131256 1.6230409e-38 366 203
-0.039907619 0.84299999 0.053210158 1.0047446e-38 293 204
-0.038429558 0.84299999 0.053210158 1.0603474e-38 294 204
-0.03686383 0.84100002 0.053083919 1.0603474e-38 295 204
-0.035389278 0.84100002 0.053083919 1.0878611e-38 296 204
-0.033914726 0.84100002 0.053083919 1.1155556e-38 297 204
-0.032440174 0.84100002 0.053083919 1.1614732e-38 298 204
-0.030965621 0.84100002 0.053083919 1.1614732e-38 299 204
-0.029420931 0.83899999 0.052957676 1.1981721e-38 300 204
-0.027949886 0.83899999 0.052957676 1.2073917e-38 301 204
-0.026478838 0.83899999 0.052957676 1.234943e-38 302 204
-0.02494818 0.83700001 0.052831437 1.2533822e-38 303 204
-0.023480639 0.83700001 0.052831437 1.2624588e-38 304 204
-0.021960499 0.83499998 0.052705199 1.2624588e-38 305 204
-0.020496465 0.83499998 0.052705199 1.2716068e-38 306 204
-0.019032432 0.83499998 0.052705199 1.2623872e-38 307 204
-0.017568398 0.83499998 0.052705199 1.2532024e-38 308 204
-0.016104365 0.83499998 0.052705199 1.2347631e-38 309 204
-0.014640332 0.83499998 0.052705199 1.2256513e-38 310 204
-0.0131763 0.83499998 0.052705199 1.2164316e-38 311 204
-0.011712266 0.83499998 0.052705199 1.2164683e-38 312 204
-0.010223686 0.833 0.05257896 1.2256879e-38 313 204
-0.0087631596 0.833 0.05257896 1.2623866e-38 314 204
-0.0072850995 0.83099997 0.052452717 1.2623866e-38 315 204
-0.0058280798 0.83099997 0.052452717 1.2624219e-38 316 204
-0.0043710601 0.83099997 0.052452717 1.2716415e-38 317 204
-0.0029140399 0.83099997 0.052452717 1.262637e-38 318 204
-0.0014535133 0.829 0.052326478 1.2902599e-38 319 204
0 0.829 0.052326478 1.3271011e-38 320 204
0.0014535133 0.829 0.052326478 1.3455402e-38 321 204
0.0029000132 0.82700002 0.052200239 1.3824182e-38 322 204
0.0043500196 0.82700002 0.052200239 1.4193323e-38 323 204
0.0058000265 0.82700002 0.052200239 1.4285886e-38 324 204
0.0072500333 0.82700002 0.052200239 1.4746863e-38 325 204
0.0087000392 0.82700002 0.052200239 1.5114924e-38 326 204
0.010150046 0.82700002 0.052200239 1.5207119e-38 327 204
0.011600053 0.82700002 0.052200239 1.5116719e-38 328 204
0.01305006 0.82700002 0.052200239 1.5393666e-38 329 204
0.014500067 0.82700002 0.052200239 1.585177e-38 330 204
0.015950073 0.82700002 0.052200239 1.6036161e-38 331 204
0.017400078 0.82700002 0.052200239 1.6036161e-38 332 204
0.018804498 0.82499999 0.052073997 1.6312747e-38 333 204
0.020251 0.82499999 0.052073997 1.6404577e-38 334 204
0.021697499 0.82499999 0.052073997 1.6404577e-38 335 204
0.023087893 0.82300001 0.051947758 1.6588605e-38 336 204
0.024530886 0.82300001 0.051947758 1.6680802e-38 337 204
0.025973879 0.82300001 0.051947758 1.6589685e-38 338 204
0.027350245 0.82099998 0.051821519 1.6681881e-38 339 204
0.028789733 0.82099998 0.051821519 1.6682603e-38 340 204
0.030229218 0.82099998 0.051821519 1.6774798e-38 341 204
0.031668708 0.82099998 0.051821519 1.6866998e-38 342 204
0.03310819 0.82099998 0.051821519 1.6959194e-38 343 204
0.034547675 0.82099998 0.051821519 1.7142862e-38 344 204
0.035987165 0.82099998 0.051821519 1.7235057e-38 345 204
0.037426651 0.82099998 0.051821519 1.741837e-38 346 204
0.03886614 0.82099998 0.051821519 1.741837e-38 347 204
0.040305622 0.82099998 0.051821519 1.7327253e-38 348 204
0.041745111 0.82099998 0.051821519 1.7327253e-38 349 204
0.043184597 0.82099998 0.051821519 1.732688e-38 350 204
0.044624086 0.82099998 0.051821519 1.7234325e-38 351 204
0.046063572 0.82099998 0.051821519 1.732651e-38 352 204
0.047503054 0.82099998 0.051821519 1.7234315e-38 353 204
0.048942544 0.82099998 0.051821519 1.714176e-38 354 204
0.050382029 0.82099998 0.051821519 1.7049565e-38 355 204
0.051821519 0.82099998 0.051821519 1.6865884e-38 356 204
0.053131256 0.81900001 0.05169528 1.6589296e-38 357 204
0.054567236 0.81900001 0.05169528 1.6313429e-38 358 204
0.056003217 0.81900001 0.05169528 1.6036842e-38 359 204
0.057439201 0.81900001 0.05169528 1.6127969e-38 360 204
0.058875177 0.81900001 0.05169528 1.5574795e-38 361 204
0.060163878 0.81699997 0.051569037 1.4838696e-38 362 204
0.061596353 0.81699997 0.051569037 1.4930893e-38 363 204
0.06302882 0.81699997 0.051569037 1.4196995e-38 364 204
0.064619094 0.81900001 0.05169528 1.4750167e-38 365 204
0.066055074 0.81900001 0.05169528 1.4479752e-38 366 204
0.067491055 0.81900001 0.05169528 1.5678295e-38 367 204
0.069095351 0.82099998 0.051821519 1.6230046e-38 368 204
-0.038520735 0.84500003 0.051854834 1.1063729e-38 294 205
-0.036951501 0.84299999 0.051732097 1.0971175e-38 295 205
-0.03547344 0.84299999 0.051732097 1.1797676e-38 296 205
-0.033995379 0.84299999 0.051732097 1.1889872e-38 297 205
-0.032440174 0.84100002 0.051609367 1.1798755e-38 298 205
-0.030965621 0.84100002 0.051609367 1.1798755e-38 299 205
-0.029491065 0.84100002 0.051609367 1.1798406e-38 300 205
-0.027949886 0.83899999 0.05148663 1.2074992e-38 301 205
-0.026478838 0.83899999 0.05148663 1.2349783e-38 302 205
-0.02494818 0.83700001 0.051363897 1.2441979e-38 303 205
-0.023480639 0.83700001 0.051363897 1.2441626e-38 304 205
-0.021960499 0.83499998 0.051241163 1.234943e-38 305 205
-0.020496465 0.83499998 0.051241163 1.2256879e-38 306 205
-0.019032432 0.83499998 0.051241163 1.2256879e-38 307 205
-0.017610481 0.83700001 0.051363897 1.1980648e-38 308 205
-0.016104365 0.83499998 0.051241163 1.1980648e-38 309 205
-0.014640332 0.83499998 0.051241163 1.1888452e-38 310 205
-0.0131763 0.83499998 0.051241163 1.1796257e-38 311 205
-0.011712266 0.83499998 0.051241163 1.1888455e-38 312 205
-0.010248233 0.83499998 0.051241163 1.1796259e-38 313 205
-0.0087631596 0.833 0.051118433 1.2071061e-38 314 205
-0.0072850995 0.83099997 0.050995696 1.2071061e-38 315 205
-0.0058280798 0.83099997 0.050995696 1.2071061e-38 316 205
-0.0043710601 0.83099997 0.050995696 1.2163257e-38 317 205
-0.0029140399 0.83099997 0.050995696 1.2255822e-38 318 205
-0.0014570199 0.83099997 0.050995696 1.2440572e-38 319 205
0 0.829 0.050872963 1.2439866e-38 320 205
0.0014535133 0.829 0.050872963 1.2624617e-38 321 205
0.0029070266 0.829 0.050872963 1.2718583e-38 322 205
0.0043605398 0.829 0.050872963 1.2810778e-38 323 205
0.0058000265 0.82700002 0.050750233 1.3179897e-38 324 205
0.0072500333 0.82700002 0.050750233 1.3640517e-38 325 205
0.0087000392 0.82700002 0.050750233 1.3917815e-38 326 205
0.010150046 0.82700002 0.050750233 1.4194044e-38 327 205
0.011600053 0.82700002 0.050750233 1.4471349e-38 328 205
0.01305006 0.82700002 0.050750233 1.4656101e-38 329 205
0.014500067 0.82700002 0.050750233 1.4931256e-38 330 205
0.015950073 0.82700002 0.050750233 1.5208201e-38 331 205
0.017400078 0.82700002 0.050750233 1.5484076e-38 332 205
0.018804498 0.82499999 0.0506275 1.5576272e-38 333 205
0.020251 0.82499999 0.0506275 1.6127283e-38 334 205
0.0216449 0.82300001 0.050504766 1.6219479e-38 335 205
0.023087893 0.82300001 0.050504766 1.5945038e-38 336 205
0.024530886 0.82300001 0.050504766 1.6129429e-38 337 205
0.025910759 0.82099998 0.050382029 1.6129799e-38 338 205
0.027350245 0.82099998 0.050382029 1.6221994e-38 339 205
0.028789733 0.82099998 0.050382029 1.6314193e-38 340 205
0.030229218 0.82099998 0.050382029 1.6314193e-38 341 205
0.031668708 0.82099998 0.050382029 1.6406388e-38 342 205
0.03310819 0.82099998 0.050382029 1.6682615e-38 343 205
0.034547675 0.82099998 0.050382029 1.6775171e-38 344 205
0.035987165 0.82099998 0.050382029 1.6867367e-38 345 205
0.037335481 0.81900001 0.0502593 1.6958846e-38 346 205
0.038771462 0.81900001 0.0502593 1.7142877e-38 347 205
0.040305622 0.82099998 0.050382029 1.7234351e-38 348 205
0.041745111 0.82099998 0.050382029 1.7234351e-38 349 205
0.043079399 0.81900001 0.0502593 1.7142859e-38 350 205
0.044515379 0.81900001 0.0502593 1.7235055e-38 351 205
0.046063572 0.82099998 0.050382029 1.7418354e-38 352 205
0.047503054 0.82099998 0.050382029 1.7418354e-38 353 205
0.048942544 0.82099998 0.050382029 1.7509467e-38 354 205
0.050382029 0.82099998 0.050382029 1.7417271e-38 355 205
0.05169528 0.81900001 0.0502593 1.7142469e-38 356 205
0.053131256 0.81900001 0.0502593 1.6773688e-38 357 205
0.054567236 0.81900001 0.0502593 1.6590712e-38 358 205
0.056003217 0.81900001 0.0502593 1.6314486e-38 359 205
0.057439201 0.81900001 0.0502593 1.6496729e-38 360 205
0.058875177 0.81900001 0.0502593 1.6312336e-38 361 205
0.060311157 0.81900001 0.0502593 1.5850303e-38 362 205
0.061747137 0.81900001 0.0502593 1.5481519e-38 363 205
0.063183114 0.81900001 0.0502593 1.4286576e-38 364 205
0.064619094 0.81900001 0.0502593 1.3825239e-38 365 205
0.066055074 0.81900001 0.0502593 1.2726883e-38 366 205
0.067491055 0.81900001 0.0502593 1.5031773e-38 367 205
0.068927035 0.81900001 0.0502593 1.5767986e-38 368 205
0.070363015 0.81900001 0.0502593 1.6505551e-38 369 205
-0.032517318 0.84299999 0.050254039 1.189062e-38 298 206
-0.031039257 0.84299999 0.050254039 1.189062e-38 299 206
-0.029491065 0.84100002 0.050134812 1.2166115e-38 300 206
-0.027949886 0.83899999 0.050015584 1.2166115e-38 301 206
-0.026478838 0.83899999 0.050015584 1.2625289e-38 302 206
-0.025007792 0.83899999 0.050015584 1.2625289e-38 303 206
-0.023536745 0.83899999 0.050015584 1.2349783e-38 304 206
-0.0220131 0.83700001 0.049896359 1.2257229e-38 305 206
-0.020496465 0.83499998 0.049777132 1.216468e-38 306 206
-0.019032432 0.83499998 0.049777132 1.1980648e-38 307 206
-0.017610481 0.83700001 0.049896359 1.1888452e-38 308 206
-0.016142938 0.83700001 0.049896359 1.1796257e-38 309 206
-0.014640332 0.83499998 0.049777132 1.1887373e-38 310 206
-0.0131763 0.83499998 0.049777132 1.1887373e-38 311 206
-0.011712266 0.83499998 0.049777132 1.1886654e-38 312 206
-0.010248233 0.83499998 0.049777132 1.197885e-38 313 206
-0.0087631596 0.833 0.049657907 1.1886657e-38 314 206
-0.007302633 0.833 0.049657907 1.1886657e-38 315 206
-0.0058421064 0.833 0.049657907 1.2069616e-38 316 206
-0.0043815798 0.833 0.049657907 1.2161812e-38 317 206
-0.0029140399 0.83099997 0.049538679 1.2437679e-38 318 206
-0.0014570199 0.83099997 0.049538679 1.2529874e-38 319 206
0 0.829 0.049419452 1.2713547e-38 320 206
0.0014535133 0.829 0.049419452 1.2897579e-38 321 206
0.0029070266 0.829 0.049419452 1.2715692e-38 322 206
0.0043605398 0.829 0.049419452 1.2807888e-38 323 206
0.0058000265 0.82700002 0.049300224 1.2533096e-38 324 206
0.0072500333 0.82700002 0.049300224 1.2717487e-38 325 206
0.0087000392 0.82700002 0.049300224 1.2627091e-38 326 206
0.010150046 0.82700002 0.049300224 1.2719286e-38 327 206
0.011600053 0.82700002 0.049300224 1.3270658e-38 328 206
0.01305006 0.82700002 0.049300224 1.3455408e-38 329 206
0.014500067 0.82700002 0.049300224 1.3732712e-38 330 206
0.015950073 0.82700002 0.049300224 1.4285886e-38 331 206
0.017400078 0.82700002 0.049300224 1.4471352e-38 332 206
0.018804498 0.82499999 0.049180996 1.474794e-38 333 206
0.020251 0.82499999 0.049180996 1.5116e-38 334 206
0.0216449 0.82300001 0.049061771 1.5208554e-38 335 206
0.023087893 0.82300001 0.049061771 1.6125829e-38 336 206
0.024530886 0.82300001 0.049061771 1.631058e-38 337 206
0.025910759 0.82099998 0.048942544 1.6127987e-38 338 206
0.027350245 0.82099998 0.048942544 1.6312378e-38 339 206
0.028789733 0.82099998 0.048942544 1.6312741e-38 340 206
0.030229218 0.82099998 0.048942544 1.6312741e-38 341 206
0.031668708 0.82099998 0.048942544 1.6404944e-38 342 206
0.03310819 0.82099998 0.048942544 1.6589335e-38 343 206
0.034547675 0.82099998 0.048942544 1.6497858e-38 344 206
0.035899501 0.81900001 0.048823319 1.6682249e-38 345 206
0.037335481 0.81900001 0.048823319 1.741622e-38 346 206
0.038771462 0.81900001 0.048823319 1.7508417e-38 347 206
0.040207438 0.81900001 0.048823319 1.7325102e-38 348 206
0.041643418 0.81900001 0.048823319 1.7417298e-38 349 206
0.043079399 0.81900001 0.048823319 1.7235055e-38 350 206
0.044515379 0.81900001 0.048823319 1.7235055e-38 351 206
0.045951359 0.81900001 0.048823319 1.7235411e-38 352 206
0.047387339 0.81900001 0.048823319 1.7235411e-38 353 206
0.048823319 0.81900001 0.048823319 1.7326171e-38 354 206
0.0502593 0.81900001 0.048823319 1.7326171e-38 355 206
0.05169528 0.81900001 0.048823319 1.68677e-38 356 206
0.053131256 0.81900001 0.048823319 1.6775504e-38 357 206
0.054567236 0.81900001 0.048823319 1.6500347e-38 358 206
0.055866458 0.81699997 0.048704091 1.6315597e-38 359 206
0.057298932 0.81699997 0.048704091 1.6223401e-38 360 206
0.058731399 0.81699997 0.048704091 1.6039009e-38 361 206
0.060163878 0.81699997 0.048704091 1.6037571e-38 362 206
0.061596353 0.81699997 0.048704091 1.5760624e-38 363 206
0.063183114 0.81900001 0.048823319 1.53e-38 364 206
0.064619094 0.81900001 0.048823319 1.5023412e-38 365 206
0.066055074 0.81900001 0.048823319 1.4011473e-38 366 206
0.067491055 0.81900001 0.048823319 1.3734886e-38 367 206
0.068927035 0.81900001 0.048823319 1.3280464e-38 368 206
0.070363015 0.81900001 0.048823319 1.4479007e-38 369 206
-0.02808314 0.84299999 0.048775978 1.1613679e-38 301 207
-0.026605079 0.84299999 0.048775978 1.1980665e-38 302 207
-0.02512702 0.84299999 0.048775978 1.1980665e-38 303 207
-0.023592854 0.84100002 0.04866026 1.188847e-38 304 207
-0.022065699 0.83899999 0.048544537 1.1796275e-38 305 207
-0.020545561 0.83700001 0.048428819 1.1795556e-38 306 207
-0.01907802 0.83700001 0.048428819 1.1703002e-38 307 207
-0.017610481 0.83700001 0.048428819 1.1427491e-38 308 207
-0.016142938 0.83700001 0.048428819 1.1427491e-38 309 207
-0.014675399 0.83700001 0.048428819 1.1702639e-38 310 207
-0.0131763 0.83499998 0.048313096 1.1610443e-38 311 207
-0.011712266 0.83499998 0.048313096 1.1610443e-38 312 207
-0.010248233 0.83499998 0.048313096 1.1518246e-38 313 207
-0.0087631596 0.833 0.048197377 1.1518243e-38 314 207
-0.007302633 0.833 0.048197377 1.161044e-38 315 207
-0.0058421064 0.833 0.048197377 1.1427491e-38 316 207
-0.0043815798 0.833 0.048197377 1.1427491e-38 317 207
-0.0029140399 0.83099997 0.048081655 1.1703002e-38 318 207
-0.0014570199 0.83099997 0.048081655 1.1703002e-38 319 207
0 0.83099997 0.048081655 1.1703002e-38 320 207
0.0014535133 0.829 0.04796594 1.1795556e-38 321 207
0.0029070266 0.829 0.04796594 1.1887752e-38 322 207
0.0043605398 0.829 0.04796594 1.1887752e-38 323 207
0.0058000265 0.82700002 0.047850218 1.1705158e-38 324 207
0.0072500333 0.82700002 0.047850218 1.1981386e-38 325 207
0.0087000392 0.82700002 0.047850218 1.1890267e-38 326 207
0.010150046 0.82700002 0.047850218 1.1890267e-38 327 207
0.011600053 0.82700002 0.047850218 1.2716784e-38 328 207
0.01305006 0.82700002 0.047850218 1.2901176e-38 329 207
0.014500067 0.82700002 0.047850218 1.2902599e-38 330 207
0.015950073 0.82700002 0.047850218 1.3179544e-38 331 207
0.017400078 0.82700002 0.047850218 1.3457207e-38 332 207
0.018804498 0.82499999 0.047734499 1.382563e-38 333 207
0.020251 0.82499999 0.047734499 1.4286252e-38 334 207
0.0216449 0.82300001 0.04761878 1.4563197e-38 335 207
0.023087893 0.82300001 0.04761878 1.4840495e-38 336 207
0.024530886 0.82300001 0.04761878 1.5116722e-38 337 207
0.025910759 0.82099998 0.047503054 1.5576256e-38 338 207
0.027350245 0.82099998 0.047503054 1.5760646e-38 339 207
0.028789733 0.82099998 0.047503054 1.585177e-38 340 207
0.030229218 0.82099998 0.047503054 1.6036161e-38 341 207
0.031668708 0.82099998 0.047503054 1.5852864e-38 342 207
0.033027537 0.81900001 0.047387339 1.6036895e-38 343 207
0.034463517 0.81900001 0.047387339 1.6221294e-38 344 207
0.035899501 0.81900001 0.047387339 1.6313489e-38 345 207
0.037335481 0.81900001 0.047387339 1.6496804e-38 346 207
0.038771462 0.81900001 0.047387339 1.6681196e-38 347 207
0.040207438 0.81900001 0.047387339 1.67741e-38 348 207
0.041643418 0.81900001 0.047387339 1.6866297e-38 349 207
0.043079399 0.81900001 0.047387339 1.7142509e-38 350 207
0.044406671 0.81699997 0.047271617 1.7234704e-38 351 207
0.045839142 0.81699997 0.047271617 1.7143581e-38 352 207
0.047271617 0.81699997 0.047271617 1.7143581e-38 353 207
0.048704091 0.81699997 0.047271617 1.7326171e-38 354 207
0.050136562 0.81699997 0.047271617 1.7326171e-38 355 207
0.051569037 0.81699997 0.047271617 1.7051012e-38 356 207
0.053001508 0.81699997 0.047271617 1.6958817e-38 357 207
0.054433983 0.81699997 0.047271617 1.7051713e-38 358 207
0.055866458 0.81699997 0.047271617 1.6867322e-38 359 207
0.057298932 0.81699997 0.047271617 1.7050619e-38 360 207
0.058731399 0.81699997 0.047271617 1.677439e-38 361 207
0.060163878 0.81699997 0.047271617 1.6589999e-38 362 207
0.061596353 0.81699997 0.047271617 1.6405249e-38 363 207
0.06302882 0.81699997 0.047271617 1.6036472e-38 364 207
0.064461298 0.81699997 0.047271617 1.5852081e-38 365 207
0.065893769 0.81699997 0.047271617 1.5115239e-38 366 207
0.067491055 0.81900001 0.047387339 1.4193283e-38 367 207
0.068927035 0.81900001 0.047387339 1.3274261e-38 368 207
0.070363015 0.81900001 0.047387339 1.4195857e-38 369 207
0.071799003 0.81900001 0.047387339 1.4201347e-38 370 207
0.073234983 0.81900001 0.047387339 1.5584282e-38 371 207
-0.025186634 0.84500003 0.047410134 1.0599181e-38 303 208
-0.023648959 0.84299999 0.047297917 1.17916e-38 304 208
-0.0221183 0.84100002 0.047185708 1.17916e-38 305 208
-0.020594653 0.83899999 0.047073491 1.1700483e-38 306 208
-0.019123605 0.83899999 0.047073491 1.1608288e-38 307 208
-0.01765256 0.83899999 0.047073491 1.1241303e-38 308 208
-0.016181514 0.83899999 0.047073491 1.1056913e-38 309 208
-0.014675399 0.83700001 0.046961278 1.1241303e-38 310 208
-0.013207859 0.83700001 0.046961278 1.1333499e-38 311 208
-0.011712266 0.83499998 0.046849065 1.087432e-38 312 208
-0.010248233 0.83499998 0.046849065 1.1058351e-38 313 208
-0.0087841991 0.83499998 0.046849065 1.1150181e-38 314 208
-0.007302633 0.833 0.046736851 1.1150181e-38 315 208
-0.0058421064 0.833 0.046736851 1.1151253e-38 316 208
-0.0043815798 0.833 0.046736851 1.1243449e-38 317 208
-0.0029140399 0.83099997 0.046624638 1.1610437e-38 318 208
-0.0014570199 0.83099997 0.046624638 1.1610437e-38 319 208
0 0.83099997 0.046624638 1.1702992e-38 320 208
0.0014535133 0.829 0.046512425 1.1702992e-38 321 208
0.0029070266 0.829 0.046512425 1.1702989e-38 322 208
0.0043605398 0.829 0.046512425 1.188702e-38 323 208
0.0058000265 0.82700002 0.046400212 1.1796259e-38 324 208
0.0072500333 0.82700002 0.046400212 1.1888455e-38 325 208
0.0087000392 0.82700002 0.046400212 1.1980295e-38 326 208
0.010150046 0.82700002 0.046400212 1.1888099e-38 327 208
0.011600053 0.82700002 0.046400212 1.2439122e-38 328 208
0.01305006 0.82700002 0.046400212 1.2623872e-38 329 208
0.014500067 0.82700002 0.046400212 1.234908e-38 330 208
0.015950073 0.82700002 0.046400212 1.2441276e-38 331 208
0.017400078 0.82700002 0.046400212 1.2534543e-38 332 208
0.018804498 0.82499999 0.046287999 1.2718936e-38 333 208
0.020251 0.82499999 0.046287999 1.2996595e-38 334 208
0.0216449 0.82300001 0.046175785 1.3365377e-38 335 208
0.023087893 0.82300001 0.046175785 1.3734869e-38 336 208
0.024530886 0.82300001 0.046175785 1.4103293e-38 337 208
0.025910759 0.82099998 0.046063572 1.4471705e-38 338 208
0.027350245 0.82099998 0.046063572 1.4840489e-38 339 208
0.028789733 0.82099998 0.046063572 1.5116356e-38 340 208
0.030229218 0.82099998 0.046063572 1.5392583e-38 341 208
0.031668708 0.82099998 0.046063572 1.5759574e-38 342 208
0.033027537 0.81900001 0.045951359 1.5943966e-38 343 208
0.034463517 0.81900001 0.045951359 1.6311675e-38 344 208
0.035899501 0.81900001 0.045951359 1.640387e-38 345 208
0.037335481 0.81900001 0.045951359 1.6587185e-38 346 208
0.038771462 0.81900001 0.045951359 1.6679382e-38 347 208
0.040207438 0.81900001 0.045951359 1.6589338e-38 348 208
0.041643418 0.81900001 0.045951359 1.6681533e-38 349 208
0.042974196 0.81699997 0.045839142 1.7049946e-38 350 208
0.044406671 0.81699997 0.045839142 1.7049946e-38 351 208
0.045839142 0.81699997 0.045839142 1.686735e-38 352 208
0.047271617 0.81699997 0.045839142 1.686735e-38 353 208
0.048704091 0.81699997 0.045839142 1.7142506e-38 354 208
0.050136562 0.81699997 0.045839142 1.7142506e-38 355 208
0.051569037 0.81699997 0.045839142 1.7142506e-38 356 208
0.053001508 0.81699997 0.045839142 1.723506e-38 357 208
0.054433983 0.81699997 0.045839142 1.6960263e-38 358 208
0.055866458 0.81699997 0.045839142 1.677587e-38 359 208
0.057298932 0.81699997 0.045839142 1.6867697e-38 360 208
0.058731399 0.81699997 0.045839142 1.6683306e-38 361 208
0.060163878 0.81699997 0.045839142 1.6590745e-38 362 208
0.061596353 0.81699997 0.045839142 1.6405993e-38 363 208
0.06302882 0.81699997 0.045839142 1.6221233e-38 364 208
0.064461298 0.81699997 0.045839142 1.6036842e-38 365 208
0.065893769 0.81699997 0.045839142 1.5759179e-38 366 208
0.06732624 0.81699997 0.045839142 1.5575148e-38 367 208
0.068927035 0.81900001 0.045951359 1.5022355e-38 368 208
0.07019119 0.81699997 0.045839142 1.4561737e-38 369 208
0.071623661 0.81699997 0.045839142 1.3090272e-38 370 208
0.073234983 0.81900001 0.045951359 1.4104782e-38 371 208
-0.02069284 0.84299999 0.045819856 9.6761481e-39 306 209
-0.019214779 0.84299999 0.045819856 9.7683451e-39 307 209
-0.01773672 0.84299999 0.045819856 1.0134975e-38 308 209
-0.016220087 0.84100002 0.045711152 9.950584e-39 309 209
-0.014710465 0.83899999 0.045602445 9.1255092e-39 310 209
-0.013207859 0.83700001 0.045493741 9.3099005e-39 311 209
-0.011740319 0.83700001 0.045493741 9.3109725e-39 312 209
-0.010248233 0.83499998 0.045385033 9.5879181e-39 313 209
-0.0087841991 0.83499998 0.045385033 1.059738e-38 314 209
-0.0073201661 0.83499998 0.045385033 1.0781771e-38 315 209
-0.0058561331 0.83499998 0.045385033 1.1058707e-38 316 209
-0.0043920996 0.83499998 0.045385033 1.1150903e-38 317 209
-0.0029210532 0.833 0.045276325 1.1242379e-38 318 209
-0.0014605266 0.833 0.045276325 1.142641e-38 319 209
0 0.833 0.045276325 1.161044e-38 320 209
0.0014570199 0.83099997 0.045167617 1.161044e-38 321 209
0.0029140399 0.83099997 0.045167617 1.1427844e-38 322 209
0.0043605398 0.829 0.04505891 1.1427844e-38 323 209
0.0058140531 0.829 0.04505891 1.14282e-38 324 209
0.0072675664 0.829 0.04505891 1.1520396e-38 325 209
0.0087210797 0.829 0.04505891 1.1520759e-38 326 209
0.010174593 0.829 0.04505891 1.1613313e-38 327 209
0.011600053 0.82700002 0.044950206 1.1796272e-38 328 209
0.01305006 0.82700002 0.044950206 1.1888468e-38 329 209
0.014500067 0.82700002 0.044950206 1.2163627e-38 330 209
0.015950073 0.82700002 0.044950206 1.2255822e-38 331 209
0.017400078 0.82700002 0.044950206 1.2348371e-38 332 209
0.018804498 0.82499999 0.044841498 1.2440925e-38 333 209
0.020251 0.82499999 0.044841498 1.2901532e-38 334 209
0.0216449 0.82300001 0.044732794 1.2993728e-38 335 209
0.023087893 0.82300001 0.044732794 1.2811838e-38 336 209
0.024530886 0.82300001 0.044732794 1.318026e-38 337 209
0.025910759 0.82099998 0.044624086 1.3457202e-38 338 209
0.027350245 0.82099998 0.044624086 1.4010375e-38 339 209
0.028789733 0.82099998 0.044624086 1.4287684e-38 340 209
0.030229218 0.82099998 0.044624086 1.4656467e-38 341 209
0.031668708 0.82099998 0.044624086 1.511565e-38 342 209
0.03310819 0.82099998 0.044624086 1.5392235e-38 343 209
0.034547675 0.82099998 0.044624086 1.5575559e-38 344 209
0.035899501 0.81900001 0.044515379 1.5851785e-38 345 209
0.037335481 0.81900001 0.044515379 1.5943981e-38 346 209
0.038771462 0.81900001 0.044515379 1.6036177e-38 347 209
0.040207438 0.81900001 0.044515379 1.6129448e-38 348 209
0.041643418 0.81900001 0.044515379 1.6221644e-38 349 209
0.042974196 0.81699997 0.044406671 1.6497861e-38 350 209
0.044406671 0.81699997 0.044406671 1.6590057e-38 351 209
0.045839142 0.81699997 0.044406671 1.6682605e-38 352 209
0.047271617 0.81699997 0.044406671 1.6682605e-38 353 209
0.048584864 0.815 0.044297963 1.6774801e-38 354 209
0.050013833 0.815 0.044297963 1.6866998e-38 355 209
0.051442798 0.815 0.044297963 1.6959194e-38 356 209
0.052871767 0.815 0.044297963 1.7143225e-38 357 209
0.054433983 0.81699997 0.044406671 1.6868067e-38 358 209
0.055866458 0.81699997 0.044406671 1.6868067e-38 359 209
0.057298932 0.81699997 0.044406671 1.732688e-38 360 209
0.058731399 0.81699997 0.044406671 1.7234325e-38 361 209
0.060016599 0.815 0.044297963 1.7049565e-38 362 209
0.06144556 0.815 0.044297963 1.6865534e-38 363 209
0.06302882 0.81699997 0.044406671 1.6864804e-38 364 209
0.064461298 0.81699997 0.044406671 1.6588577e-38 365 209
0.065893769 0.81699997 0.044406671 1.6311267e-38 366 209
0.06732624 0.81699997 0.044406671 1.6219071e-38 367 209
0.068758719 0.81699997 0.044406671 1.5850659e-38 368 209
0.07019119 0.81699997 0.044406671 1.5205289e-38 369 209
0.071623661 0.81699997 0.044406671 1.4008226e-38 370 209
0.073056139 0.81699997 0.044406671 1.4285173e-38 371 209
0.074488603 0.81699997 0.044406671 1.3002786e-38 372 209
0.075549379 0.81300002 0.044189259 1.4662307e-38 373 209
-0.013239419 0.83899999 0.044131398 7.7425972e-39 311 210
-0.011740319 0.83700001 0.0440262 7.9280633e-39 312 210
-0.01027278 0.83700001 0.0440262 8.3890414e-39 313 210
-0.0088052405 0.83700001 0.0440262 9.85911e-39 314 210
-0.0073376996 0.83700001 0.0440262 1.0228253e-38 315 210
-0.0058561331 0.83499998 0.043920998 1.059738e-38 316 210
-0.0043920996 0.83499998 0.043920998 1.0781771e-38 317 210
-0.0029280665 0.83499998 0.043920998 1.0690297e-38 318 210
-0.0014640333 0.83499998 0.043920998 1.0782493e-38 319 210
0 0.833 0.043815799 1.1058354e-38 320 210
0.0014605266 0.833 0.043815799 1.1242746e-38 321 210
0.0029140399 0.83099997 0.043710597 1.1335651e-38 322 210
0.0043710601 0.83099997 0.043710597 1.1335651e-38 323 210
0.0058140531 0.829 0.043605398 1.1427844e-38 324 210
0.0072675664 0.829 0.043605398 1.152004e-38 325 210
0.0087210797 0.829 0.043605398 1.1428919e-38 326 210
0.010174593 0.829 0.043605398 1.1521114e-38 327 210
0.011628106 0.829 0.043605398 1.1704427e-38 328 210
0.01305006 0.82700002 0.0435002 1.1704427e-38 329 210
0.014500067 0.82700002 0.0435002 1.19803e-38 330 210
0.015950073 0.82700002 0.0435002 1.19803e-38 331 210
0.017400078 0.82700002 0.0435002 1.1979947e-38 332 210
0.018804498 0.82499999 0.043394998 1.2256175e-38 333 210
0.020251 0.82499999 0.043394998 1.2531686e-38 334 210
0.0216449 0.82300001 0.043289799 1.2623882e-38 335 210
0.023087893 0.82300001 0.043289799 1.234909e-38 336 210
0.024530886 0.82300001 0.043289799 1.253384e-38 337 210
0.025973879 0.82300001 0.043289799 1.2535636e-38 338 210
0.027416872 0.82300001 0.043289799 1.2996614e-38 339 210
0.028789733 0.82099998 0.043184597 1.3365024e-38 340 210
0.030229218 0.82099998 0.043184597 1.3918198e-38 341 210
0.031668708 0.82099998 0.043184597 1.4379157e-38 342 210
0.03310819 0.82099998 0.043184597 1.4655745e-38 343 210
0.034547675 0.82099998 0.043184597 1.5207119e-38 344 210
0.035899501 0.81900001 0.043079399 1.5483706e-38 345 210
0.037335481 0.81900001 0.043079399 1.5484079e-38 346 210
0.038771462 0.81900001 0.043079399 1.566847e-38 347 210
0.040207438 0.81900001 0.043079399 1.5943981e-38 348 210
0.041643418 0.81900001 0.043079399 1.6036177e-38 349 210
0.042974196 0.81699997 0.042974196 1.6129078e-38 350 210
0.044406671 0.81699997 0.042974196 1.6221275e-38 351 210
0.045839142 0.81699997 0.042974196 1.6222347e-38 352 210
0.047155898 0.815 0.042869002 1.6314543e-38 353 210
0.048584864 0.815 0.042869002 1.6406744e-38 354 210
0.050013833 0.815 0.042869002 1.649894e-38 355 210
0.051442798 0.815 0.042869002 1.65915e-38 356 210
0.052871767 0.815 0.042869002 1.6684054e-38 357 210
0.054300729 0.815 0.042869002 1.686772e-38 358 210
0.055729698 0.815 0.042869002 1.6959915e-38 359 210
0.057158664 0.815 0.042869002 1.7142506e-38 360 210
0.058587633 0.815 0.042869002 1.7142506e-38 361 210
0.060016599 0.815 0.042869002 1.7050659e-38 362 210
0.06144556 0.815 0.042869002 1.6958464e-38 363 210
0.062874533 0.815 0.042869002 1.6865899e-38 364 210
0.064303495 0.815 0.042869002 1.6681508e-38 365 210
0.065732464 0.815 0.042869002 1.6587871e-38 366 210
0.067161433 0.815 0.042869002 1.6495675e-38 367 210
0.068758719 0.81699997 0.042974196 1.6219434e-38 368 210
0.07019119 0.81699997 0.042974196 1.5758457e-38 369 210
0.071623661 0.81699997 0.042974196 1.5114538e-38 370 210
0.073056139 0.81699997 0.042974196 1.4837951e-38 371 210
0.074488603 0.81699997 0.042974196 1.2720399e-38 372 210
0.075549379 0.81300002 0.042763799 1.3550161e-38 373 210
0.076785475 0.81099999 0.042658597 1.4570502e-38 374 210
-0.01027278 0.83700001 0.042558659 8.0134262e-39 313 211
-0.0088052405 0.83700001 0.042558659 7.0046552e-39 314 211
-0.0073376996 0.83700001 0.042558659 7.8344173e-39 315 211
-0.0058701597 0.83700001 0.042558659 8.5708921e-39 316 211
-0.0044026203 0.83700001 0.042558659 9.0318717e-39 317 211
-0.0029350799 0.83700001 0.042558659 9.2180552e-39 318 211
-0.0014675399 0.83700001 0.042558659 9.6790319e-39 319 211
0 0.83499998 0.042456966 1.1055837e-38 320 211
0.0014640333 0.83499998 0.042456966 1.1240228e-38 321 211
0.0029210532 0.833 0.042355273 1.1425326e-38 322 211
0.0043815798 0.833 0.042355273 1.1701553e-38 323 211
0.0058280798 0.83099997 0.042253576 1.1336002e-38 324 211
0.0072675664 0.829 0.042151887 1.1428197e-38 325 211
0.0087210797 0.829 0.042151887 1.1428913e-38 326 211
0.010174593 0.829 0.042151887 1.1428913e-38 327 211
0.011628106 0.829 0.042151887 1.1428916e-38 328 211
0.01305006 0.82700002 0.04205019 1.1428916e-38 329 211
0.014500067 0.82700002 0.04205019 1.1795906e-38 330 211
0.015950073 0.82700002 0.04205019 1.1888102e-38 331 211
0.017400078 0.82700002 0.04205019 1.1888105e-38 332 211
0.018804498 0.82499999 0.041948497 1.19803e-38 333 211
0.020251 0.82499999 0.041948497 1.2163257e-38 334 211
0.0216449 0.82300001 0.041846808 1.2348008e-38 335 211
0.023087893 0.82300001 0.041846808 1.2532036e-38 336 211
0.024530886 0.82300001 0.041846808 1.2624591e-38 337 211
0.025973879 0.82300001 0.041846808 1.2809335e-38 338 211
0.027416872 0.82300001 0.041846808 1.2901532e-38 339 211
0.028789733 0.82099998 0.041745111 1.3269942e-38 340 211
0.030229218 0.82099998 0.041745111 1.3454333e-38 341 211
0.031668708 0.82099998 0.041745111 1.3824182e-38 342 211
0.03310819 0.82099998 0.041745111 1.4101128e-38 343 211
0.034547675 0.82099998 0.041745111 1.3919625e-38 344 211
0.035899501 0.81900001 0.041643418 1.4472798e-38 345 211
0.037335481 0.81900001 0.041643418 1.4933069e-38 346 211
0.038771462 0.81900001 0.041643418 1.5025625e-38 347 211
0.040207438 0.81900001 0.041643418 1.5392606e-38 348 211
0.041541722 0.81699997 0.041541722 1.5392606e-38 349 211
0.042974196 0.81699997 0.041541722 1.5944684e-38 350 211
0.044406671 0.81699997 0.041541722 1.5944684e-38 351 211
0.045726933 0.815 0.041440032 1.6037952e-38 352 211
0.047155898 0.815 0.041440032 1.6037952e-38 353 211
0.048584864 0.815 0.041440032 1.6404941e-38 354 211
0.049891099 0.81300002 0.041338343 1.6589691e-38 355 211
0.051316559 0.81300002 0.041338343 1.6590054e-38 356 211
0.052742019 0.81300002 0.041338343 1.6774445e-38 357 211
0.054167479 0.81300002 0.041338343 1.6867001e-38 358 211
0.055592939 0.81300002 0.041338343 1.6959196e-38 359 211
0.057018399 0.81300002 0.041338343 1.7142506e-38 360 211
0.058443859 0.81300002 0.041338343 1.723506e-38 361 211
0.059869319 0.81300002 0.041338343 1.7142859e-38 362 211
0.061294779 0.81300002 0.041338343 1.7142859e-38 363 211
0.062874533 0.815 0.041440032 1.6958817e-38 364 211
0.064303495 0.815 0.041440032 1.6866621e-38 365 211
0.065732464 0.815 0.041440032 1.6680788e-38 366 211
0.067161433 0.815 0.041440032 1.6588592e-38 367 211
0.068590395 0.815 0.041440032 1.6220517e-38 368 211
0.070019364 0.815 0.041440032 1.6036125e-38 369 211
0.071448334 0.815 0.041440032 1.5300003e-38 370 211
0.073056139 0.81699997 0.041541722 1.493086e-38 371 211
0.074488603 0.81699997 0.041541722 1.410114e-38 372 211
0.075549379 0.81300002 0.041338343 1.410114e-38 373 211
0.076785475 0.81099999 0.041236643 1.2816948e-38 374 211
0.078207433 0.81099999 0.041236643 1.4476471e-38 375 211
-0.0044236598 0.84100002 0.041287493 7.4649551e-39 317 212
-0.0029420932 0.83899999 0.041189305 7.9277129e-39 318 212
-0.0014710466 0.83899999 0.041189305 8.3886911e-39 319 212
0 0.83700001 0.041091122 9.3999311e-39 320 212
0.0014675399 0.83700001 0.041091122 9.8609093e-39 321 212
0.0029280665 0.83499998 0.040992931 1.0872888e-38 322 212
0.0043815798 0.833 0.040894743 1.1057638e-38 323 212
0.0058421064 0.833 0.040894743 1.0416582e-38 324 212
0.0072850995 0.83099997 0.040796559 1.0693168e-38 325 212
0.0087421201 0.83099997 0.040796559 1.0784994e-38 326 212
0.010174593 0.829 0.040698372 1.0877191e-38 327 212
0.011628106 0.829 0.040698372 1.1153055e-38 328 212
0.01305006 0.82700002 0.040600184 1.1245251e-38 329 212
0.014500067 0.82700002 0.040600184 1.1520761e-38 330 212
0.015950073 0.82700002 0.040600184 1.1612957e-38 331 212
0.017400078 0.82700002 0.040600184 1.1795553e-38 332 212
0.018804498 0.82499999 0.040502001 1.1887749e-38 333 212
0.020251 0.82499999 0.040502001 1.1979944e-38 334 212
0.021697499 0.82499999 0.040502001 1.1979944e-38 335 212
0.023087893 0.82300001 0.040403813 1.216433e-38 336 212
0.024530886 0.82300001 0.040403813 1.2256526e-38 337 212
0.026036998 0.82499999 0.040502001 1.253239e-38 338 212
0.027416872 0.82300001 0.040403813 1.2624585e-38 339 212
0.028859867 0.82300001 0.040403813 1.253419e-38 340 212
0.03030286 0.82300001 0.040403813 1.2718583e-38 341 212
0.031668708 0.82099998 0.040305622 1.2904049e-38 342 212
0.03310819 0.82099998 0.040305622 1.2996245e-38 343 212
0.034547675 0.82099998 0.040305622 1.3272829e-38 344 212
0.035899501 0.81900001 0.040207438 1.3734167e-38 345 212
0.037335481 0.81900001 0.040207438 1.419586e-38 346 212
0.038771462 0.81900001 0.040207438 1.4472448e-38 347 212
0.040207438 0.81900001 0.040207438 1.4933059e-38 348 212
0.041541722 0.81699997 0.040109251 1.5209287e-38 349 212
0.042974196 0.81699997 0.040109251 1.5300761e-38 350 212
0.044297963 0.815 0.040011063 1.5393315e-38 351 212
0.045726933 0.815 0.040011063 1.5669542e-38 352 212
0.047155898 0.815 0.040011063 1.5669542e-38 353 212
0.048465639 0.81300002 0.039912879 1.5853217e-38 354 212
0.049891099 0.81300002 0.039912879 1.6129446e-38 355 212
0.051316559 0.81300002 0.039912879 1.631384e-38 356 212
0.052742019 0.81300002 0.039912879 1.649859e-38 357 212
0.054167479 0.81300002 0.039912879 1.6682265e-38 358 212
0.055592939 0.81300002 0.039912879 1.6774462e-38 359 212
0.057018399 0.81300002 0.039912879 1.6959562e-38 360 212
0.058443859 0.81300002 0.039912879 1.6959562e-38 361 212
0.059869319 0.81300002 0.039912879 1.6960268e-38 362 212
0.061294779 0.81300002 0.039912879 1.6960268e-38 363 212
0.062720239 0.81300002 0.039912879 1.7234678e-38 364 212
0.064145707 0.81300002 0.039912879 1.6958451e-38 365 212
0.065571159 0.81300002 0.039912879 1.7232867e-38 366 212
0.066996619 0.81300002 0.039912879 1.695628e-38 367 212
0.068422079 0.81300002 0.039912879 1.6680041e-38 368 212
0.069847539 0.81300002 0.039912879 1.6403813e-38 369 212
0.071272999 0.81300002 0.039912879 1.612722e-38 370 212
0.072877295 0.815 0.040011063 1.5942829e-38 371 212
0.074306265 0.815 0.040011063 1.5572993e-38 372 212
0.075549379 0.81300002 0.039912879 1.5388602e-38 373 212
0.076974839 0.81300002 0.039912879 1.2812216e-38 374 212
0.078400299 0.81300002 0.039912879 1.336575e-38 375 212
0.0029420932 0.83899999 0.039718259 8.5701859e-39 322 213
0.0044026203 0.83700001 0.039623581 9.0315241e-39 323 213
0.0058561331 0.83499998 0.039528899 1.0043859e-38 324 213
0.007302633 0.833 0.039434217 1.0412281e-38 325 213
0.0087631596 0.833 0.039434217 1.1056913e-38 326 213
0.01019914 0.83099997 0.039339535 1.1333499e-38 327 213
0.011628106 0.829 0.039244857 1.1518596e-38 328 213
0.01305006 0.82700002 0.039150178 1.1518596e-38 329 213
0.014500067 0.82700002 0.039150178 1.152004e-38 330 213
0.015950073 0.82700002 0.039150178 1.170443e-38 331 213
0.017400078 0.82700002 0.039150178 1.1795553e-38 332 213
0.018850086 0.82700002 0.039150178 1.1887749e-38 333 213
0.020251 0.82499999 0.039055496 1.1888099e-38 334 213
0.021697499 0.82499999 0.039055496 1.1980295e-38 335 213
0.023143999 0.82499999 0.039055496 1.1980648e-38 336 213
0.024590498 0.82499999 0.039055496 1.216468e-38 337 213
0.026036998 0.82499999 0.039055496 1.2349065e-38 338 213
0.027483499 0.82499999 0.039055496 1.2349065e-38 339 213
0.028929999 0.82499999 0.039055496 1.2441976e-38 340 213
0.03030286 0.82300001 0.038960818 1.2534172e-38 341 213
0.031668708 0.82099998 0.03886614 1.3084474e-38 342 213
0.03310819 0.82099998 0.03886614 1.3361061e-38 343 213
0.034547675 0.82099998 0.03886614 1.2810778e-38 344 213
0.035899501 0.81900001 0.038771462 1.317956e-38 345 213
0.037335481 0.81900001 0.038771462 1.3273557e-38 346 213
0.038771462 0.81900001 0.038771462 1.3734177e-38 347 213
0.040207438 0.81900001 0.038771462 1.4195507e-38 348 213
0.041541722 0.81699997 0.03867678 1.4564649e-38 349 213
0.042974196 0.81699997 0.03867678 1.5391879e-38 350 213
0.044297963 0.815 0.038582098 1.5391879e-38 351 213
0.045726933 0.815 0.038582098 1.5759574e-38 352 213
0.047155898 0.815 0.038582098 1.5759574e-38 353 213
0.048465639 0.81300002 0.038487419 1.6127278e-38 354 213
0.049891099 0.81300002 0.038487419 1.6219832e-38 355 213
0.051316559 0.81300002 0.038487419 1.6311672e-38 356 213
0.052742019 0.81300002 0.038487419 1.6588259e-38 357 213
0.054167479 0.81300002 0.038487419 1.631419e-38 358 213
0.055592939 0.81300002 0.038487419 1.6682971e-38 359 213
0.057018399 0.81300002 0.038487419 1.6958116e-38 360 213
0.058443859 0.81300002 0.038487419 1.7142509e-38 361 213
0.059869319 0.81300002 0.038487419 1.7142506e-38 362 213
0.061294779 0.81300002 0.038487419 1.723506e-38 363 213
0.062720239 0.81300002 0.038487419 1.695955e-38 364 213
0.064145707 0.81300002 0.038487419 1.695955e-38 365 213
0.065571159 0.81300002 0.038487419 1.6958101e-38 366 213
0.066996619 0.81300002 0.038487419 1.6958101e-38 367 213
0.068422079 0.81300002 0.038487419 1.6681508e-38 368 213
0.069847539 0.81300002 0.038487419 1.640528e-38 369 213
0.071272999 0.81300002 0.038487419 1.6586789e-38 370 213
0.072698459 0.81300002 0.038487419 1.6218365e-38 371 213
0.074123919 0.81300002 0.038487419 1.5300369e-38 372 213
0.075549379 0.81300002 0.038487419 1.4839749e-38 373 213
0.076974839 0.81300002 0.038487419 1.4378791e-38 374 213
0.078400299 0.81300002 0.038487419 1.3825617e-38 375 213
0.0058701597 0.83700001 0.03815604 8.0177576e-39 324 214
0.0073201661 0.83499998 0.038064864 8.4787357e-39 325 214
0.0087841991 0.83499998 0.038064864 9.0318773e-39 326 214
0.01019914 0.83099997 0.037882518 9.4924967e-39 327 214
0.011628106 0.829 0.037791345 9.8634134e-39 328 214
0.01305006 0.82700002 0.037700173 1.0231837e-38 329 214
0.014465 0.82499999 0.037608996 1.0692459e-38 330 214
0.015911499 0.82499999 0.037608996 1.0785014e-38 331 214
0.017400078 0.82700002 0.037700173 1.1519342e-38 332 214
0.018850086 0.82700002 0.037700173 1.1703373e-38 333 214
0.020251 0.82499999 0.037608996 1.1888824e-38 334 214
0.021697499 0.82499999 0.037608996 1.1888824e-38 335 214
0.023143999 0.82499999 0.037608996 1.1981371e-38 336 214
0.024590498 0.82499999 0.037608996 1.1981371e-38 337 214
0.026036998 0.82499999 0.037608996 1.207392e-38 338 214
0.027483499 0.82499999 0.037608996 1.207392e-38 339 214
0.028929999 0.82499999 0.037608996 1.2350149e-38 340 214
0.03030286 0.82300001 0.037517827 1.2350149e-38 341 214
0.031668708 0.82099998 0.037426651 1.2533471e-38 342 214
0.03310819 0.82099998 0.037426651 1.2625667e-38 343 214
0.034547675 0.82099998 0.037426651 1.2625687e-38 344 214
0.035899501 0.81900001 0.037335481 1.2810078e-38 345 214
0.037335481 0.81900001 0.037335481 1.3086305e-38 346 214
0.038771462 0.81900001 0.037335481 1.3271056e-38 347 214
0.040207438 0.81900001 0.037335481 1.3273557e-38 348 214
0.041541722 0.81699997 0.037244301 1.3826731e-38 349 214
0.042974196 0.81699997 0.037244301 1.4655041e-38 350 214
0.044297963 0.815 0.037153132 1.4747596e-38 351 214
0.045726933 0.815 0.037153132 1.5115652e-38 352 214
0.047040179 0.81300002 0.03706196 1.5207848e-38 353 214
0.048465639 0.81300002 0.03706196 1.5300411e-38 354 214
0.049891099 0.81300002 0.03706196 1.5485161e-38 355 214
0.051316559 0.81300002 0.03706196 1.5760669e-38 356 214
0.052742019 0.81300002 0.03706196 1.6036895e-38 357 214
0.054167479 0.81300002 0.03706196 1.6129095e-38 358 214
0.055592939 0.81300002 0.03706196 1.6406041e-38 359 214
0.057018399 0.81300002 0.03706196 1.6498237e-38 360 214
0.058443859 0.81300002 0.03706196 1.6682268e-38 361 214
0.05972204 0.81099999 0.036970787 1.695849e-38 362 214
0.061143994 0.81099999 0.036970787 1.695849e-38 363 214
0.062565938 0.81099999 0.036970787 1.6959194e-38 364 214
0.064145707 0.81300002 0.03706196 1.6866998e-38 365 214
0.065409854 0.81099999 0.036970787 1.7050649e-38 366 214
0.066831805 0.81099999 0.036970787 1.6958095e-38 367 214
0.068422079 0.81300002 0.03706196 1.6865884e-38 368 214
0.069847539 0.81300002 0.03706196 1.6681491e-38 369 214
0.071272999 0.81300002 0.03706196 1.6588927e-38 370 214
0.072698459 0.81300002 0.03706196 1.6219784e-38 371 214
0.074123919 0.81300002 0.03706196 1.5851712e-38 372 214
