# .PCD v.7 - Point Cloud Data file format
FIELDS x y z rgb imX imY
SIZE 4 4 4 4 4 4
TYPE F F F F F F
COUNT 1 1 1 1 1 1
WIDTH 854
HEIGHT 1
VIEWPOINT 0 0 0 1 0 0 0
POINTS 854
DATA ascii
0.11031272 0.74900001 -0.030204674 1.5671049e-38 404 263
0.11162596 0.74900001 -0.030204674 1.7053983e-38 405 263
0.11293921 0.74900001 -0.030204674 1.7424618e-38 406 263
0.0055405335 0.79000002 -0.033243202 1.0601348e-38 324 264
0.0069256667 0.79000002 -0.033243202 1.0416597e-38 325 264
0.0083002793 0.78899997 -0.033201117 1.0691392e-38 326 264
0.0096836593 0.78899997 -0.033201117 1.0599196e-38 327 264
0.011067039 0.78899997 -0.033201117 1.0508079e-38 328 264
0.012450419 0.78899997 -0.033201117 1.0415884e-38 329 264
0.013798732 0.787 -0.033116959 1.0691038e-38 330 264
0.015178605 0.787 -0.033116959 1.0691038e-38 331 264
0.01655848 0.787 -0.033116959 1.059849e-38 332 264
0.017938353 0.787 -0.033116959 1.0782882e-38 333 264
0.019318225 0.787 -0.033116959 1.09662e-38 334 264
0.0207507 0.78899997 -0.033201117 1.09662e-38 335 264
0.022134079 0.78899997 -0.033201117 1.0966548e-38 336 264
0.023517458 0.78899997 -0.033201117 1.1059102e-38 337 264
0.024900839 0.78899997 -0.033201117 1.1427496e-38 338 264
0.030434359 0.78899997 -0.033201117 1.1704802e-38 342 264
0.031817738 0.78899997 -0.033201117 1.2073585e-38 343 264
0.033201117 0.78899997 -0.033201117 1.2073229e-38 344 264
0.034496833 0.787 -0.033116959 1.2165424e-38 345 264
0.035785533 0.78500003 -0.033032801 1.2626037e-38 346 264
0.037161902 0.78500003 -0.033032801 1.253384e-38 347 264
0.038440078 0.78299999 -0.032948639 1.216578e-38 348 264
0.039812941 0.78299999 -0.032948639 1.216578e-38 349 264
0.0411858 0.78299999 -0.032948639 1.2348371e-38 350 264
0.042558655 0.78299999 -0.032948639 1.2256175e-38 351 264
0.043819305 0.78100002 -0.032864477 1.2438769e-38 352 264
0.045188658 0.78100002 -0.032864477 1.2438769e-38 353 264
0.046558015 0.78100002 -0.032864477 1.2438404e-38 354 264
0.047927368 0.78100002 -0.032864477 1.2438404e-38 355 264
0.049233593 0.77999997 -0.032822397 1.2806115e-38 356 264
0.050601196 0.77999997 -0.032822397 1.3266733e-38 357 264
0.051835544 0.778 -0.032738242 1.3359654e-38 358 264
0.053062879 0.77600002 -0.032654081 1.3636241e-38 359 264
0.054423466 0.77600002 -0.032654081 1.3453998e-38 360 264
0.055784054 0.77600002 -0.032654081 1.3638391e-38 361 264
0.057144642 0.77600002 -0.032654081 1.3456148e-38 362 264
0.058354434 0.77399999 -0.032569919 1.3640538e-38 363 264
0.059711516 0.77399999 -0.032569919 1.3641614e-38 364 264
0.061068594 0.77399999 -0.032569919 1.3733811e-38 365 264
0.06234502 0.773 -0.032527838 1.4009678e-38 366 264
0.063700356 0.773 -0.032527838 1.4009678e-38 367 264
0.064887367 0.77100003 -0.032443684 1.4192987e-38 368 264
0.066067353 0.76899999 -0.032359518 1.4192987e-38 369 264
0.067240335 0.76700002 -0.03227536 1.4468854e-38 370 264
0.068585135 0.76700002 -0.03227536 1.4468854e-38 371 264
0.06992995 0.76700002 -0.03227536 1.4468851e-38 372 264
0.07127475 0.76700002 -0.03227536 1.4468851e-38 373 264
0.072524875 0.76599997 -0.032233275 1.4561049e-38 374 264
0.073675066 0.764 -0.032149121 1.4561049e-38 375 264
0.074818239 0.76200002 -0.032064959 1.4284832e-38 376 264
0.076154284 0.76200002 -0.032064959 1.4561778e-38 377 264
0.077490322 0.76200002 -0.032064959 1.5114949e-38 378 264
0.078722909 0.76099998 -0.032022879 1.5575927e-38 379 264
0.080057196 0.76099998 -0.032022879 1.594578e-38 380 264
0.081391476 0.76099998 -0.032022879 1.6314561e-38 381 264
0.082508355 0.759 -0.031938717 1.7233275e-38 382 264
0.083618224 0.75700003 -0.031854562 1.7233275e-38 383 264
0.084721066 0.755 -0.031770397 1.7234351e-38 384 264
0.086044833 0.755 -0.031770397 1.7603132e-38 385 264
0.087368593 0.755 -0.031770397 1.7695332e-38 386 264
0.088574894 0.75400001 -0.03172832 1.7879723e-38 387 264
0.089896902 0.75400001 -0.03172832 1.7971919e-38 388 264
0.090976954 0.75199997 -0.031644158 1.815595e-38 389 264
0.09229546 0.75199997 -0.031644158 1.8157749e-38 390 264
0.093613967 0.75199997 -0.031644158 1.8250304e-38 391 264
0.094932474 0.75199997 -0.031644158 1.8433616e-38 392 264
0.095994994 0.75 -0.03156 1.8433616e-38 393 264
0.097309999 0.75 -0.03156 1.8616916e-38 394 264
0.098493494 0.74900001 -0.031517919 1.8432524e-38 395 264
0.099806741 0.74900001 -0.031517919 1.8523275e-38 396 264
0.10111999 0.74900001 -0.031517919 1.843108e-38 397 264
0.10243323 0.74900001 -0.031517919 1.8246683e-38 398 264
0.10374649 0.74900001 -0.031517919 1.7878259e-38 399 264
0.10505974 0.74900001 -0.031517919 1.7694937e-38 400 264
0.10637298 0.74900001 -0.031517919 1.7418352e-38 401 264
0.10768622 0.74900001 -0.031517919 1.7233255e-38 402 264
0.10899947 0.74900001 -0.031517919 1.714106e-38 403 264
0.11031272 0.74900001 -0.031517919 1.5852884e-38 404 264
0.11162596 0.74900001 -0.031517919 1.6037275e-38 405 264
0.11293921 0.74900001 -0.031517919 1.5857623e-38 406 264
0.114405 0.75 -0.03156 1.7885927e-38 407 264
0.03863645 0.787 -0.034496833 1.1059803e-38 348 265
0.039914634 0.78500003 -0.034409165 1.1244194e-38 349 265
0.0411858 0.78299999 -0.034321502 1.1978512e-38 350 265
0.042558655 0.78299999 -0.034321502 1.2071067e-38 351 265
0.043931518 0.78299999 -0.034321502 1.2439478e-38 352 265
0.045188658 0.78100002 -0.034233831 1.2531673e-38 353 265
0.046558015 0.78100002 -0.034233831 1.2624219e-38 354 265
0.047927368 0.78100002 -0.034233831 1.2532024e-38 355 265
0.049296722 0.78100002 -0.034233831 1.2714983e-38 356 265
0.050601196 0.77999997 -0.034189999 1.2899733e-38 357 265
0.051835544 0.778 -0.034102332 1.2991222e-38 358 265
0.053199638 0.778 -0.034102332 1.34522e-38 359 265
0.054563731 0.778 -0.034102332 1.3452198e-38 360 265
0.055784054 0.77600002 -0.034014668 1.3636948e-38 361 265
0.057144642 0.77600002 -0.034014668 1.3546546e-38 362 265
0.058354434 0.77399999 -0.033927001 1.3823131e-38 363 265
0.059711516 0.77399999 -0.033927001 1.3732012e-38 364 265
0.061068594 0.77399999 -0.033927001 1.3916403e-38 365 265
0.06234502 0.773 -0.033883166 1.3917123e-38 366 265
0.063700356 0.773 -0.033883166 1.3917123e-38 367 265
0.064887367 0.77100003 -0.033795502 1.3917479e-38 368 265
0.066067353 0.76899999 -0.033707831 1.4009675e-38 369 265
0.067240335 0.76700002 -0.033620168 1.4285183e-38 370 265
0.068585135 0.76700002 -0.033620168 1.4285183e-38 371 265
0.06992995 0.76700002 -0.033620168 1.4468851e-38 372 265
0.07127475 0.76700002 -0.033620168 1.4468851e-38 373 265
0.072524875 0.76599997 -0.033576332 1.4468851e-38 374 265
0.073675066 0.764 -0.033488665 1.4468851e-38 375 265
0.074818239 0.76200002 -0.033401001 1.4284817e-38 376 265
0.076154284 0.76200002 -0.033401001 1.4561044e-38 377 265
0.077388622 0.76099998 -0.033357166 1.5020583e-38 378 265
0.078722909 0.76099998 -0.033357166 1.5112778e-38 379 265
0.080057196 0.76099998 -0.033357166 1.4747956e-38 380 265
0.081177577 0.759 -0.033269498 1.530113e-38 381 265
0.082290947 0.75700003 -0.033181835 1.6312043e-38 382 265
0.083618224 0.75700003 -0.033181835 1.6496436e-38 383 265
0.084721066 0.755 -0.033094164 1.659115e-38 384 265
0.086044833 0.755 -0.033094164 1.67759e-38 385 265
0.087252878 0.75400001 -0.033050332 1.7509865e-38 386 265
0.088574894 0.75400001 -0.033050332 1.7694256e-38 387 265
0.089658447 0.75199997 -0.032962665 1.7786809e-38 388 265
0.090976954 0.75199997 -0.032962665 1.8063036e-38 389 265
0.092049994 0.75 -0.032874998 1.8248499e-38 390 265
0.093364999 0.75 -0.032874998 1.8340696e-38 391 265
0.094553761 0.74900001 -0.032831166 1.8341048e-38 392 265
0.095867008 0.74900001 -0.032831166 1.8433245e-38 393 265
0.097180255 0.74900001 -0.032831166 1.8616913e-38 394 265
0.098493494 0.74900001 -0.032831166 1.8616913e-38 395 265
0.099806741 0.74900001 -0.032831166 1.8523997e-38 396 265
0.10111999 0.74900001 -0.032831166 1.8339247e-38 397 265
0.10215972 0.74699998 -0.032743499 1.8338884e-38 398 265
0.10346945 0.74699998 -0.032743499 1.8154491e-38 399 265
0.10477919 0.74699998 -0.032743499 1.7695666e-38 400 265
0.10608894 0.74699998 -0.032743499 1.7510916e-38 401 265
0.10739867 0.74699998 -0.032743499 1.7417654e-38 402 265
0.10870842 0.74699998 -0.032743499 1.7325458e-38 403 265
0.11001815 0.74699998 -0.032743499 1.6589703e-38 404 265
0.11132789 0.74699998 -0.032743499 1.6220922e-38 405 265
0.11293921 0.74900001 -0.032831166 1.5395534e-38 406 265
0.114405 0.75 -0.032874998 1.6686273e-38 407 265
0.11572 0.75 -0.032874998 1.7241309e-38 408 265
0.044043735 0.78500003 -0.035785533 1.1518243e-38 352 266
0.045420099 0.78500003 -0.035785533 1.1886667e-38 353 266
0.046677239 0.78299999 -0.035694357 1.2164683e-38 354 266
0.048050098 0.78299999 -0.035694357 1.2349074e-38 355 266
0.049422957 0.78299999 -0.035694357 1.2163977e-38 356 266
0.050666075 0.78100002 -0.035603184 1.2163977e-38 357 266
0.051968798 0.77999997 -0.035557598 1.1980683e-38 358 266
0.053336397 0.77999997 -0.035557598 1.2165074e-38 359 266
0.054563731 0.778 -0.035466425 1.2442021e-38 360 266
0.055784054 0.77600002 -0.035375252 1.2718248e-38 361 266
0.057144642 0.77600002 -0.035375252 1.3179209e-38 362 266
0.058505226 0.77600002 -0.035375252 1.3363602e-38 363 266
0.059711516 0.77399999 -0.03528408 1.3456872e-38 364 266
0.061068594 0.77399999 -0.03528408 1.3641264e-38 365 266
0.06234502 0.773 -0.035238493 1.3641617e-38 366 266
0.063700356 0.773 -0.035238493 1.3733814e-38 367 266
0.064887367 0.77100003 -0.03514732 1.3733811e-38 368 266
0.066239186 0.77100003 -0.03514732 1.3733811e-38 369 266
0.067415662 0.76899999 -0.035056144 1.4009322e-38 370 266
0.068763971 0.76899999 -0.035056144 1.4101517e-38 371 266
0.06992995 0.76700002 -0.034964975 1.4101873e-38 372 266
0.07127475 0.76700002 -0.034964975 1.4101873e-38 373 266
0.072524875 0.76599997 -0.034919381 1.3918195e-38 374 266
0.073675066 0.764 -0.034828212 1.3918195e-38 375 266
0.074818239 0.76200002 -0.034737039 1.4100791e-38 376 266
0.076154284 0.76200002 -0.034737039 1.4192987e-38 377 266
0.077388622 0.76099998 -0.034691449 1.4284835e-38 378 266
0.078722909 0.76099998 -0.034691449 1.4469226e-38 379 266
0.080057196 0.76099998 -0.034691449 1.4194432e-38 380 266
0.081177577 0.759 -0.034600276 1.465541e-38 381 266
0.082290947 0.75700003 -0.034509107 1.5390807e-38 382 266
0.083618224 0.75700003 -0.034509107 1.575959e-38 383 266
0.084721066 0.755 -0.034417931 1.5945786e-38 384 266
0.085930869 0.75400001 -0.034372345 1.6498599e-38 385 266
0.08702144 0.75199997 -0.034281172 1.6866307e-38 386 266
0.08833994 0.75199997 -0.034281172 1.7051057e-38 387 266
0.089658447 0.75199997 -0.034281172 1.714325e-38 388 266
0.090734996 0.75 -0.034189999 1.7419837e-38 389 266
0.091927268 0.74900001 -0.034144413 1.7696774e-38 390 266
0.093240514 0.74900001 -0.034144413 1.7789328e-38 391 266
0.094553761 0.74900001 -0.034144413 1.8340702e-38 392 266
0.095867008 0.74900001 -0.034144413 1.8432897e-38 393 266
0.097180255 0.74900001 -0.034144413 1.843325e-38 394 266
0.098230496 0.74699998 -0.034053236 1.8340696e-38 395 266
0.099540234 0.74699998 -0.034053236 1.8431092e-38 396 266
0.10084997 0.74699998 -0.034053236 1.8154866e-38 397 266
0.10215972 0.74699998 -0.034053236 1.8061234e-38 398 266
0.10333094 0.74599999 -0.034007654 1.7877202e-38 399 266
0.10463893 0.74599999 -0.034007654 1.7970472e-38 400 266
0.10594691 0.74599999 -0.034007654 1.7878274e-38 401 266
0.10725491 0.74599999 -0.034007654 1.7235057e-38 402 266
0.10856289 0.74599999 -0.034007654 1.7142862e-38 403 266
0.10987087 0.74599999 -0.034007654 1.7232908e-38 404 266
0.11117886 0.74599999 -0.034007654 1.7140354e-38 405 266
0.11263763 0.74699998 -0.034053236 1.5852528e-38 406 266
0.11425246 0.74900001 -0.034144413 1.5852528e-38 407 266
0.05079582 0.78299999 -0.037067216 1.0507351e-38 357 267
0.052035429 0.78100002 -0.036972538 1.1152001e-38 358 267
0.053404782 0.78100002 -0.036972538 1.1520424e-38 359 267
0.054703996 0.77999997 -0.036925197 1.2073229e-38 360 267
0.055927824 0.778 -0.036830518 1.2442371e-38 361 267
0.057144642 0.77600002 -0.036735836 1.3087011e-38 362 267
0.058505226 0.77600002 -0.036735836 1.3087011e-38 363 267
0.059711516 0.77399999 -0.036641158 1.3730217e-38 364 267
0.061068594 0.77399999 -0.036641158 1.3914608e-38 365 267
0.062425677 0.77399999 -0.036641158 1.3640538e-38 366 267
0.063700356 0.773 -0.036593821 1.3732733e-38 367 267
0.064887367 0.77100003 -0.036499143 1.3824926e-38 368 267
0.066239186 0.77100003 -0.036499143 1.3824926e-38 369 267
0.067415662 0.76899999 -0.036404461 1.3917479e-38 370 267
0.068763971 0.76899999 -0.036404461 1.3917479e-38 371 267
0.06992995 0.76700002 -0.036309779 1.4009675e-38 372 267
0.07127475 0.76700002 -0.036309779 1.4009675e-38 373 267
0.072524875 0.76599997 -0.036262438 1.419299e-38 374 267
0.073675066 0.764 -0.036167759 1.4100794e-38 375 267
0.074818239 0.76200002 -0.036073081 1.4100791e-38 376 267
0.076054335 0.76099998 -0.036025736 1.4100791e-38 377 267
0.077388622 0.76099998 -0.036025736 1.428482e-38 378 267
0.078722909 0.76099998 -0.036025736 1.428482e-38 379 267
0.079846799 0.759 -0.035931058 1.4561046e-38 380 267
0.080963671 0.75700003 -0.03583638 1.4653242e-38 381 267
0.082290947 0.75700003 -0.03583638 1.4653242e-38 382 267
0.083397292 0.755 -0.035741698 1.4745438e-38 383 267
0.084608853 0.75400001 -0.035694357 1.5483726e-38 384 267
0.085702926 0.75199997 -0.035599679 1.6221291e-38 385 267
0.08702144 0.75199997 -0.035599679 1.6774462e-38 386 267
0.088105001 0.75 -0.035505001 1.6774462e-38 387 267
0.089419998 0.75 -0.035505001 1.723472e-38 388 267
0.090614013 0.74900001 -0.03545766 1.7419111e-38 389 267
0.091927268 0.74900001 -0.03545766 1.7787172e-38 390 267
0.092991538 0.74699998 -0.035362978 1.7971922e-38 391 267
0.094301268 0.74699998 -0.035362978 1.8340332e-38 392 267
0.095611013 0.74699998 -0.035362978 1.8248136e-38 393 267
0.096920758 0.74699998 -0.035362978 1.834105e-38 394 267
0.098230496 0.74699998 -0.035362978 1.834105e-38 395 267
0.099540234 0.74699998 -0.035362978 1.824743e-38 396 267
0.10084997 0.74699998 -0.035362978 1.7786453e-38 397 267
0.10202295 0.74599999 -0.03531564 1.6679382e-38 398 267
0.10333094 0.74599999 -0.03531564 1.6402794e-38 399 267
0.10463893 0.74599999 -0.03531564 1.6680104e-38 400 267
0.10594691 0.74599999 -0.03531564 1.7048887e-38 401 267
0.10725491 0.74599999 -0.03531564 1.7141808e-38 402 267
0.10827184 0.74400002 -0.035220962 1.7141808e-38 403 267
0.10957632 0.74400002 -0.035220962 1.7232919e-38 404 267
0.1108808 0.74400002 -0.035220962 1.7048887e-38 405 267
0.11218528 0.74400002 -0.035220962 1.6588631e-38 406 267
0.11379483 0.74599999 -0.03531564 1.6312043e-38 407 267
0.11525711 0.74699998 -0.035362978 1.5578849e-38 408 267
0.057439197 0.77999997 -0.038292799 1.1337829e-38 362 268
0.058505226 0.77600002 -0.038096428 1.170697e-38 363 268
0.059865814 0.77600002 -0.038096428 1.244274e-38 364 268
0.061068594 0.77399999 -0.037998237 1.2811162e-38 365 268
0.062425677 0.77399999 -0.037998237 1.2720399e-38 366 268
0.063700356 0.773 -0.037949149 1.3181377e-38 367 268
0.064887367 0.77100003 -0.037850961 1.3456872e-38 368 268
0.066239186 0.77100003 -0.037850961 1.3549068e-38 369 268
0.067415662 0.76899999 -0.03775277 1.3732731e-38 370 268
0.068763971 0.76899999 -0.03775277 1.3917123e-38 371 268
0.06992995 0.76700002 -0.037654586 1.3917126e-38 372 268
0.07127475 0.76700002 -0.037654586 1.3917126e-38 373 268
0.072524875 0.76599997 -0.037605491 1.3733458e-38 374 268
0.073675066 0.764 -0.037507307 1.3641261e-38 375 268
0.074818239 0.76200002 -0.037409119 1.3917126e-38 376 268
0.076054335 0.76099998 -0.037360024 1.3917126e-38 377 268
0.077388622 0.76099998 -0.037360024 1.3733811e-38 378 268
0.078722909 0.76099998 -0.037360024 1.3917842e-38 379 268
0.079846799 0.759 -0.03726184 1.4010041e-38 380 268
0.080963671 0.75700003 -0.037163652 1.4010041e-38 381 268
0.082073532 0.755 -0.037065465 1.4285904e-38 382 268
0.083397292 0.755 -0.037065465 1.4285904e-38 383 268
0.084608853 0.75400001 -0.037016369 1.4562849e-38 384 268
0.085702926 0.75199997 -0.036918186 1.5208217e-38 385 268
0.086789995 0.75 -0.036819998 1.6036898e-38 386 268
0.088105001 0.75 -0.036819998 1.6498237e-38 387 268
0.089300767 0.74900001 -0.036770906 1.6774467e-38 388 268
0.090614013 0.74900001 -0.036770906 1.6958859e-38 389 268
0.091681793 0.74699998 -0.036672719 1.732764e-38 390 268
0.092991538 0.74699998 -0.036672719 1.7512033e-38 391 268
0.094301268 0.74699998 -0.036672719 1.7880442e-38 392 268
0.095611013 0.74699998 -0.036672719 1.7880442e-38 393 268
0.096920758 0.74699998 -0.036672719 1.8065189e-38 394 268
0.098099001 0.74599999 -0.036623627 1.8065189e-38 395 268
0.09940698 0.74599999 -0.036623627 1.8155953e-38 396 268
0.10044496 0.74400002 -0.036525439 1.7694976e-38 397 268
0.10147592 0.74199998 -0.036427252 1.6585037e-38 398 268
0.10277689 0.74199998 -0.036427252 1.5663082e-38 399 268
0.10407786 0.74199998 -0.036427252 1.5755646e-38 400 268
0.10537883 0.74199998 -0.036427252 1.630882e-38 401 268
0.1066798 0.74199998 -0.036427252 1.6313136e-38 402 268
0.10798078 0.74199998 -0.036427252 1.6774114e-38 403 268
0.10928176 0.74199998 -0.036427252 1.7141805e-38 404 268
0.11058273 0.74199998 -0.036427252 1.6957413e-38 405 268
0.1118837 0.74199998 -0.036427252 1.6956338e-38 406 268
0.11348976 0.74400002 -0.036525439 1.6679751e-38 407 268
0.11479424 0.74400002 -0.036525439 1.5576315e-38 408 268
0.061384194 0.778 -0.039558705 1.143003e-38 365 269
0.062425677 0.77399999 -0.039355319 1.1891363e-38 366 269
0.063782752 0.77399999 -0.039355319 1.2444535e-38 367 269
0.064887367 0.77100003 -0.03920278 1.2995541e-38 368 269
0.066239186 0.77100003 -0.03920278 1.3271769e-38 369 269
0.067415662 0.76899999 -0.039101087 1.363911e-38 370 269
0.068763971 0.76899999 -0.039101087 1.3731664e-38 371 269
0.070112288 0.76899999 -0.039101087 1.382386e-38 372 269
0.071181826 0.76599997 -0.038948543 1.382386e-38 373 269
0.072335519 0.764 -0.038846854 1.3824576e-38 374 269
0.073482201 0.76200002 -0.038745161 1.3824576e-38 375 269
0.074818239 0.76200002 -0.038745161 1.3641617e-38 376 269
0.076054335 0.76099998 -0.038694311 1.3641617e-38 377 269
0.077388622 0.76099998 -0.038694311 1.3734164e-38 378 269
0.078516021 0.759 -0.038592618 1.3734164e-38 379 269
0.079636402 0.75700003 -0.038490929 1.3918548e-38 380 269
0.080963671 0.75700003 -0.038490929 1.3918548e-38 381 269
0.082073532 0.755 -0.038389232 1.4285533e-38 382 269
0.083397292 0.755 -0.038389232 1.4378087e-38 383 269
0.084608853 0.75400001 -0.038338386 1.4286255e-38 384 269
0.085702926 0.75199997 -0.038236689 1.4655397e-38 385 269
0.086789995 0.75 -0.038135 1.5300411e-38 386 269
0.087987527 0.74900001 -0.038084153 1.594578e-38 387 269
0.089300767 0.74900001 -0.038084153 1.6865217e-38 388 269
0.090372056 0.74699998 -0.03798246 1.704961e-38 389 269
0.091681793 0.74699998 -0.03798246 1.7142521e-38 390 269
0.092867047 0.74599999 -0.03793161 1.7419467e-38 391 269
0.094175033 0.74599999 -0.03793161 1.7604216e-38 392 269
0.095483027 0.74599999 -0.03793161 1.7788247e-38 393 269
0.096791007 0.74599999 -0.03793161 1.7880439e-38 394 269
0.097836003 0.74400002 -0.037829921 1.7972635e-38 395 269
0.09914048 0.74400002 -0.037829921 1.7879726e-38 396 269
0.10017494 0.74199998 -0.037728224 1.7602779e-38 397 269
0.10147592 0.74199998 -0.037728224 1.6307722e-38 398 269
0.10263838 0.741 -0.037677377 1.5016983e-38 399 269
0.1039376 0.741 -0.037677377 1.4553856e-38 400 269
0.10523681 0.741 -0.037677377 1.5383977e-38 401 269
0.10653604 0.741 -0.037677377 1.5115317e-38 402 269
0.10783526 0.741 -0.037677377 1.594508e-38 403 269
0.10928176 0.74199998 -0.037728224 1.6589e-38 404 269
0.11058273 0.74199998 -0.037728224 1.6681196e-38 405 269
0.1118837 0.74199998 -0.037728224 1.6865217e-38 406 269
0.11318468 0.74199998 -0.037728224 1.6680827e-38 407 269
0.11402278 0.73900002 -0.037575684 1.6220572e-38 408 269
0.11531849 0.73900002 -0.037575684 1.6036179e-38 409 269
0.063947573 0.77600002 -0.0408176 1.0328354e-38 367 270
0.064887367 0.77100003 -0.040554602 1.1431831e-38 368 270
0.066239186 0.77100003 -0.040554602 1.189245e-38 369 270
0.067766331 0.773 -0.0406598 1.2810446e-38 370 270
0.068942823 0.77100003 -0.040554602 1.3087035e-38 371 270
0.070112288 0.76899999 -0.0404494 1.3821706e-38 372 270
0.071181826 0.76599997 -0.040291596 1.3913902e-38 373 270
0.072335519 0.764 -0.040186398 1.391533e-38 374 270
0.073482201 0.76200002 -0.040081199 1.391533e-38 375 270
0.074818239 0.76200002 -0.040081199 1.3640535e-38 376 270
0.076054335 0.76099998 -0.040028598 1.3732731e-38 377 270
0.077388622 0.76099998 -0.040028598 1.364232e-38 378 270
0.078516021 0.759 -0.0399234 1.364232e-38 379 270
0.079636402 0.75700003 -0.039818201 1.3917825e-38 380 270
0.080963671 0.75700003 -0.039818201 1.4010381e-38 381 270
0.082073532 0.755 -0.039712999 1.4193337e-38 382 270
0.083397292 0.755 -0.039712999 1.4378087e-38 383 270
0.084608853 0.75400001 -0.039660402 1.4377731e-38 384 270
0.085474998 0.75 -0.039449997 1.4562481e-38 385 270
0.08667428 0.74900001 -0.0393974 1.4746157e-38 386 270
0.087987527 0.74900001 -0.0393974 1.5484082e-38 387 270
0.089062311 0.74699998 -0.039292198 1.6496436e-38 388 270
0.090372056 0.74699998 -0.039292198 1.6957413e-38 389 270
0.091559067 0.74599999 -0.039239597 1.6867013e-38 390 270
0.092618078 0.74400002 -0.039134398 1.7051405e-38 391 270
0.093922555 0.74400002 -0.039134398 1.7602776e-38 392 270
0.09522704 0.74400002 -0.039134398 1.7695332e-38 393 270
0.096272022 0.74199998 -0.0390292 1.7604216e-38 394 270
0.09757299 0.74199998 -0.0390292 1.7880442e-38 395 270
0.098873965 0.74199998 -0.0390292 1.7970487e-38 396 270
0.10003994 0.741 -0.038976599 1.7602063e-38 397 270
0.10133915 0.741 -0.038976599 1.5756353e-38 398 270
0.10236135 0.73900002 -0.0388714 1.4465614e-38 399 270
0.10365707 0.73900002 -0.0388714 1.3634425e-38 400 270
0.10495277 0.73900002 -0.0388714 1.4003206e-38 401 270
0.1062485 0.73900002 -0.0388714 1.4099368e-38 402 270
0.10754421 0.73900002 -0.0388714 1.5482304e-38 403 270
0.10913447 0.741 -0.038976599 1.6220572e-38 404 270
0.1104337 0.741 -0.038976599 1.6497158e-38 405 270
0.11173292 0.741 -0.038976599 1.6588982e-38 406 270
0.11303214 0.741 -0.038976599 1.6588982e-38 407 270
0.11402278 0.73900002 -0.0388714 1.6313121e-38 408 270
0.11531849 0.73900002 -0.0388714 1.6036532e-38 409 270
0.1169298 0.741 -0.038976599 1.5301896e-38 410 270
0.070476986 0.773 -0.042015124 1.317849e-38 372 271
0.07127475 0.76700002 -0.041689005 1.3454719e-38 373 271
0.072524875 0.76599997 -0.041634649 1.3363955e-38 374 271
0.073482201 0.76200002 -0.041417241 1.3363955e-38 375 271
0.074818239 0.76200002 -0.041417241 1.3456151e-38 376 271
0.076054335 0.76099998 -0.041362885 1.3732377e-38 377 271
0.077388622 0.76099998 -0.041362885 1.355049e-38 378 271
0.078516021 0.759 -0.041254178 1.355049e-38 379 271
0.079636402 0.75700003 -0.041145474 1.3825277e-38 380 271
0.080963671 0.75700003 -0.041145474 1.3917831e-38 381 271
0.082073532 0.755 -0.041036766 1.4009672e-38 382 271
0.083397292 0.755 -0.041036766 1.4102226e-38 383 271
0.084384419 0.75199997 -0.040873703 1.4285183e-38 384 271
0.085474998 0.75 -0.040764999 1.4469933e-38 385 271
0.08667428 0.74900001 -0.040710647 1.446993e-38 386 271
0.087987527 0.74900001 -0.040710647 1.4746157e-38 387 271
0.089062311 0.74699998 -0.040601939 1.5944334e-38 388 271
0.090251073 0.74599999 -0.040547583 1.6313477e-38 389 271
0.091313601 0.74400002 -0.040438879 1.7049963e-38 390 271
0.092618078 0.74400002 -0.040438879 1.7142158e-38 391 271
0.093670078 0.74199998 -0.040330172 1.7235076e-38 392 271
0.094971053 0.74199998 -0.040330172 1.7419467e-38 393 271
0.096272022 0.74199998 -0.040330172 1.7694976e-38 394 271
0.097441494 0.741 -0.04027582 1.7787172e-38 395 271
0.098740712 0.741 -0.04027582 1.8061964e-38 396 271
0.10003994 0.741 -0.04027582 1.7509149e-38 397 271
0.10106564 0.73900002 -0.040167112 1.5663438e-38 398 271
0.10222283 0.73799998 -0.040112756 1.4372699e-38 399 271
0.10351679 0.73799998 -0.040112756 1.3358187e-38 400 271
0.10481076 0.73799998 -0.040112756 1.3358187e-38 401 271
0.10610472 0.73799998 -0.040112756 1.3820244e-38 402 271
0.10739867 0.73799998 -0.040112756 1.5479406e-38 403 271
0.10883991 0.73900002 -0.040167112 1.6312394e-38 404 271
0.1104337 0.741 -0.04027582 1.6404591e-38 405 271
0.11173292 0.741 -0.04027582 1.6314193e-38 406 271
0.11303214 0.741 -0.04027582 1.6314193e-38 407 271
0.11433136 0.741 -0.04027582 1.6313121e-38 408 271
0.11563057 0.741 -0.04027582 1.6220925e-38 409 271
0.1169298 0.741 -0.04027582 1.5484107e-38 410 271
0.11822902 0.741 -0.04027582 1.5668138e-38 411 271
0.073675066 0.764 -0.042865492 1.2996259e-38 375 272
0.074818239 0.76200002 -0.042753279 1.3546548e-38 376 272
0.076054335 0.76099998 -0.042697169 1.391533e-38 377 272
0.077388622 0.76099998 -0.042697169 1.3732728e-38 378 272
0.078516021 0.759 -0.042584959 1.3732728e-38 379 272
0.079636402 0.75700003 -0.042472746 1.382456e-38 380 272
0.080963671 0.75700003 -0.042472746 1.382456e-38 381 272
0.082073532 0.755 -0.042360533 1.4100789e-38 382 272
0.083397292 0.755 -0.042360533 1.4285539e-38 383 272
0.084384419 0.75199997 -0.04219221 1.4285183e-38 384 272
0.085474998 0.75 -0.04208 1.4377378e-38 385 272
0.08667428 0.74900001 -0.042023893 1.4744722e-38 386 272
0.087987527 0.74900001 -0.042023893 1.502095e-38 387 272
0.089062311 0.74699998 -0.041911677 1.5298612e-38 388 272
0.090251073 0.74599999 -0.04185557 1.6036177e-38 389 272
0.091313601 0.74400002 -0.04174336 1.6681902e-38 390 272
0.092369102 0.74199998 -0.041631144 1.6866295e-38 391 272
0.093670078 0.74199998 -0.041631144 1.7325471e-38 392 272
0.094971053 0.74199998 -0.041631144 1.7509862e-38 393 272
0.096142277 0.741 -0.041575037 1.7877924e-38 394 272
0.097441494 0.741 -0.041575037 1.7970121e-38 395 272
0.098474212 0.73900002 -0.041462827 1.797049e-38 396 272
0.09976992 0.73900002 -0.041462827 1.7693903e-38 397 272
0.10092887 0.73799998 -0.041406717 1.5480492e-38 398 272
0.10222283 0.73799998 -0.041406717 1.382061e-38 399 272
0.10323627 0.736 -0.041294504 1.2987259e-38 400 272
0.10452672 0.736 -0.041294504 1.3540433e-38 401 272
0.10581717 0.736 -0.041294504 1.3819538e-38 402 272
0.10710762 0.736 -0.041294504 1.5110277e-38 403 272
0.10869263 0.73799998 -0.041406717 1.658755e-38 404 272
0.1099866 0.73799998 -0.041406717 1.658755e-38 405 272
0.11143135 0.73900002 -0.041462827 1.6313477e-38 406 272
0.11303214 0.741 -0.041575037 1.6313477e-38 407 272
0.11433136 0.741 -0.041575037 1.6313477e-38 408 272
0.11563057 0.741 -0.041575037 1.6313477e-38 409 272
0.1169298 0.741 -0.041575037 1.5760681e-38 410 272
0.11822902 0.741 -0.041575037 1.5760681e-38 411 272
0.11952823 0.741 -0.041575037 1.5672862e-38 412 272
0.12082746 0.741 -0.041575037 1.677957e-38 413 272
0.076154284 0.76200002 -0.044089317 1.3088104e-38 377 273
0.077388622 0.76099998 -0.044031456 1.3089532e-38 378 273
0.078722909 0.76099998 -0.044031456 1.3181727e-38 379 273
0.079636402 0.75700003 -0.043800019 1.3180653e-38 380 273
0.080963671 0.75700003 -0.043800019 1.3365403e-38 381 273
0.082073532 0.755 -0.043684296 1.3366119e-38 382 273
0.083397292 0.755 -0.043684296 1.3550511e-38 383 273
0.084384419 0.75199997 -0.04351072 1.3826728e-38 384 273
0.085474998 0.75 -0.043394998 1.3918924e-38 385 273
0.08667428 0.74900001 -0.04333714 1.4377747e-38 386 273
0.087752573 0.74699998 -0.043221418 1.4562498e-38 387 273
0.089062311 0.74699998 -0.043221418 1.5022753e-38 388 273
0.090251073 0.74599999 -0.04316356 1.5575927e-38 389 273
0.091313601 0.74400002 -0.043047838 1.6497158e-38 390 273
0.092369102 0.74199998 -0.042932119 1.6681549e-38 391 273
0.093670078 0.74199998 -0.042932119 1.6774467e-38 392 273
0.094843052 0.741 -0.042874258 1.6958859e-38 393 273
0.096142277 0.741 -0.042874258 1.7143606e-38 394 273
0.097178504 0.73900002 -0.042758539 1.7327637e-38 395 273
0.098340951 0.73799998 -0.042700678 1.7786105e-38 396 273
0.099634908 0.73799998 -0.042700678 1.7970137e-38 397 273
0.10065536 0.736 -0.042584959 1.5941114e-38 398 273
0.10194581 0.736 -0.042584959 1.3544028e-38 399 273
0.10323627 0.736 -0.042584959 1.2249338e-38 400 273
0.10452672 0.736 -0.042584959 1.2249338e-38 401 273
0.10581717 0.736 -0.042584959 1.2805759e-38 402 273
0.10710762 0.736 -0.042584959 1.4649672e-38 403 273
0.10839808 0.736 -0.042584959 1.6128378e-38 404 273
0.1099866 0.73799998 -0.042700678 1.631277e-38 405 273
0.11128055 0.73799998 -0.042700678 1.6221641e-38 406 273
0.11272705 0.73900002 -0.042758539 1.6314196e-38 407 273
0.11402278 0.73900002 -0.042758539 1.6496789e-38 408 273
0.11531849 0.73900002 -0.042758539 1.6496789e-38 409 273
0.1166142 0.73900002 -0.042758539 1.6221294e-38 410 273
0.11822902 0.741 -0.042874258 1.6036901e-38 411 273
0.11920562 0.73900002 -0.042758539 1.5210073e-38 412 273
0.12050135 0.73900002 -0.042758539 1.6316421e-38 413 273
0.12179706 0.73900002 -0.042758539 1.74257e-38 414 273
0.077388622 0.76099998 -0.045365743 1.2903365e-38 378 274
0.078722909 0.76099998 -0.045365743 1.2810809e-38 379 274
0.079846799 0.759 -0.045246519 1.2995544e-38 380 274
0.080963671 0.75700003 -0.045127295 1.3271772e-38 381 274
0.082073532 0.755 -0.045008067 1.3273201e-38 382 274
0.083397292 0.755 -0.045008067 1.3549787e-38 383 274
0.084384419 0.75199997 -0.044829223 1.4010396e-38 384 274
0.085474998 0.75 -0.044709999 1.4102592e-38 385 274
0.08667428 0.74900001 -0.044650383 1.4469933e-38 386 274
0.087752573 0.74699998 -0.044531155 1.4562128e-38 387 274
0.088943094 0.74599999 -0.044471547 1.4929833e-38 388 274
0.090009123 0.74400002 -0.044352323 1.539081e-38 389 274
0.091068126 0.74199998 -0.044233091 1.6219494e-38 390 274
0.092369102 0.74199998 -0.044233091 1.6680833e-38 391 274
0.093543842 0.741 -0.044173479 1.6864861e-38 392 274
0.094843052 0.741 -0.044173479 1.7049254e-38 393 274
0.095882788 0.73900002 -0.044054255 1.7234357e-38 394 274
0.097046994 0.73799998 -0.043994635 1.7326552e-38 395 274
0.098074451 0.736 -0.043875411 1.7602429e-38 396 274
0.099364907 0.736 -0.043875411 1.7786822e-38 397 274
0.10065536 0.736 -0.043875411 1.6034026e-38 398 274
0.10194581 0.736 -0.043875411 1.4005722e-38 399 274
0.10323627 0.736 -0.043875411 1.1327739e-38 400 274
0.10424268 0.73400003 -0.043756187 1.1235542e-38 401 274
0.10552963 0.73400003 -0.043756187 1.1698686e-38 402 274
0.10681657 0.73400003 -0.043756187 1.3911739e-38 403 274
0.10839808 0.736 -0.043875411 1.5207145e-38 404 274
0.10968854 0.736 -0.043875411 1.6313492e-38 405 274
0.11097898 0.736 -0.043875411 1.6313487e-38 406 274
0.11226943 0.736 -0.043875411 1.6221291e-38 407 274
0.11386847 0.73799998 -0.043994635 1.6496789e-38 408 274
0.11516243 0.73799998 -0.043994635 1.6496789e-38 409 274
0.1166142 0.73900002 -0.044054255 1.5945786e-38 410 274
0.11790991 0.73900002 -0.044054255 1.5945786e-38 411 274
0.11904431 0.73799998 -0.043994635 1.4839846e-38 412 274
0.12033827 0.73799998 -0.043994635 1.5761442e-38 413 274
0.12179706 0.73900002 -0.044054255 1.705691e-38 414 274
0.12309276 0.73900002 -0.044054255 1.7241303e-38 415 274
0.078516021 0.759 -0.046577301 1.1798835e-38 379 275
0.079846799 0.759 -0.046577301 1.1891734e-38 380 275
0.080963671 0.75700003 -0.046454567 1.2260156e-38 381 275
0.082073532 0.755 -0.04633183 1.2813315e-38 382 275
0.083397292 0.755 -0.04633183 1.309026e-38 383 275
0.084384419 0.75199997 -0.04614773 1.3641984e-38 384 275
0.085474998 0.75 -0.046024997 1.3826375e-38 385 275
0.08667428 0.74900001 -0.045963634 1.4377028e-38 386 275
0.087752573 0.74699998 -0.045840897 1.4469224e-38 387 275
0.088943094 0.74599999 -0.045779534 1.4838006e-38 388 275
0.090009123 0.74400002 -0.0456568 1.5022397e-38 389 275
0.091068126 0.74199998 -0.045534063 1.5483373e-38 390 275
0.092244618 0.741 -0.045472696 1.6036547e-38 391 275
0.093543842 0.741 -0.045472696 1.60387e-38 392 275
0.094587073 0.73900002 -0.045349967 1.6223092e-38 393 275
0.095753036 0.73799998 -0.0452886 1.6774465e-38 394 275
0.096783996 0.736 -0.045165867 1.686666e-38 395 275
0.098074451 0.736 -0.045165867 1.7143253e-38 396 275
0.09909489 0.73400003 -0.045043133 1.7419481e-38 397 275
0.10038184 0.73400003 -0.045043133 1.6494639e-38 398 275
0.10166879 0.73400003 -0.045043133 1.4742924e-38 399 275
0.10295573 0.73400003 -0.045043133 1.1786553e-38 400 275
0.10410065 0.73299998 -0.044981763 1.1233379e-38 401 275
0.10538585 0.73299998 -0.044981763 1.1788716e-38 402 275
0.10667104 0.73299998 -0.044981763 1.3724824e-38 403 275
0.10795623 0.73299998 -0.044981763 1.5388656e-38 404 275
0.10924143 0.73299998 -0.044981763 1.6864145e-38 405 275
0.11052662 0.73299998 -0.044981763 1.6864861e-38 406 275
0.11181182 0.73299998 -0.044981763 1.6588634e-38 407 275
0.11355989 0.736 -0.045165867 1.6496433e-38 408 275
0.11485034 0.736 -0.045165867 1.6496433e-38 409 275
0.11614079 0.736 -0.045165867 1.6220572e-38 410 275
0.11743125 0.736 -0.045165867 1.6220572e-38 411 275
0.1187217 0.736 -0.045165867 1.5390849e-38 412 275
0.12001215 0.736 -0.045165867 1.575963e-38 413 275
0.12163223 0.73799998 -0.0452886 1.5951273e-38 414 275
0.1229262 0.73799998 -0.0452886 1.6781034e-38 415 275
0.079636402 0.75700003 -0.04778184 1.1428955e-38 380 276
0.080963671 0.75700003 -0.04778184 1.1889932e-38 381 276
0.082073532 0.755 -0.047655597 1.308666e-38 382 276
0.083397292 0.755 -0.047655597 1.373203e-38 383 276
0.084384419 0.75199997 -0.047466237 1.3549431e-38 384 276
0.085474998 0.75 -0.047339998 1.3641628e-38 385 276
0.08667428 0.74900001 -0.047276881 1.4192637e-38 386 276
0.087752573 0.74699998 -0.047150634 1.4469224e-38 387 276
0.088943094 0.74599999 -0.047087517 1.4562498e-38 388 276
0.089767151 0.74199998 -0.046835039 1.4746889e-38 389 276
0.091068126 0.74199998 -0.046835039 1.5115665e-38 390 276
0.092244618 0.741 -0.046771921 1.5668839e-38 391 276
0.093291357 0.73900002 -0.046645679 1.6220925e-38 392 276
0.094459072 0.73799998 -0.046582557 1.6497152e-38 393 276
0.095493548 0.736 -0.046456318 1.649859e-38 394 276
0.096783996 0.736 -0.046456318 1.6774818e-38 395 276
0.097807944 0.73400003 -0.046330083 1.6958862e-38 396 276
0.09909489 0.73400003 -0.046330083 1.7143253e-38 397 276
0.10024507 0.73299998 -0.046266954 1.7047454e-38 398 276
0.10153027 0.73299998 -0.046266954 1.5296098e-38 399 276
0.10253493 0.73100001 -0.046140719 1.2337922e-38 400 276
0.10381662 0.73100001 -0.046140719 1.1416325e-38 401 276
0.10509831 0.73100001 -0.046140719 1.1696518e-38 402 276
0.10637999 0.73100001 -0.046140719 1.3632626e-38 403 276
0.10766167 0.73100001 -0.046140719 1.5479057e-38 404 276
0.10894337 0.73100001 -0.046140719 1.7138937e-38 405 276
0.11022505 0.73100001 -0.046140719 1.6682265e-38 406 276
0.11150674 0.73100001 -0.046140719 1.6406038e-38 407 276
0.11325131 0.73400003 -0.046330083 1.6681183e-38 408 276
0.11485034 0.736 -0.046456318 1.6588987e-38 409 276
0.11582521 0.73400003 -0.046330083 1.6220925e-38 410 276
0.11711214 0.73400003 -0.046330083 1.6128728e-38 411 276
0.11839909 0.73400003 -0.046330083 1.5759978e-38 412 276
0.12001215 0.736 -0.046456318 1.5759978e-38 413 276
0.1213026 0.736 -0.046456318 1.5120784e-38 414 276
0.1229262 0.73799998 -0.046582557 1.6411523e-38 415 276
0.082290947 0.75700003 -0.049109112 1.2257993e-38 382 277
0.083397292 0.755 -0.048979364 1.3087754e-38 383 277
0.084608853 0.75400001 -0.048914492 1.3456163e-38 384 277
0.085702926 0.75199997 -0.048784744 1.3640913e-38 385 277
0.086789995 0.75 -0.048655 1.3916773e-38 386 277
0.087752573 0.74699998 -0.048460379 1.4285554e-38 387 277
0.088704646 0.74400002 -0.048265759 1.4286633e-38 388 277
0.089767151 0.74199998 -0.048136011 1.437883e-38 389 277
0.090945393 0.741 -0.048071139 1.4839438e-38 390 277
0.092244618 0.741 -0.048071139 1.5392612e-38 391 277
0.093165115 0.73799998 -0.047876518 1.5853215e-38 392 277
0.094203092 0.736 -0.047746774 1.6129802e-38 393 277
0.095493548 0.736 -0.047746774 1.6406391e-38 394 277
0.096521005 0.73400003 -0.047617026 1.6774815e-38 395 277
0.09767469 0.73299998 -0.04755215 1.6865941e-38 396 277
0.098959878 0.73299998 -0.04755215 1.7142527e-38 397 277
0.10024507 0.73299998 -0.04755215 1.741695e-38 398 277
0.10125324 0.73100001 -0.047422405 1.6034016e-38 399 277
0.10253493 0.73100001 -0.047422405 1.3166944e-38 400 277
0.10381662 0.73100001 -0.047422405 1.1691453e-38 401 277
0.10509831 0.73100001 -0.047422405 1.1419548e-38 402 277
0.10637999 0.73100001 -0.047422405 1.3355657e-38 403 277
0.1075144 0.73000002 -0.047357533 1.4835473e-38 404 277
0.10879433 0.73000002 -0.047357533 1.6586829e-38 405 277
0.11007427 0.73000002 -0.047357533 1.6774098e-38 406 277
0.1113542 0.73000002 -0.047357533 1.6589706e-38 407 277
0.11278843 0.73100001 -0.047422405 1.6680827e-38 408 277
0.1140701 0.73100001 -0.047422405 1.6588631e-38 409 277
0.1156674 0.73299998 -0.04755215 1.6220922e-38 410 277
0.11695258 0.73299998 -0.04755215 1.6128725e-38 411 277
0.11823778 0.73299998 -0.04755215 1.5760687e-38 412 277
0.11968604 0.73400003 -0.047617026 1.5668133e-38 413 277
0.1213026 0.736 -0.047746774 1.4566521e-38 414 277
0.12259306 0.736 -0.047746774 1.6041651e-38 415 277
0.082508355 0.759 -0.050569639 1.0968704e-38 382 278
0.083397292 0.755 -0.050303131 1.1798465e-38 383 278
0.084721066 0.755 -0.050303131 1.2720403e-38 384 278
0.085702926 0.75199997 -0.050103247 1.3365771e-38 385 278
0.086789995 0.75 -0.049969997 1.3458321e-38 386 278
0.087752573 0.74699998 -0.049770117 1.3734548e-38 387 278
0.088466182 0.74199998 -0.049436983 1.4194087e-38 388 278
0.089646183 0.741 -0.049370356 1.437848e-38 389 278
0.090945393 0.741 -0.049370356 1.4563943e-38 390 278
0.091995649 0.73900002 -0.049237106 1.4932367e-38 391 278
0.092912637 0.736 -0.049037226 1.6036895e-38 392 278
0.094203092 0.736 -0.049037226 1.6129092e-38 393 278
0.095234051 0.73400003 -0.048903972 1.6313842e-38 394 278
0.096521005 0.73400003 -0.048903972 1.6498234e-38 395 278
0.09767469 0.73299998 -0.048837345 1.6773391e-38 396 278
0.098689869 0.73100001 -0.048704091 1.6958143e-38 397 278
0.0998348 0.73000002 -0.048637468 1.7509143e-38 398 278
0.10111474 0.73000002 -0.048637468 1.6771578e-38 399 278
0.10239466 0.73000002 -0.048637468 1.4460903e-38 400 278
0.1036746 0.73000002 -0.048637468 1.1787229e-38 401 278
0.10495453 0.73000002 -0.048637468 1.1419529e-38 402 278
0.10623446 0.73000002 -0.048637468 1.3355629e-38 403 278
0.1075144 0.73000002 -0.048637468 1.4559582e-38 404 278
0.10879433 0.73000002 -0.048637468 1.6219464e-38 405 278
0.11007427 0.73000002 -0.048637468 1.677265e-38 406 278
0.1113542 0.73000002 -0.048637468 1.677265e-38 407 278
0.11263414 0.73000002 -0.048637468 1.6497158e-38 408 278
0.1140701 0.73100001 -0.048704091 1.6312768e-38 409 278
0.1153518 0.73100001 -0.048704091 1.5853939e-38 410 278
0.11663349 0.73100001 -0.048704091 1.5853939e-38 411 278
0.11791517 0.73100001 -0.048704091 1.5485176e-38 412 278
0.11952297 0.73299998 -0.048837345 1.5485176e-38 413 278
0.12097298 0.73400003 -0.048903972 1.4196291e-38 414 278
0.12259306 0.736 -0.049037226 1.5763616e-38 415 278
0.083618224 0.75700003 -0.051763661 1.1058746e-38 383 279
0.084945492 0.75700003 -0.051763661 1.1339279e-38 384 279
0.086044833 0.755 -0.051626898 1.216904e-38 385 279
0.087252878 0.75400001 -0.051558517 1.4006466e-38 386 279
0.088574894 0.75400001 -0.051558517 1.4651835e-38 387 279
0.088346958 0.741 -0.050669577 1.4194081e-38 388 279
0.089404218 0.73900002 -0.050532822 1.4286277e-38 389 279
0.0905772 0.73799998 -0.050464436 1.4654338e-38 390 279
0.091871157 0.73799998 -0.050464436 1.5115315e-38 391 279
0.092912637 0.736 -0.050327681 1.5760671e-38 392 279
0.094203092 0.736 -0.050327681 1.5760671e-38 393 279
0.095234051 0.73400003 -0.050190922 1.6313842e-38 394 279
0.096389495 0.73299998 -0.050122537 1.6406038e-38 395 279
0.097408183 0.73100001 -0.049985781 1.6864861e-38 396 279
0.098554872 0.73000002 -0.0499174 1.7049254e-38 397 279
0.0998348 0.73000002 -0.0499174 1.7141805e-38 398 279
0.1008377 0.72799999 -0.049780637 1.6865217e-38 399 279
0.10211413 0.72799999 -0.049780637 1.6307356e-38 400 279
0.10339055 0.72799999 -0.049780637 1.4924421e-38 401 279
0.10466698 0.72799999 -0.049780637 1.4094308e-38 402 279
0.10623446 0.73000002 -0.0499174 1.5385046e-38 403 279
0.10721984 0.72799999 -0.049780637 1.5483362e-38 404 279
0.10849626 0.72799999 -0.049780637 1.6036177e-38 405 279
0.10977269 0.72799999 -0.049780637 1.6314196e-38 406 279
0.11104912 0.72799999 -0.049780637 1.6221641e-38 407 279
0.11263414 0.73000002 -0.0499174 1.6312043e-38 408 279
0.11391407 0.73000002 -0.0499174 1.6312043e-38 409 279
0.11519401 0.73000002 -0.0499174 1.6219848e-38 410 279
0.11663349 0.73100001 -0.049985781 1.6035458e-38 411 279
0.11791517 0.73100001 -0.049985781 1.5485527e-38 412 279
0.11952297 0.73299998 -0.050122537 1.5208581e-38 413 279
0.12080817 0.73299998 -0.050122537 1.4010804e-38 414 279
0.12225994 0.73400003 -0.050190922 1.5393739e-38 415 279
0.08810851 0.73900002 -0.051828533 1.3918939e-38 388 280
0.089404218 0.73900002 -0.051828533 1.4011135e-38 389 280
0.0905772 0.73799998 -0.051758397 1.419553e-38 390 280
0.091622181 0.736 -0.051618133 1.4564312e-38 391 280
0.092912637 0.736 -0.051618133 1.5207515e-38 392 280
0.093947105 0.73400003 -0.051477864 1.5852884e-38 393 280
0.095234051 0.73400003 -0.051477864 1.6313136e-38 394 280
0.096126497 0.73100001 -0.051267464 1.6313136e-38 395 280
0.097408183 0.73100001 -0.051267464 1.6313858e-38 396 280
0.098554872 0.73000002 -0.051197331 1.6406053e-38 397 280
0.099561274 0.72799999 -0.051057063 1.6773391e-38 398 280
0.1008377 0.72799999 -0.051057063 1.6958143e-38 399 280
0.10211413 0.72799999 -0.051057063 1.6863776e-38 400 280
0.10339055 0.72799999 -0.051057063 1.6218407e-38 401 280
0.10466698 0.72799999 -0.051057063 1.5574122e-38 402 280
0.10594341 0.72799999 -0.051057063 1.5758515e-38 403 280
0.10721984 0.72799999 -0.051057063 1.6403887e-38 404 280
0.10849626 0.72799999 -0.051057063 1.6403887e-38 405 280
0.10977269 0.72799999 -0.051057063 1.6312768e-38 406 280
0.11104912 0.72799999 -0.051057063 1.6128375e-38 407 280
0.11263414 0.73000002 -0.051197331 1.6035826e-38 408 280
0.11391407 0.73000002 -0.051197331 1.5943631e-38 409 280
0.11519401 0.73000002 -0.051197331 1.5484808e-38 410 280
0.11647393 0.73000002 -0.051197331 1.5668839e-38 411 280
0.11775387 0.73000002 -0.051197331 1.5117464e-38 412 280
0.11919686 0.73100001 -0.051267464 1.4933073e-38 413 280
0.12047854 0.73100001 -0.051267464 1.2630744e-38 414 280
0.12209335 0.73299998 -0.051407732 1.3921483e-38 415 280
0.12337855 0.73299998 -0.051407732 1.6043119e-38 416 280
0.08810851 0.73900002 -0.053124249 1.4100814e-38 388 281
0.089283235 0.73799998 -0.053052358 1.4377399e-38 389 281
0.090331733 0.736 -0.052908584 1.428663e-38 390 281
0.091622181 0.736 -0.052908584 1.4563217e-38 391 281
0.092660166 0.73400003 -0.052764814 1.4747608e-38 392 281
0.093947105 0.73400003 -0.052764814 1.5485173e-38 393 281
0.095104299 0.73299998 -0.052692924 1.6128026e-38 394 281
0.096126497 0.73100001 -0.052549154 1.6220222e-38 395 281
0.097274937 0.73000002 -0.052477267 1.6496451e-38 396 281
0.098554872 0.73000002 -0.052477267 1.6680843e-38 397 281
0.099561274 0.72799999 -0.052333489 1.6864511e-38 398 281
0.1008377 0.72799999 -0.052333489 1.7048903e-38 399 281
0.10211413 0.72799999 -0.052333489 1.695814e-38 400 281
0.10339055 0.72799999 -0.052333489 1.6773747e-38 401 281
0.10466698 0.72799999 -0.052333489 1.7049259e-38 402 281
0.10579788 0.727 -0.052261602 1.6957062e-38 403 281
0.10707255 0.727 -0.052261602 1.658935e-38 404 281
0.10834723 0.727 -0.052261602 1.6313124e-38 405 281
0.1096219 0.727 -0.052261602 1.6311322e-38 406 281
0.11089658 0.727 -0.052261602 1.612693e-38 407 281
0.11232553 0.72799999 -0.052333489 1.6034735e-38 408 281
0.11360197 0.72799999 -0.052333489 1.6034735e-38 409 281
0.11487839 0.72799999 -0.052333489 1.5393678e-38 410 281
0.11615483 0.72799999 -0.052333489 1.5301483e-38 411 281
0.11743125 0.72799999 -0.052333489 1.5025269e-38 412 281
0.11870768 0.72799999 -0.052333489 1.4656845e-38 413 281
0.12031373 0.73000002 -0.052477267 1.2630021e-38 414 281
0.12159366 0.73000002 -0.052477267 1.3459781e-38 415 281
0.1228736 0.73000002 -0.052477267 1.5305904e-38 416 281
0.087989271 0.73799998 -0.054346316 1.4010422e-38 388 282
0.089041278 0.736 -0.05419904 1.4194453e-38 389 282
0.090331733 0.736 -0.05419904 1.4286277e-38 390 282
0.091622181 0.736 -0.05419904 1.4378833e-38 391 282
0.092660166 0.73400003 -0.054051761 1.4655057e-38 392 282
0.093947105 0.73400003 -0.054051761 1.5300426e-38 393 282
0.095104299 0.73299998 -0.053978115 1.5667414e-38 394 282
0.096126497 0.73100001 -0.053830836 1.5852164e-38 395 282
0.097274937 0.73000002 -0.053757198 1.6035843e-38 396 282
0.098284848 0.72799999 -0.053609919 1.6220593e-38 397 282
0.099561274 0.72799999 -0.053609919 1.6129474e-38 398 282
0.1008377 0.72799999 -0.053609919 1.6497897e-38 399 282
0.10197386 0.727 -0.053536277 1.6681196e-38 400 282
0.10324854 0.727 -0.053536277 1.6773391e-38 401 282
0.1045232 0.727 -0.053536277 1.6589706e-38 402 282
0.10579788 0.727 -0.053536277 1.6589706e-38 403 282
0.10707255 0.727 -0.053536277 1.6314196e-38 404 282
0.10804917 0.72500002 -0.053388998 1.6129446e-38 405 282
0.10932034 0.72500002 -0.053388998 1.5943262e-38 406 282
0.1105915 0.72500002 -0.053388998 1.5758871e-38 407 282
0.11217125 0.727 -0.053536277 1.5575556e-38 408 282
0.11344593 0.727 -0.053536277 1.5575556e-38 409 282
0.1147206 0.727 -0.053536277 1.5025619e-38 410 282
0.11599527 0.727 -0.053536277 1.4933422e-38 411 282
0.11743125 0.72799999 -0.053609919 1.447317e-38 412 282
0.11870768 0.72799999 -0.053609919 1.4104389e-38 413 282
0.1199841 0.72799999 -0.053609919 1.2537101e-38 414 282
0.12126052 0.72799999 -0.053609919 1.336722e-38 415 282
0.12253696 0.72799999 -0.053609919 1.5305181e-38 416 282
0.087750822 0.736 -0.055489492 1.3549808e-38 388 283
0.089041278 0.736 -0.055489492 1.3918589e-38 389 283
0.090331733 0.736 -0.055489492 1.4469229e-38 390 283
0.091373213 0.73400003 -0.055338707 1.4469229e-38 391 283
0.092660166 0.73400003 -0.055338707 1.4562864e-38 392 283
0.093819112 0.73299998 -0.055263311 1.4931646e-38 393 283
0.095104299 0.73299998 -0.055263311 1.5207877e-38 394 283
0.096126497 0.73100001 -0.055112526 1.5392627e-38 395 283
0.097274937 0.73000002 -0.055037133 1.5759612e-38 396 283
0.098284848 0.72799999 -0.054886345 1.6036199e-38 397 283
0.099561274 0.72799999 -0.054886345 1.585325e-38 398 283
0.10069919 0.727 -0.054810952 1.6037641e-38 399 283
0.10197386 0.727 -0.054810952 1.6496454e-38 400 283
0.1029645 0.72500002 -0.054660168 1.658865e-38 401 283
0.10423566 0.72500002 -0.054660168 1.6314211e-38 402 283
0.10550684 0.72500002 -0.054660168 1.6129821e-38 403 283
0.106778 0.72500002 -0.054660168 1.5945783e-38 404 283
0.10804917 0.72500002 -0.054660168 1.576139e-38 405 283
0.10932034 0.72500002 -0.054660168 1.5575556e-38 406 283
0.1105915 0.72500002 -0.054660168 1.5483359e-38 407 283
0.11186267 0.72500002 -0.054660168 1.5208567e-38 408 283
0.11313383 0.72500002 -0.054660168 1.5208567e-38 409 283
0.114405 0.72500002 -0.054660168 1.5024899e-38 410 283
0.11599527 0.727 -0.054810952 1.4840507e-38 411 283
0.11726995 0.727 -0.054810952 1.4013264e-38 412 283
0.11854462 0.727 -0.054810952 1.3644482e-38 413 283
0.11981928 0.727 -0.054810952 1.2352342e-38 414 283
0.12109397 0.727 -0.054810952 1.3366135e-38 415 283
0.12236863 0.727 -0.054810952 1.5120787e-38 416 283
0.087750822 0.736 -0.056779943 1.2444552e-38 388 284
0.08879932 0.73400003 -0.056625653 1.3089921e-38 389 284
0.090086266 0.73400003 -0.056625653 1.410117e-38 390 284
0.091373213 0.73400003 -0.056625653 1.4285201e-38 391 284
0.092660166 0.73400003 -0.056625653 1.4378833e-38 392 284
0.093819112 0.73299998 -0.056548502 1.4747255e-38 393 284
0.094844811 0.73100001 -0.056394216 1.4931649e-38 394 284
0.096126497 0.73100001 -0.056394216 1.5300432e-38 395 284
0.097274937 0.73000002 -0.056317069 1.5484104e-38 396 284
0.098284848 0.72799999 -0.056162767 1.5484104e-38 397 284
0.099424519 0.727 -0.056085624 1.5759612e-38 398 284
0.10042217 0.72500002 -0.055931333 1.6036199e-38 399 284
0.10169333 0.72500002 -0.055931333 1.640354e-38 400 284
0.10268046 0.72299999 -0.055777039 1.640354e-38 401 284
0.10394812 0.72299999 -0.055777039 1.6128748e-38 402 284
0.10521577 0.72299999 -0.055777039 1.6036193e-38 403 284
0.10648344 0.72299999 -0.055777039 1.5761037e-38 404 284
0.10775109 0.72299999 -0.055777039 1.5484452e-38 405 284
0.10901875 0.72299999 -0.055777039 1.520857e-38 406 284
0.1105915 0.72500002 -0.055931333 1.520857e-38 407 284
