# .PCD v.7 - Point Cloud Data file format
FIELDS x y z rgb imX imY
SIZE 4 4 4 4 4 4
TYPE F F F F F F
COUNT 1 1 1 1 1 1
WIDTH 850
HEIGHT 1
VIEWPOINT 0 0 0 1 0 0 0
POINTS 850
DATA ascii
0.052989237 0.65700001 -0.1094343 1.1707671e-38 366 335
0.054223582 0.65799999 -0.10960086 1.0785714e-38 367 335
0.055377278 0.65799999 -0.10960086 7.6572371e-39 368 335
0.056530971 0.65799999 -0.10960086 7.0118677e-39 369 335
-0.048451614 0.67400002 -0.11344768 1.0601011e-38 279 336
-0.047129598 0.67199999 -0.11311104 1.1153443e-38 280 336
-0.0458146 0.67000002 -0.11277439 1.143003e-38 281 336
-0.044639867 0.67000002 -0.11277439 1.1797355e-38 282 336
-0.043465134 0.67000002 -0.11277439 1.1797355e-38 283 336
-0.042164158 0.66799998 -0.11243775 1.1889171e-38 284 336
-0.040931564 0.667 -0.11226943 1.1889171e-38 285 336
-0.039702479 0.66600001 -0.11210112 1.1889521e-38 286 336
-0.038419038 0.66399997 -0.11176447 1.1889521e-38 287 336
-0.037254825 0.66399997 -0.11176447 1.1889877e-38 288 336
-0.036036257 0.66299999 -0.11159615 1.1797323e-38 289 336
-0.034821201 0.662 -0.11142784 1.179661e-38 290 336
-0.033660494 0.662 -0.11142784 1.1704414e-38 291 336
-0.032450691 0.66100001 -0.11125952 1.1979925e-38 292 336
-0.031197058 0.65899998 -0.11092287 1.1979925e-38 293 336
-0.030041611 0.65899998 -0.11092287 1.188737e-38 294 336
-0.028886165 0.65899998 -0.11092287 1.1979925e-38 295 336
-0.027730718 0.65899998 -0.11092287 1.1887376e-38 296 336
-0.026575271 0.65899998 -0.11092287 1.1702986e-38 297 336
-0.025381252 0.65799999 -0.11075456 1.1702992e-38 298 336
-0.02422756 0.65799999 -0.11075456 1.1610437e-38 299 336
-0.023073865 0.65799999 -0.11075456 1.1702636e-38 300 336
-0.021886859 0.65700001 -0.11058623 1.1702636e-38 301 336
-0.020734919 0.65700001 -0.11058623 1.1885235e-38 302 336
-0.019582979 0.65700001 -0.11058623 1.1885235e-38 303 336
-0.01843104 0.65700001 -0.11058623 1.17005e-38 304 336
-0.0172791 0.65700001 -0.11058623 1.1793055e-38 305 336
-0.01612716 0.65700001 -0.11058623 1.1793032e-38 306 336
-0.014929632 0.65499997 -0.11024959 1.1700837e-38 307 336
-0.013781199 0.65499997 -0.11024959 1.2068149e-38 308 336
-0.012632766 0.65499997 -0.11024959 1.2160703e-38 309 336
-0.011484332 0.65499997 -0.11024959 1.2069601e-38 310 336
-0.010335899 0.65499997 -0.11024959 1.2438023e-38 311 336
-0.0091734398 0.65399998 -0.11008127 1.271462e-38 312 336
-0.0080267601 0.65399998 -0.11008127 1.271462e-38 313 336
-0.0068695596 0.653 -0.10991295 1.2898634e-38 314 336
-0.0057246331 0.653 -0.10991295 1.2898634e-38 315 336
-0.0045797066 0.653 -0.10991295 1.3267048e-38 316 336
-0.0034347798 0.653 -0.10991295 1.345144e-38 317 336
-0.0022863466 0.65200001 -0.10974464 1.3635129e-38 318 336
-0.0011431733 0.65200001 -0.10974464 1.3727324e-38 319 336
0 0.65200001 -0.10974464 1.3728049e-38 320 336
0.0011449266 0.653 -0.10991295 1.3728049e-38 321 336
0.0022898533 0.653 -0.10991295 1.3728762e-38 322 336
0.0034295199 0.65200001 -0.10974464 1.3821316e-38 323 336
0.0045726933 0.65200001 -0.10974464 1.3637645e-38 324 336
0.0057158666 0.65200001 -0.10974464 1.37302e-38 325 336
0.0068590399 0.65200001 -0.10974464 1.3547604e-38 326 336
0.0080022132 0.65200001 -0.10974464 1.3455408e-38 327 336
0.0091453865 0.65200001 -0.10974464 1.3822749e-38 328 336
0.010256999 0.64999998 -0.10940799 1.3822749e-38 329 336
0.011396666 0.64999998 -0.10940799 1.4005705e-38 330 336
0.012574906 0.65200001 -0.10974464 1.4005705e-38 331 336
0.013675999 0.64999998 -0.10940799 1.4097908e-38 332 336
0.014815666 0.64999998 -0.10940799 1.4190103e-38 333 336
0.015955333 0.64999998 -0.10940799 1.4097905e-38 334 336
0.017095 0.64999998 -0.10940799 1.4097905e-38 335 336
0.018234665 0.64999998 -0.10940799 1.4098258e-38 336 336
0.019374331 0.64999998 -0.10940799 1.4006061e-38 337 336
0.020513998 0.64999998 -0.10940799 1.3913509e-38 338 336
0.021653665 0.64999998 -0.10940799 1.3913509e-38 339 336
0.022863466 0.65200001 -0.10974464 1.3822395e-38 340 336
0.024006641 0.65200001 -0.10974464 1.3822395e-38 341 336
0.025149813 0.65200001 -0.10974464 1.4006431e-38 342 336
0.026292987 0.65200001 -0.10974464 1.4006431e-38 343 336
0.02743616 0.65200001 -0.10974464 1.4097908e-38 344 336
0.028579334 0.65200001 -0.10974464 1.4097908e-38 345 336
0.029722504 0.65200001 -0.10974464 1.4006075e-38 346 336
0.030865679 0.65200001 -0.10974464 1.4006075e-38 347 336
0.032057945 0.653 -0.10991295 1.3822765e-38 348 336
0.033202872 0.653 -0.10991295 1.3822765e-38 349 336
0.034347799 0.653 -0.10991295 1.382276e-38 350 336
0.035492726 0.653 -0.10991295 1.382276e-38 351 336
0.036637653 0.653 -0.10991295 1.3915311e-38 352 336
0.037840437 0.65399998 -0.11008127 1.3915311e-38 353 336
0.039046731 0.65499997 -0.11024959 1.4007504e-38 354 336
0.040195163 0.65499997 -0.11024959 1.4007504e-38 355 336
0.041343596 0.65499997 -0.11024959 1.3732712e-38 356 336
0.042492028 0.65499997 -0.11024959 1.3640517e-38 357 336
0.043773718 0.65700001 -0.11058623 1.3457202e-38 358 336
0.04492566 0.65700001 -0.11058623 1.3365006e-38 359 336
0.04614773 0.65799999 -0.11075456 1.2814352e-38 360 336
0.047301427 0.65799999 -0.11075456 1.2629961e-38 361 336
0.048455119 0.65799999 -0.11075456 1.2078236e-38 362 336
0.049608808 0.65799999 -0.11075456 1.1801647e-38 363 336
0.050685361 0.65700001 -0.11058623 1.2166834e-38 364 336
0.051837299 0.65700001 -0.11058623 1.1521465e-38 365 336
0.052989237 0.65700001 -0.11058623 1.0784991e-38 366 336
0.054141179 0.65700001 -0.11058623 9.6790039e-39 367 336
0.055293117 0.65700001 -0.11058623 7.3781111e-39 368 336
0.056530971 0.65799999 -0.11075456 4.7966334e-39 369 336
-0.044706494 0.671 -0.1141192 1.1243847e-38 282 337
-0.043465134 0.67000002 -0.11394913 1.1520073e-38 283 337
-0.042290401 0.67000002 -0.11394913 1.161296e-38 284 337
-0.040931564 0.667 -0.1134389 1.161296e-38 285 337
-0.039583251 0.66399997 -0.11292868 1.1338153e-38 286 337
-0.038419038 0.66399997 -0.11292868 1.1522184e-38 287 337
-0.037198719 0.66299999 -0.11275861 1.1614014e-38 288 337
-0.035981905 0.662 -0.11258854 1.1614014e-38 289 337
-0.034821201 0.662 -0.11258854 1.1888805e-38 290 337
-0.033660494 0.662 -0.11258854 1.1888805e-38 291 337
-0.032450691 0.66100001 -0.11241848 1.1888805e-38 292 337
-0.031291738 0.66100001 -0.11241848 1.179661e-38 293 337
-0.030041611 0.65899998 -0.11207832 1.1980275e-38 294 337
-0.028886165 0.65899998 -0.11207832 1.1888079e-38 295 337
-0.027730718 0.65899998 -0.11207832 1.1887724e-38 296 337
-0.026534945 0.65799999 -0.11190825 1.1703692e-38 297 337
-0.025381252 0.65799999 -0.11190825 1.1887007e-38 298 337
-0.024264378 0.65899998 -0.11207832 1.1794812e-38 299 337
-0.023073865 0.65799999 -0.11190825 1.1886289e-38 300 337
-0.021920172 0.65799999 -0.11190825 1.1794092e-38 301 337
-0.02076648 0.65799999 -0.11190825 1.1884136e-38 302 337
-0.019582979 0.65700001 -0.11173818 1.1884136e-38 303 337
-0.01843104 0.65700001 -0.11173818 1.1515373e-38 304 337
-0.0172791 0.65700001 -0.11173818 1.1423178e-38 305 337
-0.01612716 0.65700001 -0.11173818 1.1146584e-38 306 337
-0.014929632 0.65499997 -0.11139803 1.0778161e-38 307 337
-0.013781199 0.65499997 -0.11139803 1.0684867e-38 308 337
-0.012632766 0.65499997 -0.11139803 1.0408282e-38 309 337
-0.011484332 0.65499997 -0.11139803 1.0132792e-38 310 337
-0.010335899 0.65499997 -0.11139803 1.0778161e-38 311 337
-0.0091734398 0.65399998 -0.11122796 1.096437e-38 312 337
-0.0080267601 0.65399998 -0.11122796 1.1240597e-38 313 337
-0.0068695596 0.653 -0.11105788 1.1516796e-38 314 337
-0.0057246331 0.653 -0.11105788 1.14246e-38 315 337
-0.0045797066 0.653 -0.11105788 1.234366e-38 316 337
-0.0034347798 0.653 -0.11105788 1.2712802e-38 317 337
-0.0022863466 0.65200001 -0.11088781 1.2898283e-38 318 337
-0.0011431733 0.65200001 -0.11088781 1.3082674e-38 319 337
0 0.65200001 -0.11088781 1.3266339e-38 320 337
0.0011449266 0.653 -0.11105788 1.3358894e-38 321 337
0.0022898533 0.653 -0.11105788 1.3267774e-38 322 337
0.0034295199 0.65200001 -0.11088781 1.335997e-38 323 337
0.0045726933 0.65200001 -0.11088781 1.3361059e-38 324 337
0.0057158666 0.65200001 -0.11088781 1.3361059e-38 325 337
0.0068590399 0.65200001 -0.11088781 1.3178465e-38 326 337
0.0080022132 0.65200001 -0.11088781 1.3270661e-38 327 337
0.0091453865 0.65200001 -0.11088781 1.3362491e-38 328 337
0.010256999 0.64999998 -0.11054766 1.3362491e-38 329 337
0.011396666 0.64999998 -0.11054766 1.3545803e-38 330 337
0.012536332 0.64999998 -0.11054766 1.3545803e-38 331 337
0.013675999 0.64999998 -0.11054766 1.3637648e-38 332 337
0.014815666 0.64999998 -0.11054766 1.3729844e-38 333 337
0.015955333 0.64999998 -0.11054766 1.3637648e-38 334 337
0.017095 0.64999998 -0.11054766 1.3637648e-38 335 337
0.018234665 0.64999998 -0.11054766 1.3638001e-38 336 337
0.019374331 0.64999998 -0.11054766 1.3453251e-38 337 337
0.020513998 0.64999998 -0.11054766 1.3544731e-38 338 337
0.021653665 0.64999998 -0.11054766 1.3544731e-38 339 337
0.022793332 0.64999998 -0.11054766 1.3728762e-38 340 337
0.024006641 0.65200001 -0.11088781 1.3728762e-38 341 337
0.025149813 0.65200001 -0.11088781 1.3637645e-38 342 337
0.026292987 0.65200001 -0.11088781 1.3637645e-38 343 337
0.02743616 0.65200001 -0.11088781 1.3728762e-38 344 337
0.028579334 0.65200001 -0.11088781 1.3821316e-38 345 337
0.029722504 0.65200001 -0.11088781 1.3637648e-38 346 337
0.030865679 0.65200001 -0.11088781 1.3637648e-38 347 337
0.032057945 0.653 -0.11105788 1.336214e-38 348 337
0.033202872 0.653 -0.11105788 1.336214e-38 349 337
0.034347799 0.653 -0.11105788 1.3362859e-38 350 337
0.035492726 0.653 -0.11105788 1.3362859e-38 351 337
0.036637653 0.653 -0.11105788 1.3455052e-38 352 337
0.037840437 0.65399998 -0.11122796 1.3362856e-38 353 337
0.039046731 0.65499997 -0.11139803 1.3271743e-38 354 337
0.040195163 0.65499997 -0.11139803 1.3271743e-38 355 337
0.041343596 0.65499997 -0.11139803 1.327209e-38 356 337
0.042492028 0.65499997 -0.11139803 1.3179894e-38 357 337
0.043640465 0.65499997 -0.11139803 1.3180601e-38 358 337
0.044788897 0.65499997 -0.11139803 1.2995851e-38 359 337
0.046077598 0.65700001 -0.11173818 1.2628146e-38 360 337
0.04722954 0.65700001 -0.11173818 1.23512e-38 361 337
0.048455119 0.65799999 -0.11190825 1.1707278e-38 362 337
0.049608808 0.65799999 -0.11190825 1.1154106e-38 363 337
0.050762504 0.65799999 -0.11190825 1.0693502e-38 364 337
0.051916201 0.65799999 -0.11190825 9.9559369e-39 365 337
0.05306989 0.65799999 -0.11190825 9.218044e-39 366 337
0.054141179 0.65700001 -0.11173818 8.9410984e-39 367 337
0.055293117 0.65700001 -0.11173818 7.0086209e-39 368 337
-0.040931564 0.667 -0.11460838 1.1059452e-38 285 338
-0.039583251 0.66399997 -0.1140929 1.1428213e-38 286 338
-0.038419038 0.66399997 -0.1140929 1.1428213e-38 287 338
-0.037198719 0.66299999 -0.11392108 1.1704427e-38 288 338
-0.035981905 0.662 -0.11374925 1.1796622e-38 289 338
-0.034821201 0.662 -0.11374925 1.1980648e-38 290 338
-0.033660494 0.662 -0.11374925 1.1980648e-38 291 338
-0.032450691 0.66100001 -0.11357743 1.1889168e-38 292 338
-0.031291738 0.66100001 -0.11357743 1.1796973e-38 293 338
-0.030041611 0.65899998 -0.11323377 1.1888805e-38 294 338
-0.028886165 0.65899998 -0.11323377 1.179661e-38 295 338
-0.027730718 0.65899998 -0.11323377 1.179661e-38 296 338
-0.026534945 0.65799999 -0.11306194 1.179661e-38 297 338
-0.025381252 0.65799999 -0.11306194 1.1704414e-38 298 338
-0.024264378 0.65899998 -0.11323377 1.161186e-38 299 338
-0.023073865 0.65799999 -0.11306194 1.1886289e-38 300 338
-0.021920172 0.65799999 -0.11306194 1.1886289e-38 301 338
-0.02076648 0.65799999 -0.11306194 1.1610063e-38 302 338
-0.019612785 0.65799999 -0.11306194 1.1610063e-38 303 338
-0.01843104 0.65700001 -0.11289012 1.1150537e-38 304 338
-0.0172791 0.65700001 -0.11289012 1.0965787e-38 305 338
-0.01612716 0.65700001 -0.11289012 1.0965071e-38 306 338
-0.01497522 0.65700001 -0.11289012 1.0780678e-38 307 338
-0.013781199 0.65499997 -0.11254645 1.0595565e-38 308 338
-0.012632766 0.65499997 -0.11254645 1.0318618e-38 309 338
-0.011484332 0.65499997 -0.11254645 1.0040962e-38 310 338
-0.010335899 0.65499997 -0.11254645 9.856931e-39 311 338
-0.0091734398 0.65399998 -0.11237463 1.0223928e-38 312 338
-0.0080144862 0.653 -0.11220281 1.0316483e-38 313 338
-0.0068695596 0.653 -0.11220281 1.050157e-38 314 338
-0.0057246331 0.653 -0.11220281 9.9483965e-39 315 338
-0.0045797066 0.653 -0.11220281 1.0041296e-38 316 338
-0.0034347798 0.653 -0.11220281 1.0225688e-38 317 338
-0.0022898533 0.653 -0.11220281 1.050372e-38 318 338
-0.0011449266 0.653 -0.11220281 1.0964697e-38 319 338
0 0.653 -0.11220281 1.1426032e-38 320 338
0.0011449266 0.653 -0.11220281 1.1610063e-38 321 338
0.0022863466 0.65200001 -0.11203098 1.1794459e-38 322 338
0.0034295199 0.65200001 -0.11203098 1.2255077e-38 323 338
0.0045726933 0.65200001 -0.11203098 1.2532027e-38 324 338
0.0057158666 0.65200001 -0.11203098 1.2624222e-38 325 338
0.0068590399 0.65200001 -0.11203098 1.2716768e-38 326 338
0.0080022132 0.65200001 -0.11203098 1.2900799e-38 327 338
0.0091453865 0.65200001 -0.11203098 1.290115e-38 328 338
0.010256999 0.64999998 -0.11168732 1.2993704e-38 329 338
0.011396666 0.64999998 -0.11168732 1.3361045e-38 330 338
0.012536332 0.64999998 -0.11168732 1.3361045e-38 331 338
0.013675999 0.64999998 -0.11168732 1.3360691e-38 332 338
0.014815666 0.64999998 -0.11168732 1.3452888e-38 333 338
0.015955333 0.64999998 -0.11168732 1.3452535e-38 334 338
0.017095 0.64999998 -0.11168732 1.3452535e-38 335 338
0.018234665 0.64999998 -0.11168732 1.3177027e-38 336 338
0.019374331 0.64999998 -0.11168732 1.3177027e-38 337 338
0.020513998 0.64999998 -0.11168732 1.3177027e-38 338 338
0.021653665 0.64999998 -0.11168732 1.3177027e-38 339 338
0.022793332 0.64999998 -0.11168732 1.3177379e-38 340 338
0.024006641 0.65200001 -0.11203098 1.3177379e-38 341 338
0.025149813 0.65200001 -0.11203098 1.3361412e-38 342 338
0.026292987 0.65200001 -0.11203098 1.3361412e-38 343 338
0.02743616 0.65200001 -0.11203098 1.3360335e-38 344 338
0.028579334 0.65200001 -0.11203098 1.3360335e-38 345 338
0.029722504 0.65200001 -0.11203098 1.336034e-38 346 338
0.030865679 0.65200001 -0.11203098 1.336034e-38 347 338
0.032057945 0.653 -0.11220281 1.3084828e-38 348 338
0.033202872 0.653 -0.11220281 1.3084828e-38 349 338
0.034347799 0.653 -0.11220281 1.3085544e-38 350 338
0.035492726 0.653 -0.11220281 1.3085544e-38 351 338
0.036637653 0.653 -0.11220281 1.3085546e-38 352 338
0.037840437 0.65399998 -0.11237463 1.3085546e-38 353 338
0.038987119 0.65399998 -0.11237463 1.2901152e-38 354 338
0.040133797 0.65399998 -0.11237463 1.2624926e-38 355 338
0.041343596 0.65499997 -0.11254645 1.2350484e-38 356 338
0.042492028 0.65499997 -0.11254645 1.2258289e-38 357 338
0.043640465 0.65499997 -0.11254645 1.1890581e-38 358 338
0.044788897 0.65499997 -0.11254645 1.1798026e-38 359 338
0.046077598 0.65700001 -0.11289012 1.1246658e-38 360 338
0.04722954 0.65700001 -0.11289012 1.096971e-38 361 338
0.048381478 0.65700001 -0.11289012 9.772975e-39 362 338
0.049533416 0.65700001 -0.11289012 9.588225e-39 363 338
0.050685361 0.65700001 -0.11289012 9.3120165e-39 364 338
0.051837299 0.65700001 -0.11289012 8.7588427e-39 365 338
0.052989237 0.65700001 -0.11289012 8.5734074e-39 366 338
0.054141179 0.65700001 -0.11289012 8.3893763e-39 367 338
0.055293117 0.65700001 -0.11289012 6.8220856e-39 368 338
-0.039940935 0.67000002 -0.1162986 1.0506291e-38 286 339
-0.038419038 0.66399997 -0.11525711 1.0783238e-38 287 339
-0.037198719 0.66299999 -0.11508354 1.0876491e-38 288 339
-0.035981905 0.662 -0.11490996 1.1337109e-38 289 339
-0.034821201 0.662 -0.11490996 1.1612604e-38 290 339
-0.033660494 0.662 -0.11490996 1.1520408e-38 291 339
-0.032499783 0.662 -0.11490996 1.1613313e-38 292 339
-0.031291738 0.66100001 -0.11473638 1.1520759e-38 293 339
-0.030132787 0.66100001 -0.11473638 1.1521468e-38 294 339
-0.028886165 0.65899998 -0.11438921 1.1521468e-38 295 339
-0.027730718 0.65899998 -0.11438921 1.1704777e-38 296 339
-0.026575271 0.65899998 -0.11438921 1.1520746e-38 297 339
-0.025419824 0.65899998 -0.11438921 1.188737e-38 298 339
-0.024264378 0.65899998 -0.11438921 1.188737e-38 299 339
-0.023108931 0.65899998 -0.11438921 1.1887005e-38 300 339
-0.021920172 0.65799999 -0.11421563 1.1794809e-38 301 339
-0.02076648 0.65799999 -0.11421563 1.1886638e-38 302 339
-0.019642593 0.65899998 -0.11438921 1.1886638e-38 303 339
-0.018459093 0.65799999 -0.11421563 1.15193e-38 304 339
-0.0172791 0.65700001 -0.11404206 1.133455e-38 305 339
-0.01612716 0.65700001 -0.11404206 1.1333831e-38 306 339
-0.01497522 0.65700001 -0.11404206 1.114944e-38 307 339
-0.013781199 0.65499997 -0.11369488 1.1056521e-38 308 339
-0.012632766 0.65499997 -0.11369488 1.087213e-38 309 339
-0.011484332 0.65499997 -0.11369488 1.086998e-38 310 339
-0.010335899 0.65499997 -0.11369488 1.0501199e-38 311 339
-0.0091734398 0.65399998 -0.11352132 1.0224635e-38 312 339
-0.0080144862 0.653 -0.11334774 1.0132439e-38 313 339
-0.0068695596 0.653 -0.11334774 1.0407599e-38 314 339
-0.0057246331 0.653 -0.11334774 1.0038817e-38 315 339
-0.0045867199 0.65399998 -0.11352132 1.003882e-38 316 339
-0.0034347798 0.653 -0.11334774 9.7618739e-39 317 339
-0.0022898533 0.653 -0.11334774 9.4874604e-39 318 339
-0.0011449266 0.653 -0.11334774 1.0316862e-38 319 339
0 0.653 -0.11334774 1.0503057e-38 320 339
0.0011431733 0.65200001 -0.11317416 1.0779285e-38 321 339
0.0022863466 0.65200001 -0.11317416 1.1056581e-38 322 339
0.0034295199 0.65200001 -0.11317416 1.1425005e-38 323 339
0.0045726933 0.65200001 -0.11317416 1.1334241e-38 324 339
0.0057158666 0.65200001 -0.11317416 1.1518991e-38 325 339
0.0068590399 0.65200001 -0.11317416 1.1520058e-38 326 339
0.0080022132 0.65200001 -0.11317416 1.1612253e-38 327 339
0.0091453865 0.65200001 -0.11317416 1.1797355e-38 328 339
0.01028856 0.65200001 -0.11317416 1.1981386e-38 329 339
0.011431733 0.65200001 -0.11317416 1.2072863e-38 330 339
0.012536332 0.64999998 -0.112827 1.2165059e-38 331 339
0.013675999 0.64999998 -0.112827 1.2073585e-38 332 339
0.014815666 0.64999998 -0.112827 1.2073585e-38 333 339
0.015955333 0.64999998 -0.112827 1.2164706e-38 334 339
0.017095 0.64999998 -0.112827 1.2349095e-38 335 339
0.018234665 0.64999998 -0.112827 1.2165062e-38 336 339
0.019374331 0.64999998 -0.112827 1.2165062e-38 337 339
0.020513998 0.64999998 -0.112827 1.2073579e-38 338 339
0.021653665 0.64999998 -0.112827 1.2073579e-38 339 339
0.022793332 0.64999998 -0.112827 1.2166131e-38 340 339
0.024006641 0.65200001 -0.11317416 1.2166131e-38 341 339
0.025149813 0.65200001 -0.11317416 1.2441639e-38 342 339
0.026292987 0.65200001 -0.11317416 1.2441639e-38 343 339
0.02743616 0.65200001 -0.11317416 1.2533474e-38 344 339
0.028623167 0.653 -0.11334774 1.244092e-38 345 339
0.029768093 0.653 -0.11334774 1.2532039e-38 346 339
0.03091302 0.653 -0.11334774 1.2532039e-38 347 339
0.032057945 0.653 -0.11334774 1.2348008e-38 348 339
0.033202872 0.653 -0.11334774 1.2348008e-38 349 339
0.034347799 0.653 -0.11334774 1.2256528e-38 350 339
0.035492726 0.653 -0.11334774 1.2256528e-38 351 339
0.036637653 0.653 -0.11334774 1.2348008e-38 352 339
0.037840437 0.65399998 -0.11352132 1.2255812e-38 353 339
0.038987119 0.65399998 -0.11352132 1.1980667e-38 354 339
0.040133797 0.65399998 -0.11352132 1.1796275e-38 355 339
0.041343596 0.65499997 -0.11369488 1.1520411e-38 356 339
0.042492028 0.65499997 -0.11369488 1.1520411e-38 357 339
0.043640465 0.65499997 -0.11369488 1.0876488e-38 358 339
0.044788897 0.65499997 -0.11369488 1.0876488e-38 359 339
0.04593733 0.65499997 -0.11369488 9.8655784e-39 360 339
0.04722954 0.65700001 -0.11404206 9.6811871e-39 361 339
0.048234195 0.65499997 -0.11369488 8.8521495e-39 362 339
0.049382631 0.65499997 -0.11369488 8.7599539e-39 363 339
0.050531063 0.65499997 -0.11369488 8.4826566e-39 364 339
0.051837299 0.65700001 -0.11404206 8.0220385e-39 365 339
0.052827932 0.65499997 -0.11369488 7.7451167e-39 366 339
0.053976361 0.65499997 -0.11369488 7.0997473e-39 367 339
0.055293117 0.65700001 -0.11404206 5.9033916e-39 368 339
-0.038592618 0.667 -0.11694732 1.0411954e-38 287 340
-0.037423145 0.667 -0.11694732 1.0229711e-38 288 340
-0.036416732 0.67000002 -0.11747333 1.0321907e-38 289 340
-0.035084199 0.667 -0.11694732 1.1424994e-38 290 340
-0.03386388 0.66600001 -0.116772 1.1609386e-38 291 340
-0.032696161 0.66600001 -0.116772 1.1611162e-38 292 340
-0.031433757 0.66399997 -0.11642132 1.1703358e-38 293 340
-0.030223956 0.66299999 -0.11624599 1.1520393e-38 294 340
-0.029061496 0.66299999 -0.11624599 1.1520393e-38 295 340
-0.027730718 0.65899998 -0.11554466 1.1704427e-38 296 340
-0.026575271 0.65899998 -0.11554466 1.1520396e-38 297 340
-0.025496973 0.66100001 -0.11589532 1.1703708e-38 298 340
-0.024264378 0.65899998 -0.11554466 1.1703708e-38 299 340
-0.023108931 0.65899998 -0.11554466 1.1794459e-38 300 340
-0.021920172 0.65799999 -0.11536933 1.1794459e-38 301 340
-0.02076648 0.65799999 -0.11536933 1.1703695e-38 302 340
-0.019642593 0.65899998 -0.11554466 1.1611141e-38 303 340
-0.018459093 0.65799999 -0.11536933 1.1427114e-38 304 340
-0.0172791 0.65700001 -0.11519399 1.1427114e-38 305 340
-0.01612716 0.65700001 -0.11519399 1.124273e-38 306 340
-0.01497522 0.65700001 -0.11519399 1.1150534e-38 307 340
-0.013823279 0.65700001 -0.11519399 1.1057617e-38 308 340
-0.012632766 0.65499997 -0.11484333 1.0965421e-38 309 340
-0.011484332 0.65499997 -0.11484333 1.0597716e-38 310 340
-0.010335899 0.65499997 -0.11484333 1.0505521e-38 311 340
-0.0091874655 0.65499997 -0.11484333 1.041225e-38 312 340
-0.0080267601 0.65399998 -0.114668 1.0320055e-38 313 340
-0.0068800794 0.65399998 -0.114668 1.0227504e-38 314 340
-0.0057333997 0.65399998 -0.114668 1.0043113e-38 315 340
-0.0045867199 0.65399998 -0.114668 1.0225353e-38 316 340
-0.0034400397 0.65399998 -0.114668 9.856931e-39 317 340
-0.00229336 0.65399998 -0.114668 1.0039893e-38 318 340
-0.0011449266 0.653 -0.11449267 1.0500511e-38 319 340
0 0.653 -0.11449267 1.0684542e-38 320 340
0.0011431733 0.65200001 -0.11431734 1.1052966e-38 321 340
0.0022863466 0.65200001 -0.11431734 1.1237713e-38 322 340
0.0034295199 0.65200001 -0.11431734 1.1513941e-38 323 340
0.0045726933 0.65200001 -0.11431734 1.1239512e-38 324 340
0.0057158666 0.65200001 -0.11431734 1.1423543e-38 325 340
0.0068590399 0.65200001 -0.11431734 1.1516445e-38 326 340
0.0080022132 0.65200001 -0.11431734 1.1055467e-38 327 340
0.0091453865 0.65200001 -0.11431734 1.1148016e-38 328 340
0.01028856 0.65200001 -0.11431734 1.1424244e-38 329 340
0.011431733 0.65200001 -0.11431734 1.2159297e-38 330 340
0.012536332 0.64999998 -0.11396667 1.2251492e-38 331 340
0.013675999 0.64999998 -0.11396667 1.2434451e-38 332 340
0.014815666 0.64999998 -0.11396667 1.2526648e-38 333 340
0.015955333 0.64999998 -0.11396667 1.2343336e-38 334 340
0.017095 0.64999998 -0.11396667 1.2343336e-38 335 340
0.018234665 0.64999998 -0.11396667 1.2068547e-38 336 340
0.019374331 0.64999998 -0.11396667 1.2160743e-38 337 340
0.020513998 0.64999998 -0.11396667 1.2161459e-38 338 340
0.021653665 0.64999998 -0.11396667 1.2161459e-38 339 340
0.022793332 0.64999998 -0.11396667 1.1979219e-38 340 340
0.024006641 0.65200001 -0.11431734 1.2071414e-38 341 340
0.025149813 0.65200001 -0.11431734 1.2346203e-38 342 340
0.026292987 0.65200001 -0.11431734 1.2346203e-38 343 340
0.02743616 0.65200001 -0.11431734 1.2529874e-38 344 340
0.028623167 0.653 -0.11449267 1.2437679e-38 345 340
0.029768093 0.653 -0.11449267 1.2712468e-38 346 340
0.03091302 0.653 -0.11449267 1.2436241e-38 347 340
0.032057945 0.653 -0.11449267 1.243696e-38 348 340
0.033253718 0.65399998 -0.114668 1.2344405e-38 349 340
0.034347799 0.653 -0.11449267 1.2161449e-38 350 340
0.035492726 0.653 -0.11449267 1.2161449e-38 351 340
0.036637653 0.653 -0.11449267 1.2068895e-38 352 340
0.037840437 0.65399998 -0.114668 1.2068895e-38 353 340
0.038987119 0.65399998 -0.114668 1.1701909e-38 354 340
0.040195163 0.65499997 -0.11484333 1.1609713e-38 355 340
0.041343596 0.65499997 -0.11484333 1.1425326e-38 356 340
0.042492028 0.65499997 -0.11484333 1.133313e-38 357 340
0.043640465 0.65499997 -0.11484333 1.0965437e-38 358 340
0.044788897 0.65499997 -0.11484333 1.0597013e-38 359 340
0.04593733 0.65499997 -0.11484333 9.9545244e-39 360 340
0.04722954 0.65700001 -0.11519399 9.4939064e-39 361 340
0.048234195 0.65499997 -0.11484333 9.0343688e-39 362 340
0.049382631 0.65499997 -0.11484333 8.7577833e-39 363 340
0.050531063 0.65499997 -0.11484333 8.1145845e-39 364 340
0.051837299 0.65700001 -0.11519399 7.8376375e-39 365 340
0.052827932 0.65499997 -0.11484333 7.3777635e-39 366 340
0.053976361 0.65499997 -0.11484333 5.4416553e-39 367 340
-0.037423145 0.667 -0.1181168 9.5858064e-39 288 341
-0.033914726 0.667 -0.1181168 9.9542189e-39 291 341
-0.032696161 0.66600001 -0.11793971 1.0322263e-38 292 341
-0.031433757 0.66399997 -0.11758553 1.0506294e-38 293 341
-0.030269546 0.66399997 -0.11758553 1.0691745e-38 294 341
-0.029061496 0.66299999 -0.11740845 1.0783942e-38 295 341
-0.027730718 0.65899998 -0.11670011 1.115163e-38 296 341
-0.026575271 0.65899998 -0.11670011 1.1335661e-38 297 341
-0.025535546 0.662 -0.11723137 1.152004e-38 298 341
-0.024264378 0.65899998 -0.11670011 1.152004e-38 299 341
-0.023108931 0.65899998 -0.11670011 1.1886654e-38 300 341
-0.021953486 0.65899998 -0.11670011 1.1794459e-38 301 341
-0.020798039 0.65899998 -0.11670011 1.1794812e-38 302 341
-0.019642593 0.65899998 -0.11670011 1.1794812e-38 303 341
-0.018487146 0.65899998 -0.11670011 1.1518947e-38 304 341
-0.017305398 0.65799999 -0.11652302 1.1518947e-38 305 341
-0.01612716 0.65700001 -0.11634594 1.1702262e-38 306 341
-0.01497522 0.65700001 -0.11634594 1.1425676e-38 307 341
-0.013823279 0.65700001 -0.11634594 1.1426029e-38 308 341
-0.01267134 0.65700001 -0.11634594 1.1333834e-38 309 341
-0.011519399 0.65700001 -0.11634594 1.1425303e-38 310 341
-0.010335899 0.65499997 -0.11599176 1.1241272e-38 311 341
-0.0091874655 0.65499997 -0.11599176 1.1148719e-38 312 341
-0.008039033 0.65499997 -0.11599176 1.1148719e-38 313 341
-0.0068905996 0.65499997 -0.11599176 1.0963972e-38 314 341
-0.0057421662 0.65499997 -0.11599176 1.0779581e-38 315 341
-0.0045937328 0.65499997 -0.11599176 1.0686665e-38 316 341
-0.0034452998 0.65499997 -0.11599176 1.0594469e-38 317 341
-0.00229336 0.65399998 -0.11581468 1.050157e-38 318 341
-0.00114668 0.65399998 -0.11581468 1.0685962e-38 319 341
0 0.65399998 -0.11581468 1.041047e-38 320 341
0.0011449266 0.653 -0.11563759 1.0502666e-38 321 341
0.0022898533 0.653 -0.11563759 1.0686704e-38 322 341
0.0034347798 0.653 -0.11563759 1.07789e-38 323 341
0.0045726933 0.65200001 -0.1154605 1.0596306e-38 324 341
0.0057158666 0.65200001 -0.1154605 1.0780339e-38 325 341
0.0068590399 0.65200001 -0.1154605 1.0872172e-38 326 341
0.0080022132 0.65200001 -0.1154605 1.0872172e-38 327 341
0.0091453865 0.65200001 -0.1154605 1.0964367e-38 328 341
0.01028856 0.65200001 -0.1154605 1.0964367e-38 329 341
0.011431733 0.65200001 -0.1154605 1.1056569e-38 330 341
0.012536332 0.64999998 -0.11510632 1.1056569e-38 331 341
0.013675999 0.64999998 -0.11510632 1.1056215e-38 332 341
0.014815666 0.64999998 -0.11510632 1.1056215e-38 333 341
0.015955333 0.64999998 -0.11510632 1.1056213e-38 334 341
0.017095 0.64999998 -0.11510632 1.1240244e-38 335 341
0.018234665 0.64999998 -0.11510632 1.1240244e-38 336 341
0.019374331 0.64999998 -0.11510632 1.1240244e-38 337 341
0.02057712 0.65200001 -0.1154605 1.1149483e-38 338 341
0.021653665 0.64999998 -0.11510632 1.1149483e-38 339 341
0.022793332 0.64999998 -0.11510632 1.1150196e-38 340 341
0.024006641 0.65200001 -0.1154605 1.1150196e-38 341 341
0.025149813 0.65200001 -0.1154605 1.1425708e-38 342 341
0.026292987 0.65200001 -0.1154605 1.1241676e-38 343 341
0.02743616 0.65200001 -0.1154605 1.1424988e-38 344 341
0.028623167 0.653 -0.11563759 1.1517544e-38 345 341
0.029768093 0.653 -0.11563759 1.1608656e-38 346 341
0.03091302 0.653 -0.11563759 1.1608656e-38 347 341
0.03210704 0.65399998 -0.11581468 1.1424622e-38 348 341
0.033253718 0.65399998 -0.11581468 1.1608654e-38 349 341
0.034400396 0.65399998 -0.11581468 1.1609009e-38 350 341
0.035547078 0.65399998 -0.11581468 1.1609009e-38 351 341
0.036693759 0.65399998 -0.11581468 1.1425692e-38 352 341
0.037840437 0.65399998 -0.11581468 1.1333496e-38 353 341
0.039046731 0.65499997 -0.11599176 1.1057632e-38 354 341
0.040195163 0.65499997 -0.11599176 1.0965437e-38 355 341
0.041343596 0.65499997 -0.11599176 1.0689578e-38 356 341
0.042492028 0.65499997 -0.11599176 1.0504827e-38 357 341
0.043640465 0.65499997 -0.11599176 9.9541769e-39 358 341
0.044788897 0.65499997 -0.11599176 9.8619813e-39 359 341
0.046077598 0.65700001 -0.11634594 8.9436193e-39 360 341
0.047085766 0.65499997 -0.11599176 8.6673911e-39 361 341
0.048234195 0.65499997 -0.11599176 8.3911644e-39 362 341
0.049382631 0.65499997 -0.11599176 8.2071333e-39 363 341
0.050531063 0.65499997 -0.11599176 8.0220385e-39 364 341
0.051837299 0.65700001 -0.11634594 7.5610604e-39 365 341
0.052989237 0.65700001 -0.11634594 6.7324067e-39 366 341
-0.032794341 0.66799998 -0.11946512 1.022684e-38 292 342
-0.031528439 0.66600001 -0.11910743 1.041123e-38 293 342
-0.030360719 0.66600001 -0.11910743 1.059597e-38 294 342
-0.029192999 0.66600001 -0.11910743 1.0688525e-38 295 342
-0.028025279 0.66600001 -0.11910743 1.0781424e-38 296 342
-0.026776904 0.66399997 -0.11874975 1.1149846e-38 297 342
-0.025574118 0.66299999 -0.11857092 1.1060156e-38 298 342
-0.024264378 0.65899998 -0.11785555 1.1060156e-38 299 342
-0.023108931 0.65899998 -0.11785555 1.1243454e-38 300 342
-0.021953486 0.65899998 -0.11785555 1.1335651e-38 301 342
-0.020798039 0.65899998 -0.11785555 1.1519317e-38 302 342
-0.019702207 0.66100001 -0.11821324 1.1519317e-38 303 342
-0.018487146 0.65899998 -0.11785555 1.1701909e-38 304 342
-0.017331699 0.65899998 -0.11785555 1.1794106e-38 305 342
-0.016151706 0.65799999 -0.11767671 1.1426761e-38 306 342
-0.014998012 0.65799999 -0.11767671 1.124273e-38 307 342
-0.01384432 0.65799999 -0.11767671 1.1426398e-38 308 342
-0.012690626 0.65799999 -0.11767671 1.1334202e-38 309 342
-0.011536933 0.65799999 -0.11767671 1.1242007e-38 310 342
-0.01036746 0.65700001 -0.11749788 1.1057617e-38 311 342
-0.0092155198 0.65700001 -0.11749788 1.105762e-38 312 342
-0.0080635799 0.65700001 -0.11749788 1.0965424e-38 313 342
-0.0068905996 0.65499997 -0.11714019 1.0873227e-38 314 342
-0.0057421662 0.65499997 -0.11714019 1.0781031e-38 315 342
-0.0045937328 0.65499997 -0.11714019 1.068883e-38 316 342
-0.0034452998 0.65499997 -0.11714019 1.0596634e-38 317 342
-0.0022968664 0.65499997 -0.11714019 1.0412247e-38 318 342
-0.0011484332 0.65499997 -0.11714019 1.0596637e-38 319 342
0 0.65399998 -0.11696136 1.0412972e-38 320 342
0.00114668 0.65399998 -0.11696136 1.0505167e-38 321 342
0.0022898533 0.653 -0.11678252 1.0688483e-38 322 342
0.0034347798 0.653 -0.11678252 1.0688483e-38 323 342
0.0045797066 0.653 -0.11678252 1.0688127e-38 324 342
0.0057158666 0.65200001 -0.11660367 1.0688127e-38 325 342
0.0068590399 0.65200001 -0.11660367 1.0779603e-38 326 342
0.0080022132 0.65200001 -0.11660367 1.0779603e-38 327 342
0.0091453865 0.65200001 -0.11660367 1.1056186e-38 328 342
0.01028856 0.65200001 -0.11660367 1.1056186e-38 329 342
0.011431733 0.65200001 -0.11660367 1.0872877e-38 330 342
0.012574906 0.65200001 -0.11660367 1.0872877e-38 331 342
0.013675999 0.64999998 -0.11624599 1.0872877e-38 332 342
0.014815666 0.64999998 -0.11624599 1.0872877e-38 333 342
0.016004426 0.65200001 -0.11660367 1.0965074e-38 334 342
0.017147599 0.65200001 -0.11660367 1.0965074e-38 335 342
0.018290773 0.65200001 -0.11660367 1.0965074e-38 336 342
0.019433947 0.65200001 -0.11660367 1.0965074e-38 337 342
0.02057712 0.65200001 -0.11660367 1.0965074e-38 338 342
0.021720294 0.65200001 -0.11660367 1.1057269e-38 339 342
0.022863466 0.65200001 -0.11660367 1.1241303e-38 340 342
0.024006641 0.65200001 -0.11660367 1.1056913e-38 341 342
0.025149813 0.65200001 -0.11660367 1.12413e-38 342 342
0.026292987 0.65200001 -0.11660367 1.12413e-38 343 342
0.02743616 0.65200001 -0.11660367 1.1057269e-38 344 342
0.028623167 0.653 -0.11678252 1.12413e-38 345 342
0.029768093 0.653 -0.11678252 1.142425e-38 346 342
0.03091302 0.653 -0.11678252 1.142425e-38 347 342
0.03210704 0.65399998 -0.11696136 1.1424247e-38 348 342
0.033253718 0.65399998 -0.11696136 1.1516443e-38 349 342
0.034400396 0.65399998 -0.11696136 1.1241653e-38 350 342
0.035547078 0.65399998 -0.11696136 1.1241653e-38 351 342
0.036693759 0.65399998 -0.11696136 1.087467e-38 352 342
0.037898298 0.65499997 -0.11714019 1.0782475e-38 353 342
0.039046731 0.65499997 -0.11714019 1.0873591e-38 354 342
0.040195163 0.65499997 -0.11714019 1.0781394e-38 355 342
0.041343596 0.65499997 -0.11714019 1.0321865e-38 356 342
0.042492028 0.65499997 -0.11714019 1.0229669e-38 357 342
0.043773718 0.65700001 -0.11749788 9.6790193e-39 358 342
0.04492566 0.65700001 -0.11749788 9.4942693e-39 359 342
0.046077598 0.65700001 -0.11749788 8.7603014e-39 360 342
0.047085766 0.65499997 -0.11714019 8.5759088e-39 361 342
0.048234195 0.65499997 -0.11714019 8.48336e-39 362 342
0.049382631 0.65499997 -0.11714019 8.3911644e-39 363 342
0.050531063 0.65499997 -0.11714019 8.0216826e-39 364 342
0.051679496 0.65499997 -0.11714019 7.0997249e-39 365 342
-0.026857559 0.66600001 -0.12027515 9.861652e-39 297 343
-0.025612691 0.66399997 -0.11991397 1.0138941e-38 298 343
-0.024264378 0.65899998 -0.119011 1.0231137e-38 299 343
-0.023108931 0.65899998 -0.119011 1.0598825e-38 300 343
-0.021953486 0.65899998 -0.119011 1.069102e-38 301 343
-0.020798039 0.65899998 -0.119011 1.1150903e-38 302 343
-0.019702207 0.66100001 -0.11937219 1.1150903e-38 303 343
-0.018543253 0.66100001 -0.11937219 1.1426045e-38 304 343
-0.017331699 0.65899998 -0.119011 1.1426045e-38 305 343
-0.016151706 0.65799999 -0.11883041 1.1243086e-38 306 343
-0.014998012 0.65799999 -0.11883041 1.1243086e-38 307 343
-0.01384432 0.65799999 -0.11883041 1.1243439e-38 308 343
-0.012690626 0.65799999 -0.11883041 1.1243439e-38 309 343
-0.011536933 0.65799999 -0.11883041 1.1334555e-38 310 343
-0.01036746 0.65700001 -0.11864981 1.1242001e-38 311 343
-0.0092155198 0.65700001 -0.11864981 1.1242007e-38 312 343
-0.0080635799 0.65700001 -0.11864981 1.1057617e-38 313 343
-0.0069221598 0.65799999 -0.11883041 1.1149089e-38 314 343
-0.0057596997 0.65700001 -0.11864981 1.1149089e-38 315 343
-0.0046077599 0.65700001 -0.11864981 1.1056887e-38 316 343
-0.0034558198 0.65700001 -0.11864981 1.1056887e-38 317 343
-0.0023038799 0.65700001 -0.11864981 1.0781382e-38 318 343
-0.0011484332 0.65499997 -0.11828862 1.0781382e-38 319 343
0 0.65499997 -0.11828862 1.078175e-38 320 343
0.0011484332 0.65499997 -0.11828862 1.078175e-38 321 343
0.00229336 0.65399998 -0.11810803 1.0598082e-38 322 343
0.0034400397 0.65399998 -0.11810803 1.0505886e-38 323 343
0.0045797066 0.653 -0.11792745 1.050553e-38 324 343
0.0057246331 0.653 -0.11792745 1.0413335e-38 325 343
0.0068695596 0.653 -0.11792745 1.068848e-38 326 343
0.0080144862 0.653 -0.11792745 1.0780675e-38 327 343
0.0091594132 0.653 -0.11792745 1.0780675e-38 328 343
0.01028856 0.65200001 -0.11774684 1.0872871e-38 329 343
0.011431733 0.65200001 -0.11774684 1.0598085e-38 330 343
0.012574906 0.65200001 -0.11774684 1.0598085e-38 331 343
0.01371808 0.65200001 -0.11774684 1.0598085e-38 332 343
0.014861252 0.65200001 -0.11774684 1.050553e-38 333 343
0.016004426 0.65200001 -0.11774684 1.050553e-38 334 343
0.017147599 0.65200001 -0.11774684 1.0598085e-38 335 343
0.018290773 0.65200001 -0.11774684 1.0597733e-38 336 343
0.019433947 0.65200001 -0.11774684 1.0597733e-38 337 343
0.020608678 0.653 -0.11792745 1.0414417e-38 338 343
0.021720294 0.65200001 -0.11774684 1.0414417e-38 339 343
0.022863466 0.65200001 -0.11774684 1.0873597e-38 340 343
0.024043459 0.653 -0.11792745 1.0781041e-38 341 343
0.025188386 0.653 -0.11792745 1.0873594e-38 342 343
0.026333313 0.653 -0.11792745 1.0873594e-38 343 343
0.027478239 0.653 -0.11792745 1.0873594e-38 344 343
0.028623167 0.653 -0.11792745 1.0873594e-38 345 343
0.029768093 0.653 -0.11792745 1.0965074e-38 346 343
0.03091302 0.653 -0.11792745 1.0965074e-38 347 343
0.03210704 0.65399998 -0.11810803 1.0965071e-38 348 343
0.033253718 0.65399998 -0.11810803 1.0965071e-38 349 343
0.034452997 0.65499997 -0.11828862 1.0782121e-38 350 343
0.03560143 0.65499997 -0.11828862 1.0782121e-38 351 343
0.036749862 0.65499997 -0.11828862 1.0689926e-38 352 343
0.037898298 0.65499997 -0.11828862 1.0597729e-38 353 343
0.039165959 0.65700001 -0.11864981 1.059701e-38 354 343
0.0403179 0.65700001 -0.11864981 1.0504814e-38 355 343
0.041469838 0.65700001 -0.11864981 1.0046357e-38 356 343
0.04262178 0.65700001 -0.11864981 9.8619658e-39 357 343
0.043773718 0.65700001 -0.11864981 9.5868237e-39 358 343
0.04492566 0.65700001 -0.11864981 9.4942693e-39 359 343
0.046077598 0.65700001 -0.11864981 8.9436165e-39 360 343
0.04722954 0.65700001 -0.11864981 8.8514195e-39 361 343
0.048234195 0.65499997 -0.11828862 8.6677569e-39 362 343
0.049382631 0.65499997 -0.11828862 8.5755612e-39 363 343
0.050531063 0.65499997 -0.11828862 8.4830335e-39 364 343
-0.019702207 0.66100001 -0.12053115 1.0322966e-38 303 344
-0.018543253 0.66100001 -0.12053115 1.0323317e-38 304 344
-0.017331699 0.65899998 -0.12016644 1.0507348e-38 305 344
-0.016151706 0.65799999 -0.1199841 1.0691727e-38 306 344
-0.014998012 0.65799999 -0.1199841 1.0691727e-38 307 344
-0.013865359 0.65899998 -0.12016644 1.0967941e-38 308 344
-0.012690626 0.65799999 -0.1199841 1.0875745e-38 309 344
-0.011536933 0.65799999 -0.1199841 1.1151606e-38 310 344
-0.01038324 0.65799999 -0.1199841 1.1151606e-38 311 344
-0.0092295464 0.65799999 -0.1199841 1.1333481e-38 312 344
-0.0080758529 0.65799999 -0.1199841 1.1425676e-38 313 344
-0.0069221598 0.65799999 -0.1199841 1.1333481e-38 314 344
-0.0057684663 0.65799999 -0.1199841 1.1333481e-38 315 344
-0.0046147732 0.65799999 -0.1199841 1.1333481e-38 316 344
-0.0034610799 0.65799999 -0.1199841 1.1241285e-38 317 344
-0.0023038799 0.65700001 -0.11980176 1.1057973e-38 318 344
-0.00115194 0.65700001 -0.11980176 1.1057973e-38 319 344
0 0.65700001 -0.11980176 1.096614e-38 320 344
0.0011484332 0.65499997 -0.11943705 1.096614e-38 321 344
0.0022968664 0.65499997 -0.11943705 1.096614e-38 322 344
0.0034400397 0.65399998 -0.11925472 1.0873944e-38 323 344
0.0045867199 0.65399998 -0.11925472 1.1148733e-38 324 344
0.0057333997 0.65399998 -0.11925472 1.1056536e-38 325 344
0.0068695596 0.653 -0.11907237 1.1055817e-38 326 344
0.0080144862 0.653 -0.11907237 1.1148013e-38 327 344
0.0091594132 0.653 -0.11907237 1.1056539e-38 328 344
0.010304339 0.653 -0.11907237 1.1056539e-38 329 344
0.011449266 0.653 -0.11907237 1.0781397e-38 330 344
0.012574906 0.65200001 -0.11889002 1.0781397e-38 331 344
0.01371808 0.65200001 -0.11889002 1.0780675e-38 332 344
0.014884046 0.653 -0.11907237 1.0872871e-38 333 344
0.016028972 0.653 -0.11907237 1.0781394e-38 334 344
0.017173899 0.653 -0.11907237 1.0781394e-38 335 344
0.018318826 0.653 -0.11907237 1.0598085e-38 336 344
0.019463753 0.653 -0.11907237 1.0598085e-38 337 344
0.020608678 0.653 -0.11907237 1.0598085e-38 338 344
0.021753605 0.653 -0.11907237 1.0690282e-38 339 344
0.022898532 0.653 -0.11907237 1.0872871e-38 340 344
0.024043459 0.653 -0.11907237 1.0780675e-38 341 344
0.025188386 0.653 -0.11907237 1.078175e-38 342 344
0.026333313 0.653 -0.11907237 1.078175e-38 343 344
0.027478239 0.653 -0.11907237 1.0598085e-38 344 344
0.028623167 0.653 -0.11907237 1.0598085e-38 345 344
0.029813679 0.65399998 -0.11925472 1.0781041e-38 346 344
0.030960357 0.65399998 -0.11925472 1.0781041e-38 347 344
0.03210704 0.65399998 -0.11925472 1.0965071e-38 348 344
0.033304565 0.65499997 -0.11943705 1.0872874e-38 349 344
0.034452997 0.65499997 -0.11943705 1.0506616e-38 350 344
0.03560143 0.65499997 -0.11943705 1.0506616e-38 351 344
0.036749862 0.65499997 -0.11943705 1.059738e-38 352 344
0.038014017 0.65700001 -0.11980176 1.0412987e-38 353 344
0.039165959 0.65700001 -0.11980176 1.0228597e-38 354 344
0.0403179 0.65700001 -0.11980176 1.0228597e-38 355 344
0.041469838 0.65700001 -0.11980176 9.9538083e-39 356 344
0.04262178 0.65700001 -0.11980176 9.8616127e-39 357 344
0.043773718 0.65700001 -0.11980176 9.6782977e-39 358 344
0.044994038 0.65799999 -0.1199841 9.6782977e-39 359 344
0.04614773 0.65799999 -0.1199841 9.2205593e-39 360 344
0.047301427 0.65799999 -0.1199841 9.2205593e-39 361 344
-0.015066394 0.66100001 -0.12169009 1.087254e-38 307 345
-0.013865359 0.65899998 -0.12132189 1.1241303e-38 308 345
-0.012709912 0.65899998 -0.12132189 1.1241303e-38 309 345
-0.011536933 0.65799999 -0.12113779 1.1426401e-38 310 345
-0.01038324 0.65799999 -0.12113779 1.1333846e-38 311 345
-0.0092295464 0.65799999 -0.12113779 1.1425679e-38 312 345
-0.0080758529 0.65799999 -0.12113779 1.1425679e-38 313 345
-0.0069221598 0.65799999 -0.12113779 1.1516796e-38 314 345
-0.0057772328 0.65899998 -0.12132189 1.1516796e-38 315 345
-0.0046147732 0.65799999 -0.12113779 1.1334202e-38 316 345
-0.0034610799 0.65799999 -0.12113779 1.1242007e-38 317 345
-0.0023073866 0.65799999 -0.12113779 1.1241651e-38 318 345
-0.0011536933 0.65799999 -0.12113779 1.1241651e-38 319 345
0 0.65799999 -0.12113779 1.1241653e-38 320 345
0.00115194 0.65700001 -0.12095369 1.1241653e-38 321 345
0.0023038799 0.65700001 -0.12095369 1.1333852e-38 322 345
0.0034452998 0.65499997 -0.12058549 1.1241298e-38 323 345
0.0045937328 0.65499997 -0.12058549 1.1240935e-38 324 345
0.0057421662 0.65499997 -0.12058549 1.1148739e-38 325 345
0.0068800794 0.65399998 -0.12040139 1.1148736e-38 326 345
0.0080267601 0.65399998 -0.12040139 1.1148736e-38 327 345
0.0091594132 0.653 -0.1202173 1.1148739e-38 328 345
0.010304339 0.653 -0.1202173 1.1148739e-38 329 345
0.011449266 0.653 -0.1202173 1.0872877e-38 330 345
0.012594193 0.653 -0.1202173 1.0780322e-38 331 345
0.013739119 0.653 -0.1202173 1.0780678e-38 332 345
0.014884046 0.653 -0.1202173 1.0780678e-38 333 345
0.01605352 0.65399998 -0.12040139 1.0780678e-38 334 345
0.017200198 0.65399998 -0.12040139 1.0872874e-38 335 345
0.01834688 0.65399998 -0.12040139 1.0597733e-38 336 345
0.019493559 0.65399998 -0.12040139 1.0597733e-38 337 345
0.020640239 0.65399998 -0.12040139 1.0597729e-38 338 345
0.021786919 0.65399998 -0.12040139 1.0597729e-38 339 345
0.022933599 0.65399998 -0.12040139 1.078175e-38 340 345
0.024043459 0.653 -0.1202173 1.059736e-38 341 345
0.025188386 0.653 -0.1202173 1.0598082e-38 342 345
0.02637364 0.65399998 -0.12040139 1.0505886e-38 343 345
0.027520318 0.65399998 -0.12040139 1.0780325e-38 344 345
0.028666999 0.65399998 -0.12040139 1.0780325e-38 345 345
0.029813679 0.65399998 -0.12040139 1.0597013e-38 346 345
0.030960357 0.65399998 -0.12040139 1.0781045e-38 347 345
0.032156132 0.65499997 -0.12058549 1.0872877e-38 348 345
0.033304565 0.65499997 -0.12058549 1.0780322e-38 349 345
0.034452997 0.65499997 -0.12058549 1.050518e-38 350 345
0.03560143 0.65499997 -0.12058549 1.050518e-38 351 345
0.036749862 0.65499997 -0.12058549 1.02286e-38 352 345
0.038014017 0.65700001 -0.12095369 1.02286e-38 353 345
0.039165959 0.65700001 -0.12095369 1.0136405e-38 354 345
0.040379263 0.65799999 -0.12113779 1.0136405e-38 355 345
0.04153296 0.65799999 -0.12113779 9.8612596e-39 356 345
0.042686652 0.65799999 -0.12113779 9.9534552e-39 357 345
0.043840345 0.65799999 -0.12113779 9.6783131e-39 358 345
0.044994038 0.65799999 -0.12113779 1.0047096e-38 359 345
0.04614773 0.65799999 -0.12113779 9.1301938e-39 360 345
-0.0011589533 0.66100001 -0.12284905 1.0690294e-38 319 346
0 0.65899998 -0.12247734 1.1058354e-38 320 346
0.0011536933 0.65799999 -0.12229149 1.1058354e-38 321 346
0.0023073866 0.65799999 -0.12229149 1.1057632e-38 322 346
0.0034558198 0.65700001 -0.12210564 1.1057632e-38 323 346
0.0046077599 0.65700001 -0.12210564 1.1057269e-38 324 346
0.0057596997 0.65700001 -0.12210564 1.1057269e-38 325 346
0.0068905996 0.65499997 -0.12173393 1.0965068e-38 326 346
0.008039033 0.65499997 -0.12173393 1.0965068e-38 327 346
0.0091734398 0.65399998 -0.12154807 1.0965071e-38 328 346
0.01032012 0.65399998 -0.12154807 1.0965071e-38 329 346
0.011466799 0.65399998 -0.12154807 1.0781048e-38 330 346
0.012613479 0.65399998 -0.12154807 1.0596657e-38 331 346
0.013760159 0.65399998 -0.12154807 1.0504461e-38 332 346
0.014906839 0.65399998 -0.12154807 1.0596657e-38 333 346
0.01605352 0.65399998 -0.12154807 1.0505183e-38 334 346
0.017226499 0.65499997 -0.12173393 1.0505183e-38 335 346
0.01834688 0.65399998 -0.12154807 1.0504108e-38 336 346
0.019493559 0.65399998 -0.12154807 1.0596662e-38 337 346
0.020640239 0.65399998 -0.12154807 1.0321868e-38 338 346
0.021786919 0.65399998 -0.12154807 1.0321868e-38 339 346
0.022968665 0.65499997 -0.12173393 1.0230025e-38 340 346
0.024080278 0.65399998 -0.12154807 1.0230025e-38 341 346
0.025226958 0.65399998 -0.12154807 1.0230391e-38 342 346
0.02637364 0.65399998 -0.12154807 1.004636e-38 343 346
0.027520318 0.65399998 -0.12154807 1.0412634e-38 344 346
0.028666999 0.65399998 -0.12154807 1.0412634e-38 345 346
0.029813679 0.65399998 -0.12154807 1.0045651e-38 346 346
0.030960357 0.65399998 -0.12154807 1.0045651e-38 347 346
0.032156132 0.65499997 -0.12173393 1.0229322e-38 348 346
0.033304565 0.65499997 -0.12173393 1.0229322e-38 349 346
0.034452997 0.65499997 -0.12173393 9.953458e-39 350 346
0.03560143 0.65499997 -0.12173393 9.8612624e-39 351 346
0.036862079 0.65700001 -0.12210564 1.0044577e-38 352 346
0.038071878 0.65799999 -0.12229149 9.767992e-39 353 346
0.039225571 0.65799999 -0.12229149 9.5853986e-39 354 346
0.0023108933 0.65899998 -0.12363279 1.1055487e-38 322 347
0.0034610799 0.65799999 -0.12344518 1.096329e-38 323 347
0.0046147732 0.65799999 -0.12344518 1.0963284e-38 324 347
0.0057684663 0.65799999 -0.12344518 1.0963284e-38 325 347
0.0069116396 0.65700001 -0.12325758 1.0780322e-38 326 347
0.008039033 0.65499997 -0.12288236 1.0688127e-38 327 347
0.0091874655 0.65499997 -0.12288236 1.0688127e-38 328 347
0.010335899 0.65499997 -0.12288236 1.0688127e-38 329 347
0.011484332 0.65499997 -0.12288236 1.0688129e-38 330 347
0.012632766 0.65499997 -0.12288236 1.0595934e-38 331 347
0.013781199 0.65499997 -0.12288236 1.0594506e-38 332 347
0.014929632 0.65499997 -0.12288236 1.0594506e-38 333 347
0.016078066 0.65499997 -0.12288236 1.0594511e-38 334 347
0.017226499 0.65499997 -0.12288236 1.0594511e-38 335 347
0.018374931 0.65499997 -0.12288236 1.0411199e-38 336 347
0.019523365 0.65499997 -0.12288236 1.0411199e-38 337 347
0.020671798 0.65499997 -0.12288236 1.0227521e-38 338 347
0.021820232 0.65499997 -0.12288236 1.0319717e-38 339 347
0.022968665 0.65499997 -0.12288236 1.0044206e-38 340 347
0.024080278 0.65399998 -0.12269475 1.0044206e-38 341 347
0.025226958 0.65399998 -0.12269475 1.0227524e-38 342 347
0.02637364 0.65399998 -0.12269475 1.0227524e-38 343 347
0.027520318 0.65399998 -0.12269475 1.0043853e-38 344 347
0.028666999 0.65399998 -0.12269475 1.0043853e-38 345 347
0.029813679 0.65399998 -0.12269475 1.0227524e-38 346 347
0.030960357 0.65399998 -0.12269475 1.0227524e-38 347 347
0.032156132 0.65499997 -0.12288236 1.0227171e-38 348 347
0.033304565 0.65499997 -0.12288236 1.0227171e-38 349 347
0.034452997 0.65499997 -0.12288236 1.004315e-38 350 347
0.035710141 0.65700001 -0.12325758 9.9509539e-39 351 347
0.036862079 0.65700001 -0.12325758 9.7676444e-39 352 347
0.038071878 0.65799999 -0.12344518 9.7676444e-39 353 347
0.0069221598 0.65799999 -0.12459887 9.4003011e-39 326 348
0.0080758529 0.65799999 -0.12459887 9.308104e-39 327 348
0.0092155198 0.65700001 -0.12440952 9.3995808e-39 328 348
0.01036746 0.65700001 -0.12440952 9.3995808e-39 329 348
0.011519399 0.65700001 -0.12440952 9.5836021e-39 330 348
0.01267134 0.65700001 -0.12440952 9.5836021e-39 331 348
0.013823279 0.65700001 -0.12440952 9.3073852e-39 332 348
0.01497522 0.65700001 -0.12440952 9.3073852e-39 333 348
0.01612716 0.65700001 -0.12440952 9.3066789e-39 334 348
0.0172791 0.65700001 -0.12440952 9.3066789e-39 335 348
0.01843104 0.65700001 -0.12440952 9.4903499e-39 336 348
0.019582979 0.65700001 -0.12440952 9.4903499e-39 337 348
0.020734919 0.65700001 -0.12440952 9.0318871e-39 338 348
0.021886859 0.65700001 -0.12440952 9.0318871e-39 339 348
0.023038799 0.65700001 -0.12440952 8.9396915e-39 340 348
0.024117097 0.65499997 -0.12403079 8.8474958e-39 341 348
0.025265532 0.65499997 -0.12403079 8.9389754e-39 342 348
0.026413966 0.65499997 -0.12403079 9.031171e-39 343 348
0.027562398 0.65499997 -0.12403079 9.2144833e-39 344 348
0.028710833 0.65499997 -0.12403079 9.3066789e-39 345 348
