# .PCD v.7 - Point Cloud Data file format
FIELDS x y z rgb imX imY
SIZE 4 4 4 4 4 4
TYPE F F F F F F
COUNT 1 1 1 1 1 1
WIDTH 842
HEIGHT 1
VIEWPOINT 0 0 0 1 0 0 0
POINTS 842
DATA ascii
0.03635712 0.648 -0.04885488 1.806229e-38 352 283
0.037493281 0.648 -0.04885488 1.7878259e-38 353 283
0.038629439 0.648 -0.04885488 1.7601669e-38 354 283
0.0397656 0.648 -0.04885488 1.7140691e-38 355 283
0.040901758 0.648 -0.04885488 1.6681511e-38 356 283
0.042037919 0.648 -0.04885488 1.6312728e-38 357 283
0.043174081 0.648 -0.04885488 1.5852473e-38 358 283
0.044378616 0.64899999 -0.048930272 1.5575526e-38 359 283
0.045516532 0.64899999 -0.048930272 1.5116722e-38 360 283
0.046654444 0.64899999 -0.048930272 1.4840495e-38 361 283
0.047865998 0.64999998 -0.049005665 1.4747593e-38 362 283
0.049156453 0.65200001 -0.049156453 1.4655397e-38 363 283
0.050453916 0.65399998 -0.049307238 1.4470652e-38 364 283
0.051837299 0.65700001 -0.049533416 1.4378097e-38 365 283
0.052989237 0.65700001 -0.049533416 1.4102239e-38 366 283
0.054305989 0.65899998 -0.049684204 1.3917848e-38 367 283
0.05562976 0.66100001 -0.049834993 1.3640913e-38 368 283
0.056788713 0.66100001 -0.049834993 1.3548718e-38 369 283
0.057947662 0.66100001 -0.049834993 1.3365063e-38 370 283
0.059285458 0.66299999 -0.049985778 1.3549813e-38 371 283
0.060903784 0.66799998 -0.050362743 1.3458729e-38 372 283
0.021653665 0.64999998 -0.050145328 1.8344415e-38 339 284
0.022793332 0.64999998 -0.050145328 1.7513885e-38 340 284
0.023896178 0.64899999 -0.050068185 1.5762528e-38 341 284
0.025034092 0.64899999 -0.050068185 1.7048889e-38 342 284
0.026172007 0.64899999 -0.050068185 1.7325118e-38 343 284
0.02726784 0.648 -0.049991041 1.7693159e-38 344 284
0.028404001 0.648 -0.049991041 1.7785713e-38 345 284
0.029540159 0.648 -0.049991041 1.7785708e-38 346 284
0.03067632 0.648 -0.049991041 1.8062293e-38 347 284
0.031763386 0.64700001 -0.049913891 1.806229e-38 348 284
0.032897793 0.64700001 -0.049913891 1.806229e-38 349 284
0.0340322 0.64700001 -0.049913891 1.7971529e-38 350 284
0.035112254 0.64600003 -0.049836747 1.7971529e-38 351 284
0.036244906 0.64600003 -0.049836747 1.7878259e-38 352 284
0.03743542 0.64700001 -0.049913891 1.7878259e-38 353 284
0.038569827 0.64700001 -0.049913891 1.723433e-38 354 284
0.039704233 0.64700001 -0.049913891 1.6773353e-38 355 284
0.04083864 0.64700001 -0.049913891 1.6313097e-38 356 284
0.041973047 0.64700001 -0.049913891 1.585212e-38 357 284
0.043174081 0.648 -0.049991041 1.5299668e-38 358 284
0.044310238 0.648 -0.049991041 1.5115277e-38 359 284
0.045516532 0.64899999 -0.050068185 1.4840142e-38 360 284
0.046654444 0.64899999 -0.050068185 1.465575e-38 361 284
0.047792356 0.64899999 -0.050068185 1.4470652e-38 362 284
0.049005665 0.64999998 -0.050145328 1.4378097e-38 363 284
0.050299626 0.65200001 -0.050299626 1.4010041e-38 364 284
0.051600594 0.65399998 -0.050453916 1.3917845e-38 365 284
0.052989237 0.65700001 -0.050685361 1.3733461e-38 366 284
0.054223582 0.65799999 -0.050762504 1.3549068e-38 367 284
0.055461437 0.65899998 -0.050839648 1.3273207e-38 368 284
0.056788713 0.66100001 -0.050993945 1.3365403e-38 369 284
0.057947662 0.66100001 -0.050993945 1.3273222e-38 370 284
0.059285458 0.66299999 -0.051148236 1.3457615e-38 371 284
0.022758266 0.64899999 -0.051206097 1.7145083e-38 340 285
0.023896178 0.64899999 -0.051206097 1.5854344e-38 341 285
0.024995521 0.648 -0.051127199 1.7326177e-38 342 285
0.02613168 0.648 -0.051127199 1.7326177e-38 343 285
0.02726784 0.648 -0.051127199 1.7693515e-38 344 285
0.028360168 0.64700001 -0.051048297 1.778571e-38 345 285
0.029494572 0.64700001 -0.051048297 1.7878259e-38 346 285
0.030581642 0.64600003 -0.0509694 1.806229e-38 347 285
0.031616107 0.64399999 -0.050811596 1.8062646e-38 348 285
0.032745253 0.64399999 -0.050811596 1.8154842e-38 349 285
0.033821799 0.64300001 -0.050732698 1.8154842e-38 350 285
0.034949195 0.64300001 -0.050732698 1.8062646e-38 351 285
0.036076587 0.64300001 -0.050732698 1.8061571e-38 352 285
0.037377559 0.64600003 -0.0509694 1.787718e-38 353 285
0.038390987 0.64399999 -0.050811596 1.7050665e-38 354 285
0.03952013 0.64399999 -0.050811596 1.6405297e-38 355 285
0.04064928 0.64399999 -0.050811596 1.5852136e-38 356 285
0.041908171 0.64600003 -0.0509694 1.5483712e-38 357 285
0.043040827 0.64600003 -0.0509694 1.4839789e-38 358 285
0.044310238 0.648 -0.051127199 1.4655397e-38 359 285
0.0454464 0.648 -0.051127199 1.4286981e-38 360 285
0.046582561 0.648 -0.051127199 1.4194785e-38 361 285
0.047792356 0.64899999 -0.051206097 1.4285907e-38 362 285
0.048930272 0.64899999 -0.051206097 1.4101517e-38 363 285
0.050145328 0.64999998 -0.051284995 1.3733463e-38 364 285
0.0515217 0.653 -0.0515217 1.3548712e-38 365 285
0.052989237 0.65700001 -0.051837299 1.3456519e-38 366 285
0.054141179 0.65700001 -0.051837299 1.3364324e-38 367 285
0.055461437 0.65899998 -0.051995095 1.3181371e-38 368 285
0.056788713 0.66100001 -0.052152898 1.3181371e-38 369 285
0.057947662 0.66100001 -0.052152898 1.3181754e-38 370 285
0.05919604 0.662 -0.0522318 1.3365785e-38 371 285
0.0227232 0.648 -0.05226336 1.6499345e-38 340 286
0.023859359 0.648 -0.05226336 1.6130561e-38 341 286
0.024995521 0.648 -0.05226336 1.7417651e-38 342 286
0.026091354 0.64700001 -0.052182708 1.7509846e-38 343 286
0.027225759 0.64700001 -0.052182708 1.7693512e-38 344 286
0.028316336 0.64600003 -0.052102055 1.7878262e-38 345 286
0.029357811 0.64399999 -0.051940747 1.7878256e-38 346 286
0.03048696 0.64399999 -0.051940747 1.8062646e-38 347 286
0.031517919 0.64200002 -0.051779442 1.806229e-38 348 286
0.03264356 0.64200002 -0.051779442 1.806229e-38 349 286
0.033769198 0.64200002 -0.051779442 1.7878259e-38 350 286
0.034894839 0.64200002 -0.051779442 1.7878259e-38 351 286
0.03602048 0.64200002 -0.051779442 1.7693868e-38 352 286
0.037146121 0.64200002 -0.051779442 1.7416921e-38 353 286
0.038331371 0.64300001 -0.051860094 1.6498208e-38 354 286
0.039458767 0.64300001 -0.051860094 1.5852839e-38 355 286
0.04064928 0.64399999 -0.051940747 1.5208198e-38 356 286
0.041778423 0.64399999 -0.051940747 1.4931611e-38 357 286
0.042907573 0.64399999 -0.051940747 1.5021655e-38 358 286
0.044241857 0.64700001 -0.052182708 1.4745428e-38 359 286
0.0454464 0.648 -0.05226336 1.4286257e-38 360 286
0.046582561 0.648 -0.05226336 1.3917476e-38 361 286
0.047718719 0.648 -0.05226336 1.3274629e-38 362 286
0.048930272 0.64899999 -0.052344013 1.3089879e-38 363 286
0.050145328 0.64999998 -0.052424666 1.3364318e-38 364 286
0.051442798 0.65200001 -0.052585974 1.3272122e-38 365 286
0.052827932 0.65499997 -0.052827932 1.3181006e-38 366 286
0.053976361 0.65499997 -0.052827932 1.3181006e-38 367 286
0.055377278 0.65799999 -0.05306989 1.2998415e-38 368 286
0.056616884 0.65899998 -0.053150542 1.2998415e-38 369 286
0.057772331 0.65899998 -0.053150542 1.3089554e-38 370 286
0.05919604 0.662 -0.053392503 1.3181751e-38 371 286
0.0227232 0.648 -0.053399518 1.6312082e-38 340 287
0.023859359 0.648 -0.053399518 1.6865256e-38 341 287
0.024918374 0.64600003 -0.053234708 1.7417303e-38 342 287
0.026051028 0.64600003 -0.053234708 1.7509499e-38 343 287
0.027099518 0.64399999 -0.05306989 1.7694231e-38 344 287
0.028184833 0.64300001 -0.052987486 1.7786426e-38 345 287
0.029266641 0.64200002 -0.052905083 1.806229e-38 346 287
0.030392278 0.64200002 -0.052905083 1.806229e-38 347 287
0.031517919 0.64200002 -0.052905083 1.7878981e-38 348 287
0.03259271 0.64099997 -0.052822668 1.7786426e-38 349 287
0.033716597 0.64099997 -0.052822668 1.778571e-38 350 287
0.034840483 0.64099997 -0.052822668 1.7601319e-38 351 287
0.03596437 0.64099997 -0.052822668 1.7325807e-38 352 287
0.03708826 0.64099997 -0.052822668 1.686483e-38 353 287
0.038271759 0.64200002 -0.052905083 1.6313094e-38 354 287
0.0393974 0.64200002 -0.052905083 1.5667725e-38 355 287
0.040523041 0.64200002 -0.052905083 1.5116e-38 356 287
0.041713554 0.64300001 -0.052987486 1.4839413e-38 357 287
0.042840946 0.64300001 -0.052987486 1.4469927e-38 358 287
0.044036716 0.64399999 -0.05306989 1.4377731e-38 359 287
0.045306131 0.64600003 -0.053234708 1.3641617e-38 360 287
0.046510674 0.64700001 -0.053317111 1.3549421e-38 361 287
0.047718719 0.648 -0.053399518 1.3181374e-38 362 287
0.048930272 0.64899999 -0.053481925 1.2812952e-38 363 287
0.050145328 0.64999998 -0.053564329 1.2995908e-38 364 287
0.051442798 0.65200001 -0.053729147 1.2995908e-38 365 287
0.052827932 0.65499997 -0.053976361 1.2813668e-38 366 287
0.053976361 0.65499997 -0.053976361 1.2905864e-38 367 287
0.055377278 0.65799999 -0.054223582 1.3088823e-38 368 287
0.056616884 0.65899998 -0.054305989 1.3088823e-38 369 287
0.057772331 0.65899998 -0.054305989 1.2537119e-38 370 287
0.058927774 0.65899998 -0.054305989 1.2629315e-38 371 287
0.021520413 0.64600003 -0.05436736 1.5487386e-38 339 288
0.022653066 0.64600003 -0.05436736 1.686307e-38 340 288
0.023785722 0.64600003 -0.05436736 1.7416244e-38 341 288
0.024841227 0.64399999 -0.054199036 1.7417654e-38 342 288
0.025970373 0.64399999 -0.054199036 1.7509849e-38 343 288
0.02701536 0.64200002 -0.05403072 1.787718e-38 344 288
0.028097166 0.64099997 -0.053946555 1.7969376e-38 345 288
0.02922105 0.64099997 -0.053946555 1.8060855e-38 346 288
0.030344937 0.64099997 -0.053946555 1.8244886e-38 347 288
0.031468827 0.64099997 -0.053946555 1.7786429e-38 348 288
0.03259271 0.64099997 -0.053946555 1.7694234e-38 349 288
0.033716597 0.64099997 -0.053946555 1.7692793e-38 350 288
0.034840483 0.64099997 -0.053946555 1.7416205e-38 351 288
0.03596437 0.64099997 -0.053946555 1.7048861e-38 352 288
0.03708826 0.64099997 -0.053946555 1.6495688e-38 353 288
0.038212143 0.64099997 -0.053946555 1.6127634e-38 354 288
0.039336029 0.64099997 -0.053946555 1.5390069e-38 355 288
0.040459916 0.64099997 -0.053946555 1.483906e-38 356 288
0.041648682 0.64200002 -0.05403072 1.4378082e-38 357 288
0.042840946 0.64300001 -0.054114878 1.419334e-38 358 288
0.044036716 0.64399999 -0.054199036 1.3917112e-38 359 288
0.045165867 0.64399999 -0.054199036 1.3181362e-38 360 288
0.046438787 0.64600003 -0.05436736 1.3088807e-38 361 288
0.047645077 0.64700001 -0.054451518 1.2995541e-38 362 288
0.04885488 0.648 -0.05453568 1.281115e-38 363 288
0.050068185 0.64899999 -0.054619838 1.2811147e-38 364 288
0.051284995 0.64999998 -0.054703996 1.2903343e-38 365 288
0.052747279 0.65399998 -0.055040635 1.2813665e-38 366 288
0.053976361 0.65499997 -0.055124797 1.2813665e-38 367 288
0.055293117 0.65700001 -0.055293117 1.2904794e-38 368 288
0.056616884 0.65899998 -0.055461437 1.2812599e-38 369 288
0.057772331 0.65899998 -0.055461437 1.2351286e-38 370 288
0.058927774 0.65899998 -0.055461437 1.2166894e-38 371 288
0.021420473 0.64300001 -0.05524227 1.5395171e-38 339 289
0.022547867 0.64300001 -0.05524227 1.7139635e-38 340 289
0.02371208 0.64399999 -0.055328183 1.7508417e-38 341 289
0.024802653 0.64300001 -0.05524227 1.7418004e-38 342 289
0.025889721 0.64200002 -0.055156358 1.75102e-38 343 289
0.026973277 0.64099997 -0.055070441 1.787718e-38 344 289
0.028097166 0.64099997 -0.055070441 1.787718e-38 345 289
0.02922105 0.64099997 -0.055070441 1.787683e-38 346 289
0.030344937 0.64099997 -0.055070441 1.7969025e-38 347 289
0.031468827 0.64099997 -0.055070441 1.7417298e-38 348 289
0.032541864 0.63999999 -0.054984529 1.7325102e-38 349 289
0.033663996 0.63999999 -0.054984529 1.7233258e-38 350 289
0.034786131 0.63999999 -0.054984529 1.7048508e-38 351 289
0.035908263 0.63999999 -0.054984529 1.6773e-38 352 289
0.037030395 0.63999999 -0.054984529 1.6127631e-38 353 289
0.038152531 0.63999999 -0.054984529 1.5759218e-38 354 289
0.039336029 0.64099997 -0.055070441 1.5113849e-38 355 289
0.040459916 0.64099997 -0.055070441 1.4562479e-38 356 289
0.041648682 0.64200002 -0.055156358 1.4285533e-38 357 289
0.04277432 0.64200002 -0.055156358 1.3549415e-38 358 289
0.043968339 0.64300001 -0.05524227 1.345722e-38 359 289
0.045165867 0.64399999 -0.055328183 1.308881e-38 360 289
0.046438787 0.64600003 -0.055500012 1.2904417e-38 361 289
0.047571443 0.64600003 -0.055500012 1.2811869e-38 362 289
0.048779488 0.64700001 -0.055585928 1.2627838e-38 363 289
0.050068185 0.64899999 -0.05575775 1.2353762e-38 364 289
0.051206097 0.64899999 -0.05575775 1.2445957e-38 365 289
0.052585974 0.65200001 -0.056015491 1.253816e-38 366 289
0.053976361 0.65499997 -0.056273226 1.253816e-38 367 289
0.055124797 0.65499997 -0.056273226 1.272005e-38 368 289
0.056616884 0.65899998 -0.056616884 1.272005e-38 369 289
0.057772331 0.65899998 -0.056616884 1.1983229e-38 370 289
0.020229958 0.64099997 -0.056194331 1.7238002e-38 338 290
0.021353846 0.64099997 -0.056194331 1.5947263e-38 339 290
0.022477733 0.64099997 -0.056194331 1.7325458e-38 340 290
0.023601618 0.64099997 -0.056194331 1.7325458e-38 341 290
0.024725504 0.64099997 -0.056194331 1.7418001e-38 342 290
0.025849391 0.64099997 -0.056194331 1.7418001e-38 343 290
0.026931198 0.63999999 -0.056106664 1.7509116e-38 344 290
0.028053332 0.63999999 -0.056106664 1.7601313e-38 345 290
0.029175464 0.63999999 -0.056106664 1.7417651e-38 346 290
0.030297596 0.63999999 -0.056106664 1.7325454e-38 347 290
0.031419732 0.63999999 -0.056106664 1.7232905e-38 348 290
0.032541864 0.63999999 -0.056106664 1.7232905e-38 349 290
0.033663996 0.63999999 -0.056106664 1.7048511e-38 350 290
0.034786131 0.63999999 -0.056106664 1.6772284e-38 351 290
0.035908263 0.63999999 -0.056106664 1.6587889e-38 352 290
0.037030395 0.63999999 -0.056106664 1.6126912e-38 353 290
0.038152531 0.63999999 -0.056106664 1.5483706e-38 354 290
0.039274666 0.63999999 -0.056106664 1.4838696e-38 355 290
0.040459916 0.64099997 -0.056194331 1.4286608e-38 356 290
0.041583803 0.64099997 -0.056194331 1.4010381e-38 357 290
0.04277432 0.64200002 -0.056282002 1.3273905e-38 358 290
0.043899957 0.64200002 -0.056282002 1.3089514e-38 359 290
0.045095734 0.64300001 -0.056369666 1.2812219e-38 360 290
0.04629501 0.64399999 -0.056457333 1.2535992e-38 361 290
0.047571443 0.64600003 -0.056632672 1.2535639e-38 362 290
0.048779488 0.64700001 -0.056720335 1.2627835e-38 363 290
0.049991041 0.648 -0.056808002 1.2353759e-38 364 290
0.051206097 0.64899999 -0.056895666 1.2353759e-38 365 290
0.052585974 0.65200001 -0.057158668 1.2445604e-38 366 290
0.053893957 0.65399998 -0.057333998 1.2353409e-38 367 290
0.055124797 0.65499997 -0.057421666 1.26275e-38 368 290
0.056616884 0.65899998 -0.057772331 1.2535304e-38 369 290
0.057772331 0.65899998 -0.057772331 1.1707368e-38 370 290
0.020198399 0.63999999 -0.057228796 1.6867774e-38 338 291
0.021320533 0.63999999 -0.057228796 1.6130208e-38 339 291
0.022442665 0.63999999 -0.057228796 1.7325454e-38 340 291
0.023564799 0.63999999 -0.057228796 1.7325454e-38 341 291
0.024686933 0.63999999 -0.057228796 1.7509472e-38 342 291
0.025809065 0.63999999 -0.057228796 1.7509472e-38 343 291
0.02684704 0.63800001 -0.05704996 1.7417274e-38 344 291
0.027965667 0.63800001 -0.05704996 1.750947e-38 345 291
0.029084295 0.63800001 -0.05704996 1.7233609e-38 346 291
0.03020292 0.63800001 -0.05704996 1.7233609e-38 347 291
0.031321548 0.63800001 -0.05704996 1.7141063e-38 348 291
0.032440174 0.63800001 -0.05704996 1.7048508e-38 349 291
0.033558797 0.63800001 -0.05704996 1.6955594e-38 350 291
0.034677424 0.63800001 -0.05704996 1.6771201e-38 351 291
0.035796054 0.63800001 -0.05704996 1.6403142e-38 352 291
0.03691468 0.63800001 -0.05704996 1.6034719e-38 353 291
0.038033307 0.63800001 -0.05704996 1.5207122e-38 354 291
0.039274666 0.63999999 -0.057228796 1.4653948e-38 355 291
0.040396798 0.63999999 -0.057228796 1.3827429e-38 356 291
0.041583803 0.64099997 -0.057318214 1.3550841e-38 357 291
0.042707693 0.64099997 -0.057318214 1.3365021e-38 358 291
0.043899957 0.64200002 -0.05740764 1.2904402e-38 359 291
0.045095734 0.64300001 -0.057497058 1.2443438e-38 360 291
0.04629501 0.64399999 -0.057586476 1.2351242e-38 361 291
0.047571443 0.64600003 -0.057765324 1.2443441e-38 362 291
0.048704095 0.64600003 -0.057765324 1.2627832e-38 363 291
0.049991041 0.648 -0.05794416 1.2353762e-38 364 291
0.051206097 0.64899999 -0.058033578 1.2353762e-38 365 291
0.052585974 0.65200001 -0.058301836 1.2444891e-38 366 291
0.053893957 0.65399998 -0.05848068 1.2352337e-38 367 291
0.055377278 0.65799999 -0.058838356 1.2534948e-38 368 291
0.056530971 0.65799999 -0.058838356 1.2442753e-38 369 291
0.057684667 0.65799999 -0.058838356 1.152334e-38 370 291
0.019016653 0.63800001 -0.05816859 1.6409007e-38 337 292
0.02013528 0.63800001 -0.05816859 1.6681568e-38 338 292
0.021253906 0.63800001 -0.05816859 1.6773764e-38 339 292
0.022372533 0.63800001 -0.05816859 1.723433e-38 340 292
0.02345434 0.63700002 -0.058077414 1.704994e-38 341 292
0.024571214 0.63700002 -0.058077414 1.7233606e-38 342 292
0.025688088 0.63700002 -0.058077414 1.7233606e-38 343 292
0.026804959 0.63700002 -0.058077414 1.7141766e-38 344 292
0.027921833 0.63700002 -0.058077414 1.7233962e-38 345 292
0.029038707 0.63700002 -0.058077414 1.7049217e-38 346 292
0.03015558 0.63700002 -0.058077414 1.7049217e-38 347 292
0.031321548 0.63800001 -0.05816859 1.6772281e-38 348 292
0.032389328 0.63700002 -0.058077414 1.6772281e-38 349 292
0.0335062 0.63700002 -0.058077414 1.6587889e-38 350 292
0.034623075 0.63700002 -0.058077414 1.6219108e-38 351 292
0.035739947 0.63700002 -0.058077414 1.6034719e-38 352 292
0.036856819 0.63700002 -0.058077414 1.5757772e-38 353 292
0.038033307 0.63800001 -0.05816859 1.5022005e-38 354 292
0.039151933 0.63800001 -0.05816859 1.4561028e-38 355 292
0.040270559 0.63800001 -0.05816859 1.3734513e-38 356 292
0.041518934 0.63999999 -0.058350928 1.3457926e-38 357 292
0.042641066 0.63999999 -0.058350928 1.2996598e-38 358 292
0.043831576 0.64099997 -0.058442101 1.2443425e-38 359 292
0.045025598 0.64200002 -0.058533281 1.2259401e-38 360 292
0.04629501 0.64399999 -0.058715623 1.2351598e-38 361 292
0.04742416 0.64399999 -0.058715623 1.2168296e-38 362 292
0.048704095 0.64600003 -0.058897976 1.2260491e-38 363 292
0.049913891 0.64700001 -0.058989145 1.2077545e-38 364 292
0.051127199 0.648 -0.059080318 1.2077545e-38 365 292
0.052424666 0.64999998 -0.059262663 1.2352342e-38 366 292
0.053976361 0.65499997 -0.059718527 1.2260147e-38 367 292
0.055124797 0.65499997 -0.059718527 1.2166889e-38 368 292
0.056530971 0.65799999 -0.059992049 1.2074693e-38 369 292
0.057684667 0.65799999 -0.059992049 1.1430791e-38 370 292
0.018986847 0.63700002 -0.059194289 1.6132049e-38 337 293
0.020103721 0.63700002 -0.059194289 1.6956708e-38 338 293
0.021220595 0.63700002 -0.059194289 1.7141099e-38 339 293
0.022337466 0.63700002 -0.059194289 1.714141e-38 340 293
0.023417519 0.63599998 -0.059101358 1.714141e-38 341 293
0.024532638 0.63599998 -0.059101358 1.7141042e-38 342 293
0.025647758 0.63599998 -0.059101358 1.7141042e-38 343 293
0.026762879 0.63599998 -0.059101358 1.7232161e-38 344 293
0.027834166 0.63499999 -0.059008431 1.704813e-38 345 293
0.028947532 0.63499999 -0.059008431 1.7231445e-38 346 293
0.0300609 0.63499999 -0.059008431 1.7138889e-38 347 293
0.031174263 0.63499999 -0.059008431 1.6863384e-38 348 293
0.032287631 0.63499999 -0.059008431 1.6771188e-38 349 293
0.033453599 0.63599998 -0.059101358 1.6403129e-38 350 293
0.03456872 0.63599998 -0.059101358 1.6218378e-38 351 293
0.035739947 0.63700002 -0.059194289 1.5849599e-38 352 293
0.036856819 0.63700002 -0.059194289 1.5480815e-38 353 293
0.037973695 0.63700002 -0.059194289 1.4836539e-38 354 293
0.039090566 0.63700002 -0.059194289 1.4468115e-38 355 293
0.040270559 0.63800001 -0.059287209 1.3272829e-38 356 293
0.041389186 0.63800001 -0.059287209 1.2627459e-38 357 293
0.042641066 0.63999999 -0.05947306 1.2441276e-38 358 293
0.043831576 0.64099997 -0.059565991 1.2533471e-38 359 293
0.044955466 0.64099997 -0.059565991 1.2533834e-38 360 293
0.046223126 0.64300001 -0.059751842 1.262639e-38 361 293
0.04742416 0.64399999 -0.05984477 1.2076456e-38 362 293
0.048704095 0.64600003 -0.060030628 1.2168652e-38 363 293
0.049913891 0.64700001 -0.060123552 1.2168299e-38 364 293
0.051127199 0.648 -0.060216483 1.2168299e-38 365 293
0.052424666 0.64999998 -0.060402326 1.2443456e-38 366 293
0.053564329 0.64999998 -0.060402326 1.2259425e-38 367 293
0.055124797 0.65499997 -0.060866963 1.1892097e-38 368 293
0.056530971 0.65799999 -0.061145745 1.1892097e-38 369 293
0.017841918 0.63599998 -0.060216475 1.6685569e-38 336 294
0.018957037 0.63599998 -0.060216475 1.5763613e-38 337 294
0.020072158 0.63599998 -0.060216475 1.6865217e-38 338 294
0.021187279 0.63599998 -0.060216475 1.6957413e-38 339 294
0.022302398 0.63599998 -0.060216475 1.7049217e-38 340 294
0.023417519 0.63599998 -0.060216475 1.7049217e-38 341 294
0.024532638 0.63599998 -0.060216475 1.6864827e-38 342 294
0.025607431 0.63499999 -0.060121801 1.6864827e-38 343 294
0.0267208 0.63499999 -0.060121801 1.6772637e-38 344 294
0.027834166 0.63499999 -0.060121801 1.6680082e-38 345 294
0.028901944 0.634 -0.060027119 1.6587886e-38 346 294
0.030013559 0.634 -0.060027119 1.6587886e-38 347 294
0.031125173 0.634 -0.060027119 1.6495688e-38 348 294
0.032236785 0.634 -0.060027119 1.6403492e-38 349 294
0.0333484 0.634 -0.060027119 1.6127265e-38 350 294
0.034514364 0.63499999 -0.060121801 1.5758123e-38 351 294
0.035683837 0.63599998 -0.060216475 1.5482617e-38 352 294
0.036798958 0.63599998 -0.060216475 1.4929444e-38 353 294
0.037973695 0.63700002 -0.060311161 1.4286252e-38 354 294
0.039090566 0.63700002 -0.060311161 1.3733437e-38 355 294
0.040207442 0.63700002 -0.060311161 1.2903696e-38 356 294
0.041389186 0.63800001 -0.060405839 1.2350522e-38 357 294
0.042641066 0.63999999 -0.060595192 1.2350522e-38 358 294
0.043831576 0.64099997 -0.060689874 1.2350522e-38 359 294
0.044955466 0.64099997 -0.060689874 1.207538e-38 360 294
0.046223126 0.64300001 -0.060879238 1.207538e-38 361 294
0.04742416 0.64399999 -0.06097392 1.1709122e-38 362 294
0.048704095 0.64600003 -0.061163284 1.1709122e-38 363 294
0.049913891 0.64700001 -0.061257958 1.1984636e-38 364 294
0.051127199 0.648 -0.06135264 1.1984636e-38 365 294
0.052344013 0.64899999 -0.061447315 1.2167948e-38 366 294
0.053564329 0.64999998 -0.061541997 1.2167948e-38 367 294
0.054703996 0.64999998 -0.061541997 1.1891028e-38 368 294
0.016726799 0.63599998 -0.061331596 1.7423529e-38 335 295
0.017841918 0.63599998 -0.061331596 1.6223855e-38 336 295
0.018957037 0.63599998 -0.061331596 1.5670681e-38 337 295
0.020072158 0.63599998 -0.061331596 1.6865214e-38 338 295
0.021187279 0.63599998 -0.061331596 1.6681183e-38 339 295
0.022302398 0.63599998 -0.061331596 1.6864827e-38 340 295
0.023380699 0.63499999 -0.061235163 1.6772632e-38 341 295
0.024494065 0.63499999 -0.061235163 1.6864103e-38 342 295
0.025567105 0.634 -0.06113873 1.6864103e-38 343 295
0.026678719 0.634 -0.06113873 1.6588239e-38 344 295
0.027790332 0.634 -0.06113873 1.6496043e-38 345 295
0.028810775 0.63200003 -0.060945868 1.6403492e-38 346 295
0.029918881 0.63200003 -0.060945868 1.6403492e-38 347 295
0.031026987 0.63200003 -0.060945868 1.6128337e-38 348 295
0.032135095 0.63200003 -0.060945868 1.5943586e-38 349 295
0.0333484 0.634 -0.06113873 1.5850671e-38 350 295
0.034460012 0.634 -0.06113873 1.5482249e-38 351 295
0.035683837 0.63599998 -0.061331596 1.4746126e-38 352 295
0.036798958 0.63599998 -0.061331596 1.4377342e-38 353 295
0.037914075 0.63599998 -0.061331596 1.3916378e-38 354 295
0.039090566 0.63700002 -0.061428033 1.3455758e-38 355 295
0.040207442 0.63700002 -0.061428033 1.2718939e-38 356 295
0.041389186 0.63800001 -0.061524466 1.2534187e-38 357 295
0.042641066 0.63999999 -0.061717331 1.2350525e-38 358 295
0.043831576 0.64099997 -0.061813761 1.2350525e-38 359 295
0.044955466 0.64099997 -0.061813761 1.1892068e-38 360 295
0.046223126 0.64300001 -0.062006634 1.1892068e-38 361 295
0.04742416 0.64399999 -0.062103063 1.189207e-38 362 295
0.048553303 0.64399999 -0.062103063 1.189207e-38 363 295
0.049913891 0.64700001 -0.062392361 1.1892435e-38 364 295
0.051127199 0.648 -0.062488798 1.198463e-38 365 295
0.052344013 0.64899999 -0.062585227 1.2167592e-38 366 295
0.053564329 0.64999998 -0.062681668 1.2167592e-38 367 295
0.016726799 0.63599998 -0.062446713 1.6961825e-38 335 296
0.017841918 0.63599998 -0.062446713 1.5761427e-38 336 296
0.018927233 0.63499999 -0.062348526 1.5853981e-38 337 296
0.0200406 0.63499999 -0.062348526 1.6682252e-38 338 296
0.021153966 0.63499999 -0.062348526 1.6313471e-38 339 296
0.022267332 0.63499999 -0.062348526 1.6680438e-38 340 296
0.02334388 0.634 -0.062250346 1.6588242e-38 341 296
0.024455493 0.634 -0.062250346 1.658752e-38 342 296
0.025486453 0.63200003 -0.062053975 1.658752e-38 343 296
0.026594561 0.63200003 -0.062053975 1.6220177e-38 344 296
0.027702669 0.63200003 -0.062053975 1.6127981e-38 345 296
0.028810775 0.63200003 -0.062053975 1.6127984e-38 346 296
0.029918881 0.63200003 -0.062053975 1.6035788e-38 347 296
0.031026987 0.63200003 -0.062053975 1.5760274e-38 348 296
0.032135095 0.63200003 -0.062053975 1.5668078e-38 349 296
0.033243202 0.63200003 -0.062053975 1.5391495e-38 350 296
0.034351308 0.63200003 -0.062053975 1.4930157e-38 351 296
0.03562773 0.63499999 -0.062348526 1.4193671e-38 352 296
0.0367411 0.63499999 -0.062348526 1.3548301e-38 353 296
0.037854467 0.63499999 -0.062348526 1.336356e-38 354 296
0.039029196 0.63599998 -0.062446713 1.2902582e-38 355 296
0.040144317 0.63599998 -0.062446713 1.2443072e-38 356 296
0.041324314 0.63700002 -0.062544905 1.2350875e-38 357 296
0.042641066 0.63999999 -0.062839463 1.2258692e-38 358 296
0.043831576 0.64099997 -0.062937655 1.2166496e-38 359 296
0.044955466 0.64099997 -0.062937655 1.1983187e-38 360 296
0.046151239 0.64200002 -0.063035838 1.1983187e-38 361 296
0.047350518 0.64300001 -0.063134022 1.1891714e-38 362 296
0.048553303 0.64399999 -0.063232213 1.2075747e-38 363 296
0.049913891 0.64700001 -0.063526772 1.1892438e-38 364 296
0.051127199 0.648 -0.063624963 1.1984633e-38 365 296
0.052344013 0.64899999 -0.063723139 1.1983927e-38 366 296
0.053481925 0.64899999 -0.063723139 1.1983927e-38 367 296
0.016700499 0.63499999 -0.0634619 1.6409361e-38 335 297
0.017813865 0.63499999 -0.0634619 1.5483751e-38 336 297
0.018897425 0.634 -0.063361958 1.5944729e-38 337 297
0.020009039 0.634 -0.063361958 1.6314546e-38 338 297
0.021120653 0.634 -0.063361958 1.6129796e-38 339 297
0.022232266 0.634 -0.063361958 1.622018e-38 340 297
0.02327024 0.63200003 -0.063162081 1.6127984e-38 341 297
0.024378346 0.63200003 -0.063162081 1.6127984e-38 342 297
0.025446124 0.63099998 -0.063062139 1.6035788e-38 343 297
0.026552478 0.63099998 -0.063062139 1.5852473e-38 344 297
0.027658831 0.63099998 -0.063062139 1.5852473e-38 345 297
0.028765187 0.63099998 -0.063062139 1.5943591e-38 346 297
0.029871536 0.63099998 -0.063062139 1.5943591e-38 347 297
0.030977892 0.63099998 -0.063062139 1.5575882e-38 348 297
0.032084245 0.63099998 -0.063062139 1.5391851e-38 349 297
0.033190601 0.63099998 -0.063062139 1.5115274e-38 350 297
0.034351308 0.63200003 -0.063162081 1.4285874e-38 351 297
0.035571627 0.634 -0.063361958 1.3640873e-38 352 297
0.036683239 0.634 -0.063361958 1.2626721e-38 353 297
0.037854467 0.63499999 -0.0634619 1.234943e-38 354 297
0.039029196 0.63599998 -0.063561834 1.234943e-38 355 297
0.040144317 0.63599998 -0.063561834 1.1982465e-38 356 297
0.041324314 0.63700002 -0.063661784 1.1982465e-38 357 297
0.042507812 0.63800001 -0.063761719 1.1890635e-38 358 297
0.043763198 0.63999999 -0.063961595 1.1890635e-38 359 297
0.044955466 0.64099997 -0.064061537 1.1890635e-38 360 297
0.046151239 0.64200002 -0.064161479 1.1982831e-38 361 297
0.047350518 0.64300001 -0.064261422 1.1982834e-38 362 297
0.048553303 0.64399999 -0.064361356 1.2075031e-38 363 297
0.049913891 0.64700001 -0.064661182 1.1892084e-38 364 297
0.051127199 0.648 -0.064761117 1.1799889e-38 365 297
0.052344013 0.64899999 -0.064861059 1.1615873e-38 366 297
0.053481925 0.64899999 -0.064861059 1.1615873e-38 367 297
0.015488946 0.63099998 -0.06416849 1.7791569e-38 334 298
0.0166742 0.634 -0.064473569 1.6224245e-38 335 298
0.017785814 0.634 -0.064473569 1.5392627e-38 336 298
0.018837813 0.63200003 -0.064270191 1.5669216e-38 337 298
0.01994592 0.63200003 -0.064270191 1.6129429e-38 338 298
0.021054026 0.63200003 -0.064270191 1.5576256e-38 339 298
0.022162134 0.63200003 -0.064270191 1.5392567e-38 340 298
0.023233417 0.63099998 -0.06416849 1.5300372e-38 341 298
0.024339773 0.63099998 -0.06416849 1.5759555e-38 342 298
0.025405798 0.63 -0.064066797 1.5943586e-38 343 298
0.026510399 0.63 -0.064066797 1.5759202e-38 344 298
0.027615 0.63 -0.064066797 1.5943591e-38 345 298
0.028719598 0.63 -0.064066797 1.594287e-38 346 298
0.029824199 0.63 -0.064066797 1.5850674e-38 347 298
0.030928798 0.63 -0.064066797 1.5575882e-38 348 298
0.032033399 0.63 -0.064066797 1.5114904e-38 349 298
0.033190601 0.63099998 -0.06416849 1.4102924e-38 350 298
0.034296948 0.63099998 -0.06416849 1.3457555e-38 351 298
0.035459414 0.63200003 -0.064270191 1.3270661e-38 352 298
0.03656752 0.63200003 -0.064270191 1.2349065e-38 353 298
0.037854467 0.63499999 -0.064575262 1.2073569e-38 354 298
0.038967833 0.63499999 -0.064575262 1.2073569e-38 355 298
0.040144317 0.63599998 -0.064676955 1.1798071e-38 356 298
0.041324314 0.63700002 -0.064778656 1.1890267e-38 357 298
0.042507812 0.63800001 -0.064880349 1.1889914e-38 358 298
0.043763198 0.63999999 -0.065083727 1.1982468e-38 359 298
0.044955466 0.64099997 -0.06518542 1.1889917e-38 360 298
0.046151239 0.64200002 -0.065287121 1.1982112e-38 361 298
0.047350518 0.64300001 -0.065388806 1.1799519e-38 362 298
0.048704095 0.64600003 -0.065693893 1.1799519e-38 363 298
0.049913891 0.64700001 -0.065795586 1.1799889e-38 364 298
0.051127199 0.648 -0.065897278 1.1799889e-38 365 298
0.05226336 0.648 -0.065897278 1.1431492e-38 366 298
0.015488946 0.63099998 -0.065274842 1.71462e-38 334 299
0.0165953 0.63099998 -0.065274842 1.5947657e-38 335 299
0.017701652 0.63099998 -0.065274842 1.5301135e-38 336 299
0.018808005 0.63099998 -0.065274842 1.5393331e-38 337 299
0.019914359 0.63099998 -0.065274842 1.5760994e-38 338 299
0.021020712 0.63099998 -0.065274842 1.5300374e-38 339 299
0.022127066 0.63099998 -0.065274842 1.4840842e-38 340 299
0.023196599 0.63 -0.065171398 1.4840842e-38 341 299
0.024301199 0.63 -0.065171398 1.4749015e-38 342 299
0.025405798 0.63 -0.065171398 1.4841211e-38 343 299
0.026510399 0.63 -0.065171398 1.5024523e-38 344 299
0.027615 0.63 -0.065171398 1.5116719e-38 345 299
0.028719598 0.63 -0.065171398 1.5299671e-38 346 299
0.029824199 0.63 -0.065171398 1.5391867e-38 347 299
0.030928798 0.63 -0.065171398 1.5115271e-38 348 299
0.032033399 0.63 -0.065171398 1.4562456e-38 349 299
0.033137999 0.63 -0.065171398 1.3641586e-38 350 299
0.034296948 0.63099998 -0.065274842 1.2996216e-38 351 299
0.035403304 0.63099998 -0.065274842 1.2442345e-38 352 299
0.03656752 0.63200003 -0.065378293 1.2166118e-38 353 299
0.037794851 0.634 -0.065585189 1.1981384e-38 354 299
0.038967833 0.63499999 -0.065688632 1.1705155e-38 355 299
0.040144317 0.63599998 -0.065792076 1.1247421e-38 356 299
0.041324314 0.63700002 -0.065895528 1.1339617e-38 357 299
0.042507812 0.63800001 -0.065998971 1.1615128e-38 358 299
0.043763198 0.63999999 -0.066205859 1.1615128e-38 359 299
0.04488533 0.63999999 -0.066205859 1.1890633e-38 360 299
0.046151239 0.64200002 -0.066412762 1.1983187e-38 361 299
0.047350518 0.64300001 -0.066516206 1.1800238e-38 362 299
0.048704095 0.64600003 -0.066826545 1.1800238e-38 363 299
0.049991041 0.648 -0.067033432 1.161587e-38 364 299
0.051127199 0.648 -0.067033432 1.1523673e-38 365 299
0.05226336 0.648 -0.067033432 1.1246756e-38 366 299
0.014337006 0.62900001 -0.066170804 1.8345132e-38 333 300
0.015488946 0.63099998 -0.066381201 1.6224951e-38 334 300
0.0165953 0.63099998 -0.066381201 1.5210439e-38 335 300
0.017673599 0.63 -0.066275999 1.474759e-38 336 300
0.018778199 0.63 -0.066275999 1.4563197e-38 337 300
0.0198828 0.63 -0.066275999 1.4196895e-38 338 300
0.020987399 0.63 -0.066275999 1.41047e-38 339 300
0.022092 0.63 -0.066275999 1.4381289e-38 340 300
0.023196599 0.63 -0.066275999 1.4381289e-38 341 300
0.024301199 0.63 -0.066275999 1.4564251e-38 342 300
0.025365472 0.62900001 -0.066170804 1.4656447e-38 343 300
0.02646832 0.62900001 -0.066170804 1.4931959e-38 344 300
0.027571166 0.62900001 -0.066170804 1.4931959e-38 345 300
0.028674012 0.62900001 -0.066170804 1.5299302e-38 346 300
0.029776858 0.62900001 -0.066170804 1.493016e-38 347 300
0.030879704 0.62900001 -0.066170804 1.3917081e-38 348 300
0.032033399 0.63 -0.066275999 1.3179516e-38 349 300
0.033137999 0.63 -0.066275999 1.2075339e-38 350 300
0.0342426 0.63 -0.066275999 1.1799111e-38 351 300
0.035403304 0.63099998 -0.066381201 1.1981371e-38 352 300
0.03656752 0.63200003 -0.066486403 1.1981371e-38 353 300
0.037794851 0.634 -0.0666968 1.1430364e-38 354 300
0.038967833 0.63499999 -0.066801995 1.1338168e-38 355 300
0.040144317 0.63599998 -0.066907197 1.1338534e-38 356 300
0.041259438 0.63599998 -0.066907197 1.1522926e-38 357 300
0.042507812 0.63800001 -0.067117594 1.1615128e-38 358 300
0.043763198 0.63999999 -0.067327991 1.1799519e-38 359 300
0.04488533 0.63999999 -0.067327991 1.1799519e-38 360 300
0.046151239 0.64200002 -0.067538396 1.1799519e-38 361 300
0.047350518 0.64300001 -0.067643598 1.1616574e-38 362 300
0.048704095 0.64600003 -0.067959204 1.1616574e-38 363 300
0.049991041 0.648 -0.068169601 1.1431843e-38 364 300
0.051127199 0.648 -0.068169601 1.1247812e-38 365 300
0.014337006 0.62900001 -0.067273647 1.7976706e-38 333 301
0.015439852 0.62900001 -0.067273647 1.5395539e-38 334 301
0.016542701 0.62900001 -0.067273647 1.4473224e-38 335 301
0.017645547 0.62900001 -0.067273647 1.4195854e-38 336 301
0.018748393 0.62900001 -0.067273647 1.3919627e-38 337 301
0.019851239 0.62900001 -0.067273647 1.3737362e-38 338 301
0.020954086 0.62900001 -0.067273647 1.3552971e-38 339 301
0.022056932 0.62900001 -0.067273647 1.3461494e-38 340 301
0.02315978 0.62900001 -0.067273647 1.3553691e-38 341 301
0.024262626 0.62900001 -0.067273647 1.3645186e-38 342 301
0.025325146 0.62800002 -0.067166694 1.3829936e-38 343 301
0.026426241 0.62800002 -0.067166694 1.382923e-38 344 301
0.027527334 0.62800002 -0.067166694 1.3737034e-38 345 301
0.028628428 0.62800002 -0.067166694 1.3825983e-38 346 301
0.029729521 0.62800002 -0.067166694 1.3457202e-38 347 301
0.030879704 0.62900001 -0.067273647 1.2996216e-38 348 301
0.031982556 0.62900001 -0.067273647 1.2535597e-38 349 301
0.033137999 0.63 -0.0673806 1.189097e-38 350 301
0.0342426 0.63 -0.0673806 1.1706579e-38 351 301
0.035347197 0.63 -0.0673806 1.1337812e-38 352 301
0.036509659 0.63099998 -0.067487545 1.1245616e-38 353 301
0.037675627 0.63200003 -0.067594506 1.1245263e-38 354 301
0.038967833 0.63499999 -0.067915365 1.1245263e-38 355 301
0.040144317 0.63599998 -0.068022311 1.1154872e-38 356 301
0.041259438 0.63599998 -0.068022311 1.1339264e-38 357 301
0.042507812 0.63800001 -0.068236224 1.1431459e-38 358 301
0.043626439 0.63800001 -0.068236224 1.161549e-38 359 301
0.04488533 0.63999999 -0.068450131 1.1891719e-38 360 301
0.046079349 0.64099997 -0.068557084 1.1891719e-38 361 301
0.047350518 0.64300001 -0.06877099 1.1799533e-38 362 301
0.04847791 0.64300001 -0.06877099 1.1799533e-38 363 301
0.014337006 0.62900001 -0.068376496 1.7331334e-38 333 302
0.015439852 0.62900001 -0.068376496 1.4289546e-38 334 302
0.016542701 0.62900001 -0.068376496 1.3551981e-38 335 302
0.017645547 0.62900001 -0.068376496 1.3459368e-38 336 302
0.018718587 0.62800002 -0.068267785 1.3274977e-38 337 302
0.019819681 0.62800002 -0.068267785 1.3183482e-38 338 302
0.020920772 0.62800002 -0.068267785 1.3183482e-38 339 302
0.022021867 0.62800002 -0.068267785 1.2724659e-38 340 302
0.023122961 0.62800002 -0.068267785 1.290869e-38 341 302
0.024224052 0.62800002 -0.068267785 1.3460781e-38 342 302
0.025325146 0.62800002 -0.068267785 1.3460781e-38 343 302
0.026426241 0.62800002 -0.068267785 1.3551894e-38 344 302
0.027527334 0.62800002 -0.068267785 1.2998721e-38 345 302
0.028628428 0.62800002 -0.068267785 1.2535945e-38 346 302
0.029729521 0.62800002 -0.068267785 1.198313e-38 347 302
0.030830612 0.62800002 -0.068267785 1.1339219e-38 348 302
0.031982556 0.62900001 -0.068376496 1.1339219e-38 349 302
0.033085402 0.62900001 -0.068376496 1.115485e-38 350 302
0.0342426 0.63 -0.0684852 1.115485e-38 351 302
0.035347197 0.63 -0.0684852 1.1153424e-38 352 302
0.036509659 0.63099998 -0.068593897 1.1153424e-38 353 302
0.037675627 0.63200003 -0.068702616 1.0969755e-38 354 302
0.038906466 0.634 -0.068920024 1.1061951e-38 355 302
0.040081199 0.63499999 -0.069028728 1.1154865e-38 356 302
0.041259438 0.63599998 -0.069137439 1.1431812e-38 357 302
0.042441189 0.63700002 -0.069246151 1.1707323e-38 358 302
0.043626439 0.63800001 -0.069354847 1.1799519e-38 359 302
0.044745065 0.63800001 -0.069354847 1.1799522e-38 360 302
0.046079349 0.64099997 -0.069680966 1.1891719e-38 361 302
0.047203235 0.64099997 -0.069680966 1.161587e-38 362 302
0.014337006 0.62900001 -0.069479339 1.6593766e-38 333 303
0.015439852 0.62900001 -0.069479339 1.3366867e-38 334 303
0.016542701 0.62900001 -0.069479339 1.2905529e-38 335 303
0.017617494 0.62800002 -0.069368884 1.2905121e-38 336 303
0.018718587 0.62800002 -0.069368884 1.2905121e-38 337 303
0.019788118 0.62699997 -0.069258414 1.2538488e-38 338 303
0.020887459 0.62699997 -0.069258414 1.2538488e-38 339 303
0.021986797 0.62699997 -0.069258414 1.2539197e-38 340 303
0.023086138 0.62699997 -0.069258414 1.2354447e-38 341 303
0.024185479 0.62699997 -0.069258414 1.2353707e-38 342 303
0.025284817 0.62699997 -0.069258414 1.2168957e-38 343 303
0.026384158 0.62699997 -0.069258414 1.1892728e-38 344 303
0.027483499 0.62699997 -0.069258414 1.1708335e-38 345 303
0.028628428 0.62800002 -0.069368884 1.106443e-38 346 303
0.029729521 0.62800002 -0.069368884 1.0972234e-38 347 303
0.030830612 0.62800002 -0.069368884 1.1062657e-38 348 303
0.031982556 0.62900001 -0.069479339 1.1062657e-38 349 303
0.033085402 0.62900001 -0.069479339 1.078644e-38 350 303
0.0342426 0.63 -0.069589794 1.0694245e-38 351 303
0.035347197 0.63 -0.069589794 1.0693892e-38 352 303
0.036509659 0.63099998 -0.069700256 1.0693892e-38 353 303
0.037675627 0.63200003 -0.069810718 1.0970474e-38 354 303
0.038906466 0.634 -0.070031643 1.106267e-38 355 303
0.040081199 0.63499999 -0.070142098 1.1247418e-38 356 303
0.041259438 0.63599998 -0.070252553 1.143181e-38 357 303
0.042374559 0.63599998 -0.070252553 1.1615125e-38 358 303
0.043558061 0.63700002 -0.070363015 1.170732e-38 359 303
0.044674933 0.63700002 -0.070363015 1.1799168e-38 360 303
0.045791805 0.63700002 -0.070363015 1.1891366e-38 361 303
0.014337006 0.62900001 -0.070582189 1.548814e-38 333 304
0.015439852 0.62900001 -0.070582189 1.0879377e-38 334 304
0.016516401 0.62800002 -0.070469975 1.0510595e-38 335 304
0.017617494 0.62800002 -0.070469975 1.1338884e-38 336 304
0.018688779 0.62699997 -0.070357755 1.1523277e-38 337 304
0.019788118 0.62699997 -0.070357755 1.161655e-38 338 304
0.020887459 0.62699997 -0.070357755 1.161655e-38 339 304
0.021986797 0.62699997 -0.070357755 1.170908e-38 340 304
0.023012498 0.625 -0.070133328 1.1432133e-38 341 304
0.024108332 0.625 -0.070133328 1.1247011e-38 342 304
0.025204165 0.625 -0.070133328 1.0877868e-38 343 304
0.026384158 0.62699997 -0.070357755 1.0142478e-38 344 304
0.027483499 0.62699997 -0.070357755 1.0142478e-38 345 304
0.028582839 0.62699997 -0.070357755 9.6840514e-39 346 304
0.029682178 0.62699997 -0.070357755 9.8688028e-39 347 304
0.030830612 0.62800002 -0.070469975 1.0325832e-38 348 304
0.031982556 0.62900001 -0.070582189 1.0418386e-38 349 304
0.033085402 0.62900001 -0.070582189 1.0602049e-38 350 304
0.0342426 0.63 -0.070694394 1.0602049e-38 351 304
0.035347197 0.63 -0.070694394 1.0419102e-38 352 304
0.036509659 0.63099998 -0.070806608 1.0511298e-38 353 304
0.037675627 0.63200003 -0.070918828 1.0787881e-38 354 304
0.038906466 0.634 -0.071143255 1.0972273e-38 355 304
0.040018078 0.634 -0.071143255 1.1247418e-38 356 304
0.041194562 0.63499999 -0.07125546 1.143181e-38 357 304
0.042374559 0.63599998 -0.071367674 1.1615128e-38 358 304
0.043489676 0.63599998 -0.071367674 1.1615128e-38 359 304
0.044604797 0.63599998 -0.071367674 1.1431475e-38 360 304
0.045719914 0.63599998 -0.071367674 1.1431475e-38 361 304
0.012131313 0.62900001 -0.071685031 1.8529889e-38 331 305
0.01323416 0.62900001 -0.071685031 1.6318261e-38 332 305
0.014337006 0.62900001 -0.071685031 1.4105205e-38 333 305
0.015415306 0.62800002 -0.071571067 5.7203876e-39 334 305
0.016516401 0.62800002 -0.071571067 5.2594094e-39 335 305
0.017589439 0.62699997 -0.071457095 7.4656011e-39 336 305
0.018688779 0.62699997 -0.071457095 8.0187749e-39 337 305
0.019724999 0.625 -0.071229167 8.0216658e-39 338 305
0.020820832 0.625 -0.071229167 8.9436221e-39 339 305
0.021916665 0.625 -0.071229167 9.3120165e-39 340 305
0.022975679 0.62400001 -0.071115203 8.7588427e-39 341 305
0.02406976 0.62400001 -0.071115203 8.299284e-39 342 305
0.025163841 0.62400001 -0.071115203 8.2070884e-39 343 305
0.0263 0.625 -0.071229167 7.4735073e-39 344 305
0.027395833 0.625 -0.071229167 8.3032693e-39 345 305
0.028582839 0.62699997 -0.071457095 9.8630603e-39 346 305
0.029682178 0.62699997 -0.071457095 1.0324038e-38 347 305
0.030830612 0.62800002 -0.071571067 1.0141439e-38 348 305
0.031982556 0.62900001 -0.071685031 1.0233635e-38 349 305
0.033085402 0.62900001 -0.071685031 1.04173e-38 350 305
0.0342426 0.63 -0.071799003 1.0509497e-38 351 305
0.035347197 0.63 -0.071799003 1.0419456e-38 352 305
0.036509659 0.63099998 -0.071912967 1.0419456e-38 353 305
0.037616011 0.63099998 -0.071912967 1.0971909e-38 354 305
0.038722362 0.63099998 -0.071912967 1.1064106e-38 355 305
0.039828718 0.63099998 -0.071912967 1.1339617e-38 356 305
0.040999945 0.63200003 -0.072026931 1.1339617e-38 357 305
0.042374559 0.63599998 -0.072482795 1.1522226e-38 358 305
0.043489676 0.63599998 -0.072482795 1.143003e-38 359 305
0.044604797 0.63599998 -0.072482795 1.142862e-38 360 305
0.011028466 0.62900001 -0.072787881 1.8345858e-38 330 306
0.012131313 0.62900001 -0.072787881 1.8714639e-38 331 306
0.01321312 0.62800002 -0.072672158 1.4753099e-38 332 306
0.014314214 0.62800002 -0.072672158 1.1986871e-38 333 306
0.015415306 0.62800002 -0.072672158 3.9701504e-39 334 306
0.016490098 0.62699997 -0.072556436 4.062346e-39 335 306
0.017589439 0.62699997 -0.072556436 6.1749198e-39 336 306
0.018688779 0.62699997 -0.072556436 5.9901698e-39 337 306
0.019724999 0.625 -0.072324999 5.4405959e-39 338 306
0.020820832 0.625 -0.072324999 6.3625522e-39 339 306
0.021846535 0.62300003 -0.072093561 7.6511078e-39 340 306
0.022938859 0.62300003 -0.072093561 7.2819652e-39 341 306
0.024031186 0.62300003 -0.072093561 6.9164225e-39 342 306
0.025163841 0.62400001 -0.072209284 6.9164225e-39 343 306
0.026257919 0.62400001 -0.072209284 6.6430796e-39 344 306
0.027395833 0.625 -0.072324999 7.1044179e-39 345 306
0.028582839 0.62699997 -0.072556436 8.3007904e-39 346 306
0.029682178 0.62699997 -0.072556436 8.7617672e-39 347 306
0.030781519 0.62699997 -0.072556436 9.3145752e-39 348 306
0.031931706 0.62800002 -0.072672158 9.3145752e-39 349 306
0.033085402 0.62900001 -0.072787881 9.6833381e-39 350 306
0.034188248 0.62900001 -0.072787881 9.7755338e-39 351 306
0.035347197 0.63 -0.072903596 9.9609956e-39 352 306
0.036509659 0.63099998 -0.073019318 1.0237581e-38 353 306
0.037616011 0.63099998 -0.073019318 1.0604569e-38 354 306
0.038722362 0.63099998 -0.073019318 1.0696764e-38 355 306
0.039828718 0.63099998 -0.073019318 1.1063047e-38 356 306
0.040935073 0.63099998 -0.073019318 1.0970851e-38 357 306
0.042041425 0.63099998 -0.073019318 1.0786125e-38 358 306
0.011028466 0.62900001 -0.073890723 1.8254382e-38 330 307
0.012131313 0.62900001 -0.073890723 1.8254382e-38 331 307
0.01321312 0.62800002 -0.07377325 1.2726574e-38 332 307
0.014314214 0.62800002 -0.07377325 8.3930197e-39 333 307
0.015415306 0.62800002 -0.07377325 1.9432759e-39 334 307
0.016490098 0.62699997 -0.073655777 3.5106016e-39 335 307
0.017589439 0.62699997 -0.073655777 6.4472103e-39 336 307
0.018629165 0.625 -0.07342083 5.6170909e-39 337 307
0.019661881 0.62300003 -0.073185883 3.9644121e-39 338 307
0.020754207 0.62300003 -0.073185883 4.7019771e-39 339 307
0.021846535 0.62300003 -0.073185883 5.4391666e-39 340 307
0.022938859 0.62300003 -0.073185883 5.8083093e-39 341 307
0.024031186 0.62300003 -0.073185883 6.5447757e-39 342 307
0.025163841 0.62400001 -0.073303364 6.9135582e-39 343 307
0.026257919 0.62400001 -0.073303364 6.3668514e-39 344 307
0.027395833 0.625 -0.07342083 6.9200252e-39 345 307
0.028582839 0.62699997 -0.073655777 8.3904637e-39 346 307
0.029682178 0.62699997 -0.073655777 8.851802e-39 347 307
0.030781519 0.62699997 -0.073655777 9.4964357e-39 348 307
0.031931706 0.62800002 -0.07377325 9.6811871e-39 349 307
0.033085402 0.62900001 -0.073890723 9.5907838e-39 350 307
0.034188248 0.62900001 -0.073890723 9.7755338e-39 351 307
0.035347197 0.63 -0.074008197 1.0327257e-38 352 307
0.036451798 0.63 -0.074008197 1.0419453e-38 353 307
0.037556399 0.63 -0.074008197 1.0694247e-38 354 307
0.038660996 0.63 -0.074008197 1.0786443e-38 355 307
0.0397656 0.63 -0.074008197 1.0969067e-38 356 307
0.040935073 0.63099998 -0.07412567 1.0692841e-38 357 307
0.011028466 0.62900001 -0.074993573 1.8254016e-38 330 308
0.012131313 0.62900001 -0.074993573 1.8254016e-38 331 308
0.01321312 0.62800002 -0.074874349 1.6039837e-38 332 308
0.014314214 0.62800002 -0.074874349 1.069249e-38 333 308
0.015415306 0.62800002 -0.074874349 5.4326646e-39 334 308
0.016490098 0.62699997 -0.074755117 4.7872952e-39 335 308
0.017589439 0.62699997 -0.074755117 4.9731718e-39 336 308
0.018629165 0.625 -0.074516661 5.0653674e-39 337 308
0.019661881 0.62300003 -0.074278213 3.9633555e-39 338 308
0.020754207 0.62300003 -0.074278213 4.332138e-39 339 308
0.021846535 0.62300003 -0.074278213 4.5190306e-39 340 308
0.022938859 0.62300003 -0.074278213 5.0722044e-39 341 308
0.024031186 0.62300003 -0.074278213 5.5338832e-39 342 308
0.025163841 0.62400001 -0.074397437 5.9030244e-39 343 308
0.026257919 0.62400001 -0.074397437 6.3643501e-39 344 308
0.027395833 0.625 -0.074516661 6.9175239e-39 345 308
0.028582839 0.62699997 -0.074755117 7.4724801e-39 346 308
0.029682178 0.62699997 -0.074755117 7.9330995e-39 347 308
0.030830612 0.62800002 -0.074874349 8.4869754e-39 348 308
0.031982556 0.62900001 -0.074993573 8.671368e-39 349 308
0.033085402 0.62900001 -0.074993573 9.3156444e-39 350 308
0.034188248 0.62900001 -0.074993573 9.40784e-39 351 308
0.035291094 0.62900001 -0.074993573 9.7751834e-39 352 308
0.03639394 0.62900001 -0.074993573 9.7751834e-39 353 308
0.037496787 0.62900001 -0.074993573 1.0141109e-38 354 308
0.038599633 0.62900001 -0.074993573 1.0141109e-38 355 308
0.039702479 0.62900001 -0.074993573 1.0048582e-38 356 308
0.012131313 0.62900001 -0.076096416 1.8162189e-38 331 309
0.01321312 0.62800002 -0.07597544 1.8434444e-38 332 309
0.014314214 0.62800002 -0.07597544 1.5668575e-38 333 309
0.015415306 0.62800002 -0.07597544 8.1027716e-39 334 309
0.016490098 0.62699997 -0.07585445 5.3365439e-39 335 309
0.017589439 0.62699997 -0.07585445 3.5945534e-39 336 309
0.018629165 0.625 -0.0756125 4.0555315e-39 337 309
0.019661881 0.62300003 -0.075370543 3.8718661e-39 338 309
0.020754207 0.62300003 -0.075370543 4.0562574e-39 339 309
0.021846535 0.62300003 -0.075370543 4.6105004e-39 340 309
0.022938859 0.62300003 -0.075370543 4.979643e-39 341 309
0.024031186 0.62300003 -0.075370543 5.6257131e-39 342 309
0.025163841 0.62400001 -0.075491518 6.0866898e-39 343 309
0.026257919 0.62400001 -0.075491518 6.8231576e-39 344 309
0.027395833 0.625 -0.0756125 7.5607227e-39 345 309
0.028582839 0.62699997 -0.07585445 7.8398081e-39 346 309
0.029682178 0.62699997 -0.07585445 8.3011464e-39 347 309
0.030879704 0.62900001 -0.076096416 8.3951329e-39 348 309
0.031982556 0.62900001 -0.076096416 8.5795241e-39 349 309
0.033085402 0.62900001 -0.076096416 9.1305441e-39 350 309
0.034188248 0.62900001 -0.076096416 9.2230985e-39 351 309
0.035291094 0.62900001 -0.076096416 9.5890167e-39 352 309
0.03639394 0.62900001 -0.076096416 9.7730479e-39 353 309
0.037496787 0.62900001 -0.076096416 9.863824e-39 354 309
0.038599633 0.62900001 -0.076096416 9.9560196e-39 355 309
0.012131313 0.62900001 -0.077199265 1.8069637e-38 331 310
0.01321312 0.62800002 -0.077076539 1.862064e-38 332 310
0.014314214 0.62800002 -0.077076539 1.6961478e-38 333 310
0.015415306 0.62800002 -0.077076539 9.0265173e-39 334 310
0.016490098 0.62699997 -0.076953799 4.6011271e-39 335 310
