# .PCD v.7 - Point Cloud Data file format
FIELDS x y z rgb imX imY
SIZE 4 4 4 4 4 4
TYPE F F F F F F
COUNT 1 1 1 1 1 1
WIDTH 834
HEIGHT 1
VIEWPOINT 0 0 0 1 0 0 0
POINTS 834
DATA ascii
-0.077053741 0.77100003 -0.032443684 1.6865915e-38 263 264
-0.075701922 0.77100003 -0.032443684 1.6682234e-38 264 264
-0.074350104 0.77100003 -0.032443684 1.6682234e-38 265 264
-0.072998285 0.77100003 -0.032443684 1.6773701e-38 266 264
-0.071646459 0.77100003 -0.032443684 1.6681505e-38 267 264
-0.070294641 0.77100003 -0.032443684 1.6589308e-38 268 264
-0.068942823 0.77100003 -0.032443684 1.6405277e-38 269 264
-0.067591004 0.77100003 -0.032443684 1.6312731e-38 270 264
-0.066239186 0.77100003 -0.032443684 1.6220177e-38 271 264
-0.065055676 0.773 -0.032527838 1.6127618e-38 272 264
-0.063700356 0.773 -0.032527838 1.5942867e-38 273 264
-0.06234502 0.773 -0.032527838 1.5298952e-38 274 264
-0.060989697 0.773 -0.032527838 1.5114202e-38 275 264
-0.059711516 0.77399999 -0.032569919 1.4101182e-38 276 264
-0.058354434 0.77399999 -0.032569919 1.4285932e-38 277 264
-0.056997359 0.77399999 -0.032569919 1.4384666e-38 278 264
-0.099962793 0.78100002 -0.034233831 1.1801378e-38 247 265
-0.098467186 0.77999997 -0.034189999 1.2810815e-38 248 265
-0.097099595 0.77999997 -0.034189999 1.2626425e-38 249 265
-0.095731996 0.77999997 -0.034189999 1.3362503e-38 250 265
-0.094364397 0.77999997 -0.034189999 1.363945e-38 251 265
-0.092758343 0.778 -0.034102332 1.4191525e-38 252 265
-0.091159306 0.77600002 -0.034014668 1.4468112e-38 253 265
-0.089567274 0.77399999 -0.033927001 1.511204e-38 254 265
-0.088096231 0.773 -0.033883166 1.5296431e-38 255 265
-0.086740904 0.773 -0.033883166 1.5389696e-38 256 265
-0.085164659 0.77100003 -0.033795502 1.5758478e-38 257 265
-0.08381284 0.77100003 -0.033795502 1.5759555e-38 258 265
-0.082461022 0.77100003 -0.033795502 1.6128337e-38 259 265
-0.081109203 0.77100003 -0.033795502 1.6036865e-38 260 265
-0.079757385 0.77100003 -0.033795502 1.631345e-38 261 265
-0.078405559 0.77100003 -0.033795502 1.6681155e-38 262 265
-0.077053741 0.77100003 -0.033795502 1.6865546e-38 263 265
-0.075701922 0.77100003 -0.033795502 1.6866265e-38 264 265
-0.074157231 0.76899999 -0.033707831 1.6866265e-38 265 265
-0.072808921 0.76899999 -0.033707831 1.668259e-38 266 265
-0.071460605 0.76899999 -0.033707831 1.649784e-38 267 265
-0.070112288 0.76899999 -0.033707831 1.6680788e-38 268 265
-0.068763971 0.76899999 -0.033707831 1.6588592e-38 269 265
-0.067415662 0.76899999 -0.033707831 1.6312731e-38 270 265
-0.066067353 0.76899999 -0.033707831 1.6312731e-38 271 265
-0.064719036 0.76899999 -0.033707831 1.6127984e-38 272 265
-0.063370727 0.76899999 -0.033707831 1.6035788e-38 273 265
-0.062183715 0.77100003 -0.033795502 1.5484062e-38 274 265
-0.060989697 0.773 -0.033883166 1.5207117e-38 275 265
-0.059634373 0.773 -0.033883166 1.4469945e-38 276 265
-0.058279041 0.773 -0.033883166 1.437775e-38 277 265
-0.056997359 0.77399999 -0.033927001 1.3921868e-38 278 265
-0.098467186 0.77999997 -0.035557598 1.2902656e-38 248 266
-0.097099595 0.77999997 -0.035557598 1.2442037e-38 249 266
-0.095731996 0.77999997 -0.035557598 1.2627832e-38 250 266
-0.094364397 0.77999997 -0.035557598 1.2904417e-38 251 266
-0.092758343 0.778 -0.035466425 1.354762e-38 252 266
-0.091159306 0.77600002 -0.035375252 1.3824207e-38 253 266
-0.089567274 0.77399999 -0.03528408 1.4468129e-38 254 266
-0.088096231 0.773 -0.035238493 1.4745075e-38 255 266
-0.086740904 0.773 -0.035238493 1.483834e-38 256 266
-0.085164659 0.77100003 -0.03514732 1.5114568e-38 257 266
-0.08381284 0.77100003 -0.03514732 1.5208554e-38 258 266
-0.082461022 0.77100003 -0.03514732 1.5576978e-38 259 266
-0.080898799 0.76899999 -0.035056144 1.566953e-38 260 266
-0.079550482 0.76899999 -0.035056144 1.5853921e-38 261 266
-0.078202173 0.76899999 -0.035056144 1.6221629e-38 262 266
-0.076853856 0.76899999 -0.035056144 1.6497855e-38 263 266
-0.07550554 0.76899999 -0.035056144 1.6865918e-38 264 266
-0.074157231 0.76899999 -0.035056144 1.6865918e-38 265 266
-0.072808921 0.76899999 -0.035056144 1.6865546e-38 266 266
-0.071460605 0.76899999 -0.035056144 1.6773351e-38 267 266
-0.070112288 0.76899999 -0.035056144 1.6956653e-38 268 266
-0.068763971 0.76899999 -0.035056144 1.6864456e-38 269 266
-0.067240335 0.76700002 -0.034964975 1.6771186e-38 270 266
-0.065895528 0.76700002 -0.034964975 1.6771186e-38 271 266
-0.06455072 0.76700002 -0.034964975 1.6403842e-38 272 266
-0.063205913 0.76700002 -0.034964975 1.6219811e-38 273 266
-0.061861109 0.76700002 -0.034964975 1.6126888e-38 274 266
-0.060516298 0.76700002 -0.034964975 1.5850303e-38 275 266
-0.059171494 0.76700002 -0.034964975 1.5389713e-38 276 266
-0.057826683 0.76700002 -0.034964975 1.4929093e-38 277 266
-0.056997359 0.77399999 -0.03528408 1.3642387e-38 278 266
-0.098467186 0.77999997 -0.036925197 1.2168336e-38 248 267
-0.097099595 0.77999997 -0.036925197 1.1707718e-38 249 267
-0.095731996 0.77999997 -0.036925197 1.2901898e-38 250 267
-0.094364397 0.77999997 -0.036925197 1.3086289e-38 251 267
-0.092758343 0.778 -0.036830518 1.3638001e-38 252 267
-0.091159306 0.77600002 -0.036735836 1.4098621e-38 253 267
-0.089567274 0.77399999 -0.036641158 1.4467033e-38 254 267
-0.088096231 0.773 -0.036593821 1.4651425e-38 255 267
-0.086740904 0.773 -0.036593821 1.4928725e-38 256 267
-0.085164659 0.77100003 -0.036499143 1.5297147e-38 257 267
-0.083595425 0.76899999 -0.036404461 1.52993e-38 258 267
-0.082247108 0.76899999 -0.036404461 1.5575526e-38 259 267
-0.080898799 0.76899999 -0.036404461 1.5852471e-38 260 267
-0.079550482 0.76899999 -0.036404461 1.6037221e-38 261 267
-0.077998787 0.76700002 -0.036309779 1.6404571e-38 262 267
-0.07665398 0.76700002 -0.036309779 1.6681158e-38 263 267
-0.075309172 0.76700002 -0.036309779 1.6773e-38 264 267
-0.073964365 0.76700002 -0.036309779 1.6865196e-38 265 267
-0.072619557 0.76700002 -0.036309779 1.6682237e-38 266 267
-0.07127475 0.76700002 -0.036309779 1.6682237e-38 267 267
-0.06992995 0.76700002 -0.036309779 1.6681511e-38 268 267
-0.068585135 0.76700002 -0.036309779 1.6588955e-38 269 267
-0.067240335 0.76700002 -0.036309779 1.6588236e-38 270 267
-0.065895528 0.76700002 -0.036309779 1.6496041e-38 271 267
-0.06455072 0.76700002 -0.036309779 1.6220899e-38 272 267
-0.063205913 0.76700002 -0.036309779 1.6036867e-38 273 267
-0.061861109 0.76700002 -0.036309779 1.585212e-38 274 267
-0.060516298 0.76700002 -0.036309779 1.5759925e-38 275 267
-0.059171494 0.76700002 -0.036309779 1.5208201e-38 276 267
-0.057826683 0.76700002 -0.036309779 1.4931256e-38 277 267
-0.056481879 0.76700002 -0.036309779 1.4193381e-38 278 267
-0.055137072 0.76700002 -0.036309779 1.4377773e-38 279 267
-0.098467186 0.77999997 -0.038292799 1.2169062e-38 248 268
-0.097099595 0.77999997 -0.038292799 1.1708084e-38 249 268
-0.095486529 0.778 -0.038194612 1.2442018e-38 250 268
-0.094122432 0.778 -0.038194612 1.2442018e-38 251 268
-0.092519894 0.77600002 -0.038096428 1.2810781e-38 252 268
-0.091159306 0.77600002 -0.038096428 1.3271759e-38 253 268
-0.089567274 0.77399999 -0.037998237 1.3914958e-38 254 268
-0.088096231 0.773 -0.037949149 1.4283739e-38 255 268
-0.086740904 0.773 -0.037949149 1.4468485e-38 256 268
-0.085164659 0.77100003 -0.037850961 1.4745072e-38 257 268
-0.083595425 0.76899999 -0.03775277 1.4838696e-38 258 268
-0.082247108 0.76899999 -0.03775277 1.5299315e-38 259 268
-0.080688395 0.76700002 -0.037654586 1.5392583e-38 260 268
-0.079343595 0.76700002 -0.037654586 1.5576975e-38 261 268
-0.077998787 0.76700002 -0.037654586 1.5944684e-38 262 268
-0.07665398 0.76700002 -0.037654586 1.6129076e-38 263 268
-0.075309172 0.76700002 -0.037654586 1.6313471e-38 264 268
-0.073964365 0.76700002 -0.037654586 1.6497861e-38 265 268
-0.072619557 0.76700002 -0.037654586 1.6681886e-38 266 268
-0.07127475 0.76700002 -0.037654586 1.6589691e-38 267 268
-0.06992995 0.76700002 -0.037654586 1.6681158e-38 268 268
-0.068585135 0.76700002 -0.037654586 1.6588961e-38 269 268
-0.067240335 0.76700002 -0.037654586 1.6588236e-38 270 268
-0.065895528 0.76700002 -0.037654586 1.6496041e-38 271 268
-0.064466551 0.76599997 -0.037605491 1.6312731e-38 272 268
-0.063123502 0.76599997 -0.037605491 1.6220177e-38 273 268
-0.061861109 0.76700002 -0.037654586 1.6219814e-38 274 268
-0.060516298 0.76700002 -0.037654586 1.6127618e-38 275 268
-0.059171494 0.76700002 -0.037654586 1.5942867e-38 276 268
-0.057826683 0.76700002 -0.037654586 1.5758476e-38 277 268
-0.056481879 0.76700002 -0.037654586 1.446958e-38 278 268
-0.055137072 0.76700002 -0.037654586 1.4377384e-38 279 268
-0.097099595 0.77999997 -0.039660398 1.1799929e-38 249 269
-0.095486529 0.778 -0.039558705 1.2349826e-38 250 269
-0.094122432 0.778 -0.039558705 1.225727e-38 251 269
-0.092281438 0.77399999 -0.039355319 1.2901179e-38 252 269
-0.090924352 0.77399999 -0.039355319 1.326996e-38 253 269
-0.089451559 0.773 -0.039304473 1.3913156e-38 254 269
-0.088096231 0.773 -0.039304473 1.4190103e-38 255 269
-0.086516477 0.77100003 -0.03920278 1.4375917e-38 256 269
-0.085164659 0.77100003 -0.03920278 1.4744699e-38 257 269
-0.083595425 0.76899999 -0.039101087 1.4746129e-38 258 269
-0.082247108 0.76899999 -0.039101087 1.5114552e-38 259 269
-0.080688395 0.76700002 -0.038999394 1.5300374e-38 260 269
-0.079343595 0.76700002 -0.038999394 1.539257e-38 261 269
-0.077998787 0.76700002 -0.038999394 1.585212e-38 262 269
-0.07665398 0.76700002 -0.038999394 1.603687e-38 263 269
-0.075309172 0.76700002 -0.038999394 1.6220195e-38 264 269
-0.073964365 0.76700002 -0.038999394 1.6497142e-38 265 269
-0.072619557 0.76700002 -0.038999394 1.6496786e-38 266 269
-0.07127475 0.76700002 -0.038999394 1.6588982e-38 267 269
-0.06992995 0.76700002 -0.038999394 1.6680452e-38 268 269
-0.068495713 0.76599997 -0.038948543 1.6588256e-38 269 269
-0.067152664 0.76599997 -0.038948543 1.6312741e-38 270 269
-0.065895528 0.76700002 -0.038999394 1.6312741e-38 271 269
-0.064466551 0.76599997 -0.038948543 1.6312378e-38 272 269
-0.063123502 0.76599997 -0.038948543 1.6312378e-38 273 269
-0.061861109 0.76700002 -0.038999394 1.6127984e-38 274 269
-0.060516298 0.76700002 -0.038999394 1.6127984e-38 275 269
-0.059171494 0.76700002 -0.038999394 1.5852473e-38 276 269
-0.057751291 0.76599997 -0.038948543 1.5575526e-38 277 269
-0.056408234 0.76599997 -0.038948543 1.5207122e-38 278 269
-0.055137072 0.76700002 -0.038999394 1.4653948e-38 279 269
-0.053792264 0.76700002 -0.038999394 1.3366514e-38 280 269
-0.095486529 0.778 -0.040922798 1.2074327e-38 250 270
-0.093880482 0.77600002 -0.0408176 1.1889935e-38 251 270
-0.092281438 0.77399999 -0.040712398 1.2257973e-38 252 270
-0.090924352 0.77399999 -0.040712398 1.2442725e-38 253 270
-0.089451559 0.773 -0.0406598 1.3545097e-38 254 270
-0.088096231 0.773 -0.0406598 1.3822044e-38 255 270
-0.086516477 0.77100003 -0.040554602 1.3915659e-38 256 270
-0.085164659 0.77100003 -0.040554602 1.428444e-38 257 270
-0.083595425 0.76899999 -0.0404494 1.4561735e-38 258 270
-0.08203321 0.76700002 -0.040344197 1.465393e-38 259 270
-0.080688395 0.76700002 -0.040344197 1.511526e-38 260 270
-0.079343595 0.76700002 -0.040344197 1.5207457e-38 261 270
-0.077998787 0.76700002 -0.040344197 1.5575532e-38 262 270
-0.07665398 0.76700002 -0.040344197 1.5759925e-38 263 270
-0.075309172 0.76700002 -0.040344197 1.5851417e-38 264 270
-0.073964365 0.76700002 -0.040344197 1.6220198e-38 265 270
-0.072524875 0.76599997 -0.040291596 1.640387e-38 266 270
-0.071181826 0.76599997 -0.040291596 1.6587903e-38 267 270
-0.069838762 0.76599997 -0.040291596 1.6588259e-38 268 270
-0.068495713 0.76599997 -0.040291596 1.6403867e-38 269 270
-0.067152664 0.76599997 -0.040291596 1.6404223e-38 270 270
-0.065809615 0.76599997 -0.040291596 1.6404223e-38 271 270
-0.064466551 0.76599997 -0.040291596 1.6036514e-38 272 270
-0.063123502 0.76599997 -0.040291596 1.6036514e-38 273 270
-0.061780453 0.76599997 -0.040291596 1.6127984e-38 274 270
-0.060437392 0.76599997 -0.040291596 1.6127984e-38 275 270
-0.059094343 0.76599997 -0.040291596 1.6036142e-38 276 270
-0.057751291 0.76599997 -0.040291596 1.5759555e-38 277 270
-0.056408234 0.76599997 -0.040291596 1.557481e-38 278 270
-0.055065181 0.76599997 -0.040291596 1.5298223e-38 279 270
-0.053722132 0.76599997 -0.040291596 1.3917867e-38 280 270
-0.052379075 0.76599997 -0.040291596 1.4378845e-38 281 270
-0.095486529 0.778 -0.042286891 1.1707716e-38 250 271
-0.093638517 0.77399999 -0.042069476 1.1431127e-38 251 271
-0.092162207 0.773 -0.042015124 1.2073585e-38 252 271
-0.090806887 0.773 -0.042015124 1.2073585e-38 253 271
-0.089451559 0.773 -0.042015124 1.2901885e-38 254 271
-0.088096231 0.773 -0.042015124 1.3454699e-38 255 271
-0.086516477 0.77100003 -0.04190642 1.3547957e-38 256 271
-0.084943734 0.76899999 -0.041797712 1.3916381e-38 257 271
-0.083595425 0.76899999 -0.041797712 1.4101481e-38 258 271
-0.08203321 0.76700002 -0.041689005 1.4469905e-38 259 271
-0.080688395 0.76700002 -0.041689005 1.4654652e-38 260 271
-0.079240143 0.76599997 -0.041634649 1.4839043e-38 261 271
-0.077897087 0.76599997 -0.041634649 1.5114921e-38 262 271
-0.076554038 0.76599997 -0.041634649 1.5299671e-38 263 271
-0.075210981 0.76599997 -0.041634649 1.5666671e-38 264 271
-0.073867925 0.76599997 -0.041634649 1.5851064e-38 265 271
-0.072524875 0.76599997 -0.041634649 1.5943265e-38 266 271
-0.071181826 0.76599997 -0.041634649 1.6219492e-38 267 271
-0.069838762 0.76599997 -0.041634649 1.6311677e-38 268 271
-0.068495713 0.76599997 -0.041634649 1.6311677e-38 269 271
-0.067152664 0.76599997 -0.041634649 1.6219479e-38 270 271
-0.065809615 0.76599997 -0.041634649 1.6219479e-38 271 271
-0.064466551 0.76599997 -0.041634649 1.5852492e-38 272 271
-0.063123502 0.76599997 -0.041634649 1.5852492e-38 273 271
-0.061780453 0.76599997 -0.041634649 1.585177e-38 274 271
-0.060437392 0.76599997 -0.041634649 1.585177e-38 275 271
-0.059094343 0.76599997 -0.041634649 1.5759925e-38 276 271
-0.057751291 0.76599997 -0.041634649 1.5667728e-38 277 271
-0.056408234 0.76599997 -0.041634649 1.5575879e-38 278 271
-0.055065181 0.76599997 -0.041634649 1.5207457e-38 279 271
-0.053722132 0.76599997 -0.041634649 1.4746866e-38 280 271
-0.052379075 0.76599997 -0.041634649 1.447028e-38 281 271
-0.095486529 0.778 -0.043650985 1.161733e-38 250 272
-0.093638517 0.77399999 -0.043426558 1.1156712e-38 251 272
-0.091923758 0.77100003 -0.043258239 1.1798089e-38 252 272
-0.09057194 0.77100003 -0.043258239 1.1429308e-38 253 272
-0.089451559 0.773 -0.043370452 1.234943e-38 254 272
-0.088096231 0.773 -0.043370452 1.281005e-38 255 272
-0.086516477 0.77100003 -0.043258239 1.3821301e-38 256 272
-0.084943734 0.76899999 -0.043146025 1.4189723e-38 257 272
-0.083595425 0.76899999 -0.043146025 1.4191873e-38 258 272
-0.08203321 0.76700002 -0.043033812 1.4376623e-38 259 272
-0.080688395 0.76700002 -0.043033812 1.4562088e-38 260 272
-0.079240143 0.76599997 -0.042977702 1.4746479e-38 261 272
-0.077897087 0.76599997 -0.042977702 1.5113832e-38 262 272
-0.076554038 0.76599997 -0.042977702 1.5298223e-38 263 272
-0.075210981 0.76599997 -0.042977702 1.5481545e-38 264 272
-0.073867925 0.76599997 -0.042977702 1.5573741e-38 265 272
-0.072524875 0.76599997 -0.042977702 1.5391511e-38 266 272
-0.071181826 0.76599997 -0.042977702 1.5760293e-38 267 272
-0.069838762 0.76599997 -0.042977702 1.6402423e-38 268 272
-0.068316877 0.764 -0.042865492 1.6494618e-38 269 272
-0.06697733 0.764 -0.042865492 1.6127278e-38 270 272
-0.065809615 0.76599997 -0.042977702 1.6035082e-38 271 272
-0.064466551 0.76599997 -0.042977702 1.5942889e-38 272 272
-0.063123502 0.76599997 -0.042977702 1.5942889e-38 273 272
-0.061780453 0.76599997 -0.042977702 1.5942166e-38 274 272
-0.060437392 0.76599997 -0.042977702 1.5942166e-38 275 272
-0.059094343 0.76599997 -0.042977702 1.5759204e-38 276 272
-0.057751291 0.76599997 -0.042977702 1.5667009e-38 277 272
-0.056408234 0.76599997 -0.042977702 1.5575879e-38 278 272
-0.055065181 0.76599997 -0.042977702 1.5299653e-38 279 272
-0.053722132 0.76599997 -0.042977702 1.4748296e-38 280 272
-0.052379075 0.76599997 -0.042977702 1.4471349e-38 281 272
-0.093033619 0.76899999 -0.044494338 1.1524772e-38 251 273
-0.091685303 0.76899999 -0.044494338 1.1798084e-38 252 273
-0.09057194 0.77100003 -0.044610061 1.1521857e-38 253 273
-0.089451559 0.773 -0.044725779 1.1705158e-38 254 273
-0.088096231 0.773 -0.044725779 1.2073582e-38 255 273
-0.086516477 0.77100003 -0.044610061 1.2994447e-38 256 273
-0.084943734 0.76899999 -0.044494338 1.3455425e-38 257 273
-0.083595425 0.76899999 -0.044494338 1.3548321e-38 258 273
-0.08203321 0.76700002 -0.04437862 1.3825267e-38 259 273
-0.080583192 0.76599997 -0.044320758 1.4101491e-38 260 273
-0.079240143 0.76599997 -0.044320758 1.4193688e-38 261 273
-0.077897087 0.76599997 -0.044320758 1.4652874e-38 262 273
-0.076554038 0.76599997 -0.044320758 1.4929459e-38 263 273
-0.075210981 0.76599997 -0.044320758 1.5022008e-38 264 273
-0.073867925 0.76599997 -0.044320758 1.5114205e-38 265 273
-0.072335519 0.764 -0.04420504 1.5299318e-38 266 273
-0.070995972 0.764 -0.04420504 1.5483709e-38 267 273
-0.069656424 0.764 -0.04420504 1.585142e-38 268 273
-0.068316877 0.764 -0.04420504 1.5943615e-38 269 273
-0.066802002 0.76200002 -0.044089317 1.5943612e-38 270 273
-0.065465957 0.76200002 -0.044089317 1.5759221e-38 271 273
-0.064298242 0.764 -0.04420504 1.5667024e-38 272 273
-0.062958695 0.764 -0.04420504 1.5298243e-38 273 273
-0.061619148 0.764 -0.04420504 1.5481908e-38 274 273
-0.0602796 0.764 -0.04420504 1.5481908e-38 275 273
-0.058940053 0.764 -0.04420504 1.5298596e-38 276 273
-0.057600506 0.764 -0.04420504 1.5390792e-38 277 273
-0.056408234 0.76599997 -0.044320758 1.5299665e-38 278 273
-0.054921411 0.764 -0.04420504 1.5299665e-38 279 273
-0.053581864 0.764 -0.04420504 1.5390416e-38 280 273
-0.052242316 0.764 -0.04420504 1.5114188e-38 281 273
-0.051036026 0.76599997 -0.044320758 1.3917129e-38 282 273
-0.092791654 0.76700002 -0.045723427 1.1616983e-38 251 274
-0.091446854 0.76700002 -0.045723427 1.161587e-38 252 274
-0.090806887 0.773 -0.046081103 1.0970501e-38 253 274
-0.089451559 0.773 -0.046081103 1.1610806e-38 254 274
-0.088096231 0.773 -0.046081103 1.1795556e-38 255 274
-0.086292051 0.76899999 -0.045842651 1.2166484e-38 256 274
-0.084943734 0.76899999 -0.045842651 1.2811853e-38 257 274
-0.083595425 0.76899999 -0.045842651 1.3547601e-38 258 274
-0.08203321 0.76700002 -0.045723427 1.3639798e-38 259 274
-0.080583192 0.76599997 -0.045663811 1.4008564e-38 260 274
-0.079240143 0.76599997 -0.045663811 1.4100759e-38 261 274
-0.077897087 0.76599997 -0.045663811 1.4651778e-38 262 274
-0.076554038 0.76599997 -0.045663811 1.4836529e-38 263 274
-0.075014614 0.764 -0.045544583 1.4928369e-38 264 274
-0.073675066 0.764 -0.045544583 1.5204954e-38 265 274
-0.072146162 0.76200002 -0.045425359 1.5479746e-38 266 274
-0.070810117 0.76200002 -0.045425359 1.5940366e-38 267 274
-0.069474079 0.76200002 -0.045425359 1.5849968e-38 268 274
-0.068138041 0.76200002 -0.045425359 1.6126915e-38 269 274
-0.066802002 0.76200002 -0.045425359 1.5759574e-38 270 274
-0.065465957 0.76200002 -0.045425359 1.5575182e-38 271 274
-0.064298242 0.764 -0.045544583 1.547904e-38 272 274
-0.062958695 0.764 -0.045544583 1.5202453e-38 273 274
-0.061619148 0.764 -0.045544583 1.5109185e-38 274 274
-0.0602796 0.764 -0.045544583 1.5293577e-38 275 274
-0.058940053 0.764 -0.045544583 1.4927665e-38 276 274
-0.057600506 0.764 -0.045544583 1.5296447e-38 277 274
-0.056260962 0.764 -0.045544583 1.5481543e-38 278 274
-0.054921411 0.764 -0.045544583 1.5758128e-38 279 274
-0.053581864 0.764 -0.045544583 1.5300021e-38 280 274
-0.052105557 0.76200002 -0.045425359 1.4839043e-38 281 274
-0.050769519 0.76200002 -0.045425359 1.4652876e-38 282 274
-0.091089167 0.764 -0.046884131 1.1799536e-38 252 275
-0.089749627 0.764 -0.046884131 1.1338557e-38 253 275
-0.089451559 0.773 -0.047436431 1.12449e-38 254 275
-0.087868303 0.77100003 -0.047313701 1.1060509e-38 255 275
-0.086292051 0.76899999 -0.047190964 1.1337449e-38 256 275
-0.084943734 0.76899999 -0.047190964 1.1982818e-38 257 275
-0.083595425 0.76899999 -0.047190964 1.2994797e-38 258 275
-0.08203321 0.76700002 -0.047068235 1.3179188e-38 259 275
-0.080688395 0.76700002 -0.047068235 1.3547957e-38 260 275
-0.079240143 0.76599997 -0.047006864 1.3824185e-38 261 275
-0.077897087 0.76599997 -0.047006864 1.4007857e-38 262 275
-0.076154284 0.76200002 -0.046761397 1.4284443e-38 263 275
-0.074818239 0.76200002 -0.046761397 1.4652151e-38 264 275
-0.073482201 0.76200002 -0.046761397 1.4744346e-38 265 275
-0.072146162 0.76200002 -0.046761397 1.4928384e-38 266 275
-0.070810117 0.76200002 -0.046761397 1.5297167e-38 267 275
-0.069474079 0.76200002 -0.046761397 1.5390441e-38 268 275
-0.068048611 0.76099998 -0.046700031 1.5667027e-38 269 275
-0.066714332 0.76099998 -0.046700031 1.5758498e-38 270 275
-0.065465957 0.76200002 -0.046761397 1.5481911e-38 271 275
-0.064129919 0.76200002 -0.046761397 1.5571236e-38 272 275
-0.062793881 0.76200002 -0.046761397 1.4925866e-38 273 275
-0.061457843 0.76200002 -0.046761397 1.4464908e-38 274 275
-0.060121801 0.76200002 -0.046761397 1.4557103e-38 275 275
-0.058785759 0.76200002 -0.046761397 1.4283033e-38 276 275
-0.057600506 0.764 -0.046884131 1.455998e-38 277 275
-0.056260962 0.764 -0.046884131 1.4837992e-38 278 275
-0.054777641 0.76200002 -0.046761397 1.5206416e-38 279 275
-0.053441599 0.76200002 -0.046761397 1.5391145e-38 280 275
-0.052105557 0.76200002 -0.046761397 1.5206754e-38 281 275
-0.050702889 0.76099998 -0.046700031 1.5113838e-38 282 275
-0.049368605 0.76099998 -0.046700031 1.4744696e-38 283 275
-0.089749627 0.764 -0.048223678 1.1431141e-38 253 276
-0.089220122 0.77100003 -0.04866552 1.1336761e-38 254 276
-0.087868303 0.77100003 -0.04866552 1.0783589e-38 255 276
-0.086292051 0.76899999 -0.048539277 1.0782493e-38 256 276
-0.084722824 0.76700002 -0.048413042 1.1520058e-38 257 276
-0.083378009 0.76700002 -0.048413042 1.2166481e-38 258 276
-0.08203321 0.76700002 -0.048413042 1.2443428e-38 259 276
-0.080688395 0.76700002 -0.048413042 1.3638352e-38 260 276
-0.079240143 0.76599997 -0.048349917 1.3730547e-38 261 276
-0.077897087 0.76599997 -0.048349917 1.4099324e-38 262 276
-0.076154284 0.76200002 -0.048097439 1.4284074e-38 263 276
-0.074818239 0.76200002 -0.048097439 1.4283721e-38 264 276
-0.073482201 0.76200002 -0.048097439 1.4283721e-38 265 276
-0.072146162 0.76200002 -0.048097439 1.4743271e-38 266 276
-0.070810117 0.76200002 -0.048097439 1.5204248e-38 267 276
-0.069474079 0.76200002 -0.048097439 1.5389365e-38 268 276
-0.068048611 0.76099998 -0.048034318 1.5665952e-38 269 276
-0.066714332 0.76099998 -0.048034318 1.5574826e-38 270 276
-0.065465957 0.76200002 -0.048097439 1.5390795e-38 271 276
-0.064045757 0.76099998 -0.048034318 1.584817e-38 272 276
-0.06271147 0.76099998 -0.048034318 1.5018769e-38 273 276
-0.061377186 0.76099998 -0.048034318 1.4189376e-38 274 276
-0.060042895 0.76099998 -0.048034318 1.4281573e-38 275 276
-0.058708608 0.76099998 -0.048034318 1.4373062e-38 276 276
-0.057449725 0.76200002 -0.048097439 1.4373062e-38 277 276
-0.056113683 0.76200002 -0.048097439 1.4468854e-38 278 276
-0.05470575 0.76099998 -0.048034318 1.5206419e-38 279 276
-0.053371463 0.76099998 -0.048034318 1.5390792e-38 280 276
-0.052037176 0.76099998 -0.048034318 1.52064e-38 281 276
-0.050702889 0.76099998 -0.048034318 1.5113835e-38 282 276
-0.049368605 0.76099998 -0.048034318 1.4929444e-38 283 276
-0.086067624 0.76700002 -0.049757849 1.0504833e-38 256 277
-0.084722824 0.76700002 -0.049757849 1.0504833e-38 257 277
-0.083378009 0.76700002 -0.049757849 1.0877913e-38 258 277
-0.08203321 0.76700002 -0.049757849 1.1707674e-38 259 277
-0.080583192 0.76599997 -0.04969297 1.2902231e-38 260 277
-0.079240143 0.76599997 -0.04969297 1.317846e-38 261 277
-0.077897087 0.76599997 -0.04969297 1.37309e-38 262 277
-0.076154284 0.76200002 -0.049433477 1.4007129e-38 263 277
-0.074818239 0.76200002 -0.049433477 1.4006055e-38 264 277
-0.073482201 0.76200002 -0.049433477 1.4006055e-38 265 277
-0.072146162 0.76200002 -0.049433477 1.4558163e-38 266 277
-0.070810117 0.76200002 -0.049433477 1.5111336e-38 267 277
-0.069474079 0.76200002 -0.049433477 1.5021302e-38 268 277
-0.068048611 0.76099998 -0.049368605 1.5205694e-38 269 277
-0.066714332 0.76099998 -0.049368605 1.5298596e-38 270 277
-0.065380037 0.76099998 -0.049368605 1.5298596e-38 271 277
-0.064045757 0.76099998 -0.049368605 1.5573738e-38 272 277
-0.06271147 0.76099998 -0.049368605 1.4928369e-38 273 277
-0.061377186 0.76099998 -0.049368605 1.4373397e-38 274 277
-0.060042895 0.76099998 -0.049368605 1.3912418e-38 275 277
-0.058708608 0.76099998 -0.049368605 1.4096105e-38 276 277
-0.057374325 0.76099998 -0.049368605 1.4096105e-38 277 277
-0.056040037 0.76099998 -0.049368605 1.4006804e-38 278 277
-0.05470575 0.76099998 -0.049368605 1.4559977e-38 279 277
-0.053371463 0.76099998 -0.049368605 1.4930184e-38 280 277
-0.052037176 0.76099998 -0.049368605 1.4930184e-38 281 277
-0.050702889 0.76099998 -0.049368605 1.529715e-38 282 277
-0.049368605 0.76099998 -0.049368605 1.5112759e-38 283 277
-0.048034318 0.76099998 -0.049368605 1.4284087e-38 284 277
-0.046700031 0.76099998 -0.049368605 1.400786e-38 285 277
-0.086067624 0.76700002 -0.051102653 1.0964739e-38 256 278
-0.084722824 0.76700002 -0.051102653 1.0503761e-38 257 278
-0.083378009 0.76700002 -0.051102653 9.9545272e-39 258 278
-0.08203321 0.76700002 -0.051102653 1.1245266e-38 259 278
-0.080583192 0.76599997 -0.051036026 1.2534175e-38 260 278
-0.079240143 0.76599997 -0.051036026 1.2810403e-38 261 278
-0.077897087 0.76599997 -0.051036026 1.3271364e-38 262 278
-0.076154284 0.76200002 -0.050769519 1.336356e-38 263 278
-0.074818239 0.76200002 -0.050769519 1.3913509e-38 264 278
-0.073482201 0.76200002 -0.050769519 1.4097902e-38 265 278
-0.072051473 0.76099998 -0.050702889 1.4099352e-38 266 278
-0.070717193 0.76099998 -0.050702889 1.456033e-38 267 278
-0.069382899 0.76099998 -0.050702889 1.4745441e-38 268 278
-0.068048611 0.76099998 -0.050702889 1.4929833e-38 269 278
-0.066714332 0.76099998 -0.050702889 1.520605e-38 270 278
-0.065380037 0.76099998 -0.050702889 1.5298246e-38 271 278
-0.064045757 0.76099998 -0.050702889 1.5573388e-38 272 278
-0.062546656 0.759 -0.050569639 1.5573388e-38 273 278
-0.061215881 0.759 -0.050569639 1.5295337e-38 274 278
-0.060042895 0.76099998 -0.050702889 1.4004598e-38 275 278
-0.058708608 0.76099998 -0.050702889 1.4095364e-38 276 278
-0.057374325 0.76099998 -0.050702889 1.4371951e-38 277 278
-0.056040037 0.76099998 -0.050702889 1.3821691e-38 278 278
-0.05470575 0.76099998 -0.050702889 1.3821691e-38 279 278
-0.053371463 0.76099998 -0.050702889 1.4468498e-38 280 278
-0.052037176 0.76099998 -0.050702889 1.4652889e-38 281 278
-0.050702889 0.76099998 -0.050702889 1.5020939e-38 282 278
-0.049368605 0.76099998 -0.050702889 1.4836189e-38 283 278
-0.048034318 0.76099998 -0.050702889 1.4743271e-38 284 278
-0.046700031 0.76099998 -0.050702889 1.4558879e-38 285 278
-0.084722824 0.76700002 -0.052447457 1.0689241e-38 257 279
-0.083378009 0.76700002 -0.052447457 9.4942721e-39 258 279
-0.08203321 0.76700002 -0.052447457 1.0324033e-38 259 279
-0.080688395 0.76700002 -0.052447457 1.2073567e-38 260 279
-0.079240143 0.76599997 -0.052379075 1.2811132e-38 261 279
-0.077897087 0.76599997 -0.052379075 1.3178447e-38 262 279
-0.076154284 0.76200002 -0.052105557 1.3270643e-38 263 279
-0.074818239 0.76200002 -0.052105557 1.3546141e-38 264 279
-0.073482201 0.76200002 -0.052105557 1.4006759e-38 265 279
-0.072051473 0.76099998 -0.052037176 1.4099327e-38 266 279
-0.070717193 0.76099998 -0.052037176 1.4468468e-38 267 279
-0.069382899 0.76099998 -0.052037176 1.4928372e-38 268 279
-0.068048611 0.76099998 -0.052037176 1.5112403e-38 269 279
-0.066714332 0.76099998 -0.052037176 1.5113838e-38 270 279
-0.065380037 0.76099998 -0.052037176 1.5390066e-38 271 279
-0.064045757 0.76099998 -0.052037176 1.5757772e-38 272 279
-0.062546656 0.759 -0.051900417 1.5757772e-38 273 279
-0.061215881 0.759 -0.051900417 1.6032551e-38 274 279
-0.059885096 0.759 -0.051900417 1.5202432e-38 275 279
-0.058554318 0.759 -0.051900417 1.4464512e-38 276 279
-0.05722354 0.759 -0.051900417 1.4003894e-38 277 279
-0.056040037 0.76099998 -0.052037176 1.3728412e-38 278 279
-0.05470575 0.76099998 -0.052037176 1.3544381e-38 279 279
-0.053231198 0.759 -0.051900417 1.4006075e-38 280 279
-0.051900417 0.759 -0.051900417 1.4651444e-38 281 279
-0.050702889 0.76099998 -0.052037176 1.492874e-38 282 279
-0.049368605 0.76099998 -0.052037176 1.4836545e-38 283 279
-0.048034318 0.76099998 -0.052037176 1.4561034e-38 284 279
-0.046700031 0.76099998 -0.052037176 1.4284087e-38 285 279
-0.045365743 0.76099998 -0.052037176 1.4007873e-38 286 279
-0.044031456 0.76099998 -0.052037176 1.3915677e-38 287 279
-0.083378009 0.76700002 -0.053792264 1.0964739e-38 258 280
-0.081926249 0.76599997 -0.053722132 1.0872184e-38 259 280
-0.080583192 0.76599997 -0.053722132 1.0876844e-38 260 280
-0.079240143 0.76599997 -0.053722132 1.1890635e-38 261 280
-0.077693708 0.764 -0.053581864 1.2626373e-38 262 280
-0.076354161 0.764 -0.053581864 1.2902601e-38 263 280
-0.074818239 0.76200002 -0.053441599 1.3362488e-38 264 280
-0.07338576 0.76099998 -0.053371463 1.3639073e-38 265 280
-0.072051473 0.76099998 -0.053371463 1.382276e-38 266 280
-0.070717193 0.76099998 -0.053371463 1.4099705e-38 267 280
-0.069382899 0.76099998 -0.053371463 1.4468129e-38 268 280
-0.068048611 0.76099998 -0.053371463 1.4652879e-38 269 280
-0.066714332 0.76099998 -0.053371463 1.4929456e-38 270 280
-0.065380037 0.76099998 -0.053371463 1.5113849e-38 271 280
-0.063877434 0.759 -0.053231198 1.5115277e-38 272 280
-0.062546656 0.759 -0.053231198 1.5207472e-38 273 280
-0.061215881 0.759 -0.053231198 1.6125832e-38 274 280
-0.059885096 0.759 -0.053231198 1.5849605e-38 275 280
-0.058554318 0.759 -0.053231198 1.5480112e-38 276 280
-0.05722354 0.759 -0.053231198 1.4650711e-38 277 280
-0.055892758 0.759 -0.053231198 1.4098255e-38 278 280
-0.054561976 0.759 -0.053231198 1.3545081e-38 279 280
-0.053231198 0.759 -0.053231198 1.43734e-38 280 280
-0.051900417 0.759 -0.053231198 1.4557431e-38 281 280
-0.050569639 0.759 -0.053231198 1.4652148e-38 282 280
-0.049238857 0.759 -0.053231198 1.4836539e-38 283 280
-0.048034318 0.76099998 -0.053371463 1.5020195e-38 284 280
-0.046700031 0.76099998 -0.053371463 1.492764e-38 285 280
-0.045365743 0.76099998 -0.053371463 1.4283018e-38 286 280
-0.044031456 0.76099998 -0.053371463 1.4375213e-38 287 280
-0.042697169 0.76099998 -0.053371463 1.3365082e-38 288 280
-0.083378009 0.76700002 -0.055137072 1.1150199e-38 258 281
-0.081926249 0.76599997 -0.055065181 1.0597027e-38 259 281
-0.080583192 0.76599997 -0.055065181 9.771931e-39 260 281
-0.079240143 0.76599997 -0.055065181 1.0970474e-38 261 281
-0.077693708 0.764 -0.054921411 1.2074288e-38 262 281
-0.076354161 0.764 -0.054921411 1.2350875e-38 263 281
-0.074818239 0.76200002 -0.054777641 1.3360689e-38 264 281
-0.07338576 0.76099998 -0.05470575 1.3545081e-38 265 281
-0.072051473 0.76099998 -0.05470575 1.3913141e-38 266 281
-0.070717193 0.76099998 -0.05470575 1.4281923e-38 267 281
-0.069382899 0.76099998 -0.05470575 1.4466668e-38 268 281
-0.068048611 0.76099998 -0.05470575 1.483509e-38 269 281
-0.066714332 0.76099998 -0.05470575 1.4836524e-38 270 281
-0.065208219 0.759 -0.054561976 1.5113109e-38 271 281
-0.063877434 0.759 -0.054561976 1.53897e-38 272 281
-0.062546656 0.759 -0.054561976 1.53897e-38 273 281
-0.061215881 0.759 -0.054561976 1.5482617e-38 274 281
-0.059727304 0.75700003 -0.054418206 1.5574813e-38 275 281
-0.058400027 0.75700003 -0.054418206 1.5667374e-38 276 281
-0.05722354 0.759 -0.054561976 1.5667374e-38 277 281
-0.055892758 0.759 -0.054561976 1.5296794e-38 278 281
-0.054561976 0.759 -0.054561976 1.4836176e-38 279 281
-0.053231198 0.759 -0.054561976 1.4742181e-38 280 281
-0.051900417 0.759 -0.054561976 1.4834377e-38 281 281
-0.050569639 0.759 -0.054561976 1.4651074e-38 282 281
-0.049238857 0.759 -0.054561976 1.4928021e-38 283 281
-0.047908079 0.759 -0.054561976 1.4929812e-38 284 281
-0.046577301 0.759 -0.054561976 1.5022008e-38 285 281
-0.045365743 0.76099998 -0.05470575 1.465358e-38 286 281
-0.044031456 0.76099998 -0.05470575 1.4376633e-38 287 281
-0.042697169 0.76099998 -0.05470575 1.3916423e-38 288 281
-0.041362885 0.76099998 -0.05470575 1.373203e-38 289 281
-0.08203321 0.76700002 -0.056481879 1.0873988e-38 259 282
-0.080688395 0.76700002 -0.056481879 1.0782142e-38 260 282
-0.079343595 0.76700002 -0.056481879 1.1058731e-38 261 282
-0.077897087 0.76599997 -0.056408234 1.1520408e-38 262 282
-0.076354161 0.764 -0.056260962 1.2073582e-38 263 282
-0.074818239 0.76200002 -0.056113683 1.271749e-38 264 282
-0.073482201 0.76200002 -0.056113683 1.2901882e-38 265 282
-0.072051473 0.76099998 -0.056040037 1.3544731e-38 266 282
-0.070717193 0.76099998 -0.056040037 1.3821316e-38 267 282
-0.069382899 0.76099998 -0.056040037 1.4006061e-38 268 282
-0.068048611 0.76099998 -0.056040037 1.446668e-38 269 282
-0.066538997 0.759 -0.055892758 1.4193326e-38 270 282
-0.065208219 0.759 -0.055892758 1.4469554e-38 271 282
-0.063877434 0.759 -0.055892758 1.5021289e-38 272 282
-0.062546656 0.759 -0.055892758 1.5113485e-38 273 282
-0.061054576 0.75700003 -0.055745479 1.5114558e-38 274 282
-0.059727304 0.75700003 -0.055745479 1.5206754e-38 275 282
-0.058400027 0.75700003 -0.055745479 1.5575163e-38 276 282
-0.057072755 0.75700003 -0.055745479 1.5575163e-38 277 282
-0.055745479 0.75700003 -0.055745479 1.5390769e-38 278 282
-0.054418206 0.75700003 -0.055745479 1.5021987e-38 279 282
-0.053090934 0.75700003 -0.055745479 1.5296779e-38 280 282
-0.051763661 0.75700003 -0.055745479 1.5112387e-38 281 282
-0.050569639 0.759 -0.055892758 1.4929441e-38 282 282
-0.049238857 0.759 -0.055892758 1.5113832e-38 283 282
-0.047908079 0.759 -0.055892758 1.5113835e-38 284 282
-0.046577301 0.759 -0.055892758 1.5021639e-38 285 282
-0.045246519 0.759 -0.055892758 1.5204233e-38 286 282
-0.043915741 0.759 -0.055892758 1.5112037e-38 287 282
-0.042697169 0.76099998 -0.056040037 1.4285183e-38 288 282
-0.041362885 0.76099998 -0.056040037 1.3916759e-38 289 282
-0.040028598 0.76099998 -0.056040037 1.3183217e-38 290 282
-0.080688395 0.76700002 -0.057826683 1.0966884e-38 260 283
-0.079343595 0.76700002 -0.057826683 1.0874688e-38 261 283
-0.077897087 0.76599997 -0.057751291 1.1335295e-38 262 283
-0.076354161 0.764 -0.057600506 1.1796272e-38 263 283
-0.074818239 0.76200002 -0.057449725 1.2348356e-38 264 283
-0.073482201 0.76200002 -0.057449725 1.2624941e-38 265 283
-0.072051473 0.76099998 -0.057374325 1.326814e-38 266 283
-0.070717193 0.76099998 -0.057374325 1.3545087e-38 267 283
-0.069382899 0.76099998 -0.057374325 1.3821667e-38 268 283
-0.067869775 0.759 -0.05722354 1.4098255e-38 269 283
-0.066538997 0.759 -0.05722354 1.4100053e-38 270 283
-0.065208219 0.759 -0.05722354 1.4376638e-38 271 283
-0.063877434 0.759 -0.05722354 1.4561384e-38 272 283
-0.062546656 0.759 -0.05722354 1.465358e-38 273 283
-0.061054576 0.75700003 -0.057072755 1.4929444e-38 274 283
-0.059727304 0.75700003 -0.057072755 1.5113835e-38 275 283
-0.058400027 0.75700003 -0.057072755 1.5206398e-38 276 283
-0.057072755 0.75700003 -0.057072755 1.5298952e-38 277 283
-0.055598196 0.755 -0.056921966 1.5299665e-38 278 283
-0.054274432 0.755 -0.056921966 1.5115274e-38 279 283
-0.053090934 0.75700003 -0.057072755 1.5390767e-38 280 283
-0.051763661 0.75700003 -0.057072755 1.5114538e-38 281 283
-0.050436385 0.75700003 -0.057072755 1.511526e-38 282 283
-0.049109112 0.75700003 -0.057072755 1.511526e-38 283 283
-0.04778184 0.75700003 -0.057072755 1.5297867e-38 284 283
-0.046577301 0.759 -0.05722354 1.5113835e-38 285 283
-0.045246519 0.759 -0.05722354 1.5021639e-38 286 283
-0.043915741 0.759 -0.05722354 1.4929444e-38 287 283
-0.042584959 0.759 -0.05722354 1.4561753e-38 288 283
-0.041254178 0.759 -0.05722354 1.4285167e-38 289 283
-0.040028598 0.76099998 -0.057374325 1.3180668e-38 290 283
-0.079343595 0.76700002 -0.059171494 1.0507726e-38 261 284
-0.077897087 0.76599997 -0.059094343 1.0966887e-38 262 284
-0.076554038 0.76599997 -0.059094343 1.1335311e-38 263 284
-0.075014614 0.764 -0.058940053 1.2070695e-38 264 284
-0.07338576 0.76099998 -0.058708608 1.2531673e-38 265 284
-0.072051473 0.76099998 -0.058708608 1.3083746e-38 266 284
-0.070717193 0.76099998 -0.058708608 1.3360691e-38 267 284
-0.069382899 0.76099998 -0.058708608 1.3545437e-38 268 284
-0.067869775 0.759 -0.058554318 1.3821664e-38 269 284
-0.066538997 0.759 -0.058554318 1.3822743e-38 270 284
-0.065208219 0.759 -0.058554318 1.409933e-38 271 284
-0.063877434 0.759 -0.058554318 1.4284427e-38 272 284
-0.062546656 0.759 -0.058554318 1.4468819e-38 273 284
-0.061054576 0.75700003 -0.058400027 1.4836524e-38 274 284
-0.059569497 0.755 -0.058245733 1.5113109e-38 275 284
-0.058245733 0.755 -0.058245733 1.529715e-38 276 284
-0.056921966 0.755 -0.058245733 1.5481543e-38 277 284
-0.055598196 0.755 -0.058245733 1.5482617e-38 278 284
-0.054274432 0.755 -0.058245733 1.5574813e-38 279 284
-0.052950665 0.755 -0.058245733 1.5299655e-38 280 284
-0.051763661 0.75700003 -0.058400027 1.5207101e-38 281 284
-0.050436385 0.75700003 -0.058400027 1.5299655e-38 282 284
-0.049109112 0.75700003 -0.058400027 1.5299655e-38 283 284
-0.04778184 0.75700003 -0.058400027 1.5207107e-38 284 284
-0.046454567 0.75700003 -0.058400027 1.5114552e-38 285 284
-0.045127295 0.75700003 -0.058400027 1.5021636e-38 286 284
-0.043800019 0.75700003 -0.058400027 1.4929441e-38 287 284
-0.042472746 0.75700003 -0.058400027 1.4561747e-38 288 284
-0.041145474 0.75700003 -0.058400027 1.428552e-38 289 284
-0.039818201 0.75700003 -0.058400027 1.3639829e-38 290 284
-0.077998787 0.76700002 -0.060516298 1.1150196e-38 262 285
-0.076554038 0.76599997 -0.060437392 1.1242752e-38 263 285
-0.075014614 0.764 -0.0602796 1.1518613e-38 264 285
-0.07338576 0.76099998 -0.060042895 1.1887396e-38 265 285
-0.072051473 0.76099998 -0.060042895 1.2256526e-38 266 285
-0.070717193 0.76099998 -0.060042895 1.2441276e-38 267 285
-0.069382899 0.76099998 -0.060042895 1.2901882e-38 268 285
-0.067869775 0.759 -0.059885096 1.3178109e-38 269 285
-0.066538997 0.759 -0.059885096 1.3454689e-38 270 285
-0.065208219 0.759 -0.059885096 1.363872e-38 271 285
-0.063877434 0.759 -0.059885096 1.364087e-38 272 285
-0.062546656 0.759 -0.059885096 1.3825261e-38 273 285
-0.061054576 0.75700003 -0.059727304 1.4193326e-38 274 285
-0.059569497 0.755 -0.059569497 1.4285523e-38 275 285
-0.058245733 0.755 -0.059569497 1.4653946e-38 276 285
-0.056921966 0.755 -0.059569497 1.4838696e-38 277 285
-0.055598196 0.755 -0.059569497 1.5114568e-38 278 285
-0.054274432 0.755 -0.059569497 1.5114568e-38 279 285
-0.052950665 0.755 -0.059569497 1.5207122e-38 280 285
-0.051626898 0.755 -0.059569497 1.5207122e-38 281 285
-0.050303131 0.755 -0.059569497 1.5298949e-38 282 285
-0.048979364 0.755 -0.059569497 1.5298949e-38 283 285
-0.04778184 0.75700003 -0.059727304 1.5297867e-38 284 285
-0.046454567 0.75700003 -0.059727304 1.5113835e-38 285 285
-0.045127295 0.75700003 -0.059727304 1.5021283e-38 286 285
-0.043800019 0.75700003 -0.059727304 1.4836892e-38 287 285
-0.042472746 0.75700003 -0.059727304 1.4469552e-38 288 285
-0.041145474 0.75700003 -0.059727304 1.428552e-38 289 285
-0.039818201 0.75700003 -0.059727304 1.4099718e-38 290 285
-0.038490929 0.75700003 -0.059727304 1.3915327e-38 291 285
-0.07665398 0.76700002 -0.061861109 1.0415175e-38 263 286
-0.075014614 0.764 -0.061619148 1.1333143e-38 264 286
-0.07338576 0.76099998 -0.061377186 1.1517894e-38 265 286
-0.072051473 0.76099998 -0.061377186 1.2253995e-38 266 286
-0.070717193 0.76099998 -0.061377186 1.2714973e-38 267 286
-0.069382899 0.76099998 -0.061377186 1.3175932e-38 268 286
-0.067869775 0.759 -0.061215881 1.3268127e-38 269 286
-0.066538997 0.759 -0.061215881 1.3544704e-38 270 286
-0.065208219 0.759 -0.061215881 1.3729456e-38 271 286
-0.063877434 0.759 -0.061215881 1.3822367e-38 272 286
-0.062546656 0.759 -0.061215881 1.3914563e-38 273 286
-0.061054576 0.75700003 -0.061054576 1.4191154e-38 274 286
-0.059727304 0.75700003 -0.061054576 1.4375544e-38 275 286
-0.058245733 0.755 -0.060893264 1.437627e-38 276 286
-0.056921966 0.755 -0.060893264 1.4744694e-38 277 286
-0.055524562 0.75400001 -0.060812615 1.5112403e-38 278 286
-0.054202545 0.75400001 -0.060812615 1.5296794e-38 279 286
-0.052880533 0.75400001 -0.060812615 1.5572662e-38 280 286
-0.051558517 0.75400001 -0.060812615 1.5572662e-38 281 286
-0.050236505 0.75400001 -0.060812615 1.5481543e-38 282 286
-0.048979364 0.755 -0.060893264 1.5481543e-38 283 286
-0.047655597 0.755 -0.060893264 1.5113835e-38 284 286
-0.04633183 0.755 -0.060893264 1.5021639e-38 285 286
-0.045127295 0.75700003 -0.061054576 1.4744694e-38 286 286
-0.043800019 0.75700003 -0.061054576 1.4837248e-38 287 286
-0.042360533 0.755 -0.060893264 1.4469186e-38 288 286
-0.041036766 0.755 -0.060893264 1.4284793e-38 289 286
-0.039818201 0.75700003 -0.061054576 1.3824914e-38 290 286
-0.038490929 0.75700003 -0.061054576 1.3824914e-38 291 286
-0.037163652 0.75700003 -0.061054576 1.3454391e-38 292 286
-0.074818239 0.76200002 -0.062793881 1.0874686e-38 264 287
-0.073482201 0.76200002 -0.062793881 1.096724e-38 265 287
-0.071862116 0.759 -0.062546656 1.1242749e-38 266 287
-0.070531338 0.759 -0.062546656 1.1519336e-38 267 287
-0.069200553 0.759 -0.062546656 1.1980665e-38 268 287
-0.067869775 0.759 -0.062546656 1.207286e-38 269 287
-0.066538997 0.759 -0.062546656 1.2717134e-38 270 287
-0.065036394 0.75700003 -0.062381849 1.280933e-38 271 287
-0.063709125 0.75700003 -0.062381849 1.3177746e-38 272 287
-0.062381849 0.75700003 -0.062381849 1.3269942e-38 273 287
-0.061054576 0.75700003 -0.062381849 1.3271737e-38 274 287
-0.059569497 0.755 -0.062217031 1.3548324e-38 275 287
-0.058245733 0.755 -0.062217031 1.3824558e-38 276 287
-0.056921966 0.755 -0.062217031 1.3917112e-38 277 287
-0.055524562 0.75400001 -0.062134624 1.4192987e-38 278 287
-0.054202545 0.75400001 -0.062134624 1.4377378e-38 279 287
-0.052880533 0.75400001 -0.062134624 1.4744722e-38 280 287
-0.051558517 0.75400001 -0.062134624 1.4744722e-38 281 287
-0.050236505 0.75400001 -0.062134624 1.5021657e-38 282 287
-0.048914492 0.75400001 -0.062134624 1.5021657e-38 283 287
-0.047655597 0.755 -0.062217031 1.4929091e-38 284 287
-0.04633183 0.755 -0.062217031 1.4836895e-38 285 287
-0.045008067 0.755 -0.062217031 1.4744694e-38 286 287
-0.043684296 0.755 -0.062217031 1.4652498e-38 287 287
-0.042360533 0.755 -0.062217031 1.4376986e-38 288 287
-0.041036766 0.755 -0.062217031 1.428479e-38 289 287
-0.039712999 0.755 -0.062217031 1.4100409e-38 290 287
-0.038389232 0.755 -0.062217031 1.428444e-38 291 287
-0.037163652 0.75700003 -0.062381849 1.3271775e-38 292 287
-0.03583638 0.75700003 -0.062381849 1.336397e-38 293 287
-0.071862116 0.759 -0.063877434 1.1240947e-38 266 288
-0.070531338 0.759 -0.063877434 1.1333143e-38 267 288
-0.069200553 0.759 -0.063877434 1.2161449e-38 268 288
-0.067869775 0.759 -0.063877434 1.2437676e-38 269 288
-0.066538997 0.759 -0.063877434 1.2714967e-38 270 288
-0.065036394 0.75700003 -0.063709125 1.2899717e-38 271 288
-0.063709125 0.75700003 -0.063709125 1.2900784e-38 272 288
-0.062381849 0.75700003 -0.063709125 1.2992979e-38 273 288
-0.060893264 0.755 -0.063540794 1.3453592e-38 274 288
-0.059569497 0.755 -0.063540794 1.3729819e-38 275 288
-0.058245733 0.755 -0.063540794 1.37309e-38 276 288
-0.056921966 0.755 -0.063540794 1.4007129e-38 277 288
-0.055524562 0.75400001 -0.06345664 1.4467033e-38 278 288
-0.054202545 0.75400001 -0.06345664 1.4651425e-38 279 288
-0.052880533 0.75400001 -0.06345664 1.4834742e-38 280 288
-0.051558517 0.75400001 -0.06345664 1.492694e-38 281 288
-0.050236505 0.75400001 -0.06345664 1.5019138e-38 282 288
-0.048914492 0.75400001 -0.06345664 1.5111334e-38 283 288
-0.047655597 0.755 -0.063540794 1.4744343e-38 284 288
-0.04633183 0.755 -0.063540794 1.4652148e-38 285 288
-0.045008067 0.755 -0.063540794 1.4468468e-38 286 288
-0.043684296 0.755 -0.063540794 1.4468468e-38 287 288
-0.042360533 0.755 -0.063540794 1.4284071e-38 288 288
-0.041036766 0.755 -0.063540794 1.4284071e-38 289 288
-0.039712999 0.755 -0.063540794 1.4008208e-38 290 288
-0.038389232 0.755 -0.063540794 1.4008208e-38 291 288
-0.037065465 0.755 -0.063540794 1.3640532e-38 292 288
-0.035694357 0.75400001 -0.06345664 1.327211e-38 293 288
-0.034372345 0.75400001 -0.06345664 1.2722956e-38 294 288
-0.070531338 0.759 -0.065208219 1.0598827e-38 267 289
-0.069200553 0.759 -0.065208219 1.1150552e-38 268 289
-0.067869775 0.759 -0.065208219 1.1334945e-38 269 289
-0.066538997 0.759 -0.065208219 1.188702e-38 270 289
-0.065036394 0.75700003 -0.065036394 1.207177e-38 271 289
-0.063709125 0.75700003 -0.065036394 1.2256862e-38 272 289
-0.062381849 0.75700003 -0.065036394 1.2349059e-38 273 289
-0.060893264 0.755 -0.064864561 1.2993701e-38 274 289
-0.059569497 0.755 -0.064864561 1.3085897e-38 275 289
-0.058245733 0.755 -0.064864561 1.3270295e-38 276 289
-0.056921966 0.755 -0.064864561 1.3638717e-38 277 289
-0.055598196 0.755 -0.064864561 1.3730916e-38 278 289
-0.054202545 0.75400001 -0.064778648 1.3915309e-38 279 289
-0.052880533 0.75400001 -0.064778648 1.4190819e-38 280 289
-0.051558517 0.75400001 -0.064778648 1.4283015e-38 281 289
-0.050236505 0.75400001 -0.064778648 1.4375569e-38 282 289
-0.048914492 0.75400001 -0.064778648 1.4467765e-38 283 289
-0.04759248 0.75400001 -0.064778648 1.437592e-38 284 289
-0.04633183 0.755 -0.064864561 1.437592e-38 285 289
-0.045008067 0.755 -0.064864561 1.4283718e-38 286 289
-0.043684296 0.755 -0.064864561 1.4191523e-38 287 289
-0.042360533 0.755 -0.064864561 1.4191523e-38 288 289
-0.041036766 0.755 -0.064864561 1.4099327e-38 289 289
-0.039712999 0.755 -0.064864561 1.4008213e-38 290 289
-0.038389232 0.755 -0.064864561 1.4008213e-38 291 289
-0.037065465 0.755 -0.064864561 1.3641236e-38 292 289
-0.035694357 0.75400001 -0.064778648 1.3272812e-38 293 289
-0.034372345 0.75400001 -0.064778648 1.2811892e-38 294 289
-0.033050332 0.75400001 -0.064778648 1.4194827e-38 295 289
-0.069382899 0.76099998 -0.066714332 1.0690294e-38 268 290
-0.067869775 0.759 -0.066538997 1.0874686e-38 269 290
-0.066538997 0.759 -0.066538997 1.1426761e-38 270 290
-0.065036394 0.75700003 -0.06636367 1.1519317e-38 271 290
-0.063709125 0.75700003 -0.06636367 1.1888079e-38 272 290
-0.062381849 0.75700003 -0.06636367 1.2072471e-38 273 290
-0.061054576 0.75700003 -0.06636367 1.2625276e-38 274 290
-0.059569497 0.755 -0.066188328 1.2901503e-38 275 290
-0.058245733 0.755 -0.066188328 1.2993704e-38 276 290
-0.056921966 0.755 -0.066188328 1.3178097e-38 277 290
-0.055524562 0.75400001 -0.066100664 1.3362135e-38 278 290
-0.054202545 0.75400001 -0.066100664 1.3454689e-38 279 290
-0.052880533 0.75400001 -0.066100664 1.3730197e-38 280 290
-0.051558517 0.75400001 -0.066100664 1.4006425e-38 281 290
-0.050236505 0.75400001 -0.066100664 1.4006425e-38 282 290
-0.048784744 0.75199997 -0.06592533 1.4098621e-38 283 290
-0.047466237 0.75199997 -0.06592533 1.4098977e-38 284 290
-0.046270464 0.75400001 -0.066100664 1.4006781e-38 285 290
-0.044948451 0.75400001 -0.066100664 1.4006775e-38 286 290
-0.043626439 0.75400001 -0.066100664 1.4006775e-38 287 290
-0.042304426 0.75400001 -0.066100664 1.3915659e-38 288 290
-0.040982414 0.75400001 -0.066100664 1.3823463e-38 289 290
-0.039660402 0.75400001 -0.066100664 1.3824185e-38 290 290
-0.038389232 0.755 -0.066188328 1.3824185e-38 291 290
-0.037016369 0.75400001 -0.066100664 1.3640517e-38 292 290
-0.035694357 0.75400001 -0.066100664 1.3640517e-38 293 290
-0.034372345 0.75400001 -0.066100664 1.2995192e-38 294 290
-0.033050332 0.75400001 -0.066100664 1.364056e-38 295 290
-0.03172832 0.75400001 -0.066100664 1.4105559e-38 296 290
-0.069382899 0.76099998 -0.068048611 1.0230765e-38 268 291
-0.067869775 0.759 -0.067869775 1.032332e-38 269 291
-0.066538997 0.759 -0.067869775 1.1058704e-38 270 291
-0.065036394 0.75700003 -0.067690939 1.1058704e-38 271 291
-0.063709125 0.75700003 -0.067690939 1.1427464e-38 272 291
-0.062381849 0.75700003 -0.067690939 1.1612216e-38 273 291
-0.060893264 0.755 -0.067512102 1.2256133e-38 274 291
-0.059569497 0.755 -0.067512102 1.253308e-38 275 291
-0.058245733 0.755 -0.067512102 1.2808591e-38 276 291
-0.056921966 0.755 -0.067512102 1.2992982e-38 277 291
-0.055524562 0.75400001 -0.067422673 1.3085181e-38 278 291
-0.054202545 0.75400001 -0.067422673 1.3177376e-38 279 291
