# .PCD v.7 - Point Cloud Data file format
FIELDS x y z rgb imX imY
SIZE 4 4 4 4 4 4
TYPE F F F F F F
COUNT 1 1 1 1 1 1
WIDTH 831
HEIGHT 1
VIEWPOINT 0 0 0 1 0 0 0
POINTS 831
DATA ascii
-0.072102323 0.69700003 -0.030551834 1.8433205e-38 261 265
-0.070880257 0.69700003 -0.030551834 1.8708713e-38 262 265
-0.069358356 0.69400001 -0.030420333 1.8708713e-38 263 265
-0.067846984 0.69099998 -0.030288832 1.8524329e-38 264 265
-0.066538997 0.69 -0.030244999 1.8432133e-38 265 265
-0.065329194 0.69 -0.030244999 1.833995e-38 266 265
-0.064119399 0.69 -0.030244999 1.8432505e-38 267 265
-0.062909603 0.69 -0.030244999 1.8432152e-38 268 265
-0.06152096 0.68800002 -0.030157333 1.870874e-38 269 265
-0.060314666 0.68800002 -0.030157333 1.8709812e-38 270 265
-0.059108373 0.68800002 -0.030157333 1.8709812e-38 271 265
-0.057902083 0.68800002 -0.030157333 1.8433578e-38 272 265
-0.056366164 0.68400002 -0.029982001 1.8433578e-38 273 265
-0.055005573 0.68199998 -0.029894331 1.8433578e-38 274 265
-0.053652 0.68000001 -0.029806666 1.8341383e-38 275 265
-0.052459732 0.68000001 -0.029806666 1.8156994e-38 276 265
-0.051267464 0.68000001 -0.029806666 1.8156994e-38 277 265
-0.10579788 0.727 -0.033141505 1.871571e-38 237 266
-0.10466698 0.72799999 -0.033187091 1.8346565e-38 238 266
-0.10339055 0.72799999 -0.033187091 1.7793031e-38 239 266
-0.10211413 0.72799999 -0.033187091 1.4383206e-38 240 266
-0.10069919 0.727 -0.033141505 1.3092467e-38 241 266
-0.099424519 0.727 -0.033141505 1.4008971e-38 242 266
-0.098149844 0.727 -0.033141505 1.4008971e-38 243 266
-0.094743125 0.71100003 -0.032412119 1.4101491e-38 244 266
-0.093364999 0.70999998 -0.032366529 1.4101491e-38 245 266
-0.092120126 0.70999998 -0.032366529 1.3918885e-38 246 266
-0.090875261 0.70999998 -0.032366529 1.4103277e-38 247 266
-0.089377917 0.708 -0.03227536 1.4839747e-38 248 266
-0.087887585 0.70599997 -0.032184184 1.539292e-38 249 266
-0.086649731 0.70599997 -0.032184184 1.5946091e-38 250 266
-0.085169919 0.704 -0.032093015 1.6223037e-38 251 266
-0.083458662 0.69999999 -0.031910665 1.6407795e-38 252 266
-0.082231328 0.69999999 -0.031910665 1.6868773e-38 253 266
-0.081004001 0.69999999 -0.031910665 1.7418707e-38 254 266
-0.079776667 0.69999999 -0.031910665 1.7694934e-38 255 266
-0.078324907 0.69800001 -0.031819493 1.7696369e-38 256 266
-0.076990619 0.69700003 -0.03177391 1.7788565e-38 257 266
-0.075768545 0.69700003 -0.03177391 1.7788932e-38 258 266
-0.074546471 0.69700003 -0.03177391 1.7881128e-38 259 266
-0.073324397 0.69700003 -0.03177391 1.8341383e-38 260 266
-0.07168854 0.69300002 -0.031591557 1.8249187e-38 261 266
-0.070270091 0.69099998 -0.031500384 1.8341739e-38 262 266
-0.068958595 0.69 -0.031454802 1.8341739e-38 263 266
-0.067552425 0.68800002 -0.031363625 1.8340304e-38 264 266
-0.066346131 0.68800002 -0.031363625 1.8340304e-38 265 266
-0.065139838 0.68800002 -0.031363625 1.8248839e-38 266 266
-0.063933544 0.68800002 -0.031363625 1.8248839e-38 267 266
-0.06272725 0.68800002 -0.031363625 1.8432878e-38 268 266
-0.06152096 0.68800002 -0.031363625 1.861691e-38 269 266
-0.060226995 0.68699998 -0.031318039 1.880201e-38 270 266
-0.059022456 0.68699998 -0.031318039 1.880201e-38 271 266
-0.057817914 0.68699998 -0.031318039 1.8985307e-38 272 266
-0.056283753 0.68300003 -0.031135695 1.8985307e-38 273 266
-0.055005573 0.68199998 -0.031090107 1.8985293e-38 274 266
-0.053652 0.68000001 -0.030998932 1.8892739e-38 275 266
-0.052459732 0.68000001 -0.030998932 1.8800543e-38 276 266
-0.051267464 0.68000001 -0.030998932 1.8800543e-38 277 266
-0.050075196 0.68000001 -0.030998932 1.8432855e-38 278 266
-0.10466698 0.72799999 -0.034463517 1.8070343e-38 238 267
-0.10339055 0.72799999 -0.034463517 1.7424974e-38 239 267
-0.10211413 0.72799999 -0.034463517 1.484383e-38 240 267
-0.1008377 0.72799999 -0.034463517 1.3368341e-38 241 267
-0.099561274 0.72799999 -0.034463517 1.3732757e-38 242 267
-0.095854729 0.70999998 -0.033611398 1.3916788e-38 243 267
-0.094609864 0.70999998 -0.033611398 1.3917825e-38 244 267
-0.093364999 0.70999998 -0.033611398 1.3917825e-38 245 267
-0.091860637 0.708 -0.033516716 1.4101481e-38 246 267
-0.090619281 0.708 -0.033516716 1.4101481e-38 247 267
-0.089251675 0.70700002 -0.033469379 1.4470611e-38 248 267
-0.087638609 0.704 -0.03332736 1.4655002e-38 249 267
-0.086281531 0.70300001 -0.033280019 1.5117059e-38 250 267
-0.084806979 0.70099998 -0.03318534 1.5762429e-38 251 267
-0.083458662 0.69999999 -0.033137999 1.6223404e-38 252 267
-0.081996389 0.69800001 -0.033043321 1.6407795e-38 253 267
-0.080772556 0.69800001 -0.033043321 1.705135e-38 254 267
-0.079548739 0.69800001 -0.033043321 1.7327577e-38 255 267
-0.078212693 0.69700003 -0.03299598 1.7694199e-38 256 267
-0.076880157 0.69599998 -0.032948639 1.7878231e-38 257 267
-0.075659841 0.69599998 -0.032948639 1.7786764e-38 258 267
-0.074225612 0.69400001 -0.032853961 1.8155545e-38 259 267
-0.072903603 0.69300002 -0.03280662 1.7881128e-38 260 267
-0.071481638 0.69099998 -0.032711938 1.7881128e-38 261 267
-0.070168398 0.69 -0.032664597 1.8432502e-38 262 267
-0.068758719 0.68800002 -0.032569919 1.8432502e-38 263 267
-0.067552425 0.68800002 -0.032569919 1.8340306e-38 264 267
-0.066249698 0.68699998 -0.032522578 1.8340306e-38 265 267
-0.065045156 0.68699998 -0.032522578 1.8249187e-38 266 267
-0.06384062 0.68699998 -0.032522578 1.8249187e-38 267 267
-0.062636077 0.68699998 -0.032522578 1.8433581e-38 268 267
-0.061431535 0.68699998 -0.032522578 1.8617614e-38 269 267
-0.060226995 0.68699998 -0.032522578 1.8801289e-38 270 267
-0.058936544 0.68599999 -0.032475237 1.8801289e-38 271 267
-0.057733759 0.68599999 -0.032475237 1.9077874e-38 272 267
-0.056283753 0.68300003 -0.032333218 1.9077874e-38 273 267
-0.055086225 0.68300003 -0.032333218 1.8986755e-38 274 267
-0.053809796 0.68199998 -0.032285877 1.8894559e-38 275 267
-0.052459732 0.68000001 -0.032191198 1.8986026e-38 276 267
-0.051267464 0.68000001 -0.032191198 1.8709798e-38 277 267
-0.050075196 0.68000001 -0.032191198 1.843465e-38 278 267
-0.048739154 0.67799997 -0.03209652 1.843465e-38 279 267
-0.047410134 0.676 -0.032001842 1.8158436e-38 280 267
-0.0461565 0.67500001 -0.031954501 1.8158436e-38 281 267
-0.044972997 0.67500001 -0.031954501 1.834105e-38 282 267
-0.043789499 0.67500001 -0.031954501 1.834105e-38 283 267
-0.1036746 0.73000002 -0.035838135 1.714839e-38 239 268
-0.10211413 0.72799999 -0.035739943 1.4567969e-38 240 268
-0.1008377 0.72799999 -0.035739943 1.327723e-38 241 268
-0.099561274 0.72799999 -0.035739943 1.3365417e-38 242 268
-0.095584713 0.708 -0.034758076 1.3734198e-38 243 268
-0.094343357 0.708 -0.034758076 1.4010025e-38 244 268
-0.093101993 0.708 -0.034758076 1.3917828e-38 245 268
-0.091730893 0.70700002 -0.034708988 1.4101491e-38 246 268
-0.090491287 0.70700002 -0.034708988 1.4101491e-38 247 268
-0.089125432 0.70599997 -0.034659892 1.4010729e-38 248 268
-0.087638609 0.704 -0.034561705 1.4010729e-38 249 268
-0.086281531 0.70300001 -0.034512613 1.4471702e-38 250 268
-0.084685996 0.69999999 -0.034365334 1.5117072e-38 251 268
-0.083458662 0.69999999 -0.034365334 1.5762078e-38 252 268
-0.081996389 0.69800001 -0.034267146 1.6222698e-38 253 268
-0.080772556 0.69800001 -0.034267146 1.668294e-38 254 268
-0.079434767 0.69700003 -0.034218054 1.6866971e-38 255 268
-0.078212693 0.69700003 -0.034218054 1.7235031e-38 256 268
-0.076880157 0.69599998 -0.034168959 1.7327228e-38 257 268
-0.075659841 0.69599998 -0.034168959 1.741907e-38 258 268
-0.074225612 0.69400001 -0.034070771 1.760382e-38 259 268
-0.072693199 0.69099998 -0.033923492 1.7420874e-38 260 268
-0.071378194 0.69 -0.0338744 1.7605267e-38 261 268
-0.06996502 0.68800002 -0.033776212 1.7788945e-38 262 268
-0.068658777 0.68699998 -0.033727121 1.7881499e-38 263 268
-0.067454241 0.68699998 -0.033727121 1.8156641e-38 264 268
-0.066249698 0.68699998 -0.033727121 1.8248837e-38 265 268
-0.064950474 0.68599999 -0.033678025 1.8341383e-38 266 268
-0.063747689 0.68599999 -0.033678025 1.8341383e-38 267 268
-0.062544905 0.68599999 -0.033678025 1.8433581e-38 268 268
-0.061163284 0.68400002 -0.033579841 1.8617614e-38 269 268
-0.059964001 0.68400002 -0.033579841 1.8709815e-38 270 268
-0.058764715 0.68400002 -0.033579841 1.8709815e-38 271 268
-0.057481278 0.68300003 -0.033530746 1.8802008e-38 272 268
-0.056283753 0.68300003 -0.033530746 1.8894203e-38 273 268
-0.055005573 0.68199998 -0.03348165 1.8894556e-38 274 268
-0.053809796 0.68199998 -0.03348165 1.8986752e-38 275 268
-0.052382588 0.67900002 -0.033334374 1.9170052e-38 276 268
-0.051192071 0.67900002 -0.033334374 1.9170052e-38 277 268
-0.049927916 0.67799997 -0.033285279 1.9078928e-38 278 268
-0.048739154 0.67799997 -0.033285279 1.8986732e-38 279 268
-0.047410134 0.676 -0.033187091 1.8986023e-38 280 268
-0.0461565 0.67500001 -0.033137999 1.8986023e-38 281 268
-0.044972997 0.67500001 -0.033137999 1.870909e-38 282 268
-0.043789499 0.67500001 -0.033137999 1.8616893e-38 283 268
-0.042542879 0.67400002 -0.033088908 1.8432149e-38 284 268
-0.041361131 0.67400002 -0.033088908 1.8155922e-38 285 268
-0.095584713 0.708 -0.03599944 1.3366514e-38 243 269
-0.094343357 0.708 -0.03599944 1.4010396e-38 244 269
-0.093101993 0.708 -0.03599944 1.3917842e-38 245 269
-0.091730893 0.70700002 -0.035948593 1.3918178e-38 246 269
-0.090491287 0.70700002 -0.035948593 1.3918178e-38 247 269
-0.089125432 0.70599997 -0.035897743 1.3918166e-38 248 269
-0.087638609 0.704 -0.035796054 1.4102197e-38 249 269
-0.086281531 0.70300001 -0.035745207 1.3919605e-38 250 269
-0.084685996 0.69999999 -0.035592664 1.4196192e-38 251 269
-0.083220214 0.69800001 -0.035490975 1.4841564e-38 252 269
-0.081996389 0.69800001 -0.035490975 1.5394738e-38 253 269
-0.080656841 0.69700003 -0.035440128 1.6222331e-38 254 269
-0.079434767 0.69700003 -0.035440128 1.6498559e-38 255 269
-0.078100473 0.69599998 -0.035389278 1.6866969e-38 256 269
-0.07665924 0.69400001 -0.035287585 1.6959523e-38 257 269
-0.075116299 0.69099998 -0.035135046 1.7051716e-38 258 269
-0.0737978 0.69 -0.035084199 1.7143913e-38 259 269
-0.0723776 0.68800002 -0.03498251 1.7512341e-38 260 269
-0.071171306 0.68800002 -0.03498251 1.7604536e-38 261 269
-0.069863312 0.68699998 -0.034931656 1.7788579e-38 262 269
-0.068658777 0.68699998 -0.034931656 1.7880774e-38 263 269
-0.067454241 0.68699998 -0.034931656 1.7880777e-38 264 269
-0.066153266 0.68599999 -0.034880809 1.8157004e-38 265 269
-0.064950474 0.68599999 -0.034880809 1.8248837e-38 266 269
-0.063747689 0.68599999 -0.034880809 1.8341032e-38 267 269
-0.06227139 0.68300003 -0.034728274 1.8341388e-38 268 269
-0.061073858 0.68300003 -0.034728274 1.8341388e-38 269 269
-0.059788663 0.68199998 -0.034677424 1.8617614e-38 270 269
-0.058592889 0.68199998 -0.034677424 1.8617614e-38 271 269
-0.05739712 0.68199998 -0.034677424 1.8709809e-38 272 269
-0.056201346 0.68199998 -0.034677424 1.8802364e-38 273 269
-0.055005573 0.68199998 -0.034677424 1.8894209e-38 274 269
-0.053652 0.68000001 -0.034575731 1.8986404e-38 275 269
-0.052382588 0.67900002 -0.034524884 1.8986404e-38 276 269
-0.051192071 0.67900002 -0.034524884 1.90786e-38 277 269
-0.049927916 0.67799997 -0.034474038 1.9079318e-38 278 269
-0.048739154 0.67799997 -0.034474038 1.8987121e-38 279 269
-0.047410134 0.676 -0.034372345 1.8894922e-38 280 269
-0.0461565 0.67500001 -0.034321502 1.8802726e-38 281 269
-0.044972997 0.67500001 -0.034321502 1.8894559e-38 282 269
-0.043724626 0.67400002 -0.034270655 1.8802364e-38 283 269
-0.042542879 0.67400002 -0.034270655 1.8801289e-38 284 269
-0.041361131 0.67400002 -0.034270655 1.8801289e-38 285 269
-0.040060159 0.67199999 -0.034168959 1.8526149e-38 286 269
-0.03888192 0.67199999 -0.034168959 1.8526149e-38 287 269
-0.094343357 0.708 -0.0372408 1.3826378e-38 244 270
-0.093101993 0.708 -0.0372408 1.3734182e-38 245 270
-0.091860637 0.708 -0.0372408 1.3734869e-38 246 270
-0.090363286 0.70599997 -0.037135597 1.3734869e-38 247 270
-0.089125432 0.70599997 -0.037135597 1.3826689e-38 248 270
-0.087638609 0.704 -0.037030395 1.3826689e-38 249 270
-0.086281531 0.70300001 -0.036977798 1.4101475e-38 250 270
-0.084685996 0.69999999 -0.036819998 1.4193671e-38 251 270
-0.083220214 0.69800001 -0.0367148 1.4196195e-38 252 270
-0.081996389 0.69800001 -0.0367148 1.4841564e-38 253 270
-0.080541112 0.69599998 -0.036609598 1.5394738e-38 254 270
-0.079092868 0.69400001 -0.036504399 1.5671325e-38 255 270
-0.077763841 0.69300002 -0.036451802 1.6315602e-38 256 270
-0.076548778 0.69300002 -0.036451802 1.6407798e-38 257 270
-0.075007595 0.69 -0.036293998 1.6959523e-38 258 270
-0.0737978 0.69 -0.036293998 1.7051719e-38 259 270
-0.0723776 0.68800002 -0.0361888 1.7144634e-38 260 270
-0.071067855 0.68699998 -0.036136195 1.723683e-38 261 270
-0.069761619 0.68599999 -0.036083598 1.751199e-38 262 270
-0.068558842 0.68599999 -0.036083598 1.7696382e-38 263 270
-0.06735605 0.68599999 -0.036083598 1.7604913e-38 264 270
-0.065863967 0.68300003 -0.035925802 1.7881499e-38 265 270
-0.064666435 0.68300003 -0.035925802 1.8064089e-38 266 270
-0.063375987 0.68199998 -0.035873197 1.8156285e-38 267 270
-0.062180214 0.68199998 -0.035873197 1.824919e-38 268 270
-0.060984433 0.68199998 -0.035873197 1.824919e-38 269 270
-0.059788663 0.68199998 -0.035873197 1.8341383e-38 270 270
-0.058421064 0.68000001 -0.035767999 1.8433578e-38 271 270
-0.057228796 0.68000001 -0.035767999 1.8434301e-38 272 270
-0.056036532 0.68000001 -0.035767999 1.8434301e-38 273 270
-0.054844268 0.68000001 -0.035767999 1.8709815e-38 274 270
-0.053573098 0.67900002 -0.035715401 1.880201e-38 275 270
-0.052305438 0.67799997 -0.0356628 1.8894209e-38 276 270
-0.051116679 0.67799997 -0.0356628 1.8986404e-38 277 270
-0.049927916 0.67799997 -0.0356628 1.8986404e-38 278 270
-0.048595384 0.676 -0.035557602 1.8986404e-38 279 270
-0.047410134 0.676 -0.035557602 1.8986758e-38 280 270
-0.046224877 0.676 -0.035557602 1.8986758e-38 281 270
-0.044906374 0.67400002 -0.035452399 1.8986752e-38 282 270
-0.043594878 0.67199999 -0.035347197 1.8986752e-38 283 270
-0.042416636 0.67199999 -0.035347197 1.8894559e-38 284 270
-0.041238401 0.67199999 -0.035347197 1.8986755e-38 285 270
-0.040060159 0.67199999 -0.035347197 1.8802729e-38 286 270
-0.03888192 0.67199999 -0.035347197 1.8618698e-38 287 270
-0.037703678 0.67199999 -0.035347197 1.8709815e-38 288 270
-0.036525436 0.67199999 -0.035347197 1.8341032e-38 289 270
-0.035347197 0.67199999 -0.035347197 1.8157007e-38 290 270
-0.095854729 0.70999998 -0.038590867 1.2999191e-38 243 271
-0.094343357 0.708 -0.038482159 1.3550161e-38 244 271
-0.093101993 0.708 -0.038482159 1.3550161e-38 245 271
-0.091860637 0.708 -0.038482159 1.3734513e-38 246 271
-0.090619281 0.708 -0.038482159 1.3734513e-38 247 271
-0.088872954 0.704 -0.038264744 1.391781e-38 248 271
-0.087638609 0.704 -0.038264744 1.3825614e-38 249 271
-0.086281531 0.70300001 -0.038210396 1.4101475e-38 250 271
-0.084685996 0.69999999 -0.038047329 1.400928e-38 251 271
-0.083220214 0.69800001 -0.037938625 1.4011433e-38 252 271
-0.081878915 0.69700003 -0.037884273 1.4472053e-38 253 271
-0.080309682 0.69400001 -0.037721213 1.4841917e-38 254 271
-0.078978904 0.69300002 -0.037666857 1.5302537e-38 255 271
-0.077539407 0.69099998 -0.03755815 1.5671675e-38 256 271
-0.076327853 0.69099998 -0.03755815 1.5948262e-38 257 271
-0.075007595 0.69 -0.037503798 1.6684012e-38 258 271
-0.073583893 0.68800002 -0.037395094 1.6684012e-38 259 271
-0.07227239 0.68699998 -0.037340738 1.7051716e-38 260 271
-0.070964411 0.68599999 -0.037286382 1.7143913e-38 261 271
-0.06955824 0.68400002 -0.037177678 1.7143934e-38 262 271
-0.068358958 0.68400002 -0.037177678 1.7328325e-38 263 271
-0.067061491 0.68300003 -0.037123326 1.742017e-38 264 271
-0.065767527 0.68199998 -0.037068974 1.7604563e-38 265 271
-0.064571753 0.68199998 -0.037068974 1.7696034e-38 266 271
-0.063190132 0.68000001 -0.036960267 1.7788231e-38 267 271
-0.061997864 0.68000001 -0.036960267 1.8064089e-38 268 271
-0.060716182 0.67900002 -0.036905911 1.8064089e-38 269 271
-0.059525665 0.67900002 -0.036905911 1.7974045e-38 270 271
-0.058249239 0.67799997 -0.036851559 1.806624e-38 271 271
-0.057060476 0.67799997 -0.036851559 1.8158436e-38 272 271
-0.055871718 0.67799997 -0.036851559 1.8158436e-38 273 271
-0.054682959 0.67799997 -0.036851559 1.8433954e-38 274 271
-0.053494196 0.67799997 -0.036851559 1.8433954e-38 275 271
-0.052151144 0.676 -0.036742851 1.8526515e-38 276 271
-0.050965894 0.676 -0.036742851 1.8618711e-38 277 271
-0.049780637 0.676 -0.036742851 1.8801304e-38 278 271
-0.048595384 0.676 -0.036742851 1.88935e-38 279 271
-0.047410134 0.676 -0.036742851 1.8893853e-38 280 271
-0.0461565 0.67500001 -0.036688499 1.8893853e-38 281 271
-0.044906374 0.67400002 -0.036634147 1.8894928e-38 282 271
-0.043594878 0.67199999 -0.036525436 1.8894928e-38 283 271
-0.042416636 0.67199999 -0.036525436 1.8894925e-38 284 271
-0.041238401 0.67199999 -0.036525436 1.8894925e-38 285 271
-0.040060159 0.67199999 -0.036525436 1.8894206e-38 286 271
-0.03888192 0.67199999 -0.036525436 1.8894206e-38 287 271
-0.037703678 0.67199999 -0.036525436 1.8985676e-38 288 271
-0.036525436 0.67199999 -0.036525436 1.8985676e-38 289 271
-0.035347197 0.67199999 -0.036525436 1.8802361e-38 290 271
-0.034168959 0.67199999 -0.036525436 1.8710165e-38 291 271
-0.032941625 0.671 -0.036471087 1.8433948e-38 292 271
-0.031765141 0.671 -0.036471087 1.8341751e-38 293 271
-0.030543067 0.67000002 -0.036416732 1.806554e-38 294 271
-0.029236831 0.667 -0.036253672 1.788079e-38 295 271
-0.028067358 0.667 -0.036253672 1.760421e-38 296 271
-0.094609864 0.70999998 -0.039835732 1.3366867e-38 244 272
-0.093364999 0.70999998 -0.039835732 1.3366867e-38 245 272
-0.092120126 0.70999998 -0.039835732 1.373453e-38 246 272
-0.089125432 0.70599997 -0.039611302 1.3918178e-38 248 272
-0.087887585 0.70599997 -0.039611302 1.3825983e-38 249 272
-0.086649731 0.70599997 -0.039611302 1.3825617e-38 250 272
-0.084685996 0.69999999 -0.039274666 1.3825617e-38 251 272
-0.083100989 0.69700003 -0.039106347 1.4101478e-38 252 272
-0.081878915 0.69700003 -0.039106347 1.4285871e-38 253 272
-0.080193959 0.69300002 -0.03888192 1.4011801e-38 254 272
-0.078750968 0.69099998 -0.038769703 1.4749366e-38 255 272
-0.077539407 0.69099998 -0.038769703 1.4843359e-38 256 272
-0.075996481 0.68800002 -0.038601387 1.5304337e-38 257 272
-0.074790187 0.68800002 -0.038601387 1.6131204e-38 258 272
-0.073583893 0.68800002 -0.038601387 1.6131204e-38 259 272
-0.07227239 0.68699998 -0.038545277 1.6683291e-38 260 272
-0.070964411 0.68599999 -0.03848917 1.6867322e-38 261 272
-0.06955824 0.68400002 -0.038376961 1.7235034e-38 262 272
-0.068358958 0.68400002 -0.038376961 1.7327231e-38 263 272
-0.067061491 0.68300003 -0.038320854 1.7511272e-38 264 272
-0.065767527 0.68199998 -0.038264744 1.7603467e-38 265 272
-0.064571753 0.68199998 -0.038264744 1.760347e-38 266 272
-0.063097201 0.67900002 -0.038096428 1.7695666e-38 267 272
-0.061906695 0.67900002 -0.038096428 1.7971529e-38 268 272
-0.060716182 0.67900002 -0.038096428 1.7971529e-38 269 272
-0.059525665 0.67900002 -0.038096428 1.8064443e-38 270 272
-0.058249239 0.67799997 -0.038040318 1.8156638e-38 271 272
-0.056892153 0.676 -0.037928104 1.824919e-38 272 272
-0.055706903 0.676 -0.037928104 1.824919e-38 273 272
-0.054521654 0.676 -0.037928104 1.8341388e-38 274 272
-0.053336397 0.676 -0.037928104 1.8341388e-38 275 272
-0.052151144 0.676 -0.037928104 1.8433234e-38 276 272
-0.050965894 0.676 -0.037928104 1.8617266e-38 277 272
-0.049780637 0.676 -0.037928104 1.8341398e-38 278 272
-0.048595384 0.676 -0.037928104 1.8526149e-38 279 272
-0.047410134 0.676 -0.037928104 1.8800936e-38 280 272
-0.0461565 0.67500001 -0.037871998 1.8985325e-38 281 272
-0.044906374 0.67400002 -0.037815895 1.8985323e-38 282 272
-0.043594878 0.67199999 -0.037703678 1.9077518e-38 283 272
-0.042416636 0.67199999 -0.037703678 1.8986404e-38 284 272
-0.041238401 0.67199999 -0.037703678 1.8894209e-38 285 272
-0.040000543 0.671 -0.037647571 1.8894572e-38 286 272
-0.038824059 0.671 -0.037647571 1.8802376e-38 287 272
-0.037703678 0.67199999 -0.037703678 1.8986402e-38 288 272
-0.036471087 0.671 -0.037647571 1.8986402e-38 289 272
-0.0352946 0.671 -0.037647571 1.8895278e-38 290 272
-0.034118112 0.671 -0.037647571 1.8895278e-38 291 272
-0.032941625 0.671 -0.037647571 1.8986755e-38 292 272
-0.031765141 0.671 -0.037647571 1.8709809e-38 293 272
-0.030543067 0.67000002 -0.037591465 1.843502e-38 294 272
-0.029236831 0.667 -0.037423145 1.8250989e-38 295 272
-0.028067358 0.667 -0.037423145 1.8158436e-38 296 272
-0.027018867 0.67000002 -0.037591465 1.806624e-38 297 272
-0.025844134 0.67000002 -0.037591465 1.8341401e-38 298 272
-0.024669399 0.67000002 -0.037591465 1.8433598e-38 299 272
-0.023494666 0.67000002 -0.037591465 1.8157755e-38 300 272
-0.010477919 0.66399997 -0.037254825 1.8436936e-38 311 272
-0.0093137063 0.66399997 -0.037254825 1.8345113e-38 312 272
-0.0081494926 0.66399997 -0.037254825 1.8345113e-38 313 272
-0.08554513 0.69700003 -0.040328421 1.3825614e-38 250 273
-0.083100989 0.69700003 -0.040328421 1.3825261e-38 252 273
-0.081761435 0.69599998 -0.040270556 1.4101847e-38 253 273
-0.080193959 0.69300002 -0.04009698 1.4010731e-38 254 273
-0.078750968 0.69099998 -0.039981257 1.4379154e-38 255 273
-0.077427194 0.69 -0.0399234 1.4289462e-38 256 273
-0.075996481 0.68800002 -0.039807681 1.4658246e-38 257 273
-0.074790187 0.68800002 -0.039807681 1.5577679e-38 258 273
-0.073476933 0.68699998 -0.039749816 1.5762429e-38 259 273
-0.07227239 0.68699998 -0.039749816 1.6223757e-38 260 273
-0.070964411 0.68599999 -0.039691959 1.6315953e-38 261 273
-0.069456547 0.68300003 -0.039518382 1.6683293e-38 262 273
-0.068259016 0.68300003 -0.039518382 1.695952e-38 263 273
-0.067061491 0.68300003 -0.039518382 1.69599e-38 264 273
-0.065767527 0.68199998 -0.039460517 1.7236127e-38 265 273
-0.064382397 0.68000001 -0.039344799 1.7327256e-38 266 273
-0.063097201 0.67900002 -0.039286941 1.7327256e-38 267 273
-0.061906695 0.67900002 -0.039286941 1.7510921e-38 268 273
-0.060626756 0.67799997 -0.039229076 1.7603117e-38 269 273
-0.059437994 0.67799997 -0.039229076 1.7696029e-38 270 273
-0.058077414 0.676 -0.039113361 1.7788584e-38 271 273
-0.056892153 0.676 -0.039113361 1.7513083e-38 272 273
-0.0556245 0.67500001 -0.039055496 1.7513083e-38 273 273
-0.054441001 0.67500001 -0.039055496 1.7788594e-38 274 273
-0.053257499 0.67500001 -0.039055496 1.788079e-38 275 273
-0.052074 0.67500001 -0.039055496 1.7972988e-38 276 273
-0.050890498 0.67500001 -0.039055496 1.8065184e-38 277 273
-0.049633358 0.67400002 -0.038997639 1.8157384e-38 278 273
-0.048451614 0.67400002 -0.038997639 1.8249579e-38 279 273
-0.047129598 0.67199999 -0.03888192 1.8433248e-38 280 273
-0.045951359 0.67199999 -0.03888192 1.8525443e-38 281 273
-0.044773117 0.67199999 -0.03888192 1.8617992e-38 282 273
-0.043530006 0.671 -0.038824059 1.8617992e-38 283 273
-0.042353518 0.671 -0.038824059 1.8617992e-38 284 273
-0.041115668 0.67000002 -0.038766202 1.8802023e-38 285 273
-0.039940935 0.67000002 -0.038766202 1.8618708e-38 286 273
-0.038766202 0.67000002 -0.038766202 1.8618708e-38 287 273
-0.037591465 0.67000002 -0.038766202 1.8802373e-38 288 273
-0.036471087 0.671 -0.038824059 1.8894928e-38 289 273
-0.0352946 0.671 -0.038824059 1.8894922e-38 290 273
-0.034067266 0.67000002 -0.038766202 1.8802726e-38 291 273
-0.032892533 0.67000002 -0.038766202 1.8894912e-38 292 273
-0.031765141 0.671 -0.038824059 1.8802358e-38 293 273
-0.030543067 0.67000002 -0.038766202 1.8802711e-38 294 273
-0.029280664 0.66799998 -0.038650475 1.8710515e-38 295 273
-0.028109439 0.66799998 -0.038650475 1.8802714e-38 296 273
-0.026938211 0.66799998 -0.038650475 1.8802714e-38 297 273
-0.025766984 0.66799998 -0.038650475 1.8802364e-38 298 273
-0.02459576 0.66799998 -0.038650475 1.8802364e-38 299 273
-0.023389466 0.667 -0.038592618 1.8709812e-38 300 273
-0.022219993 0.667 -0.038592618 1.8617616e-38 301 273
-0.011642133 0.66399997 -0.038419038 1.7973386e-38 310 273
-0.01046214 0.66299999 -0.038361177 1.8065582e-38 311 273
-0.0092996797 0.66299999 -0.038361177 1.7883015e-38 312 273
-0.0081372196 0.66299999 -0.038361177 1.8159961e-38 313 273
-0.0069852793 0.66399997 -0.038419038 1.7884112e-38 314 273
-0.0058210664 0.66399997 -0.038419038 1.8068864e-38 315 273
-0.0046568532 0.66399997 -0.038419038 1.8252549e-38 316 273
0.0550722 0.69800001 -0.040386278 1.7329516e-38 365 273
0.056296028 0.69800001 -0.040386278 1.5761079e-38 366 273
0.057519849 0.69800001 -0.040386278 1.1981058e-38 367 273
0.058743682 0.69800001 -0.040386278 9.0448603e-39 368 273
-0.083220214 0.69800001 -0.041610107 1.3734137e-38 252 274
-0.081761435 0.69599998 -0.041490879 1.3641942e-38 253 274
-0.079962514 0.69099998 -0.041192811 1.4009282e-38 254 274
-0.078750968 0.69099998 -0.041192811 1.4193674e-38 255 274
-0.077427194 0.69 -0.041133199 1.428659e-38 256 274
-0.075996481 0.68800002 -0.041013971 1.447134e-38 257 274
-0.074790187 0.68800002 -0.041013971 1.4472406e-38 258 274
-0.073476933 0.68699998 -0.040954359 1.4656797e-38 259 274
-0.072167195 0.68599999 -0.040894743 1.5118126e-38 260 274
-0.070964411 0.68599999 -0.040894743 1.5487268e-38 261 274
-0.069456547 0.68300003 -0.040715907 1.6314151e-38 262 274
-0.068259016 0.68300003 -0.040715907 1.6498543e-38 263 274
-0.0669633 0.68199998 -0.040656291 1.6682584e-38 264 274
-0.065574668 0.68000001 -0.040537067 1.6866974e-38 265 274
-0.064287722 0.67900002 -0.040477451 1.7233606e-38 266 274
-0.063004278 0.67799997 -0.040417835 1.732616e-38 267 274
-0.061815511 0.67799997 -0.040417835 1.7234327e-38 268 274
-0.06044792 0.676 -0.040298611 1.7326524e-38 269 274
-0.059262663 0.676 -0.040298611 1.741872e-38 270 274
-0.057991501 0.67500001 -0.040238999 1.741872e-38 271 274
-0.056723841 0.67400002 -0.040179387 1.7511635e-38 272 274
-0.055542093 0.67400002 -0.040179387 1.7511635e-38 273 274
-0.054360349 0.67400002 -0.040179387 1.7604189e-38 274 274
-0.053178601 0.67400002 -0.040179387 1.7696385e-38 275 274
-0.051996857 0.67400002 -0.040179387 1.7971897e-38 276 274
-0.050815105 0.67400002 -0.040179387 1.8064092e-38 277 274
-0.049633358 0.67400002 -0.040179387 1.797262e-38 278 274
-0.04830784 0.67199999 -0.040060159 1.815701e-38 279 274
-0.047129598 0.67199999 -0.040060159 1.8431799e-38 280 274
-0.045882981 0.671 -0.040000543 1.861619e-38 281 274
-0.044706494 0.671 -0.040000543 1.8616543e-38 282 274
-0.043530006 0.671 -0.040000543 1.870874e-38 283 274
-0.042290401 0.67000002 -0.039940935 1.8526144e-38 284 274
-0.040992931 0.66799998 -0.039821707 1.8526144e-38 285 274
-0.039821707 0.66799998 -0.039821707 1.8801657e-38 286 274
-0.038650475 0.66799998 -0.039821707 1.8801657e-38 287 274
-0.037479252 0.66799998 -0.039821707 1.8618345e-38 288 274
-0.036308024 0.66799998 -0.039821707 1.8618345e-38 289 274
-0.035136797 0.66799998 -0.039821707 1.8986049e-38 290 274
-0.033965573 0.66799998 -0.039821707 1.8893853e-38 291 274
-0.032794341 0.66799998 -0.039821707 1.9077168e-38 292 274
-0.031623118 0.66799998 -0.039821707 1.9077168e-38 293 274
-0.030451892 0.66799998 -0.039821707 1.8894209e-38 294 274
-0.029280664 0.66799998 -0.039821707 1.8801654e-38 295 274
-0.028109439 0.66799998 -0.039821707 1.8894206e-38 296 274
-0.026938211 0.66799998 -0.039821707 1.8894206e-38 297 274
-0.025728412 0.667 -0.039762091 1.8802373e-38 298 274
-0.024558939 0.667 -0.039762091 1.8802373e-38 299 274
-0.023389466 0.667 -0.039762091 1.8894206e-38 300 274
-0.02218668 0.66600001 -0.039702479 1.8894206e-38 301 274
-0.020955838 0.66399997 -0.039583251 1.8802726e-38 302 274
-0.019791625 0.66399997 -0.039583251 1.8802726e-38 303 274
-0.01392848 0.662 -0.039464023 1.8342853e-38 308 274
-0.012767773 0.662 -0.039464023 1.8435048e-38 309 274
-0.011607066 0.662 -0.039464023 1.8435064e-38 310 274
-0.01046214 0.66299999 -0.039523639 1.8435064e-38 311 274
-0.0092996797 0.66299999 -0.039523639 1.8158849e-38 312 274
-0.0081372196 0.66299999 -0.039523639 1.7974099e-38 313 274
-0.0069747595 0.66299999 -0.039523639 1.7973386e-38 314 274
-0.0058122999 0.66299999 -0.039523639 1.7881191e-38 315 274
-0.0046498398 0.66299999 -0.039523639 1.7880835e-38 316 274
-0.0034873798 0.66299999 -0.039523639 1.7696442e-38 317 274
-0.0023249199 0.66299999 -0.039523639 1.7787568e-38 318 274
-0.00116772 0.66600001 -0.039702479 1.8063797e-38 319 274
0.053848371 0.69800001 -0.041610107 1.428163e-38 364 274
0.0550722 0.69800001 -0.041610107 1.2253325e-38 365 274
0.056296028 0.69800001 -0.041610107 1.0688875e-38 366 274
0.057519849 0.69800001 -0.041610107 1.0227897e-38 367 274
0.058743682 0.69800001 -0.041610107 9.7752353e-39 368 274
0.059967503 0.69800001 -0.041610107 1.1434757e-38 369 274
-0.082981758 0.69599998 -0.042711195 1.3734137e-38 252 275
-0.081761435 0.69599998 -0.042711195 1.3734137e-38 253 275
-0.079962514 0.69099998 -0.042404365 1.3734137e-38 254 275
-0.078750968 0.69099998 -0.042404365 1.3826333e-38 255 275
-0.077427194 0.69 -0.042342998 1.3918178e-38 256 275
-0.075996481 0.68800002 -0.042220265 1.4102571e-38 257 275
-0.074681476 0.68699998 -0.042158898 1.4103996e-38 258 275
-0.073369987 0.68599999 -0.042097531 1.4011801e-38 259 275
-0.072167195 0.68599999 -0.042097531 1.4564952e-38 260 275
-0.070757523 0.68400002 -0.041974798 1.4841899e-38 261 275
-0.069456547 0.68300003 -0.041913435 1.576098e-38 262 275
-0.068259016 0.68300003 -0.041913435 1.6221599e-38 263 275
-0.0669633 0.68199998 -0.041852064 1.6130854e-38 264 275
-0.065574668 0.68000001 -0.041729335 1.6223051e-38 265 275
-0.064287722 0.67900002 -0.041667968 1.6589685e-38 266 275
-0.063004278 0.67799997 -0.041606598 1.6866271e-38 267 275
-0.061815511 0.67799997 -0.041606598 1.6865915e-38 268 275
-0.06044792 0.676 -0.041483864 1.695811e-38 269 275
-0.059175 0.67500001 -0.041422497 1.6866994e-38 270 275
-0.057991501 0.67500001 -0.041422497 1.6866994e-38 271 275
-0.056723841 0.67400002 -0.041361131 1.695955e-38 272 275
-0.055542093 0.67400002 -0.041361131 1.695955e-38 273 275
-0.054360349 0.67400002 -0.041361131 1.7052464e-38 274 275
-0.053178601 0.67400002 -0.041361131 1.7052464e-38 275 275
-0.051842555 0.67199999 -0.041238401 1.7511284e-38 276 275
-0.050664317 0.67199999 -0.041238401 1.760348e-38 277 275
-0.049486078 0.67199999 -0.041238401 1.7419817e-38 278 275
-0.04830784 0.67199999 -0.041238401 1.760421e-38 279 275
-0.047059465 0.671 -0.041177034 1.77886e-38 280 275
-0.045882981 0.671 -0.041177034 1.7880795e-38 281 275
-0.044639867 0.67000002 -0.041115668 1.8156654e-38 282 275
-0.043465134 0.67000002 -0.041115668 1.8248849e-38 283 275
-0.042164158 0.66799998 -0.040992931 1.8065893e-38 284 275
-0.040931564 0.667 -0.040931564 1.8158089e-38 285 275
-0.039762091 0.667 -0.040931564 1.8433601e-38 286 275
-0.038592618 0.667 -0.040931564 1.8341404e-38 287 275
-0.037423145 0.667 -0.040931564 1.8250288e-38 288 275
-0.036253672 0.667 -0.040931564 1.8250288e-38 289 275
-0.035031598 0.66600001 -0.040870197 1.8433964e-38 290 275
-0.03386388 0.66600001 -0.040870197 1.8526159e-38 291 275
-0.032696161 0.66600001 -0.040870197 1.8801307e-38 292 275
-0.03157578 0.667 -0.040931564 1.8801307e-38 293 275
-0.030406304 0.667 -0.040931564 1.8801657e-38 294 275
-0.029236831 0.667 -0.040931564 1.8801657e-38 295 275
-0.028067358 0.667 -0.040931564 1.8893853e-38 296 275
-0.026897885 0.667 -0.040931564 1.8893853e-38 297 275
-0.025728412 0.667 -0.040931564 1.8802376e-38 298 275
-0.024558939 0.667 -0.040931564 1.8802376e-38 299 275
-0.023389466 0.667 -0.040931564 1.8894206e-38 300 275
-0.02218668 0.66600001 -0.040870197 1.8894206e-38 301 275
-0.020955838 0.66399997 -0.040747464 1.9077518e-38 302 275
-0.019791625 0.66399997 -0.040747464 1.9077518e-38 303 275
-0.018627413 0.66399997 -0.040747464 1.8894206e-38 304 275
-0.0174632 0.66399997 -0.040747464 1.880201e-38 305 275
-0.015111978 0.66299999 -0.040686097 1.8802373e-38 307 275
-0.01392848 0.662 -0.04062473 1.8894221e-38 308 275
-0.012767773 0.662 -0.04062473 1.8894221e-38 309 275
-0.011607066 0.662 -0.04062473 1.8710926e-38 310 275
-0.01046214 0.66299999 -0.040686097 1.8526893e-38 311 275
-0.0092996797 0.66299999 -0.040686097 1.8434339e-38 312 275
-0.0081372196 0.66299999 -0.040686097 1.8434339e-38 313 275
-0.0069747595 0.66299999 -0.040686097 1.8433966e-38 314 275
-0.0058122999 0.66299999 -0.040686097 1.8157738e-38 315 275
-0.0046498398 0.66299999 -0.040686097 1.8065537e-38 316 275
-0.0034821199 0.662 -0.04062473 1.7973341e-38 317 275
-0.0023214133 0.662 -0.04062473 1.7973344e-38 318 275
-0.0011607066 0.662 -0.04062473 1.7973344e-38 319 275
0 0.662 -0.04062473 1.7973707e-38 320 275
0.0011589533 0.66100001 -0.040563367 1.7973707e-38 321 275
0.0023179066 0.66100001 -0.040563367 1.797336e-38 322 275
0.0081740404 0.66600001 -0.040870197 1.8067399e-38 327 275
0.048672531 0.69400001 -0.042588469 1.8069974e-38 360 275
0.049889345 0.69400001 -0.042588469 1.6687039e-38 361 275
0.051327083 0.69700003 -0.042772565 1.5387608e-38 362 275
0.052549154 0.69700003 -0.042772565 1.2529545e-38 363 275
0.053771228 0.69700003 -0.042772565 9.4899393e-39 364 275
0.0550722 0.69800001 -0.042833932 9.0289626e-39 365 275
0.056296028 0.69800001 -0.042833932 9.032243e-39 366 275
0.057519849 0.69800001 -0.042833932 1.0415177e-38 367 275
0.058743682 0.69800001 -0.042833932 1.0508857e-38 368 275
0.059967503 0.69800001 -0.042833932 1.1430813e-38 369 275
0.061191335 0.69800001 -0.042833932 1.410702e-38 370 275
-0.084444039 0.69800001 -0.04405776 1.3733431e-38 251 276
-0.083220214 0.69800001 -0.04405776 1.3550469e-38 252 276
-0.081878915 0.69700003 -0.043994639 1.3550469e-38 253 276
-0.080309682 0.69400001 -0.043805279 1.3734137e-38 254 276
-0.078750968 0.69099998 -0.043615919 1.3734137e-38 255 276
-0.077427194 0.69 -0.043552797 1.3825614e-38 256 276
-0.075996481 0.68800002 -0.043426562 1.391781e-38 257 276
-0.074681476 0.68699998 -0.043363437 1.4194027e-38 258 276
-0.073369987 0.68599999 -0.043300316 1.4101831e-38 259 276
-0.071956798 0.68400002 -0.043174081 1.3827034e-38 260 276
-0.070757523 0.68400002 -0.043174081 1.4103981e-38 261 276
-0.069456547 0.68300003 -0.043110959 1.4747917e-38 262 276
-0.068159081 0.68199998 -0.043047838 1.5117059e-38 263 276
-0.0669633 0.68199998 -0.043047838 1.5485131e-38 264 276
-0.065574668 0.68000001 -0.042921599 1.5762078e-38 265 276
-0.064287722 0.67900002 -0.042858478 1.6405646e-38 266 276
-0.063004278 0.67799997 -0.042795356 1.6590038e-38 267 276
-0.061633173 0.676 -0.042669121 1.6681155e-38 268 276
-0.060358498 0.67500001 -0.042606 1.6773351e-38 269 276
-0.059175 0.67500001 -0.042606 1.6865546e-38 270 276
-0.057905588 0.67400002 -0.042542879 1.6958101e-38 271 276
-0.056555521 0.67199999 -0.042416636 1.6682956e-38 272 276
-0.055377278 0.67199999 -0.042416636 1.6682956e-38 273 276
-0.054199036 0.67199999 -0.042416636 1.6958466e-38 274 276
-0.053020798 0.67199999 -0.042416636 1.6958466e-38 275 276
-0.051842555 0.67199999 -0.042416636 1.7326177e-38 276 276
-0.050588924 0.671 -0.042353518 1.7418373e-38 277 276
-0.049412437 0.671 -0.042353518 1.7143228e-38 278 276
-0.048235953 0.671 -0.042353518 1.7327619e-38 279 276
-0.046849065 0.66799998 -0.042164158 1.7511287e-38 280 276
-0.045677837 0.66799998 -0.042164158 1.7603483e-38 281 276
-0.044506609 0.66799998 -0.042164158 1.7511637e-38 282 276
-0.043335386 0.66799998 -0.042164158 1.7788584e-38 283 276
-0.042101037 0.667 -0.042101037 1.7880777e-38 284 276
-0.040931564 0.667 -0.042101037 1.7972973e-38 285 276
-0.039762091 0.667 -0.042101037 1.7973339e-38 286 276
-0.038592618 0.667 -0.042101037 1.7973339e-38 287 276
-0.037423145 0.667 -0.042101037 1.815701e-38 288 276
-0.03619932 0.66600001 -0.042037919 1.815701e-38 289 276
-0.035031598 0.66600001 -0.042037919 1.8158453e-38 290 276
-0.03386388 0.66600001 -0.042037919 1.8158453e-38 291 276
-0.032696161 0.66600001 -0.042037919 1.8616916e-38 292 276
-0.031528439 0.66600001 -0.042037919 1.8709111e-38 293 276
-0.030360719 0.66600001 -0.042037919 1.8525796e-38 294 276
-0.029192999 0.66600001 -0.042037919 1.8525796e-38 295 276
-0.028025279 0.66600001 -0.042037919 1.8709111e-38 296 276
-0.026897885 0.667 -0.042101037 1.8801307e-38 297 276
-0.025728412 0.667 -0.042101037 1.8617989e-38 298 276
-0.02452212 0.66600001 -0.042037919 1.8802379e-38 299 276
-0.023354398 0.66600001 -0.042037919 1.8893853e-38 300 276
-0.02218668 0.66600001 -0.042037919 1.8893853e-38 301 276
-0.02086116 0.66100001 -0.04172232 1.8801304e-38 302 276
-0.019702207 0.66100001 -0.04172232 1.88935e-38 303 276
-0.018543253 0.66100001 -0.04172232 1.8802026e-38 304 276
-0.0173843 0.66100001 -0.04172232 1.8802026e-38 305 276
-0.016225345 0.66100001 -0.04172232 1.8802026e-38 306 276
-0.015066394 0.66100001 -0.04172232 1.8894221e-38 307 276
-0.01390744 0.66100001 -0.04172232 1.8801673e-38 308 276
-0.012767773 0.662 -0.041785441 1.8893868e-38 309 276
-0.011607066 0.662 -0.041785441 1.8618005e-38 310 276
-0.01044636 0.662 -0.041785441 1.8618005e-38 311 276
-0.009285653 0.662 -0.041785441 1.8618005e-38 312 276
-0.0081249457 0.662 -0.041785441 1.8618005e-38 313 276
-0.0069642398 0.662 -0.041785441 1.8617639e-38 314 276
-0.0058035329 0.662 -0.041785441 1.8617639e-38 315 276
-0.0046358132 0.66100001 -0.04172232 1.8618711e-38 316 276
-0.00347686 0.66100001 -0.04172232 1.8526515e-38 317 276
-0.0023179066 0.66100001 -0.04172232 1.8526159e-38 318 276
-0.0011589533 0.66100001 -0.04172232 1.8526159e-38 319 276
0 0.66100001 -0.04172232 1.8342847e-38 320 276
0.0011589533 0.66100001 -0.04172232 1.8342847e-38 321 276
0.0023179066 0.66100001 -0.04172232 1.8526165e-38 322 276
0.00347686 0.66100001 -0.04172232 1.8526165e-38 323 276
0.0046428265 0.662 -0.041785441 1.8342146e-38 324 276
0.0058385995 0.66600001 -0.042037919 1.8249951e-38 325 276
0.0070063197 0.66600001 -0.042037919 1.8065935e-38 326 276
0.0081740404 0.66600001 -0.042037919 1.8342162e-38 327 276
0.0093417596 0.66600001 -0.042037919 1.8065945e-38 328 276
0.047250576 0.69099998 -0.043615919 1.7979946e-38 359 276
0.048672531 0.69400001 -0.043805279 1.6224601e-38 360 276
0.049889345 0.69400001 -0.043805279 1.3827154e-38 361 276
0.051106159 0.69400001 -0.043805279 1.0866796e-38 362 276
0.052549154 0.69700003 -0.043994639 7.7325037e-39 363 276
0.053771228 0.69700003 -0.043994639 4.9734661e-39 364 276
0.0550722 0.69800001 -0.04405776 5.8032268e-39 365 276
0.056296028 0.69800001 -0.04405776 6.6376916e-39 366 276
0.05768466 0.69999999 -0.044183996 9.2191678e-39 367 276
0.058911994 0.69999999 -0.044183996 1.0690352e-38 368 276
0.059967503 0.69800001 -0.04405776 1.115169e-38 369 276
0.061191335 0.69800001 -0.04405776 1.3736053e-38 370 276
-0.083220214 0.69800001 -0.045281585 1.3550472e-38 252 277
-0.081878915 0.69700003 -0.045216713 1.3550472e-38 253 277
-0.080309682 0.69400001 -0.045022093 1.3550469e-38 254 277
-0.078750968 0.69099998 -0.044827472 1.3550469e-38 255 277
-0.077427194 0.69 -0.0447626 1.3550472e-38 256 277
-0.075996481 0.68800002 -0.044632856 1.3458276e-38 257 277
-0.074681476 0.68699998 -0.044567976 1.3734137e-38 258 277
-0.073369987 0.68599999 -0.044503104 1.3734137e-38 259 277
-0.071956798 0.68400002 -0.04437336 1.3642292e-38 260 277
-0.070654072 0.68300003 -0.044308487 1.3734488e-38 261 277
-0.069456547 0.68300003 -0.044308487 1.3919598e-38 262 277
-0.068159081 0.68199998 -0.044243611 1.4196545e-38 263 277
-0.066766933 0.68000001 -0.044113863 1.4563535e-38 264 277
-0.065478235 0.67900002 -0.044048995 1.4931959e-38 265 277
-0.064287722 0.67900002 -0.044048995 1.5117425e-38 266 277
-0.063004278 0.67799997 -0.043984115 1.5301816e-38 267 277
-0.061633173 0.676 -0.043854371 1.5760643e-38 268 277
-0.060358498 0.67500001 -0.043789499 1.5945035e-38 269 277
-0.059175 0.67500001 -0.043789499 1.6312741e-38 270 277
-0.057905588 0.67400002 -0.043724626 1.6497492e-38 271 277
-0.056555521 0.67199999 -0.043594878 1.6498564e-38 272 277
-0.055377278 0.67199999 -0.043594878 1.6498564e-38 273 277
-0.054199036 0.67199999 -0.043594878 1.659076e-38 274 277
-0.053020798 0.67199999 -0.043594878 1.659076e-38 275 277
-0.051765412 0.671 -0.043530006 1.6957748e-38 276 277
-0.050588924 0.671 -0.043530006 1.7049943e-38 277 277
-0.049338799 0.67000002 -0.043465134 1.7050665e-38 278 277
-0.048164066 0.67000002 -0.043465134 1.7142862e-38 279 277
-0.046849065 0.66799998 -0.043335386 1.7142862e-38 280 277
-0.045609459 0.667 -0.04327051 1.7327253e-38 281 277
-0.044439986 0.667 -0.04327051 1.7235411e-38 282 277
-0.04327051 0.667 -0.04327051 1.7511637e-38 283 277
-0.042101037 0.667 -0.04327051 1.7603833e-38 284 277
-0.040870197 0.66600001 -0.043205637 1.7696029e-38 285 277
-0.039702479 0.66600001 -0.043205637 1.7512719e-38 286 277
-0.03853476 0.66600001 -0.043205637 1.7604916e-38 287 277
-0.037367038 0.66600001 -0.043205637 1.7788584e-38 288 277
-0.03619932 0.66600001 -0.043205637 1.788078e-38 289 277
-0.035031598 0.66600001 -0.043205637 1.7788947e-38 290 277
-0.03386388 0.66600001 -0.043205637 1.7788947e-38 291 277
-0.03259797 0.66399997 -0.043075889 1.788043e-38 292 277
-0.031433757 0.66399997 -0.043075889 1.8156656e-38 293 277
-0.030360719 0.66600001 -0.043205637 1.7973344e-38 294 277
-0.029192999 0.66600001 -0.043205637 1.806554e-38 295 277
-0.028025279 0.66600001 -0.043205637 1.8340329e-38 296 277
-0.026857559 0.66600001 -0.043205637 1.8432524e-38 297 277
-0.025535546 0.662 -0.042946145 1.8433598e-38 298 277
-0.024374841 0.662 -0.042946145 1.8433598e-38 299 277
-0.023214132 0.662 -0.042946145 1.8525796e-38 300 277
-0.022053426 0.662 -0.042946145 1.8525796e-38 301 277
-0.02086116 0.66100001 -0.042881273 1.852544e-38 302 277
-0.019642593 0.65899998 -0.042751525 1.8617995e-38 303 277
-0.018487146 0.65899998 -0.042751525 1.8617995e-38 304 277
-0.017331699 0.65899998 -0.042751525 1.8617995e-38 305 277
-0.016176252 0.65899998 -0.042751525 1.8617639e-38 306 277
-0.015066394 0.66100001 -0.042881273 1.880167e-38 307 277
-0.01390744 0.66100001 -0.042881273 1.8617286e-38 308 277
-0.012748486 0.66100001 -0.042881273 1.8617286e-38 309 277
-0.011589534 0.66100001 -0.042881273 1.8617286e-38 310 277
-0.01043058 0.66100001 -0.042881273 1.852509e-38 311 277
-0.0092716264 0.66100001 -0.042881273 1.8526162e-38 312 277
-0.0081126727 0.66100001 -0.042881273 1.8526162e-38 313 277
-0.00695372 0.66100001 -0.042881273 1.8526159e-38 314 277
-0.0057947668 0.66100001 -0.042881273 1.8526159e-38 315 277
-0.0046358132 0.66100001 -0.042881273 1.8618358e-38 316 277
-0.00347686 0.66100001 -0.042881273 1.8618358e-38 317 277
-0.0023179066 0.66100001 -0.042881273 1.8526165e-38 318 277
-0.0011589533 0.66100001 -0.042881273 1.8526165e-38 319 277
0 0.66100001 -0.042881273 1.8342853e-38 320 277
0.0011554466 0.65899998 -0.042751525 1.8250298e-38 321 277
0.0023108933 0.65899998 -0.042751525 1.8525443e-38 322 277
0.00347686 0.66100001 -0.042881273 1.8525443e-38 323 277
0.0046428265 0.662 -0.042946145 1.8433969e-38 324 277
0.0058210664 0.66399997 -0.043075889 1.8249579e-38 325 277
0.0069852793 0.66399997 -0.043075889 1.8157752e-38 326 277
0.0081372196 0.66299999 -0.043011017 1.8249948e-38 327 277
0.0092716264 0.66100001 -0.042881273 1.7974087e-38 328 277
0.01043058 0.66100001 -0.042881273 1.7974087e-38 329 277
0.011589534 0.66100001 -0.042881273 1.8065201e-38 330 277
0.046039023 0.69099998 -0.044827472 1.7424952e-38 358 277
0.047250576 0.69099998 -0.044827472 1.5673595e-38 359 277
0.048672531 0.69400001 -0.045022093 1.2166523e-38 360 277
0.049889345 0.69400001 -0.045022093 9.9538266e-39 361 277
0.051106159 0.69400001 -0.045022093 6.8116236e-39 362 277
0.052549154 0.69700003 -0.045216713 5.7971157e-39 363 277
0.053771228 0.69700003 -0.045216713 4.6997869e-39 364 277
0.0550722 0.69800001 -0.045281585 5.0689295e-39 365 277
0.056296028 0.69800001 -0.045281585 4.9785444e-39 366 277
0.05768466 0.69999999 -0.04541133 7.7444147e-39 367 277
0.058911994 0.69999999 -0.04541133 9.9542217e-39 368 277
0.059967503 0.69800001 -0.045281585 1.1060211e-38 369 277
0.061191335 0.69800001 -0.045281585 1.4561499e-38 370 277
-0.083100989 0.69700003 -0.046438783 1.3366809e-38 252 278
-0.081878915 0.69700003 -0.046438783 1.3366809e-38 253 278
-0.080309682 0.69400001 -0.046238903 1.3550472e-38 254 278
-0.078750968 0.69099998 -0.046039023 1.3550472e-38 255 278
-0.077427194 0.69 -0.045972396 1.3734137e-38 256 278
-0.075996481 0.68800002 -0.045839146 1.3641942e-38 257 278
-0.074681476 0.68699998 -0.045772515 1.3733772e-38 258 278
-0.073369987 0.68599999 -0.045705888 1.3733772e-38 259 278
-0.071956798 0.68400002 -0.045572639 1.3642295e-38 260 278
-0.070654072 0.68300003 -0.045506012 1.3642295e-38 261 278
-0.069456547 0.68300003 -0.045506012 1.3643021e-38 262 278
-0.068159081 0.68199998 -0.045439381 1.3735216e-38 263 278
-0.066766933 0.68000001 -0.045306131 1.3919605e-38 264 278
-0.065478235 0.67900002 -0.045239504 1.4011801e-38 265 278
-0.064287722 0.67900002 -0.045239504 1.4654652e-38 266 278
-0.063004278 0.67799997 -0.045172878 1.4839043e-38 267 278
-0.061633173 0.676 -0.045039624 1.4840492e-38 268 278
-0.060358498 0.67500001 -0.044972997 1.5024523e-38 269 278
-0.059087332 0.67400002 -0.044906374 1.5484782e-38 270 278
-0.057733759 0.67199999 -0.044773117 1.5669174e-38 271 278
-0.056555521 0.67199999 -0.044773117 1.6129782e-38 272 278
-0.055377278 0.67199999 -0.044773117 1.6221978e-38 273 278
-0.054118387 0.671 -0.044706494 1.6498562e-38 274 278
-0.052941896 0.671 -0.044706494 1.6498562e-38 275 278
-0.051765412 0.671 -0.044706494 1.659076e-38 276 278
-0.050513536 0.67000002 -0.044639867 1.6682956e-38 277 278
-0.04919152 0.66799998 -0.044506609 1.6866271e-38 278 278
-0.048020288 0.66799998 -0.044506609 1.6958466e-38 279 278
-0.046778932 0.667 -0.044439986 1.6958116e-38 280 278
-0.045609459 0.667 -0.044439986 1.7050313e-38 281 278
-0.04437336 0.66600001 -0.04437336 1.6959194e-38 282 278
-0.043205637 0.66600001 -0.04437336 1.7143225e-38 283 278
-0.042037919 0.66600001 -0.04437336 1.6960631e-38 284 278
-0.040870197 0.66600001 -0.04437336 1.6960631e-38 285 278
-0.039702479 0.66600001 -0.04437336 1.7052111e-38 286 278
-0.03853476 0.66600001 -0.04437336 1.7144307e-38 287 278
-0.037367038 0.66600001 -0.04437336 1.7511284e-38 288 278
-0.036090612 0.66399997 -0.044240102 1.7511284e-38 289 278
-0.0349264 0.66399997 -0.044240102 1.7144309e-38 290 278
-0.033762183 0.66399997 -0.044240102 1.7328341e-38 291 278
-0.03259797 0.66399997 -0.044240102 1.7510934e-38 292 278
-0.031433757 0.66399997 -0.044240102 1.7695327e-38 293 278
-0.030269546 0.66399997 -0.044240102 1.7788231e-38 294 278
-0.02910533 0.66399997 -0.044240102 1.7880427e-38 295 278
-0.027856959 0.662 -0.044106852 1.7697483e-38 296 278
-0.026696252 0.662 -0.044106852 1.7789679e-38 297 278
-0.025535546 0.662 -0.044106852 1.7790045e-38 298 278
-0.024374841 0.662 -0.044106852 1.7697849e-38 299 278
-0.023214132 0.662 -0.044106852 1.7882239e-38 300 278
-0.022053426 0.662 -0.044106852 1.7882239e-38 301 278
-0.020798039 0.65899998 -0.043906972 1.8157738e-38 302 278
-0.019642593 0.65899998 -0.043906972 1.8249935e-38 303 278
-0.018487146 0.65899998 -0.043906972 1.8433964e-38 304 278
-0.017331699 0.65899998 -0.043906972 1.8433964e-38 305 278
-0.016176252 0.65899998 -0.043906972 1.8250301e-38 306 278
-0.015020805 0.65899998 -0.043906972 1.8342497e-38 307 278
-0.013865359 0.65899998 -0.043906972 1.8249951e-38 308 278
-0.012709912 0.65899998 -0.043906972 1.8157755e-38 309 278
-0.011554466 0.65899998 -0.043906972 1.8249585e-38 310 278
-0.010399019 0.65899998 -0.043906972 1.8433616e-38 311 278
-0.0092716264 0.66100001 -0.044040225 1.8250298e-38 312 278
-0.0081126727 0.66100001 -0.044040225 1.8250298e-38 313 278
-0.00695372 0.66100001 -0.044040225 1.8342497e-38 314 278
-0.0057772328 0.65899998 -0.043906972 1.8250301e-38 315 278
-0.0046217865 0.65899998 -0.043906972 1.8342144e-38 316 278
-0.0034663398 0.65899998 -0.043906972 1.8342144e-38 317 278
-0.0023108933 0.65899998 -0.043906972 1.8249948e-38 318 278
-0.0011554466 0.65899998 -0.043906972 1.8342144e-38 319 278
0 0.65899998 -0.043906972 1.8249948e-38 320 278
0.0011554466 0.65899998 -0.043906972 1.8157752e-38 321 278
0.0023108933 0.65899998 -0.043906972 1.8249585e-38 322 278
0.0034663398 0.65899998 -0.043906972 1.8249585e-38 323 278
0.0046358132 0.66100001 -0.044040225 1.8157749e-38 324 278
0.0057947668 0.66100001 -0.044040225 1.8065554e-38 325 278
0.0069642398 0.662 -0.044106852 1.8065201e-38 326 278
0.0081249457 0.662 -0.044106852 1.8065201e-38 327 278
0.0092716264 0.66100001 -0.044040225 1.7881535e-38 328 278
0.01043058 0.66100001 -0.044040225 1.7881535e-38 329 278
