# .PCD v.7 - Point Cloud Data file format
FIELDS x y z rgb imX imY
SIZE 4 4 4 4 4 4
TYPE F F F F F F
COUNT 1 1 1 1 1 1
WIDTH 837
HEIGHT 1
VIEWPOINT 0 0 0 1 0 0 0
POINTS 837
DATA ascii
0.086395502 0.67500001 -0.097047001 1.3269592e-38 393 322
0.087708741 0.676 -0.097190768 1.2809335e-38 394 322
0.089288503 0.67900002 -0.097622089 1.2256163e-38 395 322
0.090612262 0.68000001 -0.09776587 1.161296e-38 396 322
0.091804534 0.68000001 -0.09776587 1.142821e-38 397 322
0.093270317 0.68199998 -0.098053411 1.004674e-38 398 322
0.09446609 0.68199998 -0.098053411 1.004674e-38 399 322
0.095661856 0.68199998 -0.098053411 1.392008e-38 400 322
-0.078295097 0.68699998 -0.099976815 1.3363675e-38 255 323
-0.076978341 0.68599999 -0.099831291 1.2717182e-38 256 323
-0.075775556 0.68599999 -0.099831291 1.2624627e-38 257 323
-0.074355356 0.68400002 -0.099540241 1.2993377e-38 258 323
-0.073049128 0.68300003 -0.099394716 1.2993377e-38 259 323
-0.071746394 0.68199998 -0.099249184 1.2995166e-38 260 323
-0.070343733 0.68000001 -0.098958135 1.3179557e-38 261 323
-0.069049768 0.67900002 -0.09881261 1.3365024e-38 262 323
-0.067559443 0.676 -0.098376028 1.3918198e-38 263 323
-0.066374183 0.676 -0.098376028 1.4195491e-38 264 323
-0.065092497 0.67500001 -0.098230496 1.4656111e-38 265 323
-0.063909002 0.67500001 -0.098230496 1.5390792e-38 266 323
-0.062632568 0.67400002 -0.098084971 1.5759574e-38 267 323
-0.061450824 0.67400002 -0.098084971 1.5576262e-38 268 323
-0.060090236 0.67199999 -0.097793922 1.5760293e-38 269 323
-0.058824331 0.671 -0.09764839 1.5852489e-38 270 323
-0.057647847 0.671 -0.09764839 1.5944684e-38 271 323
-0.056387197 0.67000002 -0.097502865 1.603688e-38 272 323
-0.055212468 0.67000002 -0.097502865 1.603688e-38 273 323
-0.053876422 0.66799998 -0.097211808 1.6219842e-38 274 323
-0.052626297 0.667 -0.097066283 1.6404593e-38 275 323
-0.051456824 0.667 -0.097066283 1.6588982e-38 276 323
-0.050211959 0.66600001 -0.096920758 1.6865567e-38 277 323
-0.04904424 0.66600001 -0.096920758 1.7049237e-38 278 323
-0.047876518 0.66600001 -0.096920758 1.7233628e-38 279 323
-0.046708796 0.66600001 -0.096920758 1.7417303e-38 280 323
-0.045541082 0.66600001 -0.096920758 1.769353e-38 281 323
-0.044240102 0.66399997 -0.096629702 1.7510215e-38 282 323
-0.043075889 0.66399997 -0.096629702 1.7602411e-38 283 323
-0.041848559 0.66299999 -0.096484177 1.7694609e-38 284 323
-0.040686097 0.66299999 -0.096484177 1.7970837e-38 285 323
-0.039523639 0.66299999 -0.096484177 1.7787525e-38 286 323
-0.038361177 0.66299999 -0.096484177 1.7879721e-38 287 323
-0.037198719 0.66299999 -0.096484177 1.824778e-38 288 323
-0.035981905 0.662 -0.096338652 1.824778e-38 289 323
-0.034821201 0.662 -0.096338652 1.8799159e-38 290 323
-0.033660494 0.662 -0.096338652 1.8799159e-38 291 323
-0.032499783 0.662 -0.096338652 1.8707689e-38 292 323
-0.031339079 0.662 -0.096338652 1.8707689e-38 293 323
-0.030178372 0.662 -0.096338652 1.8707686e-38 294 323
-0.029017664 0.662 -0.096338652 1.8799882e-38 295 323
-0.02781488 0.66100001 -0.096193127 1.8799882e-38 296 323
-0.026575271 0.65899998 -0.09590207 1.8799882e-38 297 323
-0.025419824 0.65899998 -0.09590207 1.8708405e-38 298 323
-0.024264378 0.65899998 -0.09590207 1.8708405e-38 299 323
-0.023108931 0.65899998 -0.09590207 1.8800235e-38 300 323
-0.021953486 0.65899998 -0.09590207 1.8800235e-38 301 323
-0.02086116 0.66100001 -0.096193127 1.8800588e-38 302 323
-0.019702207 0.66100001 -0.096193127 1.8800588e-38 303 323
-0.018543253 0.66100001 -0.096193127 1.9076452e-38 304 323
-0.0173843 0.66100001 -0.096193127 1.9076452e-38 305 323
-0.016225345 0.66100001 -0.096193127 1.8984616e-38 306 323
-0.015066394 0.66100001 -0.096193127 1.8984616e-38 307 323
-0.01390744 0.66100001 -0.096193127 1.8984616e-38 308 323
-0.012709912 0.65899998 -0.09590207 1.8984616e-38 309 323
-0.011554466 0.65899998 -0.09590207 1.8984616e-38 310 323
-0.010399019 0.65899998 -0.09590207 1.8984616e-38 311 323
-0.0092435731 0.65899998 -0.09590207 1.8984616e-38 312 323
-0.0081126727 0.66100001 -0.096193127 1.8984616e-38 313 323
-0.00695372 0.66100001 -0.096193127 1.8800941e-38 314 323
-0.0057772328 0.65899998 -0.09590207 1.8800941e-38 315 323
-0.0046217865 0.65899998 -0.09590207 1.870874e-38 316 323
-0.0034663398 0.65899998 -0.09590207 1.870874e-38 317 323
-0.0023108933 0.65899998 -0.09590207 1.8709096e-38 318 323
-0.0011536933 0.65799999 -0.095756538 1.8709096e-38 319 323
0 0.65799999 -0.095756538 1.870874e-38 320 323
0.0011554466 0.65899998 -0.09590207 1.8616543e-38 321 323
0.0023073866 0.65799999 -0.095756538 1.8709096e-38 322 323
0.0034610799 0.65799999 -0.095756538 1.861654e-38 323 323
0.0046147732 0.65799999 -0.095756538 1.8799855e-38 324 323
0.0057684663 0.65799999 -0.095756538 1.8799855e-38 325 323
0.0069221598 0.65799999 -0.095756538 1.861619e-38 326 323
0.0080635799 0.65700001 -0.095611021 1.861619e-38 327 323
0.0092155198 0.65700001 -0.095611021 1.8799861e-38 328 323
0.01036746 0.65700001 -0.095611021 1.8799861e-38 329 323
0.011519399 0.65700001 -0.095611021 1.8891338e-38 330 323
0.01267134 0.65700001 -0.095611021 1.8799142e-38 331 323
0.013823279 0.65700001 -0.095611021 1.8707306e-38 332 323
0.01497522 0.65700001 -0.095611021 1.8707306e-38 333 323
0.016151706 0.65799999 -0.095756538 1.8707306e-38 334 323
0.017331699 0.65899998 -0.09590207 1.8707306e-38 335 323
0.018487146 0.65899998 -0.09590207 1.8523275e-38 336 323
0.019642593 0.65899998 -0.09590207 1.8523275e-38 337 323
0.020798039 0.65899998 -0.09590207 1.8523631e-38 338 323
0.021953486 0.65899998 -0.09590207 1.8431077e-38 339 323
0.023179067 0.66100001 -0.096193127 1.8523275e-38 340 323
0.024264378 0.65899998 -0.09590207 1.8523275e-38 341 323
0.025419824 0.65899998 -0.09590207 1.8431083e-38 342 323
0.026534945 0.65799999 -0.095756538 1.8523278e-38 343 323
0.027688639 0.65799999 -0.095756538 1.8430727e-38 344 323
0.028842334 0.65799999 -0.095756538 1.8430727e-38 345 323
0.030041611 0.65899998 -0.09590207 1.8431083e-38 346 323
0.031197058 0.65899998 -0.09590207 1.8338528e-38 347 323
0.032352503 0.65899998 -0.09590207 1.8338531e-38 348 323
0.033507951 0.65899998 -0.09590207 1.8430727e-38 349 323
0.034663398 0.65899998 -0.09590207 1.8063389e-38 350 323
0.035818845 0.65899998 -0.09590207 1.7971193e-38 351 323
0.036974292 0.65899998 -0.09590207 1.806267e-38 352 323
0.038129739 0.65899998 -0.09590207 1.7970474e-38 353 323
0.039404415 0.66100001 -0.096193127 1.7970472e-38 354 323
0.04044063 0.65899998 -0.09590207 1.7878274e-38 355 323
0.041596077 0.65899998 -0.09590207 1.7877553e-38 356 323
0.042751525 0.65899998 -0.09590207 1.7785357e-38 357 323
0.044040225 0.66100001 -0.096193127 1.7600613e-38 358 323
0.045199182 0.66100001 -0.096193127 1.741622e-38 359 323
0.046358135 0.66100001 -0.096193127 1.7230038e-38 360 323
0.047517084 0.66100001 -0.096193127 1.7137842e-38 361 323
0.04867604 0.66100001 -0.096193127 1.7137842e-38 362 323
0.049834993 0.66100001 -0.096193127 1.6953091e-38 363 323
0.050993945 0.66100001 -0.096193127 1.667723e-38 364 323
0.052152898 0.66100001 -0.096193127 1.667723e-38 365 323
0.053311851 0.66100001 -0.096193127 1.6402426e-38 366 323
0.054470807 0.66100001 -0.096193127 1.6125479e-38 367 323
0.05562976 0.66100001 -0.096193127 1.5942519e-38 368 323
0.056788713 0.66100001 -0.096193127 1.6034716e-38 369 323
0.057947662 0.66100001 -0.096193127 1.5941816e-38 370 323
0.059106622 0.66100001 -0.096193127 1.584962e-38 371 323
0.060356744 0.662 -0.096338652 1.5941097e-38 372 323
0.061517447 0.662 -0.096338652 1.5848901e-38 373 323
0.062678158 0.662 -0.096338652 1.5573035e-38 374 323
0.063838862 0.662 -0.096338652 1.5388644e-38 375 323
0.064999565 0.662 -0.096338652 1.5020583e-38 376 323
0.066260219 0.66299999 -0.096484177 1.5020583e-38 377 323
0.067422673 0.66299999 -0.096484177 1.5111699e-38 378 323
0.068585135 0.66299999 -0.096484177 1.4927668e-38 379 323
0.069747597 0.66299999 -0.096484177 1.4560328e-38 380 323
0.071017005 0.66399997 -0.096629702 1.4468132e-38 381 323
0.07239864 0.66600001 -0.096920758 1.4283383e-38 382 323
0.073566355 0.66600001 -0.096920758 1.4099352e-38 383 323
0.074734077 0.66600001 -0.096920758 1.4099355e-38 384 323
0.076015763 0.667 -0.097066283 1.4006801e-38 385 323
0.077300951 0.66799998 -0.097211808 1.4190469e-38 386 323
0.078472182 0.66799998 -0.097211808 1.4098273e-38 387 323
0.079643413 0.66799998 -0.097211808 1.4006078e-38 388 323
0.080814637 0.66799998 -0.097211808 1.3822047e-38 389 323
0.082354069 0.671 -0.09764839 1.3637298e-38 390 323
0.083530545 0.671 -0.09764839 1.3452907e-38 391 323
0.084833272 0.67199999 -0.097793922 1.3084844e-38 392 323
0.086395502 0.67500001 -0.098230496 1.2900452e-38 393 323
0.08796823 0.67799997 -0.09866707 1.2256528e-38 394 323
0.089288503 0.67900002 -0.09881261 1.1888105e-38 395 323
0.090612262 0.68000001 -0.098958135 1.1520055e-38 396 323
0.091804534 0.68000001 -0.098958135 1.1335664e-38 397 323
0.093270317 0.68199998 -0.099249184 1.023043e-38 398 323
0.09446609 0.68199998 -0.099249184 1.1336778e-38 399 323
-0.076978341 0.68599999 -0.10103408 1.2811911e-38 256 324
-0.075554639 0.68400002 -0.10073952 1.2166541e-38 257 324
-0.074246652 0.68300003 -0.10059224 1.2808996e-38 258 324
-0.072942168 0.68199998 -0.10044495 1.2901192e-38 259 324
-0.071535997 0.68000001 -0.10015039 1.271823e-38 260 324
-0.070343733 0.68000001 -0.10015039 1.2994815e-38 261 324
-0.069049768 0.67900002 -0.10000312 1.3179194e-38 262 324
-0.067559443 0.676 -0.099561274 1.3547618e-38 263 324
-0.066374183 0.676 -0.099561274 1.3732718e-38 264 324
-0.065092497 0.67500001 -0.099413998 1.410114e-38 265 324
-0.063909002 0.67500001 -0.099413998 1.4470999e-38 266 324
-0.062632568 0.67400002 -0.099266715 1.465575e-38 267 324
-0.061268479 0.67199999 -0.098972157 1.5023451e-38 268 324
-0.060090236 0.67199999 -0.098972157 1.5208201e-38 269 324
-0.058824331 0.671 -0.098824874 1.5759574e-38 270 324
-0.057647847 0.671 -0.098824874 1.5943966e-38 271 324
-0.056387197 0.67000002 -0.098677598 1.5944321e-38 272 324
-0.05504765 0.66799998 -0.098383039 1.5944321e-38 273 324
-0.05379577 0.667 -0.098235756 1.6219829e-38 274 324
-0.052626297 0.667 -0.098235756 1.6219829e-38 275 324
-0.051379681 0.66600001 -0.098088481 1.6312744e-38 276 324
-0.050211959 0.66600001 -0.098088481 1.6404941e-38 277 324
-0.04904424 0.66600001 -0.098088481 1.6771928e-38 278 324
-0.047732744 0.66399997 -0.097793914 1.7048514e-38 279 324
-0.046568532 0.66399997 -0.097793914 1.6682971e-38 280 324
-0.045404319 0.66399997 -0.097793914 1.6682971e-38 281 324
-0.044240102 0.66399997 -0.097793914 1.7232905e-38 282 324
-0.043011017 0.66299999 -0.097646631 1.7417298e-38 283 324
-0.041848559 0.66299999 -0.097646631 1.7509852e-38 284 324
-0.040686097 0.66299999 -0.097646631 1.7693883e-38 285 324
-0.039523639 0.66299999 -0.097646631 1.7603485e-38 286 324
-0.038361177 0.66299999 -0.097646631 1.7603485e-38 287 324
-0.037198719 0.66299999 -0.097646631 1.7787875e-38 288 324
-0.035981905 0.662 -0.097499363 1.7787875e-38 289 324
-0.034821201 0.662 -0.097499363 1.8430373e-38 290 324
-0.033660494 0.662 -0.097499363 1.8522928e-38 291 324
-0.032499783 0.662 -0.097499363 1.8705887e-38 292 324
-0.031291738 0.66100001 -0.09735208 1.8798083e-38 293 324
-0.030132787 0.66100001 -0.09735208 1.8706606e-38 294 324
-0.028973831 0.66100001 -0.09735208 1.8798803e-38 295 324
-0.02781488 0.66100001 -0.09735208 1.8615491e-38 296 324
-0.026575271 0.65899998 -0.097057514 1.8615491e-38 297 324
-0.025419824 0.65899998 -0.097057514 1.8615488e-38 298 324
-0.024264378 0.65899998 -0.097057514 1.8615488e-38 299 324
-0.023108931 0.65899998 -0.097057514 1.8615844e-38 300 324
-0.021953486 0.65899998 -0.097057514 1.8708039e-38 301 324
-0.020798039 0.65899998 -0.097057514 1.8708392e-38 302 324
-0.019642593 0.65899998 -0.097057514 1.8800588e-38 303 324
-0.018487146 0.65899998 -0.097057514 1.89839e-38 304 324
-0.017331699 0.65899998 -0.097057514 1.89839e-38 305 324
-0.016151706 0.65799999 -0.096910238 1.8800588e-38 306 324
-0.014998012 0.65799999 -0.096910238 1.8800588e-38 307 324
-0.01384432 0.65799999 -0.096910238 1.8984253e-38 308 324
-0.012690626 0.65799999 -0.096910238 1.8984253e-38 309 324
-0.011536933 0.65799999 -0.096910238 1.8800941e-38 310 324
-0.01038324 0.65799999 -0.096910238 1.8984972e-38 311 324
-0.0092295464 0.65799999 -0.096910238 1.8801304e-38 312 324
-0.0080758529 0.65799999 -0.096910238 1.8801304e-38 313 324
-0.0069326796 0.65899998 -0.097057514 1.8984616e-38 314 324
-0.0057684663 0.65799999 -0.096910238 1.8984616e-38 315 324
-0.0046147732 0.65799999 -0.096910238 1.8800941e-38 316 324
-0.0034610799 0.65799999 -0.096910238 1.8800941e-38 317 324
-0.0023073866 0.65799999 -0.096910238 1.8800938e-38 318 324
-0.00115194 0.65700001 -0.096762955 1.8800938e-38 319 324
0 0.65700001 -0.096762955 1.8800936e-38 320 324
0.0011536933 0.65799999 -0.096910238 1.870874e-38 321 324
0.0023038799 0.65700001 -0.096762955 1.8892405e-38 322 324
0.0034558198 0.65700001 -0.096762955 1.8800208e-38 323 324
0.0046077599 0.65700001 -0.096762955 1.8799136e-38 324 324
0.0057421662 0.65499997 -0.096468389 1.8891332e-38 325 324
0.0068905996 0.65499997 -0.096468389 1.8707306e-38 326 324
0.008039033 0.65499997 -0.096468389 1.8707306e-38 327 324
0.0091874655 0.65499997 -0.096468389 1.8707306e-38 328 324
0.010335899 0.65499997 -0.096468389 1.8799861e-38 329 324
0.011484332 0.65499997 -0.096468389 1.9074294e-38 330 324
0.012632766 0.65499997 -0.096468389 1.9074294e-38 331 324
0.013781199 0.65499997 -0.096468389 1.8982454e-38 332 324
0.014929632 0.65499997 -0.096468389 1.8982454e-38 333 324
0.01612716 0.65700001 -0.096762955 1.8523631e-38 334 324
0.017305398 0.65799999 -0.096910238 1.8523631e-38 335 324
0.018459093 0.65799999 -0.096910238 1.8707306e-38 336 324
0.019612785 0.65799999 -0.096910238 1.843108e-38 337 324
0.02076648 0.65799999 -0.096910238 1.8614748e-38 338 324
0.021920172 0.65799999 -0.096910238 1.8522194e-38 339 324
0.023073865 0.65799999 -0.096910238 1.8614392e-38 340 324
0.02422756 0.65799999 -0.096910238 1.8614392e-38 341 324
0.025381252 0.65799999 -0.096910238 1.8338884e-38 342 324
0.026534945 0.65799999 -0.096910238 1.843108e-38 343 324
0.027688639 0.65799999 -0.096910238 1.8522199e-38 344 324
0.028842334 0.65799999 -0.096910238 1.8337809e-38 345 324
0.029996024 0.65799999 -0.096910238 1.8337812e-38 346 324
0.031149717 0.65799999 -0.096910238 1.8337812e-38 347 324
0.032303412 0.65799999 -0.096910238 1.8246335e-38 348 324
0.033457108 0.65799999 -0.096910238 1.8246335e-38 349 324
0.034610797 0.65799999 -0.096910238 1.8061587e-38 350 324
0.035764489 0.65799999 -0.096910238 1.8153784e-38 351 324
0.036974292 0.65899998 -0.097057514 1.7877558e-38 352 324
0.038129739 0.65899998 -0.097057514 1.7877558e-38 353 324
0.039285187 0.65899998 -0.097057514 1.7785004e-38 354 324
0.04044063 0.65899998 -0.097057514 1.7600613e-38 355 324
0.04153296 0.65799999 -0.096910238 1.7600243e-38 356 324
0.042686652 0.65799999 -0.096910238 1.7323656e-38 357 324
0.043906972 0.65899998 -0.097057514 1.695595e-38 358 324
0.045062415 0.65899998 -0.097057514 1.695595e-38 359 324
0.046217863 0.65899998 -0.097057514 1.7137837e-38 360 324
0.04737331 0.65899998 -0.097057514 1.6769413e-38 361 324
0.048528757 0.65899998 -0.097057514 1.6767978e-38 362 324
0.049684204 0.65899998 -0.097057514 1.6767978e-38 363 324
0.050839648 0.65899998 -0.097057514 1.6400273e-38 364 324
0.051995095 0.65899998 -0.097057514 1.6308078e-38 365 324
0.053150542 0.65899998 -0.097057514 1.6033267e-38 366 324
0.054305989 0.65899998 -0.097057514 1.5203507e-38 367 324
0.055461437 0.65899998 -0.097057514 1.447134e-38 368 324
0.056616884 0.65899998 -0.097057514 1.4839763e-38 369 324
0.057947662 0.66100001 -0.09735208 1.5388641e-38 370 324
0.059106622 0.66100001 -0.09735208 1.5388641e-38 371 324
0.060356744 0.662 -0.097499363 1.5663789e-38 372 324
0.061517447 0.662 -0.097499363 1.5479037e-38 373 324
0.062678158 0.662 -0.097499363 1.5203532e-38 374 324
0.063838862 0.662 -0.097499363 1.5018782e-38 375 324
0.064999565 0.662 -0.097499363 1.483547e-38 376 324
0.066160277 0.662 -0.097499363 1.4743274e-38 377 324
0.067320988 0.662 -0.097499363 1.4743271e-38 378 324
0.068585135 0.66299999 -0.097646631 1.4558879e-38 379 324
0.069747597 0.66299999 -0.097646631 1.4283015e-38 380 324
0.070910059 0.66299999 -0.097646631 1.4190819e-38 381 324
0.072181225 0.66399997 -0.097793914 1.3822763e-38 382 324
0.073566355 0.66600001 -0.098088481 1.3822763e-38 383 324
0.074734077 0.66600001 -0.098088481 1.3638017e-38 384 324
0.075901799 0.66600001 -0.098088481 1.3638017e-38 385 324
0.077185236 0.667 -0.098235756 1.3913159e-38 386 324
0.078472182 0.66799998 -0.098383039 1.3913159e-38 387 324
0.079643413 0.66799998 -0.098383039 1.3545453e-38 388 324
0.080814637 0.66799998 -0.098383039 1.3361061e-38 389 324
0.082231335 0.67000002 -0.098677598 1.3176321e-38 390 324
0.083530545 0.671 -0.098824874 1.2899733e-38 391 324
0.084833272 0.67199999 -0.098972157 1.2806828e-38 392 324
0.086267509 0.67400002 -0.099266715 1.2530601e-38 393 324
0.087708741 0.676 -0.099561274 1.1979947e-38 394 324
0.089288503 0.67900002 -0.10000312 1.1887752e-38 395 324
0.090479009 0.67900002 -0.10000312 1.115272e-38 396 324
0.091804534 0.68000001 -0.10015039 1.0968689e-38 397 324
0.093270317 0.68199998 -0.10044495 1.1246756e-38 398 324
-0.075554639 0.68400002 -0.1019388 1.2627889e-38 257 325
-0.074246652 0.68300003 -0.10178977 1.2993759e-38 258 325
-0.072942168 0.68199998 -0.10164072 1.2809727e-38 259 325
-0.071535997 0.68000001 -0.10134266 1.2901548e-38 260 325
-0.070343733 0.68000001 -0.10134266 1.2901548e-38 261 325
-0.069049768 0.67900002 -0.10119363 1.2993743e-38 262 325
-0.06775932 0.67799997 -0.1010446 1.3178134e-38 263 325
-0.066374183 0.676 -0.10074653 1.3271759e-38 264 325
-0.065092497 0.67500001 -0.10059749 1.3363955e-38 265 325
-0.063909002 0.67500001 -0.10059749 1.3641967e-38 266 325
-0.062632568 0.67400002 -0.10044847 1.4010391e-38 267 325
-0.061268479 0.67199999 -0.10015039 1.4746866e-38 268 325
-0.060090236 0.67199999 -0.10015039 1.4931258e-38 269 325
-0.058824331 0.671 -0.10000136 1.5574828e-38 270 325
-0.057561934 0.67000002 -0.099852331 1.5759221e-38 271 325
-0.056387197 0.67000002 -0.099852331 1.5576262e-38 272 325
-0.054965243 0.667 -0.099405229 1.5576262e-38 273 325
-0.05379577 0.667 -0.099405229 1.5576978e-38 274 325
-0.052547399 0.66600001 -0.099256195 1.5576978e-38 275 325
-0.051379681 0.66600001 -0.099256195 1.5943612e-38 276 325
-0.050211959 0.66600001 -0.099256195 1.6036167e-38 277 325
-0.048896957 0.66399997 -0.098958127 1.6128731e-38 278 325
-0.047732744 0.66399997 -0.098958127 1.6313124e-38 279 325
-0.046568532 0.66399997 -0.098958127 1.6312768e-38 280 325
-0.045404319 0.66399997 -0.098958127 1.6497158e-38 281 325
-0.044240102 0.66399997 -0.098958127 1.6864142e-38 282 325
-0.043011017 0.66299999 -0.098809093 1.7048533e-38 283 325
-0.041848559 0.66299999 -0.098809093 1.67741e-38 284 325
-0.04062473 0.662 -0.098660067 1.6866297e-38 285 325
-0.039464023 0.662 -0.098660067 1.6959209e-38 286 325
-0.038303319 0.662 -0.098660067 1.6959209e-38 287 325
-0.037142612 0.662 -0.098660067 1.7510581e-38 288 325
-0.035927553 0.66100001 -0.098511033 1.7510581e-38 289 325
-0.0347686 0.66100001 -0.098511033 1.7694976e-38 290 325
-0.033609647 0.66100001 -0.098511033 1.7787172e-38 291 325
-0.032450691 0.66100001 -0.098511033 1.7970134e-38 292 325
-0.031197058 0.65899998 -0.098212965 1.8062688e-38 293 325
-0.030041611 0.65899998 -0.098212965 1.8062685e-38 294 325
-0.028886165 0.65899998 -0.098212965 1.8154881e-38 295 325
-0.027730718 0.65899998 -0.098212965 1.8155237e-38 296 325
-0.026575271 0.65899998 -0.098212965 1.8155237e-38 297 325
-0.025381252 0.65799999 -0.098063931 1.8155234e-38 298 325
-0.02422756 0.65799999 -0.098063931 1.824743e-38 299 325
-0.023073865 0.65799999 -0.098063931 1.8247783e-38 300 325
-0.021920172 0.65799999 -0.098063931 1.8432176e-38 301 325
-0.02076648 0.65799999 -0.098063931 1.8432527e-38 302 325
-0.019642593 0.65899998 -0.098212965 1.861656e-38 303 325
-0.018459093 0.65799999 -0.098063931 1.8616563e-38 304 325
-0.017305398 0.65799999 -0.098063931 1.8616563e-38 305 325
-0.01612716 0.65700001 -0.097914897 1.8616207e-38 306 325
-0.01497522 0.65700001 -0.097914897 1.8616207e-38 307 325
-0.013823279 0.65700001 -0.097914897 1.861656e-38 308 325
-0.01267134 0.65700001 -0.097914897 1.861656e-38 309 325
-0.011519399 0.65700001 -0.097914897 1.8709109e-38 310 325
-0.01036746 0.65700001 -0.097914897 1.8709109e-38 311 325
-0.0092155198 0.65700001 -0.097914897 1.8984619e-38 312 325
-0.0080635799 0.65700001 -0.097914897 1.8984619e-38 313 325
-0.0069221598 0.65799999 -0.098063931 1.8709111e-38 314 325
-0.0057596997 0.65700001 -0.097914897 1.8709111e-38 315 325
-0.0046077599 0.65700001 -0.097914897 1.8616916e-38 316 325
-0.0034558198 0.65700001 -0.097914897 1.8709111e-38 317 325
-0.0023038799 0.65700001 -0.097914897 1.8616916e-38 318 325
-0.00115194 0.65700001 -0.097914897 1.8616916e-38 319 325
0 0.65700001 -0.097914897 1.8616913e-38 320 325
0.00115194 0.65700001 -0.097914897 1.8616913e-38 321 325
0.0023038799 0.65700001 -0.097914897 1.8432878e-38 322 325
0.0034558198 0.65700001 -0.097914897 1.8340682e-38 323 325
0.0046077599 0.65700001 -0.097914897 1.8522922e-38 324 325
0.0057421662 0.65499997 -0.097616829 1.8522922e-38 325 325
0.0068905996 0.65499997 -0.097616829 1.8522922e-38 326 325
0.008039033 0.65499997 -0.097616829 1.8522922e-38 327 325
0.0091874655 0.65499997 -0.097616829 1.8431092e-38 328 325
0.010335899 0.65499997 -0.097616829 1.8523647e-38 329 325
0.011466799 0.65399998 -0.097467795 1.8706959e-38 330 325
0.012613479 0.65399998 -0.097467795 1.8706959e-38 331 325
0.013781199 0.65499997 -0.097616829 1.8523278e-38 332 325
0.014929632 0.65499997 -0.097616829 1.8523278e-38 333 325
0.01612716 0.65700001 -0.097914897 1.8339253e-38 334 325
0.0172791 0.65700001 -0.097914897 1.8339253e-38 335 325
0.01843104 0.65700001 -0.097914897 1.8338897e-38 336 325
0.019582979 0.65700001 -0.097914897 1.8154866e-38 337 325
0.020734919 0.65700001 -0.097914897 1.8063023e-38 338 325
0.021886859 0.65700001 -0.097914897 1.8063023e-38 339 325
0.023038799 0.65700001 -0.097914897 1.8155219e-38 340 325
0.024190739 0.65700001 -0.097914897 1.8063023e-38 341 325
0.025342681 0.65700001 -0.097914897 1.7787159e-38 342 325
0.026494619 0.65700001 -0.097914897 1.7787159e-38 343 325
0.027646558 0.65700001 -0.097914897 1.8061234e-38 344 325
0.028798498 0.65700001 -0.097914897 1.8061234e-38 345 325
0.02995044 0.65700001 -0.097914897 1.7876849e-38 346 325
0.031149717 0.65799999 -0.098063931 1.7876849e-38 347 325
0.032303412 0.65799999 -0.098063931 1.7785373e-38 348 325
0.033457108 0.65799999 -0.098063931 1.7693177e-38 349 325
0.034558199 0.65700001 -0.097914897 1.7876123e-38 350 325
0.035710141 0.65700001 -0.097914897 1.7876123e-38 351 325
0.036862079 0.65700001 -0.097914897 1.7325471e-38 352 325
0.038071878 0.65799999 -0.098063931 1.7233275e-38 353 325
0.039225571 0.65799999 -0.098063931 1.7232202e-38 354 325
0.040379263 0.65799999 -0.098063931 1.7140006e-38 355 325
0.04153296 0.65799999 -0.098063931 1.7139988e-38 356 325
0.042686652 0.65799999 -0.098063931 1.6771204e-38 357 325
0.043840345 0.65799999 -0.098063931 1.6494974e-38 358 325
0.044994038 0.65799999 -0.098063931 1.658717e-38 359 325
0.04614773 0.65799999 -0.098063931 1.6309874e-38 360 325
0.047301427 0.65799999 -0.098063931 1.6217678e-38 361 325
0.048455119 0.65799999 -0.098063931 1.6124394e-38 362 325
0.049608808 0.65799999 -0.098063931 1.6124394e-38 363 325
0.050762504 0.65799999 -0.098063931 1.5481543e-38 364 325
0.051995095 0.65899998 -0.098212965 1.5389347e-38 365 325
0.053150542 0.65899998 -0.098212965 1.5296428e-38 366 325
0.054305989 0.65899998 -0.098212965 1.4466668e-38 367 325
0.055461437 0.65899998 -0.098212965 1.3915664e-38 368 325
0.056616884 0.65899998 -0.098212965 1.4561034e-38 369 325
0.057947662 0.66100001 -0.098511033 1.465217e-38 370 325
0.059106622 0.66100001 -0.098511033 1.465217e-38 371 325
0.060265575 0.66100001 -0.098511033 1.474364e-38 372 325
0.061517447 0.662 -0.098660067 1.474364e-38 373 325
0.062678158 0.662 -0.098660067 1.4650725e-38 374 325
0.063838862 0.662 -0.098660067 1.4558528e-38 375 325
0.064999565 0.662 -0.098660067 1.4558526e-38 376 325
0.066160277 0.662 -0.098660067 1.446633e-38 377 325
0.067320988 0.662 -0.098660067 1.4190819e-38 378 325
0.068481691 0.662 -0.098660067 1.4098624e-38 379 325
0.069642402 0.662 -0.098660067 1.4006431e-38 380 325
0.070910059 0.66299999 -0.098809093 1.3822041e-38 381 325
0.072072513 0.66299999 -0.098809093 1.3638014e-38 382 325
0.07334543 0.66399997 -0.098958127 1.3361787e-38 383 325
0.074734077 0.66600001 -0.099256195 1.3177406e-38 384 325
0.075901799 0.66600001 -0.099256195 1.326996e-38 385 325
0.077185236 0.667 -0.099405229 1.2994096e-38 386 325
0.078472182 0.66799998 -0.099554263 1.2994096e-38 387 325
0.079643413 0.66799998 -0.099554263 1.2901179e-38 388 325
0.080814637 0.66799998 -0.099554263 1.2716786e-38 389 325
0.082231335 0.67000002 -0.099852331 1.2623519e-38 390 325
0.083530545 0.671 -0.10000136 1.2438769e-38 391 325
0.084833272 0.67199999 -0.10015039 1.2346575e-38 392 325
0.086267509 0.67400002 -0.10044847 1.2254379e-38 393 325
0.087708741 0.676 -0.10074653 1.170337e-38 394 325
0.089288503 0.67900002 -0.10119363 1.1519339e-38 395 325
0.090479009 0.67900002 -0.10119363 1.0968702e-38 396 325
0.091804534 0.68000001 -0.10134266 1.1060897e-38 397 325
0.093270317 0.68199998 -0.10164072 1.161663e-38 398 325
-0.074246652 0.68300003 -0.1029873 1.32718e-38 258 326
-0.072942168 0.68199998 -0.1028365 1.2626431e-38 259 326
-0.071535997 0.68000001 -0.10253493 1.2992671e-38 260 326
-0.070343733 0.68000001 -0.10253493 1.2992671e-38 261 326
-0.069049768 0.67900002 -0.10238414 1.2900826e-38 262 326
-0.06775932 0.67799997 -0.10223336 1.2993022e-38 263 326
-0.066374183 0.676 -0.10193179 1.3177762e-38 264 326
-0.065092497 0.67500001 -0.101781 1.3362153e-38 265 326
-0.063909002 0.67500001 -0.101781 1.3178838e-38 266 326
-0.062632568 0.67400002 -0.10163021 1.3639816e-38 267 326
-0.061268479 0.67199999 -0.10132863 1.3732362e-38 268 326
-0.060090236 0.67199999 -0.10132863 1.419334e-38 269 326
-0.058824331 0.671 -0.10117785 1.4745428e-38 270 326
-0.057561934 0.67000002 -0.10102707 1.5113852e-38 271 326
-0.056218877 0.66799998 -0.10072549 1.5207472e-38 272 326
-0.054965243 0.667 -0.1005747 1.5299668e-38 273 326
-0.053715117 0.66600001 -0.10042392 1.5392214e-38 274 326
-0.052547399 0.66600001 -0.10042392 1.5392214e-38 275 326
-0.051379681 0.66600001 -0.10042392 1.5759204e-38 276 326
-0.05006117 0.66399997 -0.10012234 1.5943237e-38 277 326
-0.048896957 0.66399997 -0.10012234 1.6035438e-38 278 326
-0.047732744 0.66399997 -0.10012234 1.6127634e-38 279 326
-0.046498399 0.66299999 -0.099971555 1.6494621e-38 280 326
-0.045335937 0.66299999 -0.099971555 1.6586817e-38 281 326
-0.044173479 0.66299999 -0.099971555 1.6770485e-38 282 326
-0.042946145 0.662 -0.09982077 1.6954878e-38 283 326
-0.041785441 0.662 -0.09982077 1.6680082e-38 284 326
-0.04062473 0.662 -0.09982077 1.6680082e-38 285 326
-0.039464023 0.662 -0.09982077 1.6865552e-38 286 326
-0.038303319 0.662 -0.09982077 1.6957748e-38 287 326
-0.037086505 0.66100001 -0.099669985 1.7509122e-38 288 326
-0.035927553 0.66100001 -0.099669985 1.7509122e-38 289 326
-0.0347686 0.66100001 -0.099669985 1.7876827e-38 290 326
-0.033507951 0.65899998 -0.099368408 1.7876827e-38 291 326
-0.032352503 0.65899998 -0.099368408 1.8060502e-38 292 326
-0.031149717 0.65799999 -0.099217616 1.8244533e-38 293 326
-0.029996024 0.65799999 -0.099217616 1.7877553e-38 294 326
-0.028842334 0.65799999 -0.099217616 1.8061943e-38 295 326
-0.027688639 0.65799999 -0.099217616 1.8336732e-38 296 326
-0.026494619 0.65700001 -0.099066831 1.8336732e-38 297 326
-0.025342681 0.65700001 -0.099066831 1.8154491e-38 298 326
-0.024190739 0.65700001 -0.099066831 1.8154491e-38 299 326
-0.023038799 0.65700001 -0.099066831 1.8247039e-38 300 326
-0.021886859 0.65700001 -0.099066831 1.8339234e-38 301 326
-0.02076648 0.65799999 -0.099217616 1.8431796e-38 302 326
-0.019612785 0.65799999 -0.099217616 1.852435e-38 303 326
-0.018459093 0.65799999 -0.099217616 1.8798436e-38 304 326
-0.0172791 0.65700001 -0.099066831 1.8798436e-38 305 326
-0.01612716 0.65700001 -0.099066831 1.8706959e-38 306 326
-0.01497522 0.65700001 -0.099066831 1.8706959e-38 307 326
-0.013781199 0.65499997 -0.098765261 1.8707306e-38 308 326
-0.012632766 0.65499997 -0.098765261 1.8707306e-38 309 326
-0.011484332 0.65499997 -0.098765261 1.8799855e-38 310 326
-0.010335899 0.65499997 -0.098765261 1.8799855e-38 311 326
-0.0092155198 0.65700001 -0.099066831 1.8891702e-38 312 326
-0.0080635799 0.65700001 -0.099066831 1.8891702e-38 313 326
-0.0069116396 0.65700001 -0.099066831 1.8708037e-38 314 326
-0.0057596997 0.65700001 -0.099066831 1.8708037e-38 315 326
-0.0046077599 0.65700001 -0.099066831 1.861584e-38 316 326
-0.0034558198 0.65700001 -0.099066831 1.861584e-38 317 326
-0.0022968664 0.65499997 -0.098765261 1.8616195e-38 318 326
-0.0011484332 0.65499997 -0.098765261 1.8523641e-38 319 326
0 0.65499997 -0.098765261 1.8616195e-38 320 326
0.0011484332 0.65499997 -0.098765261 1.8431445e-38 321 326
0.0022968664 0.65499997 -0.098765261 1.8798433e-38 322 326
0.0034452998 0.65499997 -0.098765261 1.8706237e-38 323 326
0.0045937328 0.65499997 -0.098765261 1.8521843e-38 324 326
0.0057421662 0.65499997 -0.098765261 1.8521843e-38 325 326
0.0068905996 0.65499997 -0.098765261 1.8522199e-38 326 326
0.0080267601 0.65399998 -0.098614477 1.8522199e-38 327 326
0.0091734398 0.65399998 -0.098614477 1.8614042e-38 328 326
0.010335899 0.65499997 -0.098765261 1.8521846e-38 329 326
0.011449266 0.653 -0.098463692 1.8706237e-38 330 326
0.012594193 0.653 -0.098463692 1.8614042e-38 331 326
0.013760159 0.65399998 -0.098614477 1.8889187e-38 332 326
0.014929632 0.65499997 -0.098765261 1.8704437e-38 333 326
0.016078066 0.65499997 -0.098765261 1.8521127e-38 334 326
0.0172791 0.65700001 -0.099066831 1.8428932e-38 335 326
0.01843104 0.65700001 -0.099066831 1.8428927e-38 336 326
0.019582979 0.65700001 -0.099066831 1.8336732e-38 337 326
0.020671798 0.65499997 -0.098765261 1.8153773e-38 338 326
0.021820232 0.65499997 -0.098765261 1.8153773e-38 339 326
0.022968665 0.65499997 -0.098765261 1.7877906e-38 340 326
0.024190739 0.65700001 -0.099066831 1.7877906e-38 341 326
0.025342681 0.65700001 -0.099066831 1.7969025e-38 342 326
0.026494619 0.65700001 -0.099066831 1.7969025e-38 343 326
0.027646558 0.65700001 -0.099066831 1.7967953e-38 344 326
0.028798498 0.65700001 -0.099066831 1.7875758e-38 345 326
0.02995044 0.65700001 -0.099066831 1.7875039e-38 346 326
0.03110238 0.65700001 -0.099066831 1.7875039e-38 347 326
0.03225432 0.65700001 -0.099066831 1.7690994e-38 348 326
0.033406258 0.65700001 -0.099066831 1.7506602e-38 349 326
0.034558199 0.65700001 -0.099066831 1.6955577e-38 350 326
0.035710141 0.65700001 -0.099066831 1.6955577e-38 351 326
0.036862079 0.65700001 -0.099066831 1.7047424e-38 352 326
0.038014017 0.65700001 -0.099066831 1.6955227e-38 353 326
0.039165959 0.65700001 -0.099066831 1.6954878e-38 354 326
0.0403179 0.65700001 -0.099066831 1.6770485e-38 355 326
0.041469838 0.65700001 -0.099066831 1.6677918e-38 356 326
0.04262178 0.65700001 -0.099066831 1.6308775e-38 357 326
0.043773718 0.65700001 -0.099066831 1.6215495e-38 358 326
0.04492566 0.65700001 -0.099066831 1.6491722e-38 359 326
0.04614773 0.65799999 -0.099217616 1.6491725e-38 360 326
0.04722954 0.65700001 -0.099066831 1.6215498e-38 361 326
0.048381478 0.65700001 -0.099066831 1.5663406e-38 362 326
0.049608808 0.65799999 -0.099217616 1.575596e-38 363 326
0.050762504 0.65799999 -0.099217616 1.5387545e-38 364 326
0.051916201 0.65799999 -0.099217616 1.5295349e-38 365 326
0.05306989 0.65799999 -0.099217616 1.4927646e-38 366 326
0.054223582 0.65799999 -0.099217616 1.4558863e-38 367 326
0.055461437 0.65899998 -0.099368408 1.4466668e-38 368 326
0.056616884 0.65899998 -0.099368408 1.4558863e-38 369 326
0.057947662 0.66100001 -0.099669985 1.4558866e-38 370 326
0.059106622 0.66100001 -0.099669985 1.4651062e-38 371 326
0.060265575 0.66100001 -0.099669985 1.4649983e-38 372 326
0.061517447 0.662 -0.09982077 1.4557787e-38 373 326
0.062678158 0.662 -0.09982077 1.4557431e-38 374 326
0.063838862 0.662 -0.09982077 1.43734e-38 375 326
0.064999565 0.662 -0.09982077 1.4373047e-38 376 326
0.066160277 0.662 -0.09982077 1.4188654e-38 377 326
0.067320988 0.662 -0.09982077 1.3913144e-38 378 326
0.068481691 0.662 -0.09982077 1.4005339e-38 379 326
0.069642402 0.662 -0.09982077 1.3545434e-38 380 326
0.070803106 0.662 -0.09982077 1.3453239e-38 381 326
0.072072513 0.66299999 -0.099971555 1.3361045e-38 382 326
0.07334543 0.66399997 -0.10012234 1.326849e-38 383 326
0.074734077 0.66600001 -0.10042392 1.2992276e-38 384 326
0.075901799 0.66600001 -0.10042392 1.290008e-38 385 326
0.077185236 0.667 -0.1005747 1.2899733e-38 386 326
0.078354709 0.667 -0.1005747 1.2899733e-38 387 326
0.079643413 0.66799998 -0.10072549 1.2714989e-38 388 326
0.080814637 0.66799998 -0.10072549 1.2438402e-38 389 326
0.082231335 0.67000002 -0.10102707 1.2253657e-38 390 326
0.083530545 0.671 -0.10117785 1.2161462e-38 391 326
0.084833272 0.67199999 -0.10132863 1.1886319e-38 392 326
0.086267509 0.67400002 -0.10163021 1.1886319e-38 393 326
0.087578997 0.67500001 -0.101781 1.1518986e-38 394 326
0.089156993 0.67799997 -0.10223336 1.1518986e-38 395 326
0.090479009 0.67900002 -0.10238414 1.106055e-38 396 326
0.091669522 0.67900002 -0.10238414 1.1521169e-38 397 326
-0.072942168 0.68199998 -0.10403228 1.2720441e-38 259 327
-0.071535997 0.68000001 -0.1037272 1.2993405e-38 260 327
-0.070343733 0.68000001 -0.1037272 1.2717179e-38 261 327
-0.069049768 0.67900002 -0.10357466 1.2808996e-38 262 327
-0.06775932 0.67799997 -0.10342211 1.2808996e-38 263 327
-0.066374183 0.676 -0.10311703 1.2717879e-38 264 327
-0.065092497 0.67500001 -0.1029645 1.2810075e-38 265 327
-0.063909002 0.67500001 -0.1029645 1.2993037e-38 266 327
-0.062632568 0.67400002 -0.10281195 1.3177787e-38 267 327
-0.061268479 0.67199999 -0.10250688 1.3363602e-38 268 327
-0.060090236 0.67199999 -0.10250688 1.3639829e-38 269 327
-0.058736663 0.67000002 -0.1022018 1.4192617e-38 270 327
-0.057390101 0.66799998 -0.10189671 1.4469204e-38 271 327
-0.056134716 0.667 -0.10174417 1.474686e-38 272 327
-0.054882839 0.66600001 -0.10159164 1.4839057e-38 273 327
-0.053715117 0.66600001 -0.10159164 1.5024523e-38 274 327
-0.052389596 0.66399997 -0.10128655 1.5024523e-38 275 327
-0.051225383 0.66399997 -0.10128655 1.5116368e-38 276 327
-0.05006117 0.66399997 -0.10128655 1.5208564e-38 277 327
-0.048896957 0.66399997 -0.10128655 1.5484079e-38 278 327
-0.047660857 0.66299999 -0.10113402 1.5576275e-38 279 327
-0.046498399 0.66299999 -0.10113402 1.5851066e-38 280 327
-0.045335937 0.66299999 -0.10113402 1.5943262e-38 281 327
-0.044106852 0.662 -0.10098148 1.5943615e-38 282 327
-0.042946145 0.662 -0.10098148 1.5943615e-38 283 327
-0.041785441 0.662 -0.10098148 1.6219476e-38 284 327
-0.04062473 0.662 -0.10098148 1.6311672e-38 285 327
-0.039464023 0.662 -0.10098148 1.6221629e-38 286 327
-0.038245458 0.66100001 -0.10082894 1.6313824e-38 287 327
-0.037086505 0.66100001 -0.10082894 1.677265e-38 288 327
-0.035818845 0.65899998 -0.10052385 1.6864846e-38 289 327
-0.034663398 0.65899998 -0.10052385 1.6681183e-38 290 327
-0.033457108 0.65799999 -0.10037132 1.6865214e-38 291 327
-0.032156132 0.65499997 -0.099913694 1.7048889e-38 292 327
-0.031007698 0.65499997 -0.099913694 1.7232922e-38 293 327
-0.02995044 0.65700001 -0.10021878 1.7324046e-38 294 327
-0.028798498 0.65700001 -0.10021878 1.74166e-38 295 327
-0.027646558 0.65700001 -0.10021878 1.7509149e-38 296 327
-0.026413966 0.65499997 -0.099913694 1.769318e-38 297 327
-0.025265532 0.65499997 -0.099913694 1.7326906e-38 298 327
-0.024117097 0.65499997 -0.099913694 1.7326906e-38 299 327
-0.022968665 0.65499997 -0.099913694 1.8061221e-38 300 327
-0.021820232 0.65499997 -0.099913694 1.8153417e-38 301 327
-0.020671798 0.65499997 -0.099913694 1.7787162e-38 302 327
-0.019582979 0.65700001 -0.10021878 1.8063389e-38 303 327
-0.01843104 0.65700001 -0.10021878 1.8062683e-38 304 327
-0.0172791 0.65700001 -0.10021878 1.8062683e-38 305 327
-0.016078066 0.65499997 -0.099913694 1.7787891e-38 306 327
-0.014929632 0.65499997 -0.099913694 1.7787891e-38 307 327
-0.013781199 0.65499997 -0.099913694 1.7972272e-38 308 327
-0.012632766 0.65499997 -0.099913694 1.7972272e-38 309 327
-0.011484332 0.65499997 -0.099913694 1.8430727e-38 310 327
-0.010335899 0.65499997 -0.099913694 1.8522922e-38 311 327
-0.0091874655 0.65499997 -0.099913694 1.8339981e-38 312 327
-0.008039033 0.65499997 -0.099913694 1.8247427e-38 313 327
-0.0068905996 0.65499997 -0.099913694 1.8339625e-38 314 327
-0.0057421662 0.65499997 -0.099913694 1.824743e-38 315 327
-0.0045937328 0.65499997 -0.099913694 1.8248149e-38 316 327
-0.0034452998 0.65499997 -0.099913694 1.8155953e-38 317 327
-0.0022968664 0.65499997 -0.099913694 1.8155953e-38 318 327
-0.00114668 0.65399998 -0.099761158 1.7971922e-38 319 327
0 0.65399998 -0.099761158 1.8063038e-38 320 327
0.00114668 0.65399998 -0.099761158 1.8063038e-38 321 327
0.00229336 0.65399998 -0.099761158 1.8062683e-38 322 327
0.0034452998 0.65499997 -0.099913694 1.7970487e-38 323 327
0.0045937328 0.65499997 -0.099913694 1.8062673e-38 324 327
0.0057246331 0.653 -0.099608615 1.8062673e-38 325 327
0.0068695596 0.653 -0.099608615 1.7786806e-38 326 327
0.0080144862 0.653 -0.099608615 1.7970837e-38 327 327
0.0091594132 0.653 -0.099608615 1.797084e-38 328 327
0.01032012 0.65399998 -0.099761158 1.797084e-38 329 327
0.011449266 0.653 -0.099608615 1.7970124e-38 330 327
0.012594193 0.653 -0.099608615 1.7970124e-38 331 327
0.013760159 0.65399998 -0.099761158 1.8153436e-38 332 327
0.014906839 0.65399998 -0.099761158 1.8061239e-38 333 327
0.016078066 0.65499997 -0.099913694 1.7877568e-38 334 327
0.017226499 0.65499997 -0.099913694 1.7693177e-38 335 327
0.018374931 0.65499997 -0.099913694 1.7509146e-38 336 327
0.019523365 0.65499997 -0.099913694 1.7509146e-38 337 327
0.020671798 0.65499997 -0.099913694 1.7509149e-38 338 327
0.021820232 0.65499997 -0.099913694 1.7509149e-38 339 327
0.022968665 0.65499997 -0.099913694 1.7325468e-38 340 327
0.024117097 0.65499997 -0.099913694 1.7325468e-38 341 327
0.025265532 0.65499997 -0.099913694 1.7324749e-38 342 327
0.026413966 0.65499997 -0.099913694 1.7232552e-38 343 327
0.027562398 0.65499997 -0.099913694 1.6956338e-38 344 327
0.028710833 0.65499997 -0.099913694 1.6956338e-38 345 327
0.029859263 0.65499997 -0.099913694 1.7137837e-38 346 327
0.031007698 0.65499997 -0.099913694 1.7322587e-38 347 327
0.032156132 0.65499997 -0.099913694 1.6863381e-38 348 327
0.033304565 0.65499997 -0.099913694 1.667899e-38 349 327
0.034452997 0.65499997 -0.099913694 1.6678637e-38 350 327
0.03560143 0.65499997 -0.099913694 1.6678637e-38 351 327
0.036749862 0.65499997 -0.099913694 1.6494984e-38 352 327
0.037898298 0.65499997 -0.099913694 1.6126562e-38 353 327
0.039046731 0.65499997 -0.099913694 1.612693e-38 354 327
0.040195163 0.65499997 -0.099913694 1.594218e-38 355 327
0.041343596 0.65499997 -0.099913694 1.5849968e-38 356 327
0.042492028 0.65499997 -0.099913694 1.5481545e-38 357 327
0.043640465 0.65499997 -0.099913694 1.5664855e-38 358 327
0.04492566 0.65700001 -0.10021878 1.5664855e-38 359 327
0.046077598 0.65700001 -0.10021878 1.5295728e-38 360 327
0.04722954 0.65700001 -0.10021878 1.5203532e-38 361 327
0.048381478 0.65700001 -0.10021878 1.483547e-38 362 327
0.049533416 0.65700001 -0.10021878 1.483547e-38 363 327
0.050762504 0.65799999 -0.10037132 1.4468485e-38 364 327
0.051916201 0.65799999 -0.10037132 1.4376288e-38 365 327
0.05306989 0.65799999 -0.10037132 1.4376638e-38 366 327
0.054223582 0.65799999 -0.10037132 1.4007857e-38 367 327
0.055377278 0.65799999 -0.10037132 1.419117e-38 368 327
0.056616884 0.65899998 -0.10052385 1.4098974e-38 369 327
0.057772331 0.65899998 -0.10052385 1.3823113e-38 370 327
0.058927774 0.65899998 -0.10052385 1.3823113e-38 371 327
0.060356744 0.662 -0.10098148 1.3729844e-38 372 327
0.061517447 0.662 -0.10098148 1.3822041e-38 373 327
0.062678158 0.662 -0.10098148 1.3638367e-38 374 327
0.063838862 0.662 -0.10098148 1.3638367e-38 375 327
0.064999565 0.662 -0.10098148 1.3638364e-38 376 327
0.066160277 0.662 -0.10098148 1.3454333e-38 377 327
0.067320988 0.662 -0.10098148 1.3178462e-38 378 327
0.068481691 0.662 -0.10098148 1.2994431e-38 379 327
0.069642402 0.662 -0.10098148 1.3085546e-38 380 327
0.070803106 0.662 -0.10098148 1.2716765e-38 381 327
0.072072513 0.66299999 -0.10113402 1.2716415e-38 382 327
0.07334543 0.66399997 -0.10128655 1.2532024e-38 383 327
0.074734077 0.66600001 -0.10159164 1.1888468e-38 384 327
0.075901799 0.66600001 -0.10159164 1.1888468e-38 385 327
0.077185236 0.667 -0.10174417 1.1703373e-38 386 327
0.078354709 0.667 -0.10174417 1.1703373e-38 387 327
0.079643413 0.66799998 -0.10189671 1.1518986e-38 388 327
0.081056595 0.67000002 -0.1022018 1.1518986e-38 389 327
0.082231335 0.67000002 -0.1022018 1.1427146e-38 390 327
0.083530545 0.671 -0.10235433 1.1427146e-38 391 327
0.084833272 0.67199999 -0.10250688 1.1427146e-38 392 327
0.086011514 0.67199999 -0.10250688 1.1334592e-38 393 327
0.087578997 0.67500001 -0.1029645 1.1150929e-38 394 327
0.089156993 0.67799997 -0.10342211 1.1150929e-38 395 327
0.090479009 0.67900002 -0.10357466 1.0970166e-38 396 327
-0.071535997 0.68000001 -0.10491946 1.2994854e-38 260 328
-0.070343733 0.68000001 -0.10491946 1.2441681e-38 261 328
-0.069049768 0.67900002 -0.10476518 1.2809352e-38 262 328
-0.06775932 0.67799997 -0.10461088 1.2809352e-38 263 328
-0.066374183 0.676 -0.10430229 1.2900826e-38 264 328
-0.065092497 0.67500001 -0.104148 1.2808629e-38 265 328
-0.063909002 0.67500001 -0.104148 1.2901182e-38 266 328
-0.062632568 0.67400002 -0.10399371 1.2901182e-38 267 328
-0.061268479 0.67199999 -0.10368511 1.2993731e-38 268 328
-0.060090236 0.67199999 -0.10368511 1.3269957e-38 269 328
-0.058736663 0.67000002 -0.10337654 1.3454705e-38 270 328
-0.057390101 0.66799998 -0.10306793 1.3639097e-38 271 328
-0.056134716 0.667 -0.10291365 1.3549415e-38 272 328
-0.054882839 0.66600001 -0.10275936 1.4102589e-38 273 328
-0.053715117 0.66600001 -0.10275936 1.4562832e-38 274 328
-0.052389596 0.66399997 -0.10245077 1.4746863e-38 275 328
-0.051225383 0.66399997 -0.10245077 1.5115274e-38 276 328
-0.05006117 0.66399997 -0.10245077 1.520747e-38 277 328
-0.048823316 0.66299999 -0.10229647 1.5575179e-38 278 328
-0.047660857 0.66299999 -0.10229647 1.5667374e-38 279 328
-0.046498399 0.66299999 -0.10229647 1.5758851e-38 280 328
-0.04526756 0.662 -0.10214218 1.5758851e-38 281 328
-0.044106852 0.662 -0.10214218 1.5943237e-38 282 328
-0.042946145 0.662 -0.10214218 1.5943237e-38 283 328
-0.04172232 0.66100001 -0.10198789 1.6035786e-38 284 328
-0.040563367 0.66100001 -0.10198789 1.5943589e-38 285 328
-0.039404415 0.66100001 -0.10198789 1.6127984e-38 286 328
-0.038245458 0.66100001 -0.10198789 1.6127984e-38 287 328
-0.036974292 0.65899998 -0.1016793 1.6403139e-38 288 328
-0.035764489 0.65799999 -0.10152501 1.6403139e-38 289 328
-0.034610797 0.65799999 -0.10152501 1.6495337e-38 290 328
-0.033406258 0.65700001 -0.10137072 1.6680089e-38 291 328
-0.032156132 0.65499997 -0.10106213 1.6955597e-38 292 328
-0.031007698 0.65499997 -0.10106213 1.7047792e-38 293 328
-0.029859263 0.65499997 -0.10106213 1.7047795e-38 294 328
-0.028710833 0.65499997 -0.10106213 1.7139991e-38 295 328
-0.027562398 0.65499997 -0.10106213 1.7232186e-38 296 328
-0.026413966 0.65499997 -0.10106213 1.7416217e-38 297 328
-0.025265532 0.65499997 -0.10106213 1.741657e-38 298 328
-0.024117097 0.65499997 -0.10106213 1.741657e-38 299 328
-0.022968665 0.65499997 -0.10106213 1.7325451e-38 300 328
-0.021820232 0.65499997 -0.10106213 1.7325451e-38 301 328
-0.020671798 0.65499997 -0.10106213 1.7142862e-38 302 328
-0.019523365 0.65499997 -0.10106213 1.7235057e-38 303 328
-0.018374931 0.65499997 -0.10106213 1.7600966e-38 304 328
-0.017226499 0.65499997 -0.10106213 1.7600966e-38 305 328
-0.016078066 0.65499997 -0.10106213 1.7510565e-38 306 328
-0.014906839 0.65399998 -0.10090783 1.7602761e-38 307 328
-0.013760159 0.65399998 -0.10090783 1.7786429e-38 308 328
-0.012613479 0.65399998 -0.10090783 1.7786429e-38 309 328
-0.011466799 0.65399998 -0.10090783 1.8061218e-38 310 328
-0.010335899 0.65499997 -0.10106213 1.8245968e-38 311 328
-0.0091874655 0.65499997 -0.10106213 1.8245968e-38 312 328
-0.008039033 0.65499997 -0.10106213 1.8338165e-38 313 328
-0.0068905996 0.65499997 -0.10106213 1.8154135e-38 314 328
-0.0057421662 0.65499997 -0.10106213 1.8246333e-38 315 328
-0.0045937328 0.65499997 -0.10106213 1.8246335e-38 316 328
-0.0034400397 0.65399998 -0.10090783 1.8154138e-38 317 328
-0.00229336 0.65399998 -0.10090783 1.8153784e-38 318 328
-0.00114668 0.65399998 -0.10090783 1.8061587e-38 319 328
0 0.65399998 -0.10090783 1.8060871e-38 320 328
0.00114668 0.65399998 -0.10090783 1.8153066e-38 321 328
0.00229336 0.65399998 -0.10090783 1.7785723e-38 322 328
0.0034347798 0.653 -0.10075355 1.7785723e-38 323 328
0.0045797066 0.653 -0.10075355 1.7877553e-38 324 328
0.0057246331 0.653 -0.10075355 1.7785357e-38 325 328
0.0068695596 0.653 -0.10075355 1.769388e-38 326 328
0.0080022132 0.65200001 -0.10059925 1.769388e-38 327 328
0.0091453865 0.65200001 -0.10059925 1.7877558e-38 328 328
0.01028856 0.65200001 -0.10059925 1.7785004e-38 329 328
0.011431733 0.65200001 -0.10059925 1.7876123e-38 330 328
0.012574906 0.65200001 -0.10059925 1.7968319e-38 331 328
0.01371808 0.65200001 -0.10059925 1.8059796e-38 332 328
0.014861252 0.65200001 -0.10059925 1.79676e-38 333 328
0.016078066 0.65499997 -0.10106213 1.7692445e-38 334 328
0.017226499 0.65499997 -0.10106213 1.7507694e-38 335 328
0.018374931 0.65499997 -0.10106213 1.7415854e-38 336 328
0.019523365 0.65499997 -0.10106213 1.7415854e-38 337 328
0.020671798 0.65499997 -0.10106213 1.73233e-38 338 328
0.021820232 0.65499997 -0.10106213 1.73233e-38 339 328
0.022968665 0.65499997 -0.10106213 1.7047426e-38 340 328
0.024117097 0.65499997 -0.10106213 1.7047426e-38 341 328
0.025226958 0.65399998 -0.10090783 1.6954875e-38 342 328
0.02637364 0.65399998 -0.10090783 1.7047429e-38 343 328
0.027520318 0.65399998 -0.10090783 1.6954525e-38 344 328
0.028666999 0.65399998 -0.10090783 1.6770132e-38 345 328
0.029813679 0.65399998 -0.10090783 1.6034719e-38 346 328
0.030960357 0.65399998 -0.10090783 1.6034719e-38 347 328
0.03210704 0.65399998 -0.10090783 1.5942517e-38 348 328
0.033253718 0.65399998 -0.10090783 1.5850321e-38 349 328
0.034400396 0.65399998 -0.10090783 1.6217308e-38 350 328
0.035547078 0.65399998 -0.10090783 1.6125113e-38 351 328
0.036693759 0.65399998 -0.10090783 1.6124747e-38 352 328
0.037840437 0.65399998 -0.10090783 1.6032551e-38 353 328
0.038987119 0.65399998 -0.10090783 1.5757404e-38 354 328
0.040133797 0.65399998 -0.10090783 1.5665208e-38 355 328
0.041343596 0.65499997 -0.10106213 1.5296431e-38 356 328
0.042492028 0.65499997 -0.10106213 1.5204235e-38 357 328
0.043640465 0.65499997 -0.10106213 1.5387545e-38 358 328
0.044788897 0.65499997 -0.10106213 1.5203154e-38 359 328
0.046077598 0.65700001 -0.10137072 1.538575e-38 360 328
0.04722954 0.65700001 -0.10137072 1.5201717e-38 361 328
0.048381478 0.65700001 -0.10137072 1.4742181e-38 362 328
0.049533416 0.65700001 -0.10137072 1.4742181e-38 363 328
0.050685361 0.65700001 -0.10137072 1.4374485e-38 364 328
0.051837299 0.65700001 -0.10137072 1.4190453e-38 365 328
0.052989237 0.65700001 -0.10137072 1.4098621e-38 366 328
0.054223582 0.65799999 -0.10152501 1.4006425e-38 367 328
0.055377278 0.65799999 -0.10152501 1.3822749e-38 368 328
0.056530971 0.65799999 -0.10152501 1.3730194e-38 369 328
0.057772331 0.65899998 -0.1016793 1.3821664e-38 370 328
0.058927774 0.65899998 -0.1016793 1.3729468e-38 371 328
0.060265575 0.66100001 -0.10198789 1.3728749e-38 372 328
0.061424527 0.66100001 -0.10198789 1.3728749e-38 373 328
0.062583476 0.66100001 -0.10198789 1.3545081e-38 374 328
0.063742429 0.66100001 -0.10198789 1.3452886e-38 375 328
0.064901382 0.66100001 -0.10198789 1.3361056e-38 376 328
0.066160277 0.662 -0.10214218 1.3177023e-38 377 328
0.067320988 0.662 -0.10214218 1.2992995e-38 378 328
0.068481691 0.662 -0.10214218 1.2900799e-38 379 328
0.069642402 0.662 -0.10214218 1.2440181e-38 380 328
