# .PCD v.7 - Point Cloud Data file format
FIELDS x y z rgb imX imY
SIZE 4 4 4 4 4 4
TYPE F F F F F F
COUNT 1 1 1 1 1 1
WIDTH 840
HEIGHT 1
VIEWPOINT 0 0 0 1 0 0 0
POINTS 840
DATA ascii
-0.040992931 0.83499998 0.058561329 1.1796607e-38 292 200
-0.039528899 0.83499998 0.058561329 1.1243433e-38 293 200
-0.038064864 0.83499998 0.058561329 1.0506967e-38 294 200
-0.036600832 0.83499998 0.058561329 1.023002e-38 295 200
-0.035220962 0.83700001 0.058701597 9.9541769e-39 296 200
-0.033753417 0.83700001 0.058701597 9.8619813e-39 297 200
-0.032285877 0.83700001 0.058701597 9.5850454e-39 298 200
-0.030965621 0.84100002 0.05898213 9.4928498e-39 299 200
-0.029491065 0.84100002 0.05898213 9.4932029e-39 300 200
-0.088450409 0.82700002 0.056550261 1.7428221e-38 259 201
-0.0870004 0.82700002 0.056550261 1.696505e-38 260 201
-0.085550398 0.82700002 0.056550261 1.5121137e-38 261 201
-0.084100381 0.82700002 0.056550261 1.5763202e-38 262 201
-0.082650378 0.82700002 0.056550261 1.5947593e-38 263 201
-0.081200369 0.82700002 0.056550261 1.6592205e-38 264 201
-0.079750367 0.82700002 0.056550261 1.6960987e-38 265 201
-0.078300357 0.82700002 0.056550261 1.7604913e-38 266 201
-0.076850355 0.82700002 0.056550261 1.7604913e-38 267 201
-0.075217992 0.82499999 0.056413498 1.7881496e-38 268 201
-0.073771499 0.82499999 0.056413498 1.7973692e-38 269 201
-0.072324999 0.82499999 0.056413498 1.7697831e-38 270 201
-0.070878498 0.82499999 0.056413498 1.7697831e-38 271 201
-0.069431998 0.82499999 0.056413498 1.7513086e-38 272 201
-0.067985497 0.82499999 0.056413498 1.7513086e-38 273 201
-0.066538997 0.82499999 0.056413498 1.7327619e-38 274 201
-0.065092497 0.82499999 0.056413498 1.7143228e-38 275 201
-0.063645996 0.82499999 0.056413498 1.6775165e-38 276 201
-0.062199496 0.82499999 0.056413498 1.6406742e-38 277 201
-0.060900278 0.82700002 0.056550261 1.6130152e-38 278 201
-0.059450272 0.82700002 0.056550261 1.5761369e-38 279 201
-0.058000267 0.82700002 0.056550261 1.5576256e-38 280 201
-0.056550261 0.82700002 0.056550261 1.5207472e-38 281 201
-0.055100251 0.82700002 0.056550261 1.4931243e-38 282 201
-0.053779993 0.829 0.05668702 1.474685e-38 283 201
-0.052326478 0.829 0.05668702 1.4469198e-38 284 201
-0.050995696 0.83099997 0.056823779 1.4008579e-38 285 201
-0.049538679 0.83099997 0.056823779 1.3823113e-38 286 201
-0.048197377 0.833 0.056960538 1.3269939e-38 287 201
-0.046736851 0.833 0.056960538 1.2624923e-38 288 201
-0.045276325 0.833 0.056960538 1.1887358e-38 289 201
-0.043920998 0.83499998 0.057097297 1.1242001e-38 290 201
-0.042456966 0.83499998 0.057097297 1.1334555e-38 291 201
-0.040992931 0.83499998 0.057097297 1.0597729e-38 292 201
-0.039528899 0.83499998 0.057097297 1.0136752e-38 293 201
-0.038064864 0.83499998 0.057097297 9.9527293e-39 294 201
-0.036688499 0.83700001 0.05723406 1.0137121e-38 295 201
-0.035220962 0.83700001 0.05723406 9.7690612e-39 296 201
-0.033753417 0.83700001 0.05723406 9.6768655e-39 297 201
-0.032285877 0.83700001 0.05723406 9.4010003e-39 298 201
-0.030965621 0.84100002 0.057507578 9.4935561e-39 299 201
-0.09011782 0.829 0.055233505 1.7244176e-38 258 202
-0.088450409 0.82700002 0.055100251 1.6414415e-38 259 202
-0.0870004 0.82700002 0.055100251 1.6318922e-38 260 202
-0.085757285 0.829 0.055233505 1.4843433e-38 261 202
-0.084100381 0.82700002 0.055100251 1.6131597e-38 262 202
-0.082650378 0.82700002 0.055100251 1.6592575e-38 263 202
-0.081200369 0.82700002 0.055100251 1.7327969e-38 264 202
-0.079750367 0.82700002 0.055100251 1.7420524e-38 265 202
-0.078300357 0.82700002 0.055100251 1.7605269e-38 266 202
-0.076850355 0.82700002 0.055100251 1.7881496e-38 267 202
-0.075217992 0.82499999 0.054966997 1.7697831e-38 268 202
-0.073771499 0.82499999 0.054966997 1.7790026e-38 269 202
-0.072324999 0.82499999 0.054966997 1.788079e-38 270 202
-0.070878498 0.82499999 0.054966997 1.7788594e-38 271 202
-0.069431998 0.82499999 0.054966997 1.7695327e-38 272 202
-0.067985497 0.82499999 0.054966997 1.760313e-38 273 202
-0.066538997 0.82499999 0.054966997 1.6958843e-38 274 202
-0.065092497 0.82499999 0.054966997 1.6774451e-38 275 202
-0.063645996 0.82499999 0.054966997 1.6406742e-38 276 202
-0.062199496 0.82499999 0.054966997 1.6037599e-38 277 202
-0.060752995 0.82499999 0.054966997 1.5853568e-38 278 202
-0.059450272 0.82700002 0.055100251 1.5484427e-38 279 202
-0.058000267 0.82700002 0.055100251 1.5023804e-38 280 202
-0.056550261 0.82700002 0.055100251 1.4747216e-38 281 202
-0.055100251 0.82700002 0.055100251 1.4469907e-38 282 202
-0.053650245 0.82700002 0.055100251 1.4469907e-38 283 202
-0.052326478 0.829 0.055233505 1.3917106e-38 284 202
-0.050872963 0.829 0.055233505 1.3179541e-38 285 202
-0.049538679 0.83099997 0.055366758 1.3085551e-38 286 202
-0.048197377 0.833 0.055500012 1.2440181e-38 287 202
-0.046736851 0.833 0.055500012 1.188737e-38 288 202
-0.045276325 0.833 0.055500012 1.1242001e-38 289 202
-0.043920998 0.83499998 0.055633266 1.0873244e-38 290 202
-0.042456966 0.83499998 0.055633266 1.0873244e-38 291 202
-0.040992931 0.83499998 0.055633266 1.0504477e-38 292 202
-0.039528899 0.83499998 0.055633266 1.022825e-38 293 202
-0.03815604 0.83700001 0.055766519 9.8612624e-39 294 202
-0.036688499 0.83700001 0.055766519 9.7690668e-39 295 202
-0.035220962 0.83700001 0.055766519 9.4935561e-39 296 202
-0.033753417 0.83700001 0.055766519 9.3088047e-39 297 202
-0.032285877 0.83700001 0.055766519 9.2162615e-39 298 202
-0.091350421 0.82700002 0.053650245 1.7336385e-38 257 203
-0.089900412 0.82700002 0.053650245 1.6784974e-38 258 203
-0.088450409 0.82700002 0.053650245 1.4572638e-38 259 203
-0.0870004 0.82700002 0.053650245 1.5763205e-38 260 203
-0.085757285 0.829 0.053779993 1.5855401e-38 261 203
-0.084100381 0.82700002 0.053650245 1.6775521e-38 262 203
-0.082650378 0.82700002 0.053650245 1.6959913e-38 263 203
-0.081200369 0.82700002 0.053650245 1.7421237e-38 264 203
-0.079557501 0.82499999 0.053520497 1.7513793e-38 265 203
-0.078110993 0.82499999 0.053520497 1.7605635e-38 266 203
-0.076664492 0.82499999 0.053520497 1.7697831e-38 267 203
-0.075217992 0.82499999 0.053520497 1.7697478e-38 268 203
-0.073592655 0.82300001 0.053390753 1.7697478e-38 269 203
-0.072149664 0.82300001 0.053390753 1.77886e-38 270 203
-0.070706673 0.82300001 0.053390753 1.760421e-38 271 203
-0.069263682 0.82300001 0.053390753 1.741982e-38 272 203
-0.067820683 0.82300001 0.053390753 1.7142874e-38 273 203
-0.066377692 0.82300001 0.053390753 1.6957763e-38 274 203
-0.065092497 0.82499999 0.053520497 1.6681536e-38 275 203
-0.063645996 0.82499999 0.053520497 1.6129799e-38 276 203
-0.062199496 0.82499999 0.053520497 1.5761375e-38 277 203
-0.060752995 0.82499999 0.053520497 1.5484782e-38 278 203
-0.059306499 0.82499999 0.053520497 1.4931609e-38 279 203
-0.058000267 0.82700002 0.053650245 1.4470986e-38 280 203
-0.056550261 0.82700002 0.053650245 1.4286236e-38 281 203
-0.055100251 0.82700002 0.053650245 1.391781e-38 282 203
-0.053650245 0.82700002 0.053650245 1.3641223e-38 283 203
-0.052326478 0.829 0.053779993 1.3455039e-38 284 203
-0.050872963 0.829 0.053779993 1.2532724e-38 285 203
-0.049538679 0.83099997 0.053909738 1.1793738e-38 286 203
-0.048197377 0.833 0.054039486 1.1609347e-38 287 203
-0.046736851 0.833 0.054039486 1.1148386e-38 288 203
-0.045276325 0.833 0.054039486 1.0779603e-38 289 203
-0.043920998 0.83499998 0.05416923 1.0504461e-38 290 203
-0.042456966 0.83499998 0.05416923 1.0412266e-38 291 203
-0.040992931 0.83499998 0.05416923 1.0136405e-38 292 203
-0.039528899 0.83499998 0.05416923 1.0044209e-38 293 203
-0.03815604 0.83700001 0.054298978 9.4935533e-39 294 203
-0.036688499 0.83700001 0.054298978 9.4013562e-39 295 203
-0.035220962 0.83700001 0.054298978 9.2166119e-39 296 203
-0.033753417 0.83700001 0.054298978 8.9400264e-39 297 203
-0.092800424 0.82700002 0.052200239 1.7704079e-38 256 204
-0.091350421 0.82700002 0.052200239 1.6966514e-38 257 204
-0.089900412 0.82700002 0.052200239 1.6228887e-38 258 204
-0.088664308 0.829 0.052326478 1.4569726e-38 259 204
-0.087210797 0.829 0.052326478 1.6314196e-38 260 204
-0.085757285 0.829 0.052326478 1.6774815e-38 261 204
-0.084100381 0.82700002 0.052200239 1.6684758e-38 262 204
-0.082450494 0.82499999 0.052073997 1.6960985e-38 263 204
-0.081004001 0.82499999 0.052073997 1.7421593e-38 264 204
-0.079557501 0.82499999 0.052073997 1.7605985e-38 265 204
-0.078110993 0.82499999 0.052073997 1.778895e-38 266 204
-0.076664492 0.82499999 0.052073997 1.778895e-38 267 204
-0.075035654 0.82300001 0.051947758 1.7605285e-38 268 204
-0.073592655 0.82300001 0.051947758 1.7605285e-38 269 204
-0.07197433 0.82099998 0.051821519 1.7512014e-38 270 204
-0.070534848 0.82099998 0.051821519 1.7327622e-38 271 204
-0.069263682 0.82300001 0.051947758 1.7142874e-38 272 204
-0.067820683 0.82300001 0.051947758 1.6774451e-38 273 204
-0.066377692 0.82300001 0.051947758 1.6497142e-38 274 204
-0.064934701 0.82300001 0.051947758 1.6312391e-38 275 204
-0.06349171 0.82300001 0.051947758 1.594504e-38 276 204
-0.062048711 0.82300001 0.051947758 1.5484062e-38 277 204
-0.060752995 0.82499999 0.052073997 1.483941e-38 278 204
-0.059306499 0.82499999 0.052073997 1.4563182e-38 279 204
-0.057859998 0.82499999 0.052073997 1.3919605e-38 280 204
-0.056550261 0.82700002 0.052200239 1.3550822e-38 281 204
-0.055100251 0.82700002 0.052200239 1.3180966e-38 282 204
-0.053650245 0.82700002 0.052200239 1.2443401e-38 283 204
-0.052326478 0.829 0.052326478 1.1704046e-38 284 204
-0.050872963 0.829 0.052326478 1.1334903e-38 285 204
-0.049538679 0.83099997 0.052452717 1.14246e-38 286 204
-0.048197377 0.833 0.05257896 1.14246e-38 287 204
-0.046736851 0.833 0.05257896 1.0596657e-38 288 204
-0.045385033 0.83499998 0.052705199 1.0504461e-38 289 204
-0.043920998 0.83499998 0.052705199 1.0045281e-38 290 204
-0.042456966 0.83499998 0.052705199 9.9527265e-39 291 204
-0.040992931 0.83499998 0.052705199 9.5861048e-39 292 204
-0.039623581 0.83700001 0.052831437 9.4935505e-39 293 204
-0.03815604 0.83700001 0.052831437 9.4013562e-39 294 204
-0.092800424 0.82700002 0.050750233 1.7153763e-38 256 205
-0.091350421 0.82700002 0.050750233 1.5401687e-38 257 205
-0.089900412 0.82700002 0.050750233 1.5579187e-38 258 205
-0.088664308 0.829 0.050872963 1.5394795e-38 259 205
-0.087210797 0.829 0.050872963 1.640746e-38 260 205
-0.085757285 0.829 0.050872963 1.6591853e-38 261 205
-0.084100381 0.82700002 0.050750233 1.7052812e-38 262 205
-0.082450494 0.82499999 0.0506275 1.7329397e-38 263 205
-0.081004001 0.82499999 0.0506275 1.742124e-38 264 205
-0.079557501 0.82499999 0.0506275 1.7513437e-38 265 205
-0.078110993 0.82499999 0.0506275 1.7512733e-38 266 205
-0.076478645 0.82300001 0.050504766 1.7604929e-38 267 205
-0.075035654 0.82300001 0.050504766 1.742054e-38 268 205
-0.073413812 0.82099998 0.050382029 1.742054e-38 269 205
-0.07197433 0.82099998 0.050382029 1.7143956e-38 270 205
-0.070534848 0.82099998 0.050382029 1.6867011e-38 271 205
-0.069095351 0.82099998 0.050382029 1.6866648e-38 272 205
-0.067820683 0.82300001 0.050504766 1.6497505e-38 273 205
-0.066377692 0.82300001 0.050504766 1.6129432e-38 274 205
-0.064934701 0.82300001 0.050504766 1.594504e-38 275 205
-0.06349171 0.82300001 0.050504766 1.548478e-38 276 205
-0.062048711 0.82300001 0.050504766 1.4931606e-38 277 205
-0.060752995 0.82499999 0.0506275 1.4469902e-38 278 205
-0.059306499 0.82499999 0.0506275 1.4469902e-38 279 205
-0.057859998 0.82499999 0.0506275 1.3826686e-38 280 205
-0.056413498 0.82499999 0.0506275 1.3273512e-38 281 205
-0.055100251 0.82700002 0.050750233 1.2442695e-38 282 205
-0.053650245 0.82700002 0.050750233 1.170513e-38 283 205
-0.052326478 0.829 0.050872963 1.1333852e-38 284 205
-0.050872963 0.829 0.050872963 1.1057266e-38 285 205
-0.049538679 0.83099997 0.050995696 1.0872522e-38 286 205
-0.048197377 0.833 0.051118433 1.0780325e-38 287 205
-0.046736851 0.833 0.051118433 1.0137477e-38 288 205
-0.045385033 0.83499998 0.051241163 1.0137477e-38 289 205
-0.043920998 0.83499998 0.051241163 9.6783005e-39 290 205
-0.042456966 0.83499998 0.051241163 9.5861048e-39 291 205
-0.040992931 0.83499998 0.051241163 9.217688e-39 292 205
-0.039623581 0.83700001 0.051363897 9.217688e-39 293 205
-0.092575997 0.82499999 0.049180996 1.6137788e-38 256 206
-0.091129497 0.82499999 0.049180996 1.4478625e-38 257 206
-0.089900412 0.82700002 0.049300224 1.6037628e-38 258 206
-0.088450409 0.82700002 0.049300224 1.6313855e-38 259 206
-0.0870004 0.82700002 0.049300224 1.6775521e-38 260 206
-0.085757285 0.829 0.049419452 1.6867717e-38 261 206
-0.084100381 0.82700002 0.049300224 1.7145729e-38 262 206
-0.082450494 0.82499999 0.049180996 1.7237925e-38 263 206
-0.081004001 0.82499999 0.049180996 1.7512719e-38 264 206
-0.079364628 0.82300001 0.049061771 1.7420524e-38 265 206
-0.077921636 0.82300001 0.049061771 1.7787511e-38 266 206
-0.07629279 0.82099998 0.048942544 1.7695315e-38 267 206
-0.074853301 0.82099998 0.048942544 1.7327619e-38 268 206
-0.073234983 0.81900001 0.048823319 1.7235423e-38 269 206
-0.071799003 0.81900001 0.048823319 1.686772e-38 270 206
-0.070534848 0.82099998 0.048942544 1.6682968e-38 271 206
-0.069095351 0.82099998 0.048942544 1.6498211e-38 272 206
-0.067655869 0.82099998 0.048942544 1.631418e-38 273 206
-0.066377692 0.82300001 0.049061771 1.5852839e-38 274 206
-0.064934701 0.82300001 0.049061771 1.5484415e-38 275 206
-0.06349171 0.82300001 0.049061771 1.5298946e-38 276 206
-0.062048711 0.82300001 0.049061771 1.4930163e-38 277 206
-0.06060572 0.82300001 0.049061771 1.4101478e-38 278 206
-0.059306499 0.82499999 0.049180996 1.3824532e-38 279 206
-0.057859998 0.82499999 0.049180996 1.3270643e-38 280 206
-0.056413498 0.82499999 0.049180996 1.2533078e-38 281 206
-0.055100251 0.82700002 0.049300224 1.1333481e-38 282 206
-0.053650245 0.82700002 0.049300224 1.1425676e-38 283 206
-0.052326478 0.829 0.049419452 1.1240228e-38 284 206
-0.050872963 0.829 0.049419452 1.1055837e-38 285 206
-0.049538679 0.83099997 0.049538679 1.0412984e-38 286 206
-0.048197377 0.833 0.049657907 1.0228953e-38 287 206
-0.046736851 0.833 0.049657907 9.8616127e-39 288 206
-0.045385033 0.83499998 0.049777132 9.8616127e-39 289 206
-0.043920998 0.83499998 0.049777132 9.7694171e-39 290 206
-0.042456966 0.83499998 0.049777132 9.5846657e-39 291 206
-0.040992931 0.83499998 0.049777132 9.3088075e-39 292 206
-0.093794569 0.82300001 0.04761878 1.687467e-38 255 207
-0.092351571 0.82300001 0.04761878 1.5581705e-38 256 207
-0.090908572 0.82300001 0.04761878 1.484414e-38 257 207
-0.089682996 0.82499999 0.047734499 1.6040104e-38 258 207
-0.088236496 0.82499999 0.047734499 1.6316691e-38 259 207
-0.086789995 0.82499999 0.047734499 1.6685108e-38 260 207
-0.085550398 0.82700002 0.047850218 1.705353e-38 261 207
-0.083896995 0.82499999 0.047734499 1.7421593e-38 262 207
-0.082250617 0.82300001 0.04761878 1.751379e-38 263 207
-0.080807626 0.82300001 0.04761878 1.7513072e-38 264 207
-0.079171762 0.82099998 0.047503054 1.7420518e-38 265 207
-0.07773228 0.82099998 0.047503054 1.7420168e-38 266 207
-0.07629279 0.82099998 0.047503054 1.7420168e-38 267 207
-0.074670963 0.81900001 0.047387339 1.7052111e-38 268 207
-0.073234983 0.81900001 0.047387339 1.6959915e-38 269 207
-0.071799003 0.81900001 0.047387339 1.6775521e-38 270 207
-0.070363015 0.81900001 0.047387339 1.6314543e-38 271 207
-0.068927035 0.81900001 0.047387339 1.6405293e-38 272 207
-0.067655869 0.82099998 0.047503054 1.603687e-38 273 207
-0.066216379 0.82099998 0.047503054 1.575992e-38 274 207
-0.064776897 0.82099998 0.047503054 1.5391498e-38 275 207
-0.063337415 0.82099998 0.047503054 1.474685e-38 276 207
-0.062048711 0.82300001 0.04761878 1.4469905e-38 277 207
-0.06060572 0.82300001 0.04761878 1.3641592e-38 278 207
-0.059162725 0.82300001 0.04761878 1.3272809e-38 279 207
-0.057859998 0.82499999 0.047734499 1.2348709e-38 280 207
-0.056413498 0.82499999 0.047734499 1.1979925e-38 281 207
-0.054966997 0.82499999 0.047734499 1.1426766e-38 282 207
-0.053650245 0.82700002 0.047850218 1.1057985e-38 283 207
-0.052200239 0.82700002 0.047850218 1.0689931e-38 284 207
-0.050872963 0.829 0.04796594 1.0412984e-38 285 207
-0.049538679 0.83099997 0.048081655 1.0412268e-38 286 207
-0.048081655 0.83099997 0.048081655 1.0227518e-38 287 207
-0.046736851 0.833 0.048197377 9.4935533e-39 288 207
-0.045385033 0.83499998 0.048313096 9.3091606e-39 289 207
-0.093566626 0.82099998 0.046063572 1.5398803e-38 255 208
-0.092127144 0.82099998 0.046063572 1.5210379e-38 256 208
-0.090908572 0.82300001 0.046175785 1.5579521e-38 257 208
-0.089465588 0.82300001 0.046175785 1.6408514e-38 258 208
-0.08802259 0.82300001 0.046175785 1.6592905e-38 259 208
-0.086579598 0.82300001 0.046175785 1.7145716e-38 260 208
-0.085343495 0.82499999 0.046287999 1.7329747e-38 261 208
-0.083896995 0.82499999 0.046287999 1.7513787e-38 262 208
-0.082250617 0.82300001 0.046175785 1.7513787e-38 263 208
-0.080807626 0.82300001 0.046175785 1.7605269e-38 264 208
-0.079171762 0.82099998 0.046063572 1.7420518e-38 265 208
-0.077542923 0.81900001 0.045951359 1.7327969e-38 266 208
-0.076106943 0.81900001 0.045951359 1.7235774e-38 267 208
-0.074670963 0.81900001 0.045951359 1.6959547e-38 268 208
-0.073234983 0.81900001 0.045951359 1.686735e-38 269 208
-0.071799003 0.81900001 0.045951359 1.6590757e-38 270 208
-0.070363015 0.81900001 0.045951359 1.6129779e-38 271 208
-0.068927035 0.81900001 0.045951359 1.6128332e-38 272 208
-0.067491055 0.81900001 0.045951359 1.6036136e-38 273 208
-0.066216379 0.82099998 0.046063572 1.5392217e-38 274 208
-0.064776897 0.82099998 0.046063572 1.5115271e-38 275 208
-0.063337415 0.82099998 0.046063572 1.4378435e-38 276 208
-0.062048711 0.82300001 0.046175785 1.4194044e-38 277 208
-0.06060572 0.82300001 0.046175785 1.3088065e-38 278 208
-0.059162725 0.82300001 0.046175785 1.2442695e-38 279 208
-0.057859998 0.82499999 0.046287999 1.1519314e-38 280 208
-0.056413498 0.82499999 0.046287999 1.1427117e-38 281 208
-0.054966997 0.82499999 0.046287999 1.1333496e-38 282 208
-0.053650245 0.82700002 0.046400212 1.1057269e-38 283 208
-0.052200239 0.82700002 0.046400212 1.0597733e-38 284 208
-0.050872963 0.829 0.046512425 1.0412982e-38 285 208
-0.049419452 0.829 0.046512425 1.0044562e-38 286 208
-0.048081655 0.83099997 0.046624638 9.8598106e-39 287 208
-0.046736851 0.833 0.046736851 9.216965e-39 288 208
-0.093566626 0.82099998 0.044624086 1.5028196e-38 255 209
-0.092127144 0.82099998 0.044624086 1.5761372e-38 256 209
-0.090687655 0.82099998 0.044624086 1.6314546e-38 257 209
-0.089248173 0.82099998 0.044624086 1.6776576e-38 258 209
-0.087808676 0.82099998 0.044624086 1.714536e-38 259 209
-0.086369194 0.82099998 0.044624086 1.7513067e-38 260 209
-0.084929712 0.82099998 0.044624086 1.7605622e-38 261 209
-0.083490223 0.82099998 0.044624086 1.7606338e-38 262 209
-0.082050733 0.82099998 0.044624086 1.7606338e-38 263 209
-0.080414876 0.81900001 0.044515379 1.7788935e-38 264 209
-0.078978904 0.81900001 0.044515379 1.7604183e-38 265 209
-0.077542923 0.81900001 0.044515379 1.7145013e-38 266 209
-0.076106943 0.81900001 0.044515379 1.7052458e-38 267 209
-0.074488603 0.81699997 0.044406671 1.6868067e-38 268 209
-0.073056139 0.81699997 0.044406671 1.6499643e-38 269 209
-0.071623661 0.81699997 0.044406671 1.649784e-38 270 209
-0.07019119 0.81699997 0.044406671 1.6221252e-38 271 209
-0.068927035 0.81900001 0.044515379 1.6219811e-38 272 209
-0.067491055 0.81900001 0.044515379 1.5758473e-38 273 209
-0.066055074 0.81900001 0.044515379 1.520747e-38 274 209
-0.064776897 0.82099998 0.044624086 1.4931243e-38 275 209
-0.063337415 0.82099998 0.044624086 1.4561747e-38 276 209
-0.061897919 0.82099998 0.044624086 1.4008932e-38 277 209
-0.06060572 0.82300001 0.044732794 1.2810757e-38 278 209
-0.059162725 0.82300001 0.044732794 1.1980998e-38 279 209
-0.057859998 0.82499999 0.044841498 1.1611156e-38 280 209
-0.056413498 0.82499999 0.044841498 1.1242732e-38 281 209
-0.054966997 0.82499999 0.044841498 1.1057988e-38 282 209
-0.053650245 0.82700002 0.044950206 1.0965792e-38 283 209
-0.052200239 0.82700002 0.044950206 1.0505533e-38 284 209
-0.050872963 0.829 0.04505891 1.0413338e-38 285 209
-0.049419452 0.829 0.04505891 9.6772215e-39 286 209
-0.048081655 0.83099997 0.045167617 9.1240477e-39 287 209
-0.094774678 0.81900001 0.043079399 1.493382e-38 254 210
-0.093338698 0.81900001 0.043079399 1.5118211e-38 255 210
-0.091902718 0.81900001 0.043079399 1.6407448e-38 256 210
-0.090687655 0.82099998 0.043184597 1.6683675e-38 257 210
-0.089248173 0.82099998 0.043184597 1.6960616e-38 258 210
-0.087594777 0.81900001 0.043079399 1.7421593e-38 259 210
-0.086158797 0.81900001 0.043079399 1.7513787e-38 260 210
-0.084722817 0.81900001 0.043079399 1.7605983e-38 261 210
-0.083286837 0.81900001 0.043079399 1.7698534e-38 262 210
-0.081850857 0.81900001 0.043079399 1.7698534e-38 263 210
-0.080414876 0.81900001 0.043079399 1.7788935e-38 264 210
-0.078786023 0.81699997 0.042974196 1.7696738e-38 265 210
-0.077353559 0.81699997 0.042974196 1.7052814e-38 266 210
-0.075921081 0.81699997 0.042974196 1.6868423e-38 267 210
-0.074488603 0.81699997 0.042974196 1.6775151e-38 268 210
-0.073056139 0.81699997 0.042974196 1.6498564e-38 269 210
-0.071623661 0.81699997 0.042974196 1.631345e-38 270 210
-0.07019119 0.81699997 0.042974196 1.5944669e-38 271 210
-0.068758719 0.81699997 0.042974196 1.5759202e-38 272 210
-0.06732624 0.81699997 0.042974196 1.5482615e-38 273 210
-0.066055074 0.81900001 0.043079399 1.5114205e-38 274 210
-0.064619094 0.81900001 0.043079399 1.4745422e-38 275 210
-0.063337415 0.82099998 0.043184597 1.3917109e-38 276 210
-0.061897919 0.82099998 0.043184597 1.3455771e-38 277 210
-0.06060572 0.82300001 0.043289799 1.2257232e-38 278 210
-0.059162725 0.82300001 0.043289799 1.1519667e-38 279 210
-0.057859998 0.82499999 0.043394998 1.151824e-38 280 210
-0.056413498 0.82499999 0.043394998 1.1333849e-38 281 210
-0.054966997 0.82499999 0.043394998 1.0690648e-38 282 210
-0.053650245 0.82700002 0.0435002 1.0506616e-38 283 210
-0.052200239 0.82700002 0.0435002 1.0047079e-38 284 210
-0.050872963 0.829 0.043605398 9.6782977e-39 285 210
-0.049419452 0.829 0.043605398 9.3088103e-39 286 210
-0.096210659 0.81900001 0.041643418 1.5215501e-38 253 211
-0.094774678 0.81900001 0.041643418 1.5300432e-38 254 211
-0.093338698 0.81900001 0.041643418 1.5945801e-38 255 211
-0.091902718 0.81900001 0.041643418 1.6683672e-38 256 211
-0.090466738 0.81900001 0.041643418 1.6868423e-38 257 211
-0.089030758 0.81900001 0.041643418 1.7328675e-38 258 211
-0.087594777 0.81900001 0.041643418 1.7513067e-38 259 211
-0.086158797 0.81900001 0.041643418 1.7789651e-38 260 211
-0.084722817 0.81900001 0.041643418 1.7789651e-38 261 211
-0.083286837 0.81900001 0.041643418 1.7698537e-38 262 211
-0.081850857 0.81900001 0.041643418 1.7698537e-38 263 211
-0.080414876 0.81900001 0.041643418 1.7789298e-38 264 211
-0.078786023 0.81699997 0.041541722 1.7420874e-38 265 211
-0.077353559 0.81699997 0.041541722 1.7144657e-38 266 211
-0.075921081 0.81699997 0.041541722 1.6775873e-38 267 211
-0.074306265 0.815 0.041440032 1.6681884e-38 268 211
-0.072877295 0.815 0.041440032 1.6405297e-38 269 211
-0.071448334 0.815 0.041440032 1.622018e-38 270 211
-0.070019364 0.815 0.041440032 1.5943591e-38 271 211
-0.068590395 0.815 0.041440032 1.557481e-38 272 211
-0.06732624 0.81699997 0.041541722 1.5390419e-38 273 211
-0.066055074 0.81900001 0.041643418 1.4929812e-38 274 211
-0.064619094 0.81900001 0.041643418 1.4561031e-38 275 211
-0.063337415 0.82099998 0.041745111 1.3547601e-38 276 211
-0.061897919 0.82099998 0.041745111 1.2902231e-38 277 211
-0.06060572 0.82300001 0.041846808 1.1979922e-38 278 211
-0.059162725 0.82300001 0.041846808 1.1426748e-38 279 211
-0.057859998 0.82499999 0.041948497 1.1333849e-38 280 211
-0.056413498 0.82499999 0.041948497 1.1241653e-38 281 211
-0.054966997 0.82499999 0.041948497 1.0506616e-38 282 211
-0.053520497 0.82499999 0.041948497 1.0414421e-38 283 211
-0.052200239 0.82700002 0.04205019 9.9545272e-39 284 211
-0.050872963 0.829 0.042151887 8.9407354e-39 285 211
-0.049419452 0.829 0.042151887 8.844612e-39 286 211
-0.097630851 0.80699998 0.039618317 1.7704445e-38 251 212
-0.096215919 0.80699998 0.039618317 1.5859774e-38 252 212
-0.095740765 0.815 0.040011063 1.447684e-38 253 212
-0.094311796 0.815 0.040011063 1.5761037e-38 254 212
-0.093110763 0.81699997 0.040109251 1.6314211e-38 255 212
-0.091678284 0.81699997 0.040109251 1.6775867e-38 256 212
-0.090245813 0.81699997 0.040109251 1.7052814e-38 257 212
-0.089030758 0.81900001 0.040207438 1.7420871e-38 258 212
-0.087594777 0.81900001 0.040207438 1.7605622e-38 259 212
-0.085948393 0.81699997 0.040109251 1.7513787e-38 260 212
-0.084515922 0.81699997 0.040109251 1.7698537e-38 261 212
-0.083083443 0.81699997 0.040109251 1.7881493e-38 262 212
-0.08165098 0.81699997 0.040109251 1.7789298e-38 263 212
-0.080218501 0.81699997 0.040109251 1.7604913e-38 264 212
-0.078786023 0.81699997 0.040109251 1.7420521e-38 265 212
-0.077164195 0.815 0.040011063 1.7143578e-38 266 212
-0.075735234 0.815 0.040011063 1.6775154e-38 267 212
-0.074306265 0.815 0.040011063 1.6497492e-38 268 212
-0.072877295 0.815 0.040011063 1.6036514e-38 269 212
-0.071448334 0.815 0.040011063 1.6035068e-38 270 212
-0.070019364 0.815 0.040011063 1.5850318e-38 271 212
-0.068590395 0.815 0.040011063 1.5207107e-38 272 212
-0.067161433 0.815 0.040011063 1.493016e-38 273 212
-0.065893769 0.81699997 0.040109251 1.4378438e-38 274 212
-0.064619094 0.81900001 0.040207438 1.391746e-38 275 212
-0.063337415 0.82099998 0.040305622 1.2995513e-38 276 212
-0.061897919 0.82099998 0.040305622 1.1981721e-38 277 212
-0.06060572 0.82300001 0.040403813 1.1611863e-38 278 212
-0.059162725 0.82300001 0.040403813 1.1243439e-38 279 212
-0.057859998 0.82499999 0.040502001 1.0874673e-38 280 212
-0.056413498 0.82499999 0.040502001 1.0782477e-38 281 212
-0.054966997 0.82499999 0.040502001 1.0230391e-38 282 212
-0.053520497 0.82499999 0.040502001 1.004636e-38 283 212
-0.052200239 0.82700002 0.040600184 9.40065e-39 284 212
-0.050872963 0.829 0.040698372 8.4786937e-39 285 212
-0.099045791 0.80699998 0.038203377 1.7428218e-38 250 213
-0.097630851 0.80699998 0.038203377 1.6598456e-38 251 213
-0.096215919 0.80699998 0.038203377 1.4936353e-38 252 213
-0.095505819 0.81300002 0.038487419 1.4659768e-38 253 213
-0.094080359 0.81300002 0.038487419 1.6314546e-38 254 213
-0.093110763 0.81699997 0.03867678 1.6682968e-38 255 213
-0.091678284 0.81699997 0.03867678 1.6960253e-38 256 213
-0.090245813 0.81699997 0.03867678 1.723648e-38 257 213
-0.088813342 0.81699997 0.03867678 1.7512338e-38 258 213
-0.087380864 0.81699997 0.03867678 1.7697088e-38 259 213
-0.085948393 0.81699997 0.03867678 1.7789648e-38 260 213
-0.084515922 0.81699997 0.03867678 1.7789648e-38 261 213
-0.082880065 0.815 0.038582098 1.7790379e-38 262 213
-0.081451096 0.815 0.038582098 1.7698184e-38 263 213
-0.080218501 0.81699997 0.03867678 1.7513437e-38 264 213
-0.078593165 0.815 0.038582098 1.7052458e-38 265 213
-0.077164195 0.815 0.038582098 1.6959547e-38 266 213
-0.075735234 0.815 0.038582098 1.6314177e-38 267 213
-0.074123919 0.81300002 0.038487419 1.5944669e-38 268 213
-0.072698459 0.81300002 0.038487419 1.5575526e-38 269 213
-0.071448334 0.815 0.038582098 1.5482246e-38 270 213
-0.070019364 0.815 0.038582098 1.5390049e-38 271 213
-0.068590395 0.815 0.038582098 1.493016e-38 272 213
-0.067161433 0.815 0.038582098 1.4376986e-38 273 213
-0.065893769 0.81699997 0.03867678 1.3916027e-38 274 213
-0.064619094 0.81900001 0.038771462 1.3362854e-38 275 213
-0.063183114 0.81900001 0.038771462 1.2165762e-38 276 213
-0.062048711 0.82300001 0.038960818 1.1428197e-38 277 213
-0.06060572 0.82300001 0.038960818 1.1701555e-38 278 213
-0.059162725 0.82300001 0.038960818 1.1333133e-38 279 213
-0.057859998 0.82499999 0.039055496 1.1057632e-38 280 213
-0.056413498 0.82499999 0.039055496 1.0597013e-38 281 213
-0.054966997 0.82499999 0.039055496 9.8616155e-39 282 213
-0.053650245 0.82700002 0.039150178 8.5708767e-39 283 213
-0.052326478 0.829 0.039244857 8.1978104e-39 284 213
-0.099045791 0.80699998 0.036788441 1.724346e-38 250 214
-0.097630851 0.80699998 0.036788441 1.5952721e-38 251 214
-0.096692823 0.81099999 0.036970787 1.4566464e-38 252 214
-0.095505819 0.81300002 0.03706196 1.5027082e-38 253 214
-0.094080359 0.81300002 0.03706196 1.6407795e-38 254 214
-0.092882827 0.815 0.037153132 1.6684022e-38 255 214
-0.091453865 0.815 0.037153132 1.7144284e-38 256 214
-0.090024896 0.815 0.037153132 1.7328675e-38 257 214
-0.088595927 0.815 0.037153132 1.7604539e-38 258 214
-0.087166965 0.815 0.037153132 1.7788932e-38 259 214
-0.085738003 0.815 0.037153132 1.7789298e-38 260 214
-0.084309027 0.815 0.037153132 1.7881493e-38 261 214
-0.082880065 0.815 0.037153132 1.7697831e-38 262 214
-0.081451096 0.815 0.037153132 1.7605635e-38 263 214
-0.080022126 0.815 0.037153132 1.7603833e-38 264 214
-0.078593165 0.815 0.037153132 1.7327606e-38 265 214
-0.076974839 0.81300002 0.03706196 1.6682953e-38 266 214
-0.075549379 0.81300002 0.03706196 1.6222333e-38 267 214
-0.074123919 0.81300002 0.03706196 1.6128337e-38 268 214
-0.072698459 0.81300002 0.03706196 1.5759555e-38 269 214
-0.071448334 0.815 0.037153132 1.5574442e-38 270 214
-0.070019364 0.815 0.037153132 1.5297853e-38 271 214
-0.068590395 0.815 0.037153132 1.4837248e-38 272 214
-0.067161433 0.815 0.037153132 1.437627e-38 273 214
-0.065893769 0.81699997 0.037244301 1.3823116e-38 274 214
-0.064619094 0.81900001 0.037335481 1.2900799e-38 275 214
-0.063183114 0.81900001 0.037335481 1.1796625e-38 276 214
-0.062048711 0.82300001 0.037517827 1.1427844e-38 277 214
-0.06060572 0.82300001 0.037517827 1.1333499e-38 278 214
-0.059306499 0.82499999 0.037608996 1.1241303e-38 279 214
-0.057859998 0.82499999 0.037608996 1.050626e-38 280 214
-0.056413498 0.82499999 0.037608996 1.0229672e-38 281 214
-0.055100251 0.82700002 0.037700173 8.9403977e-39 282 214
-0.053650245 0.82700002 0.037700173 8.110637e-39 283 214
-0.099291265 0.80900002 0.035461165 1.6415118e-38 250 215
-0.097872816 0.80900002 0.035461165 1.4571206e-38 251 215
-0.096692823 0.81099999 0.035548832 1.5209663e-38 252 215
-0.095505819 0.81300002 0.0356365 1.5762836e-38 253 215
-0.094080359 0.81300002 0.0356365 1.6683306e-38 254 215
-0.092654899 0.81300002 0.0356365 1.6867697e-38 255 215
-0.091229439 0.81300002 0.0356365 1.7235761e-38 256 215
-0.089803979 0.81300002 0.0356365 1.7511988e-38 257 215
-0.088378519 0.81300002 0.0356365 1.7696013e-38 258 215
-0.087166965 0.815 0.035724167 1.7788209e-38 259 215
-0.085738003 0.815 0.035724167 1.7605985e-38 260 215
-0.084309027 0.815 0.035724167 1.7698181e-38 261 215
-0.082880065 0.815 0.035724167 1.7605638e-38 262 215
-0.081451096 0.815 0.035724167 1.7513083e-38 263 215
-0.080022126 0.815 0.035724167 1.7327972e-38 264 215
-0.078593165 0.815 0.035724167 1.695955e-38 265 215
-0.076974839 0.81300002 0.0356365 1.6682956e-38 266 215
-0.075549379 0.81300002 0.0356365 1.6129782e-38 267 215
-0.074123919 0.81300002 0.0356365 1.5852824e-38 268 215
-0.072698459 0.81300002 0.0356365 1.5391846e-38 269 215
-0.071448334 0.815 0.035724167 1.5298572e-38 270 215
-0.070019364 0.815 0.035724167 1.4929791e-38 271 215
-0.068590395 0.815 0.035724167 1.4468833e-38 272 215
-0.067161433 0.815 0.035724167 1.4008213e-38 273 215
-0.065893769 0.81699997 0.03581183 1.2811132e-38 274 215
-0.064619094 0.81900001 0.035899501 1.1796978e-38 275 215
-0.063183114 0.81900001 0.035899501 1.1427491e-38 276 215
-0.062048711 0.82300001 0.036074832 1.1243098e-38 277 215
-0.06060572 0.82300001 0.036074832 1.1150181e-38 278 215
-0.059306499 0.82499999 0.036162499 1.096579e-38 279 215
-0.057859998 0.82499999 0.036162499 1.0414417e-38 280 215
-0.056550261 0.82700002 0.036250167 1.0045275e-38 281 215
-0.055100251 0.82700002 0.036250167 7.926966e-39 282 215
-0.099782199 0.81300002 0.03421104 1.5494219e-38 250 216
-0.098356739 0.81300002 0.03421104 1.3834339e-38 251 216
-0.096931279 0.81300002 0.03421104 1.5853215e-38 252 216
-0.095505819 0.81300002 0.03421104 1.6314193e-38 253 216
-0.094080359 0.81300002 0.03421104 1.6683306e-38 254 216
-0.092654899 0.81300002 0.03421104 1.7144284e-38 255 216
-0.091005012 0.81099999 0.034126882 1.7327959e-38 256 216
-0.089583054 0.81099999 0.034126882 1.7604186e-38 257 216
-0.088161096 0.81099999 0.034126882 1.7604183e-38 258 216
-0.086953059 0.81300002 0.03421104 1.7788935e-38 259 216
-0.085527599 0.81300002 0.03421104 1.7788945e-38 260 216
-0.084102139 0.81300002 0.03421104 1.7788945e-38 261 216
-0.082676686 0.81300002 0.03421104 1.7513086e-38 262 216
-0.081251219 0.81300002 0.03421104 1.7420889e-38 263 216
-0.079825759 0.81300002 0.03421104 1.6959915e-38 264 216
-0.078400299 0.81300002 0.03421104 1.6682968e-38 265 216
-0.076974839 0.81300002 0.03421104 1.6498211e-38 266 216
-0.075549379 0.81300002 0.03421104 1.5945038e-38 267 216
-0.074123919 0.81300002 0.03421104 1.5943942e-38 268 216
-0.072698459 0.81300002 0.03421104 1.5482965e-38 269 216
-0.071448334 0.815 0.034295198 1.5022708e-38 270 216
-0.070019364 0.815 0.034295198 1.4654286e-38 271 216
-0.068590395 0.815 0.034295198 1.4468835e-38 272 216
-0.067161433 0.815 0.034295198 1.3362488e-38 273 216
-0.065893769 0.81699997 0.034379359 1.2167203e-38 274 216
-0.064619094 0.81900001 0.034463517 1.1060857e-38 275 216
-0.063183114 0.81900001 0.034463517 1.142641e-38 276 216
-0.061747137 0.81900001 0.034463517 1.1242379e-38 277 216
-0.06060572 0.82300001 0.034631841 1.1058341e-38 278 216
-0.059306499 0.82499999 0.034715999 1.0873591e-38 279 216
-0.057859998 0.82499999 0.034715999 9.8626819e-39 280 216
-0.056550261 0.82700002 0.034800157 8.8488901e-39 281 216
-0.099782199 0.81300002 0.03278558 1.5306565e-38 250 217
-0.098356739 0.81300002 0.03278558 1.4108022e-38 251 217
-0.096931279 0.81300002 0.03278558 1.6222333e-38 252 217
-0.095505819 0.81300002 0.03278558 1.6590757e-38 253 217
-0.094080359 0.81300002 0.03278558 1.68677e-38 254 217
-0.092654899 0.81300002 0.03278558 1.7236124e-38 255 217
-0.091005012 0.81099999 0.032704927 1.7420874e-38 256 217
-0.089583054 0.81099999 0.032704927 1.7605267e-38 257 217
-0.088161096 0.81099999 0.032704927 1.7788935e-38 258 217
-0.086739153 0.81099999 0.032704927 1.788113e-38 259 217
-0.085317194 0.81099999 0.032704927 1.7881499e-38 260 217
-0.083895244 0.81099999 0.032704927 1.7604913e-38 261 217
-0.082473285 0.81099999 0.032704927 1.7512366e-38 262 217
-0.081051342 0.81099999 0.032704927 1.7327975e-38 263 217
-0.079629384 0.81099999 0.032704927 1.6775517e-38 264 217
-0.078400299 0.81300002 0.03278558 1.649929e-38 265 217
-0.076974839 0.81300002 0.03278558 1.6221978e-38 266 217
-0.075549379 0.81300002 0.03278558 1.5853195e-38 267 217
-0.074123919 0.81300002 0.03278558 1.5392217e-38 268 217
-0.072698459 0.81300002 0.03278558 1.5115271e-38 269 217
-0.071448334 0.815 0.032866232 1.4746847e-38 270 217
-0.070019364 0.815 0.032866232 1.4469902e-38 271 217
-0.068590395 0.815 0.032866232 1.428444e-38 272 217
-0.067161433 0.815 0.032866232 1.2993701e-38 273 217
-0.065893769 0.81699997 0.032946885 1.1614026e-38 274 217
-0.064461298 0.81699997 0.032946885 1.1245604e-38 275 217
-0.063183114 0.81900001 0.033027537 1.1427847e-38 276 217
-0.061747137 0.81900001 0.033027537 1.11509e-38 277 217
-0.060458437 0.82099998 0.03310819 1.0690998e-38 278 217
-0.059306499 0.82499999 0.033269498 1.0506967e-38 279 217
-0.057859998 0.82499999 0.033269498 9.218044e-39 280 217
-0.099782199 0.81300002 0.03136012 1.539659e-38 250 218
-0.098114774 0.81099999 0.031282969 1.4843417e-38 251 218
-0.096692823 0.81099999 0.031282969 1.6314884e-38 252 218
-0.095270865 0.81099999 0.031282969 1.6775502e-38 253 218
-0.093848921 0.81099999 0.031282969 1.69599e-38 254 218
-0.092426963 0.81099999 0.031282969 1.7328322e-38 255 218
-0.091005012 0.81099999 0.031282969 1.7513072e-38 256 218
-0.089362144 0.80900002 0.031205826 1.7605269e-38 257 218
-0.087943695 0.80900002 0.031205826 1.7789298e-38 258 218
-0.086739153 0.81099999 0.031282969 1.7789298e-38 259 218
-0.085317194 0.81099999 0.031282969 1.7605638e-38 260 218
-0.083895244 0.81099999 0.031282969 1.7513083e-38 261 218
-0.082473285 0.81099999 0.031282969 1.742017e-38 262 218
-0.081051342 0.81099999 0.031282969 1.7143225e-38 263 218
-0.079629384 0.81099999 0.031282969 1.6775154e-38 264 218
-0.078400299 0.81300002 0.03136012 1.6498208e-38 265 218
-0.076785475 0.81099999 0.031282969 1.6038302e-38 266 218
-0.075363517 0.81099999 0.031282969 1.5485129e-38 267 218
-0.073941574 0.81099999 0.031282969 1.5115271e-38 268 218
-0.072519615 0.81099999 0.031282969 1.4839043e-38 269 218
-0.071272999 0.81300002 0.03136012 1.447134e-38 270 218
-0.069847539 0.81300002 0.03136012 1.4102197e-38 271 218
-0.068422079 0.81300002 0.03136012 1.3366081e-38 272 218
-0.067161433 0.815 0.031437267 1.1614364e-38 273 218
-0.065732464 0.815 0.031437267 1.1336364e-38 274 218
-0.064461298 0.81699997 0.03151441 1.1428919e-38 275 218
-0.063183114 0.81900001 0.031591557 1.1151986e-38 276 218
-0.061747137 0.81900001 0.031591557 1.0967234e-38 277 218
-0.060311157 0.81900001 0.031591557 1.0599175e-38 278 218
-0.059018951 0.82099998 0.031668708 1.0414784e-38 279 218
-0.057859998 0.82499999 0.031822998 7.9266031e-39 280 218
-0.10120767 0.81300002 0.02993466 1.4755967e-38 249 219
-0.099782199 0.81300002 0.02993466 1.5486622e-38 250 219
-0.098114774 0.81099999 0.02986102 1.5486622e-38 251 219
-0.096692823 0.81099999 0.02986102 1.6590754e-38 252 219
-0.095270865 0.81099999 0.02986102 1.6775504e-38 253 219
-0.093848921 0.81099999 0.02986102 1.7236127e-38 254 219
-0.092426963 0.81099999 0.02986102 1.7420518e-38 255 219
-0.090780586 0.80900002 0.02978738 1.7513793e-38 256 219
-0.089362144 0.80900002 0.02978738 1.7605988e-38 257 219
-0.087943695 0.80900002 0.02978738 1.77893e-38 258 219
-0.086311333 0.80699998 0.029713741 1.77893e-38 259 219
-0.084896393 0.80699998 0.029713741 1.7972625e-38 260 219
-0.083688356 0.80900002 0.02978738 1.7695678e-38 261 219
-0.082269907 0.80900002 0.02978738 1.7511284e-38 262 219
-0.080851458 0.80900002 0.02978738 1.7142862e-38 263 219
-0.079629384 0.81099999 0.02986102 1.668259e-38 264 219
-0.078207433 0.81099999 0.02986102 1.6405643e-38 265 219
-0.076785475 0.81099999 0.02986102 1.5853545e-38 266 219
-0.075363517 0.81099999 0.02986102 1.5484763e-38 267 219
-0.073941574 0.81099999 0.02986102 1.5207457e-38 268 219
-0.072519615 0.81099999 0.02986102 1.493051e-38 269 219
-0.071272999 0.81300002 0.02993466 1.4561737e-38 270 219
-0.069847539 0.81300002 0.02993466 1.4008564e-38 271 219
-0.068422079 0.81300002 0.02993466 1.2812557e-38 272 219
-0.067161433 0.815 0.030008299 1.1521818e-38 273 219
-0.065732464 0.815 0.030008299 1.1060136e-38 274 219
-0.064461298 0.81699997 0.030081939 1.1336364e-38 275 219
-0.063183114 0.81900001 0.030155579 1.1335651e-38 276 219
-0.061747137 0.81900001 0.030155579 1.11509e-38 277 219
-0.060311157 0.81900001 0.030155579 1.0414433e-38 278 219
-0.059018951 0.82099998 0.030229218 9.8612596e-39 279 219
-0.10120767 0.81300002 0.0285092 1.4108061e-38 249 220
-0.099782199 0.81300002 0.0285092 1.5302577e-38 250 220
-0.098114774 0.81099999 0.028439065 1.5579524e-38 251 220
-0.096692823 0.81099999 0.028439065 1.6681881e-38 252 220
-0.095270865 0.81099999 0.028439065 1.7235055e-38 253 220
-0.093848921 0.81099999 0.028439065 1.732725e-38 254 220
-0.092426963 0.81099999 0.028439065 1.7696031e-38 255 220
-0.090780586 0.80900002 0.028368933 1.7604916e-38 256 220
-0.089362144 0.80900002 0.028368933 1.7788947e-38 257 220
-0.087943695 0.80900002 0.028368933 1.778895e-38 258 220
-0.086311333 0.80699998 0.028298797 1.778895e-38 259 220
-0.084896393 0.80699998 0.028298797 1.7604566e-38 260 220
-0.083688356 0.80900002 0.028368933 1.7419814e-38 261 220
-0.082269907 0.80900002 0.028368933 1.7235057e-38 262 220
-0.080851458 0.80900002 0.028368933 1.695811e-38 263 220
-0.079433009 0.80900002 0.028368933 1.6498559e-38 264 220
-0.078014567 0.80900002 0.028368933 1.6037939e-38 265 220
-0.076596119 0.80900002 0.028368933 1.5670233e-38 266 220
-0.07517767 0.80900002 0.028368933 1.5117059e-38 267 220
-0.073941574 0.81099999 0.028439065 1.5115624e-38 268 220
-0.072519615 0.81099999 0.028439065 1.4747201e-38 269 220
-0.071272999 0.81300002 0.0285092 1.4470631e-38 270 220
-0.069847539 0.81300002 0.0285092 1.3272446e-38 271 220
-0.068422079 0.81300002 0.0285092 1.2166481e-38 272 220
-0.067161433 0.815 0.028579332 1.1521112e-38 273 220
-0.065732464 0.815 0.028579332 1.1703358e-38 274 220
-0.064461298 0.81699997 0.028649466 1.1703358e-38 275 220
-0.06302882 0.81699997 0.028649466 1.1335664e-38 276 220
-0.061596353 0.81699997 0.028649466 1.1059437e-38 277 220
-0.060163878 0.81699997 0.028649466 9.3999311e-39 278 220
-0.058875177 0.81900001 0.0287196 8.1091923e-39 279 220
-0.10120767 0.81300002 0.02708374 1.3463751e-38 249 221
-0.099782199 0.81300002 0.02708374 1.5669545e-38 250 221
-0.098114774 0.81099999 0.027017111 1.6130525e-38 251 221
-0.096692823 0.81099999 0.027017111 1.6774445e-38 252 221
-0.095035926 0.80900002 0.026950486 1.7143228e-38 253 221
-0.093617477 0.80900002 0.026950486 1.760348e-38 254 221
-0.092199028 0.80900002 0.026950486 1.7696034e-38 255 221
-0.090556152 0.80699998 0.026883857 1.7604916e-38 256 221
-0.08914122 0.80699998 0.026883857 1.7788947e-38 257 221
-0.08772628 0.80699998 0.026883857 1.7788945e-38 258 221
-0.086097427 0.80500001 0.026817232 1.7604913e-38 259 221
-0.084685996 0.80500001 0.026817232 1.7788584e-38 260 221
-0.083481453 0.80699998 0.026883857 1.7327606e-38 261 221
-0.082066514 0.80699998 0.026883857 1.7234327e-38 262 221
-0.080651581 0.80699998 0.026883857 1.6958101e-38 263 221
-0.079236634 0.80699998 0.026883857 1.6589311e-38 264 221
-0.078014567 0.80900002 0.026950486 1.622053e-38 265 221
-0.076596119 0.80900002 0.026950486 1.5576958e-38 266 221
-0.07517767 0.80900002 0.026950486 1.5300372e-38 267 221
-0.073759228 0.80900002 0.026950486 1.4839749e-38 268 221
-0.072340779 0.80900002 0.026950486 1.4654999e-38 269 221
-0.071097665 0.81099999 0.027017111 1.4468463e-38 270 221
-0.069847539 0.81300002 0.02708374 1.3362115e-38 271 221
-0.068422079 0.81300002 0.02708374 1.1982087e-38 272 221
-0.066996619 0.81300002 0.02708374 1.1613663e-38 273 221
-0.065732464 0.815 0.027150365 1.1979221e-38 274 221
-0.064461298 0.81699997 0.027216991 1.1702636e-38 275 221
-0.06302882 0.81699997 0.027216991 1.1151983e-38 276 221
-0.061294779 0.81300002 0.02708374 1.0690645e-38 277 221
-0.05972204 0.81099999 0.027017111 8.5708865e-39 278 221
-0.058300085 0.81099999 0.027017111 7.2801477e-39 279 221
-0.10212816 0.80900002 0.025532039 1.5215093e-38 248 222
-0.10070971 0.80900002 0.025532039 1.3555211e-38 249 222
-0.099536732 0.81099999 0.025595158 1.5945035e-38 250 222
-0.098114774 0.81099999 0.025595158 1.6590404e-38 251 222
-0.096692823 0.81099999 0.025595158 1.7233977e-38 252 222
-0.095035926 0.80900002 0.025532039 1.7602761e-38 253 222
-0.093617477 0.80900002 0.025532039 1.7420168e-38 254 222
-0.092199028 0.80900002 0.025532039 1.7604919e-38 255 222
-0.090556152 0.80699998 0.025468919 1.7604913e-38 256 222
-0.088920295 0.80500001 0.025405798 1.7788945e-38 257 222
-0.087508865 0.80500001 0.025405798 1.7788945e-38 258 222
-0.086097427 0.80500001 0.025405798 1.7604913e-38 259 222
-0.084685996 0.80500001 0.025405798 1.7603833e-38 260 222
-0.083274566 0.80500001 0.025405798 1.7327606e-38 261 222
-0.081863128 0.80500001 0.025405798 1.6958819e-38 262 222
-0.080651581 0.80699998 0.025468919 1.6590038e-38 263 222
-0.079236634 0.80699998 0.025468919 1.640528e-38 264 222
-0.078014567 0.80900002 0.025532039 1.6128334e-38 265 222
-0.076596119 0.80900002 0.025532039 1.5484766e-38 266 222
-0.07517767 0.80900002 0.025532039 1.520782e-38 267 222
-0.073759228 0.80900002 0.025532039 1.4839043e-38 268 222
-0.072340779 0.80900002 0.025532039 1.4469902e-38 269 222
-0.071097665 0.81099999 0.025595158 1.3916383e-38 270 222
-0.069847539 0.81300002 0.02565828 1.2902231e-38 271 222
-0.068422079 0.81300002 0.02565828 1.2714983e-38 272 222
-0.066996619 0.81300002 0.02565828 1.2438755e-38 273 222
-0.065571159 0.81300002 0.02565828 1.1703711e-38 274 222
-0.064303495 0.815 0.025721399 1.1611156e-38 275 222
-0.06302882 0.81699997 0.025784519 1.0966884e-38 276 222
-0.061294779 0.81300002 0.02565828 1.0137123e-38 277 222
-0.05972204 0.81099999 0.025595158 7.7418573e-39 278 222
-0.058300085 0.81099999 0.025595158 7.4649117e-39 279 222
-0.10212816 0.80900002 0.024113594 1.5028531e-38 248 223
-0.10070971 0.80900002 0.024113594 1.4106573e-38 249 223
-0.099291265 0.80900002 0.024113594 1.6221252e-38 250 223
-0.097872816 0.80900002 0.024113594 1.668259e-38 251 223
-0.096454374 0.80900002 0.024113594 1.7142859e-38 252 223
-0.095035926 0.80900002 0.024113594 1.7603836e-38 253 223
-0.093617477 0.80900002 0.024113594 1.7512366e-38 254 223
-0.091971092 0.80699998 0.02405398 1.7604563e-38 255 223
-0.090331733 0.80500001 0.023994366 1.7788231e-38 256 223
-0.088920295 0.80500001 0.023994366 1.7880427e-38 257 223
-0.087291449 0.80299997 0.023934752 1.778895e-38 258 223
-0.085883521 0.80299997 0.023934752 1.7604919e-38 259 223
-0.084685996 0.80500001 0.023994366 1.769531e-38 260 223
-0.083274566 0.80500001 0.023994366 1.7326527e-38 261 223
-0.081863128 0.80500001 0.023994366 1.6866618e-38 262 223
-0.080451705 0.80500001 0.023994366 1.6498196e-38 263 223
-0.079040267 0.80500001 0.023994366 1.6312728e-38 264 223
-0.077821694 0.80699998 0.02405398 1.6036142e-38 265 223
-0.076596119 0.80900002 0.024113594 1.5668081e-38 266 223
-0.07517767 0.80900002 0.024113594 1.5207104e-38 267 223
-0.073759228 0.80900002 0.024113594 1.4929807e-38 268 223
-0.072340779 0.80900002 0.024113594 1.4376633e-38 269 223
-0.07092233 0.80900002 0.024113594 1.2996598e-38 270 223
-0.069675706 0.81099999 0.024173206 1.2259033e-38 271 223
-0.068253763 0.81099999 0.024173206 1.2439122e-38 272 223
-0.066996619 0.81300002 0.02423282 1.2254729e-38 273 223
-0.065571159 0.81300002 0.02423282 1.179555e-38 274 223
-0.064303495 0.815 0.024292432 1.1703355e-38 275 223
-0.06302882 0.81699997 0.024352046 1.050591e-38 276 223
-0.061294779 0.81300002 0.02423282 8.938583e-39 277 223
-0.059869319 0.81300002 0.02423282 8.1996055e-39 278 223
-0.10212816 0.80900002 0.022695147 1.474942e-38 248 224
-0.10070971 0.80900002 0.022695147 1.4657225e-38 249 224
-0.099291265 0.80900002 0.022695147 1.6130135e-38 250 224
-0.097872816 0.80900002 0.022695147 1.6683309e-38 251 224
-0.096454374 0.80900002 0.022695147 1.695955e-38 252 224
-0.095035926 0.80900002 0.022695147 1.7420168e-38 253 224
-0.093386032 0.80699998 0.022639038 1.7695682e-38 254 224
-0.091971092 0.80699998 0.022639038 1.7787878e-38 255 224
-0.090107299 0.80299997 0.022526825 1.7604563e-38 256 224
-0.088699371 0.80299997 0.022526825 1.7788594e-38 257 224
-0.087291449 0.80299997 0.022526825 1.7788594e-38 258 224
-0.085883521 0.80299997 0.022526825 1.7512366e-38 259 224
-0.084685996 0.80500001 0.022582933 1.760347e-38 260 224
-0.083274566 0.80500001 0.022582933 1.7234327e-38 261 224
-0.081863128 0.80500001 0.022582933 1.7049568e-38 262 224
-0.080451705 0.80500001 0.022582933 1.6588589e-38 263 224
-0.079040267 0.80500001 0.022582933 1.6128337e-38 264 224
-0.077821694 0.80699998 0.022639038 1.5943586e-38 265 224
-0.076406755 0.80699998 0.022639038 1.5575526e-38 266 224
-0.074991815 0.80699998 0.022639038 1.5114907e-38 267 224
-0.073576882 0.80699998 0.022639038 1.4929444e-38 268 224
-0.072161935 0.80699998 0.022639038 1.4284074e-38 269 224
-0.07092233 0.80900002 0.022695147 1.2811488e-38 270 224
-0.069503881 0.80900002 0.022695147 1.2073564e-38 271 224
-0.068253763 0.81099999 0.022751253 1.2346925e-38 272 224
-0.066831805 0.81099999 0.022751253 1.2070698e-38 273 224
-0.065409854 0.81099999 0.022751253 1.1795906e-38 274 224
-0.064145707 0.81300002 0.02280736 1.1611156e-38 275 224
-0.06302882 0.81699997 0.022919571 1.0043856e-38 276 224
-0.061596353 0.81699997 0.022919571 8.1077476e-39 277 224
-0.10212816 0.80900002 0.021276699 1.4840523e-38 248 225
-0.10070971 0.80900002 0.021276699 1.493272e-38 249 225
-0.099291265 0.80900002 0.021276699 1.6130135e-38 250 225
-0.097872816 0.80900002 0.021276699 1.6775504e-38 251 225
-0.096454374 0.80900002 0.021276699 1.7235055e-38 252 225
-0.095035926 0.80900002 0.021276699 1.7603836e-38 253 225
-0.093386032 0.80699998 0.021224098 1.7696034e-38 254 225
-0.091971092 0.80699998 0.021224098 1.7788231e-38 255 225
