# .PCD v.7 - Point Cloud Data file format
FIELDS x y z rgb imX imY
SIZE 4 4 4 4 4 4
TYPE F F F F F F
COUNT 1 1 1 1 1 1
WIDTH 844
HEIGHT 1
VIEWPOINT 0 0 0 1 0 0 0
POINTS 844
DATA ascii
-0.091327623 0.76599997 -0.045663811 1.5572684e-38 252 274
-0.090102047 0.76700002 -0.045723427 1.4373781e-38 253 274
-0.088757239 0.76700002 -0.045723427 1.2432641e-38 254 274
-0.087412432 0.76700002 -0.045723427 1.1695076e-38 255 274
-0.086067624 0.76700002 -0.045723427 1.0501591e-38 256 274
-0.084722824 0.76700002 -0.045723427 1.1146961e-38 257 274
-0.083378009 0.76700002 -0.045723427 1.2075046e-38 258 274
-0.08203321 0.76700002 -0.045723427 1.4472493e-38 259 274
-0.080583192 0.76599997 -0.045663811 1.6219871e-38 260 274
-0.079240143 0.76599997 -0.045663811 1.5758533e-38 261 274
-0.077897087 0.76599997 -0.045663811 1.5301117e-38 262 274
-0.076554038 0.76599997 -0.045663811 1.520892e-38 263 274
-0.075210981 0.76599997 -0.045663811 1.5115299e-38 264 274
0.033401001 0.76200002 -0.045425359 1.567179e-38 345 274
0.034737039 0.76200002 -0.045425359 1.6404997e-38 346 274
0.036073081 0.76200002 -0.045425359 1.6312801e-38 347 274
0.037409119 0.76200002 -0.045425359 1.6314211e-38 348 274
0.038694311 0.76099998 -0.045365743 1.6129821e-38 349 274
0.040028598 0.76099998 -0.045365743 1.6313474e-38 350 274
0.041417241 0.76200002 -0.045425359 1.6129081e-38 351 274
0.042753279 0.76200002 -0.045425359 1.6312025e-38 352 274
0.044089317 0.76200002 -0.045425359 1.6035438e-38 353 274
0.045425359 0.76200002 -0.045425359 1.5296784e-38 354 274
0.046761397 0.76200002 -0.045425359 1.4190077e-38 355 274
0.048097439 0.76200002 -0.045425359 1.3913497e-38 356 274
0.049433477 0.76200002 -0.045425359 1.446667e-38 357 274
0.050769519 0.76200002 -0.045425359 1.5018782e-38 358 274
0.052105557 0.76200002 -0.045425359 1.5571956e-38 359 274
0.053441599 0.76200002 -0.045425359 1.5757422e-38 360 274
0.054777641 0.76200002 -0.045425359 1.603401e-38 361 274
0.056113683 0.76200002 -0.045425359 1.5666653e-38 362 274
0.057449725 0.76200002 -0.045425359 1.5574457e-38 363 274
0.058940053 0.764 -0.045544583 1.5389344e-38 364 274
0.0602796 0.764 -0.045544583 1.5112756e-38 365 274
0.061619148 0.764 -0.045544583 1.4927293e-38 366 274
0.063205913 0.76700002 -0.045723427 1.4466315e-38 367 274
0.064719036 0.76899999 -0.045842651 1.4006055e-38 368 274
0.066067353 0.76899999 -0.045842651 1.3729468e-38 369 274
0.067415662 0.76899999 -0.045842651 1.3361039e-38 370 274
0.068763971 0.76899999 -0.045842651 1.3176648e-38 371 274
0.070112288 0.76899999 -0.045842651 1.2624923e-38 372 274
0.071460605 0.76899999 -0.045842651 1.2071749e-38 373 274
0.072808921 0.76899999 -0.045842651 1.0322218e-38 374 274
0.074157231 0.76899999 -0.045842651 1.0045631e-38 375 274
0.07550554 0.76899999 -0.045842651 9.4925177e-39 376 274
-0.10355011 0.76700002 -0.047068235 1.2543978e-38 243 275
-0.10220531 0.76700002 -0.047068235 1.364595e-38 244 275
-0.1008605 0.76700002 -0.047068235 1.4291319e-38 245 275
-0.099515699 0.76700002 -0.047068235 1.4935577e-38 246 275
-0.098170884 0.76700002 -0.047068235 1.5119968e-38 247 275
-0.096826084 0.76700002 -0.047068235 1.5761738e-38 248 275
-0.095356777 0.76599997 -0.047006864 1.5853933e-38 249 275
-0.094013728 0.76599997 -0.047006864 1.6221647e-38 250 275
-0.092670672 0.76599997 -0.047006864 1.6406038e-38 251 275
-0.091327623 0.76599997 -0.047006864 1.6311324e-38 252 275
-0.089984566 0.76599997 -0.047006864 1.5296814e-38 253 275
-0.088641517 0.76599997 -0.047006864 1.3816291e-38 254 275
-0.08729846 0.76599997 -0.047006864 1.1972379e-38 255 275
-0.086067624 0.76700002 -0.047068235 1.1050435e-38 256 275
-0.084722824 0.76700002 -0.047068235 1.0957881e-38 257 275
-0.083269298 0.76599997 -0.047006864 1.0505557e-38 258 275
-0.081926249 0.76599997 -0.047006864 1.3455816e-38 259 275
-0.080583192 0.76599997 -0.047006864 1.5391906e-38 260 275
-0.079240143 0.76599997 -0.047006864 1.5668133e-38 261 275
-0.077897087 0.76599997 -0.047006864 1.5852486e-38 262 275
-0.076554038 0.76599997 -0.047006864 1.576029e-38 263 275
-0.075014614 0.764 -0.046884131 1.5483706e-38 264 275
-0.073675066 0.764 -0.046884131 1.5299315e-38 265 275
0.030728921 0.76200002 -0.046761397 1.6592307e-38 343 275
0.032064959 0.76200002 -0.046761397 1.6590464e-38 344 275
0.033401001 0.76200002 -0.046761397 1.6037291e-38 345 275
0.034737039 0.76200002 -0.046761397 1.6404593e-38 346 275
0.036073081 0.76200002 -0.046761397 1.6404593e-38 347 275
0.037409119 0.76200002 -0.046761397 1.6497861e-38 348 275
0.038694311 0.76099998 -0.046700031 1.6313471e-38 349 275
0.040028598 0.76099998 -0.046700031 1.6220192e-38 350 275
0.041362885 0.76099998 -0.046700031 1.5759574e-38 351 275
0.042697169 0.76099998 -0.046700031 1.5849599e-38 352 275
0.044031456 0.76099998 -0.046700031 1.5112034e-38 353 275
0.045365743 0.76099998 -0.046700031 1.4742531e-38 354 275
0.046700031 0.76099998 -0.046700031 1.3912412e-38 355 275
0.048034318 0.76099998 -0.046700031 1.4095387e-38 356 275
0.049368605 0.76099998 -0.046700031 1.4832952e-38 357 275
0.050702889 0.76099998 -0.046700031 1.465217e-38 358 275
0.052037176 0.76099998 -0.046700031 1.5205344e-38 359 275
0.053441599 0.76200002 -0.046761397 1.5573756e-38 360 275
0.054777641 0.76200002 -0.046761397 1.5573756e-38 361 275
0.056113683 0.76200002 -0.046761397 1.5298596e-38 362 275
0.057449725 0.76200002 -0.046761397 1.5114205e-38 363 275
0.058785759 0.76200002 -0.046761397 1.5112759e-38 364 275
0.060121801 0.76200002 -0.046761397 1.4651781e-38 365 275
0.061619148 0.764 -0.046884131 1.4466315e-38 366 275
0.063123502 0.76599997 -0.047006864 1.4189726e-38 367 275
0.06455072 0.76700002 -0.047068235 1.3729115e-38 368 275
0.065895528 0.76700002 -0.047068235 1.3360691e-38 369 275
0.067415662 0.76899999 -0.047190964 1.290008e-38 370 275
0.068763971 0.76899999 -0.047190964 1.2715689e-38 371 275
0.070112288 0.76899999 -0.047190964 1.2071046e-38 372 275
0.071460605 0.76899999 -0.047190964 1.1702262e-38 373 275
0.072808921 0.76899999 -0.047190964 1.0044928e-38 374 275
0.074157231 0.76899999 -0.047190964 1.0044928e-38 375 275
0.07550554 0.76899999 -0.047190964 9.6783579e-39 376 275
-0.10489491 0.76700002 -0.048413042 1.3650679e-38 242 276
-0.10355011 0.76700002 -0.048413042 1.217519e-38 243 276
-0.10220531 0.76700002 -0.048413042 1.3553031e-38 244 276
-0.1008605 0.76700002 -0.048413042 1.4290597e-38 245 276
-0.099515699 0.76700002 -0.048413042 1.4935221e-38 246 276
-0.098170884 0.76700002 -0.048413042 1.5119971e-38 247 276
-0.096826084 0.76700002 -0.048413042 1.5670621e-38 248 276
-0.095356777 0.76599997 -0.048349917 1.5854654e-38 249 276
-0.094013728 0.76599997 -0.048349917 1.6130527e-38 250 276
-0.092670672 0.76599997 -0.048349917 1.6038332e-38 251 276
-0.091327623 0.76599997 -0.048349917 1.6588634e-38 252 276
-0.089984566 0.76599997 -0.048349917 1.603546e-38 253 276
-0.088410079 0.764 -0.048223678 1.4831873e-38 254 276
-0.087070532 0.764 -0.048223678 1.2895764e-38 255 276
-0.085955404 0.76599997 -0.048349917 1.1694353e-38 256 276
-0.084612355 0.76599997 -0.048349917 1.114118e-38 257 276
-0.083269298 0.76599997 -0.048349917 1.0225351e-38 258 276
-0.081926249 0.76599997 -0.048349917 1.2530601e-38 259 276
-0.080372795 0.764 -0.048223678 1.4009322e-38 260 276
-0.079033248 0.764 -0.048223678 1.5761037e-38 261 276
-0.077897087 0.76599997 -0.048349917 1.631204e-38 262 276
-0.076354161 0.764 -0.048223678 1.6035814e-38 263 276
-0.074818239 0.76200002 -0.048097439 1.5576975e-38 264 276
-0.073482201 0.76200002 -0.048097439 1.548478e-38 265 276
-0.072051473 0.76099998 -0.048034318 1.5208564e-38 266 276
-0.070717193 0.76099998 -0.048034318 1.5116368e-38 267 276
0.026615599 0.759 -0.047908079 1.6777769e-38 340 276
0.027946379 0.759 -0.047908079 1.6040202e-38 341 276
0.029354304 0.76099998 -0.048034318 1.6681215e-38 342 276
0.030688593 0.76099998 -0.048034318 1.6404628e-38 343 276
0.032064959 0.76200002 -0.048097439 1.6681549e-38 344 276
0.033401001 0.76200002 -0.048097439 1.6681549e-38 345 276
0.034691449 0.76099998 -0.048034318 1.6589338e-38 346 276
0.036025736 0.76099998 -0.048034318 1.6497142e-38 347 276
0.037360024 0.76099998 -0.048034318 1.6404221e-38 348 276
0.038694311 0.76099998 -0.048034318 1.6312025e-38 349 276
0.040028598 0.76099998 -0.048034318 1.5942163e-38 350 276
0.041362885 0.76099998 -0.048034318 1.5204598e-38 351 276
0.042697169 0.76099998 -0.048034318 1.4835093e-38 352 276
0.044031456 0.76099998 -0.048034318 1.3913497e-38 353 276
0.045365743 0.76099998 -0.048034318 1.4003188e-38 354 276
0.046700031 0.76099998 -0.048034318 1.4095384e-38 355 276
0.048034318 0.76099998 -0.048034318 1.4280501e-38 356 276
0.049368605 0.76099998 -0.048034318 1.5018066e-38 357 276
0.050702889 0.76099998 -0.048034318 1.5020936e-38 358 276
0.052037176 0.76099998 -0.048034318 1.5481914e-38 359 276
0.053371463 0.76099998 -0.048034318 1.5298243e-38 360 276
0.05470575 0.76099998 -0.048034318 1.5113852e-38 361 276
0.056113683 0.76200002 -0.048097439 1.5204598e-38 362 276
0.057449725 0.76200002 -0.048097439 1.4928372e-38 363 276
0.058785759 0.76200002 -0.048097439 1.483509e-38 364 276
0.060121801 0.76200002 -0.048097439 1.4466668e-38 365 276
0.061619148 0.764 -0.048223678 1.4005339e-38 366 276
0.063123502 0.76599997 -0.048349917 1.3820948e-38 367 276
0.06455072 0.76700002 -0.048413042 1.3543652e-38 368 276
0.065895528 0.76700002 -0.048413042 1.3175228e-38 369 276
0.067240335 0.76700002 -0.048413042 1.2531302e-38 370 276
0.068585135 0.76700002 -0.048413042 1.2254714e-38 371 276
0.070112288 0.76899999 -0.048539277 1.1793385e-38 372 276
0.07127475 0.76700002 -0.048413042 1.1240213e-38 373 276
0.072619557 0.76700002 -0.048413042 1.0044224e-38 374 276
0.073964365 0.76700002 -0.048413042 1.0228616e-38 375 276
-0.10489491 0.76700002 -0.049757849 1.3558478e-38 242 277
-0.10355011 0.76700002 -0.049757849 1.1899315e-38 243 277
-0.10247181 0.76899999 -0.04988759 1.3185327e-38 244 277
-0.1008605 0.76700002 -0.049757849 1.4199121e-38 245 277
-0.099515699 0.76700002 -0.049757849 1.465936e-38 246 277
-0.09804289 0.76599997 -0.04969297 1.5028141e-38 247 277
-0.096699834 0.76599997 -0.04969297 1.5854657e-38 248 277
-0.095356777 0.76599997 -0.04969297 1.5854657e-38 249 277
-0.094013728 0.76599997 -0.04969297 1.6037976e-38 250 277
-0.092428714 0.764 -0.049563225 1.594578e-38 251 277
-0.091089167 0.764 -0.049563225 1.6312773e-38 252 277
-0.089749627 0.764 -0.049563225 1.6312773e-38 253 277
-0.088410079 0.764 -0.049563225 1.5571238e-38 254 277
-0.087070532 0.764 -0.049563225 1.4096108e-38 255 277
-0.085730985 0.764 -0.049563225 1.2895046e-38 256 277
-0.084391437 0.764 -0.049563225 1.2341872e-38 257 277
-0.08305189 0.764 -0.049563225 1.1789067e-38 258 277
-0.081712343 0.764 -0.049563225 1.2619187e-38 259 277
-0.080162399 0.76200002 -0.049433477 1.3178838e-38 260 277
-0.07882636 0.76200002 -0.049433477 1.5114946e-38 261 277
-0.077490322 0.76200002 -0.049433477 1.5760671e-38 262 277
-0.076154284 0.76200002 -0.049433477 1.5852867e-38 263 277
-0.074818239 0.76200002 -0.049433477 1.5761369e-38 264 277
-0.073482201 0.76200002 -0.049433477 1.5669174e-38 265 277
-0.072051473 0.76099998 -0.049368605 1.5669527e-38 266 277
-0.070717193 0.76099998 -0.049368605 1.539258e-38 267 277
-0.069474079 0.76200002 -0.049433477 1.5116021e-38 268 277
0.02379624 0.75400001 -0.048914492 1.6777419e-38 338 277
0.025118252 0.75400001 -0.048914492 1.6408276e-38 339 277
0.026440267 0.75400001 -0.048914492 1.6774856e-38 340 277
0.027946379 0.759 -0.049238857 1.6129486e-38 341 277
0.029277159 0.759 -0.049238857 1.668118e-38 342 277
0.030688593 0.76099998 -0.049368605 1.668118e-38 343 277
0.032022879 0.76099998 -0.049368605 1.6681533e-38 344 277
0.033357166 0.76099998 -0.049368605 1.6681533e-38 345 277
0.034691449 0.76099998 -0.049368605 1.6589691e-38 346 277
0.036025736 0.76099998 -0.049368605 1.6497136e-38 347 277
0.03726184 0.759 -0.049238857 1.6404221e-38 348 277
0.038592618 0.759 -0.049238857 1.5758851e-38 349 277
0.0399234 0.759 -0.049238857 1.5203885e-38 350 277
0.041254178 0.759 -0.049238857 1.4650711e-38 351 277
0.042697169 0.76099998 -0.049368605 1.4557084e-38 352 277
0.044031456 0.76099998 -0.049368605 1.4188301e-38 353 277
0.045365743 0.76099998 -0.049368605 1.3911005e-38 354 277
0.046700031 0.76099998 -0.049368605 1.400356e-38 355 277
0.048034318 0.76099998 -0.049368605 1.4190822e-38 356 277
0.049368605 0.76099998 -0.049368605 1.5112778e-38 357 277
0.050702889 0.76099998 -0.049368605 1.52064e-38 358 277
0.052037176 0.76099998 -0.049368605 1.5114205e-38 359 277
0.053371463 0.76099998 -0.049368605 1.5022008e-38 360 277
0.05470575 0.76099998 -0.049368605 1.4561031e-38 361 277
0.056113683 0.76200002 -0.049433477 1.4559229e-38 362 277
0.057449725 0.76200002 -0.049433477 1.4559229e-38 363 277
0.058785759 0.76200002 -0.049433477 1.4374835e-38 364 277
0.060121801 0.76200002 -0.049433477 1.3914216e-38 365 277
0.061619148 0.764 -0.049563225 1.3545084e-38 366 277
0.062958695 0.764 -0.049563225 1.3360691e-38 367 277
0.064466551 0.76599997 -0.04969297 1.3083395e-38 368 277
0.065895528 0.76700002 -0.049757849 1.2714973e-38 369 277
0.067240335 0.76700002 -0.049757849 1.2071046e-38 370 277
0.068585135 0.76700002 -0.049757849 1.1702262e-38 371 277
0.06992995 0.76700002 -0.049757849 1.0781041e-38 372 277
0.07127475 0.76700002 -0.049757849 1.059701e-38 373 277
0.072619557 0.76700002 -0.049757849 1.0043874e-38 374 277
0.073964365 0.76700002 -0.049757849 9.9513196e-39 375 277
-0.10407435 0.76099998 -0.050702889 1.3649954e-38 242 278
-0.1034151 0.76599997 -0.051036026 1.1898236e-38 243 278
-0.10220531 0.76700002 -0.051102653 1.2907661e-38 244 278
-0.1008605 0.76700002 -0.051102653 1.41984e-38 245 278
-0.09938594 0.76599997 -0.051036026 1.5027069e-38 246 278
-0.09804289 0.76599997 -0.051036026 1.5119265e-38 247 278
-0.096699834 0.76599997 -0.051036026 1.5669918e-38 248 278
-0.095107809 0.764 -0.050902773 1.585395e-38 249 278
-0.093768261 0.764 -0.050902773 1.585395e-38 250 278
-0.092428714 0.764 -0.050902773 1.585395e-38 251 278
-0.091089167 0.764 -0.050902773 1.5853956e-38 252 278
-0.08951468 0.76200002 -0.050769519 1.6038347e-38 253 278
-0.088178635 0.76200002 -0.050769519 1.6126577e-38 254 278
-0.086842604 0.76200002 -0.050769519 1.4928034e-38 255 278
-0.085506558 0.76200002 -0.050769519 1.409394e-38 256 278
-0.084391437 0.764 -0.050902773 1.3356375e-38 257 278
-0.082834482 0.76200002 -0.050769519 1.2712112e-38 258 278
-0.081498444 0.76200002 -0.050769519 1.2804666e-38 259 278
-0.080162399 0.76200002 -0.050769519 1.3081623e-38 260 278
-0.07882636 0.76200002 -0.050769519 1.5109927e-38 261 278
-0.077490322 0.76200002 -0.050769519 1.5300063e-38 262 278
-0.076154284 0.76200002 -0.050769519 1.6037628e-38 263 278
-0.074818239 0.76200002 -0.050769519 1.6129802e-38 264 278
-0.07338576 0.76099998 -0.050702889 1.5853215e-38 265 278
-0.072051473 0.76099998 -0.050702889 1.6037937e-38 266 278
-0.070717193 0.76099998 -0.050702889 1.5853545e-38 267 278
-0.069474079 0.76200002 -0.050769519 1.575992e-38 268 278
-0.068138041 0.76200002 -0.050769519 1.5575529e-38 269 278
-0.066802002 0.76200002 -0.050769519 1.4656495e-38 270 278
-0.065465957 0.76200002 -0.050769519 1.5024918e-38 271 278
0.022504034 0.755 -0.050303131 1.6407544e-38 337 278
0.02379624 0.75400001 -0.050236505 1.6497897e-38 338 278
0.025118252 0.75400001 -0.050236505 1.6313505e-38 339 278
0.026440267 0.75400001 -0.050236505 1.6681546e-38 340 278
0.027946379 0.759 -0.050569639 1.6681546e-38 341 278
0.029277159 0.759 -0.050569639 1.695776e-38 342 278
0.030607941 0.759 -0.050569639 1.6865564e-38 343 278
0.031938717 0.759 -0.050569639 1.6681884e-38 344 278
0.033357166 0.76099998 -0.050702889 1.6681884e-38 345 278
0.034600276 0.759 -0.050569639 1.6589688e-38 346 278
0.035931058 0.759 -0.050569639 1.6405297e-38 347 278
0.037163652 0.75700003 -0.050436385 1.603688e-38 348 278
0.038490929 0.75700003 -0.050436385 1.5299315e-38 349 278
0.039818201 0.75700003 -0.050436385 1.4834387e-38 350 278
0.041145474 0.75700003 -0.050436385 1.4281573e-38 351 278
0.042584959 0.759 -0.050569639 1.4463446e-38 352 278
0.043915741 0.759 -0.050569639 1.437125e-38 353 278
0.045246519 0.759 -0.050569639 1.3820963e-38 354 278
0.046577301 0.759 -0.050569639 1.4097552e-38 355 278
0.048034318 0.76099998 -0.050702889 1.4467409e-38 356 278
0.049368605 0.76099998 -0.050702889 1.5296811e-38 357 278
0.050702889 0.76099998 -0.050702889 1.4930893e-38 358 278
0.052037176 0.76099998 -0.050702889 1.4746141e-38 359 278
0.053371463 0.76099998 -0.050702889 1.465358e-38 360 278
0.05470575 0.76099998 -0.050702889 1.4284437e-38 361 278
0.056113683 0.76200002 -0.050769519 1.419117e-38 362 278
0.057449725 0.76200002 -0.050769519 1.4006778e-38 363 278
0.058785759 0.76200002 -0.050769519 1.3913509e-38 364 278
0.060121801 0.76200002 -0.050769519 1.3452533e-38 365 278
0.061619148 0.764 -0.050902773 1.3360342e-38 366 278
0.062958695 0.764 -0.050902773 1.2899364e-38 367 278
0.064466551 0.76599997 -0.051036026 1.2715339e-38 368 278
0.065809615 0.76599997 -0.051036026 1.2162165e-38 369 278
0.067152664 0.76599997 -0.051036026 1.160971e-38 370 278
0.068585135 0.76700002 -0.051102653 1.1333483e-38 371 278
0.06992995 0.76700002 -0.051102653 1.0229669e-38 372 278
0.07127475 0.76700002 -0.051102653 1.0045278e-38 373 278
0.072619557 0.76700002 -0.051102653 9.0326059e-39 374 278
0.073964365 0.76700002 -0.051102653 8.7563792e-39 375 278
-0.10407435 0.76099998 -0.052037176 1.4293881e-38 242 279
-0.1034151 0.76599997 -0.052379075 1.1804599e-38 243 279
-0.10207205 0.76599997 -0.052379075 1.2905145e-38 244 279
-0.10072899 0.76599997 -0.052379075 1.4379915e-38 245 279
-0.09938594 0.76599997 -0.052379075 1.4474982e-38 246 279
-0.09804289 0.76599997 -0.052379075 1.4567177e-38 247 279
-0.096699834 0.76599997 -0.052379075 1.5668842e-38 248 279
-0.095107809 0.764 -0.052242316 1.5761037e-38 249 279
-0.093768261 0.764 -0.052242316 1.585323e-38 250 279
-0.092186764 0.76200002 -0.052105557 1.585323e-38 251 279
-0.090850718 0.76200002 -0.052105557 1.5945786e-38 252 279
-0.08951468 0.76200002 -0.052105557 1.5945786e-38 253 279
-0.088178635 0.76200002 -0.052105557 1.6312768e-38 254 279
-0.086842604 0.76200002 -0.052105557 1.5483006e-38 255 279
-0.085506558 0.76200002 -0.052105557 1.5017686e-38 256 279
-0.08417052 0.76200002 -0.052105557 1.3450721e-38 257 279
-0.082834482 0.76200002 -0.052105557 1.2988313e-38 258 279
-0.081498444 0.76200002 -0.052105557 1.32649e-38 259 279
-0.080162399 0.76200002 -0.052105557 1.3080527e-38 260 279
-0.07882636 0.76200002 -0.052105557 1.4647854e-38 261 279
-0.077490322 0.76200002 -0.052105557 1.5023467e-38 262 279
-0.076154284 0.76200002 -0.052105557 1.6037979e-38 263 279
-0.074818239 0.76200002 -0.052105557 1.6220925e-38 264 279
-0.07338576 0.76099998 -0.052037176 1.6313121e-38 265 279
-0.072051473 0.76099998 -0.052037176 1.6130152e-38 266 279
-0.070717193 0.76099998 -0.052037176 1.6037955e-38 267 279
-0.069382899 0.76099998 -0.052037176 1.5762444e-38 268 279
-0.068048611 0.76099998 -0.052037176 1.5393663e-38 269 279
-0.066714332 0.76099998 -0.052037176 1.5393315e-38 270 279
-0.065380037 0.76099998 -0.052037176 1.5300761e-38 271 279
-0.064045757 0.76099998 -0.052037176 1.5300451e-38 272 279
0.0198565 0.755 -0.051626898 1.6591222e-38 335 279
0.021180267 0.755 -0.051626898 1.6957805e-38 336 279
0.022504034 0.755 -0.051626898 1.6773414e-38 337 279
0.023827799 0.755 -0.051626898 1.6866295e-38 338 279
0.025151566 0.755 -0.051626898 1.6774098e-38 339 279
0.026475333 0.755 -0.051626898 1.6865918e-38 340 279
0.027799098 0.755 -0.051626898 1.6958113e-38 341 279
0.029200014 0.75700003 -0.051763661 1.6958464e-38 342 279
0.030527288 0.75700003 -0.051763661 1.6866268e-38 343 279
0.031854562 0.75700003 -0.051763661 1.6682237e-38 344 279
0.033181835 0.75700003 -0.051763661 1.6497846e-38 345 279
0.034509107 0.75700003 -0.051763661 1.6680802e-38 346 279
0.03583638 0.75700003 -0.051763661 1.6404574e-38 347 279
0.037065465 0.755 -0.051626898 1.6036514e-38 348 279
0.038389232 0.755 -0.051626898 1.5298949e-38 349 279
0.039712999 0.755 -0.051626898 1.4926219e-38 350 279
0.041145474 0.75700003 -0.051763661 1.4557078e-38 351 279
0.042472746 0.75700003 -0.051763661 1.4190103e-38 352 279
0.043800019 0.75700003 -0.051763661 1.4374134e-38 353 279
0.045127295 0.75700003 -0.051763661 1.4562128e-38 354 279
0.046577301 0.759 -0.051900417 1.4930552e-38 355 279
0.047908079 0.759 -0.051900417 1.4930539e-38 356 279
0.049368605 0.76099998 -0.052037176 1.4653592e-38 357 279
0.050702889 0.76099998 -0.052037176 1.4929797e-38 358 279
0.052037176 0.76099998 -0.052037176 1.4745047e-38 359 279
0.053371463 0.76099998 -0.052037176 1.4376623e-38 360 279
0.05470575 0.76099998 -0.052037176 1.4007482e-38 361 279
0.056040037 0.76099998 -0.052037176 1.4006761e-38 362 279
0.057449725 0.76200002 -0.052105557 1.3730175e-38 363 279
0.058785759 0.76200002 -0.052105557 1.3453239e-38 364 279
0.060121801 0.76200002 -0.052105557 1.317665e-38 365 279
0.061457843 0.76200002 -0.052105557 1.2807522e-38 366 279
0.062958695 0.764 -0.052242316 1.2530575e-38 367 279
0.064298242 0.764 -0.052242316 1.2253995e-38 368 279
0.06563779 0.764 -0.052242316 1.1977048e-38 369 279
0.067152664 0.76599997 -0.052379075 1.0965421e-38 370 279
0.068495713 0.76599997 -0.052379075 1.0781028e-38 371 279
0.069838762 0.76599997 -0.052379075 1.02286e-38 372 279
0.07127475 0.76700002 -0.052447457 9.7672619e-39 373 279
0.072619557 0.76700002 -0.052447457 8.8471483e-39 374 279
0.073964365 0.76700002 -0.052447457 8.4783658e-39 375 279
-0.10475815 0.76599997 -0.053722132 1.4936743e-38 242 280
-0.1034151 0.76599997 -0.053722132 1.2355265e-38 243 280
-0.10207205 0.76599997 -0.053722132 1.1801684e-38 244 280
-0.10072899 0.76599997 -0.053722132 1.3184618e-38 245 280
-0.09938594 0.76599997 -0.053722132 1.4656855e-38 246 280
-0.09804289 0.76599997 -0.053722132 1.474941e-38 247 280
-0.096699834 0.76599997 -0.053722132 1.5117836e-38 248 280
-0.095107809 0.764 -0.053581864 1.5210031e-38 249 280
-0.093522795 0.76200002 -0.053441599 1.5577369e-38 250 280
-0.092186764 0.76200002 -0.053441599 1.5669566e-38 251 280
-0.090850718 0.76200002 -0.053441599 1.5669922e-38 252 280
-0.08951468 0.76200002 -0.053441599 1.5669922e-38 253 280
-0.088062912 0.76099998 -0.053371463 1.5761034e-38 254 280
-0.086728632 0.76099998 -0.053371463 1.5668839e-38 255 280
-0.085394338 0.76099998 -0.053371463 1.5848523e-38 256 280
-0.084060051 0.76099998 -0.053371463 1.4557784e-38 257 280
-0.082725771 0.76099998 -0.053371463 1.3817698e-38 258 280
-0.081391476 0.76099998 -0.053371463 1.3633667e-38 259 280
-0.080057196 0.76099998 -0.053371463 1.3081955e-38 260 280
-0.078722909 0.76099998 -0.053371463 1.4280497e-38 261 280
-0.077388622 0.76099998 -0.053371463 1.5111336e-38 262 280
-0.076054335 0.76099998 -0.053371463 1.6586466e-38 263 280
-0.074720047 0.76099998 -0.053371463 1.6129448e-38 264 280
-0.073192894 0.759 -0.053231198 1.6221644e-38 265 280
-0.071862116 0.759 -0.053231198 1.6313824e-38 266 280
-0.070717193 0.76099998 -0.053371463 1.6221629e-38 267 280
-0.069382899 0.76099998 -0.053371463 1.6221252e-38 268 280
-0.067869775 0.759 -0.053231198 1.6037221e-38 269 280
-0.066538997 0.759 -0.053231198 1.6036867e-38 270 280
-0.065208219 0.759 -0.053231198 1.6036867e-38 271 280
-0.063877434 0.759 -0.053231198 1.5667021e-38 272 280
-0.062546656 0.759 -0.053231198 1.5298599e-38 273 280
-0.061215881 0.759 -0.053231198 1.4381713e-38 274 280
0.018581826 0.75700003 -0.053090934 1.6497883e-38 334 280
0.0198565 0.755 -0.052950665 1.6405688e-38 335 280
0.021180267 0.755 -0.052950665 1.6772647e-38 336 280
0.022504034 0.755 -0.052950665 1.7049593e-38 337 280
0.023827799 0.755 -0.052950665 1.6866994e-38 338 280
0.025151566 0.755 -0.052950665 1.6774798e-38 339 280
0.026475333 0.755 -0.052950665 1.6958464e-38 340 280
0.027799098 0.755 -0.052950665 1.6866268e-38 341 280
0.029122867 0.755 -0.052950665 1.7050296e-38 342 280
0.030446632 0.755 -0.052950665 1.6958101e-38 343 280
0.031770397 0.755 -0.052950665 1.668259e-38 344 280
0.033094164 0.755 -0.052950665 1.6590036e-38 345 280
0.034417931 0.755 -0.052950665 1.6588955e-38 346 280
0.035741698 0.755 -0.052950665 1.6312728e-38 347 280
0.037065465 0.755 -0.052950665 1.5943591e-38 348 280
0.038389232 0.755 -0.052950665 1.5482615e-38 349 280
0.039712999 0.755 -0.052950665 1.4928722e-38 350 280
0.041036766 0.755 -0.052950665 1.4559579e-38 351 280
0.042360533 0.755 -0.052950665 1.4468835e-38 352 280
0.043684296 0.755 -0.052950665 1.5022008e-38 353 280
0.045008067 0.755 -0.052950665 1.5113849e-38 354 280
0.046454567 0.75700003 -0.053090934 1.5021652e-38 355 280
0.047908079 0.759 -0.053231198 1.4930163e-38 356 280
0.049238857 0.759 -0.053231198 1.4653577e-38 357 280
0.050569639 0.759 -0.053231198 1.4561384e-38 358 280
0.051900417 0.759 -0.053231198 1.4284437e-38 359 280
0.053371463 0.76099998 -0.053371463 1.3915659e-38 360 280
0.05470575 0.76099998 -0.053371463 1.3639071e-38 361 280
0.056040037 0.76099998 -0.053371463 1.3453605e-38 362 280
0.057374325 0.76099998 -0.053371463 1.3177376e-38 363 280
0.058785759 0.76200002 -0.053441599 1.290008e-38 364 280
0.060121801 0.76200002 -0.053441599 1.2531658e-38 365 280
0.061457843 0.76200002 -0.053441599 1.225508e-38 366 280
0.062793881 0.76200002 -0.053441599 1.1886657e-38 367 280
0.064298242 0.764 -0.053581864 1.1518596e-38 368 280
0.06563779 0.764 -0.053581864 1.1241651e-38 369 280
0.06697733 0.764 -0.053581864 1.0597733e-38 370 280
0.068316877 0.764 -0.053581864 1.0228951e-38 371 280
0.069838762 0.76599997 -0.053722132 9.216986e-39 372 280
0.07127475 0.76700002 -0.053792264 9.0325933e-39 373 280
0.072619557 0.76700002 -0.053792264 8.0184764e-39 374 280
-0.10475815 0.76599997 -0.055065181 1.548992e-38 242 281
-0.1034151 0.76599997 -0.055065181 1.2355268e-38 243 281
-0.10207205 0.76599997 -0.055065181 1.1157033e-38 244 281
-0.10072899 0.76599997 -0.055065181 1.2632522e-38 245 281
-0.09938594 0.76599997 -0.055065181 1.4379902e-38 246 281
-0.09804289 0.76599997 -0.055065181 1.4564293e-38 247 281
-0.096447356 0.764 -0.054921411 1.5208937e-38 248 281
-0.09485884 0.76200002 -0.054777641 1.5393328e-38 249 281
-0.093522795 0.76200002 -0.054777641 1.5668839e-38 250 281
-0.092186764 0.76200002 -0.054777641 1.5761034e-38 251 281
-0.090850718 0.76200002 -0.054777641 1.5761037e-38 252 281
-0.089397199 0.76099998 -0.05470575 1.5761037e-38 253 281
-0.088062912 0.76099998 -0.05470575 1.5577719e-38 254 281
-0.086728632 0.76099998 -0.05470575 1.5393328e-38 255 281
-0.085394338 0.76099998 -0.05470575 1.5576259e-38 256 281
-0.083839141 0.759 -0.054561976 1.493089e-38 257 281
-0.082508355 0.759 -0.054561976 1.5203151e-38 258 281
-0.081177577 0.759 -0.054561976 1.4650336e-38 259 281
-0.079846799 0.759 -0.054561976 1.4281923e-38 260 281
-0.078516021 0.759 -0.054561976 1.4281923e-38 261 281
-0.077185236 0.759 -0.054561976 1.4743624e-38 262 281
-0.075854458 0.759 -0.054561976 1.6126559e-38 263 281
-0.07452368 0.759 -0.054561976 1.6220195e-38 264 281
-0.073192894 0.759 -0.054561976 1.6497142e-38 265 281
-0.071862116 0.759 -0.054561976 1.6406388e-38 266 281
-0.070531338 0.759 -0.054561976 1.6314193e-38 267 281
-0.069200553 0.759 -0.054561976 1.6222347e-38 268 281
-0.067869775 0.759 -0.054561976 1.6130152e-38 269 281
-0.066538997 0.759 -0.054561976 1.6037949e-38 270 281
-0.065208219 0.759 -0.054561976 1.5853918e-38 271 281
-0.063877434 0.759 -0.054561976 1.6036865e-38 272 281
-0.062381849 0.75700003 -0.054418206 1.5944669e-38 273 281
-0.060812615 0.75400001 -0.054202545 1.5485155e-38 274 281
-0.059490599 0.75400001 -0.054202545 1.5485155e-38 275 281
-0.058014289 0.75199997 -0.054058768 1.4657956e-38 276 281
-0.056695782 0.75199997 -0.054058768 1.4750152e-38 277 281
0.017208965 0.755 -0.054274432 1.6498606e-38 333 281
0.018532733 0.755 -0.054274432 1.695741e-38 334 281
0.0198565 0.755 -0.054274432 1.7049607e-38 335 281
0.021180267 0.755 -0.054274432 1.704959e-38 336 281
0.022504034 0.755 -0.054274432 1.704959e-38 337 281
0.023827799 0.755 -0.054274432 1.6958464e-38 338 281
0.025151566 0.755 -0.054274432 1.6958464e-38 339 281
0.026475333 0.755 -0.054274432 1.6958466e-38 340 281
0.027799098 0.755 -0.054274432 1.6958466e-38 341 281
0.029122867 0.755 -0.054274432 1.6958466e-38 342 281
0.030446632 0.755 -0.054274432 1.6866271e-38 343 281
0.03172832 0.75400001 -0.054202545 1.6682234e-38 344 281
0.033050332 0.75400001 -0.054202545 1.6497843e-38 345 281
0.034417931 0.755 -0.054274432 1.6588958e-38 346 281
0.035694357 0.75400001 -0.054202545 1.6220177e-38 347 281
0.037016369 0.75400001 -0.054202545 1.5852476e-38 348 281
0.038338386 0.75400001 -0.054202545 1.5575529e-38 349 281
0.039660402 0.75400001 -0.054202545 1.5390419e-38 350 281
0.040982414 0.75400001 -0.054202545 1.5390419e-38 351 281
0.042360533 0.755 -0.054274432 1.5298949e-38 352 281
0.043684296 0.755 -0.054274432 1.5022002e-38 353 281
0.045008067 0.755 -0.054274432 1.4929088e-38 354 281
0.04633183 0.755 -0.054274432 1.4836892e-38 355 281
0.04778184 0.75700003 -0.054418206 1.4836529e-38 356 281
0.049109112 0.75700003 -0.054418206 1.4559582e-38 357 281
0.050569639 0.759 -0.054561976 1.4467384e-38 358 281
0.051900417 0.759 -0.054561976 1.4006764e-38 359 281
0.053231198 0.759 -0.054561976 1.3822014e-38 360 281
0.05470575 0.76099998 -0.05470575 1.3453592e-38 361 281
0.056040037 0.76099998 -0.05470575 1.3176648e-38 362 281
0.057374325 0.76099998 -0.05470575 1.2807867e-38 363 281
0.058708608 0.76099998 -0.05470575 1.2530572e-38 364 281
0.060042895 0.76099998 -0.05470575 1.216215e-38 365 281
0.061457843 0.76200002 -0.054777641 1.1701187e-38 366 281
0.062793881 0.76200002 -0.054777641 1.1608991e-38 367 281
0.064129919 0.76200002 -0.054777641 1.1240935e-38 368 281
0.065465957 0.76200002 -0.054777641 1.0963988e-38 369 281
0.06697733 0.764 -0.054921411 1.0320073e-38 370 281
0.068316877 0.764 -0.054921411 9.9512902e-39 371 281
0.070112288 0.76899999 -0.055280842 8.9393257e-39 372 281
0.07127475 0.76700002 -0.055137072 8.6627374e-39 373 281
0.072619557 0.76700002 -0.055137072 7.9262808e-39 374 281
-0.10475815 0.76599997 -0.056408234 1.5858708e-38 242 282
-0.1034151 0.76599997 -0.056408234 1.2354915e-38 243 282
-0.10207205 0.76599997 -0.056408234 1.0696062e-38 244 282
-0.10072899 0.76599997 -0.056408234 1.2171192e-38 245 282
-0.09938594 0.76599997 -0.056408234 1.391929e-38 246 282
-0.09804289 0.76599997 -0.056408234 1.4196237e-38 247 282
-0.096447356 0.764 -0.056260962 1.4656489e-38 248 282
-0.09485884 0.76200002 -0.056113683 1.4933076e-38 249 282
-0.093522795 0.76200002 -0.056113683 1.5300782e-38 250 282
-0.092065774 0.76099998 -0.056040037 1.5392978e-38 251 282
-0.090731487 0.76099998 -0.056040037 1.5484452e-38 252 282
-0.089397199 0.76099998 -0.056040037 1.5668842e-38 253 282
-0.087831482 0.759 -0.055892758 1.5761741e-38 254 282
-0.086500697 0.759 -0.055892758 1.5485155e-38 255 282
-0.085169919 0.759 -0.055892758 1.5944684e-38 256 282
-0.083839141 0.759 -0.055892758 1.5760293e-38 257 282
-0.082290947 0.75700003 -0.055745479 1.5666656e-38 258 282
-0.080963671 0.75700003 -0.055745479 1.5297514e-38 259 282
-0.079636402 0.75700003 -0.055745479 1.5113485e-38 260 282
-0.078309126 0.75700003 -0.055745479 1.4929093e-38 261 282
-0.076981857 0.75700003 -0.055745479 1.5114205e-38 262 282
-0.075654581 0.75700003 -0.055745479 1.585177e-38 263 282
-0.074327305 0.75700003 -0.055745479 1.6220548e-38 264 282
-0.073000036 0.75700003 -0.055745479 1.6589691e-38 265 282
-0.07167276 0.75700003 -0.055745479 1.6682249e-38 266 282
-0.070345491 0.75700003 -0.055745479 1.6590054e-38 267 282
-0.069018215 0.75700003 -0.055745479 1.659076e-38 268 282
-0.067690939 0.75700003 -0.055745479 1.6498564e-38 269 282
-0.06636367 0.75700003 -0.055745479 1.6498196e-38 270 282
-0.065036394 0.75700003 -0.055745479 1.6498196e-38 271 282
-0.063540794 0.755 -0.055598196 1.6405277e-38 272 282
-0.062217031 0.755 -0.055598196 1.6313082e-38 273 282
-0.060812615 0.75400001 -0.055524562 1.5945391e-38 274 282
-0.059490599 0.75400001 -0.055524562 1.5760641e-38 275 282
-0.058014289 0.75199997 -0.055377278 1.5300761e-38 276 282
-0.056695782 0.75199997 -0.055377278 1.5208564e-38 277 282
-0.055524562 0.75400001 -0.055524562 1.5117485e-38 278 282
-0.054202545 0.75400001 -0.055524562 1.5486269e-38 279 282
0.017208965 0.755 -0.055598196 1.6682603e-38 333 282
0.018532733 0.755 -0.055598196 1.6958116e-38 334 282
0.0198565 0.755 -0.055598196 1.6958116e-38 335 282
0.021180267 0.755 -0.055598196 1.704959e-38 336 282
0.022504034 0.755 -0.055598196 1.704959e-38 337 282
0.023827799 0.755 -0.055598196 1.695811e-38 338 282
0.025151566 0.755 -0.055598196 1.695811e-38 339 282
0.026475333 0.755 -0.055598196 1.7049946e-38 340 282
0.027799098 0.755 -0.055598196 1.6957392e-38 341 282
0.029084291 0.75400001 -0.055524562 1.6866271e-38 342 282
0.030406307 0.75400001 -0.055524562 1.6681881e-38 343 282
0.03172832 0.75400001 -0.055524562 1.6681158e-38 344 282
0.033050332 0.75400001 -0.055524562 1.6588961e-38 345 282
0.034372345 0.75400001 -0.055524562 1.6312731e-38 346 282
0.035694357 0.75400001 -0.055524562 1.6220177e-38 347 282
0.037016369 0.75400001 -0.055524562 1.5760276e-38 348 282
0.038338386 0.75400001 -0.055524562 1.5575526e-38 349 282
0.039660402 0.75400001 -0.055524562 1.5390416e-38 350 282
0.040982414 0.75400001 -0.055524562 1.5298219e-38 351 282
0.042304426 0.75400001 -0.055524562 1.5113835e-38 352 282
0.043684296 0.755 -0.055598196 1.4929444e-38 353 282
0.045008067 0.755 -0.055598196 1.4744346e-38 354 282
0.04633183 0.755 -0.055598196 1.4468118e-38 355 282
0.047655597 0.755 -0.055598196 1.4467036e-38 356 282
0.049109112 0.75700003 -0.055745479 1.4190451e-38 357 282
0.050436385 0.75700003 -0.055745479 1.382202e-38 358 282
0.051763661 0.75700003 -0.055745479 1.3545434e-38 359 282
0.053231198 0.759 -0.055892758 1.3177729e-38 360 282
0.054561976 0.759 -0.055892758 1.2900784e-38 361 282
0.056040037 0.76099998 -0.056040037 1.2347981e-38 362 282
0.057374325 0.76099998 -0.056040037 1.2255786e-38 363 282
0.058708608 0.76099998 -0.056040037 1.1886657e-38 364 282
0.060042895 0.76099998 -0.056040037 1.1425679e-38 365 282
0.061377186 0.76099998 -0.056040037 1.1057622e-38 366 282
0.062793881 0.76200002 -0.056113683 1.0872871e-38 367 282
0.064129919 0.76200002 -0.056113683 1.0504817e-38 368 282
0.065465957 0.76200002 -0.056113683 1.0320067e-38 369 282
0.067240335 0.76700002 -0.056481879 9.8591072e-39 370 282
0.068585135 0.76700002 -0.056481879 9.4906848e-39 371 282
0.070112288 0.76899999 -0.056629159 8.3865233e-39 372 282
0.071460605 0.76899999 -0.056629159 8.2943276e-39 373 282
-0.1034151 0.76599997 -0.057751291 1.2632226e-38 243 283
-0.10207205 0.76599997 -0.057751291 1.0419847e-38 244 283
-0.10072899 0.76599997 -0.057751291 1.161839e-38 245 283
-0.09938594 0.76599997 -0.057751291 1.3366842e-38 246 283
-0.09804289 0.76599997 -0.057751291 1.3735624e-38 247 283
-0.096447356 0.764 -0.057600506 1.4380255e-38 248 283
-0.09485884 0.76200002 -0.057449725 1.4564646e-38 249 283
-0.093400061 0.76099998 -0.057374325 1.4932353e-38 250 283
-0.092065774 0.76099998 -0.057374325 1.502455e-38 251 283
-0.090731487 0.76099998 -0.057374325 1.5392612e-38 252 283
-0.08916226 0.759 -0.05722354 1.5392612e-38 253 283
-0.087831482 0.759 -0.05722354 1.5485158e-38 254 283
-0.086500697 0.759 -0.05722354 1.5669189e-38 255 283
-0.085169919 0.759 -0.05722354 1.5761738e-38 256 283
-0.083839141 0.759 -0.05722354 1.5761738e-38 257 283
-0.082290947 0.75700003 -0.057072755 1.6312038e-38 258 283
-0.080963671 0.75700003 -0.057072755 1.6404593e-38 259 283
-0.079636402 0.75700003 -0.057072755 1.6312043e-38 260 283
-0.078102231 0.755 -0.056921966 1.6219848e-38 261 283
-0.076778464 0.755 -0.056921966 1.5944331e-38 262 283
-0.075654581 0.75700003 -0.057072755 1.6129081e-38 263 283
-0.074327305 0.75700003 -0.057072755 1.6404941e-38 264 283
-0.07280717 0.755 -0.056921966 1.6681886e-38 265 283
-0.071483396 0.755 -0.056921966 1.6682605e-38 266 283
-0.070159629 0.755 -0.056921966 1.6774801e-38 267 283
-0.069018215 0.75700003 -0.057072755 1.6499643e-38 268 283
-0.067690939 0.75700003 -0.057072755 1.6499643e-38 269 283
-0.066188328 0.755 -0.056921966 1.6866265e-38 270 283
-0.064864561 0.755 -0.056921966 1.6682234e-38 271 283
-0.063540794 0.755 -0.056921966 1.6498196e-38 272 283
-0.062217031 0.755 -0.056921966 1.6405999e-38 273 283
-0.060893264 0.755 -0.056921966 1.6313444e-38 274 283
-0.059490599 0.75400001 -0.056846574 1.6313444e-38 275 283
-0.058168583 0.75400001 -0.056846574 1.603723e-38 276 283
-0.056846574 0.75400001 -0.056846574 1.603723e-38 277 283
-0.055524562 0.75400001 -0.056846574 1.5853939e-38 278 283
-0.054202545 0.75400001 -0.056846574 1.5669189e-38 279 283
-0.052950665 0.755 -0.056921966 1.5117482e-38 280 283
-0.046270464 0.75400001 -0.056846574 1.6962532e-38 285 283
-0.044948451 0.75400001 -0.056846574 1.68718e-38 286 283
-0.043626439 0.75400001 -0.056846574 1.7240583e-38 287 283
-0.042304426 0.75400001 -0.056846574 1.7516463e-38 288 283
0.00263 0.75 -0.056544997 1.6593011e-38 322 283
0.003945 0.75 -0.056544997 1.6316065e-38 323 283
0.00526 0.75 -0.056544997 1.6589743e-38 324 283
0.006575 0.75 -0.056544997 1.640535e-38 325 283
0.00793208 0.75400001 -0.056846574 1.6589353e-38 326 283
0.0092540924 0.75400001 -0.056846574 1.6589353e-38 327 283
0.010576107 0.75400001 -0.056846574 1.6589703e-38 328 283
0.01189812 0.75400001 -0.056846574 1.6774095e-38 329 283
0.013220133 0.75400001 -0.056846574 1.6865564e-38 330 283
0.014542146 0.75400001 -0.056846574 1.695776e-38 331 283
0.01586416 0.75400001 -0.056846574 1.6865918e-38 332 283
0.017208965 0.755 -0.056921966 1.6958113e-38 333 283
0.018532733 0.755 -0.056921966 1.695811e-38 334 283
0.0198565 0.755 -0.056921966 1.695811e-38 335 283
0.021180267 0.755 -0.056921966 1.695811e-38 336 283
0.022474226 0.75400001 -0.056846574 1.6865915e-38 337 283
0.02379624 0.75400001 -0.056846574 1.7049593e-38 338 283
0.025118252 0.75400001 -0.056846574 1.6957397e-38 339 283
0.026475333 0.755 -0.056921966 1.6957397e-38 340 283
0.027762281 0.75400001 -0.056846574 1.6957397e-38 341 283
0.029084291 0.75400001 -0.056846574 1.6865199e-38 342 283
0.030406307 0.75400001 -0.056846574 1.6773003e-38 343 283
0.03172832 0.75400001 -0.056846574 1.6405293e-38 344 283
0.033050332 0.75400001 -0.056846574 1.6220901e-38 345 283
0.034372345 0.75400001 -0.056846574 1.622018e-38 346 283
0.035694357 0.75400001 -0.056846574 1.6035788e-38 347 283
0.037016369 0.75400001 -0.056846574 1.6035432e-38 348 283
0.038338386 0.75400001 -0.056846574 1.5667009e-38 349 283
0.039660402 0.75400001 -0.056846574 1.5390063e-38 350 283
0.040982414 0.75400001 -0.056846574 1.5021639e-38 351 283
0.042304426 0.75400001 -0.056846574 1.5019488e-38 352 283
0.043626439 0.75400001 -0.056846574 1.4927293e-38 353 283
0.044948451 0.75400001 -0.056846574 1.4651062e-38 354 283
0.04633183 0.755 -0.056921966 1.4374116e-38 355 283
0.047655597 0.755 -0.056921966 1.4189721e-38 356 283
0.048979364 0.755 -0.056921966 1.3913494e-38 357 283
0.050436385 0.75700003 -0.057072755 1.3177376e-38 358 283
0.051763661 0.75700003 -0.057072755 1.3085181e-38 359 283
0.053231198 0.759 -0.05722354 1.3083749e-38 360 283
0.054561976 0.759 -0.05722354 1.2714967e-38 361 283
0.055892758 0.759 -0.05722354 1.2069967e-38 362 283
0.057374325 0.76099998 -0.057374325 1.1885935e-38 363 283
0.058708608 0.76099998 -0.057374325 1.1608994e-38 364 283
0.060042895 0.76099998 -0.057374325 1.1240213e-38 365 283
0.061377186 0.76099998 -0.057374325 1.0780675e-38 366 283
0.06271147 0.76099998 -0.057374325 1.0596284e-38 367 283
0.064129919 0.76200002 -0.057449725 1.0227872e-38 368 283
0.065465957 0.76200002 -0.057449725 9.9516433e-39 369 283
0.067415662 0.76899999 -0.057977475 9.3988549e-39 370 283
0.068763971 0.76899999 -0.057977475 8.9378768e-39 371 283
0.070294641 0.77100003 -0.058128256 8.1092301e-39 372 283
-0.1034151 0.76599997 -0.059094343 1.3462357e-38 243 284
-0.10180555 0.764 -0.058940053 1.1157063e-38 244 284
-0.100466 0.764 -0.058940053 1.1433289e-38 245 284
-0.098866954 0.76200002 -0.058785759 1.3089179e-38 246 284
-0.097530924 0.76200002 -0.058785759 1.3550517e-38 247 284
-0.096194878 0.76200002 -0.058785759 1.4011473e-38 248 284
-0.094734348 0.76099998 -0.058708608 1.4287701e-38 249 284
-0.093400061 0.76099998 -0.058708608 1.4655766e-38 250 284
-0.092065774 0.76099998 -0.058708608 1.4840157e-38 251 284
-0.090731487 0.76099998 -0.058708608 1.5207142e-38 252 284
-0.08916226 0.759 -0.058554318 1.5483729e-38 253 284
-0.087831482 0.759 -0.058554318 1.5576275e-38 254 284
-0.086500697 0.759 -0.058554318 1.566847e-38 255 284
-0.085169919 0.759 -0.058554318 1.5761022e-38 256 284
-0.083618224 0.75700003 -0.058400027 1.6037249e-38 257 284
-0.082290947 0.75700003 -0.058400027 1.6129448e-38 258 284
-0.080963671 0.75700003 -0.058400027 1.6221644e-38 259 284
-0.079425998 0.755 -0.058245733 1.6221647e-38 260 284
-0.078102231 0.755 -0.058245733 1.6221647e-38 261 284
-0.076778464 0.755 -0.058245733 1.6129802e-38 262 284
-0.075454697 0.755 -0.058245733 1.6221997e-38 263 284
-0.07413093 0.755 -0.058245733 1.6590054e-38 264 284
-0.07280717 0.755 -0.058245733 1.6682249e-38 265 284
-0.071483396 0.755 -0.058245733 1.6774448e-38 266 284
-0.070159629 0.755 -0.058245733 1.6866645e-38 267 284
-0.068835862 0.755 -0.058245733 1.6866998e-38 268 284
-0.067512102 0.755 -0.058245733 1.6866998e-38 269 284
-0.066188328 0.755 -0.058245733 1.695811e-38 270 284
-0.064864561 0.755 -0.058245733 1.695811e-38 271 284
-0.063540794 0.755 -0.058245733 1.6865549e-38 272 284
-0.062217031 0.755 -0.058245733 1.6865549e-38 273 284
-0.060893264 0.755 -0.058245733 1.6590036e-38 274 284
-0.059490599 0.75400001 -0.058168583 1.649784e-38 275 284
-0.058168583 0.75400001 -0.058168583 1.6222331e-38 276 284
-0.056846574 0.75400001 -0.058168583 1.6222331e-38 277 284
-0.055524562 0.75400001 -0.058168583 1.5946837e-38 278 284
-0.054202545 0.75400001 -0.058168583 1.585464e-38 279 284
-0.052950665 0.755 -0.058245733 1.5578428e-38 280 284
-0.048914492 0.75400001 -0.058168583 1.6130546e-38 283 284
-0.04759248 0.75400001 -0.058168583 1.6130935e-38 284 284
-0.046270464 0.75400001 -0.058168583 1.6130935e-38 285 284
-0.044829223 0.75199997 -0.058014289 1.6130603e-38 286 284
-0.04351072 0.75199997 -0.058014289 1.6591222e-38 287 284
-0.04219221 0.75199997 -0.058014289 1.6960383e-38 288 284
-0.040873703 0.75199997 -0.058014289 1.7329166e-38 289 284
0 0.74900001 -0.057782855 1.6591915e-38 320 284
0.0013132467 0.74900001 -0.057782855 1.649936e-38 321 284
0.00263 0.75 -0.057859998 1.6590815e-38 322 284
0.003945 0.75 -0.057859998 1.6314588e-38 323 284
0.00526 0.75 -0.057859998 1.6406038e-38 324 284
0.006575 0.75 -0.057859998 1.6406038e-38 325 284
0.0079110395 0.75199997 -0.058014289 1.6681531e-38 326 284
0.0092540924 0.75400001 -0.058168583 1.6589335e-38 327 284
0.010576107 0.75400001 -0.058168583 1.6681531e-38 328 284
0.01189812 0.75400001 -0.058168583 1.6865562e-38 329 284
0.013220133 0.75400001 -0.058168583 1.6682605e-38 330 284
0.014503572 0.75199997 -0.058014289 1.6774801e-38 331 284
0.015822079 0.75199997 -0.058014289 1.6774798e-38 332 284
0.017186172 0.75400001 -0.058168583 1.6774798e-38 333 284
0.018508185 0.75400001 -0.058168583 1.6775154e-38 334 284
0.019830201 0.75400001 -0.058168583 1.6775154e-38 335 284
0.021152213 0.75400001 -0.058168583 1.6958466e-38 336 284
0.022474226 0.75400001 -0.058168583 1.6958466e-38 337 284
0.02379624 0.75400001 -0.058168583 1.6957397e-38 338 284
0.025118252 0.75400001 -0.058168583 1.6957397e-38 339 284
0.026440267 0.75400001 -0.058168583 1.7048158e-38 340 284
0.027762281 0.75400001 -0.058168583 1.7048158e-38 341 284
0.029084291 0.75400001 -0.058168583 1.6773003e-38 342 284
0.030406307 0.75400001 -0.058168583 1.6680807e-38 343 284
0.03172832 0.75400001 -0.058168583 1.6404574e-38 344 284
0.033050332 0.75400001 -0.058168583 1.6220182e-38 345 284
0.034372345 0.75400001 -0.058168583 1.6127265e-38 346 284
0.035599679 0.75199997 -0.058014289 1.5850318e-38 347 284
0.036918186 0.75199997 -0.058014289 1.5665208e-38 348 284
0.038236689 0.75199997 -0.058014289 1.5296784e-38 349 284
0.039555199 0.75199997 -0.058014289 1.474505e-38 350 284
0.040873703 0.75199997 -0.058014289 1.4284071e-38 351 284
0.042304426 0.75400001 -0.058168583 1.464998e-38 352 284
0.043626439 0.75400001 -0.058168583 1.4557784e-38 353 284
0.044948451 0.75400001 -0.058168583 1.4005689e-38 354 284
0.046270464 0.75400001 -0.058168583 1.3729103e-38 355 284
0.047655597 0.755 -0.058245733 1.354579e-38 356 284
0.048979364 0.755 -0.058245733 1.3361039e-38 357 284
0.050303131 0.755 -0.058245733 1.3083746e-38 358 284
0.051763661 0.75700003 -0.058400027 1.2715322e-38 359 284
0.053090934 0.75700003 -0.058400027 1.2622773e-38 360 284
0.054561976 0.759 -0.058554318 1.2161797e-38 361 284
0.055892758 0.759 -0.058554318 1.1977051e-38 362 284
0.05722354 0.759 -0.058554318 1.1608628e-38 363 284
0.058708608 0.76099998 -0.058708608 1.1148013e-38 364 284
0.060042895 0.76099998 -0.058708608 1.0871426e-38 365 284
0.061377186 0.76099998 -0.058708608 1.0411173e-38 366 284
0.06271147 0.76099998 -0.058708608 1.0318618e-38 367 284
0.064045757 0.76099998 -0.058708608 9.766899e-39 368 284
0.065465957 0.76200002 -0.058785759 9.582149e-39 369 284
0.067415662 0.76899999 -0.059325781 8.8449749e-39 370 284
0.068763971 0.76899999 -0.059325781 8.6605836e-39 371 284
-0.10180555 0.764 -0.0602796 1.2170136e-38 244 285
-0.100203 0.76200002 -0.060121801 1.1063787e-38 245 285
-0.098866954 0.76200002 -0.060121801 1.1984986e-38 246 285
-0.097530924 0.76200002 -0.060121801 1.2722551e-38 247 285
-0.096194878 0.76200002 -0.060121801 1.3459385e-38 248 285
-0.094734348 0.76099998 -0.060042895 1.373633e-38 249 285
-0.093154602 0.759 -0.059885096 1.4562498e-38 250 285
-0.091823816 0.759 -0.059885096 1.4654694e-38 251 285
-0.090731487 0.76099998 -0.060042895 1.4747255e-38 252 285
-0.08916226 0.759 -0.059885096 1.4839451e-38 253 285
-0.087831482 0.759 -0.059885096 1.4931646e-38 254 285
-0.086500697 0.759 -0.059885096 1.5208233e-38 255 285
-0.084945492 0.75700003 -0.059727304 1.5484457e-38 256 285
-0.083618224 0.75700003 -0.059727304 1.5760684e-38 257 285
-0.082290947 0.75700003 -0.059727304 1.5669922e-38 258 285
-0.080749765 0.755 -0.059569497 1.5853953e-38 259 285
-0.079425998 0.755 -0.059569497 1.5854306e-38 260 285
-0.077998787 0.75400001 -0.059490599 1.5946502e-38 261 285
-0.076676771 0.75400001 -0.059490599 1.6314196e-38 262 285
-0.075354755 0.75400001 -0.059490599 1.6314196e-38 263 285
-0.074032739 0.75400001 -0.059490599 1.6682255e-38 264 285
-0.07271073 0.75400001 -0.059490599 1.6774451e-38 265 285
-0.071388714 0.75400001 -0.059490599 1.6866292e-38 266 285
-0.070066705 0.75400001 -0.059490599 1.6866292e-38 267 285
-0.068744689 0.75400001 -0.059490599 1.6958843e-38 268 285
-0.067422673 0.75400001 -0.059490599 1.6958843e-38 269 285
-0.066100664 0.75400001 -0.059490599 1.7233625e-38 270 285
-0.064778648 0.75400001 -0.059490599 1.7049593e-38 271 285
-0.06345664 0.75400001 -0.059490599 1.6957748e-38 272 285
-0.062134624 0.75400001 -0.059490599 1.6957748e-38 273 285
-0.060812615 0.75400001 -0.059490599 1.6682587e-38 274 285
-0.059490599 0.75400001 -0.059490599 1.6682587e-38 275 285
-0.058168583 0.75400001 -0.059490599 1.6590745e-38 276 285
-0.056846574 0.75400001 -0.059490599 1.6498549e-38 277 285
-0.055524562 0.75400001 -0.059490599 1.631453e-38 278 285
-0.054202545 0.75400001 -0.059490599 1.631453e-38 279 285
-0.052880533 0.75400001 -0.059490599 1.6497855e-38 280 285
-0.048914492 0.75400001 -0.059490599 1.6497861e-38 283 285
-0.04759248 0.75400001 -0.059490599 1.6313477e-38 284 285
-0.04614773 0.75199997 -0.059332799 1.603653e-38 285 285
-0.044829223 0.75199997 -0.059332799 1.5851785e-38 286 285
-0.04351072 0.75199997 -0.059332799 1.5851785e-38 287 285
-0.04208 0.75 -0.059175 1.548482e-38 288 285
-0.040764999 0.75 -0.059175 1.6037994e-38 289 285
-0.0393974 0.74900001 -0.059096102 1.6040187e-38 290 285
-0.03798246 0.74699998 -0.058938295 1.6501165e-38 291 285
-0.036672719 0.74699998 -0.058938295 1.6501909e-38 292 285
-0.003945 0.75 -0.059175 1.6220943e-38 317 285
-0.00263 0.75 -0.059175 1.6312747e-38 318 285
-0.001315 0.75 -0.059175 1.6497139e-38 319 285
0 0.74900001 -0.059096102 1.659041e-38 320 285
0.0013132467 0.74900001 -0.059096102 1.6682605e-38 321 285
0.00263 0.75 -0.059175 1.6590057e-38 322 285
