# .PCD v.7 - Point Cloud Data file format
FIELDS x y z rgb imX imY
SIZE 4 4 4 4 4 4
TYPE F F F F F F
COUNT 1 1 1 1 1 1
WIDTH 845
HEIGHT 1
VIEWPOINT 0 0 0 1 0 0 0
POINTS 845
DATA ascii
0.075996473 0.77399999 -0.01764204 1.8800235e-38 376 253
0.077353559 0.77399999 -0.01764204 1.8984266e-38 377 253
0.078710638 0.77399999 -0.01764204 1.8984266e-38 378 253
0.079964265 0.773 -0.017619247 1.8984266e-38 379 253
0.0813196 0.773 -0.017619247 1.8432527e-38 380 253
0.082461022 0.77100003 -0.01757366 1.7787159e-38 381 253
0.08381284 0.77100003 -0.01757366 1.69563e-38 382 253
0.085164659 0.77100003 -0.01757366 1.5112387e-38 383 253
0.086516477 0.77100003 -0.01757366 1.5293184e-38 384 253
0.087868303 0.77100003 -0.01757366 1.5569773e-38 385 253
0.089220122 0.77100003 -0.01757366 1.5390091e-38 386 253
0.09057194 0.77100003 -0.01757366 1.6311687e-38 387 253
0.092162207 0.773 -0.017619247 1.686631e-38 388 253
0.093517542 0.773 -0.017619247 1.686631e-38 389 253
0.094381928 0.76899999 -0.017528072 1.7048889e-38 390 253
0.095730245 0.76899999 -0.017528072 1.7048889e-38 391 253
-0.050601196 0.77999997 -0.0191464 1.8708405e-38 283 254
-0.049233593 0.77999997 -0.0191464 1.9260452e-38 284 254
-0.047743265 0.778 -0.019097306 1.9536679e-38 285 254
-0.046259947 0.77600002 -0.019048214 1.9718554e-38 286 254
-0.044899363 0.77600002 -0.019048214 1.9718554e-38 287 254
-0.043538772 0.77600002 -0.019048214 1.8889887e-38 288 254
-0.042286891 0.778 -0.019097306 1.7506953e-38 289 254
-0.0408176 0.77600002 -0.019048214 1.6951611e-38 290 254
-0.039457016 0.77600002 -0.019048214 1.6490993e-38 291 254
-0.038096428 0.77600002 -0.019048214 1.6953429e-38 292 254
-0.036735836 0.77600002 -0.019048214 1.7690994e-38 293 254
-0.035375252 0.77600002 -0.019048214 1.7785007e-38 294 254
-0.034014668 0.77600002 -0.019048214 1.8061234e-38 295 254
-0.032569919 0.77399999 -0.018999118 1.842928e-38 296 254
-0.031212838 0.77399999 -0.018999118 1.8890259e-38 297 254
-0.03001005 0.778 -0.019097306 1.8432878e-38 298 254
-0.028572321 0.77600002 -0.019048214 1.8432878e-38 299 254
-0.027211733 0.77600002 -0.019048214 1.8524347e-38 300 254
-0.025917772 0.778 -0.019097306 1.8339956e-38 301 254
-0.024553679 0.778 -0.019097306 1.8522531e-38 302 254
-0.023189586 0.778 -0.019097306 1.8430334e-38 303 254
-0.021825492 0.778 -0.019097306 1.8062262e-38 304 254
-0.020461399 0.778 -0.019097306 1.7970067e-38 305 254
-0.0191464 0.77999997 -0.0191464 1.7784962e-38 306 254
-0.017801592 0.78100002 -0.019170946 1.741654e-38 307 254
-0.016432239 0.78100002 -0.019170946 1.7047403e-38 308 254
-0.015062887 0.78100002 -0.019170946 1.6954848e-38 309 254
-0.013693534 0.78100002 -0.019170946 1.6220517e-38 310 254
-0.01232418 0.78100002 -0.019170946 1.594357e-38 311 254
-0.010954826 0.78100002 -0.019170946 1.6033618e-38 312 254
-0.0095854728 0.78100002 -0.019170946 1.5665194e-38 313 254
-0.0082161194 0.78100002 -0.019170946 1.5021992e-38 314 254
-0.0068642995 0.78299999 -0.019220039 1.4929797e-38 315 254
-0.0054914397 0.78299999 -0.019220039 1.4837245e-38 316 254
-0.0041185799 0.78299999 -0.019220039 1.4652854e-38 317 254
-0.0027457199 0.78299999 -0.019220039 1.4284464e-38 318 254
-0.0013728599 0.78299999 -0.019220039 1.4468854e-38 319 254
0 0.78299999 -0.019220039 1.419193e-38 320 254
0.0013728599 0.78299999 -0.019220039 1.419193e-38 321 254
0.0027457199 0.78299999 -0.019220039 1.4100088e-38 322 254
0.0041185799 0.78299999 -0.019220039 1.4100088e-38 323 254
0.0054914397 0.78299999 -0.019220039 1.3916055e-38 324 254
0.0068642995 0.78299999 -0.019220039 1.382386e-38 325 254
0.0082371598 0.78299999 -0.019220039 1.373238e-38 326 254
0.0096345674 0.78500003 -0.019269135 1.3640185e-38 327 254
0.011010934 0.78500003 -0.019269135 1.3639463e-38 328 254
0.0123873 0.78500003 -0.019269135 1.3639463e-38 329 254
0.013763667 0.78500003 -0.019269135 1.3639463e-38 330 254
0.015140033 0.78500003 -0.019269135 1.3639463e-38 331 254
0.016516401 0.78500003 -0.019269135 1.3547267e-38 332 254
0.017892767 0.78500003 -0.019269135 1.3547267e-38 333 254
0.019269135 0.78500003 -0.019269135 1.3638744e-38 334 254
0.020645501 0.78500003 -0.019269135 1.3546548e-38 335 254
0.022021867 0.78500003 -0.019269135 1.3546551e-38 336 254
0.023457846 0.787 -0.019318225 1.3546551e-38 337 254
0.024837719 0.787 -0.019318225 1.3271759e-38 338 254
0.026150968 0.78500003 -0.019269135 1.3271759e-38 339 254
0.027527334 0.78500003 -0.019269135 1.3363955e-38 340 254
0.0289037 0.78500003 -0.019269135 1.3363955e-38 341 254
0.030280067 0.78500003 -0.019269135 1.3547267e-38 342 254
0.031656433 0.78500003 -0.019269135 1.3547267e-38 343 254
0.033032801 0.78500003 -0.019269135 1.3363599e-38 344 254
0.034409165 0.78500003 -0.019269135 1.3456153e-38 345 254
0.035785533 0.78500003 -0.019269135 1.34558e-38 346 254
0.037161902 0.78500003 -0.019269135 1.3639831e-38 347 254
0.038440078 0.78299999 -0.019220039 1.3365403e-38 348 254
0.039812941 0.78299999 -0.019220039 1.3365403e-38 349 254
0.0411858 0.78299999 -0.019220039 1.3548712e-38 350 254
0.042558655 0.78299999 -0.019220039 1.3548712e-38 351 254
0.043931518 0.78299999 -0.019220039 1.373203e-38 352 254
0.04530438 0.78299999 -0.019220039 1.3824226e-38 353 254
0.046558015 0.78100002 -0.019170946 1.3916776e-38 354 254
0.047927368 0.78100002 -0.019170946 1.3916776e-38 355 254
0.049296722 0.78100002 -0.019170946 1.3916759e-38 356 254
0.050666075 0.78100002 -0.019170946 1.3916759e-38 357 254
0.052035429 0.78100002 -0.019170946 1.4285536e-38 358 254
0.053336397 0.77999997 -0.0191464 1.4746513e-38 359 254
0.054703996 0.77999997 -0.0191464 1.483871e-38 360 254
0.055927824 0.778 -0.019097306 1.5207851e-38 361 254
0.057291918 0.778 -0.019097306 1.5576272e-38 362 254
0.058656007 0.778 -0.019097306 1.5761022e-38 363 254
0.0600201 0.778 -0.019097306 1.6036532e-38 364 254
0.061384194 0.778 -0.019097306 1.6220925e-38 365 254
0.062748291 0.778 -0.019097306 1.6130527e-38 366 254
0.063947573 0.77600002 -0.019048214 1.6130527e-38 367 254
0.065308161 0.77600002 -0.019048214 1.640711e-38 368 254
0.066668749 0.77600002 -0.019048214 1.6591503e-38 369 254
0.068029337 0.77600002 -0.019048214 1.7051761e-38 370 254
0.069389917 0.77600002 -0.019048214 1.7143956e-38 371 254
0.070568159 0.77399999 -0.018999118 1.7327637e-38 372 254
0.071925238 0.77399999 -0.018999118 1.7604225e-38 373 254
0.073282316 0.77399999 -0.018999118 1.7879736e-38 374 254
0.074542962 0.773 -0.018974574 1.797229e-38 375 254
0.075898297 0.773 -0.018974574 1.8248149e-38 376 254
0.077253617 0.773 -0.018974574 1.8432541e-38 377 254
0.078608945 0.773 -0.018974574 1.8525446e-38 378 254
0.079757385 0.77100003 -0.018925481 1.8525446e-38 379 254
0.081109203 0.77100003 -0.018925481 1.861584e-38 380 254
0.082461022 0.77100003 -0.018925481 1.8431448e-38 381 254
0.08381284 0.77100003 -0.018925481 1.7783908e-38 382 254
0.085164659 0.77100003 -0.018925481 1.5940356e-38 383 254
0.086516477 0.77100003 -0.018925481 1.4922604e-38 384 254
0.087640367 0.76899999 -0.018876385 1.4277235e-38 385 254
0.088988677 0.76899999 -0.018876385 1.363837e-38 386 254
0.09057194 0.77100003 -0.018925481 1.4929109e-38 387 254
0.091685303 0.76899999 -0.018876385 1.5667414e-38 388 254
0.093033619 0.76899999 -0.018876385 1.6497533e-38 389 254
0.094381928 0.76899999 -0.018876385 1.7049256e-38 390 254
0.095730245 0.76899999 -0.018876385 1.6957059e-38 391 254
-0.051702294 0.77600002 -0.0204088 1.9261194e-38 282 255
-0.050341707 0.77600002 -0.0204088 1.9537422e-38 283 255
-0.049107358 0.778 -0.020461399 1.9537405e-38 284 255
-0.047743265 0.778 -0.020461399 1.9445209e-38 285 255
-0.046259947 0.77600002 -0.0204088 1.9534888e-38 286 255
-0.044899363 0.77600002 -0.0204088 1.9073909e-38 287 255
-0.043538772 0.77600002 -0.0204088 1.7969007e-38 288 255
-0.042178184 0.77600002 -0.0204088 1.6954854e-38 289 255
-0.0408176 0.77600002 -0.0204088 1.7688829e-38 290 255
-0.039457016 0.77600002 -0.0204088 1.8057253e-38 291 255
-0.038096428 0.77600002 -0.0204088 1.8337815e-38 292 255
-0.036735836 0.77600002 -0.0204088 1.8890987e-38 293 255
-0.035375252 0.77600002 -0.0204088 1.8616193e-38 294 255
-0.033927001 0.77399999 -0.020356199 1.8431801e-38 295 255
-0.032569919 0.77399999 -0.020356199 1.8339956e-38 296 255
-0.031212838 0.77399999 -0.020356199 1.8524347e-38 297 255
-0.029855758 0.77399999 -0.020356199 1.8523628e-38 298 255
-0.028498679 0.77399999 -0.020356199 1.8431433e-38 299 255
-0.027141599 0.77399999 -0.020356199 1.8338869e-38 300 255
-0.025851147 0.77600002 -0.0204088 1.7969726e-38 301 255
-0.024490559 0.77600002 -0.0204088 1.7600568e-38 302 255
-0.023189586 0.778 -0.020461399 1.7139949e-38 303 255
-0.021825492 0.778 -0.020461399 1.6771521e-38 304 255
-0.020461399 0.778 -0.020461399 1.6494932e-38 305 255
-0.019097306 0.778 -0.020461399 1.6125798e-38 306 255
-0.017778799 0.77999997 -0.020513998 1.6033602e-38 307 255
-0.016432239 0.78100002 -0.020540299 1.5298204e-38 308 255
-0.015062887 0.78100002 -0.020540299 1.5390399e-38 309 255
-0.013693534 0.78100002 -0.020540299 1.493051e-38 310 255
-0.01232418 0.78100002 -0.020540299 1.4562088e-38 311 255
-0.010954826 0.78100002 -0.020540299 1.4651778e-38 312 255
-0.0095854728 0.78100002 -0.020540299 1.4467386e-38 313 255
-0.0082161194 0.78100002 -0.020540299 1.4652145e-38 314 255
-0.0068642995 0.78299999 -0.0205929 1.4283721e-38 315 255
-0.0054914397 0.78299999 -0.0205929 1.4008576e-38 316 255
-0.0041185799 0.78299999 -0.0205929 1.4100772e-38 317 255
-0.0027457199 0.78299999 -0.0205929 1.4099703e-38 318 255
-0.0013728599 0.78299999 -0.0205929 1.4099703e-38 319 255
0 0.78299999 -0.0205929 1.4099352e-38 320 255
0.0013728599 0.78299999 -0.0205929 1.4099352e-38 321 255
0.0027457199 0.78299999 -0.0205929 1.4007876e-38 322 255
0.0041291001 0.78500003 -0.020645501 1.4007876e-38 323 255
0.0055054668 0.78500003 -0.020645501 1.3732009e-38 324 255
0.0068818335 0.78500003 -0.020645501 1.3732009e-38 325 255
0.0082582003 0.78500003 -0.020645501 1.3639816e-38 326 255
0.0096345674 0.78500003 -0.020645501 1.3639816e-38 327 255
0.011010934 0.78500003 -0.020645501 1.354762e-38 328 255
0.0123873 0.78500003 -0.020645501 1.354762e-38 329 255
0.013763667 0.78500003 -0.020645501 1.354762e-38 330 255
0.015178605 0.787 -0.0206981 1.3455425e-38 331 255
0.01655848 0.787 -0.0206981 1.3730214e-38 332 255
0.017938353 0.787 -0.0206981 1.3730214e-38 333 255
0.019318225 0.787 -0.0206981 1.3637661e-38 334 255
0.0206981 0.787 -0.0206981 1.3730217e-38 335 255
0.022077972 0.787 -0.0206981 1.3454351e-38 336 255
0.023457846 0.787 -0.0206981 1.3454351e-38 337 255
0.024837719 0.787 -0.0206981 1.3271036e-38 338 255
0.026217593 0.787 -0.0206981 1.3271036e-38 339 255
0.027597465 0.787 -0.0206981 1.3271034e-38 340 255
0.02897734 0.787 -0.0206981 1.3455425e-38 341 255
0.030280067 0.78500003 -0.020645501 1.3271754e-38 342 255
0.031656433 0.78500003 -0.020645501 1.3271754e-38 343 255
0.033032801 0.78500003 -0.020645501 1.3271754e-38 344 255
0.034409165 0.78500003 -0.020645501 1.3364308e-38 345 255
0.035785533 0.78500003 -0.020645501 1.354762e-38 346 255
0.037161902 0.78500003 -0.020645501 1.3639816e-38 347 255
0.038440078 0.78299999 -0.0205929 1.3456501e-38 348 255
0.039812941 0.78299999 -0.0205929 1.3456501e-38 349 255
0.0411858 0.78299999 -0.0205929 1.3456857e-38 350 255
0.042558655 0.78299999 -0.0205929 1.3456857e-38 351 255
0.043931518 0.78299999 -0.0205929 1.3823481e-38 352 255
0.04530438 0.78299999 -0.0205929 1.3915677e-38 353 255
0.046558015 0.78100002 -0.020540299 1.3732009e-38 354 255
0.047927368 0.78100002 -0.020540299 1.3824563e-38 355 255
0.049296722 0.78100002 -0.020540299 1.3824207e-38 356 255
0.050666075 0.78100002 -0.020540299 1.3732012e-38 357 255
0.051968798 0.77999997 -0.020513998 1.3639819e-38 358 255
0.053336397 0.77999997 -0.020513998 1.3639819e-38 359 255
0.054563731 0.778 -0.020461399 1.3640532e-38 360 255
0.055927824 0.778 -0.020461399 1.3825282e-38 361 255
0.057291918 0.778 -0.020461399 1.4010025e-38 362 255
0.058505226 0.77600002 -0.0204088 1.4286252e-38 363 255
0.059865814 0.77600002 -0.0204088 1.4746144e-38 364 255
0.061226401 0.77600002 -0.0204088 1.5114568e-38 365 255
0.062586986 0.77600002 -0.0204088 1.4840505e-38 366 255
0.063947573 0.77600002 -0.0204088 1.5209287e-38 367 255
0.065308161 0.77600002 -0.0204088 1.5668836e-38 368 255
0.066668749 0.77600002 -0.0204088 1.6037979e-38 369 255
0.068029337 0.77600002 -0.0204088 1.6591152e-38 370 255
0.069211073 0.77399999 -0.020356199 1.6683348e-38 371 255
0.070568159 0.77399999 -0.020356199 1.695849e-38 372 255
0.071832314 0.773 -0.0203299 1.7327271e-38 373 255
0.073187642 0.773 -0.0203299 1.7694612e-38 374 255
0.074542962 0.773 -0.0203299 1.797084e-38 375 255
0.075898297 0.773 -0.0203299 1.7787891e-38 376 255
0.077053741 0.77100003 -0.020277301 1.7972641e-38 377 255
0.078405559 0.77100003 -0.020277301 1.8340702e-38 378 255
0.079757385 0.77100003 -0.020277301 1.8432897e-38 379 255
0.081109203 0.77100003 -0.020277301 1.8432897e-38 380 255
0.082461022 0.77100003 -0.020277301 1.8525093e-38 381 255
0.083595425 0.76899999 -0.0202247 1.8521124e-38 382 255
0.084943734 0.76899999 -0.0202247 1.6953797e-38 383 255
0.086292051 0.76899999 -0.0202247 1.5475412e-38 384 255
0.087640367 0.76899999 -0.0202247 1.4184673e-38 385 255
0.088988677 0.76899999 -0.0202247 1.3266342e-38 386 255
0.090336986 0.76899999 -0.0202247 1.372768e-38 387 255
0.091685303 0.76899999 -0.0202247 1.4101535e-38 388 255
0.093033619 0.76899999 -0.0202247 1.5392274e-38 389 255
0.094381928 0.76899999 -0.0202247 1.6497886e-38 390 255
0.095481269 0.76700002 -0.020172099 1.6681919e-38 391 255
0.096826084 0.76700002 -0.020172099 1.6957044e-38 392 255
0.098170884 0.76700002 -0.020172099 1.6957044e-38 393 255
0.099515699 0.76700002 -0.020172099 1.7048539e-38 394 255
-0.055927824 0.778 -0.021825492 1.7328736e-38 279 256
-0.054423466 0.77600002 -0.021769386 1.8246319e-38 280 256
-0.053062879 0.77600002 -0.021769386 1.8983885e-38 281 256
-0.051569037 0.77399999 -0.021713279 1.9537761e-38 282 256
-0.050211959 0.77399999 -0.021713279 1.9629956e-38 283 256
-0.048981119 0.77600002 -0.021769386 1.9720351e-38 284 256
-0.047497798 0.77399999 -0.021713279 1.9628156e-38 285 256
-0.046140719 0.77399999 -0.021713279 1.9260102e-38 286 256
-0.044783637 0.77399999 -0.021713279 1.8614732e-38 287 256
-0.043426558 0.77399999 -0.021713279 1.8518957e-38 288 256
-0.042069476 0.77399999 -0.021713279 1.8242368e-38 289 256
-0.040712398 0.77399999 -0.021713279 1.7783908e-38 290 256
-0.039355319 0.77399999 -0.021713279 1.8060855e-38 291 256
-0.037998237 0.77399999 -0.021713279 1.8338518e-38 292 256
-0.036641158 0.77399999 -0.021713279 1.8706941e-38 293 256
-0.03528408 0.77399999 -0.021713279 1.8706572e-38 294 256
-0.033927001 0.77399999 -0.021713279 1.8522181e-38 295 256
-0.032569919 0.77399999 -0.021713279 1.8246672e-38 296 256
-0.031212838 0.77399999 -0.021713279 1.8061922e-38 297 256
-0.029855758 0.77399999 -0.021713279 1.7784968e-38 298 256
-0.028498679 0.77399999 -0.021713279 1.7416187e-38 299 256
-0.027141599 0.77399999 -0.021713279 1.7415812e-38 300 256
-0.025784519 0.77399999 -0.021713279 1.686264e-38 301 256
-0.024490559 0.77600002 -0.021769386 1.6494929e-38 302 256
-0.023129974 0.77600002 -0.021769386 1.6126507e-38 303 256
-0.021825492 0.778 -0.021825492 1.5574418e-38 304 256
-0.020461399 0.778 -0.021825492 1.5482222e-38 305 256
-0.019097306 0.778 -0.021825492 1.5481166e-38 306 256
-0.017778799 0.77999997 -0.021881599 1.5573361e-38 307 256
-0.016411198 0.77999997 -0.021881599 1.5021283e-38 308 256
-0.0150436 0.77999997 -0.021881599 1.4836892e-38 309 256
-0.013693534 0.78100002 -0.021909652 1.4561031e-38 310 256
-0.01232418 0.78100002 -0.021909652 1.4561031e-38 311 256
-0.010954826 0.78100002 -0.021909652 1.428482e-38 312 256
-0.0095854728 0.78100002 -0.021909652 1.4100068e-38 313 256
-0.0082371598 0.78299999 -0.021965759 1.4100068e-38 314 256
-0.0068642995 0.78299999 -0.021965759 1.4007873e-38 315 256
-0.0054914397 0.78299999 -0.021965759 1.4008229e-38 316 256
-0.0041185799 0.78299999 -0.021965759 1.4008229e-38 317 256
-0.0027457199 0.78299999 -0.021965759 1.3915677e-38 318 256
-0.0013728599 0.78299999 -0.021965759 1.3915677e-38 319 256
0 0.78299999 -0.021965759 1.3732012e-38 320 256
0.0013728599 0.78299999 -0.021965759 1.3732012e-38 321 256
0.0027457199 0.78299999 -0.021965759 1.382421e-38 322 256
0.0041291001 0.78500003 -0.022021867 1.382421e-38 323 256
0.0055054668 0.78500003 -0.022021867 1.3640535e-38 324 256
0.0068818335 0.78500003 -0.022021867 1.3456504e-38 325 256
0.0082582003 0.78500003 -0.022021867 1.3364308e-38 326 256
0.0096345674 0.78500003 -0.022021867 1.3364308e-38 327 256
0.011010934 0.78500003 -0.022021867 1.354762e-38 328 256
0.0123873 0.78500003 -0.022021867 1.3455425e-38 329 256
0.013798732 0.787 -0.022077972 1.354762e-38 330 256
0.015178605 0.787 -0.022077972 1.3455425e-38 331 256
0.01655848 0.787 -0.022077972 1.3454349e-38 332 256
0.017938353 0.787 -0.022077972 1.3454349e-38 333 256
0.019269135 0.78500003 -0.022021867 1.3454351e-38 334 256
0.020645501 0.78500003 -0.022021867 1.3454351e-38 335 256
0.022021867 0.78500003 -0.022021867 1.3271039e-38 336 256
0.023457846 0.787 -0.022077972 1.3178844e-38 337 256
0.024837719 0.787 -0.022077972 1.3178841e-38 338 256
0.026217593 0.787 -0.022077972 1.3178841e-38 339 256
0.027597465 0.787 -0.022077972 1.3178841e-38 340 256
0.02897734 0.787 -0.022077972 1.3178841e-38 341 256
0.03035721 0.787 -0.022077972 1.2996247e-38 342 256
0.031737085 0.787 -0.022077972 1.2996247e-38 343 256
0.033032801 0.78500003 -0.022021867 1.2996247e-38 344 256
0.034409165 0.78500003 -0.022021867 1.3088444e-38 345 256
0.035785533 0.78500003 -0.022021867 1.3271757e-38 346 256
0.037161902 0.78500003 -0.022021867 1.3363952e-38 347 256
0.038440078 0.78299999 -0.021965759 1.3364671e-38 348 256
0.039812941 0.78299999 -0.021965759 1.3364671e-38 349 256
0.0411858 0.78299999 -0.021965759 1.3639819e-38 350 256
0.042558655 0.78299999 -0.021965759 1.3639819e-38 351 256
0.043931518 0.78299999 -0.021965759 1.3639816e-38 352 256
0.04530438 0.78299999 -0.021965759 1.3732012e-38 353 256
0.046558015 0.78100002 -0.021909652 1.3732014e-38 354 256
0.047927368 0.78100002 -0.021909652 1.3639819e-38 355 256
0.049296722 0.78100002 -0.021909652 1.3640182e-38 356 256
0.050666075 0.78100002 -0.021909652 1.3640182e-38 357 256
0.051968798 0.77999997 -0.021881599 1.3639113e-38 358 256
0.053336397 0.77999997 -0.021881599 1.3639113e-38 359 256
0.054563731 0.778 -0.021825492 1.3640182e-38 360 256
0.055927824 0.778 -0.021825492 1.3456151e-38 361 256
0.057291918 0.778 -0.021825492 1.3823479e-38 362 256
0.058505226 0.77600002 -0.021769386 1.3915674e-38 363 256
0.059865814 0.77600002 -0.021769386 1.3917106e-38 364 256
0.061226401 0.77600002 -0.021769386 1.4101496e-38 365 256
0.062586986 0.77600002 -0.021769386 1.4010025e-38 366 256
0.063947573 0.77600002 -0.021769386 1.4102221e-38 367 256
0.065308161 0.77600002 -0.021769386 1.4470296e-38 368 256
0.066668749 0.77600002 -0.021769386 1.5115665e-38 369 256
0.067854002 0.77399999 -0.021713279 1.5577369e-38 370 256
0.069211073 0.77399999 -0.021713279 1.5853956e-38 371 256
0.070568159 0.77399999 -0.021713279 1.6588997e-38 372 256
0.071832314 0.773 -0.021685226 1.6865944e-38 373 256
0.073187642 0.773 -0.021685226 1.6958856e-38 374 256
0.074350104 0.77100003 -0.021629119 1.705141e-38 375 256
0.075701922 0.77100003 -0.021629119 1.7418761e-38 376 256
0.077053741 0.77100003 -0.021629119 1.7603512e-38 377 256
0.078405559 0.77100003 -0.021629119 1.7696424e-38 378 256
0.079550482 0.76899999 -0.021573013 1.7788619e-38 379 256
0.080898799 0.76899999 -0.021573013 1.8064836e-38 380 256
0.082247108 0.76899999 -0.021573013 1.8157033e-38 381 256
0.083595425 0.76899999 -0.021573013 1.8522925e-38 382 256
0.084943734 0.76899999 -0.021573013 1.7600969e-38 383 256
0.086292051 0.76899999 -0.021573013 1.6490284e-38 384 256
0.087640367 0.76899999 -0.021573013 1.4646011e-38 385 256
0.088988677 0.76899999 -0.021573013 1.3446405e-38 386 256
0.090336986 0.76899999 -0.021573013 1.3169458e-38 387 256
0.091446854 0.76700002 -0.021516906 1.2258695e-38 388 256
0.092791654 0.76700002 -0.021516906 1.3918576e-38 389 256
0.094136469 0.76700002 -0.021516906 1.5759978e-38 390 256
0.095481269 0.76700002 -0.021516906 1.6590099e-38 391 256
0.096826084 0.76700002 -0.021516906 1.7600265e-38 392 256
0.098170884 0.76700002 -0.021516906 1.7231483e-38 393 256
0.099515699 0.76700002 -0.021516906 1.6957044e-38 394 256
0.1008605 0.76700002 -0.021516906 1.6864848e-38 395 256
0.10220531 0.76700002 -0.021516906 1.6772689e-38 396 256
0.10287508 0.76200002 -0.02137664 1.6957439e-38 397 256
-0.057291918 0.778 -0.023189586 1.769353e-38 278 257
-0.055927824 0.778 -0.023189586 1.83389e-38 279 257
-0.054423466 0.77600002 -0.023129974 1.8984601e-38 280 257
-0.053062879 0.77600002 -0.023129974 1.9077155e-38 281 257
-0.051569037 0.77399999 -0.02307036 1.9261544e-38 282 257
-0.050211959 0.77399999 -0.02307036 1.9445575e-38 283 257
-0.04885488 0.77399999 -0.02307036 1.9628524e-38 284 257
-0.047497798 0.77399999 -0.02307036 1.9352298e-38 285 257
-0.046081103 0.773 -0.023040552 1.8984957e-38 286 257
-0.044725779 0.773 -0.023040552 1.8339588e-38 287 257
-0.043426558 0.77399999 -0.02307036 1.8612577e-38 288 257
-0.042069476 0.77399999 -0.02307036 1.8520382e-38 289 257
-0.040712398 0.77399999 -0.02307036 1.8337432e-38 290 257
-0.039355319 0.77399999 -0.02307036 1.8429628e-38 291 257
-0.037998237 0.77399999 -0.02307036 1.8154476e-38 292 257
-0.036641158 0.77399999 -0.02307036 1.8246672e-38 293 257
-0.03528408 0.77399999 -0.02307036 1.8338136e-38 294 257
-0.033927001 0.77399999 -0.02307036 1.7969713e-38 295 257
-0.032569919 0.77399999 -0.02307036 1.7600208e-38 296 257
-0.031212838 0.77399999 -0.02307036 1.713923e-38 297 257
-0.029855758 0.77399999 -0.02307036 1.6586776e-38 298 257
-0.028498679 0.77399999 -0.02307036 1.6402383e-38 299 257
-0.027141599 0.77399999 -0.02307036 1.6216915e-38 300 257
-0.025784519 0.77399999 -0.02307036 1.5848491e-38 301 257
-0.024490559 0.77600002 -0.023129974 1.5297838e-38 302 257
-0.023129974 0.77600002 -0.023129974 1.5205642e-38 303 257
-0.021825492 0.778 -0.023189586 1.4653933e-38 304 257
-0.020461399 0.778 -0.023189586 1.4653933e-38 305 257
-0.019097306 0.778 -0.023189586 1.4560681e-38 306 257
-0.017778799 0.77999997 -0.023249198 1.4652876e-38 307 257
-0.016411198 0.77999997 -0.023249198 1.4651444e-38 308 257
-0.0150436 0.77999997 -0.023249198 1.4467413e-38 309 257
-0.013693534 0.78100002 -0.023279008 1.4100424e-38 310 257
-0.01232418 0.78100002 -0.023279008 1.4100424e-38 311 257
-0.010954826 0.78100002 -0.023279008 1.3824914e-38 312 257
-0.0095854728 0.78100002 -0.023279008 1.3732718e-38 313 257
-0.0082371598 0.78299999 -0.02333862 1.3732718e-38 314 257
-0.0068642995 0.78299999 -0.02333862 1.3732718e-38 315 257
-0.0054914397 0.78299999 -0.02333862 1.3640166e-38 316 257
-0.0041185799 0.78299999 -0.02333862 1.3640166e-38 317 257
-0.0027457199 0.78299999 -0.02333862 1.3732365e-38 318 257
-0.0013728599 0.78299999 -0.02333862 1.3640169e-38 319 257
0 0.78299999 -0.02333862 1.3639813e-38 320 257
0.0013728599 0.78299999 -0.02333862 1.3732009e-38 321 257
0.0027457199 0.78299999 -0.02333862 1.3640535e-38 322 257
0.0041291001 0.78500003 -0.023398234 1.3640535e-38 323 257
0.0055054668 0.78500003 -0.023398234 1.3456857e-38 324 257
0.0068818335 0.78500003 -0.023398234 1.3364303e-38 325 257
0.0082582003 0.78500003 -0.023398234 1.3364658e-38 326 257
0.0096345674 0.78500003 -0.023398234 1.3272463e-38 327 257
0.011010934 0.78500003 -0.023398234 1.3455775e-38 328 257
0.0123873 0.78500003 -0.023398234 1.3455775e-38 329 257
0.013798732 0.787 -0.023457846 1.3179913e-38 330 257
0.015178605 0.787 -0.023457846 1.3179913e-38 331 257
0.01655848 0.787 -0.023457846 1.3362153e-38 332 257
0.017938353 0.787 -0.023457846 1.3454349e-38 333 257
0.019269135 0.78500003 -0.023398234 1.3362156e-38 334 257
0.020645501 0.78500003 -0.023398234 1.3454351e-38 335 257
0.022021867 0.78500003 -0.023398234 1.3179204e-38 336 257
0.023457846 0.787 -0.023457846 1.3087008e-38 337 257
0.024837719 0.787 -0.023457846 1.3087364e-38 338 257
0.026217593 0.787 -0.023457846 1.3087364e-38 339 257
0.027597465 0.787 -0.023457846 1.3087361e-38 340 257
0.02897734 0.787 -0.023457846 1.3087361e-38 341 257
0.03035721 0.787 -0.023457846 1.2904052e-38 342 257
0.031737085 0.787 -0.023457846 1.2996247e-38 343 257
0.033032801 0.78500003 -0.023398234 1.2996968e-38 344 257
0.034409165 0.78500003 -0.023398234 1.2996968e-38 345 257
0.035785533 0.78500003 -0.023398234 1.3088444e-38 346 257
0.037161902 0.78500003 -0.023398234 1.3088444e-38 347 257
0.038440078 0.78299999 -0.02333862 1.3363955e-38 348 257
0.039812941 0.78299999 -0.02333862 1.3363955e-38 349 257
0.0411858 0.78299999 -0.02333862 1.3363955e-38 350 257
0.042558655 0.78299999 -0.02333862 1.3363955e-38 351 257
0.043931518 0.78299999 -0.02333862 1.3364308e-38 352 257
0.04530438 0.78299999 -0.02333862 1.3364308e-38 353 257
0.046558015 0.78100002 -0.023279008 1.3456504e-38 354 257
0.047927368 0.78100002 -0.023279008 1.3364308e-38 355 257
0.049296722 0.78100002 -0.023279008 1.3272475e-38 356 257
0.050666075 0.78100002 -0.023279008 1.3088444e-38 357 257
0.052035429 0.78100002 -0.023279008 1.3271757e-38 358 257
0.053336397 0.77999997 -0.023249198 1.3271757e-38 359 257
0.054563731 0.778 -0.023189586 1.3271754e-38 360 257
0.055927824 0.778 -0.023189586 1.3271754e-38 361 257
0.057291918 0.778 -0.023189586 1.3547264e-38 362 257
0.058656007 0.778 -0.023189586 1.3547264e-38 363 257
0.059865814 0.77600002 -0.023129974 1.3364671e-38 364 257
0.061226401 0.77600002 -0.023129974 1.3456867e-38 365 257
0.062748291 0.778 -0.023189586 1.3273554e-38 366 257
0.063947573 0.77600002 -0.023129974 1.3273554e-38 367 257
0.065308161 0.77600002 -0.023129974 1.3917123e-38 368 257
0.066496916 0.77399999 -0.02307036 1.4009678e-38 369 257
0.067854002 0.77399999 -0.02307036 1.4286981e-38 370 257
0.069211073 0.77399999 -0.02307036 1.4747959e-38 371 257
0.070476986 0.773 -0.023040552 1.5392259e-38 372 257
0.071832314 0.773 -0.023040552 1.6037628e-38 373 257
0.073187642 0.773 -0.023040552 1.6406404e-38 374 257
0.074350104 0.77100003 -0.02298094 1.6498599e-38 375 257
0.07550554 0.76899999 -0.022921326 1.6958137e-38 376 257
0.076853856 0.76899999 -0.022921326 1.7234723e-38 377 257
0.078202173 0.76899999 -0.022921326 1.7327284e-38 378 257
0.079550482 0.76899999 -0.022921326 1.7511677e-38 379 257
0.080898799 0.76899999 -0.022921326 1.7604225e-38 380 257
0.082247108 0.76899999 -0.022921326 1.769678e-38 381 257
0.083378009 0.76700002 -0.022861714 1.8155234e-38 382 257
0.084722824 0.76700002 -0.022861714 1.8155234e-38 383 257
0.086067624 0.76700002 -0.022861714 1.7413687e-38 384 257
0.087412432 0.76700002 -0.022861714 1.547758e-38 385 257
0.088757239 0.76700002 -0.022861714 1.3537504e-38 386 257
0.090102047 0.76700002 -0.022861714 1.2062018e-38 387 257
0.091446854 0.76700002 -0.022861714 1.1056183e-38 388 257
0.092791654 0.76700002 -0.022861714 1.2623869e-38 389 257
0.094136469 0.76700002 -0.022861714 1.4010069e-38 390 257
0.095481269 0.76700002 -0.022861714 1.5761427e-38 391 257
0.096826084 0.76700002 -0.022861714 1.7509161e-38 392 257
0.098170884 0.76700002 -0.022861714 1.7048185e-38 393 257
0.099515699 0.76700002 -0.022861714 1.7049242e-38 394 257
0.10072899 0.76599997 -0.022831906 1.7049242e-38 395 257
0.10207205 0.76599997 -0.022831906 1.6956343e-38 396 257
0.10287508 0.76200002 -0.02271268 1.6956343e-38 397 257
0.10421111 0.76200002 -0.02271268 1.6774152e-38 398 257
0.10554716 0.76200002 -0.02271268 1.7511717e-38 399 257
-0.0600201 0.778 -0.024553679 1.8156343e-38 276 258
-0.058656007 0.778 -0.024553679 1.7418778e-38 277 258
-0.057291918 0.778 -0.024553679 1.8338528e-38 278 258
-0.055927824 0.778 -0.024553679 1.8707309e-38 279 258
-0.054423466 0.77600002 -0.024490559 1.8983885e-38 280 258
-0.053062879 0.77600002 -0.024490559 1.9352666e-38 281 258
-0.051569037 0.77399999 -0.02442744 1.9352663e-38 282 258
-0.050211959 0.77399999 -0.02442744 1.9352663e-38 283 258
-0.048791755 0.773 -0.024395877 1.9536329e-38 284 258
-0.047436431 0.773 -0.024395877 1.9167548e-38 285 258
-0.045961879 0.77100003 -0.02433276 1.8799487e-38 286 258
-0.044610061 0.77100003 -0.02433276 1.8615095e-38 287 258
-0.043370452 0.773 -0.024395877 1.8521461e-38 288 258
-0.042015124 0.773 -0.024395877 1.8244874e-38 289 258
-0.0406598 0.773 -0.024395877 1.8060474e-38 290 258
-0.039304473 0.773 -0.024395877 1.769205e-38 291 258
-0.037949149 0.773 -0.024395877 1.7232146e-38 292 258
-0.036641158 0.77399999 -0.02442744 1.6955557e-38 293 258
-0.03528408 0.77399999 -0.02442744 1.6770437e-38 294 258
-0.033927001 0.77399999 -0.02442744 1.6402015e-38 295 258
-0.032569919 0.77399999 -0.02442744 1.5849913e-38 296 258
-0.031212838 0.77399999 -0.02442744 1.5481132e-38 297 258
-0.029855758 0.77399999 -0.02442744 1.5389308e-38 298 258
-0.028498679 0.77399999 -0.02442744 1.5204558e-38 299 258
-0.027141599 0.77399999 -0.02442744 1.529605e-38 300 258
-0.025784519 0.77399999 -0.02442744 1.5203854e-38 301 258
-0.02442744 0.77399999 -0.02442744 1.474505e-38 302 258
-0.02307036 0.77399999 -0.02442744 1.474505e-38 303 258
-0.021769386 0.77600002 -0.024490559 1.4560678e-38 304 258
-0.020461399 0.778 -0.024553679 1.4468482e-38 305 258
-0.019097306 0.778 -0.024553679 1.4468132e-38 306 258
-0.017778799 0.77999997 -0.024616797 1.4375936e-38 307 258
-0.016411198 0.77999997 -0.024616797 1.4283739e-38 308 258
-0.015062887 0.78100002 -0.024648361 1.4283739e-38 309 258
-0.013693534 0.78100002 -0.024648361 1.4008229e-38 310 258
-0.01232418 0.78100002 -0.024648361 1.3915674e-38 311 258
-0.010954826 0.78100002 -0.024648361 1.3640522e-38 312 258
-0.0095854728 0.78100002 -0.024648361 1.3640522e-38 313 258
-0.0082371598 0.78299999 -0.024711479 1.3456854e-38 314 258
-0.0068642995 0.78299999 -0.024711479 1.3364658e-38 315 258
-0.0054914397 0.78299999 -0.024711479 1.3547618e-38 316 258
-0.0041185799 0.78299999 -0.024711479 1.3547618e-38 317 258
-0.0027457199 0.78299999 -0.024711479 1.3547974e-38 318 258
-0.0013728599 0.78299999 -0.024711479 1.3640169e-38 319 258
0 0.78299999 -0.024711479 1.3640169e-38 320 258
0.0013728599 0.78299999 -0.024711479 1.3547974e-38 321 258
0.0027457199 0.78299999 -0.024711479 1.3547618e-38 322 258
0.0041291001 0.78500003 -0.0247746 1.3639813e-38 323 258
0.005519493 0.787 -0.024837719 1.3364303e-38 324 258
0.0068993662 0.787 -0.024837719 1.3364303e-38 325 258
0.0082792398 0.787 -0.024837719 1.3364658e-38 326 258
0.0096591124 0.787 -0.024837719 1.3272463e-38 327 258
0.011038986 0.787 -0.024837719 1.327174e-38 328 258
0.01241886 0.787 -0.024837719 1.327174e-38 329 258
0.013798732 0.787 -0.024837719 1.317991e-38 330 258
0.015178605 0.787 -0.024837719 1.3087714e-38 331 258
0.01655848 0.787 -0.024837719 1.3178838e-38 332 258
0.017938353 0.787 -0.024837719 1.3178838e-38 333 258
0.019318225 0.787 -0.024837719 1.3269957e-38 334 258
0.0206981 0.787 -0.024837719 1.3362153e-38 335 258
0.022077972 0.787 -0.024837719 1.3178838e-38 336 258
0.023457846 0.787 -0.024837719 1.3086642e-38 337 258
0.024837719 0.787 -0.024837719 1.3086998e-38 338 258
0.026217593 0.787 -0.024837719 1.3179194e-38 339 258
0.027597465 0.787 -0.024837719 1.3086993e-38 340 258
0.02897734 0.787 -0.024837719 1.3086993e-38 341 258
0.03035721 0.787 -0.024837719 1.3087714e-38 342 258
0.031737085 0.787 -0.024837719 1.3087714e-38 343 258
0.033116959 0.787 -0.024837719 1.2996245e-38 344 258
0.034496833 0.787 -0.024837719 1.2996245e-38 345 258
0.035785533 0.78500003 -0.0247746 1.3271754e-38 346 258
0.037161902 0.78500003 -0.0247746 1.3271754e-38 347 258
0.038440078 0.78299999 -0.024711479 1.3271754e-38 348 258
0.039812941 0.78299999 -0.024711479 1.3271754e-38 349 258
0.0411858 0.78299999 -0.024711479 1.3271754e-38 350 258
0.042558655 0.78299999 -0.024711479 1.3271754e-38 351 258
0.043931518 0.78299999 -0.024711479 1.3455422e-38 352 258
0.04530438 0.78299999 -0.024711479 1.3547618e-38 353 258
0.046677239 0.78299999 -0.024711479 1.3547618e-38 354 258
0.047927368 0.78100002 -0.024648361 1.3455422e-38 355 258
0.049296722 0.78100002 -0.024648361 1.327211e-38 356 258
0.050666075 0.78100002 -0.024648361 1.3179913e-38 357 258
0.052035429 0.78100002 -0.024648361 1.3179913e-38 358 258
0.053336397 0.77999997 -0.024616797 1.3179913e-38 359 258
0.054703996 0.77999997 -0.024616797 1.3179913e-38 360 258
0.055927824 0.778 -0.024553679 1.3179913e-38 361 258
0.057291918 0.778 -0.024553679 1.317956e-38 362 258
0.058656007 0.778 -0.024553679 1.3271757e-38 363 258
0.059865814 0.77600002 -0.024490559 1.3272475e-38 364 258
0.061226401 0.77600002 -0.024490559 1.3272475e-38 365 258
0.062748291 0.778 -0.024553679 1.3272475e-38 366 258
0.063947573 0.77600002 -0.024490559 1.3456867e-38 367 258
0.065308161 0.77600002 -0.024490559 1.3915324e-38 368 258
0.066496916 0.77399999 -0.02442744 1.400752e-38 369 258
0.067854002 0.77399999 -0.02442744 1.3640532e-38 370 258
0.069211073 0.77399999 -0.02442744 1.3732728e-38 371 258
0.070476986 0.773 -0.024395877 1.401112e-38 372 258
0.071832314 0.773 -0.024395877 1.484052e-38 373 258
0.073187642 0.773 -0.024395877 1.5485176e-38 374 258
0.074350104 0.77100003 -0.02433276 1.58536e-38 375 258
0.07550554 0.76899999 -0.024269639 1.6497886e-38 376 258
0.076853856 0.76899999 -0.024269639 1.686631e-38 377 258
0.078202173 0.76899999 -0.024269639 1.6959227e-38 378 258
0.079550482 0.76899999 -0.024269639 1.7051423e-38 379 258
0.080688395 0.76700002 -0.024206521 1.7602429e-38 380 258
0.08203321 0.76700002 -0.024206521 1.7694626e-38 381 258
0.083378009 0.76700002 -0.024206521 1.7787175e-38 382 258
0.084722824 0.76700002 -0.024206521 1.7971566e-38 383 258
0.086067624 0.76700002 -0.024206521 1.8245266e-38 384 258
0.087412432 0.76700002 -0.024206521 1.686233e-38 385 258
0.088641517 0.76599997 -0.024174958 1.5564008e-38 386 258
0.089984566 0.76599997 -0.024174958 1.2798139e-38 387 258
0.091327623 0.76599997 -0.024174958 1.1325546e-38 388 258
0.092670672 0.76599997 -0.024174958 1.2431893e-38 389 258
0.093768261 0.764 -0.024111839 1.1797368e-38 390 258
0.095107809 0.764 -0.024111839 1.4471041e-38 391 258
0.096447356 0.764 -0.024111839 1.6772695e-38 392 258
0.097786903 0.764 -0.024111839 1.7233313e-38 393 258
0.099126451 0.764 -0.024111839 1.695814e-38 394 258
0.100466 0.764 -0.024111839 1.6865944e-38 395 258
0.10180555 0.764 -0.024111839 1.6957413e-38 396 258
0.10287508 0.76200002 -0.02404872 1.6957413e-38 397 258
0.10421111 0.76200002 -0.02404872 1.6314247e-38 398 258
0.10554716 0.76200002 -0.02404872 1.6959617e-38 399 258
0.1068832 0.76200002 -0.02404872 1.8343671e-38 400 258
-0.062425677 0.77399999 -0.025784519 1.9080844e-38 274 259
-0.061068594 0.77399999 -0.025784519 1.6499366e-38 275 259
-0.059711516 0.77399999 -0.025784519 1.7509499e-38 276 259
-0.058354434 0.77399999 -0.025784519 1.8154868e-38 277 259
-0.057144642 0.77600002 -0.025851147 1.8523278e-38 278 259
-0.055784054 0.77600002 -0.025851147 1.8799505e-38 279 259
-0.054283198 0.77399999 -0.025784519 1.8892058e-38 280 259
-0.052926116 0.77399999 -0.025784519 1.9076449e-38 281 259
-0.051502414 0.773 -0.025751207 1.8984253e-38 282 259
-0.050147086 0.773 -0.025751207 1.8984253e-38 283 259
-0.048791755 0.773 -0.025751207 1.8708743e-38 284 259
-0.047436431 0.773 -0.025751207 1.852435e-38 285 259
-0.045961879 0.77100003 -0.02568458 1.8523982e-38 286 259
-0.044610061 0.77100003 -0.02568458 1.8247036e-38 287 259
-0.043258239 0.77100003 -0.02568458 1.8245943e-38 288 259
-0.04190642 0.77100003 -0.02568458 1.7784965e-38 289 259
-0.0406598 0.773 -0.025751207 1.7415812e-38 290 259
-0.039304473 0.773 -0.025751207 1.6954836e-38 291 259
-0.037949149 0.773 -0.025751207 1.6402378e-38 292 259
-0.036593821 0.773 -0.025751207 1.6310182e-38 293 259
-0.035238493 0.773 -0.025751207 1.5666615e-38 294 259
-0.033927001 0.77399999 -0.025784519 1.5298191e-38 295 259
-0.032569919 0.77399999 -0.025784519 1.5203854e-38 296 259
-0.031212838 0.77399999 -0.025784519 1.5019822e-38 297 259
-0.029855758 0.77399999 -0.025784519 1.4561747e-38 298 259
-0.028498679 0.77399999 -0.025784519 1.428552e-38 299 259
-0.027141599 0.77399999 -0.025784519 1.4469204e-38 300 259
-0.025784519 0.77399999 -0.025784519 1.4192617e-38 301 259
-0.02442744 0.77399999 -0.025784519 1.4192624e-38 302 259
-0.02307036 0.77399999 -0.025784519 1.4100068e-38 303 259
-0.021769386 0.77600002 -0.025851147 1.3916403e-38 304 259
-0.0204088 0.77600002 -0.025851147 1.3916403e-38 305 259
-0.019097306 0.778 -0.025917772 1.3824207e-38 306 259
-0.017778799 0.77999997 -0.025984399 1.3916403e-38 307 259
-0.016411198 0.77999997 -0.025984399 1.3732009e-38 308 259
-0.015062887 0.78100002 -0.026017714 1.3732009e-38 309 259
-0.013693534 0.78100002 -0.026017714 1.3640169e-38 310 259
-0.01232418 0.78100002 -0.026017714 1.3640169e-38 311 259
-0.010954826 0.78100002 -0.026017714 1.3640169e-38 312 259
-0.0095854728 0.78100002 -0.026017714 1.3547974e-38 313 259
-0.0082161194 0.78100002 -0.026017714 1.3547974e-38 314 259
-0.0068642995 0.78299999 -0.026084339 1.3547974e-38 315 259
-0.0054914397 0.78299999 -0.026084339 1.3547974e-38 316 259
-0.0041185799 0.78299999 -0.026084339 1.3547974e-38 317 259
-0.0027457199 0.78299999 -0.026084339 1.3547974e-38 318 259
-0.0013728599 0.78299999 -0.026084339 1.3547974e-38 319 259
0 0.78299999 -0.026084339 1.3639094e-38 320 259
0.0013728599 0.78299999 -0.026084339 1.3639094e-38 321 259
0.0027457199 0.78299999 -0.026084339 1.3639097e-38 322 259
0.0041291001 0.78500003 -0.026150968 1.3639097e-38 323 259
0.005519493 0.787 -0.026217593 1.3364308e-38 324 259
0.0068993662 0.787 -0.026217593 1.3364308e-38 325 259
0.0082792398 0.787 -0.026217593 1.327211e-38 326 259
0.0096591124 0.787 -0.026217593 1.3179913e-38 327 259
0.011067039 0.78899997 -0.026284218 1.3271389e-38 328 259
0.01241886 0.787 -0.026217593 1.3271389e-38 329 259
0.013798732 0.787 -0.026217593 1.3087361e-38 330 259
0.015178605 0.787 -0.026217593 1.3087361e-38 331 259
0.01655848 0.787 -0.026217593 1.2810784e-38 332 259
0.017938353 0.787 -0.026217593 1.2810784e-38 333 259
0.019318225 0.787 -0.026217593 1.2626403e-38 334 259
0.0206981 0.787 -0.026217593 1.2626403e-38 335 259
0.022077972 0.787 -0.026217593 1.26264e-38 336 259
0.023457846 0.787 -0.026217593 1.2718954e-38 337 259
0.024837719 0.787 -0.026217593 1.2627109e-38 338 259
0.026217593 0.787 -0.026217593 1.2627109e-38 339 259
0.027597465 0.787 -0.026217593 1.2627103e-38 340 259
0.02897734 0.787 -0.026217593 1.2627103e-38 341 259
0.03035721 0.787 -0.026217593 1.2719658e-38 342 259
0.031737085 0.787 -0.026217593 1.2904049e-38 343 259
0.033116959 0.787 -0.026217593 1.2903696e-38 344 259
0.034496833 0.787 -0.026217593 1.2903696e-38 345 259
0.035785533 0.78500003 -0.026150968 1.3088088e-38 346 259
0.037161902 0.78500003 -0.026150968 1.3088088e-38 347 259
0.03853827 0.78500003 -0.026150968 1.3271757e-38 348 259
0.039914634 0.78500003 -0.026150968 1.3271757e-38 349 259
0.041291002 0.78500003 -0.026150968 1.317956e-38 350 259
0.042667367 0.78500003 -0.026150968 1.317956e-38 351 259
0.043931518 0.78299999 -0.026084339 1.327211e-38 352 259
0.04530438 0.78299999 -0.026084339 1.327211e-38 353 259
0.046677239 0.78299999 -0.026084339 1.3272463e-38 354 259
0.048050098 0.78299999 -0.026084339 1.3179907e-38 355 259
0.049422957 0.78299999 -0.026084339 1.317991e-38 356 259
0.050666075 0.78100002 -0.026017714 1.3087714e-38 357 259
0.052035429 0.78100002 -0.026017714 1.2811853e-38 358 259
0.053336397 0.77999997 -0.025984399 1.2811853e-38 359 259
0.054703996 0.77999997 -0.025984399 1.2995168e-38 360 259
0.055927824 0.778 -0.025917772 1.3087364e-38 361 259
0.057291918 0.778 -0.025917772 1.2903696e-38 362 259
0.058656007 0.778 -0.025917772 1.2995891e-38 363 259
0.059865814 0.77600002 -0.025851147 1.2996612e-38 364 259
0.061226401 0.77600002 -0.025851147 1.2996612e-38 365 259
0.062748291 0.778 -0.025917772 1.3272478e-38 366 259
0.063947573 0.77600002 -0.025851147 1.3272478e-38 367 259
0.065308161 0.77600002 -0.025851147 1.3455798e-38 368 259
0.066496916 0.77399999 -0.025784519 1.3455798e-38 369 259
0.067854002 0.77399999 -0.025784519 1.3639478e-38 370 259
0.069211073 0.77399999 -0.025784519 1.3731674e-38 371 259
0.070476986 0.773 -0.025751207 1.3734182e-38 372 259
0.071646459 0.77100003 -0.02568458 1.3734182e-38 373 259
0.072998285 0.77100003 -0.02568458 1.4379549e-38 374 259
0.074157231 0.76899999 -0.025617953 1.5024918e-38 375 259
0.07550554 0.76899999 -0.025617953 1.585325e-38 376 259
0.076853856 0.76899999 -0.025617953 1.6129837e-38 377 259
0.078202173 0.76899999 -0.025617953 1.6681566e-38 378 259
0.079343595 0.76700002 -0.025551327 1.6865957e-38 379 259
0.080688395 0.76700002 -0.025551327 1.6775196e-38 380 259
0.08203321 0.76700002 -0.025551327 1.6959227e-38 381 259
0.083378009 0.76700002 -0.025551327 1.7326932e-38 382 259
0.084612355 0.76599997 -0.025518013 1.7511682e-38 383 259
0.085955404 0.76599997 -0.025518013 1.8246729e-38 384 259
0.087070532 0.764 -0.025451386 1.7969783e-38 385 259
0.088410079 0.764 -0.025451386 1.694946e-38 386 259
0.089749627 0.764 -0.025451386 1.4183591e-38 387 259
0.091089167 0.764 -0.025451386 1.2615543e-38 388 259
0.092428714 0.764 -0.025451386 1.2062377e-38 389 259
0.093768261 0.764 -0.025451386 1.041225e-38 390 259
0.095107809 0.764 -0.025451386 1.3177759e-38 391 259
0.096194878 0.76200002 -0.02538476 1.5207174e-38 392 259
0.097530924 0.76200002 -0.02538476 1.6590467e-38 393 259
0.098866954 0.76200002 -0.02538476 1.7326932e-38 394 259
0.100203 0.76200002 -0.02538476 1.6866313e-38 395 259
0.10153904 0.76200002 -0.02538476 1.6774815e-38 396 259
0.10287508 0.76200002 -0.02538476 1.6498587e-38 397 259
0.10421111 0.76200002 -0.02538476 1.612912e-38 398 259
0.10554716 0.76200002 -0.02538476 1.6590099e-38 399 259
0.1068832 0.76200002 -0.02538476 1.7515349e-38 400 259
0.10821924 0.76200002 -0.02538476 1.8253273e-38 401 259
-0.063782752 0.77399999 -0.027141599 1.7700469e-38 273 260
-0.062425677 0.77399999 -0.027141599 1.732838e-38 274 260
-0.061068594 0.77399999 -0.027141599 1.6590815e-38 275 260
-0.059711516 0.77399999 -0.027141599 1.8521477e-38 276 260
-0.058354434 0.77399999 -0.027141599 1.8613673e-38 277 260
-0.057144642 0.77600002 -0.027211733 1.8706578e-38 278 260
-0.055640277 0.77399999 -0.027141599 1.8890609e-38 279 260
-0.054283198 0.77399999 -0.027141599 1.8983158e-38 280 260
-0.052857738 0.773 -0.027106533 1.8983158e-38 281 260
-0.051502414 0.773 -0.027106533 1.8983158e-38 282 260
-0.050147086 0.773 -0.027106533 1.8983158e-38 283 260
-0.048791755 0.773 -0.027106533 1.8707647e-38 284 260
-0.047436431 0.773 -0.027106533 1.8707647e-38 285 260
-0.045961879 0.77100003 -0.027036399 1.8246669e-38 286 260
-0.044610061 0.77100003 -0.027036399 1.7693496e-38 287 260
-0.043258239 0.77100003 -0.027036399 1.7047034e-38 288 260
-0.04190642 0.77100003 -0.027036399 1.6216915e-38 289 260
-0.0406598 0.773 -0.027106533 1.5939958e-38 290 260
-0.039304473 0.773 -0.027106533 1.5571535e-38 291 260
-0.037949149 0.773 -0.027106533 1.4927976e-38 292 260
-0.036593821 0.773 -0.027106533 1.4927976e-38 293 260
-0.035238493 0.773 -0.027106533 1.4652131e-38 294 260
-0.033883166 0.773 -0.027106533 1.4836524e-38 295 260
-0.032527838 0.773 -0.027106533 1.4927293e-38 296 260
-0.03117251 0.773 -0.027106533 1.4927293e-38 297 260
-0.029855758 0.77399999 -0.027141599 1.4468115e-38 298 260
-0.028498679 0.77399999 -0.027141599 1.4468115e-38 299 260
-0.027141599 0.77399999 -0.027141599 1.4100056e-38 300 260
-0.025784519 0.77399999 -0.027141599 1.4100056e-38 301 260
-0.02442744 0.77399999 -0.027141599 1.4099703e-38 302 260
-0.02307036 0.77399999 -0.027141599 1.4099703e-38 303 260
-0.021769386 0.77600002 -0.027211733 1.4007873e-38 304 260
-0.0204088 0.77600002 -0.027211733 1.4007873e-38 305 260
-0.019097306 0.778 -0.027281865 1.4007873e-38 306 260
-0.017778799 0.77999997 -0.027351998 1.3915677e-38 307 260
-0.016411198 0.77999997 -0.027351998 1.3824563e-38 308 260
-0.015062887 0.78100002 -0.027387068 1.3732009e-38 309 260
-0.013693534 0.78100002 -0.027387068 1.3639816e-38 310 260
-0.01232418 0.78100002 -0.027387068 1.3639816e-38 311 260
-0.010954826 0.78100002 -0.027387068 1.3456501e-38 312 260
-0.0095854728 0.78100002 -0.027387068 1.3456501e-38 313 260
-0.0082161194 0.78100002 -0.027387068 1.3639094e-38 314 260
-0.0068642995 0.78299999 -0.027457198 1.3639094e-38 315 260
-0.0054914397 0.78299999 -0.027457198 1.3547974e-38 316 260
-0.0041185799 0.78299999 -0.027457198 1.3455419e-38 317 260
-0.0027457199 0.78299999 -0.027457198 1.3547252e-38 318 260
-0.0013728599 0.78299999 -0.027457198 1.3547252e-38 319 260
0 0.78299999 -0.027457198 1.3730564e-38 320 260
0.0013728599 0.78299999 -0.027457198 1.3730564e-38 321 260
0.0027457199 0.78299999 -0.027457198 1.3546899e-38 322 260
0.0041291001 0.78500003 -0.027527334 1.3546899e-38 323 260
0.005519493 0.787 -0.027597465 1.3455422e-38 324 260
0.0068993662 0.787 -0.027597465 1.3455422e-38 325 260
0.0082792398 0.787 -0.027597465 1.3271389e-38 326 260
0.0096591124 0.787 -0.027597465 1.3271389e-38 327 260
0.011067039 0.78899997 -0.027667599 1.3361784e-38 328 260
0.012450419 0.78899997 -0.027667599 1.3361784e-38 329 260
0.013798732 0.787 -0.027597465 1.3269589e-38 330 260
0.015178605 0.787 -0.027597465 1.3085198e-38 331 260
0.01655848 0.787 -0.027597465 1.2531673e-38 332 260
0.017938353 0.787 -0.027597465 1.2531673e-38 333 260
0.019318225 0.787 -0.027597465 1.2898308e-38 334 260
0.020645501 0.78500003 -0.027527334 1.2898308e-38 335 260
0.022021867 0.78500003 -0.027527334 1.2806834e-38 336 260
0.023457846 0.787 -0.027597465 1.2806834e-38 337 260
0.024837719 0.787 -0.027597465 1.2715714e-38 338 260
0.026217593 0.787 -0.027597465 1.2899745e-38 339 260
0.027597465 0.787 -0.027597465 1.262567e-38 340 260
0.02897734 0.787 -0.027597465 1.262567e-38 341 260
0.03035721 0.787 -0.027597465 1.2901179e-38 342 260
0.031737085 0.787 -0.027597465 1.2993375e-38 343 260
0.033116959 0.787 -0.027597465 1.2994096e-38 344 260
0.034496833 0.787 -0.027597465 1.3178488e-38 345 260
0.035876706 0.787 -0.027597465 1.3178844e-38 346 260
0.037161902 0.78500003 -0.027527334 1.3178844e-38 347 260
0.03853827 0.78500003 -0.027527334 1.3454349e-38 348 260
0.039914634 0.78500003 -0.027527334 1.3454349e-38 349 260
0.041291002 0.78500003 -0.027527334 1.3271034e-38 350 260
0.042667367 0.78500003 -0.027527334 1.3271034e-38 351 260
0.044043735 0.78500003 -0.027527334 1.3271389e-38 352 260
0.045420099 0.78500003 -0.027527334 1.3271389e-38 353 260
0.046677239 0.78299999 -0.027457198 1.2996598e-38 354 260
0.048050098 0.78299999 -0.027457198 1.2996598e-38 355 260
0.049422957 0.78299999 -0.027457198 1.3087714e-38 356 260
0.050666075 0.78100002 -0.027387068 1.2995519e-38 357 260
0.052035429 0.78100002 -0.027387068 1.2995519e-38 358 260
0.053336397 0.77999997 -0.027351998 1.2995519e-38 359 260
0.054703996 0.77999997 -0.027351998 1.29948e-38 360 260
0.055927824 0.778 -0.027281865 1.3086995e-38 361 260
0.057291918 0.778 -0.027281865 1.2995166e-38 362 260
0.058656007 0.778 -0.027281865 1.3087361e-38 363 260
0.059865814 0.77600002 -0.027211733 1.2996247e-38 364 260
0.061226401 0.77600002 -0.027211733 1.3088444e-38 365 260
0.062748291 0.778 -0.027281865 1.3271757e-38 366 260
0.063947573 0.77600002 -0.027211733 1.3271757e-38 367 260
0.065308161 0.77600002 -0.027211733 1.3272473e-38 368 260
0.066496916 0.77399999 -0.027141599 1.3272473e-38 369 260
0.067854002 0.77399999 -0.027141599 1.3640169e-38 370 260
0.069211073 0.77399999 -0.027141599 1.3640169e-38 371 260
0.070476986 0.773 -0.027106533 1.4007157e-38 372 260
0.071646459 0.77100003 -0.027036399 1.437558e-38 373 260
0.072808921 0.76899999 -0.026966266 1.3549784e-38 374 260
0.074157231 0.76899999 -0.026966266 1.4195153e-38 375 260
0.07550554 0.76899999 -0.026966266 1.4840173e-38 376 260
0.07665398 0.76700002 -0.026896132 1.5301511e-38 377 260
0.077998787 0.76700002 -0.026896132 1.6220587e-38 378 260
0.079343595 0.76700002 -0.026896132 1.6405337e-38 379 260
0.080688395 0.76700002 -0.026896132 1.67741e-38 380 260
0.08203321 0.76700002 -0.026896132 1.6866297e-38 381 260
0.083269298 0.76599997 -0.026861066 1.7234357e-38 382 260
0.084612355 0.76599997 -0.026861066 1.7510584e-38 383 260
0.085730985 0.764 -0.026790932 1.7694629e-38 384 260
0.086842604 0.76200002 -0.0267208 1.7786824e-38 385 260
