# .PCD v.7 - Point Cloud Data file format
FIELDS x y z rgb imX imY
SIZE 4 4 4 4 4 4
TYPE F F F F F F
COUNT 1 1 1 1 1 1
WIDTH 823
HEIGHT 1
VIEWPOINT 0 0 0 1 0 0 0
POINTS 823
DATA ascii
0.031528439 0.66600001 -0.057218276 1.2628891e-38 347 289
0.032696161 0.66600001 -0.057218276 1.2537061e-38 348 289
0.03386388 0.66600001 -0.057218276 1.2629257e-38 349 289
0.035031598 0.66600001 -0.057218276 1.2628907e-38 350 289
0.036253672 0.667 -0.057304189 1.2536711e-38 351 289
0.037591465 0.67000002 -0.057561934 1.2168301e-38 352 289
0.038824059 0.671 -0.057647847 1.1615128e-38 353 289
0.040000543 0.671 -0.057647847 1.0788276e-38 354 289
-0.08091633 0.64999998 -0.056983333 1.5211493e-38 249 290
-0.079776667 0.64999998 -0.056983333 1.5026338e-38 250 290
-0.078636996 0.64999998 -0.056983333 1.5026338e-38 251 290
-0.077378102 0.64899999 -0.056895666 1.5854274e-38 252 290
-0.076122716 0.648 -0.056808002 1.6130501e-38 253 290
-0.074986562 0.648 -0.056808002 1.6680802e-38 254 290
-0.073736429 0.64700001 -0.056720335 1.7049943e-38 255 290
-0.072602026 0.64700001 -0.056720335 1.741657e-38 256 290
-0.071467623 0.64700001 -0.056720335 1.7508766e-38 257 290
-0.070333213 0.64700001 -0.056720335 1.7418354e-38 258 290
-0.069198802 0.64700001 -0.056720335 1.7326157e-38 259 290
-0.068064399 0.64700001 -0.056720335 1.7418352e-38 260 290
-0.066929989 0.64700001 -0.056720335 1.7418352e-38 261 290
-0.065795586 0.64700001 -0.056720335 1.7417624e-38 262 290
-0.064661182 0.64700001 -0.056720335 1.7141397e-38 263 290
-0.063428588 0.64600003 -0.056632672 1.7047747e-38 264 290
-0.062295936 0.64600003 -0.056632672 1.6587128e-38 265 290
-0.061163284 0.64600003 -0.056632672 1.6219419e-38 266 290
-0.060030628 0.64600003 -0.056632672 1.5942832e-38 267 290
-0.058897976 0.64600003 -0.056632672 1.5757008e-38 268 290
-0.057586476 0.64399999 -0.056457333 1.5664813e-38 269 290
-0.056457333 0.64399999 -0.056457333 1.5114163e-38 270 290
-0.055328183 0.64399999 -0.056457333 1.4930132e-38 271 290
-0.054199036 0.64399999 -0.056457333 1.4654259e-38 272 290
-0.05306989 0.64399999 -0.056457333 1.446987e-38 273 290
-0.051860094 0.64300001 -0.056369666 1.437803e-38 274 290
-0.050732698 0.64300001 -0.056369666 1.4470226e-38 275 290
-0.049605306 0.64300001 -0.056369666 1.4469875e-38 276 290
-0.048402522 0.64200002 -0.056282002 1.4469875e-38 277 290
-0.047276881 0.64200002 -0.056282002 1.4377324e-38 278 290
-0.046151239 0.64200002 -0.056282002 1.4377324e-38 279 290
-0.045025598 0.64200002 -0.056282002 1.4377689e-38 280 290
-0.043899957 0.64200002 -0.056282002 1.4469885e-38 281 290
-0.042840946 0.64300001 -0.056369666 1.4562807e-38 282 290
-0.041713554 0.64300001 -0.056369666 1.4562807e-38 283 290
-0.040586159 0.64300001 -0.056369666 1.4746832e-38 284 290
-0.039458767 0.64300001 -0.056369666 1.4746832e-38 285 290
-0.038331371 0.64300001 -0.056369666 1.5390049e-38 286 290
-0.037146121 0.64200002 -0.056282002 1.5482246e-38 287 290
-0.03602048 0.64200002 -0.056282002 1.5298949e-38 288 290
-0.034894839 0.64200002 -0.056282002 1.5206754e-38 289 290
-0.033769198 0.64200002 -0.056282002 1.5390063e-38 290 290
-0.03264356 0.64200002 -0.056282002 1.5482617e-38 291 290
-0.031517919 0.64200002 -0.056282002 1.53897e-38 292 290
-0.030439619 0.64300001 -0.056369666 1.53897e-38 293 290
-0.029312227 0.64300001 -0.056369666 1.5389696e-38 294 290
-0.028184833 0.64300001 -0.056369666 1.5389696e-38 295 290
-0.027057439 0.64300001 -0.056369666 1.5298219e-38 296 290
-0.025930047 0.64300001 -0.056369666 1.5298219e-38 297 290
-0.024802653 0.64300001 -0.056369666 1.5114552e-38 298 290
-0.02363844 0.64200002 -0.056282002 1.5114552e-38 299 290
-0.022512799 0.64200002 -0.056282002 1.5390046e-38 300 290
-0.02138716 0.64200002 -0.056282002 1.5297851e-38 301 290
-0.020261521 0.64200002 -0.056282002 1.511416e-38 302 290
-0.019165685 0.64300001 -0.056369666 1.4837933e-38 303 290
-0.018038293 0.64300001 -0.056369666 1.4745733e-38 304 290
-0.0169372 0.64399999 -0.056457333 1.4745733e-38 305 290
-0.015808053 0.64399999 -0.056457333 1.4470241e-38 306 290
-0.014678906 0.64399999 -0.056457333 1.4470241e-38 307 290
-0.013549759 0.64399999 -0.056457333 1.4193671e-38 308 290
-0.012420613 0.64399999 -0.056457333 1.4101475e-38 309 290
-0.011326533 0.64600003 -0.056632672 1.4285141e-38 310 290
-0.01019388 0.64600003 -0.056632672 1.4008914e-38 311 290
-0.0090612266 0.64600003 -0.056632672 1.3825225e-38 312 290
-0.0079285735 0.64600003 -0.056632672 1.3825225e-38 313 290
-0.00679592 0.64600003 -0.056632672 1.382415e-38 314 290
-0.0056632664 0.64600003 -0.056632672 1.3547563e-38 315 290
-0.0045306133 0.64600003 -0.056632672 1.3178427e-38 316 290
-0.00339796 0.64600003 -0.056632672 1.3086232e-38 317 290
-0.0022688133 0.64700001 -0.056720335 1.244268e-38 318 290
-0.0011344067 0.64700001 -0.056720335 1.2534875e-38 319 290
0 0.648 -0.056808002 1.2717121e-38 320 290
0.00113616 0.648 -0.056808002 1.2717121e-38 321 290
0.0022758266 0.64899999 -0.056895666 1.2257935e-38 322 290
0.0034137398 0.64899999 -0.056895666 1.2257935e-38 323 290
0.0045516533 0.64899999 -0.056895666 1.2166819e-38 324 290
0.0056895665 0.64899999 -0.056895666 1.2166819e-38 325 290
0.0068379994 0.64999998 -0.056983333 1.2075342e-38 326 290
0.0079776663 0.64999998 -0.056983333 1.2075342e-38 327 290
0.0091173323 0.64999998 -0.056983333 1.2075342e-38 328 290
0.01028856 0.65200001 -0.057158668 1.2075342e-38 329 290
0.011431733 0.65200001 -0.057158668 1.2074986e-38 330 290
0.012574906 0.65200001 -0.057158668 1.2074986e-38 331 290
0.013739119 0.653 -0.057246335 1.2167187e-38 332 290
0.014884046 0.653 -0.057246335 1.2259383e-38 333 290
0.01605352 0.65399998 -0.057333998 1.2259027e-38 334 290
0.017200198 0.65399998 -0.057333998 1.2351581e-38 335 290
0.01834688 0.65399998 -0.057333998 1.216755e-38 336 290
0.019523365 0.65499997 -0.057421666 1.2352302e-38 337 290
0.020671798 0.65499997 -0.057421666 1.2351946e-38 338 290
0.021820232 0.65499997 -0.057421666 1.2536696e-38 339 290
0.023038799 0.65700001 -0.057596996 1.2536696e-38 340 290
0.02422756 0.65799999 -0.057684667 1.2536696e-38 341 290
0.025419824 0.65899998 -0.057772331 1.2536693e-38 342 290
0.026655925 0.66100001 -0.057947662 1.2536693e-38 343 290
0.027899038 0.66299999 -0.058122993 1.2537412e-38 344 290
0.02910533 0.66399997 -0.05821066 1.2445216e-38 345 290
0.030360719 0.66600001 -0.058385998 1.2444863e-38 346 290
0.031528439 0.66600001 -0.058385998 1.2444863e-38 347 290
0.032696161 0.66600001 -0.058385998 1.2444513e-38 348 290
0.03386388 0.66600001 -0.058385998 1.2536708e-38 349 290
0.035084199 0.667 -0.058473662 1.2536002e-38 350 290
0.036308024 0.66799998 -0.058561329 1.216758e-38 351 290
0.037591465 0.67000002 -0.058736663 1.1246728e-38 352 290
0.038766202 0.67000002 -0.058736663 1.0693913e-38 353 290
-0.084724568 0.653 -0.058391262 1.4568997e-38 246 291
-0.083579645 0.653 -0.058391262 1.3647041e-38 247 291
-0.082434714 0.653 -0.058391262 1.4382756e-38 248 291
-0.08091633 0.64999998 -0.058122993 1.4290202e-38 249 291
-0.079776667 0.64999998 -0.058122993 1.5208899e-38 250 291
-0.078636996 0.64999998 -0.058122993 1.5485484e-38 251 291
-0.077378102 0.64899999 -0.058033578 1.6037571e-38 252 291
-0.076122716 0.648 -0.05794416 1.6313798e-38 253 291
-0.074986562 0.648 -0.05794416 1.6681141e-38 254 291
-0.073736429 0.64700001 -0.057854742 1.7049565e-38 255 291
-0.072602026 0.64700001 -0.057854742 1.723324e-38 256 291
-0.071467623 0.64700001 -0.057854742 1.7417271e-38 257 291
-0.070333213 0.64700001 -0.057854742 1.7417624e-38 258 291
-0.069198802 0.64700001 -0.057854742 1.7417624e-38 259 291
-0.068064399 0.64700001 -0.057854742 1.7142116e-38 260 291
-0.066826545 0.64600003 -0.057765324 1.6773335e-38 261 291
-0.065693893 0.64600003 -0.057765324 1.6497097e-38 262 291
-0.06456124 0.64600003 -0.057765324 1.6128316e-38 263 291
-0.063428588 0.64600003 -0.057765324 1.5851359e-38 264 291
-0.062103063 0.64399999 -0.057586476 1.5574771e-38 265 291
-0.06097392 0.64399999 -0.057586476 1.5206712e-38 266 291
-0.05984477 0.64399999 -0.057586476 1.483793e-38 267 291
-0.058715623 0.64399999 -0.057586476 1.4561342e-38 268 291
-0.057586476 0.64399999 -0.057586476 1.4469147e-38 269 291
-0.056369666 0.64300001 -0.057497058 1.4375879e-38 270 291
-0.05524227 0.64300001 -0.057497058 1.4283682e-38 271 291
-0.054114878 0.64300001 -0.057497058 1.373267e-38 272 291
-0.052987486 0.64300001 -0.057497058 1.373267e-38 273 291
-0.051860094 0.64300001 -0.057497058 1.3457165e-38 274 291
-0.050732698 0.64300001 -0.057497058 1.3457165e-38 275 291
-0.049605306 0.64300001 -0.057497058 1.345609e-38 276 291
-0.048402522 0.64200002 -0.05740764 1.345609e-38 277 291
-0.047276881 0.64200002 -0.05740764 1.3639759e-38 278 291
-0.046151239 0.64200002 -0.05740764 1.382415e-38 279 291
-0.045025598 0.64200002 -0.05740764 1.3641926e-38 280 291
-0.043899957 0.64200002 -0.05740764 1.3734122e-38 281 291
-0.04277432 0.64200002 -0.05740764 1.4284425e-38 282 291
-0.041648682 0.64200002 -0.05740764 1.437662e-38 283 291
-0.040523041 0.64200002 -0.05740764 1.4469169e-38 284 291
-0.0393974 0.64200002 -0.05740764 1.4376973e-38 285 291
-0.038271759 0.64200002 -0.05740764 1.474468e-38 286 291
-0.037146121 0.64200002 -0.05740764 1.4836877e-38 287 291
-0.03602048 0.64200002 -0.05740764 1.4746131e-38 288 291
-0.034894839 0.64200002 -0.05740764 1.4746131e-38 289 291
-0.033769198 0.64200002 -0.05740764 1.5112753e-38 290 291
-0.03264356 0.64200002 -0.05740764 1.4928722e-38 291 291
-0.031517919 0.64200002 -0.05740764 1.4652847e-38 292 291
-0.030392278 0.64200002 -0.05740764 1.4652847e-38 293 291
-0.029266641 0.64200002 -0.05740764 1.4561732e-38 294 291
-0.028141001 0.64200002 -0.05740764 1.4654286e-38 295 291
-0.02701536 0.64200002 -0.05740764 1.4561735e-38 296 291
-0.025889721 0.64200002 -0.05740764 1.465393e-38 297 291
-0.02476408 0.64200002 -0.05740764 1.4561732e-38 298 291
-0.02363844 0.64200002 -0.05740764 1.4377339e-38 299 291
-0.022512799 0.64200002 -0.05740764 1.4652832e-38 300 291
-0.02138716 0.64200002 -0.05740764 1.4560636e-38 301 291
-0.020261521 0.64200002 -0.05740764 1.4468428e-38 302 291
-0.019165685 0.64300001 -0.057497058 1.4283676e-38 303 291
-0.018038293 0.64300001 -0.057497058 1.3915973e-38 304 291
-0.016910899 0.64300001 -0.057497058 1.3915973e-38 305 291
-0.015783506 0.64300001 -0.057497058 1.3457528e-38 306 291
-0.014656113 0.64300001 -0.057497058 1.3181301e-38 307 291
-0.013549759 0.64399999 -0.057586476 1.3179872e-38 308 291
-0.012420613 0.64399999 -0.057586476 1.3272068e-38 309 291
-0.011291467 0.64399999 -0.057586476 1.3179869e-38 310 291
-0.01016232 0.64399999 -0.057586476 1.2995837e-38 311 291
-0.0090612266 0.64600003 -0.057765324 1.3179852e-38 312 291
-0.0079285735 0.64600003 -0.057765324 1.2718876e-38 313 291
-0.00679592 0.64600003 -0.057765324 1.2627399e-38 314 291
-0.0056632664 0.64600003 -0.057765324 1.2627399e-38 315 291
-0.0045306133 0.64600003 -0.057765324 1.2534503e-38 316 291
-0.00339796 0.64600003 -0.057765324 1.2534503e-38 317 291
-0.0022653067 0.64600003 -0.057765324 1.2350128e-38 318 291
-0.0011344067 0.64700001 -0.057854742 1.2350128e-38 319 291
0 0.648 -0.05794416 1.2257938e-38 320 291
0.00113616 0.648 -0.05794416 1.2350134e-38 321 291
0.0022758266 0.64899999 -0.058033578 1.2257938e-38 322 291
0.0034137398 0.64899999 -0.058033578 1.2257938e-38 323 291
0.0045516533 0.64899999 -0.058033578 1.2074267e-38 324 291
0.0056895665 0.64899999 -0.058033578 1.2074267e-38 325 291
0.0068274797 0.64899999 -0.058033578 1.1983146e-38 326 291
0.0079776663 0.64999998 -0.058122993 1.1983146e-38 327 291
0.0091173323 0.64999998 -0.058122993 1.2075342e-38 328 291
0.01028856 0.65200001 -0.058301836 1.1983146e-38 329 291
0.011431733 0.65200001 -0.058301836 1.189203e-38 330 291
0.012574906 0.65200001 -0.058301836 1.1984225e-38 331 291
0.013739119 0.653 -0.058391262 1.2167182e-38 332 291
0.014906839 0.65399998 -0.05848068 1.2259736e-38 333 291
0.01605352 0.65399998 -0.05848068 1.2259027e-38 334 291
0.017200198 0.65399998 -0.05848068 1.2443778e-38 335 291
0.018374931 0.65499997 -0.058570094 1.2351946e-38 336 291
0.019523365 0.65499997 -0.058570094 1.2351946e-38 337 291
0.020734919 0.65700001 -0.058748938 1.2444497e-38 338 291
0.021886859 0.65700001 -0.058748938 1.2444497e-38 339 291
0.023038799 0.65700001 -0.058748938 1.253669e-38 340 291
0.024264378 0.65899998 -0.058927774 1.253669e-38 341 291
0.025496973 0.66100001 -0.059106622 1.2445213e-38 342 291
0.026696252 0.662 -0.05919604 1.2445213e-38 343 291
0.027899038 0.66299999 -0.059285458 1.2536693e-38 344 291
0.029192999 0.66600001 -0.059553716 1.2444497e-38 345 291
0.030360719 0.66600001 -0.059553716 1.2444147e-38 346 291
0.031528439 0.66600001 -0.059553716 1.2444147e-38 347 291
0.032696161 0.66600001 -0.059553716 1.216758e-38 348 291
0.03386388 0.66600001 -0.059553716 1.1890633e-38 349 291
0.035084199 0.667 -0.059643134 1.1063052e-38 350 291
-0.088024348 0.65200001 -0.059445009 1.6134218e-38 243 292
-0.086881176 0.65200001 -0.059445009 1.4749776e-38 244 292
-0.085738003 0.65200001 -0.059445009 1.3459037e-38 245 292
-0.084594823 0.65200001 -0.059445009 1.2632816e-38 246 292
-0.083579645 0.653 -0.059536185 1.2909043e-38 247 292
-0.082308479 0.65200001 -0.059445009 1.3921034e-38 248 292
-0.081165306 0.65200001 -0.059445009 1.4658599e-38 249 292
-0.080022126 0.65200001 -0.059445009 1.5118874e-38 250 292
-0.078636996 0.64999998 -0.059262663 1.521107e-38 251 292
-0.077378102 0.64899999 -0.059171494 1.5854271e-38 252 292
-0.076122716 0.648 -0.059080318 1.6130498e-38 253 292
-0.074986562 0.648 -0.059080318 1.6405999e-38 254 292
-0.073736429 0.64700001 -0.058989145 1.6498196e-38 255 292
-0.072602026 0.64700001 -0.058989145 1.6498546e-38 256 292
-0.071467623 0.64700001 -0.058989145 1.6590742e-38 257 292
-0.070333213 0.64700001 -0.058989145 1.7232864e-38 258 292
-0.069091856 0.64600003 -0.058897976 1.7232864e-38 259 292
-0.067959204 0.64600003 -0.058897976 1.70481e-38 260 292
-0.066826545 0.64600003 -0.058897976 1.6587481e-38 261 292
-0.065693893 0.64600003 -0.058897976 1.6127939e-38 262 292
-0.06456124 0.64600003 -0.058897976 1.566732e-38 263 292
-0.063232213 0.64399999 -0.058715623 1.511416e-38 264 292
-0.062103063 0.64399999 -0.058715623 1.4837933e-38 265 292
-0.06097392 0.64399999 -0.058715623 1.4377677e-38 266 292
-0.05984477 0.64399999 -0.058715623 1.4192927e-38 267 292
-0.058715623 0.64399999 -0.058715623 1.4100014e-38 268 292
-0.057497058 0.64300001 -0.058624454 1.4100014e-38 269 292
-0.056369666 0.64300001 -0.058624454 1.345683e-38 270 292
-0.05524227 0.64300001 -0.058624454 1.327244e-38 271 292
-0.054114878 0.64300001 -0.058624454 1.3180263e-38 272 292
-0.052987486 0.64300001 -0.058624454 1.2995513e-38 273 292
-0.051860094 0.64300001 -0.058624454 1.2995516e-38 274 292
-0.050732698 0.64300001 -0.058624454 1.2811485e-38 275 292
-0.049528159 0.64200002 -0.058533281 1.2995519e-38 276 292
-0.048402522 0.64200002 -0.058533281 1.2811488e-38 277 292
-0.047276881 0.64200002 -0.058533281 1.2811488e-38 278 292
-0.046151239 0.64200002 -0.058533281 1.2995519e-38 279 292
-0.045025598 0.64200002 -0.058533281 1.2904402e-38 280 292
-0.043899957 0.64200002 -0.058533281 1.2996598e-38 281 292
-0.04277432 0.64200002 -0.058533281 1.3455422e-38 282 292
-0.041648682 0.64200002 -0.058533281 1.3547618e-38 283 292
-0.040523041 0.64200002 -0.058533281 1.3732712e-38 284 292
-0.0393974 0.64200002 -0.058533281 1.3548321e-38 285 292
-0.038271759 0.64200002 -0.058533281 1.4100759e-38 286 292
-0.037146121 0.64200002 -0.058533281 1.4100759e-38 287 292
-0.03602048 0.64200002 -0.058533281 1.4376973e-38 288 292
-0.034894839 0.64200002 -0.058533281 1.4376973e-38 289 292
-0.033769198 0.64200002 -0.058533281 1.446809e-38 290 292
-0.03264356 0.64200002 -0.058533281 1.4375894e-38 291 292
-0.031517919 0.64200002 -0.058533281 1.4192579e-38 292 292
-0.030392278 0.64200002 -0.058533281 1.4192579e-38 293 292
-0.029266641 0.64200002 -0.058533281 1.4192582e-38 294 292
-0.028141001 0.64200002 -0.058533281 1.4100028e-38 295 292
-0.02701536 0.64200002 -0.058533281 1.3916362e-38 296 292
-0.025889721 0.64200002 -0.058533281 1.3916362e-38 297 292
-0.02476408 0.64200002 -0.058533281 1.3824518e-38 298 292
-0.02363844 0.64200002 -0.058533281 1.3732323e-38 299 292
-0.022512799 0.64200002 -0.058533281 1.4007485e-38 300 292
-0.02138716 0.64200002 -0.058533281 1.3823093e-38 301 292
-0.020261521 0.64200002 -0.058533281 1.3639777e-38 302 292
-0.019135879 0.64200002 -0.058533281 1.3270996e-38 303 292
-0.01801024 0.64200002 -0.058533281 1.3179136e-38 304 292
-0.016910899 0.64300001 -0.058624454 1.2809995e-38 305 292
-0.015783506 0.64300001 -0.058624454 1.281144e-38 306 292
-0.014656113 0.64300001 -0.058624454 1.2719244e-38 307 292
-0.01352872 0.64300001 -0.058624454 1.2535244e-38 308 292
-0.012401327 0.64300001 -0.058624454 1.2535244e-38 309 292
-0.011291467 0.64399999 -0.058715623 1.2350872e-38 310 292
-0.01016232 0.64399999 -0.058715623 1.2350872e-38 311 292
-0.0090331733 0.64399999 -0.058715623 1.2442695e-38 312 292
-0.0079040267 0.64399999 -0.058715623 1.2166468e-38 313 292
-0.0067748795 0.64399999 -0.058715623 1.2074986e-38 314 292
-0.0056632664 0.64600003 -0.058897976 1.198279e-38 315 292
-0.0045306133 0.64600003 -0.058897976 1.2166822e-38 316 292
-0.00339796 0.64600003 -0.058897976 1.2074267e-38 317 292
-0.0022653067 0.64600003 -0.058897976 1.198207e-38 318 292
-0.0011344067 0.64700001 -0.058989145 1.198207e-38 319 292
0 0.648 -0.059080318 1.207462e-38 320 292
0.00113616 0.648 -0.059080318 1.207462e-38 321 292
0.0022758266 0.64899999 -0.059171494 1.2074976e-38 322 292
0.0034137398 0.64899999 -0.059171494 1.2074976e-38 323 292
0.0045516533 0.64899999 -0.059171494 1.198279e-38 324 292
0.0056895665 0.64899999 -0.059171494 1.198279e-38 325 292
0.0068274797 0.64899999 -0.059171494 1.198279e-38 326 292
0.0079776663 0.64999998 -0.059262663 1.198279e-38 327 292
0.0091173323 0.64999998 -0.059262663 1.2075339e-38 328 292
0.01028856 0.65200001 -0.059445009 1.2075339e-38 329 292
0.011431733 0.65200001 -0.059445009 1.2167891e-38 330 292
0.012574906 0.65200001 -0.059445009 1.2167891e-38 331 292
0.013739119 0.653 -0.059536185 1.2167182e-38 332 292
0.014906839 0.65399998 -0.059627358 1.2259736e-38 333 292
0.01605352 0.65399998 -0.059627358 1.2259746e-38 334 292
0.017226499 0.65499997 -0.059718527 1.2259746e-38 335 292
0.018374931 0.65499997 -0.059718527 1.2352302e-38 336 292
0.019582979 0.65700001 -0.05990088 1.2352302e-38 337 292
0.02076648 0.65799999 -0.059992049 1.2444494e-38 338 292
0.021920172 0.65799999 -0.059992049 1.2444494e-38 339 292
0.023073865 0.65799999 -0.059992049 1.2444494e-38 340 292
0.024264378 0.65899998 -0.060083222 1.2444494e-38 341 292
0.025535546 0.662 -0.060356744 1.2260829e-38 342 292
0.026696252 0.662 -0.060356744 1.2260829e-38 343 292
0.027941117 0.66399997 -0.060539093 1.2076804e-38 344 292
0.029192999 0.66600001 -0.060721438 1.2076804e-38 345 292
0.030406304 0.667 -0.060812607 1.2167927e-38 346 292
0.03157578 0.667 -0.060812607 1.1983535e-38 347 292
0.032745253 0.667 -0.060812607 1.1522579e-38 348 292
-0.089167513 0.65200001 -0.060588185 1.5302637e-38 242 293
-0.088024348 0.65200001 -0.060588185 1.2536769e-38 243 293
-0.086881176 0.65200001 -0.060588185 1.16169e-38 244 293
-0.085738003 0.65200001 -0.060588185 1.2631054e-38 245 293
-0.084594823 0.65200001 -0.060588185 1.3461145e-38 246 293
-0.083451651 0.65200001 -0.060588185 1.3738091e-38 247 293
-0.082308479 0.65200001 -0.060588185 1.4565676e-38 248 293
-0.08091633 0.64999998 -0.060402326 1.4750069e-38 249 293
-0.079776667 0.64999998 -0.060402326 1.5486188e-38 250 293
-0.078395039 0.648 -0.060216483 1.5854972e-38 251 293
-0.077258877 0.648 -0.060216483 1.6314148e-38 252 293
-0.07600525 0.64700001 -0.060123552 1.6314148e-38 253 293
-0.07487084 0.64700001 -0.060123552 1.6772961e-38 254 293
-0.073736429 0.64700001 -0.060123552 1.6772961e-38 255 293
-0.072602026 0.64700001 -0.060123552 1.6587845e-38 256 293
-0.071467623 0.64700001 -0.060123552 1.6127226e-38 257 293
-0.070333213 0.64700001 -0.060123552 1.6034662e-38 258 293
-0.069091856 0.64600003 -0.060030628 1.5665519e-38 259 293
-0.067959204 0.64600003 -0.060030628 1.5389643e-38 260 293
-0.066826545 0.64600003 -0.060030628 1.5204891e-38 261 293
-0.065693893 0.64600003 -0.060030628 1.4744992e-38 262 293
-0.06456124 0.64600003 -0.060030628 1.4560241e-38 263 293
-0.063232213 0.64399999 -0.05984477 1.4008522e-38 264 293
-0.062103063 0.64399999 -0.05984477 1.3823772e-38 265 293
-0.06097392 0.64399999 -0.05984477 1.363866e-38 266 293
-0.05984477 0.64399999 -0.05984477 1.3546464e-38 267 293
-0.058715623 0.64399999 -0.05984477 1.3362802e-38 268 293
-0.057497058 0.64300001 -0.059751842 1.3454997e-38 269 293
-0.056369666 0.64300001 -0.059751842 1.3178433e-38 270 293
-0.055156358 0.64200002 -0.059658919 1.3085879e-38 271 293
-0.05403072 0.64200002 -0.059658919 1.2810742e-38 272 293
-0.052987486 0.64300001 -0.059751842 1.2810742e-38 273 293
-0.051860094 0.64300001 -0.059751842 1.2625642e-38 274 293
-0.050732698 0.64300001 -0.059751842 1.2625642e-38 275 293
-0.049528159 0.64200002 -0.059658919 1.2349415e-38 276 293
-0.048402522 0.64200002 -0.059658919 1.2349415e-38 277 293
-0.047276881 0.64200002 -0.059658919 1.2900431e-38 278 293
-0.046151239 0.64200002 -0.059658919 1.2900431e-38 279 293
-0.045025598 0.64200002 -0.059658919 1.2625639e-38 280 293
-0.043899957 0.64200002 -0.059658919 1.2902585e-38 281 293
-0.04277432 0.64200002 -0.059658919 1.3361759e-38 282 293
-0.041583803 0.64099997 -0.059565991 1.3453955e-38 283 293
-0.040459916 0.64099997 -0.059565991 1.3454311e-38 284 293
-0.039336029 0.64099997 -0.059565991 1.3177724e-38 285 293
-0.038212143 0.64099997 -0.059565991 1.3270996e-38 286 293
-0.03708826 0.64099997 -0.059565991 1.3270996e-38 287 293
-0.03596437 0.64099997 -0.059565991 1.3362465e-38 288 293
-0.034840483 0.64099997 -0.059565991 1.3178433e-38 289 293
-0.033716597 0.64099997 -0.059565991 1.3269178e-38 290 293
-0.03259271 0.64099997 -0.059565991 1.3269178e-38 291 293
-0.031468827 0.64099997 -0.059565991 1.3269181e-38 292 293
-0.030344937 0.64099997 -0.059565991 1.2992234e-38 293 293
-0.029266641 0.64200002 -0.059658919 1.2807127e-38 294 293
-0.028141001 0.64200002 -0.059658919 1.2899322e-38 295 293
-0.02701536 0.64200002 -0.059658919 1.2991885e-38 296 293
-0.025889721 0.64200002 -0.059658919 1.2991885e-38 297 293
-0.02476408 0.64200002 -0.059658919 1.2441584e-38 298 293
-0.02363844 0.64200002 -0.059658919 1.2625977e-38 299 293
-0.022512799 0.64200002 -0.059658919 1.3178077e-38 300 293
-0.021353846 0.64099997 -0.059565991 1.3085881e-38 301 293
-0.020229958 0.64099997 -0.059565991 1.2993689e-38 302 293
-0.019135879 0.64200002 -0.059658919 1.2716743e-38 303 293
-0.01801024 0.64200002 -0.059658919 1.2073171e-38 304 293
-0.016910899 0.64300001 -0.059751842 1.2073171e-38 305 293
-0.015783506 0.64300001 -0.059751842 1.2716037e-38 306 293
-0.014656113 0.64300001 -0.059751842 1.2716037e-38 307 293
-0.01352872 0.64300001 -0.059751842 1.2348332e-38 308 293
-0.012401327 0.64300001 -0.059751842 1.2440527e-38 309 293
-0.011291467 0.64399999 -0.05984477 1.2257215e-38 310 293
-0.01016232 0.64399999 -0.05984477 1.2257215e-38 311 293
-0.0090331733 0.64399999 -0.05984477 1.2165738e-38 312 293
-0.0079040267 0.64399999 -0.05984477 1.2165738e-38 313 293
-0.0067748795 0.64399999 -0.05984477 1.198242e-38 314 293
-0.0056632664 0.64600003 -0.060030628 1.198242e-38 315 293
-0.0045306133 0.64600003 -0.060030628 1.1981704e-38 316 293
-0.00339796 0.64600003 -0.060030628 1.2165736e-38 317 293
-0.0022653067 0.64600003 -0.060030628 1.1982426e-38 318 293
-0.0011344067 0.64700001 -0.060123552 1.2074623e-38 319 293
0 0.648 -0.060216483 1.1983141e-38 320 293
0.00113616 0.648 -0.060216483 1.1983141e-38 321 293
0.0022758266 0.64899999 -0.060309403 1.1799111e-38 322 293
0.0034137398 0.64899999 -0.060309403 1.1983144e-38 323 293
0.0045516533 0.64899999 -0.060309403 1.1983144e-38 324 293
0.0056895665 0.64899999 -0.060309403 1.1983144e-38 325 293
0.0068274797 0.64899999 -0.060309403 1.1983144e-38 326 293
0.0079776663 0.64999998 -0.060402326 1.1983144e-38 327 293
0.0091173323 0.64999998 -0.060402326 1.2075342e-38 328 293
0.01028856 0.65200001 -0.060588185 1.2075342e-38 329 293
0.011431733 0.65200001 -0.060588185 1.2350847e-38 330 293
0.012594193 0.653 -0.060681112 1.2350847e-38 331 293
0.013760159 0.65399998 -0.060774036 1.2350847e-38 332 293
0.014906839 0.65399998 -0.060774036 1.2443401e-38 333 293
0.016078066 0.65499997 -0.060866963 1.2443048e-38 334 293
0.0172791 0.65700001 -0.061052818 1.2535244e-38 335 293
0.01843104 0.65700001 -0.061052818 1.2259746e-38 336 293
0.019612785 0.65799999 -0.061145745 1.2352302e-38 337 293
0.020798039 0.65899998 -0.061238669 1.2443774e-38 338 293
0.021953486 0.65899998 -0.061238669 1.2443774e-38 339 293
0.023108931 0.65899998 -0.061238669 1.244413e-38 340 293
0.02433802 0.66100001 -0.061424527 1.244413e-38 341 293
0.025535546 0.662 -0.061517447 1.2259746e-38 342 293
0.026696252 0.662 -0.061517447 1.2259746e-38 343 293
0.027941117 0.66399997 -0.061703302 1.2167203e-38 344 293
0.029192999 0.66600001 -0.061889157 1.1890617e-38 345 293
-0.090310693 0.65200001 -0.061731357 1.4569077e-38 241 294
-0.089167513 0.65200001 -0.061731357 1.0514916e-38 242 294
-0.088024348 0.65200001 -0.061731357 9.6847969e-39 243 294
-0.086881176 0.65200001 -0.061731357 1.1156979e-38 244 294
-0.085738003 0.65200001 -0.061731357 1.1986741e-38 245 294
-0.084594823 0.65200001 -0.061731357 1.2632466e-38 246 294
-0.083451651 0.65200001 -0.061731357 1.318528e-38 247 294
-0.082055993 0.64999998 -0.061541997 1.3920681e-38 248 294
-0.08091633 0.64999998 -0.061541997 1.4197267e-38 249 294
-0.079653934 0.64899999 -0.061447315 1.4749703e-38 250 294
-0.078395039 0.648 -0.06135264 1.502593e-38 251 294
-0.077139653 0.64700001 -0.061257958 1.5484375e-38 252 294
-0.07600525 0.64700001 -0.061257958 1.5484375e-38 253 294
-0.07487084 0.64700001 -0.061257958 1.5484369e-38 254 294
-0.073622465 0.64600003 -0.061163284 1.5299976e-38 255 294
-0.072489813 0.64600003 -0.061163284 1.5023399e-38 256 294
-0.071357161 0.64600003 -0.061163284 1.4746454e-38 257 294
-0.070224509 0.64600003 -0.061163284 1.474538e-38 258 294
-0.069091856 0.64600003 -0.061163284 1.4653185e-38 259 294
-0.067959204 0.64600003 -0.061163284 1.4743933e-38 260 294
-0.066826545 0.64600003 -0.061163284 1.4651737e-38 261 294
-0.065693893 0.64600003 -0.061163284 1.4008168e-38 262 294
-0.06456124 0.64600003 -0.061163284 1.3454995e-38 263 294
-0.063232213 0.64399999 -0.06097392 1.2994386e-38 264 294
-0.062103063 0.64399999 -0.06097392 1.2994386e-38 265 294
-0.06097392 0.64399999 -0.06097392 1.3085506e-38 266 294
-0.05984477 0.64399999 -0.06097392 1.3269897e-38 267 294
-0.058715623 0.64399999 -0.06097392 1.2718188e-38 268 294
-0.057497058 0.64300001 -0.060879238 1.2625992e-38 269 294
-0.056369666 0.64300001 -0.060879238 1.234943e-38 270 294
-0.055156358 0.64200002 -0.060784556 1.2257235e-38 271 294
-0.05403072 0.64200002 -0.060784556 1.2073569e-38 272 294
-0.052987486 0.64300001 -0.060879238 1.1981015e-38 273 294
-0.051860094 0.64300001 -0.060879238 1.1889168e-38 274 294
-0.050732698 0.64300001 -0.060879238 1.1704777e-38 275 294
-0.049528159 0.64200002 -0.060784556 1.1613663e-38 276 294
-0.048402522 0.64200002 -0.060784556 1.1705859e-38 277 294
-0.047276881 0.64200002 -0.060784556 1.1888805e-38 278 294
-0.046151239 0.64200002 -0.060784556 1.1981001e-38 279 294
-0.045025598 0.64200002 -0.060784556 1.2165034e-38 280 294
-0.043899957 0.64200002 -0.060784556 1.2349783e-38 281 294
-0.04277432 0.64200002 -0.060784556 1.2442348e-38 282 294
-0.041583803 0.64099997 -0.060689874 1.2534543e-38 283 294
-0.040459916 0.64099997 -0.060689874 1.253454e-38 284 294
-0.039336029 0.64099997 -0.060689874 1.2442345e-38 285 294
-0.038212143 0.64099997 -0.060689874 1.2443428e-38 286 294
-0.03708826 0.64099997 -0.060689874 1.2350872e-38 287 294
-0.03596437 0.64099997 -0.060689874 1.253419e-38 288 294
-0.034840483 0.64099997 -0.060689874 1.2441995e-38 289 294
-0.033716597 0.64099997 -0.060689874 1.2533471e-38 290 294
-0.03259271 0.64099997 -0.060689874 1.2441276e-38 291 294
-0.031468827 0.64099997 -0.060689874 1.2532036e-38 292 294
-0.030344937 0.64099997 -0.060689874 1.2532036e-38 293 294
-0.02922105 0.64099997 -0.060689874 1.253132e-38 294 294
-0.028097166 0.64099997 -0.060689874 1.2623516e-38 295 294
-0.02701536 0.64200002 -0.060784556 1.2348005e-38 296 294
-0.025889721 0.64200002 -0.060784556 1.2532036e-38 297 294
-0.02476408 0.64200002 -0.060784556 1.2349074e-38 298 294
-0.02363844 0.64200002 -0.060784556 1.2349074e-38 299 294
-0.022512799 0.64200002 -0.060784556 1.2350502e-38 300 294
-0.021353846 0.64099997 -0.060689874 1.2350502e-38 301 294
-0.020229958 0.64099997 -0.060689874 1.23505e-38 302 294
-0.019135879 0.64200002 -0.060784556 1.2166468e-38 303 294
-0.01801024 0.64200002 -0.060784556 1.2073917e-38 304 294
-0.016910899 0.64300001 -0.060879238 1.1981721e-38 305 294
-0.015783506 0.64300001 -0.060879238 1.1889171e-38 306 294
-0.014656113 0.64300001 -0.060879238 1.1889171e-38 307 294
-0.01352872 0.64300001 -0.060879238 1.1889168e-38 308 294
-0.012420613 0.64399999 -0.06097392 1.1889168e-38 309 294
-0.011291467 0.64399999 -0.06097392 1.1798406e-38 310 294
-0.01016232 0.64399999 -0.06097392 1.1706209e-38 311 294
-0.0090331733 0.64399999 -0.06097392 1.1798758e-38 312 294
-0.0079040267 0.64399999 -0.06097392 1.1706562e-38 313 294
-0.0067748795 0.64399999 -0.06097392 1.1889872e-38 314 294
-0.0056632664 0.64600003 -0.061163284 1.1889872e-38 315 294
-0.0045306133 0.64600003 -0.061163284 1.198207e-38 316 294
-0.00339796 0.64600003 -0.061163284 1.198207e-38 317 294
-0.0022653067 0.64600003 -0.061163284 1.2074267e-38 318 294
-0.0011344067 0.64700001 -0.061257958 1.198207e-38 319 294
0 0.64700001 -0.061257958 1.1798755e-38 320 294
0.00113616 0.648 -0.06135264 1.1798755e-38 321 294
0.0022758266 0.64899999 -0.061447315 1.1798758e-38 322 294
0.0034137398 0.64899999 -0.061447315 1.198279e-38 323 294
0.0045586661 0.64999998 -0.061541997 1.198279e-38 324 294
0.005698333 0.64999998 -0.061541997 1.1798758e-38 325 294
0.0068379994 0.64999998 -0.061541997 1.1982793e-38 326 294
0.0079776663 0.64999998 -0.061541997 1.2074989e-38 327 294
0.0091173323 0.64999998 -0.061541997 1.2074986e-38 328 294
0.01028856 0.65200001 -0.061731357 1.2074986e-38 329 294
0.011449266 0.653 -0.061826039 1.2167538e-38 330 294
0.012613479 0.65399998 -0.061920714 1.2167538e-38 331 294
0.013760159 0.65399998 -0.061920714 1.2167182e-38 332 294
0.014929632 0.65499997 -0.062015396 1.2167182e-38 333 294
0.01612716 0.65700001 -0.06220476 1.2167906e-38 334 294
0.0172791 0.65700001 -0.06220476 1.2260102e-38 335 294
0.018459093 0.65799999 -0.062299434 1.2259751e-38 336 294
0.019612785 0.65799999 -0.062299434 1.2351949e-38 337 294
0.020798039 0.65899998 -0.062394116 1.2351228e-38 338 294
0.021953486 0.65899998 -0.062394116 1.2351228e-38 339 294
0.023179067 0.66100001 -0.062583476 1.2076083e-38 340 294
0.02433802 0.66100001 -0.062583476 1.1983888e-38 341 294
0.025574118 0.66299999 -0.062772833 1.1708024e-38 342 294
-0.09159413 0.653 -0.062970966 1.3650718e-38 240 295
-0.090310693 0.65200001 -0.062874533 8.3955659e-39 241 295
-0.089167513 0.65200001 -0.062874533 1.7639041e-39 242 295
-0.088024348 0.65200001 -0.062874533 5.6361205e-39 243 295
-0.086881176 0.65200001 -0.062874533 9.4085309e-39 244 295
-0.085738003 0.65200001 -0.062874533 1.00539e-38 245 295
-0.084594823 0.65200001 -0.062874533 1.1249541e-38 246 295
-0.083451651 0.65200001 -0.062874533 1.1526487e-38 247 295
-0.082055993 0.64999998 -0.062681668 1.2445904e-38 248 295
-0.08091633 0.64999998 -0.062681668 1.25381e-38 249 295
-0.0795312 0.648 -0.062488798 1.3090172e-38 250 295
-0.078395039 0.648 -0.062488798 1.3182368e-38 251 295
-0.077139653 0.64700001 -0.062392361 1.3640812e-38 252 295
-0.07600525 0.64700001 -0.062392361 1.3733008e-38 253 295
-0.074755117 0.64600003 -0.062295936 1.3366021e-38 254 295
-0.073622465 0.64600003 -0.062295936 1.2905042e-38 255 295
-0.072489813 0.64600003 -0.062295936 1.3178758e-38 256 295
-0.071357161 0.64600003 -0.062295936 1.2809976e-38 257 295
-0.070224509 0.64600003 -0.062295936 1.2533764e-38 258 295
-0.069091856 0.64600003 -0.062295936 1.2809992e-38 259 295
-0.067959204 0.64600003 -0.062295936 1.2809272e-38 260 295
-0.066826545 0.64600003 -0.062295936 1.2809272e-38 261 295
-0.065693893 0.64600003 -0.062295936 1.2441215e-38 262 295
-0.06456124 0.64600003 -0.062295936 1.234902e-38 263 295
-0.063232213 0.64399999 -0.062103063 1.2163569e-38 264 295
-0.062103063 0.64399999 -0.062103063 1.2163569e-38 265 295
-0.06097392 0.64399999 -0.062103063 1.2072105e-38 266 295
-0.05984477 0.64399999 -0.062103063 1.2440527e-38 267 295
-0.058624454 0.64300001 -0.062006634 1.2530222e-38 268 295
-0.057497058 0.64300001 -0.062006634 1.2438026e-38 269 295
-0.056369666 0.64300001 -0.062006634 1.2162162e-38 270 295
-0.055156358 0.64200002 -0.061910201 1.2162162e-38 271 295
-0.05403072 0.64200002 -0.061910201 1.1796257e-38 272 295
-0.052905083 0.64200002 -0.061910201 1.1796257e-38 273 295
-0.051779442 0.64200002 -0.061910201 1.1520749e-38 274 295
-0.0506538 0.64200002 -0.061910201 1.1428194e-38 275 295
-0.049528159 0.64200002 -0.061910201 1.1520749e-38 276 295
-0.048402522 0.64200002 -0.061910201 1.1520749e-38 277 295
-0.047276881 0.64200002 -0.061910201 1.1428194e-38 278 295
-0.046151239 0.64200002 -0.061910201 1.170478e-38 279 295
-0.045025598 0.64200002 -0.061910201 1.225543e-38 280 295
-0.043899957 0.64200002 -0.061910201 1.2440181e-38 281 295
-0.04277432 0.64200002 -0.061910201 1.2349062e-38 282 295
-0.041583803 0.64099997 -0.061813761 1.2533093e-38 283 295
-0.040459916 0.64099997 -0.061813761 1.2349778e-38 284 295
-0.039336029 0.64099997 -0.061813761 1.2257582e-38 285 295
-0.038212143 0.64099997 -0.061813761 1.2074273e-38 286 295
-0.03708826 0.64099997 -0.061813761 1.2166468e-38 287 295
-0.03596437 0.64099997 -0.061813761 1.2349783e-38 288 295
-0.034840483 0.64099997 -0.061813761 1.2349783e-38 289 295
-0.033716597 0.64099997 -0.061813761 1.2532374e-38 290 295
-0.03259271 0.64099997 -0.061813761 1.2440178e-38 291 295
-0.031419732 0.63999999 -0.061717331 1.2440174e-38 292 295
-0.030297596 0.63999999 -0.061717331 1.2440174e-38 293 295
-0.02922105 0.64099997 -0.061813761 1.2256862e-38 294 295
-0.028097166 0.64099997 -0.061813761 1.2256862e-38 295 295
-0.026973277 0.64099997 -0.061813761 1.2348335e-38 296 295
-0.025849391 0.64099997 -0.061813761 1.244053e-38 297 295
-0.02476408 0.64200002 -0.061910201 1.2257935e-38 298 295
-0.02363844 0.64200002 -0.061910201 1.2257935e-38 299 295
-0.022512799 0.64200002 -0.061910201 1.207462e-38 300 295
-0.021353846 0.64099997 -0.061813761 1.207462e-38 301 295
-0.020229958 0.64099997 -0.061813761 1.2074623e-38 302 295
-0.019135879 0.64200002 -0.061910201 1.1982426e-38 303 295
-0.01801024 0.64200002 -0.061910201 1.1890228e-38 304 295
-0.016910899 0.64300001 -0.062006634 1.1798032e-38 305 295
-0.015783506 0.64300001 -0.062006634 1.1797676e-38 306 295
-0.014656113 0.64300001 -0.062006634 1.1797676e-38 307 295
-0.01352872 0.64300001 -0.062006634 1.1797676e-38 308 295
-0.012420613 0.64399999 -0.062103063 1.1889872e-38 309 295
-0.011291467 0.64399999 -0.062103063 1.1706562e-38 310 295
-0.01016232 0.64399999 -0.062103063 1.1798758e-38 311 295
-0.0090331733 0.64399999 -0.062103063 1.1889877e-38 312 295
-0.0079040267 0.64399999 -0.062103063 1.1889877e-38 313 295
-0.00679592 0.64600003 -0.062295936 1.198207e-38 314 295
-0.0056632664 0.64600003 -0.062295936 1.198207e-38 315 295
-0.0045306133 0.64600003 -0.062295936 1.198207e-38 316 295
-0.00339796 0.64600003 -0.062295936 1.2074267e-38 317 295
-0.0022653067 0.64600003 -0.062295936 1.2074267e-38 318 295
-0.0011344067 0.64700001 -0.062392361 1.198207e-38 319 295
0 0.64700001 -0.062392361 1.1798758e-38 320 295
0.0011379133 0.64899999 -0.062585227 1.1798758e-38 321 295
0.0022758266 0.64899999 -0.062585227 1.1798758e-38 322 295
0.0034137398 0.64899999 -0.062585227 1.1798758e-38 323 295
0.0045516533 0.64899999 -0.062585227 1.1798758e-38 324 295
0.005698333 0.64999998 -0.062681668 1.1798758e-38 325 295
0.0068379994 0.64999998 -0.062681668 1.198207e-38 326 295
0.0080022132 0.65200001 -0.062874533 1.198207e-38 327 295
0.0091453865 0.65200001 -0.062874533 1.198279e-38 328 295
0.01028856 0.65200001 -0.062874533 1.2074986e-38 329 295
0.011449266 0.653 -0.062970966 1.2074986e-38 330 295
0.012613479 0.65399998 -0.063067392 1.2167182e-38 331 295
0.013760159 0.65399998 -0.063067392 1.2350497e-38 332 295
0.014929632 0.65499997 -0.063163824 1.2350497e-38 333 295
0.01612716 0.65700001 -0.063356705 1.2166831e-38 334 295
0.017305398 0.65799999 -0.06345313 1.2351581e-38 335 295
0.018459093 0.65799999 -0.06345313 1.2259746e-38 336 295
0.019642593 0.65899998 -0.063549563 1.216755e-38 337 295
0.020798039 0.65899998 -0.063549563 1.2258677e-38 338 295
0.021953486 0.65899998 -0.063549563 1.2166481e-38 339 295
0.023179067 0.66100001 -0.063742429 1.1798787e-38 340 295
0.02433802 0.66100001 -0.063742429 1.1614756e-38 341 295
0.025496973 0.66100001 -0.063742429 1.0969408e-38 342 295
-0.09159413 0.653 -0.064115889 1.2543642e-38 240 296
-0.090449199 0.653 -0.064115889 6.735676e-39 241 296
-0.089167513 0.65200001 -0.064017706 1.5784436e-39 242 296
-0.088024348 0.65200001 -0.064017706 4.8974863e-39 243 296
-0.086881176 0.65200001 -0.064017706 7.7501138e-39 244 296
-0.085738003 0.65200001 -0.064017706 8.2114521e-39 245 296
-0.084335327 0.64999998 -0.063821331 9.5925592e-39 246 296
-0.083195657 0.64999998 -0.063821331 1.0053897e-38 247 296
-0.082055993 0.64999998 -0.063821331 1.1156623e-38 248 296
-0.08091633 0.64999998 -0.063821331 1.1249177e-38 249 296
-0.0795312 0.648 -0.063624963 1.1617215e-38 250 296
-0.078274064 0.64700001 -0.063526772 1.1801248e-38 251 296
-0.077139653 0.64700001 -0.063526772 1.2076379e-38 252 296
-0.07600525 0.64700001 -0.063526772 1.2076379e-38 253 296
-0.074755117 0.64600003 -0.063428588 1.2259694e-38 254 296
-0.073622465 0.64600003 -0.063428588 1.2259694e-38 255 296
-0.072489813 0.64600003 -0.063428588 1.2166795e-38 256 296
-0.071357161 0.64600003 -0.063428588 1.1798014e-38 257 296
-0.070224509 0.64600003 -0.063428588 1.1705115e-38 258 296
-0.069091856 0.64600003 -0.063428588 1.1705115e-38 259 296
-0.067959204 0.64600003 -0.063428588 1.1705834e-38 260 296
-0.066826545 0.64600003 -0.063428588 1.1798029e-38 261 296
-0.065490507 0.64399999 -0.063232213 1.1981354e-38 262 296
-0.064361356 0.64399999 -0.063232213 1.2165385e-38 263 296
-0.063232213 0.64399999 -0.063232213 1.1980651e-38 264 296
-0.062103063 0.64399999 -0.063232213 1.1888455e-38 265 296
-0.06097392 0.64399999 -0.063232213 1.1888455e-38 266 296
-0.059751842 0.64300001 -0.063134022 1.1796259e-38 267 296
-0.058624454 0.64300001 -0.063134022 1.1978853e-38 268 296
-0.057497058 0.64300001 -0.063134022 1.1978853e-38 269 296
-0.056369666 0.64300001 -0.063134022 1.1611865e-38 270 296
-0.055156358 0.64200002 -0.063035838 1.1611865e-38 271 296
-0.05403072 0.64200002 -0.063035838 1.1429269e-38 272 296
-0.052905083 0.64200002 -0.063035838 1.1429269e-38 273 296
-0.051779442 0.64200002 -0.063035838 1.1428913e-38 274 296
-0.0506538 0.64200002 -0.063035838 1.1336718e-38 275 296
-0.049528159 0.64200002 -0.063035838 1.1428913e-38 276 296
-0.048402522 0.64200002 -0.063035838 1.1428913e-38 277 296
-0.047276881 0.64200002 -0.063035838 1.1429269e-38 278 296
-0.046151239 0.64200002 -0.063035838 1.1521465e-38 279 296
-0.045025598 0.64200002 -0.063035838 1.1797329e-38 280 296
-0.043899957 0.64200002 -0.063035838 1.1981721e-38 281 296
-0.04277432 0.64200002 -0.063035838 1.1981718e-38 282 296
-0.041583803 0.64099997 -0.062937655 1.2074273e-38 283 296
-0.040459916 0.64099997 -0.062937655 1.1982437e-38 284 296
-0.039336029 0.64099997 -0.062937655 1.1798406e-38 285 296
-0.038212143 0.64099997 -0.062937655 1.1799128e-38 286 296
-0.03708826 0.64099997 -0.062937655 1.1799128e-38 287 296
-0.03596437 0.64099997 -0.062937655 1.2073917e-38 288 296
-0.034840483 0.64099997 -0.062937655 1.2073917e-38 289 296
-0.033716597 0.64099997 -0.062937655 1.2165034e-38 290 296
-0.032541864 0.63999999 -0.062839463 1.2165034e-38 291 296
-0.031419732 0.63999999 -0.062839463 1.1889877e-38 292 296
-0.030297596 0.63999999 -0.062839463 1.1889877e-38 293 296
-0.02922105 0.64099997 -0.062937655 1.2165382e-38 294 296
-0.028097166 0.64099997 -0.062937655 1.1981351e-38 295 296
-0.026973277 0.64099997 -0.062937655 1.1889875e-38 296 296
-0.025849391 0.64099997 -0.062937655 1.198207e-38 297 296
-0.02476408 0.64200002 -0.063035838 1.1798758e-38 298 296
-0.02363844 0.64200002 -0.063035838 1.1798758e-38 299 296
-0.022512799 0.64200002 -0.063035838 1.1798761e-38 300 296
-0.021353846 0.64099997 -0.062937655 1.1798761e-38 301 296
-0.020229958 0.64099997 -0.062937655 1.1798761e-38 302 296
-0.019135879 0.64200002 -0.063035838 1.1798761e-38 303 296
-0.01801024 0.64200002 -0.063035838 1.1889872e-38 304 296
-0.016884599 0.64200002 -0.063035838 1.1889872e-38 305 296
-0.01575896 0.64200002 -0.063035838 1.1890228e-38 306 296
-0.014656113 0.64300001 -0.063134022 1.1890228e-38 307 296
-0.01352872 0.64300001 -0.063134022 1.1706915e-38 308 296
-0.012401327 0.64300001 -0.063134022 1.1799111e-38 309 296
-0.011291467 0.64399999 -0.063232213 1.1798755e-38 310 296
-0.01016232 0.64399999 -0.063232213 1.1798755e-38 311 296
-0.0090331733 0.64399999 -0.063232213 1.1798761e-38 312 296
-0.0079285735 0.64600003 -0.063428588 1.1798761e-38 313 296
-0.00679592 0.64600003 -0.063428588 1.198207e-38 314 296
-0.0056632664 0.64600003 -0.063428588 1.2074267e-38 315 296
-0.0045306133 0.64600003 -0.063428588 1.2074623e-38 316 296
-0.00339796 0.64600003 -0.063428588 1.2074623e-38 317 296
-0.0022653067 0.64600003 -0.063428588 1.1983146e-38 318 296
-0.0011344067 0.64700001 -0.063526772 1.1798755e-38 319 296
0 0.64700001 -0.063526772 1.1798758e-38 320 296
0.0011379133 0.64899999 -0.063723139 1.1798758e-38 321 296
0.0022758266 0.64899999 -0.063723139 1.1798758e-38 322 296
0.0034137398 0.64899999 -0.063723139 1.1798758e-38 323 296
0.0045516533 0.64899999 -0.063723139 1.1798758e-38 324 296
0.005698333 0.64999998 -0.063821331 1.1798758e-38 325 296
0.0068379994 0.64999998 -0.063821331 1.1798406e-38 326 296
0.0080022132 0.65200001 -0.064017706 1.1798406e-38 327 296
0.0091453865 0.65200001 -0.064017706 1.1982793e-38 328 296
0.010304339 0.653 -0.064115889 1.1982793e-38 329 296
0.011466799 0.65399998 -0.064214081 1.2166822e-38 330 296
0.012613479 0.65399998 -0.064214081 1.2166822e-38 331 296
0.013781199 0.65499997 -0.064312264 1.2166468e-38 332 296
0.01497522 0.65700001 -0.064508639 1.23505e-38 333 296
0.01612716 0.65700001 -0.064508639 1.1983522e-38 334 296
0.017305398 0.65799999 -0.064606823 1.2167553e-38 335 296
0.018459093 0.65799999 -0.064606823 1.1891689e-38 336 296
0.019642593 0.65899998 -0.064705007 1.1615462e-38 337 296
0.020798039 0.65899998 -0.064705007 1.1705876e-38 338 296
0.022020113 0.66100001 -0.064901382 1.1521483e-38 339 296
0.023179067 0.66100001 -0.064901382 1.0601711e-38 340 296
0.02433802 0.66100001 -0.064901382 1.0233288e-38 341 296
-0.091453865 0.65200001 -0.065160878 1.3647455e-38 240 297
-0.090310693 0.65200001 -0.065160878 8.3923036e-39 241 297
-0.089167513 0.65200001 -0.065160878 3.784292e-39 242 297
-0.088024348 0.65200001 -0.065160878 5.8125958e-39 243 297
-0.086881176 0.65200001 -0.065160878 6.4586715e-39 244 297
-0.085738003 0.65200001 -0.065160878 7.1962365e-39 245 297
-0.084335327 0.64999998 -0.064960994 8.2107206e-39 246 297
-0.083195657 0.64999998 -0.064960994 9.0404812e-39 247 297
-0.082055993 0.64999998 -0.064960994 9.9598998e-39 248 297
-0.08091633 0.64999998 -0.064960994 1.0144292e-38 249 297
-0.079408467 0.64700001 -0.064661182 1.0512352e-38 250 297
-0.078274064 0.64700001 -0.064661182 1.0512352e-38 251 297
-0.077139653 0.64700001 -0.064661182 1.0878611e-38 252 297
-0.075887777 0.64600003 -0.06456124 1.0878611e-38 253 297
-0.074755117 0.64600003 -0.06456124 1.1153756e-38 254 297
-0.073622465 0.64600003 -0.06456124 1.1245951e-38 255 297
-0.072489813 0.64600003 -0.06456124 1.1154121e-38 256 297
-0.071136236 0.64399999 -0.064361356 1.0877895e-38 257 297
-0.070007093 0.64399999 -0.064361356 1.106121e-38 258 297
-0.069091856 0.64600003 -0.06456124 1.1153405e-38 259 297
-0.067959204 0.64600003 -0.06456124 1.097009e-38 260 297
-0.06661965 0.64399999 -0.064361356 1.1154121e-38 261 297
-0.065388806 0.64300001 -0.064261422 1.1705133e-38 262 297
-0.064261422 0.64300001 -0.064261422 1.1705133e-38 263 297
-0.063134022 0.64300001 -0.064261422 1.1705133e-38 264 297
-0.062006634 0.64300001 -0.064261422 1.1705133e-38 265 297
-0.060879238 0.64300001 -0.064261422 1.1520746e-38 266 297
-0.059751842 0.64300001 -0.064261422 1.1520746e-38 267 297
-0.058624454 0.64300001 -0.064261422 1.1611863e-38 268 297
-0.057497058 0.64300001 -0.064261422 1.1611863e-38 269 297
-0.056369666 0.64300001 -0.064261422 1.1337068e-38 270 297
-0.055156358 0.64200002 -0.064161479 1.1429622e-38 271 297
-0.05403072 0.64200002 -0.064161479 1.1245951e-38 272 297
-0.052905083 0.64200002 -0.064161479 1.1245951e-38 273 297
-0.051779442 0.64200002 -0.064161479 1.1154477e-38 274 297
-0.0506538 0.64200002 -0.064161479 1.1246673e-38 275 297
-0.049528159 0.64200002 -0.064161479 1.124667e-38 276 297
-0.048402522 0.64200002 -0.064161479 1.124667e-38 277 297
-0.047276881 0.64200002 -0.064161479 1.1521815e-38 278 297
-0.046151239 0.64200002 -0.064161479 1.1614011e-38 279 297
-0.045025598 0.64200002 -0.064161479 1.1522531e-38 280 297
-0.043899957 0.64200002 -0.064161479 1.1615086e-38 281 297
-0.04277432 0.64200002 -0.064161479 1.1889875e-38 282 297
-0.041583803 0.64099997 -0.064061537 1.1889875e-38 283 297
-0.040459916 0.64099997 -0.064061537 1.161473e-38 284 297
-0.039336029 0.64099997 -0.064061537 1.1706925e-38 285 297
-0.038212143 0.64099997 -0.064061537 1.1706929e-38 286 297
-0.03708826 0.64099997 -0.064061537 1.1706929e-38 287 297
-0.03596437 0.64099997 -0.064061537 1.1981718e-38 288 297
-0.034840483 0.64099997 -0.064061537 1.1981718e-38 289 297
-0.033716597 0.64099997 -0.064061537 1.1889877e-38 290 297
-0.032541864 0.63999999 -0.063961595 1.1889877e-38 291 297
-0.031419732 0.63999999 -0.063961595 1.1797679e-38 292 297
-0.030297596 0.63999999 -0.063961595 1.1889875e-38 293 297
-0.02922105 0.64099997 -0.064061537 1.1797679e-38 294 297
-0.028097166 0.64099997 -0.064061537 1.1797679e-38 295 297
-0.026973277 0.64099997 -0.064061537 1.1797679e-38 296 297
-0.025849391 0.64099997 -0.064061537 1.1797679e-38 297 297
-0.02476408 0.64200002 -0.064161479 1.161473e-38 298 297
-0.02363844 0.64200002 -0.064161479 1.161473e-38 299 297
-0.022512799 0.64200002 -0.064161479 1.1614732e-38 300 297
-0.021353846 0.64099997 -0.064061537 1.1614732e-38 301 297
-0.020229958 0.64099997 -0.064061537 1.161473e-38 302 297
-0.019135879 0.64200002 -0.064161479 1.161473e-38 303 297
-0.01801024 0.64200002 -0.064161479 1.1889872e-38 304 297
-0.016884599 0.64200002 -0.064161479 1.1889872e-38 305 297
-0.01575896 0.64200002 -0.064161479 1.1706913e-38 306 297
-0.014656113 0.64300001 -0.064261422 1.1706913e-38 307 297
-0.01352872 0.64300001 -0.064261422 1.1706915e-38 308 297
-0.012401327 0.64300001 -0.064261422 1.1799111e-38 309 297
-0.011291467 0.64399999 -0.064361356 1.1706562e-38 310 297
-0.01016232 0.64399999 -0.064361356 1.1798758e-38 311 297
-0.0090331733 0.64399999 -0.064361356 1.1706929e-38 312 297
-0.0079285735 0.64600003 -0.06456124 1.1799125e-38 313 297
-0.00679592 0.64600003 -0.06456124 1.1982437e-38 314 297
-0.0056720334 0.64700001 -0.064661182 1.1798406e-38 315 297
-0.0045306133 0.64600003 -0.06456124 1.1982073e-38 316 297
-0.00339796 0.64600003 -0.06456124 1.1982073e-38 317 297
-0.0022688133 0.64700001 -0.064661182 1.1798758e-38 318 297
-0.0011344067 0.64700001 -0.064661182 1.1706562e-38 319 297
0 0.64700001 -0.064661182 1.1706206e-38 320 297
0.0011379133 0.64899999 -0.064861059 1.1706206e-38 321 297
0.0022758266 0.64899999 -0.064861059 1.1706206e-38 322 297
0.0034189997 0.64999998 -0.064960994 1.1706206e-38 323 297
0.0045586661 0.64999998 -0.064960994 1.1614011e-38 324 297
0.005698333 0.64999998 -0.064960994 1.1614011e-38 325 297
0.0068590399 0.65200001 -0.065160878 1.161473e-38 326 297
0.0080144862 0.653 -0.06526082 1.161473e-38 327 297
