# .PCD v.7 - Point Cloud Data file format
FIELDS x y z rgb imX imY
SIZE 4 4 4 4 4 4
TYPE F F F F F F
COUNT 1 1 1 1 1 1
WIDTH 841
HEIGHT 1
VIEWPOINT 0 0 0 1 0 0 0
POINTS 841
DATA ascii
-0.045842651 0.76899999 0.0026966266 1.8249556e-38 286 238
-0.044494338 0.76899999 0.0026966266 1.815736e-38 287 238
-0.043370452 0.773 0.0027106532 1.7973329e-38 288 238
-0.042015124 0.773 0.0027106532 1.7973329e-38 289 238
-0.040712398 0.77399999 0.0027141599 1.7605988e-38 290 238
-0.039355319 0.77399999 0.0027141599 1.7698184e-38 291 238
-0.038096428 0.77600002 0.0027211732 1.742197e-38 292 238
-0.036735836 0.77600002 0.0027211732 1.7237577e-38 293 238
-0.035557598 0.77999997 0.0027351999 1.6684067e-38 294 238
-0.034189999 0.77999997 0.0027351999 1.6315643e-38 295 238
-0.032864477 0.78100002 0.0027387065 1.5396225e-38 296 238
-0.031575777 0.78299999 0.0027457199 1.4934886e-38 297 238
-0.03035721 0.787 0.0027597465 1.4747611e-38 298 238
-0.02905098 0.78899997 0.0027667598 1.3917492e-38 299 238
-0.027702667 0.79000002 0.0027702667 1.3552683e-38 300 238
-0.026450787 0.79400003 0.0027842934 1.511965e-38 301 238
-0.025184877 0.79799998 0.0027983198 1.5120748e-38 302 238
-0.02378572 0.79799998 0.0027983198 1.4751966e-38 303 238
-0.022386558 0.79799998 0.0027983198 1.4935619e-38 304 238
-0.020987399 0.79799998 0.0027983198 1.4843422e-38 305 238
-0.019588239 0.79799998 0.0027983198 1.4473915e-38 306 238
-0.018280253 0.80199999 0.0028123464 1.4381718e-38 307 238
-0.016874079 0.80199999 0.0028123464 1.5490266e-38 308 238
-0.063877434 0.759 0.00133078 1.8432913e-38 272 239
-0.062546656 0.759 0.00133078 1.87095e-38 273 239
-0.061215881 0.759 0.00133078 1.8894224e-38 274 239
-0.059885096 0.759 0.00133078 1.9078617e-38 275 239
-0.058708608 0.76099998 0.0013342865 1.898677e-38 276 239
-0.057374325 0.76099998 0.0013342865 1.898677e-38 277 239
-0.056113683 0.76200002 0.00133604 1.9078597e-38 278 239
-0.054777641 0.76200002 0.00133604 1.8986402e-38 279 239
-0.053441599 0.76200002 0.00133604 1.8986758e-38 280 239
-0.052105557 0.76200002 0.00133604 1.8802008e-38 281 239
-0.050769519 0.76200002 0.00133604 1.8709812e-38 282 239
-0.049563225 0.764 0.0013395466 1.8617616e-38 283 239
-0.048223678 0.764 0.0013395466 1.8433584e-38 284 239
-0.047006864 0.76599997 0.0013430532 1.8341388e-38 285 239
-0.045663811 0.76599997 0.0013430532 1.815736e-38 286 239
-0.04437862 0.76700002 0.0013448066 1.815736e-38 287 239
-0.043146025 0.76899999 0.0013483133 1.7973329e-38 288 239
-0.04190642 0.77100003 0.00135182 1.7880774e-38 289 239
-0.0406598 0.773 0.0013553266 1.7605635e-38 290 239
-0.039304473 0.773 0.0013553266 1.7605635e-38 291 239
-0.037998237 0.77399999 0.0013570799 1.6684417e-38 292 239
-0.036735836 0.77600002 0.0013605866 1.6315993e-38 293 239
-0.035466425 0.778 0.0013640933 1.5947949e-38 294 239
-0.034189999 0.77999997 0.0013675999 1.5763558e-38 295 239
-0.032864477 0.78100002 0.0013693533 1.5394792e-38 296 239
-0.031575777 0.78299999 0.0013728599 1.4933814e-38 297 239
-0.03035721 0.787 0.0013798733 1.465651e-38 298 239
-0.02905098 0.78899997 0.0013833799 1.3918586e-38 299 239
-0.027702667 0.79000002 0.0013851334 1.4285581e-38 300 239
-0.02638416 0.792 0.0013886399 1.4838753e-38 301 239
-0.02512176 0.796 0.0013956534 1.456541e-38 302 239
-0.02378572 0.79799998 0.0013991599 1.438066e-38 303 239
-0.022386558 0.79799998 0.0013991599 1.4195896e-38 304 239
-0.0209348 0.796 0.0013956534 1.4103701e-38 305 239
-0.019539146 0.796 0.0013956534 1.35527e-38 306 239
-0.018143492 0.796 0.0013956534 1.5120026e-38 307 239
-0.064864561 0.755 -0 1.8064486e-38 271 240
-0.063540794 0.755 -0 1.8800936e-38 272 240
-0.062217031 0.755 -0 1.8800936e-38 273 240
-0.060893264 0.755 -0 1.9076799e-38 274 240
-0.059885096 0.759 -0 1.9261549e-38 275 240
-0.058554318 0.759 -0 1.9078953e-38 276 240
-0.057374325 0.76099998 -0 1.9078953e-38 277 240
-0.056040037 0.76099998 -0 1.8986402e-38 278 240
-0.05470575 0.76099998 -0 1.8986402e-38 279 240
-0.053371463 0.76099998 -0 1.898497e-38 280 240
-0.052037176 0.76099998 -0 1.898497e-38 281 240
-0.050702889 0.76099998 -0 1.8433951e-38 282 240
-0.049433477 0.76200002 -0 1.8341754e-38 283 240
-0.048097439 0.76200002 -0 1.8341388e-38 284 240
-0.046761397 0.76200002 -0 1.8248834e-38 285 240
-0.045544583 0.764 -0 1.7974048e-38 286 240
-0.044320758 0.76599997 -0 1.7881493e-38 287 240
-0.043033812 0.76700002 -0 1.7605988e-38 288 240
-0.041797712 0.76899999 -0 1.7421237e-38 289 240
-0.040554602 0.77100003 -0 1.7328688e-38 290 240
-0.03920278 0.77100003 -0 1.7052461e-38 291 240
-0.037949149 0.773 -0 1.6132692e-38 292 240
-0.036641158 0.77399999 -0 1.5856104e-38 293 240
-0.035375252 0.77600002 -0 1.557954e-38 294 240
-0.034102332 0.778 -0 1.5487344e-38 295 240
-0.032822397 0.77999997 -0 1.5393723e-38 296 240
-0.031495128 0.78100002 -0 1.5116776e-38 297 240
-0.030280067 0.78500003 -0 1.4748722e-38 298 240
-0.02897734 0.787 -0 1.3826767e-38 299 240
-0.027667599 0.78899997 -0 1.3549811e-38 300 240
-0.02638416 0.792 -0 1.3365419e-38 301 240
-0.02512176 0.796 -0 1.2998425e-38 302 240
-0.023726106 0.796 -0 1.3183176e-38 303 240
-0.022330454 0.796 -0 1.2815483e-38 304 240
-0.0208822 0.79400003 -0 1.2907678e-38 305 240
-0.019490054 0.79400003 -0 1.5394117e-38 306 240
-0.018097907 0.79400003 -0 1.7330225e-38 307 240
-0.066100664 0.75400001 -0.0013220133 1.8616207e-38 270 241
-0.064778648 0.75400001 -0.0013220133 1.8708761e-38 271 241
-0.06345664 0.75400001 -0.0013220133 1.898497e-38 272 241
-0.061804999 0.75 -0.001315 1.9077165e-38 273 241
-0.060489997 0.75 -0.001315 1.8986404e-38 274 241
-0.059332799 0.75199997 -0.0013185065 1.90786e-38 275 241
-0.058245733 0.755 -0.0013237667 1.90786e-38 276 241
-0.056921966 0.755 -0.0013237667 1.8986404e-38 277 241
-0.055892758 0.759 -0.00133078 1.8986049e-38 278 241
-0.054561976 0.759 -0.00133078 1.8801657e-38 279 241
-0.053090934 0.75700003 -0.0013272733 1.898497e-38 280 241
-0.051763661 0.75700003 -0.0013272733 1.8708743e-38 281 241
-0.050569639 0.759 -0.00133078 1.8617266e-38 282 241
-0.049238857 0.759 -0.00133078 1.8340679e-38 283 241
-0.048034318 0.76099998 -0.0013342865 1.8157004e-38 284 241
-0.046761397 0.76200002 -0.00133604 1.8157004e-38 285 241
-0.045425359 0.76200002 -0.00133604 1.7697828e-38 286 241
-0.04420504 0.764 -0.0013395466 1.7605632e-38 287 241
-0.042977702 0.76599997 -0.0013430532 1.7145023e-38 288 241
-0.041689005 0.76700002 -0.0013448066 1.67766e-38 289 241
-0.0404494 0.76899999 -0.0013483133 1.6315991e-38 290 241
-0.03920278 0.77100003 -0.00135182 1.6039404e-38 291 241
-0.037850961 0.77100003 -0.00135182 1.5579887e-38 292 241
-0.036593821 0.773 -0.0013553266 1.5579887e-38 293 241
-0.03528408 0.77399999 -0.0013570799 1.5486991e-38 294 241
-0.034102332 0.778 -0.0013640933 1.5302241e-38 295 241
-0.032822397 0.77999997 -0.0013675999 1.5118214e-38 296 241
-0.031495128 0.78100002 -0.0013693533 1.4749073e-38 297 241
-0.03020292 0.78299999 -0.0013728599 1.3645246e-38 298 241
-0.02897734 0.787 -0.0013798733 1.2170116e-38 299 241
-0.027597465 0.787 -0.0013798733 1.1705525e-38 300 241
-0.026317533 0.79000002 -0.0013851334 1.0322591e-38 301 241
-0.024995519 0.792 -0.0013886399 9.3098613e-39 302 241
-0.023666494 0.79400003 -0.0013921467 1.0047426e-38 303 241
-0.022330454 0.796 -0.0013956534 1.1526191e-38 304 241
-0.0208822 0.79400003 -0.0013921467 1.3923278e-38 305 241
-0.019490054 0.79400003 -0.0013921467 1.8344409e-38 306 241
-0.068744689 0.75400001 -0.0026440267 1.8061613e-38 268 242
-0.067243837 0.75199997 -0.0026370131 1.8614787e-38 269 242
-0.065749995 0.75 -0.00263 1.861619e-38 270 242
-0.064434998 0.75 -0.00263 1.8984972e-38 271 242
-0.06312 0.75 -0.00263 1.8986049e-38 272 242
-0.061722592 0.74900001 -0.0026264933 1.8986049e-38 273 242
-0.060409348 0.74900001 -0.0026264933 1.8986404e-38 274 242
-0.059096102 0.74900001 -0.0026264933 1.90786e-38 275 242
-0.057859998 0.75 -0.00263 1.9261915e-38 276 242
-0.056544997 0.75 -0.00263 1.916972e-38 277 242
-0.055598196 0.755 -0.0026475333 1.8893853e-38 278 242
-0.054274432 0.755 -0.0026475333 1.8709462e-38 279 242
-0.052950665 0.755 -0.0026475333 1.861691e-38 280 242
-0.051626898 0.755 -0.0026475333 1.8432878e-38 281 242
-0.050436385 0.75700003 -0.0026545466 1.8341404e-38 282 242
-0.049109112 0.75700003 -0.0026545466 1.8248849e-38 283 242
-0.048034318 0.76099998 -0.0026685731 1.7973339e-38 284 242
-0.046700031 0.76099998 -0.0026685731 1.7881143e-38 285 242
-0.045425359 0.76200002 -0.00267208 1.7788947e-38 286 242
-0.044089317 0.76200002 -0.00267208 1.7420524e-38 287 242
-0.042977702 0.76599997 -0.0026861064 1.6776966e-38 288 242
-0.041689005 0.76700002 -0.0026896133 1.6500379e-38 289 242
-0.0404494 0.76899999 -0.0026966266 1.6040142e-38 290 242
-0.039101087 0.76899999 -0.0026966266 1.5855751e-38 291 242
-0.037850961 0.77100003 -0.0027036399 1.5303676e-38 292 242
-0.036593821 0.773 -0.0027106532 1.5395871e-38 293 242
-0.03528408 0.77399999 -0.0027141599 1.5119647e-38 294 242
-0.034014668 0.77600002 -0.0027211732 1.4935616e-38 295 242
-0.032822397 0.77999997 -0.0027351999 1.5026378e-38 296 242
-0.031495128 0.78100002 -0.0027387065 1.4012587e-38 297 242
-0.03020292 0.78299999 -0.0027457199 1.2264112e-38 298 242
-0.0289037 0.78500003 -0.0027527334 9.4056891e-39 299 242
-0.027597465 0.787 -0.0027597465 8.2957318e-39 300 242
-0.026284218 0.78899997 -0.0027667598 6.5440148e-39 301 242
-0.024995519 0.792 -0.0027772798 5.7232392e-39 302 242
-0.02360688 0.792 -0.0027772798 8.580945e-39 303 242
-0.022330454 0.796 -0.0027913067 1.4009015e-38 304 242
-0.0209348 0.796 -0.0027913067 1.6405742e-38 305 242
-0.068562344 0.75199997 -0.0039555198 1.8707309e-38 268 243
-0.067065001 0.75 -0.003945 1.8983898e-38 269 243
-0.065662332 0.74900001 -0.0039397399 1.8801654e-38 270 243
-0.064349085 0.74900001 -0.0039397399 1.8986404e-38 271 243
-0.063035838 0.74900001 -0.0039397399 1.8986404e-38 272 243
-0.061557774 0.74699998 -0.0039292197 1.8986404e-38 273 243
-0.060248036 0.74699998 -0.0039292197 1.9169717e-38 274 243
-0.058938295 0.74699998 -0.0039292197 1.9261912e-38 275 243
-0.057628557 0.74699998 -0.0039292197 1.9169364e-38 276 243
-0.056469604 0.74900001 -0.0039397399 1.9077168e-38 277 243
-0.055229999 0.75 -0.003945 1.880166e-38 278 243
-0.054202545 0.75400001 -0.00396604 1.861691e-38 279 243
-0.052880533 0.75400001 -0.00396604 1.843288e-38 280 243
-0.051626898 0.755 -0.0039712996 1.8340685e-38 281 243
-0.050303131 0.755 -0.0039712996 1.8248852e-38 282 243
-0.049109112 0.75700003 -0.0039818203 1.8156656e-38 283 243
-0.047908079 0.759 -0.0039923396 1.7697831e-38 284 243
-0.046700031 0.76099998 -0.0040028598 1.7513439e-38 285 243
-0.045365743 0.76099998 -0.0040028598 1.7328691e-38 286 243
-0.044089317 0.76200002 -0.0040081199 1.6960268e-38 287 243
-0.042865492 0.764 -0.0040186401 1.6408556e-38 288 243
-0.041634649 0.76599997 -0.0040291594 1.6131968e-38 289 243
-0.040344197 0.76700002 -0.00403442 1.5764284e-38 290 243
-0.039101087 0.76899999 -0.0040449398 1.5672088e-38 291 243
-0.037850961 0.77100003 -0.0040554604 1.5304395e-38 292 243
-0.036593821 0.773 -0.0040659797 1.5212199e-38 293 243
-0.03528408 0.77399999 -0.0040712398 1.5119647e-38 294 243
-0.034014668 0.77600002 -0.0040817601 1.4843419e-38 295 243
-0.032738242 0.778 -0.0040922803 1.4934916e-38 296 243
-0.031495128 0.78100002 -0.0041080597 1.3275034e-38 297 243
-0.030280067 0.78500003 -0.0041291001 1.106308e-38 298 243
-0.0289037 0.78500003 -0.0041291001 5.9923222e-39 299 243
-0.027597465 0.787 -0.0041396199 3.8761247e-39 300 243
-0.026284218 0.78899997 -0.0041501396 3.3229509e-39 301 243
-0.024932399 0.79000002 -0.0041554002 5.7229085e-39 302 243
-0.02360688 0.792 -0.00416592 1.0609277e-38 303 243
-0.022218239 0.792 -0.00416592 1.5209738e-38 304 243
-0.068562344 0.75199997 -0.0052740262 1.8617263e-38 268 244
-0.067065001 0.75 -0.00526 1.8709459e-38 269 244
-0.065662332 0.74900001 -0.0052529867 1.8894203e-38 270 244
-0.064091347 0.74599999 -0.0052319462 1.8986758e-38 271 244
-0.062783353 0.74599999 -0.0052319462 1.9078597e-38 272 244
-0.06147537 0.74599999 -0.0052319462 1.9078597e-38 273 244
-0.06016738 0.74599999 -0.0052319462 1.9169717e-38 274 244
-0.058859397 0.74599999 -0.0052319462 1.9169717e-38 275 244
-0.057551414 0.74599999 -0.0052319462 1.8893853e-38 276 244
-0.056318816 0.74699998 -0.0052389596 1.8801657e-38 277 244
-0.055009075 0.74699998 -0.0052389596 1.8709462e-38 278 244
-0.053843111 0.74900001 -0.0052529867 1.8433234e-38 279 244
-0.052740261 0.75199997 -0.0052740262 1.8249205e-38 280 244
-0.051558517 0.75400001 -0.0052880533 1.8249205e-38 281 244
-0.050303131 0.755 -0.0052950666 1.7973341e-38 282 244
-0.048979364 0.755 -0.0052950666 1.7881146e-38 283 244
-0.04778184 0.75700003 -0.0053090933 1.7605635e-38 284 244
-0.046577301 0.759 -0.0053231199 1.7052461e-38 285 244
-0.045365743 0.76099998 -0.0053371461 1.714323e-38 286 244
-0.044089317 0.76200002 -0.0053441599 1.6682252e-38 287 244
-0.042753279 0.76200002 -0.0053441599 1.6040146e-38 288 244
-0.041525945 0.764 -0.0053581866 1.5947949e-38 289 244
-0.040344197 0.76700002 -0.0053792265 1.5396946e-38 290 244
-0.039101087 0.76899999 -0.0053932532 1.5304392e-38 291 244
-0.03775277 0.76899999 -0.0053932532 1.5120726e-38 292 244
-0.036499143 0.77100003 -0.0054072798 1.4936335e-38 293 244
-0.035238493 0.773 -0.0054213065 1.5211849e-38 294 244
-0.034014668 0.77600002 -0.0054423464 1.4843066e-38 295 244
-0.032738242 0.778 -0.0054563731 1.4565773e-38 296 244
-0.031454798 0.77999997 -0.0054703997 1.2076491e-38 297 244
-0.03020292 0.78299999 -0.0054914397 8.0227798e-39 298 244
-0.0289037 0.78500003 -0.0055054668 3.0438557e-39 299 244
-0.027527334 0.78500003 -0.0055054668 3.4223506e-39 300 244
-0.026217593 0.787 -0.005519493 6.7413933e-39 301 244
-0.024932399 0.79000002 -0.0055405335 1.0602823e-38 302 244
-0.023547266 0.79000002 -0.0055405335 1.3461246e-38 303 244
-0.066349633 0.74199998 -0.0065048663 1.8801657e-38 269 245
-0.065048665 0.74199998 -0.0065048663 1.8986404e-38 270 245
-0.063747689 0.74199998 -0.0065048663 1.90786e-38 271 245
-0.062615044 0.74400002 -0.0065223998 1.90786e-38 272 245
-0.061310563 0.74400002 -0.0065223998 1.90786e-38 273 245
-0.060006075 0.74400002 -0.0065223998 1.9169717e-38 274 245
-0.058701597 0.74400002 -0.0065223998 1.9077521e-38 275 245
-0.05739712 0.74400002 -0.0065223998 1.8893853e-38 276 245
-0.056243423 0.74599999 -0.0065399334 1.8709462e-38 277 245
-0.054935437 0.74599999 -0.0065399334 1.8433954e-38 278 245
-0.053699337 0.74699998 -0.0065486995 1.8249202e-38 279 245
-0.052529868 0.74900001 -0.0065662335 1.806589e-38 280 245
-0.051421758 0.75199997 -0.0065925326 1.7973694e-38 281 245
-0.050236505 0.75400001 -0.0066100666 1.7881146e-38 282 245
-0.048914492 0.75400001 -0.0066100666 1.7604919e-38 283 245
-0.047655597 0.755 -0.0066188332 1.696136e-38 284 245
-0.046454567 0.75700003 -0.0066363667 1.6592219e-38 285 245
-0.045246519 0.759 -0.0066538998 1.6130543e-38 286 245
-0.044089317 0.76200002 -0.0066801999 1.6222738e-38 287 245
-0.042753279 0.76200002 -0.0066801999 1.5763931e-38 288 245
-0.041525945 0.764 -0.006697733 1.5763931e-38 289 245
-0.040344197 0.76700002 -0.006724033 1.539659e-38 290 245
-0.039101087 0.76899999 -0.0067415666 1.539659e-38 291 245
-0.03775277 0.76899999 -0.0067415666 1.5211846e-38 292 245
-0.036499143 0.77100003 -0.0067590997 1.511965e-38 293 245
-0.035238493 0.773 -0.0067766332 1.4935263e-38 294 245
-0.033927001 0.77399999 -0.0067853997 1.4566479e-38 295 245
-0.032738242 0.778 -0.0068204664 1.4103703e-38 296 245
-0.031454798 0.77999997 -0.0068379994 1.1337834e-38 297 245
-0.03020292 0.78299999 -0.0068642995 5.7203876e-39 298 245
-0.028830061 0.78299999 -0.0068642995 4.3374531e-39 299 245
-0.027457198 0.78299999 -0.0068642995 6.6409174e-39 300 245
-0.026217593 0.787 -0.0068993662 1.1158503e-38 301 245
-0.024837719 0.787 -0.0068993662 1.299847e-38 302 245
-0.068672806 0.73900002 -0.0077742799 1.861654e-38 267 246
-0.067285918 0.73799998 -0.0077637597 1.8985323e-38 268 246
-0.06599196 0.73799998 -0.0077637597 1.9077518e-38 269 246
-0.064785667 0.73900002 -0.0077742799 1.9077518e-38 270 246
-0.063489959 0.73900002 -0.0077742799 1.9169714e-38 271 246
-0.062194239 0.73900002 -0.0077742799 1.9261912e-38 272 246
-0.061063338 0.741 -0.0077953199 1.9169717e-38 273 246
-0.05984477 0.74199998 -0.0078058392 1.9077165e-38 274 246
-0.058543798 0.74199998 -0.0078058392 1.9077165e-38 275 246
-0.057242822 0.74199998 -0.0078058392 1.8801654e-38 276 246
-0.056092639 0.74400002 -0.0078268806 1.8617263e-38 277 246
-0.054788161 0.74400002 -0.0078268806 1.8341398e-38 278 246
-0.053627454 0.74599999 -0.0078479191 1.8157007e-38 279 246
-0.052389596 0.74699998 -0.0078584393 1.8157007e-38 280 246
-0.051284999 0.75 -0.00789 1.7972976e-38 281 246
-0.050103247 0.75199997 -0.0079110395 1.7972623e-38 282 246
-0.048784744 0.75199997 -0.0079110395 1.7788231e-38 283 246
-0.04759248 0.75400001 -0.00793208 1.6409278e-38 284 246
-0.04633183 0.755 -0.0079425992 1.6040495e-38 285 246
-0.045127295 0.75700003 -0.0079636406 1.5946877e-38 286 246
-0.044031456 0.76099998 -0.0080057196 1.6130909e-38 287 246
-0.042753279 0.76200002 -0.0080162399 1.539659e-38 288 246
-0.041417241 0.76200002 -0.0080162399 1.5488786e-38 289 246
-0.040291596 0.76599997 -0.0080583189 1.539659e-38 290 246
-0.038999394 0.76700002 -0.00806884 1.5304395e-38 291 246
-0.03775277 0.76899999 -0.0080898795 1.5212199e-38 292 246
-0.036499143 0.77100003 -0.0081109209 1.4751221e-38 293 246
-0.035238493 0.773 -0.0081319595 1.4750505e-38 294 246
-0.033927001 0.77399999 -0.0081424797 1.3275375e-38 295 246
-0.032654081 0.77600002 -0.0081635201 1.1337829e-38 296 246
-0.031374145 0.778 -0.0081845606 9.8630575e-39 297 246
-0.030087199 0.77999997 -0.0082055992 8.9454326e-39 298 246
-0.028830061 0.78299999 -0.0082371598 1.1158129e-38 299 246
-0.027457198 0.78299999 -0.0082371598 1.3088498e-38 300 246
-0.026084339 0.78299999 -0.0082371598 1.3365084e-38 301 246
-0.069873832 0.73799998 -0.0090577193 1.8156285e-38 266 247
-0.068579875 0.73799998 -0.0090577193 1.8248839e-38 267 247
-0.067103572 0.736 -0.0090331733 1.8985323e-38 268 247
-0.065813117 0.736 -0.0090331733 1.9077518e-38 269 247
-0.064697996 0.73799998 -0.0090577193 1.9170067e-38 270 247
-0.063404039 0.73799998 -0.0090577193 1.9170067e-38 271 247
-0.062110078 0.73799998 -0.0090577193 1.9169717e-38 272 247
-0.060816113 0.73799998 -0.0090577193 1.9077521e-38 273 247
-0.059602812 0.73900002 -0.0090699932 1.9077165e-38 274 247
-0.0583071 0.73900002 -0.0090699932 1.898497e-38 275 247
-0.057011388 0.73900002 -0.0090699932 1.8526144e-38 276 247
-0.055866458 0.741 -0.0090945391 1.8433948e-38 277 247
-0.054640878 0.74199998 -0.009106813 1.8341388e-38 278 247
-0.053339902 0.74199998 -0.009106813 1.8341388e-38 279 247
-0.052179199 0.74400002 -0.0091313599 1.8156638e-38 280 247
-0.051079858 0.74699998 -0.0091681797 1.8156638e-38 281 247
-0.049969997 0.75 -0.0092049995 1.7604919e-38 282 247
-0.048655 0.75 -0.0092049995 1.7420168e-38 283 247
-0.047466237 0.75199997 -0.0092295464 1.6408559e-38 284 247
-0.046270464 0.75400001 -0.0092540924 1.6223808e-38 285 247
-0.045008067 0.755 -0.0092663663 1.5947599e-38 286 247
-0.043800019 0.75700003 -0.0092909131 1.5855403e-38 287 247
-0.042697169 0.76099998 -0.0093400059 1.5671738e-38 288 247
-0.041417241 0.76200002 -0.0093522798 1.5671738e-38 289 247
-0.040186398 0.764 -0.0093768267 1.5395871e-38 290 247
-0.038948543 0.76599997 -0.0094013726 1.5395871e-38 291 247
-0.037654586 0.76700002 -0.0094136465 1.5118208e-38 292 247
-0.036404461 0.76899999 -0.0094381925 1.4841621e-38 293 247
-0.03514732 0.77100003 -0.0094627403 1.3735996e-38 294 247
-0.033927001 0.77399999 -0.0094995592 1.2721845e-38 295 247
-0.032654081 0.77600002 -0.009524107 1.0876137e-38 296 247
-0.031293493 0.77600002 -0.009524107 1.1152364e-38 297 247
-0.03001005 0.778 -0.0095486529 1.1891378e-38 298 247
-0.028645959 0.778 -0.0095486529 1.3089921e-38 299 247
-0.069495119 0.73400003 -0.010295574 1.8154836e-38 266 248
-0.068208173 0.73400003 -0.010295574 1.8339588e-38 267 248
-0.066921227 0.73400003 -0.010295574 1.8894203e-38 268 248
-0.06563428 0.73400003 -0.010295574 1.8986758e-38 269 248
-0.064347334 0.73400003 -0.010295574 1.9169717e-38 270 248
-0.063060381 0.73400003 -0.010295574 1.9261912e-38 271 248
-0.061941758 0.736 -0.010323626 1.8986051e-38 272 248
-0.060651302 0.736 -0.010323626 1.8986051e-38 273 248
-0.059522156 0.73799998 -0.010351679 1.88935e-38 274 248
-0.058228195 0.73799998 -0.010351679 1.8801304e-38 275 248
-0.056934237 0.73799998 -0.010351679 1.8526149e-38 276 248
-0.055715673 0.73900002 -0.010365707 1.8433954e-38 277 248
-0.054567236 0.741 -0.010393759 1.8433948e-38 278 248
-0.053268019 0.741 -0.010393759 1.8249556e-38 279 248
-0.05203893 0.74199998 -0.010407786 1.7974045e-38 280 248
-0.050874721 0.74400002 -0.01043584 1.7789654e-38 281 248
-0.04990337 0.74900001 -0.010505973 1.7145023e-38 282 248
-0.048655 0.75 -0.01052 1.67766e-38 283 248
-0.047339998 0.75 -0.01052 1.6040146e-38 284 248
-0.04614773 0.75199997 -0.010548052 1.6040146e-38 285 248
-0.045008067 0.755 -0.010590133 1.5763928e-38 286 248
-0.043684296 0.755 -0.010590133 1.5763928e-38 287 248
-0.042697169 0.76099998 -0.010674292 1.5763931e-38 288 248
-0.041417241 0.76200002 -0.01068832 1.5671735e-38 289 248
-0.040081199 0.76200002 -0.01068832 1.5212196e-38 290 248
-0.038846854 0.764 -0.010716373 1.4935969e-38 291 248
-0.037605491 0.76599997 -0.010744425 1.4750505e-38 292 248
-0.036404461 0.76899999 -0.010786506 1.4105135e-38 293 248
-0.035056144 0.76899999 -0.010786506 1.2538175e-38 294 248
-0.033795502 0.77100003 -0.01081456 1.1892806e-38 295 248
-0.032569919 0.77399999 -0.01085664 1.2535301e-38 296 248
-0.031212838 0.77399999 -0.01085664 1.3457618e-38 297 248
-0.03001005 0.778 -0.010912746 1.355053e-38 298 248
-0.069400437 0.73299998 -0.011566739 1.8155919e-38 266 249
-0.068115242 0.73299998 -0.011566739 1.8616896e-38 267 249
-0.066830046 0.73299998 -0.011566739 1.916972e-38 268 249
-0.065544859 0.73299998 -0.011566739 1.916972e-38 269 249
-0.064259663 0.73299998 -0.011566739 1.916972e-38 270 249
-0.063060381 0.73400003 -0.011582521 1.9261915e-38 271 249
-0.061773442 0.73400003 -0.011582521 1.9169364e-38 272 249
-0.060486492 0.73400003 -0.011582521 1.9077168e-38 273 249
-0.059360851 0.736 -0.01161408 1.8709109e-38 274 249
-0.058070395 0.736 -0.01161408 1.8709109e-38 275 249
-0.056779943 0.736 -0.01161408 1.8526149e-38 276 249
-0.055640277 0.73799998 -0.011645639 1.8433954e-38 277 249
-0.054346316 0.73799998 -0.011645639 1.8341751e-38 278 249
-0.053268019 0.741 -0.01169298 1.815736e-38 279 249
-0.051968798 0.741 -0.01169298 1.7881493e-38 280 249
-0.050669577 0.741 -0.01169298 1.7605267e-38 281 249
-0.04970349 0.74599999 -0.011771879 1.6684417e-38 282 249
-0.048590127 0.74900001 -0.01181922 1.6500026e-38 283 249
-0.047276881 0.74900001 -0.01181922 1.5948317e-38 284 249
-0.046024997 0.75 -0.011835 1.5948317e-38 285 249
-0.044948451 0.75400001 -0.01189812 1.5947963e-38 286 249
-0.043626439 0.75400001 -0.01189812 1.5763931e-38 287 249
-0.042472746 0.75700003 -0.01194546 1.5671738e-38 288 249
-0.041362885 0.76099998 -0.012008579 1.5579184e-38 289 249
-0.040081199 0.76200002 -0.01202436 1.5302597e-38 290 249
-0.038846854 0.764 -0.01205592 1.5026369e-38 291 249
-0.037507307 0.764 -0.01205592 1.428845e-38 292 249
-0.036309779 0.76700002 -0.01210326 1.3643081e-38 293 249
-0.035056144 0.76899999 -0.012134819 1.2537101e-38 294 249
-0.033707831 0.76899999 -0.012134819 1.2537101e-38 295 249
-0.032569919 0.77399999 -0.01221372 1.2998431e-38 296 249
-0.031212838 0.77399999 -0.01221372 1.2998431e-38 297 249
-0.072956197 0.73000002 -0.012799333 1.815701e-38 263 250
-0.071479887 0.72799999 -0.012764266 1.8341385e-38 264 250
-0.070203468 0.72799999 -0.012764266 1.8341385e-38 265 250
-0.068927035 0.72799999 -0.012764266 1.8433581e-38 266 250
-0.067836471 0.73000002 -0.012799333 1.8894559e-38 267 250
-0.066556528 0.73000002 -0.012799333 1.8894209e-38 268 250
-0.0652766 0.73000002 -0.012799333 1.8986404e-38 269 250
-0.064084329 0.73100001 -0.012816866 1.8986404e-38 270 250
-0.062802643 0.73100001 -0.012816866 1.8986404e-38 271 250
-0.06152096 0.73100001 -0.012816866 1.9077165e-38 272 250
-0.060404085 0.73299998 -0.012851933 1.898497e-38 273 250
-0.059199546 0.73400003 -0.012869466 1.8709109e-38 274 250
-0.057912603 0.73400003 -0.012869466 1.8616913e-38 275 250
-0.056779943 0.736 -0.012904533 1.8525793e-38 276 250
-0.055489492 0.736 -0.012904533 1.8341401e-38 277 250
-0.054346316 0.73799998 -0.012939599 1.8249202e-38 278 250
-0.053052358 0.73799998 -0.012939599 1.7972976e-38 279 250
-0.051828533 0.73900002 -0.012957133 1.7788947e-38 280 250
-0.050532822 0.73900002 -0.012957133 1.7420524e-38 281 250
-0.04957024 0.74400002 -0.0130448 1.6316361e-38 282 250
-0.048460379 0.74699998 -0.013097399 1.6224164e-38 283 250
-0.047276881 0.74900001 -0.013132467 1.5948317e-38 284 250
-0.046024997 0.75 -0.01315 1.5948317e-38 285 250
-0.044948451 0.75400001 -0.013220133 1.5763931e-38 286 250
-0.043626439 0.75400001 -0.013220133 1.5671735e-38 287 250
-0.042472746 0.75700003 -0.013272733 1.5762855e-38 288 250
-0.041254178 0.759 -0.0133078 1.5578465e-38 289 250
-0.040081199 0.76200002 -0.0133604 1.5301879e-38 290 250
-0.038745161 0.76200002 -0.0133604 1.5024934e-38 291 250
-0.037409119 0.76200002 -0.0133604 1.3643078e-38 292 250
-0.036309779 0.76700002 -0.013448066 1.2997709e-38 293 250
-0.034964975 0.76700002 -0.013448066 1.2998428e-38 294 250
-0.033707831 0.76899999 -0.013483133 1.3090623e-38 295 250
-0.032359518 0.76899999 -0.013483133 1.2907315e-38 296 250
-0.079355866 0.73000002 -0.014079267 1.6872446e-38 258 251
-0.077862024 0.72799999 -0.014040692 1.5212925e-38 259 251
-0.076585598 0.72799999 -0.014040692 1.7143215e-38 260 251
-0.075309172 0.72799999 -0.014040692 1.7696029e-38 261 251
-0.074032739 0.72799999 -0.014040692 1.7972976e-38 262 251
-0.072756313 0.72799999 -0.014040692 1.8341398e-38 263 251
-0.071381703 0.727 -0.014021406 1.8433231e-38 264 251
-0.069914162 0.72500002 -0.013982833 1.8617263e-38 265 251
-0.068643004 0.72500002 -0.013982833 1.8709815e-38 266 251
-0.067557678 0.727 -0.014021406 1.8894206e-38 267 251
-0.066374183 0.72799999 -0.014040692 1.8802376e-38 268 251
-0.065097757 0.72799999 -0.014040692 1.8894572e-38 269 251
-0.063821331 0.72799999 -0.014040692 1.916972e-38 270 251
-0.062458992 0.727 -0.014021406 1.9077165e-38 271 251
-0.061184317 0.727 -0.014021406 1.8984972e-38 272 251
-0.059909642 0.727 -0.014021406 1.8800941e-38 273 251
-0.058715623 0.72799999 -0.014040692 1.8616913e-38 274 251
-0.057597004 0.73000002 -0.014079267 1.8616913e-38 275 251
-0.056625653 0.73400003 -0.014156413 1.8433601e-38 276 251
-0.055338707 0.73400003 -0.014156413 1.8248849e-38 277 251
-0.05419904 0.736 -0.014194986 1.8249205e-38 278 251
-0.052908584 0.736 -0.014194986 1.7880424e-38 279 251
-0.051618133 0.736 -0.014194986 1.7605282e-38 280 251
-0.050327681 0.736 -0.014194986 1.7052108e-38 281 251
-0.049370356 0.741 -0.01429142 1.6223808e-38 282 251
-0.048395503 0.74599999 -0.014387853 1.6316363e-38 283 251
-0.047150634 0.74699998 -0.014407139 1.5857203e-38 284 251
-0.045963634 0.74900001 -0.014445714 1.5857203e-38 285 251
-0.044709999 0.75 -0.014465 1.5672454e-38 286 251
-0.043626439 0.75400001 -0.014542146 1.5672454e-38 287 251
-0.042304426 0.75400001 -0.014542146 1.5486988e-38 288 251
-0.040982414 0.75400001 -0.014542146 1.5302597e-38 289 251
-0.040028598 0.76099998 -0.014677152 1.4841621e-38 290 251
-0.038694311 0.76099998 -0.014677152 1.4472839e-38 291 251
-0.037409119 0.76200002 -0.01469644 1.3643078e-38 292 251
-0.036309779 0.76700002 -0.014792874 1.31821e-38 293 251
-0.034964975 0.76700002 -0.014792874 1.3183542e-38 294 251
-0.033707831 0.76899999 -0.014831445 1.2354142e-38 295 251
-0.079355866 0.73000002 -0.0153592 1.6224187e-38 258 252
-0.077862024 0.72799999 -0.01531712 1.6039796e-38 259 252
-0.076585598 0.72799999 -0.01531712 1.7420871e-38 260 252
-0.075309172 0.72799999 -0.01531712 1.7789654e-38 261 252
-0.074032739 0.72799999 -0.01531712 1.8523979e-38 262 252
-0.072756313 0.72799999 -0.01531712 1.8800206e-38 263 252
-0.071185336 0.72500002 -0.015254001 1.8617616e-38 264 252
-0.069721296 0.72299999 -0.015211919 1.8709812e-38 265 252
-0.06845364 0.72299999 -0.015211919 1.9077521e-38 266 252
-0.067371838 0.72500002 -0.015254001 1.9077521e-38 267 252
-0.06628301 0.727 -0.015296079 1.9261915e-38 268 252
-0.065008335 0.727 -0.015296079 1.916972e-38 269 252
-0.06373366 0.727 -0.015296079 1.9169717e-38 270 252
-0.062287167 0.72500002 -0.015254001 1.9077521e-38 271 252
-0.061016005 0.72500002 -0.015254001 1.898497e-38 272 252
-0.059744831 0.72500002 -0.015254001 1.8800938e-38 273 252
-0.058634974 0.727 -0.015296079 1.8616913e-38 274 252
-0.057360299 0.727 -0.015296079 1.8616913e-38 275 252
-0.056085624 0.727 -0.015296079 1.843288e-38 276 252
-0.055263311 0.73299998 -0.015422319 1.8340685e-38 277 252
-0.053978115 0.73299998 -0.015422319 1.8248484e-38 278 252
-0.052764814 0.73400003 -0.01544336 1.8064092e-38 279 252
-0.051618133 0.736 -0.015485439 1.7420538e-38 280 252
-0.050327681 0.736 -0.015485439 1.6867364e-38 281 252
-0.049237106 0.73900002 -0.01554856 1.6131262e-38 282 252
-0.048265759 0.74400002 -0.015653761 1.6223459e-38 283 252
-0.047150634 0.74699998 -0.015716879 1.5948317e-38 284 252
-0.045963634 0.74900001 -0.01575896 1.5764284e-38 285 252
-0.044709999 0.75 -0.01578 1.5763928e-38 286 252
-0.043394998 0.75 -0.01578 1.5579537e-38 287 252
-0.04208 0.75 -0.01578 1.5394795e-38 288 252
-0.040982414 0.75400001 -0.01586416 1.5026013e-38 289 252
-0.040028598 0.76099998 -0.016011439 1.4473562e-38 290 252
-0.038694311 0.76099998 -0.016011439 1.4012584e-38 291 252
-0.037360024 0.76099998 -0.016011439 1.3735627e-38 292 252
-0.080414876 0.72799999 -0.016593546 1.5766506e-38 257 253
-0.07913845 0.72799999 -0.016593546 1.6681915e-38 258 253
-0.077862024 0.72799999 -0.016593546 1.7051057e-38 259 253
-0.076585598 0.72799999 -0.016593546 1.7696029e-38 260 253
-0.075205728 0.727 -0.016570752 1.8157007e-38 261 253
-0.073931053 0.727 -0.016570752 1.8249556e-38 262 253
-0.072656378 0.727 -0.016570752 1.8526144e-38 263 253
-0.070988953 0.72299999 -0.01647958 1.8618345e-38 264 253
-0.069721296 0.72299999 -0.01647958 1.8802376e-38 265 253
-0.06845364 0.72299999 -0.01647958 1.8986051e-38 266 253
-0.067185976 0.72299999 -0.01647958 1.9078247e-38 267 253
-0.066100664 0.72500002 -0.016525166 1.8986767e-38 268 253
-0.064829499 0.72500002 -0.016525166 1.9078964e-38 269 253
-0.063558333 0.72500002 -0.016525166 1.9169717e-38 270 253
-0.062115334 0.72299999 -0.01647958 1.8985325e-38 271 253
-0.060847677 0.72299999 -0.01647958 1.898497e-38 272 253
-0.059580017 0.72299999 -0.01647958 1.8800938e-38 273 253
-0.058312356 0.72299999 -0.01647958 1.8616913e-38 274 253
-0.057044696 0.72299999 -0.01647958 1.8616913e-38 275 253
-0.055777039 0.72299999 -0.01647958 1.8433601e-38 276 253
-0.054509375 0.72299999 -0.01647958 1.8248849e-38 277 253
-0.053388998 0.72500002 -0.016525166 1.806554e-38 278 253
-0.052477267 0.73000002 -0.016639132 1.788079e-38 279 253
-0.051407732 0.73299998 -0.016707512 1.7236872e-38 280 253
-0.050190922 0.73400003 -0.016730307 1.6683698e-38 281 253
-0.049237106 0.73900002 -0.016844273 1.5947947e-38 282 253
-0.048136011 0.74199998 -0.016912652 1.6040142e-38 283 253
-0.046835039 0.74199998 -0.016912652 1.5764648e-38 284 253
-0.045840897 0.74699998 -0.017026618 1.5764648e-38 285 253
-0.044531155 0.74699998 -0.017026618 1.5671735e-38 286 253
-0.043221418 0.74699998 -0.017026618 1.5487344e-38 287 253
-0.041911677 0.74699998 -0.017026618 1.4934533e-38 288 253
-0.040601939 0.74699998 -0.017026618 1.4658306e-38 289 253
-0.039292198 0.74699998 -0.017026618 1.382999e-38 290 253
-0.080083504 0.72500002 -0.017796334 1.5398057e-38 257 254
-0.078812331 0.72500002 -0.017796334 1.6681899e-38 258 254
-0.077541165 0.72500002 -0.017796334 1.7327269e-38 259 254
-0.076269999 0.72500002 -0.017796334 1.7513083e-38 260 254
-0.074998833 0.72500002 -0.017796334 1.7790029e-38 261 254
-0.073727667 0.72500002 -0.017796334 1.8158089e-38 262 254
-0.072256617 0.72299999 -0.017747238 1.8434317e-38 263 254
-0.070988953 0.72299999 -0.017747238 1.8801304e-38 264 254
-0.069624864 0.722 -0.017722692 1.8986054e-38 265 254
-0.068358958 0.722 -0.017722692 1.9078247e-38 266 254
-0.067093052 0.722 -0.017722692 1.9078247e-38 267 254
-0.065827139 0.722 -0.017722692 1.9354109e-38 268 254
-0.064561233 0.722 -0.017722692 1.9261912e-38 269 254
-0.063295327 0.722 -0.017722692 1.9261194e-38 270 254
-0.062029421 0.722 -0.017722692 1.9076802e-38 271 254
-0.060763516 0.722 -0.017722692 1.8984607e-38 272 254
-0.059497613 0.722 -0.017722692 1.8984607e-38 273 254
-0.058231708 0.722 -0.017722692 1.8709462e-38 274 254
-0.056965802 0.722 -0.017722692 1.8617266e-38 275 254
-0.055545598 0.72000003 -0.017673599 1.8433954e-38 276 254
-0.054283202 0.72000003 -0.017673599 1.8249202e-38 277 254
-0.053020801 0.72000003 -0.017673599 1.7973694e-38 278 254
-0.051902171 0.722 -0.017722692 1.7788945e-38 279 254
-0.051057063 0.72799999 -0.017869972 1.7052833e-38 280 254
-0.050190922 0.73400003 -0.018017253 1.6684051e-38 281 254
-0.049237106 0.73900002 -0.018139986 1.6223459e-38 282 254
-0.048071139 0.741 -0.018189078 1.6315654e-38 283 254
-0.046835039 0.74199998 -0.018213626 1.5948317e-38 284 254
-0.045534063 0.74199998 -0.018213626 1.5672088e-38 285 254
-0.044352323 0.74400002 -0.01826272 1.5855401e-38 286 254
-0.043047838 0.74400002 -0.01826272 1.548662e-38 287 254
-0.04185557 0.74599999 -0.018311813 1.5118561e-38 288 254
-0.040547583 0.74599999 -0.018311813 1.4380996e-38 289 254
-0.08135467 0.72500002 -0.0190675 1.6318569e-38 256 255
-0.080083504 0.72500002 -0.0190675 1.5581004e-38 257 255
-0.078812331 0.72500002 -0.0190675 1.6959562e-38 258 255
-0.077541165 0.72500002 -0.0190675 1.742054e-38 259 255
-0.076269999 0.72500002 -0.0190675 1.7697833e-38 260 255
-0.074998833 0.72500002 -0.0190675 1.797406e-38 261 255
-0.073524274 0.72299999 -0.019014901 1.8250286e-38 262 255
-0.072156675 0.722 -0.0189886 1.8526512e-38 263 255
-0.070694394 0.72000003 -0.018935999 1.8802023e-38 264 255
-0.069335558 0.71899998 -0.018909698 1.8986773e-38 265 255
-0.068074919 0.71899998 -0.018909698 1.907825e-38 266 255
-0.066535495 0.71600002 -0.0188308 1.9262282e-38 267 255
-0.06528011 0.71600002 -0.0188308 1.926228e-38 268 255
-0.064024724 0.71600002 -0.0188308 1.9078247e-38 269 255
-0.062769331 0.71600002 -0.0188308 1.9261915e-38 270 255
-0.061599858 0.71700001 -0.018857099 1.9077165e-38 271 255
-0.06025856 0.71600002 -0.0188308 1.880166e-38 272 255
-0.059003171 0.71600002 -0.0188308 1.880166e-38 273 255
-0.057747785 0.71600002 -0.0188308 1.8525793e-38 274 255
-0.056571297 0.71700001 -0.018857099 1.8525793e-38 275 255
-0.055314157 0.71700001 -0.018857099 1.843432e-38 276 255
-0.054057021 0.71700001 -0.018857099 1.8157733e-38 277 255
-0.05294716 0.71899998 -0.018909698 1.7974063e-38 278 255
-0.05168651 0.71899998 -0.018909698 1.7697478e-38 279 255
-0.050425861 0.71899998 -0.018909698 1.6960284e-38 280 255
-0.050669577 0.741 -0.019488299 1.6775894e-38 281 255
-0.049370356 0.741 -0.019488299 1.6132342e-38 282 255
-0.048071139 0.741 -0.019488299 1.6040146e-38 283 255
-0.046835039 0.74199998 -0.0195146 1.5763928e-38 284 255
-0.045534063 0.74199998 -0.0195146 1.5671732e-38 285 255
-0.044352323 0.74400002 -0.019567199 1.5487344e-38 286 255
-0.043047838 0.74400002 -0.019567199 1.5487344e-38 287 255
-0.04185557 0.74599999 -0.019619798 1.5024931e-38 288 255
-0.040547583 0.74599999 -0.019619798 1.3918942e-38 289 255
-0.082283929 0.722 -0.020254506 1.7058347e-38 255 256
-0.081130236 0.72299999 -0.020282559 1.6039458e-38 256 256
-0.07986258 0.72299999 -0.020282559 1.6039458e-38 257 256
-0.078594916 0.72299999 -0.020282559 1.7052114e-38 258 256
-0.077541165 0.72500002 -0.020338668 1.7420538e-38 259 256
-0.076059602 0.72299999 -0.020282559 1.7697828e-38 260 256
-0.074791931 0.72299999 -0.020282559 1.8066609e-38 261 256
-0.073422581 0.722 -0.020254506 1.8434314e-38 262 256
-0.07165698 0.71700001 -0.020114239 1.8619064e-38 263 256
-0.070399836 0.71700001 -0.020114239 1.8711262e-38 264 256
-0.069142699 0.71700001 -0.020114239 1.8803458e-38 265 256
-0.067790881 0.71600002 -0.020086186 1.926228e-38 266 256
-0.066349633 0.71399999 -0.020030079 1.9354475e-38 267 256
-0.065006584 0.713 -0.020002026 1.9171163e-38 268 256
-0.063756458 0.713 -0.020002026 1.9078967e-38 269 256
-0.062506333 0.713 -0.020002026 1.8986051e-38 270 256
-0.061256204 0.713 -0.020002026 1.8893856e-38 271 256
-0.060006075 0.713 -0.020002026 1.8801304e-38 272 256
-0.058755953 0.713 -0.020002026 1.8801304e-38 273 256
-0.057505824 0.713 -0.020002026 1.8709109e-38 274 256
-0.056255698 0.713 -0.020002026 1.8709109e-38 275 256
-0.055005573 0.713 -0.020002026 1.8525796e-38 276 256
-0.053830836 0.71399999 -0.020030079 1.8341404e-38 277 256
-0.052799881 0.71700001 -0.020114239 1.8065537e-38 278 256
-0.051542737 0.71700001 -0.020114239 1.7881146e-38 279 256
-0.0502856 0.71700001 -0.020114239 1.6777332e-38 280 256
-0.04902846 0.71700001 -0.020114239 1.6501105e-38 281 256
-0.049436983 0.74199998 -0.020815572 1.6132345e-38 282 256
-0.048136011 0.74199998 -0.020815572 1.6040149e-38 283 256
-0.046835039 0.74199998 -0.020815572 1.5947599e-38 284 256
-0.045534063 0.74199998 -0.020815572 1.5762849e-38 285 256
-0.044233091 0.74199998 -0.020815572 1.5486272e-38 286 256
-0.042932119 0.74199998 -0.020815572 1.5117129e-38 287 256
-0.04174336 0.74400002 -0.02087168 1.4103701e-38 288 256
-0.040438879 0.74400002 -0.02087168 1.2720766e-38 289 256
-0.082283929 0.722 -0.021520413 1.6321128e-38 255 257
-0.081018023 0.722 -0.021520413 1.5853976e-38 256 257
-0.079752117 0.722 -0.021520413 1.6407149e-38 257 257
-0.078486212 0.722 -0.021520413 1.7510931e-38 258 257
-0.077220306 0.722 -0.021520413 1.7695682e-38 259 257
-0.075638793 0.71899998 -0.021430992 1.7697828e-38 260 257
-0.07417126 0.71700001 -0.021371379 1.8066609e-38 261 257
-0.072812423 0.71600002 -0.021341572 1.8343197e-38 262 257
-0.071257219 0.713 -0.021252153 1.8435752e-38 263 257
-0.070007093 0.713 -0.021252153 1.8894575e-38 264 257
-0.068756968 0.713 -0.021252153 1.898677e-38 265 257
-0.067506835 0.713 -0.021252153 1.9078614e-38 266 257
-0.066256717 0.713 -0.021252153 1.9078614e-38 267 257
-0.064824238 0.71100003 -0.021192541 1.917081e-38 268 257
-0.063577622 0.71100003 -0.021192541 1.9078614e-38 269 257
-0.062331002 0.71100003 -0.021192541 1.907825e-38 270 257
-0.061256204 0.713 -0.021252153 1.8986054e-38 271 257
-0.059837762 0.71100003 -0.021192541 1.8801304e-38 272 257
-0.058591139 0.71100003 -0.021192541 1.8709109e-38 273 257
-0.057344519 0.71100003 -0.021192541 1.8525793e-38 274 257
-0.056255698 0.713 -0.021252153 1.8525793e-38 275 257
-0.055005573 0.713 -0.021252153 1.8525793e-38 276 257
-0.053755447 0.713 -0.021252153 1.8341401e-38 277 257
-0.052578956 0.71399999 -0.021281958 1.8065537e-38 278 257
-0.051470853 0.71600002 -0.021341572 1.778895e-38 279 257
-0.050215468 0.71600002 -0.021341572 1.6961007e-38 280 257
-0.048960082 0.71600002 -0.021341572 1.668442e-38 281 257
-0.049436983 0.74199998 -0.022116546 1.6132345e-38 282 257
-0.048136011 0.74199998 -0.022116546 1.6040149e-38 283 257
-0.046835039 0.74199998 -0.022116546 1.5946524e-38 284 257
-0.045534063 0.74199998 -0.022116546 1.5854329e-38 285 257
-0.044173479 0.741 -0.02208674 1.530297e-38 286 257
-0.042874258 0.741 -0.02208674 1.3920035e-38 287 257
-0.041575037 0.741 -0.02208674 1.2448149e-38 288 257
-0.04027582 0.741 -0.02208674 1.0604235e-38 289 257
-0.081942029 0.71899998 -0.022691639 1.6043816e-38 255 258
-0.080681384 0.71899998 -0.022691639 1.6037278e-38 256 258
-0.07942073 0.71899998 -0.022691639 1.6590452e-38 257 258
-0.077942684 0.71700001 -0.02262852 1.7603483e-38 258 258
-0.076685533 0.71700001 -0.02262852 1.7787875e-38 259 258
-0.075323202 0.71600002 -0.022596961 1.7973339e-38 260 258
-0.073860914 0.71399999 -0.022533838 1.8158089e-38 261 258
-0.072303966 0.71100003 -0.022439159 1.8434317e-38 262 258
-0.070957392 0.70999998 -0.022407599 1.8618708e-38 263 258
-0.069712527 0.70999998 -0.022407599 1.8986054e-38 264 258
-0.068467662 0.70999998 -0.022407599 1.907825e-38 265 258
-0.067222796 0.70999998 -0.022407599 1.9262282e-38 266 258
-0.065977924 0.70999998 -0.022407599 1.9262282e-38 267 258
-0.064733058 0.70999998 -0.022407599 1.917081e-38 268 258
-0.063309364 0.708 -0.022344479 1.917081e-38 269 258
-0.062068 0.708 -0.022344479 1.8986417e-38 270 258
-0.060998458 0.70999998 -0.022407599 1.8894221e-38 271 258
-0.059753593 0.70999998 -0.022407599 1.8617989e-38 272 258
-0.058508728 0.70999998 -0.022407599 1.8525793e-38 273 258
-0.057263866 0.70999998 -0.022407599 1.8617263e-38 274 258
-0.056018997 0.70999998 -0.022407599 1.8617263e-38 275 258
-0.054851279 0.71100003 -0.022439159 1.8341754e-38 276 258
-0.053604662 0.71100003 -0.022439159 1.8249558e-38 277 258
-0.052505318 0.713 -0.022502279 1.7974057e-38 278 258
-0.05132708 0.71399999 -0.022533838 1.7697831e-38 279 258
-0.050075196 0.71399999 -0.022533838 1.7144678e-38 280 258
-0.048960082 0.71600002 -0.022596961 1.6775897e-38 281 258
-0.049436983 0.74199998 -0.023417519 1.6132345e-38 282 258
-0.048071139 0.741 -0.023385961 1.6040149e-38 283 258
-0.046771921 0.741 -0.023385961 1.5947243e-38 284 258
-0.045472696 0.741 -0.023385961 1.5578821e-38 285 258
-0.044054255 0.73900002 -0.023322839 1.4750871e-38 286 258
-0.042758539 0.73900002 -0.023322839 1.1985002e-38 287 258
-0.041575037 0.741 -0.023385961 1.0236174e-38 288 258
-0.081714094 0.71700001 -0.02388566 1.5950172e-38 255 259
-0.080456957 0.71700001 -0.02388566 1.6313492e-38 256 259
-0.079089358 0.71600002 -0.023852346 1.6866307e-38 257 259
-0.07761655 0.71399999 -0.02378572 1.714466e-38 258 259
-0.076364681 0.71399999 -0.02378572 1.7605638e-38 259 259
-0.075007595 0.713 -0.023752406 1.7789673e-38 260 259
-0.073550582 0.71100003 -0.023685781 1.8066259e-38 261 259
-0.071998879 0.708 -0.023585839 1.8526162e-38 262 259
-0.070757516 0.708 -0.023585839 1.8618358e-38 263 259
-0.069516152 0.708 -0.023585839 1.8894224e-38 264 259
-0.068274796 0.708 -0.023585839 1.898642e-38 265 259
-0.067033432 0.708 -0.023585839 1.8986064e-38 266 259
-0.065792084 0.708 -0.023585839 1.8986064e-38 267 259
-0.06455072 0.708 -0.023585839 1.9170815e-38 268 259
-0.063219935 0.70700002 -0.023552528 1.9170815e-38 269 259
-0.061980337 0.70700002 -0.023552528 1.8986773e-38 270 259
-0.060740728 0.70700002 -0.023552528 1.8894219e-38 271 259
-0.059585281 0.708 -0.023585839 1.8985325e-38 272 259
-0.058343921 0.708 -0.023585839 1.8800936e-38 273 259
-0.057102561 0.708 -0.023585839 1.8801292e-38 274 259
-0.055861197 0.708 -0.023585839 1.8709096e-38 275 259
-0.054774132 0.70999998 -0.023652466 1.8433228e-38 276 259
-0.053529263 0.70999998 -0.023652466 1.8341032e-38 277 259
-0.052358042 0.71100003 -0.023685781 1.8157004e-38 278 259
-0.051111419 0.71100003 -0.023685781 1.7880777e-38 279 259
-0.049864799 0.71100003 -0.023685781 1.7329424e-38 280 259
-0.048823316 0.71399999 -0.02378572 1.677625e-38 281 259
-0.047571439 0.71399999 -0.02378572 1.6223813e-38 282 259
-0.046319555 0.71399999 -0.02378572 1.6131259e-38 283 259
-0.046771921 0.741 -0.024685178 1.5948319e-38 284 259
-0.045165867 0.736 -0.024518613 1.5118559e-38 285 259
-0.043875411 0.736 -0.024518613 1.382964e-38 286 259
-0.042700678 0.73799998 -0.024585238 1.0418402e-38 287 259
-0.082971238 0.71700001 -0.0251428 1.6688446e-38 254 260
-0.081714094 0.71700001 -0.0251428 1.5489903e-38 255 260
-0.080344744 0.71600002 -0.025107734 1.6681546e-38 256 260
-0.078868434 0.71399999 -0.025037598 1.723472e-38 257 260
-0.077507854 0.713 -0.025002534 1.7512716e-38 258 260
-0.076043822 0.71100003 -0.024932399 1.7604913e-38 259 260
-0.074797198 0.71100003 -0.024932399 1.7974413e-38 260 260
-0.073447131 0.70999998 -0.024897331 1.8066609e-38 261 260
-0.071998879 0.708 -0.024827199 1.8525793e-38 262 260
-0.070657574 0.70700002 -0.024792133 1.8617989e-38 263 260
-0.069417976 0.70700002 -0.024792133 1.88935e-38 264 260
-0.068178371 0.70700002 -0.024792133 1.8986054e-38 265 260
-0.066938758 0.70700002 -0.024792133 1.8985698e-38 266 260
-0.065699153 0.70700002 -0.024792133 1.9077894e-38 267 260
-0.064459547 0.70700002 -0.024792133 1.907897e-38 268 260
-0.063130513 0.70599997 -0.024757065 1.9171166e-38 269 260
-0.061892662 0.70599997 -0.024757065 1.9078247e-38 270 260
-0.060654808 0.70599997 -0.024757065 1.8986051e-38 271 260
-0.059416957 0.70599997 -0.024757065 1.8801657e-38 272 260
-0.05826151 0.70700002 -0.024792133 1.8801657e-38 273 260
-0.057021905 0.70700002 -0.024792133 1.8526149e-38 274 260
-0.055861197 0.708 -0.024827199 1.8433954e-38 275 260
-0.054619838 0.708 -0.024827199 1.8433954e-38 276 260
-0.053378478 0.708 -0.024827199 1.8341398e-38 277 260
-0.052284397 0.70999998 -0.024897331 1.7974413e-38 278 260
-0.051039528 0.70999998 -0.024897331 1.7605632e-38 279 260
-0.049794663 0.70999998 -0.024897331 1.7421617e-38 280 260
-0.048618179 0.71100003 -0.024932399 1.6960278e-38 281 260
-0.047371563 0.71100003 -0.024932399 1.5947593e-38 282 260
-0.046124939 0.71100003 -0.024932399 1.6040149e-38 283 260
-0.044878319 0.71100003 -0.024932399 1.5765373e-38 284 260
-0.045165867 0.736 -0.025809066 1.4013656e-38 285 260
-0.043875411 0.736 -0.025809066 1.2169763e-38 286 260
-0.082971238 0.71700001 -0.02639994 1.6320018e-38 254 261
-0.081714094 0.71700001 -0.02639994 1.521331e-38 255 261
-0.080344744 0.71600002 -0.026363119 1.6774818e-38 256 261
-0.078868434 0.71399999 -0.026289478 1.7143959e-38 257 261
-0.077290438 0.71100003 -0.026179021 1.7420886e-38 258 261
-0.075936861 0.70999998 -0.026142199 1.7697833e-38 259 261
-0.074691996 0.70999998 -0.026142199 1.7789673e-38 260 261
-0.073447131 0.70999998 -0.026142199 1.8066259e-38 261 261
-0.071897186 0.70700002 -0.02603174 1.8249932e-38 262 261
-0.070657574 0.70700002 -0.02603174 1.8526159e-38 263 261
-0.069319785 0.70599997 -0.025994917 1.8802023e-38 264 261
-0.06808193 0.70599997 -0.025994917 1.8894219e-38 265 261
-0.066844068 0.70599997 -0.025994917 1.880167e-38 266 261
-0.065420374 0.704 -0.02592128 1.8894224e-38 267 261
-0.064186029 0.704 -0.02592128 1.8895305e-38 268 261
-0.062951677 0.704 -0.02592128 1.8895305e-38 269 261
-0.061629668 0.70300001 -0.025884461 1.9262635e-38 270 261
-0.06039707 0.70300001 -0.025884461 1.9078603e-38 271 261
-0.059164476 0.70300001 -0.025884461 1.9077518e-38 272 261
-0.058014292 0.704 -0.02592128 1.9077518e-38 273 261
-0.056941248 0.70599997 -0.025994917 1.8985325e-38 274 261
-0.055782299 0.70700002 -0.02603174 1.8800936e-38 275 261
-0.054542694 0.70700002 -0.02603174 1.8433954e-38 276 261
-0.053378478 0.708 -0.026068559 1.8341398e-38 277 261
-0.052137118 0.708 -0.026068559 1.8065887e-38 278 261
-0.050895758 0.708 -0.026068559 1.7881496e-38 279 261
-0.049794663 0.70999998 -0.026142199 1.7329774e-38 280 261
-0.048549797 0.70999998 -0.026142199 1.7145023e-38 281 261
-0.047304932 0.70999998 -0.026142199 1.6223459e-38 282 261
-0.046060063 0.70999998 -0.026142199 1.6223459e-38 283 261
-0.044815198 0.70999998 -0.026142199 1.5856494e-38 284 261
-0.082508355 0.713 -0.027502786 1.6227465e-38 254 262
-0.08125823 0.713 -0.027502786 1.5028923e-38 255 262
-0.080008104 0.713 -0.027502786 1.6683345e-38 256 262
-0.078537062 0.71100003 -0.027425639 1.7052126e-38 257 262
-0.077181734 0.70999998 -0.027387066 1.7512363e-38 258 262
-0.075936861 0.70999998 -0.027387066 1.778895e-38 259 262
-0.074376404 0.70700002 -0.027271347 1.8248849e-38 260 262
-0.07303334 0.70599997 -0.027232772 1.8248849e-38 261 262
-0.071795486 0.70599997 -0.027232772 1.8250288e-38 262 262
-0.070557632 0.70599997 -0.027232772 1.843432e-38 263 262
-0.069319785 0.70599997 -0.027232772 1.880166e-38 264 262
-0.06808193 0.70599997 -0.027232772 1.880166e-38 265 262
-0.066560037 0.70300001 -0.027117053 1.8801304e-38 266 262
-0.064676955 0.69599998 -0.026847038 1.8986054e-38 267 262
-0.063456632 0.69599998 -0.026847038 1.8986417e-38 268 262
-0.062236317 0.69599998 -0.026847038 1.9078614e-38 269 262
-0.061015997 0.69599998 -0.026847038 1.898677e-38 270 262
-0.059795678 0.69599998 -0.026847038 1.9078967e-38 271 262
-0.058575355 0.69599998 -0.026847038 1.8894575e-38 272 262
-0.057355035 0.69599998 -0.026847038 1.8894575e-38 273 262
