# .PCD v.7 - Point Cloud Data file format
FIELDS x y z rgb imX imY
SIZE 4 4 4 4 4 4
TYPE F F F F F F
COUNT 1 1 1 1 1 1
WIDTH 854
HEIGHT 1
VIEWPOINT 0 0 0 1 0 0 0
POINTS 854
DATA ascii
0.027416872 0.82300001 0.037517827 1.2533834e-38 339 214
0.028859867 0.82300001 0.037517827 1.2442722e-38 340 214
0.03030286 0.82300001 0.037517827 1.2626753e-38 341 214
0.031668708 0.82099998 0.037426651 1.2994096e-38 342 214
0.03310819 0.82099998 0.037426651 1.3086292e-38 343 214
0.034547675 0.82099998 0.037426651 1.2995897e-38 344 214
0.035899501 0.81900001 0.037335481 1.3364321e-38 345 214
0.037335481 0.81900001 0.037335481 1.355123e-38 346 214
0.03867678 0.81699997 0.037244301 1.4104404e-38 347 214
0.040109251 0.81699997 0.037244301 1.4840154e-38 348 214
0.041440032 0.815 0.037153132 1.5208937e-38 349 214
0.042869002 0.815 0.037153132 1.5853571e-38 350 214
0.044189259 0.81300002 0.03706196 1.6037602e-38 351 214
0.045614719 0.81300002 0.03706196 1.5946131e-38 352 214
0.047040179 0.81300002 0.03706196 1.6130881e-38 353 214
0.048465639 0.81300002 0.03706196 1.6406035e-38 354 214
0.049891099 0.81300002 0.03706196 1.649859e-38 355 214
0.051316559 0.81300002 0.03706196 1.6682621e-38 356 214
0.052742019 0.81300002 0.03706196 1.6774818e-38 357 214
0.054167479 0.81300002 0.03706196 1.6867364e-38 358 214
0.055592939 0.81300002 0.03706196 1.6959559e-38 359 214
0.057018399 0.81300002 0.03706196 1.7143215e-38 360 214
0.058300085 0.81099999 0.036970787 1.7050659e-38 361 214
0.05972204 0.81099999 0.036970787 1.7326157e-38 362 214
0.061143994 0.81099999 0.036970787 1.7233962e-38 363 214
0.062565938 0.81099999 0.036970787 1.7049565e-38 364 214
0.063987896 0.81099999 0.036970787 1.6773338e-38 365 214
0.065409854 0.81099999 0.036970787 1.6955557e-38 366 214
0.066831805 0.81099999 0.036970787 1.6771167e-38 367 214
0.068253763 0.81099999 0.036970787 1.6403084e-38 368 214
0.069675706 0.81099999 0.036970787 1.6126857e-38 369 214
0.071097665 0.81099999 0.036970787 1.6033579e-38 370 214
0.072698459 0.81300002 0.03706196 1.5756993e-38 371 214
0.074123919 0.81300002 0.03706196 1.4007479e-38 372 214
0.075549379 0.81300002 0.03706196 1.3731251e-38 373 214
0.01305006 0.82700002 0.036250167 7.7379281e-39 329 215
0.014429933 0.82300001 0.036074832 7.8362362e-39 330 215
0.015872927 0.82300001 0.036074832 8.5738012e-39 331 215
0.01731592 0.82300001 0.036074832 1.0046387e-38 332 215
0.018804498 0.82499999 0.036162499 1.0968702e-38 333 215
0.020251 0.82499999 0.036162499 1.2163259e-38 334 215
0.021697499 0.82499999 0.036162499 1.2532042e-38 335 215
0.023087893 0.82300001 0.036074832 1.2073935e-38 336 215
0.024530886 0.82300001 0.036074832 1.2166131e-38 337 215
0.026036998 0.82499999 0.036162499 1.2258326e-38 338 215
0.027416872 0.82300001 0.036074832 1.2350522e-38 339 215
0.028859867 0.82300001 0.036074832 1.2534187e-38 340 215
0.03030286 0.82300001 0.036074832 1.2626384e-38 341 215
0.031668708 0.82099998 0.035987165 1.2901529e-38 342 215
0.03310819 0.82099998 0.035987165 1.2993725e-38 343 215
0.034547675 0.82099998 0.035987165 1.2995168e-38 344 215
0.035899501 0.81900001 0.035899501 1.317956e-38 345 215
0.037335481 0.81900001 0.035899501 1.3181725e-38 346 215
0.038771462 0.81900001 0.035899501 1.3550867e-38 347 215
0.040109251 0.81699997 0.03581183 1.4379183e-38 348 215
0.041440032 0.815 0.035724167 1.4839801e-38 349 215
0.042869002 0.815 0.035724167 1.5301836e-38 350 215
0.044189259 0.81300002 0.0356365 1.5394032e-38 351 215
0.045614719 0.81300002 0.0356365 1.6220899e-38 352 215
0.047040179 0.81300002 0.0356365 1.6313094e-38 353 215
0.048465639 0.81300002 0.0356365 1.631418e-38 354 215
0.049891099 0.81300002 0.0356365 1.6498211e-38 355 215
0.051316559 0.81300002 0.0356365 1.6590057e-38 356 215
0.052742019 0.81300002 0.0356365 1.6774448e-38 357 215
0.054167479 0.81300002 0.0356365 1.6866645e-38 358 215
0.055592939 0.81300002 0.0356365 1.714323e-38 359 215
0.056878131 0.81099999 0.035548832 1.7143225e-38 360 215
0.058300085 0.81099999 0.035548832 1.7143225e-38 361 215
0.05972204 0.81099999 0.035548832 1.7142859e-38 362 215
0.061143994 0.81099999 0.035548832 1.7142859e-38 363 215
0.062565938 0.81099999 0.035548832 1.6958819e-38 364 215
0.063987896 0.81099999 0.035548832 1.6682234e-38 365 215
0.065248549 0.80900002 0.035461165 1.68641e-38 366 215
0.066666998 0.80900002 0.035461165 1.68641e-38 367 215
0.06808544 0.80900002 0.035461165 1.6404198e-38 368 215
0.069675706 0.81099999 0.035548832 1.6220167e-38 369 215
0.071097665 0.81099999 0.035548832 1.6219419e-38 370 215
0.072519615 0.81099999 0.035548832 1.5666245e-38 371 215
0.073941574 0.81099999 0.035548832 1.5389302e-38 372 215
0.075363517 0.81099999 0.035548832 1.4928683e-38 373 215
0.076785475 0.81099999 0.035548832 1.2445604e-38 374 215
0.014429933 0.82300001 0.034631841 8.108877e-39 330 216
0.015834354 0.82099998 0.034547675 8.2010726e-39 331 216
0.017273838 0.82099998 0.034547675 8.1106595e-39 332 216
0.018804498 0.82499999 0.034715999 9.1244527e-39 333 216
0.020300092 0.82700002 0.034800157 1.0323329e-38 334 216
0.021697499 0.82499999 0.034715999 1.1061253e-38 335 216
0.023143999 0.82499999 0.034715999 1.1429661e-38 336 216
0.024590498 0.82499999 0.034715999 1.1614053e-38 337 216
0.026036998 0.82499999 0.034715999 1.2166134e-38 338 216
0.027483499 0.82499999 0.034715999 1.2350525e-38 339 216
0.028859867 0.82300001 0.034631841 1.2350875e-38 340 216
0.03030286 0.82300001 0.034631841 1.2350875e-38 341 216
0.031668708 0.82099998 0.034547675 1.2625664e-38 342 216
0.03310819 0.82099998 0.034547675 1.2810055e-38 343 216
0.034547675 0.82099998 0.034547675 1.2902251e-38 344 216
0.035899501 0.81900001 0.034463517 1.3086642e-38 345 216
0.037335481 0.81900001 0.034463517 1.317956e-38 346 216
0.038771462 0.81900001 0.034463517 1.3363952e-38 347 216
0.040109251 0.81699997 0.034379359 1.3550137e-38 348 216
0.041440032 0.815 0.034295198 1.4011475e-38 349 216
0.042869002 0.815 0.034295198 1.4656113e-38 350 216
0.044189259 0.81300002 0.03421104 1.5025255e-38 351 216
0.045614719 0.81300002 0.03421104 1.5852842e-38 352 216
0.047040179 0.81300002 0.03421104 1.5945038e-38 353 216
0.048465639 0.81300002 0.03421104 1.6037952e-38 354 216
0.049891099 0.81300002 0.03421104 1.6130149e-38 355 216
0.051316559 0.81300002 0.03421104 1.6221994e-38 356 216
0.052742019 0.81300002 0.03421104 1.6406744e-38 357 216
0.054167479 0.81300002 0.03421104 1.6407107e-38 358 216
0.055592939 0.81300002 0.03421104 1.65915e-38 359 216
0.056878131 0.81099999 0.034126882 1.6958841e-38 360 216
0.058300085 0.81099999 0.034126882 1.6958841e-38 361 216
0.05972204 0.81099999 0.034126882 1.7142506e-38 362 216
0.060993209 0.80900002 0.03404272 1.7142506e-38 363 216
0.062411651 0.80900002 0.03404272 1.6958464e-38 364 216
0.063830093 0.80900002 0.03404272 1.6866268e-38 365 216
0.065087236 0.80699998 0.033958558 1.6865183e-38 366 216
0.066502176 0.80699998 0.033958558 1.6865183e-38 367 216
0.06808544 0.80900002 0.03404272 1.6772258e-38 368 216
0.069503881 0.80900002 0.03404272 1.6588227e-38 369 216
0.07092233 0.80900002 0.03404272 1.6036823e-38 370 216
0.072340779 0.80900002 0.03404272 1.5760236e-38 371 216
0.073759228 0.80900002 0.03404272 1.5575119e-38 372 216
0.07517767 0.80900002 0.03404272 1.5114501e-38 373 216
0.076596119 0.80900002 0.03404272 1.4191879e-38 374 216
0.078014567 0.80900002 0.03404272 1.4007129e-38 375 216
0.079433009 0.80900002 0.03404272 1.2725832e-38 376 216
0.015834354 0.82099998 0.03310819 8.3843723e-39 331 217
0.017273838 0.82099998 0.03310819 7.9230438e-39 332 217
0.018986847 0.833 0.033592112 8.384022e-39 333 217
0.020349186 0.829 0.033430804 9.0308235e-39 334 217
0.0217501 0.82700002 0.033350151 9.9524197e-39 335 217
0.023143999 0.82499999 0.033269498 1.0507723e-38 336 217
0.024590498 0.82499999 0.033269498 1.1060897e-38 337 217
0.026036998 0.82499999 0.033269498 1.198103e-38 338 217
0.027483499 0.82499999 0.033269498 1.216578e-38 339 217
0.028859867 0.82300001 0.033188846 1.1983172e-38 340 217
0.03030286 0.82300001 0.033188846 1.2259398e-38 341 217
0.031668708 0.82099998 0.03310819 1.280933e-38 342 217
0.03310819 0.82099998 0.03310819 1.2901885e-38 343 217
0.034547675 0.82099998 0.03310819 1.2901529e-38 344 217
0.035899501 0.81900001 0.033027537 1.3178115e-38 345 217
0.037335481 0.81900001 0.033027537 1.2994094e-38 346 217
0.038771462 0.81900001 0.033027537 1.3271039e-38 347 217
0.040109251 0.81699997 0.032946885 1.317956e-38 348 217
0.041440032 0.815 0.032866232 1.3640538e-38 349 217
0.042869002 0.815 0.032866232 1.4102942e-38 350 217
0.044189259 0.81300002 0.03278558 1.4563921e-38 351 217
0.045614719 0.81300002 0.03278558 1.5116724e-38 352 217
0.047040179 0.81300002 0.03278558 1.5301117e-38 353 217
0.048465639 0.81300002 0.03278558 1.5852842e-38 354 217
0.049891099 0.81300002 0.03278558 1.6037233e-38 355 217
0.051316559 0.81300002 0.03278558 1.594684e-38 356 217
0.052742019 0.81300002 0.03278558 1.6131231e-38 357 217
0.054167479 0.81300002 0.03278558 1.6314912e-38 358 217
0.055592939 0.81300002 0.03278558 1.6407107e-38 359 217
0.056878131 0.81099999 0.032704927 1.6774098e-38 360 217
0.058300085 0.81099999 0.032704927 1.6866295e-38 361 217
0.05972204 0.81099999 0.032704927 1.6866295e-38 362 217
0.060993209 0.80900002 0.032624274 1.6866295e-38 363 217
0.062411651 0.80900002 0.032624274 1.6866645e-38 364 217
0.063672297 0.80699998 0.032543618 1.6866645e-38 365 217
0.065087236 0.80699998 0.032543618 1.7050296e-38 366 217
0.066502176 0.80699998 0.032543618 1.6958101e-38 367 217
0.067917116 0.80699998 0.032543618 1.6865884e-38 368 217
0.069332056 0.80699998 0.032543618 1.6681491e-38 369 217
0.070746996 0.80699998 0.032543618 1.6221221e-38 370 217
0.072161935 0.80699998 0.032543618 1.6036469e-38 371 217
0.073576882 0.80699998 0.032543618 1.5852063e-38 372 217
0.074991815 0.80699998 0.032543618 1.548292e-38 373 217
0.076406755 0.80699998 0.032543618 1.5296753e-38 374 217
0.077821694 0.80699998 0.032543618 1.4743938e-38 375 217
0.079236634 0.80699998 0.032543618 1.2721472e-38 376 217
0.080651581 0.80699998 0.032543618 1.3828179e-38 377 217
0.082066514 0.80699998 0.032543618 1.4109527e-38 378 217
0.023312319 0.83099997 0.032054439 8.2035712e-39 336 218
0.024650112 0.82700002 0.031900145 9.3099187e-39 337 218
0.026036998 0.82499999 0.031822998 1.0508079e-38 338 218
0.027483499 0.82499999 0.031822998 1.1521873e-38 339 218
0.028859867 0.82300001 0.031745855 1.1982465e-38 340 218
0.03030286 0.82300001 0.031745855 1.2166496e-38 341 218
0.031668708 0.82099998 0.031668708 1.2809332e-38 342 218
0.03310819 0.82099998 0.031668708 1.2901529e-38 343 218
0.034547675 0.82099998 0.031668708 1.2993725e-38 344 218
0.035899501 0.81900001 0.031591557 1.2993725e-38 345 218
0.037335481 0.81900001 0.031591557 1.2994447e-38 346 218
0.038771462 0.81900001 0.031591557 1.3086642e-38 347 218
0.040109251 0.81699997 0.03151441 1.3362859e-38 348 218
0.041440032 0.815 0.031437267 1.3547252e-38 349 218
0.042869002 0.815 0.031437267 1.3733081e-38 350 218
0.044189259 0.81300002 0.03136012 1.4010028e-38 351 218
0.045614719 0.81300002 0.03136012 1.4287336e-38 352 218
0.047040179 0.81300002 0.03136012 1.4932706e-38 353 218
0.048465639 0.81300002 0.03136012 1.539296e-38 354 218
0.049891099 0.81300002 0.03136012 1.5761741e-38 355 218
0.051316559 0.81300002 0.03136012 1.5853571e-38 356 218
0.052742019 0.81300002 0.03136012 1.6129799e-38 357 218
0.054167479 0.81300002 0.03136012 1.6313471e-38 358 218
0.055592939 0.81300002 0.03136012 1.6590057e-38 359 218
0.056878131 0.81099999 0.031282969 1.6864848e-38 360 218
0.058300085 0.81099999 0.031282969 1.704924e-38 361 218
0.05972204 0.81099999 0.031282969 1.6774448e-38 362 218
0.060993209 0.80900002 0.031205826 1.6774448e-38 363 218
0.062257357 0.80699998 0.031128678 1.6867001e-38 364 218
0.063672297 0.80699998 0.031128678 1.6867001e-38 365 218
0.064925931 0.80500001 0.031051533 1.7142862e-38 366 218
0.066337362 0.80500001 0.031051533 1.7050665e-38 367 218
0.0677488 0.80500001 0.031051533 1.6866618e-38 368 218
0.06916023 0.80500001 0.031051533 1.6590392e-38 369 218
0.070571661 0.80500001 0.031051533 1.6405628e-38 370 218
0.071983099 0.80500001 0.031051533 1.6221236e-38 371 218
0.07339453 0.80500001 0.031051533 1.6403461e-38 372 218
0.074805968 0.80500001 0.031051533 1.5942123e-38 373 218
0.076217398 0.80500001 0.031051533 1.5115963e-38 374 218
0.077628836 0.80500001 0.031051533 1.4562791e-38 375 218
0.079040267 0.80500001 0.031051533 1.4283368e-38 376 218
0.080451705 0.80500001 0.031051533 1.3730194e-38 377 218
0.081863128 0.80500001 0.031051533 1.226594e-38 378 218
0.083274566 0.80500001 0.031051533 1.4478995e-38 379 218
0.024709726 0.829 0.030523779 8.4780169e-39 337 219
0.02610012 0.82700002 0.030450139 9.3088523e-39 338 219
0.027483499 0.82499999 0.030376498 1.0414841e-38 339 219
0.028929999 0.82499999 0.030376498 1.1429324e-38 340 219
0.03030286 0.82300001 0.03030286 1.1614074e-38 341 219
0.031745855 0.82300001 0.03030286 1.2441288e-38 342 219
0.03310819 0.82099998 0.030229218 1.2533484e-38 343 219
0.034547675 0.82099998 0.030229218 1.2626384e-38 344 219
0.035899501 0.81900001 0.030155579 1.2718939e-38 345 219
0.037335481 0.81900001 0.030155579 1.2994444e-38 346 219
0.038771462 0.81900001 0.030155579 1.3086998e-38 347 219
0.040109251 0.81699997 0.030081939 1.3087358e-38 348 219
0.041440032 0.815 0.030008299 1.3179913e-38 349 219
0.042869002 0.815 0.030008299 1.3088444e-38 350 219
0.044297963 0.815 0.030008299 1.3456867e-38 351 219
0.045614719 0.81300002 0.02993466 1.3459385e-38 352 219
0.047040179 0.81300002 0.02993466 1.3828526e-38 353 219
0.048465639 0.81300002 0.02993466 1.4840873e-38 354 219
0.049891099 0.81300002 0.02993466 1.511782e-38 355 219
0.051316559 0.81300002 0.02993466 1.5484808e-38 356 219
0.052612271 0.81099999 0.02986102 1.5761034e-38 357 219
0.054034222 0.81099999 0.02986102 1.6036895e-38 358 219
0.055456176 0.81099999 0.02986102 1.6129092e-38 359 219
0.056878131 0.81099999 0.02986102 1.6312768e-38 360 219
0.058300085 0.81099999 0.02986102 1.6497158e-38 361 219
0.05957476 0.80900002 0.02978738 1.6406038e-38 362 219
0.060842417 0.80699998 0.029713741 1.6498234e-38 363 219
0.062103067 0.80500001 0.029640101 1.65915e-38 364 219
0.063514493 0.80500001 0.029640101 1.6684054e-38 365 219
0.064925931 0.80500001 0.029640101 1.6867714e-38 366 219
0.066337362 0.80500001 0.029640101 1.6867714e-38 367 219
0.0677488 0.80500001 0.029640101 1.7051e-38 368 219
0.06916023 0.80500001 0.029640101 1.686625e-38 369 219
0.070571661 0.80500001 0.029640101 1.695734e-38 370 219
0.071983099 0.80500001 0.029640101 1.6864785e-38 371 219
0.07339453 0.80500001 0.029640101 1.6587845e-38 372 219
0.074805968 0.80500001 0.029640101 1.6219422e-38 373 219
0.076217398 0.80500001 0.029640101 1.5850276e-38 374 219
0.077628836 0.80500001 0.029640101 1.5481854e-38 375 219
0.079040267 0.80500001 0.029640101 1.5204914e-38 376 219
0.080451705 0.80500001 0.029640101 1.4190762e-38 377 219
0.081863128 0.80500001 0.029640101 1.1984986e-38 378 219
0.083274566 0.80500001 0.029640101 1.3828899e-38 379 219
0.084685996 0.80500001 0.029640101 1.4110973e-38 380 219
0.029000133 0.82700002 0.029000133 9.2198741e-39 340 220
0.030376498 0.82499999 0.028929999 1.0418417e-38 341 220
0.031745855 0.82300001 0.028859867 1.2348021e-38 342 220
0.03310819 0.82099998 0.028789733 1.2440216e-38 343 220
0.034547675 0.82099998 0.028789733 1.2901176e-38 344 220
0.035987165 0.82099998 0.028789733 1.2993731e-38 345 220
0.037335481 0.81900001 0.0287196 1.2902248e-38 346 220
0.038771462 0.81900001 0.0287196 1.2994444e-38 347 220
0.040109251 0.81699997 0.028649466 1.3086995e-38 348 220
0.041440032 0.815 0.028579332 1.3086995e-38 349 220
0.042869002 0.815 0.028579332 1.3454699e-38 350 220
0.044297963 0.815 0.028579332 1.3547255e-38 351 220
0.045614719 0.81300002 0.0285092 1.3732009e-38 352 220
0.047040179 0.81300002 0.0285092 1.4192987e-38 353 220
0.048465639 0.81300002 0.0285092 1.4561772e-38 354 220
0.049891099 0.81300002 0.0285092 1.4930555e-38 355 220
0.051316559 0.81300002 0.0285092 1.5484082e-38 356 220
0.052612271 0.81099999 0.028439065 1.5760669e-38 357 220
0.054034222 0.81099999 0.028439065 1.5944331e-38 358 220
0.055319421 0.80900002 0.028368933 1.6036886e-38 359 220
0.056737866 0.80900002 0.028368933 1.6403867e-38 360 220
0.058156308 0.80900002 0.028368933 1.6588259e-38 361 220
0.059427481 0.80699998 0.028298797 1.6772647e-38 362 220
0.060691636 0.80500001 0.028228667 1.6865202e-38 363 220
0.062103067 0.80500001 0.028228667 1.6682603e-38 364 220
0.063514493 0.80500001 0.028228667 1.6774798e-38 365 220
0.064764626 0.80299997 0.028158531 1.6867717e-38 366 220
0.066172548 0.80299997 0.028158531 1.6959913e-38 367 220
0.0677488 0.80500001 0.028228667 1.6959547e-38 368 220
0.068988405 0.80299997 0.028158531 1.686735e-38 369 220
0.070396326 0.80299997 0.028158531 1.6866974e-38 370 220
0.071804255 0.80299997 0.028158531 1.6498193e-38 371 220
0.073212177 0.80299997 0.028158531 1.6314154e-38 372 220
0.074620105 0.80299997 0.028158531 1.5945372e-38 373 220
0.076217398 0.80500001 0.028228667 1.5577312e-38 374 220
0.077628836 0.80500001 0.028228667 1.5208529e-38 375 220
0.079040267 0.80500001 0.028228667 1.4747198e-38 376 220
0.080451705 0.80500001 0.028228667 1.428622e-38 377 220
0.081863128 0.80500001 0.028228667 1.3823832e-38 378 220
0.083274566 0.80500001 0.028228667 1.2810039e-38 379 220
0.084685996 0.80500001 0.028228667 1.1900398e-38 380 220
0.032054439 0.83099997 0.027683379 1.0141102e-38 342 221
0.033188846 0.82300001 0.027416872 1.0879027e-38 343 221
0.034547675 0.82099998 0.027350245 1.2258346e-38 344 221
0.035987165 0.82099998 0.027350245 1.2350542e-38 345 221
0.037335481 0.81900001 0.027283618 1.2810781e-38 346 221
0.03867678 0.81699997 0.027216991 1.2810781e-38 347 221
0.040011063 0.815 0.027150365 1.3086642e-38 348 221
0.041440032 0.815 0.027150365 1.3086642e-38 349 221
0.042869002 0.815 0.027150365 1.3178838e-38 350 221
0.044297963 0.815 0.027150365 1.3271034e-38 351 221
0.045614719 0.81300002 0.02708374 1.3181006e-38 352 221
0.047040179 0.81300002 0.02708374 1.3273201e-38 353 221
0.048465639 0.81300002 0.02708374 1.3459022e-38 354 221
0.049891099 0.81300002 0.02708374 1.3735249e-38 355 221
0.051316559 0.81300002 0.02708374 1.4747596e-38 356 221
0.052612271 0.81099999 0.027017111 1.5208214e-38 357 221
0.053900972 0.80900002 0.026950486 1.530113e-38 358 221
0.055319421 0.80900002 0.026950486 1.5393325e-38 359 221
0.056597594 0.80699998 0.026883857 1.5760666e-38 360 221
0.058012534 0.80699998 0.026883857 1.585322e-38 361 221
0.059427481 0.80699998 0.026883857 1.6037251e-38 362 221
0.060691636 0.80500001 0.026817232 1.6221644e-38 363 221
0.062103067 0.80500001 0.026817232 1.6314912e-38 364 221
0.063514493 0.80500001 0.026817232 1.6499303e-38 365 221
0.064764626 0.80299997 0.026750606 1.6591853e-38 366 221
0.066172548 0.80299997 0.026750606 1.6776603e-38 367 221
0.0677488 0.80500001 0.026817232 1.69599e-38 368 221
0.068988405 0.80299997 0.026750606 1.6867703e-38 369 221
0.070396326 0.80299997 0.026750606 1.6959873e-38 370 221
0.071804255 0.80299997 0.026750606 1.6683288e-38 371 221
0.073212177 0.80299997 0.026750606 1.6865507e-38 372 221
0.074620105 0.80299997 0.026750606 1.658928e-38 373 221
0.076028034 0.80299997 0.026750606 1.6312689e-38 374 221
0.077435955 0.80299997 0.026750606 1.5943908e-38 375 221
0.078843892 0.80299997 0.026750606 1.5483303e-38 376 221
0.080451705 0.80500001 0.026817232 1.511416e-38 377 221
0.081863128 0.80500001 0.026817232 1.4560273e-38 378 221
0.083274566 0.80500001 0.026817232 1.3730154e-38 379 221
0.084685996 0.80500001 0.026817232 1.2078264e-38 380 221
0.086097427 0.80500001 0.026817232 1.3830341e-38 381 221
0.037244301 0.81699997 0.025784519 1.2626037e-38 346 222
0.03867678 0.81699997 0.025784519 1.2810428e-38 347 222
0.039912879 0.81300002 0.02565828 1.2811134e-38 348 222
0.041338343 0.81300002 0.02565828 1.2995166e-38 349 222
0.042869002 0.815 0.025721399 1.3087361e-38 350 222
0.044297963 0.815 0.025721399 1.3087361e-38 351 222
0.045614719 0.81300002 0.02565828 1.3271754e-38 352 222
0.047040179 0.81300002 0.02565828 1.3271754e-38 353 222
0.048465639 0.81300002 0.02565828 1.3732014e-38 354 222
0.049891099 0.81300002 0.02565828 1.4100438e-38 355 222
0.051190317 0.81099999 0.025595158 1.4286983e-38 356 222
0.052482527 0.80900002 0.025532039 1.4747961e-38 357 222
0.053767715 0.80699998 0.025468919 1.5390807e-38 358 222
0.055182658 0.80699998 0.025468919 1.5575559e-38 359 222
0.056597594 0.80699998 0.025468919 1.5759943e-38 360 222
0.057868768 0.80500001 0.025405798 1.5944334e-38 361 222
0.059280202 0.80500001 0.025405798 1.6036883e-38 362 222
0.060691636 0.80500001 0.025405798 1.6221275e-38 363 222
0.062103067 0.80500001 0.025405798 1.6497858e-38 364 222
0.063514493 0.80500001 0.025405798 1.6590054e-38 365 222
0.064764626 0.80299997 0.025342679 1.6775171e-38 366 222
0.066172548 0.80299997 0.025342679 1.6867367e-38 367 222
0.067580476 0.80299997 0.025342679 1.6959559e-38 368 222
0.068988405 0.80299997 0.025342679 1.6959559e-38 369 222
0.070396326 0.80299997 0.025342679 1.6959544e-38 370 222
0.071804255 0.80299997 0.025342679 1.6775151e-38 371 222
0.073212177 0.80299997 0.025342679 1.7049565e-38 372 222
0.074620105 0.80299997 0.025342679 1.6773338e-38 373 222
0.076028034 0.80299997 0.025342679 1.6313432e-38 374 222
0.077435955 0.80299997 0.025342679 1.5944289e-38 375 222
0.078843892 0.80299997 0.025342679 1.557622e-38 376 222
0.08025182 0.80299997 0.025342679 1.5299273e-38 377 222
0.081659742 0.80299997 0.025342679 1.520421e-38 378 222
0.083274566 0.80500001 0.025405798 1.4927623e-38 379 222
0.084685996 0.80500001 0.025405798 1.3547252e-38 380 222
0.086097427 0.80500001 0.025405798 1.2994078e-38 381 222
0.087508865 0.80500001 0.025405798 1.2912036e-38 382 222
0.039912879 0.81300002 0.02423282 1.2901898e-38 348 223
0.041338343 0.81300002 0.02423282 1.2994094e-38 349 223
0.042869002 0.815 0.024292432 1.2995166e-38 350 223
0.044297963 0.815 0.024292432 1.3087361e-38 351 223
0.045614719 0.81300002 0.02423282 1.3087364e-38 352 223
0.047040179 0.81300002 0.02423282 1.317956e-38 353 223
0.048465639 0.81300002 0.02423282 1.3363599e-38 354 223
0.049891099 0.81300002 0.02423282 1.3640185e-38 355 223
0.051190317 0.81099999 0.024173206 1.3733458e-38 356 223
0.052482527 0.80900002 0.024113594 1.4102239e-38 357 223
0.053767715 0.80699998 0.02405398 1.4562495e-38 358 223
0.055182658 0.80699998 0.02405398 1.5023472e-38 359 223
0.056457333 0.80500001 0.023994366 1.5666318e-38 360 223
0.057868768 0.80500001 0.023994366 1.5851069e-38 361 223
0.059280202 0.80500001 0.023994366 1.6036167e-38 362 223
0.060691636 0.80500001 0.023994366 1.6312394e-38 363 223
0.061948773 0.80299997 0.023934752 1.6313474e-38 364 223
0.063356698 0.80299997 0.023934752 1.6589701e-38 365 223
0.064764626 0.80299997 0.023934752 1.6682621e-38 366 223
0.066172548 0.80299997 0.023934752 1.6774818e-38 367 223
0.067580476 0.80299997 0.023934752 1.6867367e-38 368 223
0.068988405 0.80299997 0.023934752 1.6959562e-38 369 223
0.070396326 0.80299997 0.023934752 1.6959547e-38 370 223
0.071804255 0.80299997 0.023934752 1.686735e-38 371 223
0.073212177 0.80299997 0.023934752 1.695917e-38 372 223
0.074620105 0.80299997 0.023934752 1.6590389e-38 373 223
0.076028034 0.80299997 0.023934752 1.6405981e-38 374 223
0.077435955 0.80299997 0.023934752 1.6129035e-38 375 223
0.078843892 0.80299997 0.023934752 1.594464e-38 376 223
0.08025182 0.80299997 0.023934752 1.5484022e-38 377 223
0.081659742 0.80299997 0.023934752 1.5480797e-38 378 223
0.08306767 0.80299997 0.023934752 1.5020178e-38 379 223
0.084475599 0.80299997 0.023934752 1.4100033e-38 380 223
0.085883521 0.80299997 0.023934752 1.3454664e-38 381 223
0.087291449 0.80299997 0.023934752 1.2631094e-38 382 223
0.041440032 0.815 0.022863466 1.2811513e-38 349 224
0.042869002 0.815 0.022863466 1.2535989e-38 350 224
0.044297963 0.815 0.022863466 1.2628185e-38 351 224
0.045614719 0.81300002 0.02280736 1.2904049e-38 352 224
0.047040179 0.81300002 0.02280736 1.2904049e-38 353 224
0.048465639 0.81300002 0.02280736 1.317956e-38 354 224
0.049891099 0.81300002 0.02280736 1.3363952e-38 355 224
0.051190317 0.81099999 0.022751253 1.3639829e-38 356 224
0.052482527 0.80900002 0.022695147 1.3824579e-38 357 224
0.053767715 0.80699998 0.022639038 1.4009324e-38 358 224
0.055182658 0.80699998 0.022639038 1.4469942e-38 359 224
0.056457333 0.80500001 0.022582933 1.5115296e-38 360 224
0.057868768 0.80500001 0.022582933 1.5391882e-38 361 224
0.059280202 0.80500001 0.022582933 1.5668821e-38 362 224
0.060540844 0.80299997 0.022526825 1.5853571e-38 363 224
0.061948773 0.80299997 0.022526825 1.6221278e-38 364 224
0.063356698 0.80299997 0.022526825 1.6497505e-38 365 224
0.064764626 0.80299997 0.022526825 1.6314561e-38 366 224
0.066172548 0.80299997 0.022526825 1.6498953e-38 367 224
0.067580476 0.80299997 0.022526825 1.6591506e-38 368 224
0.068988405 0.80299997 0.022526825 1.6683701e-38 369 224
0.070308663 0.80199999 0.022498772 1.6959915e-38 370 224
0.071714841 0.80199999 0.022498772 1.686772e-38 371 224
0.073121011 0.80199999 0.022498772 1.6775504e-38 372 224
0.074527182 0.80199999 0.022498772 1.6590754e-38 373 224
0.076028034 0.80299997 0.022526825 1.6406702e-38 374 224
0.07733953 0.80199999 0.022498772 1.6037921e-38 375 224
0.0787457 0.80199999 0.022498772 1.6128672e-38 376 224
0.080151878 0.80199999 0.022498772 1.5851725e-38 377 224
0.081558049 0.80199999 0.022498772 1.5574068e-38 378 224
0.082964227 0.80199999 0.022498772 1.5205286e-38 379 224
0.084370397 0.80199999 0.022498772 1.4835799e-38 380 224
0.085562661 0.80000001 0.022442667 1.4467018e-38 381 224
0.086965337 0.80000001 0.022442667 1.3087014e-38 382 224
0.088367999 0.80000001 0.022442667 1.3824579e-38 383 224
0.044297963 0.815 0.021434501 1.3177762e-38 351 225
0.045614719 0.81300002 0.0213819 1.2995516e-38 352 225
0.047040179 0.81300002 0.0213819 1.3087711e-38 353 225
0.048465639 0.81300002 0.0213819 1.3087714e-38 354 225
0.049768366 0.81099999 0.021329299 1.3272107e-38 355 225
0.051190317 0.81099999 0.021329299 1.3364308e-38 356 225
0.052482527 0.80900002 0.021276699 1.3456504e-38 357 225
0.053767715 0.80699998 0.021224098 1.4006801e-38 358 225
0.055182658 0.80699998 0.021224098 1.4375583e-38 359 225
0.056457333 0.80500001 0.021171499 1.4565e-38 360 225
0.057868768 0.80500001 0.021171499 1.4841226e-38 361 225
0.059132915 0.80299997 0.0211189 1.5759218e-38 362 225
0.060540844 0.80299997 0.0211189 1.6036164e-38 363 225
0.061948773 0.80299997 0.0211189 1.6220548e-38 364 225
0.063356698 0.80299997 0.0211189 1.6404941e-38 365 225
0.064764626 0.80299997 0.0211189 1.6313471e-38 366 225
0.066172548 0.80299997 0.0211189 1.6590057e-38 367 225
0.067580476 0.80299997 0.0211189 1.6774095e-38 368 225
0.068902493 0.80199999 0.021092599 1.6866292e-38 369 225
0.070308663 0.80199999 0.021092599 1.714323e-38 370 225
0.071714841 0.80199999 0.021092599 1.714323e-38 371 225
0.073121011 0.80199999 0.021092599 1.695955e-38 372 225
0.074527182 0.80199999 0.021092599 1.6774798e-38 373 225
0.075933352 0.80199999 0.021092599 1.6407442e-38 374 225
0.07733953 0.80199999 0.021092599 1.6038658e-38 375 225
0.0787457 0.80199999 0.021092599 1.6037218e-38 376 225
0.080151878 0.80199999 0.021092599 1.5760629e-38 377 225
0.081558049 0.80199999 0.021092599 1.5482612e-38 378 225
0.082964227 0.80199999 0.021092599 1.5298219e-38 379 225
0.084370397 0.80199999 0.021092599 1.474505e-38 380 225
0.085562661 0.80000001 0.02104 1.4376267e-38 381 225
0.086965337 0.80000001 0.02104 1.3730919e-38 382 225
0.088367999 0.80000001 0.02104 1.3730919e-38 383 225
0.044297963 0.815 0.020005532 1.2259422e-38 351 226
0.045614719 0.81300002 0.01995644 1.2995166e-38 352 226
0.047040179 0.81300002 0.01995644 1.2995166e-38 353 226
0.048465639 0.81300002 0.01995644 1.2904049e-38 354 226
0.049768366 0.81099999 0.019907346 1.2904049e-38 355 226
0.051190317 0.81099999 0.019907346 1.3179204e-38 356 226
0.052482527 0.80900002 0.019858252 1.3271759e-38 357 226
0.053767715 0.80699998 0.019809159 1.3363605e-38 358 226
0.055045899 0.80500001 0.019760067 1.3824223e-38 359 226
0.056457333 0.80500001 0.019760067 1.4194437e-38 360 226
0.057868768 0.80500001 0.019760067 1.4747611e-38 361 226
0.059132915 0.80299997 0.019710973 1.5024899e-38 362 226
0.060540844 0.80299997 0.019710973 1.5301486e-38 363 226
0.061948773 0.80299997 0.019710973 1.5853215e-38 364 226
0.063356698 0.80299997 0.019710973 1.6037604e-38 365 226
0.064764626 0.80299997 0.019710973 1.6129446e-38 366 226
0.066172548 0.80299997 0.019710973 1.6314196e-38 367 226
0.067580476 0.80299997 0.019710973 1.6681546e-38 368 226
0.068902493 0.80199999 0.019686425 1.67741e-38 369 226
0.070308663 0.80199999 0.019686425 1.695849e-38 370 226
0.071714841 0.80199999 0.019686425 1.7142521e-38 371 226
0.072938666 0.80000001 0.019637333 1.695955e-38 372 226
0.074341334 0.80000001 0.019637333 1.6866994e-38 373 226
0.075933352 0.80199999 0.019686425 1.6866253e-38 374 226
0.077146664 0.80000001 0.019637333 1.6589664e-38 375 226
0.078549333 0.80000001 0.019637333 1.6404551e-38 376 226
0.079952002 0.80000001 0.019637333 1.6035769e-38 377 226
0.08135467 0.80000001 0.019637333 1.5942851e-38 378 226
0.082757331 0.80000001 0.019637333 1.5574068e-38 379 226
0.08416 0.80000001 0.019637333 1.5388233e-38 380 226
0.085562661 0.80000001 0.019637333 1.520384e-38 381 226
0.086965337 0.80000001 0.019637333 1.4282271e-38 382 226
0.088367999 0.80000001 0.019637333 1.3821651e-38 383 226
0.089995086 0.80199999 0.019686425 1.2998807e-38 384 226
0.044080548 0.81099999 0.018485393 1.1521154e-38 351 227
0.045502506 0.81099999 0.018485393 1.2258695e-38 352 227
0.046924461 0.81099999 0.018485393 1.2443088e-38 353 227
0.048465639 0.81300002 0.01853098 1.2995163e-38 354 227
0.049768366 0.81099999 0.018485393 1.2995163e-38 355 227
0.051190317 0.81099999 0.018485393 1.3179191e-38 356 227
0.052482527 0.80900002 0.018439807 1.3271387e-38 357 227
0.053767715 0.80699998 0.018394221 1.363837e-38 358 227
0.055045899 0.80500001 0.018348632 1.3914958e-38 359 227
0.056457333 0.80500001 0.018348632 1.3917479e-38 360 227
0.057868768 0.80500001 0.018348632 1.4470652e-38 361 227
0.059132915 0.80299997 0.018303044 1.5207845e-38 362 227
0.060540844 0.80299997 0.018303044 1.5484432e-38 363 227
0.061948773 0.80299997 0.018303044 1.5944319e-38 364 227
0.063356698 0.80299997 0.018303044 1.5944319e-38 365 227
0.064764626 0.80299997 0.018303044 1.6313097e-38 366 227
0.066090144 0.80199999 0.018280253 1.6405293e-38 367 227
0.067496315 0.80199999 0.018280253 1.6681884e-38 368 227
0.068902493 0.80199999 0.018280253 1.695811e-38 369 227
0.070308663 0.80199999 0.018280253 1.7050313e-38 370 227
0.071535997 0.80000001 0.018234666 1.7142509e-38 371 227
0.072938666 0.80000001 0.018234666 1.7143228e-38 372 227
0.074341334 0.80000001 0.018234666 1.6959196e-38 373 227
0.075743996 0.80000001 0.018234666 1.6775873e-38 374 227
0.077146664 0.80000001 0.018234666 1.6314896e-38 375 227
0.078549333 0.80000001 0.018234666 1.6222331e-38 376 227
0.079952002 0.80000001 0.018234666 1.5853189e-38 377 227
0.081151277 0.79799998 0.018189078 1.5667359e-38 378 227
0.082550429 0.79799998 0.018189078 1.5482968e-38 379 227
0.083949596 0.79799998 0.018189078 1.5297482e-38 380 227
0.085562661 0.80000001 0.018234666 1.5020895e-38 381 227
0.086965337 0.80000001 0.018234666 1.437662e-38 382 227
0.088367999 0.80000001 0.018234666 1.4284425e-38 383 227
0.089995086 0.80199999 0.018280253 1.2627128e-38 384 227
0.091743164 0.80500001 0.018348632 1.3365052e-38 385 227
0.045502506 0.81099999 0.017063441 1.1061972e-38 352 228
0.046924461 0.81099999 0.017063441 1.1799538e-38 353 228
0.048465639 0.81300002 0.01710552 1.2810431e-38 354 228
0.049891099 0.81300002 0.01710552 1.2994462e-38 355 228
0.051190317 0.81099999 0.017063441 1.3086642e-38 356 228
0.052482527 0.80900002 0.01702136 1.3178838e-38 357 228
0.053767715 0.80699998 0.016979279 1.3271036e-38 358 228
0.055182658 0.80699998 0.016979279 1.3639819e-38 359 228
0.056457333 0.80500001 0.0169372 1.3916406e-38 360 228
0.057868768 0.80500001 0.0169372 1.4377384e-38 361 228
0.059280202 0.80500001 0.0169372 1.4930902e-38 362 228
0.060540844 0.80299997 0.016895119 1.5207848e-38 363 228
0.061948773 0.80299997 0.016895119 1.5484427e-38 364 228
0.063356698 0.80299997 0.016895119 1.5669176e-38 365 228
0.064683966 0.80199999 0.016874079 1.6037952e-38 366 228
0.066090144 0.80199999 0.016874079 1.6130149e-38 367 228
0.067496315 0.80199999 0.016874079 1.6314546e-38 368 228
0.068730667 0.80000001 0.016832 1.6498937e-38 369 228
0.070133328 0.80000001 0.016832 1.6775171e-38 370 228
0.071535997 0.80000001 0.016832 1.6867367e-38 371 228
0.072756313 0.79799998 0.016789921 1.6959196e-38 372 228
0.074155472 0.79799998 0.016789921 1.6959196e-38 373 228
0.075554639 0.79799998 0.016789921 1.68677e-38 374 228
0.076953799 0.79799998 0.016789921 1.6590754e-38 375 228
0.078352958 0.79799998 0.016789921 1.6682212e-38 376 228
0.079752117 0.79799998 0.016789921 1.6221233e-38 377 228
0.081151277 0.79799998 0.016789921 1.6127236e-38 378 228
0.082550429 0.79799998 0.016789921 1.5851009e-38 379 228
0.083949596 0.79799998 0.016789921 1.5757011e-38 380 228
0.085348755 0.79799998 0.016789921 1.5480785e-38 381 228
0.086747915 0.79799998 0.016789921 1.5203134e-38 382 228
0.088147074 0.79799998 0.016789921 1.5018743e-38 383 228
0.089770667 0.80000001 0.016832 1.3361787e-38 384 228
0.091401257 0.80199999 0.016874079 1.3269592e-38 385 228
0.092923149 0.80299997 0.016895119 1.3370499e-38 386 228
0.047040179 0.81300002 0.01568006 1.060281e-38 353 229
0.048465639 0.81300002 0.01568006 1.2165793e-38 354 229
0.049891099 0.81300002 0.01568006 1.244274e-38 355 229
0.051190317 0.81099999 0.015641484 1.3178841e-38 356 229
0.052482527 0.80900002 0.015602913 1.3178841e-38 357 229
0.053900972 0.80900002 0.015602913 1.3454702e-38 358 229
0.055182658 0.80699998 0.015564339 1.3639094e-38 359 229
0.056457333 0.80500001 0.015525767 1.3823128e-38 360 229
0.057868768 0.80500001 0.015525767 1.4192271e-38 361 229
0.059280202 0.80500001 0.015525767 1.4562481e-38 362 229
0.060540844 0.80299997 0.015487193 1.4930905e-38 363 229
0.061948773 0.80299997 0.015487193 1.5575176e-38 364 229
0.063356698 0.80299997 0.015487193 1.5852123e-38 365 229
0.064683966 0.80199999 0.015467905 1.5854274e-38 366 229
0.065925337 0.80000001 0.015429333 1.6038305e-38 367 229
0.067327999 0.80000001 0.015429333 1.6313824e-38 368 229
0.068558834 0.79799998 0.015390759 1.659041e-38 369 229
0.069957994 0.79799998 0.015390759 1.6774451e-38 370 229
0.071357153 0.79799998 0.015390759 1.6958843e-38 371 229
0.072756313 0.79799998 0.015390759 1.6958841e-38 372 229
0.074155472 0.79799998 0.015390759 1.714323e-38 373 229
0.075554639 0.79799998 0.015390759 1.686807e-38 374 229
0.076953799 0.79799998 0.015390759 1.6683319e-38 375 229
0.078352958 0.79799998 0.015390759 1.6683306e-38 376 229
0.079752117 0.79799998 0.015390759 1.6222328e-38 377 229
0.081151277 0.79799998 0.015390759 1.6127969e-38 378 229
0.082550429 0.79799998 0.015390759 1.5851022e-38 379 229
0.083949596 0.79799998 0.015390759 1.5941056e-38 380 229
0.085348755 0.79799998 0.015390759 1.5664109e-38 381 229
0.086747915 0.79799998 0.015390759 1.520421e-38 382 229
0.088147074 0.79799998 0.015390759 1.4927623e-38 383 229
0.089770667 0.80000001 0.015429333 1.4006775e-38 384 229
0.091173328 0.80000001 0.015429333 1.3638352e-38 385 229
0.092575997 0.80000001 0.015429333 1.2629315e-38 386 229
0.093978666 0.80000001 0.015429333 1.4473227e-38 387 229
0.049891099 0.81300002 0.0142546 1.1524393e-38 355 230
0.051190317 0.81099999 0.014219533 1.3269607e-38 356 230
0.052612271 0.81099999 0.014219533 1.3269607e-38 357 230
0.053900972 0.80900002 0.014184467 1.3454349e-38 358 230
0.055182658 0.80699998 0.014149399 1.3546546e-38 359 230
0.056457333 0.80500001 0.014114333 1.3638744e-38 360 230
0.057868768 0.80500001 0.014114333 1.4007525e-38 361 230
0.059280202 0.80500001 0.014114333 1.4009678e-38 362 230
0.060540844 0.80299997 0.014079265 1.4470296e-38 363 230
0.061948773 0.80299997 0.014079265 1.5390792e-38 364 230
0.063277796 0.80199999 0.014061732 1.5667377e-38 365 230
0.064522661 0.80000001 0.014026666 1.5670248e-38 366 230
0.065925337 0.80000001 0.014026666 1.5762444e-38 367 230
0.067159683 0.79799998 0.013991599 1.6221631e-38 368 230
0.068558834 0.79799998 0.013991599 1.6497858e-38 369 230
0.069957994 0.79799998 0.013991599 1.6865211e-38 370 230
0.071357153 0.79799998 0.013991599 1.7049963e-38 371 230
0.072756313 0.79799998 0.013991599 1.6958846e-38 372 230
0.074155472 0.79799998 0.013991599 1.7142877e-38 373 230
0.075365283 0.796 0.013956533 1.7143581e-38 374 230
0.076760925 0.796 0.013956533 1.695955e-38 375 230
0.078156583 0.796 0.013956533 1.6775504e-38 376 230
0.079552241 0.796 0.013956533 1.6498559e-38 377 230
0.080947891 0.796 0.013956533 1.6404549e-38 378 230
0.082550429 0.79799998 0.013991599 1.594357e-38 379 230
0.083949596 0.79799998 0.013991599 1.6033602e-38 380 230
0.085348755 0.79799998 0.013991599 1.584921e-38 381 230
0.086747915 0.79799998 0.013991599 1.5205642e-38 382 230
0.088147074 0.79799998 0.013991599 1.5020892e-38 383 230
0.089546233 0.79799998 0.013991599 1.4101112e-38 384 230
0.090945393 0.79799998 0.013991599 1.3824167e-38 385 230
0.092575997 0.80000001 0.014026666 1.2717898e-38 386 230
0.093978666 0.80000001 0.014026666 1.4008636e-38 387 230
0.095381334 0.80000001 0.014026666 1.4661629e-38 388 230
0.051190317 0.81099999 0.012797579 1.2442018e-38 356 231
0.052612271 0.81099999 0.012797579 1.2810799e-38 357 231
0.053767715 0.80699998 0.01273446 1.33618e-38 358 231
0.055182658 0.80699998 0.01273446 1.3453995e-38 359 231
0.056457333 0.80500001 0.012702899 1.3638744e-38 360 231
0.057868768 0.80500001 0.012702899 1.3822775e-38 361 231
0.059280202 0.80500001 0.012702899 1.3549784e-38 362 231
0.060540844 0.80299997 0.012671339 1.3918927e-38 363 231
0.061948773 0.80299997 0.012671339 1.4747596e-38 364 231
0.063277796 0.80199999 0.01265556 1.5116018e-38 365 231
0.064522661 0.80000001 0.012624 1.5210716e-38 366 231
0.065925337 0.80000001 0.012624 1.5302912e-38 367 231
0.067159683 0.79799998 0.012592439 1.6129802e-38 368 231
0.068558834 0.79799998 0.012592439 1.6221997e-38 369 231
0.069957994 0.79799998 0.012592439 1.6406388e-38 370 231
0.071178317 0.796 0.01256088 1.6498584e-38 371 231
0.072573967 0.796 0.01256088 1.6866292e-38 372 231
0.073969625 0.796 0.01256088 1.7142877e-38 373 231
0.075365283 0.796 0.01256088 1.7052114e-38 374 231
0.076760925 0.796 0.01256088 1.7052114e-38 375 231
0.078156583 0.796 0.01256088 1.6959897e-38 376 231
0.079552241 0.796 0.01256088 1.6683309e-38 377 231
0.080947891 0.796 0.01256088 1.6864088e-38 378 231
0.082343549 0.796 0.01256088 1.6403111e-38 379 231
0.083739199 0.796 0.01256088 1.5943561e-38 380 231
0.085134849 0.796 0.01256088 1.5666615e-38 381 231
0.086530507 0.796 0.01256088 1.5481857e-38 382 231
0.088147074 0.79799998 0.012592439 1.5204911e-38 383 231
0.089546233 0.79799998 0.012592439 1.4377324e-38 384 231
0.090945393 0.79799998 0.012592439 1.4285128e-38 385 231
0.092344552 0.79799998 0.012592439 1.2993024e-38 386 231
0.093743719 0.79799998 0.012592439 1.3822425e-38 387 231
0.095381334 0.80000001 0.012624 1.3647104e-38 388 231
0.051190317 0.81099999 0.011375627 1.0603865e-38 356 232
0.052612271 0.81099999 0.011375627 1.1525823e-38 357 232
0.053767715 0.80699998 0.011319519 1.3268888e-38 358 232
0.055182658 0.80699998 0.011319519 1.3637311e-38 359 232
0.056457333 0.80500001 0.011291467 1.3546902e-38 360 232
0.057868768 0.80500001 0.011291467 1.3823128e-38 361 232
0.059280202 0.80500001 0.011291467 1.3640538e-38 362 232
0.060691636 0.80500001 0.011291467 1.4009322e-38 363 232
0.061948773 0.80299997 0.011263412 1.4195504e-38 364 232
0.063277796 0.80199999 0.011249386 1.4840873e-38 365 232
0.064522661 0.80000001 0.011221333 1.5118524e-38 366 232
0.065925337 0.80000001 0.011221333 1.5118524e-38 367 232
0.067159683 0.79799998 0.011193279 1.5853924e-38 368 232
0.068558834 0.79799998 0.011193279 1.6130152e-38 369 232
0.069957994 0.79799998 0.011193279 1.6131234e-38 370 232
0.071178317 0.796 0.011165227 1.640746e-38 371 232
0.072573967 0.796 0.011165227 1.6774095e-38 372 232
0.073969625 0.796 0.011165227 1.6958846e-38 373 232
0.075365283 0.796 0.011165227 1.7142877e-38 374 232
0.076760925 0.796 0.011165227 1.7235073e-38 375 232
0.078156583 0.796 0.011165227 1.7052114e-38 376 232
0.079552241 0.796 0.011165227 1.6775168e-38 377 232
0.080744505 0.79400003 0.011137174 1.6864827e-38 378 232
0.082136653 0.79400003 0.011137174 1.6496043e-38 379 232
0.083739199 0.796 0.011165227 1.5944289e-38 380 232
0.085134849 0.796 0.011165227 1.5668062e-38 381 232
0.086530507 0.796 0.011165227 1.5482596e-38 382 232
0.087926157 0.796 0.011165227 1.5113812e-38 383 232
0.089321814 0.796 0.011165227 1.428622e-38 384 232
0.090945393 0.79799998 0.011193279 1.3917437e-38 385 232
0.092344552 0.79799998 0.011193279 1.3179557e-38 386 232
0.093743719 0.79799998 0.011193279 1.3179557e-38 387 232
0.095381334 0.80000001 0.011221333 1.2171956e-38 388 232
0.052742019 0.81300002 0.0099782199 1.0786474e-38 357 233
0.053767715 0.80699998 0.0099045793 1.26264e-38 358 233
0.055182658 0.80699998 0.0099045793 1.2995541e-38 359 233
0.056457333 0.80500001 0.0098800333 1.3363952e-38 360 233
0.057868768 0.80500001 0.0098800333 1.3363952e-38 361 233
0.059280202 0.80500001 0.0098800333 1.3549068e-38 362 233
0.060540844 0.80299997 0.0098554865 1.3733461e-38 363 233
0.061948773 0.80299997 0.0098554865 1.3826725e-38 364 233
0.063277796 0.80199999 0.0098432126 1.4564649e-38 365 233
0.064522661 0.80000001 0.0098186666 1.5575909e-38 366 233
0.065760516 0.79799998 0.0097941197 1.5852136e-38 367 233
0.067159683 0.79799998 0.0097941197 1.5302918e-38 368 233
0.068387017 0.796 0.0097695729 1.5579144e-38 369 233
0.069782659 0.796 0.0097695729 1.576354e-38 370 233
0.071178317 0.796 0.0097695729 1.5947931e-38 371 233
0.072573967 0.796 0.0097695729 1.6315638e-38 372 233
0.073969625 0.796 0.0097695729 1.6592224e-38 373 233
0.075365283 0.796 0.0097695729 1.6775897e-38 374 233
0.076760925 0.796 0.0097695729 1.6959928e-38 375 233
0.078156583 0.796 0.0097695729 1.7052111e-38 376 233
0.079352364 0.79400003 0.0097450269 1.686772e-38 377 233
0.080744505 0.79400003 0.0097450269 1.7050649e-38 378 233
0.082136653 0.79400003 0.0097450269 1.6681508e-38 379 233
0.083528802 0.79400003 0.0097450269 1.6587492e-38 380 233
0.08492095 0.79400003 0.0097450269 1.6126873e-38 381 233
0.086313091 0.79400003 0.0097450269 1.5666967e-38 382 233
0.08770524 0.79400003 0.0097450269 1.5482575e-38 383 233
0.089321814 0.796 0.0097695729 1.5021243e-38 384 233
0.090717465 0.796 0.0097695729 1.4652819e-38 385 233
0.092113115 0.796 0.0097695729 1.3916362e-38 386 233
0.093743719 0.79799998 0.0097941197 1.3455743e-38 387 233
0.095142879 0.79799998 0.0097941197 1.1707713e-38 388 233
0.096542038 0.79799998 0.0097941197 1.3920406e-38 389 233
0.053767715 0.80699998 0.0084896395 1.1799168e-38 358 234
0.055182658 0.80699998 0.0084896395 1.2536735e-38 359 234
0.056457333 0.80500001 0.0084686 1.3546548e-38 360 234
0.057868768 0.80500001 0.0084686 1.3822775e-38 361 234
0.059280202 0.80500001 0.0084686 1.3732009e-38 362 234
0.060540844 0.80299997 0.0084475596 1.3916759e-38 363 234
0.061948773 0.80299997 0.0084475596 1.3734513e-38 364 234
0.06312 0.80000001 0.0084159998 1.4379882e-38 365 234
0.064522661 0.80000001 0.0084159998 1.5116356e-38 366 234
0.065760516 0.79799998 0.0083949603 1.5392583e-38 367 234
0.066991359 0.796 0.0083739199 1.5485859e-38 368 234
0.068387017 0.796 0.0083739199 1.5762444e-38 369 234
0.069782659 0.796 0.0083739199 1.5946484e-38 370 234
0.071178317 0.796 0.0083739199 1.6038679e-38 371 234
0.072573967 0.796 0.0083739199 1.6406742e-38 372 234
0.073969625 0.796 0.0083739199 1.6775165e-38 373 234
0.075175926 0.79400003 0.0083528794 1.6958843e-38 374 234
0.076568067 0.79400003 0.0083528794 1.723507e-38 375 234
0.077960216 0.79400003 0.0083528794 1.7051758e-38 376 234
0.07915248 0.792 0.0083318399 1.7051758e-38 377 234
0.080541119 0.792 0.0083318399 1.6775521e-38 378 234
0.081929758 0.792 0.0083318399 1.6498934e-38 379 234
0.083318397 0.792 0.0083318399 1.6495688e-38 380 234
0.084707037 0.792 0.0083318399 1.6219461e-38 381 234
0.086095676 0.792 0.0083318399 1.5575517e-38 382 234
0.087484315 0.792 0.0083318399 1.5298569e-38 383 234
0.089097388 0.79400003 0.0083528794 1.4655355e-38 384 234
0.090717465 0.796 0.0083739199 1.4194377e-38 385 234
0.092113115 0.796 0.0083739199 1.3734491e-38 386 234
0.093743719 0.79799998 0.0083949603 1.3181317e-38 387 234
0.095142879 0.79799998 0.0083949603 1.2349826e-38 388 234
0.096542038 0.79799998 0.0083949603 1.373276e-38 389 234
0.09794119 0.79799998 0.0083949603 1.4016976e-38 390 234
0.056457333 0.80500001 0.0070571667 1.2905142e-38 360 235
0.057868768 0.80500001 0.0070571667 1.3089532e-38 361 235
0.059280202 0.80500001 0.0070571667 1.3549418e-38 362 235
0.060540844 0.80299997 0.0070396326 1.3641614e-38 363 235
0.061948773 0.80299997 0.0070396326 1.3735236e-38 364 235
0.06312 0.80000001 0.007013333 1.4011823e-38 365 235
0.064522661 0.80000001 0.007013333 1.4748296e-38 366 235
0.065760516 0.79799998 0.0069957995 1.5116719e-38 367 235
0.066991359 0.796 0.0069782664 1.5301833e-38 368 235
0.068387017 0.796 0.0069782664 1.5486583e-38 369 235
0.069782659 0.796 0.0069782664 1.5670977e-38 370 235
0.071178317 0.796 0.0069782664 1.5947205e-38 371 235
0.072573967 0.796 0.0069782664 1.6130878e-38 372 235
0.073969625 0.796 0.0069782664 1.6499659e-38 373 235
0.075175926 0.79400003 0.0069607338 1.6775171e-38 374 235
0.076568067 0.79400003 0.0069607338 1.6959562e-38 375 235
0.077763841 0.792 0.0069431998 1.6960278e-38 376 235
0.07915248 0.792 0.0069431998 1.6776247e-38 377 235
0.080541119 0.792 0.0069431998 1.6866994e-38 378 235
0.081929758 0.792 0.0069431998 1.6590407e-38 379 235
0.083318397 0.792 0.0069431998 1.6771907e-38 380 235
0.084493138 0.79000002 0.0069256667 1.6310931e-38 381 235
0.08587826 0.79000002 0.0069256667 1.5759179e-38 382 235
0.087484315 0.792 0.0069431998 1.5390755e-38 383 235
0.088872954 0.792 0.0069431998 1.4930851e-38 384 235
0.090717465 0.796 0.0069782664 1.4653904e-38 385 235
0.092113115 0.796 0.0069782664 1.4101816e-38 386 235
0.093743719 0.79799998 0.0069957995 1.3640477e-38 387 235
0.094904423 0.796 0.0069782664 1.2441995e-38 388 235
0.096300073 0.796 0.0069782664 1.3271757e-38 389 235
0.097695731 0.796 0.0069782664 1.2819139e-38 390 235
0.057868768 0.80500001 0.0056457333 1.3273207e-38 361 236
0.059280202 0.80500001 0.0056457333 1.3732731e-38 362 236
0.060540844 0.80299997 0.0056317062 1.3917123e-38 363 236
0.061948773 0.80299997 0.0056317062 1.4009672e-38 364 236
0.06312 0.80000001 0.0056106667 1.4286257e-38 365 236
0.064522661 0.80000001 0.0056106667 1.4288406e-38 366 236
0.065760516 0.79799998 0.0055966396 1.4657548e-38 367 236
0.066991359 0.796 0.0055826134 1.5209637e-38 368 236
0.068387017 0.796 0.0055826134 1.5394029e-38 369 236
0.069782659 0.796 0.0055826134 1.5853924e-38 370 236
0.071178317 0.796 0.0055826134 1.6130152e-38 371 236
0.072573967 0.796 0.0055826134 1.6314543e-38 372 236
0.07378377 0.79400003 0.0055685868 1.6406739e-38 373 236
0.075175926 0.79400003 0.0055685868 1.6774448e-38 374 236
0.076375201 0.792 0.0055545596 1.6958841e-38 375 236
0.077763841 0.792 0.0055545596 1.6959562e-38 376 236
0.07915248 0.792 0.0055545596 1.6959562e-38 377 236
0.080541119 0.792 0.0055545596 1.6958841e-38 378 236
0.081929758 0.792 0.0055545596 1.6774448e-38 379 236
0.083108 0.79000002 0.0055405335 1.6680807e-38 380 236
0.084493138 0.79000002 0.0055405335 1.6219829e-38 381 236
0.08587826 0.79000002 0.0055405335 1.5575879e-38 382 236
0.087263398 0.79000002 0.0055405335 1.5207457e-38 383 236
0.088648535 0.79000002 0.0055405335 1.5023415e-38 384 236
0.090261593 0.792 0.0055545596 1.4562438e-38 385 236
0.091881685 0.79400003 0.0055685868 1.4102179e-38 386 236
0.093508773 0.796 0.0055826134 1.3549005e-38 387 236
0.094904423 0.796 0.0055826134 1.2995866e-38 388 236
0.096300073 0.796 0.0055826134 1.2719639e-38 389 236
0.097695731 0.796 0.0055826134 1.1619854e-38 390 236
0.057868768 0.80500001 0.0042343 1.3272498e-38 361 237
0.059280202 0.80500001 0.0042343 1.382421e-38 362 237
0.060691636 0.80500001 0.0042343 1.4100438e-38 363 237
