# .PCD v.7 - Point Cloud Data file format
FIELDS x y z rgb imX imY
SIZE 4 4 4 4 4 4
TYPE F F F F F F
COUNT 1 1 1 1 1 1
WIDTH 835
HEIGHT 1
VIEWPOINT 0 0 0 1 0 0 0
POINTS 835
DATA ascii
-0.069503881 0.80900002 0.031205826 1.7048861e-38 271 218
-0.06808544 0.80900002 0.031205826 1.6680802e-38 272 218
-0.066666998 0.80900002 0.031205826 1.6404574e-38 273 218
-0.065248549 0.80900002 0.031205826 1.6219108e-38 274 218
-0.063830093 0.80900002 0.031205826 1.5942519e-38 275 218
-0.062411651 0.80900002 0.031205826 1.5298949e-38 276 218
-0.061143994 0.81099999 0.031282969 1.5022002e-38 277 218
-0.05972204 0.81099999 0.031282969 1.428444e-38 278 218
-0.058443859 0.81300002 0.03136012 1.3639071e-38 279 218
-0.057018399 0.81300002 0.03136012 1.2257585e-38 280 218
-0.055729698 0.815 0.031437267 1.1796607e-38 281 218
-0.054433983 0.81699997 0.03151441 1.2071048e-38 282 218
-0.053001508 0.81699997 0.03151441 1.1794103e-38 283 218
-0.05169528 0.81900001 0.031591557 1.1242735e-38 284 218
-0.0502593 0.81900001 0.031591557 1.1242735e-38 285 218
-0.049061771 0.82300001 0.031745855 1.1058351e-38 286 218
-0.04761878 0.82300001 0.031745855 1.1058351e-38 287 218
-0.046287999 0.82499999 0.031822998 1.0689929e-38 288 218
-0.044732794 0.82300001 0.031745855 1.0228951e-38 289 218
-0.043289799 0.82300001 0.031745855 9.2140937e-39 290 218
-0.089583054 0.81099999 0.02986102 1.4201329e-38 257 219
-0.088161096 0.81099999 0.02986102 1.5391163e-38 258 219
-0.086739153 0.81099999 0.02986102 1.5944337e-38 259 219
-0.085317194 0.81099999 0.02986102 1.6129779e-38 260 219
-0.083895244 0.81099999 0.02986102 1.631453e-38 261 219
-0.082473285 0.81099999 0.02986102 1.6590404e-38 262 219
-0.080851458 0.80900002 0.02978738 1.686735e-38 263 219
-0.079433009 0.80900002 0.02978738 1.723506e-38 264 219
-0.078207433 0.81099999 0.02986102 1.7511287e-38 265 219
-0.076785475 0.81099999 0.02986102 1.7511287e-38 266 219
-0.075363517 0.81099999 0.02986102 1.7511287e-38 267 219
-0.073759228 0.80900002 0.02978738 1.7326174e-38 268 219
-0.072340779 0.80900002 0.02978738 1.7049946e-38 269 219
-0.07092233 0.80900002 0.02978738 1.7048508e-38 270 219
-0.069503881 0.80900002 0.02978738 1.6772281e-38 271 219
-0.06808544 0.80900002 0.02978738 1.6771204e-38 272 219
-0.066666998 0.80900002 0.02978738 1.6402423e-38 273 219
-0.065248549 0.80900002 0.02978738 1.5942887e-38 274 219
-0.063830093 0.80900002 0.02978738 1.5574463e-38 275 219
-0.062411651 0.80900002 0.02978738 1.5297517e-38 276 219
-0.061143994 0.81099999 0.02986102 1.4744343e-38 277 219
-0.05972204 0.81099999 0.02986102 1.3639798e-38 278 219
-0.058443859 0.81300002 0.02993466 1.2902231e-38 279 219
-0.057018399 0.81300002 0.02993466 1.1704777e-38 280 219
-0.055729698 0.815 0.030008299 1.142855e-38 281 219
-0.054433983 0.81699997 0.030081939 1.1518961e-38 282 219
-0.053001508 0.81699997 0.030081939 1.1426764e-38 283 219
-0.05169528 0.81900001 0.030155579 1.1150903e-38 284 219
-0.0502593 0.81900001 0.030155579 1.1058707e-38 285 219
-0.049061771 0.82300001 0.03030286 1.1058707e-38 286 219
-0.04761878 0.82300001 0.03030286 1.0782121e-38 287 219
-0.046175785 0.82300001 0.03030286 1.0596657e-38 288 219
-0.044732794 0.82300001 0.03030286 9.8590918e-39 289 219
-0.089362144 0.80900002 0.028368933 1.4200233e-38 257 220
-0.087943695 0.80900002 0.028368933 1.585177e-38 258 220
-0.086525239 0.80900002 0.028368933 1.6036161e-38 259 220
-0.085106798 0.80900002 0.028368933 1.6405643e-38 260 220
-0.083688356 0.80900002 0.028368933 1.649784e-38 261 220
-0.082269907 0.80900002 0.028368933 1.7141413e-38 262 220
-0.080851458 0.80900002 0.028368933 1.7325804e-38 263 220
-0.079433009 0.80900002 0.028368933 1.7326171e-38 264 220
-0.078014567 0.80900002 0.028368933 1.7510921e-38 265 220
-0.076596119 0.80900002 0.028368933 1.7510921e-38 266 220
-0.07517767 0.80900002 0.028368933 1.7326171e-38 267 220
-0.073576882 0.80699998 0.028298797 1.723433e-38 268 220
-0.072161935 0.80699998 0.028298797 1.6957745e-38 269 220
-0.07092233 0.80900002 0.028368933 1.6772635e-38 270 220
-0.069503881 0.80900002 0.028368933 1.6588242e-38 271 220
-0.06808544 0.80900002 0.028368933 1.6403142e-38 272 220
-0.066666998 0.80900002 0.028368933 1.621911e-38 273 220
-0.065248549 0.80900002 0.028368933 1.5849968e-38 274 220
-0.063830093 0.80900002 0.028368933 1.5757772e-38 275 220
-0.062411651 0.80900002 0.028368933 1.4654301e-38 276 220
-0.061143994 0.81099999 0.028439065 1.3916378e-38 277 220
-0.05972204 0.81099999 0.028439065 1.2443048e-38 278 220
-0.058587633 0.815 0.028579332 1.198207e-38 279 220
-0.057158664 0.815 0.028579332 1.1244155e-38 280 220
-0.055866458 0.81699997 0.028649466 1.1244155e-38 281 220
-0.054433983 0.81699997 0.028649466 1.1426764e-38 282 220
-0.053131256 0.81900001 0.0287196 1.1242732e-38 283 220
-0.05169528 0.81900001 0.0287196 1.1058354e-38 284 220
-0.0502593 0.81900001 0.0287196 1.1058354e-38 285 220
-0.048942544 0.82099998 0.028789733 1.0965086e-38 286 220
-0.04761878 0.82300001 0.028859867 1.0780695e-38 287 220
-0.046175785 0.82300001 0.028859867 9.4888855e-39 288 220
-0.092807434 0.80199999 0.026717292 1.7794475e-38 254 221
-0.091743164 0.80500001 0.026817232 1.6595934e-38 255 221
-0.090331733 0.80500001 0.026817232 1.5119294e-38 256 221
-0.08914122 0.80699998 0.026883857 1.4474284e-38 257 221
-0.087943695 0.80900002 0.026950486 1.5944672e-38 258 221
-0.086525239 0.80900002 0.026950486 1.6220899e-38 259 221
-0.085106798 0.80900002 0.026950486 1.631345e-38 260 221
-0.083688356 0.80900002 0.026950486 1.6590038e-38 261 221
-0.082269907 0.80900002 0.026950486 1.6866268e-38 262 221
-0.080851458 0.80900002 0.026950486 1.7050659e-38 263 221
-0.079433009 0.80900002 0.026950486 1.7142862e-38 264 221
-0.077821694 0.80699998 0.026883857 1.7142862e-38 265 221
-0.076406755 0.80699998 0.026883857 1.6959196e-38 266 221
-0.07517767 0.80900002 0.026950486 1.6867001e-38 267 221
-0.073576882 0.80699998 0.026883857 1.6866271e-38 268 221
-0.072161935 0.80699998 0.026883857 1.6589685e-38 269 221
-0.07092233 0.80900002 0.026950486 1.6771198e-38 270 221
-0.069503881 0.80900002 0.026950486 1.6587167e-38 271 221
-0.06808544 0.80900002 0.026950486 1.6219464e-38 272 221
-0.066666998 0.80900002 0.026950486 1.5942517e-38 273 221
-0.065248549 0.80900002 0.026950486 1.557481e-38 274 221
-0.063830093 0.80900002 0.026950486 1.5298223e-38 275 221
-0.062411651 0.80900002 0.026950486 1.4101478e-38 276 221
-0.061143994 0.81099999 0.027017111 1.3179163e-38 277 221
-0.059869319 0.81300002 0.02708374 1.2257218e-38 278 221
-0.058587633 0.815 0.027150365 1.1980272e-38 279 221
-0.057158664 0.815 0.027150365 1.1519311e-38 280 221
-0.055866458 0.81699997 0.027216991 1.1427114e-38 281 221
-0.054567236 0.81900001 0.027283618 1.1150903e-38 282 221
-0.053131256 0.81900001 0.027283618 1.1150903e-38 283 221
-0.05169528 0.81900001 0.027283618 1.1149833e-38 284 221
-0.0502593 0.81900001 0.027283618 1.1057638e-38 285 221
-0.048942544 0.82099998 0.027350245 1.0871819e-38 286 221
-0.04761878 0.82300001 0.027416872 9.7658298e-39 287 221
-0.094213605 0.80199999 0.02531112 1.7703729e-38 253 222
-0.092807434 0.80199999 0.02531112 1.6965052e-38 254 222
-0.091515228 0.80299997 0.025342679 1.5489564e-38 255 222
-0.090331733 0.80500001 0.025405798 1.5024199e-38 256 222
-0.088920295 0.80500001 0.025405798 1.5300426e-38 257 222
-0.08772628 0.80699998 0.025468919 1.6037221e-38 258 222
-0.086311333 0.80699998 0.025468919 1.6313447e-38 259 222
-0.084896393 0.80699998 0.025468919 1.6681505e-38 260 222
-0.083481453 0.80699998 0.025468919 1.6866255e-38 261 222
-0.082066514 0.80699998 0.025468919 1.6866621e-38 262 222
-0.080651581 0.80699998 0.025468919 1.6958817e-38 263 222
-0.079236634 0.80699998 0.025468919 1.7325451e-38 264 222
-0.077821694 0.80699998 0.025468919 1.7325451e-38 265 222
-0.076406755 0.80699998 0.025468919 1.7050665e-38 266 222
-0.07517767 0.80900002 0.025532039 1.6865915e-38 267 222
-0.073576882 0.80699998 0.025468919 1.6773356e-38 268 222
-0.072161935 0.80699998 0.025468919 1.6588605e-38 269 222
-0.07092233 0.80900002 0.025532039 1.6587523e-38 270 222
-0.069503881 0.80900002 0.025532039 1.6402773e-38 271 222
-0.06808544 0.80900002 0.025532039 1.6035432e-38 272 222
-0.066666998 0.80900002 0.025532039 1.5759204e-38 273 222
-0.065248549 0.80900002 0.025532039 1.5390066e-38 274 222
-0.063830093 0.80900002 0.025532039 1.4468468e-38 275 222
-0.062411651 0.80900002 0.025532039 1.3270292e-38 276 222
-0.061143994 0.81099999 0.025595158 1.244053e-38 277 222
-0.05972204 0.81099999 0.025595158 1.1979203e-38 278 222
-0.058587633 0.815 0.025721399 1.1887007e-38 279 222
-0.057158664 0.815 0.025721399 1.1518961e-38 280 222
-0.055866458 0.81699997 0.025784519 1.1242732e-38 281 222
-0.054567236 0.81900001 0.02584764 1.1242382e-38 282 222
-0.053131256 0.81900001 0.02584764 1.1150187e-38 283 222
-0.05169528 0.81900001 0.02584764 1.1057632e-38 284 222
-0.0502593 0.81900001 0.02584764 1.0873241e-38 285 222
-0.048942544 0.82099998 0.025910759 1.0135701e-38 286 222
-0.095381334 0.80000001 0.023845334 1.7704445e-38 252 223
-0.093978666 0.80000001 0.023845334 1.7243825e-38 253 223
-0.092807434 0.80199999 0.023904946 1.5765408e-38 254 223
-0.091515228 0.80299997 0.023934752 1.4751616e-38 255 223
-0.090331733 0.80500001 0.023994366 1.5206413e-38 256 223
-0.088920295 0.80500001 0.023994366 1.5575556e-38 257 223
-0.087508865 0.80500001 0.023994366 1.5945025e-38 258 223
-0.086097427 0.80500001 0.023994366 1.6313447e-38 259 223
-0.084896393 0.80699998 0.02405398 1.6865536e-38 260 223
-0.083481453 0.80699998 0.02405398 1.7141763e-38 261 223
-0.082066514 0.80699998 0.02405398 1.6958098e-38 262 223
-0.080651581 0.80699998 0.02405398 1.7050293e-38 263 223
-0.079236634 0.80699998 0.02405398 1.7141063e-38 264 223
-0.077821694 0.80699998 0.02405398 1.7141063e-38 265 223
-0.076406755 0.80699998 0.02405398 1.6957394e-38 266 223
-0.074991815 0.80699998 0.02405398 1.6865199e-38 267 223
-0.073576882 0.80699998 0.02405398 1.6772281e-38 268 223
-0.072161935 0.80699998 0.02405398 1.6587889e-38 269 223
-0.070746996 0.80699998 0.02405398 1.6403495e-38 270 223
-0.069332056 0.80699998 0.02405398 1.6127268e-38 271 223
-0.067917116 0.80699998 0.02405398 1.5942517e-38 272 223
-0.066502176 0.80699998 0.02405398 1.5574094e-38 273 223
-0.065248549 0.80900002 0.024113594 1.4561028e-38 274 223
-0.063830093 0.80900002 0.024113594 1.3455039e-38 275 223
-0.062411651 0.80900002 0.024113594 1.2625291e-38 276 223
-0.061143994 0.81099999 0.024173206 1.2072118e-38 277 223
-0.05972204 0.81099999 0.024173206 1.1978497e-38 278 223
-0.058587633 0.815 0.024292432 1.1794106e-38 279 223
-0.057298932 0.81699997 0.024352046 1.1243098e-38 280 223
-0.055866458 0.81699997 0.024352046 1.1150903e-38 281 223
-0.054567236 0.81900001 0.02441166 1.1150905e-38 282 223
-0.053131256 0.81900001 0.02441166 1.1150905e-38 283 223
-0.05169528 0.81900001 0.02441166 1.1057635e-38 284 223
-0.0502593 0.81900001 0.02441166 9.6747005e-39 285 223
-0.048942544 0.82099998 0.024471272 8.4772714e-39 286 223
-0.095381334 0.80000001 0.022442667 1.7887747e-38 252 224
-0.093978666 0.80000001 0.022442667 1.67814e-38 253 224
-0.092807434 0.80199999 0.022498772 1.4658322e-38 254 224
-0.091515228 0.80299997 0.022526825 1.4289899e-38 255 224
-0.090331733 0.80500001 0.022582933 1.5759571e-38 256 224
-0.088920295 0.80500001 0.022582933 1.5851767e-38 257 224
-0.087508865 0.80500001 0.022582933 1.6220533e-38 258 224
-0.086097427 0.80500001 0.022582933 1.6404924e-38 259 224
-0.084896393 0.80699998 0.022639038 1.6865183e-38 260 224
-0.083481453 0.80699998 0.022639038 1.714141e-38 261 224
-0.082066514 0.80699998 0.022639038 1.6957745e-38 262 224
-0.080651581 0.80699998 0.022639038 1.6773353e-38 263 224
-0.079236634 0.80699998 0.022639038 1.6773003e-38 264 224
-0.077821694 0.80699998 0.022639038 1.6680807e-38 265 224
-0.076406755 0.80699998 0.022639038 1.677265e-38 266 224
-0.074991815 0.80699998 0.022639038 1.6680454e-38 267 224
-0.07339453 0.80500001 0.022582933 1.6404221e-38 268 224
-0.071983099 0.80500001 0.022582933 1.6219829e-38 269 224
-0.070746996 0.80699998 0.022639038 1.6127268e-38 270 224
-0.069332056 0.80699998 0.022639038 1.5942517e-38 271 224
-0.067917116 0.80699998 0.022639038 1.5574447e-38 272 224
-0.066502176 0.80699998 0.022639038 1.5113109e-38 273 224
-0.065248549 0.80900002 0.022695147 1.3825617e-38 274 224
-0.063830093 0.80900002 0.022695147 1.2534878e-38 275 224
-0.062411651 0.80900002 0.022695147 1.2164316e-38 276 224
-0.061143994 0.81099999 0.022751253 1.1979925e-38 277 224
-0.05972204 0.81099999 0.022751253 1.1794108e-38 278 224
-0.058587633 0.815 0.022863466 1.1701553e-38 279 224
-0.057298932 0.81699997 0.022919571 1.1242379e-38 280 224
-0.055866458 0.81699997 0.022919571 1.142641e-38 281 224
-0.054567236 0.81900001 0.022975679 1.0875039e-38 282 224
-0.053131256 0.81900001 0.022975679 1.0690648e-38 283 224
-0.05169528 0.81900001 0.022975679 1.0045656e-38 284 224
-0.0502593 0.81900001 0.022975679 8.2935794e-39 285 224
-0.095619783 0.80199999 0.021092599 1.7057617e-38 252 225
-0.094213605 0.80199999 0.021092599 1.5674323e-38 253 225
-0.092923149 0.80299997 0.0211189 1.4655435e-38 254 225
-0.091743164 0.80500001 0.021171499 1.5024218e-38 255 225
-0.090331733 0.80500001 0.021171499 1.6036514e-38 256 225
-0.088920295 0.80500001 0.021171499 1.6220545e-38 257 225
-0.087508865 0.80500001 0.021171499 1.640528e-38 258 225
-0.086097427 0.80500001 0.021171499 1.6681508e-38 259 225
-0.084685996 0.80500001 0.021171499 1.6773707e-38 260 225
-0.083481453 0.80699998 0.021224098 1.6865902e-38 261 225
-0.082066514 0.80699998 0.021224098 1.6771554e-38 262 225
-0.080651581 0.80699998 0.021224098 1.6494969e-38 263 225
-0.079236634 0.80699998 0.021224098 1.6862681e-38 264 225
-0.077821694 0.80699998 0.021224098 1.6862681e-38 265 225
-0.076406755 0.80699998 0.021224098 1.6588253e-38 266 225
-0.074991815 0.80699998 0.021224098 1.6404221e-38 267 225
-0.07339453 0.80500001 0.021171499 1.6403495e-38 268 225
-0.071983099 0.80500001 0.021171499 1.6127268e-38 269 225
-0.070571661 0.80500001 0.021171499 1.5759204e-38 270 225
-0.069332056 0.80699998 0.021224098 1.5574813e-38 271 225
-0.067917116 0.80699998 0.021224098 1.5114188e-38 272 225
-0.066502176 0.80699998 0.021224098 1.4007482e-38 273 225
-0.065248549 0.80900002 0.021276699 1.3821298e-38 274 225
-0.063830093 0.80900002 0.021276699 1.2991538e-38 275 225
-0.062411651 0.80900002 0.021276699 1.2255077e-38 276 225
-0.061143994 0.81099999 0.021329299 1.197885e-38 277 225
-0.059869319 0.81300002 0.0213819 1.161044e-38 278 225
-0.058587633 0.815 0.021434501 1.1518243e-38 279 225
-0.057158664 0.815 0.021434501 1.1242735e-38 280 225
-0.055866458 0.81699997 0.021487098 1.1150181e-38 281 225
-0.054567236 0.81900001 0.021539699 1.069065e-38 282 225
-0.053131256 0.81900001 0.021539699 9.6764984e-39 283 225
-0.05169528 0.81900001 0.021539699 8.1113601e-39 284 225
-0.097025953 0.80199999 0.019686425 1.7703729e-38 251 226
-0.095619783 0.80199999 0.019686425 1.576866e-38 252 226
-0.094331078 0.80299997 0.019710973 1.4200976e-38 253 226
-0.093154602 0.80500001 0.019760067 1.5022397e-38 254 226
-0.091743164 0.80500001 0.019760067 1.5667767e-38 255 226
-0.090331733 0.80500001 0.019760067 1.6403845e-38 256 226
-0.088920295 0.80500001 0.019760067 1.6588236e-38 257 226
-0.087508865 0.80500001 0.019760067 1.6773338e-38 258 226
-0.086097427 0.80500001 0.019760067 1.6773338e-38 259 226
-0.084685996 0.80500001 0.019760067 1.6773707e-38 260 226
-0.083274566 0.80500001 0.019760067 1.6312728e-38 261 226
-0.081863128 0.80500001 0.019760067 1.6310933e-38 262 226
-0.080451705 0.80500001 0.019760067 1.6126182e-38 263 226
-0.079236634 0.80699998 0.019809159 1.5851767e-38 264 226
-0.077821694 0.80699998 0.019809159 1.6312744e-38 265 226
-0.076217398 0.80500001 0.019760067 1.603688e-38 266 226
-0.074805968 0.80500001 0.019760067 1.603688e-38 267 226
-0.07339453 0.80500001 0.019760067 1.5944319e-38 268 226
-0.071983099 0.80500001 0.019760067 1.5759927e-38 269 226
-0.070571661 0.80500001 0.019760067 1.5849968e-38 270 226
-0.06916023 0.80500001 0.019760067 1.538935e-38 271 226
-0.0677488 0.80500001 0.019760067 1.4653946e-38 272 226
-0.066502176 0.80699998 0.019809159 1.3178815e-38 273 226
-0.065248549 0.80900002 0.019858252 1.2900799e-38 274 226
-0.063830093 0.80900002 0.019858252 1.2347625e-38 275 226
-0.062565938 0.81099999 0.019907346 1.1704427e-38 276 226
-0.061294779 0.81300002 0.01995644 1.14282e-38 277 226
-0.059869319 0.81300002 0.01995644 1.1335646e-38 278 226
-0.058587633 0.815 0.020005532 1.1243449e-38 279 226
-0.057158664 0.815 0.020005532 1.11509e-38 280 226
-0.055866458 0.81699997 0.020054625 1.0782477e-38 281 226
-0.097025953 0.80199999 0.018280253 1.7059075e-38 251 227
-0.095619783 0.80199999 0.018280253 1.4384626e-38 252 227
-0.094331078 0.80299997 0.018303044 1.3554864e-38 253 227
-0.092923149 0.80299997 0.018303044 1.5851417e-38 254 227
-0.091515228 0.80299997 0.018303044 1.6036167e-38 255 227
-0.090107299 0.80299997 0.018303044 1.640528e-38 256 227
-0.088699371 0.80299997 0.018303044 1.6681508e-38 257 227
-0.087291449 0.80299997 0.018303044 1.6773701e-38 258 227
-0.085883521 0.80299997 0.018303044 1.6773701e-38 259 227
-0.084685996 0.80500001 0.018348632 1.6588605e-38 260 227
-0.083274566 0.80500001 0.018348632 1.5297867e-38 261 227
-0.081863128 0.80500001 0.018348632 1.5111687e-38 262 227
-0.080451705 0.80500001 0.018348632 1.5203882e-38 263 227
-0.079040267 0.80500001 0.018348632 1.5299318e-38 264 227
-0.077628836 0.80500001 0.018348632 1.5575906e-38 265 227
-0.076217398 0.80500001 0.018348632 1.6126559e-38 266 227
-0.074805968 0.80500001 0.018348632 1.6219113e-38 267 227
-0.07339453 0.80500001 0.018348632 1.5943589e-38 268 227
-0.071983099 0.80500001 0.018348632 1.5759557e-38 269 227
-0.070571661 0.80500001 0.018348632 1.5574457e-38 270 227
-0.06916023 0.80500001 0.018348632 1.4744696e-38 271 227
-0.0677488 0.80500001 0.018348632 1.3733068e-38 272 227
-0.066666998 0.80900002 0.018439807 1.2350134e-38 273 227
-0.065248549 0.80900002 0.018439807 1.2714973e-38 274 227
-0.063987896 0.81099999 0.018485393 1.2253995e-38 275 227
-0.062720239 0.81300002 0.01853098 1.1702639e-38 276 227
-0.061294779 0.81300002 0.01853098 1.1610443e-38 277 227
-0.060016599 0.815 0.018576566 1.1243454e-38 278 227
-0.058731399 0.81699997 0.018622151 1.11509e-38 279 227
-0.057298932 0.81699997 0.018622151 1.0967237e-38 280 227
-0.055866458 0.81699997 0.018622151 1.0229672e-38 281 227
-0.097025953 0.80199999 0.016874079 1.6505536e-38 251 228
-0.095619783 0.80199999 0.016874079 1.4290969e-38 252 228
-0.094331078 0.80299997 0.016895119 1.382999e-38 253 228
-0.092923149 0.80299997 0.016895119 1.5945388e-38 254 228
-0.091515228 0.80299997 0.016895119 1.6037583e-38 255 228
-0.090107299 0.80299997 0.016895119 1.6589308e-38 256 228
-0.088699371 0.80299997 0.016895119 1.6773701e-38 257 228
-0.087291449 0.80299997 0.016895119 1.6865536e-38 258 228
-0.085883521 0.80299997 0.016895119 1.6680785e-38 259 228
-0.084475599 0.80299997 0.016895119 1.6494624e-38 260 228
-0.08306767 0.80299997 0.016895119 1.5111331e-38 261 228
-0.081659742 0.80299997 0.016895119 1.4925883e-38 262 228
-0.08025182 0.80299997 0.016895119 1.5110633e-38 263 228
-0.078843892 0.80299997 0.016895119 1.5112076e-38 264 228
-0.077435955 0.80299997 0.016895119 1.5573053e-38 265 228
-0.076028034 0.80299997 0.016895119 1.5666674e-38 266 228
-0.074620105 0.80299997 0.016895119 1.5758871e-38 267 228
-0.073212177 0.80299997 0.016895119 1.5484415e-38 268 228
-0.071804255 0.80299997 0.016895119 1.5299665e-38 269 228
-0.070396326 0.80299997 0.016895119 1.5113835e-38 270 228
-0.06916023 0.80500001 0.0169372 1.4191879e-38 271 228
-0.0677488 0.80500001 0.0169372 1.3362488e-38 272 228
-0.066666998 0.80900002 0.01702136 1.244053e-38 273 228
-0.065248549 0.80900002 0.01702136 1.1888455e-38 274 228
-0.063987896 0.81099999 0.017063441 1.1703705e-38 275 228
-0.062565938 0.81099999 0.017063441 1.1427491e-38 276 228
-0.061294779 0.81300002 0.01710552 1.1243098e-38 277 228
-0.059869319 0.81300002 0.01710552 1.096759e-38 278 228
-0.097025953 0.80199999 0.015467905 1.5215506e-38 251 229
-0.095619783 0.80199999 0.015467905 1.4473915e-38 252 229
-0.094331078 0.80299997 0.015487193 1.4658306e-38 253 229
-0.092923149 0.80299997 0.015487193 1.6037583e-38 254 229
-0.091515228 0.80299997 0.015487193 1.6129779e-38 255 229
-0.090107299 0.80299997 0.015487193 1.6681508e-38 256 229
-0.088699371 0.80299997 0.015487193 1.6865899e-38 257 229
-0.087291449 0.80299997 0.015487193 1.6864833e-38 258 229
-0.085883521 0.80299997 0.015487193 1.649569e-38 259 229
-0.084475599 0.80299997 0.015487193 1.539116e-38 260 229
-0.08306767 0.80299997 0.015487193 1.4008226e-38 261 229
-0.081659742 0.80299997 0.015487193 1.5016632e-38 262 229
-0.08025182 0.80299997 0.015487193 1.5201025e-38 263 229
-0.078843892 0.80299997 0.015487193 1.4927315e-38 264 229
-0.077435955 0.80299997 0.015487193 1.5480489e-38 265 229
-0.076028034 0.80299997 0.015487193 1.5757419e-38 266 229
-0.074620105 0.80299997 0.015487193 1.5849615e-38 267 229
-0.073212177 0.80299997 0.015487193 1.5391498e-38 268 229
-0.071804255 0.80299997 0.015487193 1.5114552e-38 269 229
-0.070396326 0.80299997 0.015487193 1.4469189e-38 270 229
-0.06916023 0.80500001 0.015525767 1.3362841e-38 271 229
-0.0677488 0.80500001 0.015525767 1.2716765e-38 272 229
-0.066502176 0.80699998 0.015564339 1.2071396e-38 273 229
-0.065248549 0.80900002 0.015602913 1.1978853e-38 274 229
-0.063987896 0.81099999 0.015641484 1.1886657e-38 275 229
-0.062565938 0.81099999 0.015641484 1.1426766e-38 276 229
-0.061143994 0.81099999 0.015641484 1.1242735e-38 277 229
-0.059869319 0.81300002 0.01568006 1.0875039e-38 278 229
-0.058587633 0.815 0.015718633 1.0506616e-38 279 229
-0.097146936 0.80299997 0.014079265 1.4200981e-38 251 230
-0.095739007 0.80299997 0.014079265 1.4656855e-38 252 230
-0.094331078 0.80299997 0.014079265 1.5210028e-38 253 230
-0.092923149 0.80299997 0.014079265 1.6220899e-38 254 230
-0.091515228 0.80299997 0.014079265 1.6497846e-38 255 230
-0.090107299 0.80299997 0.014079265 1.6773351e-38 256 230
-0.088699371 0.80299997 0.014079265 1.6958101e-38 257 230
-0.087291449 0.80299997 0.014079265 1.6957044e-38 258 230
-0.085883521 0.80299997 0.014079265 1.5942533e-38 259 230
-0.084475599 0.80299997 0.014079265 1.4470296e-38 260 230
-0.08306767 0.80299997 0.014079265 1.3456504e-38 261 230
-0.081659742 0.80299997 0.014079265 1.4557812e-38 262 230
-0.08025182 0.80299997 0.014079265 1.4926236e-38 263 230
-0.078843892 0.80299997 0.014079265 1.492839e-38 264 230
-0.077435955 0.80299997 0.014079265 1.5389009e-38 265 230
-0.076028034 0.80299997 0.014079265 1.5574463e-38 266 230
-0.074620105 0.80299997 0.014079265 1.5481908e-38 267 230
-0.073212177 0.80299997 0.014079265 1.5298949e-38 268 230
-0.071804255 0.80299997 0.014079265 1.465358e-38 269 230
-0.070396326 0.80299997 0.014079265 1.3823113e-38 270 230
-0.068988405 0.80299997 0.014079265 1.2901155e-38 271 230
-0.067580476 0.80299997 0.014079265 1.2714264e-38 272 230
-0.066502176 0.80699998 0.014149399 1.2437676e-38 273 230
-0.065248549 0.80900002 0.014184467 1.188667e-38 274 230
-0.063830093 0.80900002 0.014184467 1.1518246e-38 275 230
-0.062411651 0.80900002 0.014184467 1.1150903e-38 276 230
-0.061143994 0.81099999 0.014219533 1.1058707e-38 277 230
-0.059869319 0.81300002 0.0142546 1.0414786e-38 278 230
-0.058443859 0.81300002 0.0142546 9.8616127e-39 279 230
-0.057018399 0.81300002 0.0142546 7.9240976e-39 280 230
-0.097146936 0.80299997 0.012671339 1.3371565e-38 251 231
-0.095739007 0.80299997 0.012671339 1.5208581e-38 252 231
-0.094331078 0.80299997 0.012671339 1.5485527e-38 253 231
-0.092923149 0.80299997 0.012671339 1.6312741e-38 254 231
-0.091515228 0.80299997 0.012671339 1.6497492e-38 255 231
-0.090107299 0.80299997 0.012671339 1.6773353e-38 256 231
-0.088588916 0.80199999 0.01265556 1.6865549e-38 257 231
-0.087182745 0.80199999 0.01265556 1.6865562e-38 258 231
-0.085776575 0.80199999 0.01265556 1.5390792e-38 259 231
-0.084370397 0.80199999 0.01265556 1.4099355e-38 260 231
-0.082964227 0.80199999 0.01265556 1.4006801e-38 261 231
-0.081558049 0.80199999 0.01265556 1.4650008e-38 262 231
-0.080151878 0.80199999 0.01265556 1.5018432e-38 263 231
-0.0787457 0.80199999 0.01265556 1.4929456e-38 264 231
-0.07733953 0.80199999 0.01265556 1.5298599e-38 265 231
-0.075933352 0.80199999 0.01265556 1.5298946e-38 266 231
-0.074527182 0.80199999 0.01265556 1.5206751e-38 267 231
-0.073212177 0.80299997 0.012671339 1.5022358e-38 268 231
-0.071804255 0.80299997 0.012671339 1.4284793e-38 269 231
-0.070396326 0.80299997 0.012671339 1.2994434e-38 270 231
-0.068988405 0.80299997 0.012671339 1.2164313e-38 271 231
-0.067580476 0.80299997 0.012671339 1.1978502e-38 272 231
-0.066337362 0.80500001 0.012702899 1.1978502e-38 273 231
-0.065248549 0.80900002 0.012766019 1.1610806e-38 274 231
-0.063830093 0.80900002 0.012766019 1.1426413e-38 275 231
-0.062411651 0.80900002 0.012766019 1.0875042e-38 276 231
-0.061143994 0.81099999 0.012797579 1.0875042e-38 277 231
-0.059869319 0.81300002 0.01282914 9.9531049e-39 278 231
-0.058443859 0.81300002 0.01282914 8.9389516e-39 279 231
-0.099962786 0.80299997 0.011263412 1.6873964e-38 249 232
-0.098554865 0.80299997 0.011263412 1.4386424e-38 250 232
-0.097146936 0.80299997 0.011263412 1.3095685e-38 251 232
-0.095739007 0.80299997 0.011263412 1.575994e-38 252 232
-0.094331078 0.80299997 0.011263412 1.5944331e-38 253 232
-0.092923149 0.80299997 0.011263412 1.6404577e-38 254 232
-0.091401257 0.80199999 0.011249386 1.6773e-38 255 232
-0.089995086 0.80199999 0.011249386 1.6773e-38 256 232
-0.088588916 0.80199999 0.011249386 1.6865196e-38 257 232
-0.087182745 0.80199999 0.011249386 1.6682249e-38 258 232
-0.085776575 0.80199999 0.011249386 1.4930893e-38 259 232
-0.084370397 0.80199999 0.011249386 1.4373418e-38 260 232
-0.082964227 0.80199999 0.011249386 1.4650005e-38 261 232
-0.081558049 0.80199999 0.011249386 1.4650008e-38 262 232
-0.080151878 0.80199999 0.011249386 1.5110627e-38 263 232
-0.0787457 0.80199999 0.011249386 1.483834e-38 264 232
-0.07733953 0.80199999 0.011249386 1.5207122e-38 265 232
-0.075933352 0.80199999 0.011249386 1.5207826e-38 266 232
-0.074527182 0.80199999 0.011249386 1.4746847e-38 267 232
-0.073121011 0.80199999 0.011249386 1.391781e-38 268 232
-0.071804255 0.80299997 0.011263412 1.3088049e-38 269 232
-0.070396326 0.80299997 0.011263412 1.2531302e-38 270 232
-0.068988405 0.80299997 0.011263412 1.2254714e-38 271 232
-0.0677488 0.80500001 0.011291467 1.1885948e-38 272 232
-0.066337362 0.80500001 0.011291467 1.1793752e-38 273 232
-0.065087236 0.80699998 0.011319519 1.115163e-38 274 232
-0.063830093 0.80900002 0.011347573 1.1059434e-38 275 232
-0.062411651 0.80900002 0.011347573 1.069102e-38 276 232
-0.061143994 0.81099999 0.011375627 1.0414433e-38 277 232
-0.05972204 0.81099999 0.011375627 8.6623815e-39 278 232
-0.10124448 0.80199999 0.0098432126 1.7335655e-38 248 233
-0.099838302 0.80199999 0.0098432126 1.5860166e-38 249 233
-0.098554865 0.80299997 0.0098554865 1.438388e-38 250 233
-0.097146936 0.80299997 0.0098554865 1.3370089e-38 251 233
-0.095619783 0.80199999 0.0098432126 1.5760276e-38 252 233
-0.094213605 0.80199999 0.0098432126 1.6036865e-38 253 233
-0.092807434 0.80199999 0.0098432126 1.6404223e-38 254 233
-0.091401257 0.80199999 0.0098432126 1.6680452e-38 255 233
-0.089995086 0.80199999 0.0098432126 1.6772647e-38 256 233
-0.088588916 0.80199999 0.0098432126 1.6865202e-38 257 233
-0.087182745 0.80199999 0.0098432126 1.6590054e-38 258 233
-0.085776575 0.80199999 0.0098432126 1.4930893e-38 259 233
-0.084370397 0.80199999 0.0098432126 1.4373418e-38 260 233
-0.082964227 0.80199999 0.0098432126 1.4465614e-38 261 233
-0.08135467 0.80000001 0.0098186666 1.4743643e-38 262 233
-0.079952002 0.80000001 0.0098186666 1.5112785e-38 263 233
-0.078549333 0.80000001 0.0098186666 1.5297164e-38 264 233
-0.07733953 0.80199999 0.0098432126 1.538936e-38 265 233
-0.075933352 0.80199999 0.0098432126 1.4656101e-38 266 233
-0.074527182 0.80199999 0.0098432126 1.4379154e-38 267 233
-0.073121011 0.80199999 0.0098432126 1.3455771e-38 268 233
-0.071804255 0.80299997 0.0098554865 1.2810403e-38 269 233
-0.070396326 0.80299997 0.0098554865 1.1887749e-38 270 233
-0.06916023 0.80500001 0.0098800333 1.1703358e-38 271 233
-0.0677488 0.80500001 0.0098800333 1.1885954e-38 272 233
-0.066337362 0.80500001 0.0098800333 1.1701202e-38 273 233
-0.065087236 0.80699998 0.0099045793 1.1243101e-38 274 233
-0.063672297 0.80699998 0.0099045793 1.1150905e-38 275 233
-0.062411651 0.80900002 0.0099291261 1.0414433e-38 276 233
-0.060993209 0.80900002 0.0099291261 9.769064e-39 277 233
-0.05972204 0.81099999 0.009953673 8.5701859e-39 278 233
-0.10265064 0.80199999 0.0084370393 1.7428584e-38 247 234
-0.10124448 0.80199999 0.0084370393 1.6874314e-38 248 234
-0.099838302 0.80199999 0.0084370393 1.484601e-38 249 234
-0.098554865 0.80299997 0.0084475596 1.4290603e-38 250 234
-0.097146936 0.80299997 0.0084475596 1.4105851e-38 251 234
-0.095619783 0.80199999 0.0084370393 1.5943589e-38 252 234
-0.094213605 0.80199999 0.0084370393 1.6220177e-38 253 234
-0.092807434 0.80199999 0.0084370393 1.6587886e-38 254 234
-0.091401257 0.80199999 0.0084370393 1.6772637e-38 255 234
-0.089770667 0.80000001 0.0084159998 1.6680802e-38 256 234
-0.088367999 0.80000001 0.0084159998 1.6773356e-38 257 234
-0.087182745 0.80199999 0.0084370393 1.6588609e-38 258 234
-0.085776575 0.80199999 0.0084370393 1.529787e-38 259 234
-0.08416 0.80000001 0.0084159998 1.4741825e-38 260 234
-0.082757331 0.80000001 0.0084159998 1.464963e-38 261 234
-0.08135467 0.80000001 0.0084159998 1.4559235e-38 262 234
-0.079952002 0.80000001 0.0084159998 1.52968e-38 263 234
-0.078549333 0.80000001 0.0084159998 1.538935e-38 264 234
-0.077146664 0.80000001 0.0084159998 1.5204598e-38 265 234
-0.075743996 0.80000001 0.0084159998 1.4746141e-38 266 234
-0.074527182 0.80199999 0.0084370393 1.4008576e-38 267 234
-0.073121011 0.80199999 0.0084370393 1.234943e-38 268 234
-0.071804255 0.80299997 0.0084475596 1.1980648e-38 269 234
-0.070396326 0.80299997 0.0084475596 1.1886667e-38 270 234
-0.06916023 0.80500001 0.0084686 1.1702636e-38 271 234
-0.0677488 0.80500001 0.0084686 1.1518246e-38 272 234
-0.066337362 0.80500001 0.0084686 1.1518246e-38 273 234
-0.065087236 0.80699998 0.0084896395 1.1150903e-38 274 234
-0.063672297 0.80699998 0.0084896395 1.1058707e-38 275 234
-0.062257357 0.80699998 0.0084896395 9.4017262e-39 276 234
-0.060993209 0.80900002 0.0085106799 7.8344005e-39 277 234
-0.10265064 0.80199999 0.0070308661 1.7520782e-38 247 235
-0.10124448 0.80199999 0.0070308661 1.6689554e-38 248 235
-0.099962786 0.80299997 0.0070396326 1.4108077e-38 249 235
-0.098554865 0.80299997 0.0070396326 1.4564659e-38 250 235
-0.097146936 0.80299997 0.0070396326 1.4656855e-38 251 235
-0.095739007 0.80299997 0.0070396326 1.5852473e-38 252 235
-0.094213605 0.80199999 0.0070308661 1.6220896e-38 253 235
-0.092807434 0.80199999 0.0070308661 1.6680082e-38 254 235
-0.091401257 0.80199999 0.0070308661 1.6772637e-38 255 235
-0.089770667 0.80000001 0.007013333 1.6772635e-38 256 235
-0.088367999 0.80000001 0.007013333 1.6680438e-38 257 235
-0.086965337 0.80000001 0.007013333 1.6312375e-38 258 235
-0.085562661 0.80000001 0.007013333 1.5298223e-38 259 235
-0.08416 0.80000001 0.007013333 1.5202082e-38 260 235
-0.082757331 0.80000001 0.007013333 1.5109885e-38 261 235
-0.081151277 0.79799998 0.0069957995 1.4744343e-38 262 235
-0.079752117 0.79799998 0.0069957995 1.5021289e-38 263 235
-0.078549333 0.80000001 0.007013333 1.4929809e-38 264 235
-0.077146664 0.80000001 0.007013333 1.4929809e-38 265 235
-0.075743996 0.80000001 0.007013333 1.4100775e-38 266 235
-0.074341334 0.80000001 0.007013333 1.336321e-38 267 235
-0.073121011 0.80199999 0.0070308661 1.216396e-38 268 235
-0.071714841 0.80199999 0.0070308661 1.1979569e-38 269 235
-0.070396326 0.80299997 0.0070396326 1.1885948e-38 270 235
-0.06916023 0.80500001 0.0070571667 1.1793752e-38 271 235
-0.0677488 0.80500001 0.0070571667 1.1425692e-38 272 235
-0.066337362 0.80500001 0.0070571667 1.1333496e-38 273 235
-0.065087236 0.80699998 0.0070746993 1.096579e-38 274 235
-0.063672297 0.80699998 0.0070746993 1.0504812e-38 275 235
-0.062257357 0.80699998 0.0070746993 9.1215422e-39 276 235
-0.060993209 0.80900002 0.0070922333 7.8308033e-39 277 235
-0.10137071 0.80299997 0.0056317062 1.6137087e-38 248 236
-0.099962786 0.80299997 0.0056317062 1.3371218e-38 249 236
-0.098432131 0.80199999 0.0056246929 1.4840157e-38 250 236
-0.097025953 0.80199999 0.0056246929 1.5208581e-38 251 236
-0.095619783 0.80199999 0.0056246929 1.5944316e-38 252 236
-0.094213605 0.80199999 0.0056246929 1.6220901e-38 253 236
-0.092575997 0.80000001 0.0056106667 1.6588961e-38 254 236
-0.091173328 0.80000001 0.0056106667 1.6773353e-38 255 236
-0.089770667 0.80000001 0.0056106667 1.6681511e-38 256 236
-0.088367999 0.80000001 0.0056106667 1.6588955e-38 257 236
-0.086965337 0.80000001 0.0056106667 1.6036865e-38 258 236
-0.085562661 0.80000001 0.0056106667 1.5207104e-38 259 236
-0.08416 0.80000001 0.0056106667 1.5295349e-38 260 236
-0.082550429 0.79799998 0.0055966396 1.5295349e-38 261 236
-0.081151277 0.79799998 0.0055966396 1.4836524e-38 262 236
-0.079752117 0.79799998 0.0055966396 1.5113109e-38 263 236
-0.078352958 0.79799998 0.0055966396 1.4929441e-38 264 236
-0.076953799 0.79799998 0.0055966396 1.474505e-38 265 236
-0.075743996 0.80000001 0.0056106667 1.3454684e-38 266 236
-0.074341334 0.80000001 0.0056106667 1.290115e-38 267 236
-0.073121011 0.80199999 0.0056246929 1.2071402e-38 268 236
-0.071714841 0.80199999 0.0056246929 1.1979206e-38 269 236
-0.070396326 0.80299997 0.0056317062 1.1793755e-38 270 236
-0.06916023 0.80500001 0.0056457333 1.1701558e-38 271 236
-0.0677488 0.80500001 0.0056457333 1.1149833e-38 272 236
-0.066337362 0.80500001 0.0056457333 1.1057638e-38 273 236
-0.065087236 0.80699998 0.0056597595 1.0780339e-38 274 236
-0.063830093 0.80900002 0.0056737866 9.8587415e-39 275 236
-0.062411651 0.80900002 0.0056737866 8.109565e-39 276 236
-0.10124448 0.80199999 0.0042185197 1.5401301e-38 248 237
-0.099838302 0.80199999 0.0042185197 1.2727628e-38 249 237
-0.098432131 0.80199999 0.0042185197 1.5115296e-38 250 237
-0.097025953 0.80199999 0.0042185197 1.5576275e-38 251 237
-0.095619783 0.80199999 0.0042185197 1.5944321e-38 252 237
-0.094213605 0.80199999 0.0042185197 1.6312744e-38 253 237
-0.092575997 0.80000001 0.0042079999 1.6588961e-38 254 237
-0.091173328 0.80000001 0.0042079999 1.6681158e-38 255 237
-0.089770667 0.80000001 0.0042079999 1.6681511e-38 256 237
-0.088147074 0.79799998 0.0041974802 1.6404924e-38 257 237
-0.086747915 0.79799998 0.0041974802 1.6128337e-38 258 237
-0.085562661 0.80000001 0.0042079999 1.5575163e-38 259 237
-0.08416 0.80000001 0.0042079999 1.5481168e-38 260 237
-0.082550429 0.79799998 0.0041974802 1.5296779e-38 261 237
-0.081151277 0.79799998 0.0041974802 1.4929797e-38 262 237
-0.079752117 0.79799998 0.0041974802 1.4837242e-38 263 237
-0.078352958 0.79799998 0.0041974802 1.4652498e-38 264 237
-0.076953799 0.79799998 0.0041974802 1.4007129e-38 265 237
-0.075554639 0.79799998 0.0041974802 1.2992985e-38 266 237
-0.074341334 0.80000001 0.0042079999 1.2532007e-38 267 237
-0.072938666 0.80000001 0.0042079999 1.2254358e-38 268 237
-0.071714841 0.80199999 0.0042185197 1.1885935e-38 269 237
-0.070396326 0.80299997 0.0042237798 1.1609363e-38 270 237
-0.06916023 0.80500001 0.0042343 1.1609363e-38 271 237
-0.0677488 0.80500001 0.0042343 1.1058357e-38 272 237
-0.066337362 0.80500001 0.0042343 1.0689576e-38 273 237
-0.065087236 0.80699998 0.0042448197 1.0134619e-38 274 237
-0.10265064 0.80199999 0.0028123464 1.7150558e-38 247 238
-0.10124448 0.80199999 0.0028123464 1.5123619e-38 248 238
-0.099838302 0.80199999 0.0028123464 1.2818729e-38 249 238
-0.098432131 0.80199999 0.0028123464 1.5391511e-38 250 238
-0.097025953 0.80199999 0.0028123464 1.5760293e-38 251 238
-0.095619783 0.80199999 0.0028123464 1.6036161e-38 252 238
-0.093978666 0.80000001 0.0028053334 1.6312747e-38 253 238
-0.092575997 0.80000001 0.0028053334 1.6405293e-38 254 238
-0.090945393 0.79799998 0.0027983198 1.6405293e-38 255 238
-0.089546233 0.79799998 0.0027983198 1.6405643e-38 256 238
-0.088147074 0.79799998 0.0027983198 1.6221252e-38 257 238
-0.086747915 0.79799998 0.0027983198 1.6403477e-38 258 238
-0.085348755 0.79799998 0.0027983198 1.5942857e-38 259 238
-0.083949596 0.79799998 0.0027983198 1.5849577e-38 260 238
-0.082550429 0.79799998 0.0027983198 1.5573349e-38 261 238
-0.080947891 0.796 0.0027913067 1.5113459e-38 262 238
-0.079552241 0.796 0.0027913067 1.4929428e-38 263 238
-0.078156583 0.796 0.0027913067 1.409933e-38 264 238
-0.076760925 0.796 0.0027913067 1.345396e-38 265 238
-0.075554639 0.79799998 0.0027983198 1.2439825e-38 266 238
-0.074341334 0.80000001 0.0028053334 1.1886652e-38 267 238
-0.072938666 0.80000001 0.0028053334 1.1794103e-38 268 238
-0.071714841 0.80199999 0.0028123464 1.1701906e-38 269 238
-0.070396326 0.80299997 0.0028158531 1.1425692e-38 270 238
-0.06916023 0.80500001 0.0028228667 1.1333496e-38 271 238
-0.0677488 0.80500001 0.0028228667 1.0965083e-38 272 238
-0.066337362 0.80500001 0.0028228667 1.0412268e-38 273 238
-0.065087236 0.80699998 0.0028298798 9.2159056e-39 274 238
-0.10239466 0.80000001 0.0014026667 1.6873611e-38 247 239
-0.100992 0.80000001 0.0014026667 1.5214017e-38 248 239
-0.099838302 0.80199999 0.0014061732 1.3277908e-38 249 239
-0.098186664 0.80000001 0.0014026667 1.5941801e-38 250 239
-0.096783996 0.80000001 0.0014026667 1.6218029e-38 251 239
-0.095381334 0.80000001 0.0014026667 1.631058e-38 252 239
-0.093978666 0.80000001 0.0014026667 1.6587167e-38 253 239
-0.092344552 0.79799998 0.0013991599 1.6312375e-38 254 239
-0.090945393 0.79799998 0.0013991599 1.6404571e-38 255 239
-0.089321814 0.796 0.0013956534 1.6588239e-38 256 239
-0.087926157 0.796 0.0013956534 1.6496043e-38 257 239
-0.086530507 0.796 0.0013956534 1.6127615e-38 258 239
-0.085348755 0.79799998 0.0013991599 1.6035418e-38 259 239
-0.083949596 0.79799998 0.0013991599 1.5575517e-38 260 239
-0.082343549 0.796 0.0013956534 1.5390767e-38 261 239
-0.080947891 0.796 0.0013956534 1.474685e-38 262 239
-0.079552241 0.796 0.0013956534 1.4654296e-38 263 239
-0.078156583 0.796 0.0013956534 1.3362856e-38 264 239
-0.076760925 0.796 0.0013956534 1.2349065e-38 265 239
-0.075554639 0.79799998 0.0013991599 1.1979206e-38 266 239
-0.074341334 0.80000001 0.0014026667 1.1794456e-38 267 239
-0.072938666 0.80000001 0.0014026667 1.1701906e-38 268 239
-0.071714841 0.80199999 0.0014061732 1.160971e-38 269 239
-0.070396326 0.80299997 0.0014079266 1.1241298e-38 270 239
-0.06916023 0.80500001 0.0014114333 1.1333852e-38 271 239
-0.0677488 0.80500001 0.0014114333 1.0965089e-38 272 239
-0.066337362 0.80500001 0.0014114333 9.3055677e-39 273 239
-0.10239466 0.80000001 -0 1.6411191e-38 247 240
-0.100992 0.80000001 -0 1.4937432e-38 248 240
-0.099589325 0.80000001 -0 1.3093521e-38 249 240
-0.098186664 0.80000001 -0 1.5299318e-38 250 240
-0.096542038 0.79799998 -0 1.5575906e-38 251 240
-0.095142879 0.79799998 -0 1.5852489e-38 252 240
-0.093978666 0.80000001 -0 1.5944684e-38 253 240
-0.092344552 0.79799998 -0 1.6219827e-38 254 240
-0.090717465 0.796 -0 1.6312022e-38 255 240
-0.089321814 0.796 -0 1.6312378e-38 256 240
-0.087926157 0.796 -0 1.6127987e-38 257 240
-0.086530507 0.796 -0 1.5943589e-38 258 240
-0.085348755 0.79799998 -0 1.5667362e-38 259 240
-0.083949596 0.79799998 -0 1.5757754e-38 260 240
-0.082343549 0.796 -0 1.5573361e-38 261 240
-0.080947891 0.796 -0 1.5021987e-38 262 240
-0.079552241 0.796 -0 1.4376617e-38 263 240
-0.078156583 0.796 -0 1.3085531e-38 264 240
-0.076953799 0.79799998 -0 1.207102e-38 265 240
-0.075743996 0.80000001 -0 1.2070323e-38 266 240
-0.074341334 0.80000001 -0 1.1885933e-38 267 240
-0.073121011 0.80199999 -0 1.1609713e-38 268 240
-0.071714841 0.80199999 -0 1.1425682e-38 269 240
-0.070396326 0.80299997 -0 1.12413e-38 270 240
-0.068988405 0.80299997 -0 1.0872877e-38 271 240
-0.0677488 0.80500001 -0 1.0501963e-38 272 240
-0.10239466 0.80000001 -0.0014026667 1.5583225e-38 247 241
-0.100992 0.80000001 -0.0014026667 1.5028181e-38 248 241
-0.099589325 0.80000001 -0.0014026667 1.3460855e-38 249 241
-0.098186664 0.80000001 -0.0014026667 1.5482617e-38 250 241
-0.096542038 0.79799998 -0.0013991599 1.5667009e-38 251 241
-0.095142879 0.79799998 -0.0013991599 1.5759925e-38 252 241
-0.093743719 0.79799998 -0.0013991599 1.5944316e-38 253 241
-0.092113115 0.796 -0.0013956534 1.6219458e-38 254 241
-0.090717465 0.796 -0.0013956534 1.6127262e-38 255 241
-0.089321814 0.796 -0.0013956534 1.6127618e-38 256 241
-0.087926157 0.796 -0.0013956534 1.6127618e-38 257 241
-0.086530507 0.796 -0.0013956534 1.5942873e-38 258 241
-0.085134849 0.796 -0.0013956534 1.5758123e-38 259 241
-0.083949596 0.79799998 -0.0013991599 1.5390419e-38 260 241
-0.082343549 0.796 -0.0013956534 1.5113832e-38 261 241
-0.080947891 0.796 -0.0013956534 1.4470631e-38 262 241
-0.079552241 0.796 -0.0013956534 1.3917815e-38 263 241
-0.078549333 0.80000001 -0.0014026667 1.2350502e-38 264 241
-0.077146664 0.80000001 -0.0014026667 1.1520743e-38 265 241
-0.075743996 0.80000001 -0.0014026667 1.1886657e-38 266 241
-0.074527182 0.80199999 -0.0014061732 1.1701906e-38 267 241
-0.073121011 0.80199999 -0.0014061732 1.1425329e-38 268 241
-0.071714841 0.80199999 -0.0014061732 1.1333133e-38 269 241
-0.070396326 0.80299997 -0.0014079266 1.0781048e-38 270 241
-0.068988405 0.80299997 -0.0014079266 1.032007e-38 271 241
-0.10239466 0.80000001 -0.0028053334 1.512332e-38 247 242
-0.100992 0.80000001 -0.0028053334 1.4476079e-38 248 242
-0.099340349 0.79799998 -0.0027983198 1.3093144e-38 249 242
-0.09794119 0.79799998 -0.0027983198 1.5206754e-38 250 242
-0.096542038 0.79799998 -0.0027983198 1.5575176e-38 251 242
-0.095142879 0.79799998 -0.0027983198 1.5667377e-38 252 242
-0.093508773 0.796 -0.0027913067 1.5667377e-38 253 242
-0.092113115 0.796 -0.0027913067 1.6034716e-38 254 242
-0.090717465 0.796 -0.0027913067 1.6034716e-38 255 242
-0.089321814 0.796 -0.0027913067 1.5942873e-38 256 242
-0.087926157 0.796 -0.0027913067 1.5850318e-38 257 242
-0.086530507 0.796 -0.0027913067 1.5482617e-38 258 242
-0.085134849 0.796 -0.0027913067 1.5297867e-38 259 242
-0.083739199 0.796 -0.0027913067 1.5022358e-38 260 242
-0.082343549 0.796 -0.0027913067 1.4930163e-38 261 242
-0.080947891 0.796 -0.0027913067 1.4469186e-38 262 242
-0.079552241 0.796 -0.0027913067 1.3639424e-38 263 242
-0.078352958 0.79799998 -0.0027983198 1.2164669e-38 264 242
-0.076953799 0.79799998 -0.0027983198 1.1611497e-38 265 242
-0.075743996 0.80000001 -0.0028053334 1.1701909e-38 266 242
-0.074341334 0.80000001 -0.0028053334 1.1609713e-38 267 242
-0.073121011 0.80199999 -0.0028123464 1.1424973e-38 268 242
-0.071714841 0.80199999 -0.0028123464 1.1240581e-38 269 242
-0.070396326 0.80299997 -0.0028158531 1.07789e-38 270 242
-0.10213868 0.79799998 -0.0041974802 1.4755617e-38 247 243
-0.10073951 0.79799998 -0.0041974802 1.4291687e-38 248 243
-0.099340349 0.79799998 -0.0041974802 1.3277536e-38 249 243
-0.09794119 0.79799998 -0.0041974802 1.5206398e-38 250 243
-0.096300073 0.796 -0.0041869599 1.5391148e-38 251 243
-0.094904423 0.796 -0.0041869599 1.5666658e-38 252 243
-0.093508773 0.796 -0.0041869599 1.5666658e-38 253 243
-0.092113115 0.796 -0.0041869599 1.5666658e-38 254 243
-0.090717465 0.796 -0.0041869599 1.5574463e-38 255 243
-0.089097388 0.79400003 -0.0041764397 1.5574457e-38 256 243
-0.08770524 0.79400003 -0.0041764397 1.5482261e-38 257 243
-0.086313091 0.79400003 -0.0041764397 1.529787e-38 258 243
-0.08492095 0.79400003 -0.0041764397 1.5021283e-38 259 243
-0.083739199 0.796 -0.0041869599 1.4930163e-38 260 243
-0.082343549 0.796 -0.0041869599 1.4746131e-38 261 243
-0.080947891 0.796 -0.0041869599 1.4191523e-38 262 243
-0.079552241 0.796 -0.0041869599 1.2992979e-38 263 243
-0.078352958 0.79799998 -0.0041974802 1.2255067e-38 264 243
-0.076953799 0.79799998 -0.0041974802 1.1794089e-38 265 243
-0.075743996 0.80000001 -0.0042079999 1.1425326e-38 266 243
-0.074341334 0.80000001 -0.0042079999 1.1425326e-38 267 243
-0.073121011 0.80199999 -0.0042185197 1.1241303e-38 268 243
-0.071804255 0.80299997 -0.0042237798 1.0780325e-38 269 243
-0.10213868 0.79799998 -0.0055966396 1.484601e-38 247 244
-0.10073951 0.79799998 -0.0055966396 1.4198773e-38 248 244
-0.099340349 0.79799998 -0.0055966396 1.3276817e-38 249 244
-0.09794119 0.79799998 -0.0055966396 1.5114205e-38 250 244
-0.096300073 0.796 -0.0055826134 1.52064e-38 251 244
-0.094904423 0.796 -0.0055826134 1.5481908e-38 252 244
-0.093508773 0.796 -0.0055826134 1.5389713e-38 253 244
-0.092113115 0.796 -0.0055826134 1.5390069e-38 254 244
-0.090717465 0.796 -0.0055826134 1.5390069e-38 255 244
-0.089097388 0.79400003 -0.0055685868 1.5114558e-38 256 244
-0.08770524 0.79400003 -0.0055685868 1.4929807e-38 257 244
-0.086313091 0.79400003 -0.0055685868 1.5112756e-38 258 244
-0.08492095 0.79400003 -0.0055685868 1.4928725e-38 259 244
-0.083739199 0.796 -0.0055826134 1.4469905e-38 260 244
-0.082343549 0.796 -0.0055826134 1.4193676e-38 261 244
-0.080947891 0.796 -0.0055826134 1.3179169e-38 262 244
-0.079552241 0.796 -0.0055826134 1.2072821e-38 263 244
-0.078352958 0.79799998 -0.0055966396 1.2162518e-38 264 244
-0.076953799 0.79799998 -0.0055966396 1.1793736e-38 265 244
-0.075743996 0.80000001 -0.0056106667 1.1426045e-38 266 244
-0.074527182 0.80199999 -0.0056246929 1.1333849e-38 267 244
-0.073121011 0.80199999 -0.0056246929 1.1057638e-38 268 244
-0.1018827 0.796 -0.0069782664 1.4845291e-38 247 245
-0.10073951 0.79799998 -0.0069957995 1.3922542e-38 248 245
-0.099340349 0.79799998 -0.0069957995 1.3184618e-38 249 245
-0.09794119 0.79799998 -0.0069957995 1.4838696e-38 250 245
-0.096300073 0.796 -0.0069782664 1.4930893e-38 251 245
-0.094904423 0.796 -0.0069782664 1.5113852e-38 252 245
-0.093508773 0.796 -0.0069782664 1.5021655e-38 253 245
-0.092113115 0.796 -0.0069782664 1.5021655e-38 254 245
-0.090489529 0.79400003 -0.0069607338 1.5021655e-38 255 245
-0.089097388 0.79400003 -0.0069607338 1.4746141e-38 256 245
-0.08770524 0.79400003 -0.0069607338 1.456175e-38 257 245
-0.086313091 0.79400003 -0.0069607338 1.4653577e-38 258 245
-0.08492095 0.79400003 -0.0069607338 1.4469186e-38 259 245
-0.083739199 0.796 -0.0069782664 1.4285871e-38 260 245
-0.082343549 0.796 -0.0069782664 1.3548304e-38 261 245
-0.080947891 0.796 -0.0069782664 1.2717837e-38 262 245
-0.079552241 0.796 -0.0069782664 1.1888077e-38 263 245
-0.078352958 0.79799998 -0.0069957995 1.1610791e-38 264 245
-0.077146664 0.80000001 -0.007013333 1.1426398e-38 265 245
-0.075743996 0.80000001 -0.007013333 1.1150537e-38 266 245
-0.1018827 0.796 -0.0083739199 1.4661979e-38 247 246
-0.10073951 0.79799998 -0.0083949603 1.3738867e-38 248 246
-0.099091381 0.796 -0.0083739199 1.3001302e-38 249 246
-0.097695731 0.796 -0.0083739199 1.4930163e-38 250 246
-0.096300073 0.796 -0.0083739199 1.4746131e-38 251 246
-0.094904423 0.796 -0.0083739199 1.5021283e-38 252 246
-0.093508773 0.796 -0.0083739199 1.4929088e-38 253 246
-0.092113115 0.796 -0.0083739199 1.4929444e-38 254 246
-0.090489529 0.79400003 -0.0083528794 1.4744694e-38 255 246
-0.089097388 0.79400003 -0.0083528794 1.474505e-38 256 246
-0.08770524 0.79400003 -0.0083528794 1.4652854e-38 257 246
-0.086313091 0.79400003 -0.0083528794 1.4376986e-38 258 246
-0.08492095 0.79400003 -0.0083528794 1.4469183e-38 259 246
-0.083739199 0.796 -0.0083739199 1.3640504e-38 260 246
-0.082343549 0.796 -0.0083739199 1.2625992e-38 261 246
-0.080947891 0.796 -0.0083739199 1.27146e-38 262 246
-0.079752117 0.79799998 -0.0083949603 1.2253262e-38 263 246
-0.078352958 0.79799998 -0.0083949603 1.160971e-38 264 246
-0.077146664 0.80000001 -0.0084159998 1.1425679e-38 265 246
-0.1018827 0.796 -0.0097695729 1.4569428e-38 247 247
-0.10048704 0.796 -0.0097695729 1.3921104e-38 248 247
-0.099091381 0.796 -0.0097695729 1.3183539e-38 249 247
-0.097695731 0.796 -0.0097695729 1.4470984e-38 250 247
-0.096300073 0.796 -0.0097695729 1.4470984e-38 251 247
-0.094904423 0.796 -0.0097695729 1.4561747e-38 252 247
-0.093508773 0.796 -0.0097695729 1.4561747e-38 253 247
-0.091881685 0.79400003 -0.0097450269 1.4561384e-38 254 247
-0.090489529 0.79400003 -0.0097450269 1.4561384e-38 255 247
