# .PCD v.7 - Point Cloud Data file format
FIELDS x y z rgb imX imY
SIZE 4 4 4 4 4 4
TYPE F F F F F F
COUNT 1 1 1 1 1 1
WIDTH 849
HEIGHT 1
VIEWPOINT 0 0 0 1 0 0 0
POINTS 849
DATA ascii
0.015178605 0.787 -0.023457846 1.3456501e-38 331 257
0.01655848 0.787 -0.023457846 1.3639816e-38 332 257
0.017938353 0.787 -0.023457846 1.3732012e-38 333 257
0.019269135 0.78500003 -0.023398234 1.3640535e-38 334 257
0.020645501 0.78500003 -0.023398234 1.3640535e-38 335 257
0.022021867 0.78500003 -0.023398234 1.3732012e-38 336 257
0.023398234 0.78500003 -0.023398234 1.3732012e-38 337 257
0.0247746 0.78500003 -0.023398234 1.3640535e-38 338 257
0.026084339 0.78299999 -0.02333862 1.3640535e-38 339 257
0.027457198 0.78299999 -0.02333862 1.3732012e-38 340 257
0.028830061 0.78299999 -0.02333862 1.3732012e-38 341 257
0.03020292 0.78299999 -0.02333862 1.3640532e-38 342 257
0.031575777 0.78299999 -0.02333862 1.3732728e-38 343 257
0.032948639 0.78299999 -0.02333862 1.3641611e-38 344 257
0.034321502 0.78299999 -0.02333862 1.3549415e-38 345 257
0.035603184 0.78100002 -0.023279008 1.3732728e-38 346 257
0.036972538 0.78100002 -0.023279008 1.3825282e-38 347 257
0.038292799 0.77999997 -0.023249198 1.3824926e-38 348 257
0.039660398 0.77999997 -0.023249198 1.3917123e-38 349 257
0.041027997 0.77999997 -0.023249198 1.4100789e-38 350 257
0.042395595 0.77999997 -0.023249198 1.4100789e-38 351 257
0.043650985 0.778 -0.023189586 1.410114e-38 352 257
0.045015078 0.778 -0.023189586 1.410114e-38 353 257
0.046259947 0.77600002 -0.023129974 1.4100789e-38 354 257
0.047620531 0.77600002 -0.023129974 1.4100789e-38 355 257
0.048981119 0.77600002 -0.023129974 1.4284113e-38 356 257
0.050341707 0.77600002 -0.023129974 1.456034e-38 357 257
0.051569037 0.77399999 -0.02307036 1.456034e-38 358 257
0.052926116 0.77399999 -0.02307036 1.456034e-38 359 257
0.054283198 0.77399999 -0.02307036 1.4375936e-38 360 257
0.055640277 0.77399999 -0.02307036 1.4468132e-38 361 257
0.056923717 0.773 -0.023040552 1.4195491e-38 362 257
0.058279041 0.773 -0.023040552 1.4563915e-38 363 257
0.059634373 0.773 -0.023040552 1.4933422e-38 364 257
0.060831897 0.77100003 -0.02298094 1.5486596e-38 365 257
0.062183715 0.77100003 -0.02298094 1.6406038e-38 366 257
0.063535534 0.77100003 -0.02298094 1.6959212e-38 367 257
0.064887367 0.77100003 -0.02298094 1.7418017e-38 368 257
0.066067353 0.76899999 -0.022921326 1.7418017e-38 369 257
0.067415662 0.76899999 -0.022921326 1.7510931e-38 370 257
0.068585135 0.76700002 -0.022861714 1.7603485e-38 371 257
0.06992995 0.76700002 -0.022861714 1.7512386e-38 372 257
0.07127475 0.76700002 -0.022861714 1.7696777e-38 373 257
0.072524875 0.76599997 -0.022831906 1.81556e-38 374 257
0.073867925 0.76599997 -0.022831906 1.8247795e-38 375 257
0.075014614 0.764 -0.022772292 1.8157036e-38 376 257
0.076354161 0.764 -0.022772292 1.8433263e-38 377 257
0.077693708 0.764 -0.022772292 1.8525812e-38 378 257
0.079033248 0.764 -0.022772292 1.8525812e-38 379 257
0.080372795 0.764 -0.022772292 1.880167e-38 380 257
0.081712343 0.764 -0.022772292 1.880167e-38 381 257
0.082834482 0.76200002 -0.02271268 1.8894219e-38 382 257
0.08417052 0.76200002 -0.02271268 1.8894219e-38 383 257
0.085506558 0.76200002 -0.02271268 1.8711257e-38 384 257
0.087070532 0.764 -0.022772292 1.8619061e-38 385 257
0.088410079 0.764 -0.022772292 1.8894209e-38 386 257
0.089749627 0.764 -0.022772292 1.8801654e-38 387 257
0.091089167 0.764 -0.022772292 1.870801e-38 388 257
0.092186764 0.76200002 -0.02271268 1.8431783e-38 389 257
0.093522795 0.76200002 -0.02271268 1.8339585e-38 390 257
0.09485884 0.76200002 -0.02271268 1.8155192e-38 391 257
0.096194878 0.76200002 -0.02271268 1.7878256e-38 392 257
0.097402923 0.76099998 -0.022682872 1.7417277e-38 393 257
0.09873721 0.76099998 -0.022682872 1.6681536e-38 394 257
0.10007149 0.76099998 -0.022682872 1.6681536e-38 395 257
-0.03489133 0.796 -0.02512176 1.0507698e-38 295 258
-0.033495679 0.796 -0.02512176 1.1522537e-38 296 258
-0.032100026 0.796 -0.02512176 1.253669e-38 297 258
-0.030627226 0.79400003 -0.02505864 1.2448813e-38 298 258
-0.029235078 0.79400003 -0.02505864 1.2541009e-38 299 258
-0.027842935 0.79400003 -0.02505864 1.327533e-38 300 258
-0.026450787 0.79400003 -0.02505864 1.3459721e-38 301 258
-0.02512176 0.796 -0.02512176 1.3734869e-38 302 258
-0.023666494 0.79400003 -0.02505864 1.3918901e-38 303 258
-0.022274347 0.79400003 -0.02505864 1.4285886e-38 304 258
-0.0208822 0.79400003 -0.02505864 1.4285886e-38 305 258
-0.019539146 0.796 -0.02512176 1.4560681e-38 306 258
-0.018097907 0.79400003 -0.02505864 1.4560681e-38 307 258
-0.016705759 0.79400003 -0.02505864 1.4468129e-38 308 258
-0.015313613 0.79400003 -0.02505864 1.4375932e-38 309 258
-0.0138864 0.792 -0.024995519 1.4007873e-38 310 258
-0.012497759 0.792 -0.024995519 1.3823481e-38 311 258
-0.011109119 0.792 -0.024995519 1.3730217e-38 312 258
-0.0096959332 0.79000002 -0.024932399 1.345363e-38 313 258
-0.0083108004 0.79000002 -0.024932399 1.2993375e-38 314 258
-0.0069256667 0.79000002 -0.024932399 1.2901179e-38 315 258
-0.0055405335 0.79000002 -0.024932399 1.2809702e-38 316 258
-0.0041554002 0.79000002 -0.024932399 1.2901898e-38 317 258
-0.0027702667 0.79000002 -0.024932399 1.2901898e-38 318 258
-0.0013851334 0.79000002 -0.024932399 1.2994094e-38 319 258
0 0.79000002 -0.024932399 1.2994815e-38 320 258
0.0013851334 0.79000002 -0.024932399 1.3087011e-38 321 258
0.0027702667 0.79000002 -0.024932399 1.2995897e-38 322 258
0.0041501396 0.78899997 -0.024900839 1.2995897e-38 323 258
0.0055335197 0.78899997 -0.024900839 1.3270683e-38 324 258
0.0069168997 0.78899997 -0.024900839 1.3270683e-38 325 258
0.0083002793 0.78899997 -0.024900839 1.317956e-38 326 258
0.0096836593 0.78899997 -0.024900839 1.317956e-38 327 258
0.011067039 0.78899997 -0.024900839 1.3272107e-38 328 258
0.012450419 0.78899997 -0.024900839 1.3272107e-38 329 258
0.013833799 0.78899997 -0.024900839 1.3455419e-38 330 258
0.015178605 0.787 -0.024837719 1.3547974e-38 331 258
0.01655848 0.787 -0.024837719 1.3639813e-38 332 258
0.017938353 0.787 -0.024837719 1.3732009e-38 333 258
0.019269135 0.78500003 -0.0247746 1.3640532e-38 334 258
0.020645501 0.78500003 -0.0247746 1.3456501e-38 335 258
0.022021867 0.78500003 -0.0247746 1.3639816e-38 336 258
0.023398234 0.78500003 -0.0247746 1.3639816e-38 337 258
0.0247746 0.78500003 -0.0247746 1.3639816e-38 338 258
0.026150968 0.78500003 -0.0247746 1.3732012e-38 339 258
0.027527334 0.78500003 -0.0247746 1.3640532e-38 340 258
0.0289037 0.78500003 -0.0247746 1.3640532e-38 341 258
0.03020292 0.78299999 -0.024711479 1.3640535e-38 342 258
0.031575777 0.78299999 -0.024711479 1.3732731e-38 343 258
0.032948639 0.78299999 -0.024711479 1.3732731e-38 344 258
0.034321502 0.78299999 -0.024711479 1.3824926e-38 345 258
0.035603184 0.78100002 -0.024648361 1.3732731e-38 346 258
0.036972538 0.78100002 -0.024648361 1.3732731e-38 347 258
0.038341891 0.78100002 -0.024648361 1.3824926e-38 348 258
0.039660398 0.77999997 -0.024616797 1.3824926e-38 349 258
0.041027997 0.77999997 -0.024616797 1.3916756e-38 350 258
0.042395595 0.77999997 -0.024616797 1.3916756e-38 351 258
0.043763198 0.77999997 -0.024616797 1.382456e-38 352 258
0.045015078 0.778 -0.024553679 1.382456e-38 353 258
0.046379171 0.778 -0.024553679 1.3916759e-38 354 258
0.047620531 0.77600002 -0.024490559 1.3916759e-38 355 258
0.048981119 0.77600002 -0.024490559 1.4100794e-38 356 258
0.050341707 0.77600002 -0.024490559 1.419299e-38 357 258
0.051569037 0.77399999 -0.02442744 1.4284467e-38 358 258
0.052926116 0.77399999 -0.02442744 1.4192271e-38 359 258
0.054283198 0.77399999 -0.02442744 1.4467416e-38 360 258
0.055640277 0.77399999 -0.02442744 1.4467416e-38 361 258
0.056923717 0.773 -0.024395877 1.4468854e-38 362 258
0.058279041 0.773 -0.024395877 1.4468854e-38 363 258
0.059634373 0.773 -0.024395877 1.4102586e-38 364 258
0.060831897 0.77100003 -0.02433276 1.4379532e-38 365 258
0.062183715 0.77100003 -0.02433276 1.5116371e-38 366 258
0.063535534 0.77100003 -0.02433276 1.5669545e-38 367 258
0.064719036 0.76899999 -0.024269639 1.6313827e-38 368 258
0.066067353 0.76899999 -0.024269639 1.6682249e-38 369 258
0.067415662 0.76899999 -0.024269639 1.6867717e-38 370 258
0.068585135 0.76700002 -0.024206521 1.7052108e-38 371 258
0.06992995 0.76700002 -0.024206521 1.7785723e-38 372 258
0.07127475 0.76700002 -0.024206521 1.7970474e-38 373 258
0.072524875 0.76599997 -0.024174958 1.7970837e-38 374 258
0.073867925 0.76599997 -0.024174958 1.8063392e-38 375 258
0.075014614 0.764 -0.024111839 1.7880439e-38 376 258
0.076354161 0.764 -0.024111839 1.8065189e-38 377 258
0.077693708 0.764 -0.024111839 1.834105e-38 378 258
0.079033248 0.764 -0.024111839 1.8433248e-38 379 258
0.080162399 0.76200002 -0.02404872 1.8525796e-38 380 258
0.081498444 0.76200002 -0.02404872 1.8617992e-38 381 258
0.082834482 0.76200002 -0.02404872 1.8893856e-38 382 258
0.08417052 0.76200002 -0.02404872 1.8893856e-38 383 258
0.085394338 0.76099998 -0.024017159 1.8802023e-38 384 258
0.086728632 0.76099998 -0.024017159 1.8894219e-38 385 258
0.088062912 0.76099998 -0.024017159 1.8802023e-38 386 258
0.089397199 0.76099998 -0.024017159 1.8617992e-38 387 258
0.090731487 0.76099998 -0.024017159 1.8616546e-38 388 258
0.092065774 0.76099998 -0.024017159 1.852435e-38 389 258
0.093400061 0.76099998 -0.024017159 1.83396e-38 390 258
0.094734348 0.76099998 -0.024017159 1.8063373e-38 391 258
0.096068636 0.76099998 -0.024017159 1.8062293e-38 392 258
0.097146936 0.759 -0.023954039 1.7693512e-38 393 258
0.098218225 0.75700003 -0.02389092 1.7233974e-38 394 258
0.099545501 0.75700003 -0.02389092 1.7049943e-38 395 258
0.10087277 0.75700003 -0.02389092 1.5947613e-38 396 258
0.10193003 0.755 -0.023827799 1.6592983e-38 397 258
0.1032538 0.755 -0.023827799 1.6597359e-38 398 258
0.10457756 0.755 -0.023827799 1.7242728e-38 399 258
-0.033579841 0.79799998 -0.026584039 1.2258692e-38 296 259
-0.032100026 0.796 -0.026517414 1.2535639e-38 297 259
-0.030704373 0.796 -0.026517414 1.2905145e-38 298 259
-0.029308718 0.796 -0.026517414 1.3366121e-38 299 259
-0.027913066 0.796 -0.026517414 1.3274276e-38 300 259
-0.026517414 0.796 -0.026517414 1.3458669e-38 301 259
-0.02512176 0.796 -0.026517414 1.3733811e-38 302 259
-0.023666494 0.79400003 -0.026450787 1.3733811e-38 303 259
-0.022274347 0.79400003 -0.026450787 1.3824573e-38 304 259
-0.0209348 0.796 -0.026517414 1.3824573e-38 305 259
-0.019539146 0.796 -0.026517414 1.3915699e-38 306 259
-0.018143492 0.796 -0.026517414 1.3915699e-38 307 259
-0.01674784 0.796 -0.026517414 1.391533e-38 308 259
-0.015313613 0.79400003 -0.026450787 1.3822775e-38 309 259
-0.0138864 0.792 -0.02638416 1.3455072e-38 310 259
-0.012497759 0.792 -0.02638416 1.3086289e-38 311 259
-0.011109119 0.792 -0.02638416 1.2993375e-38 312 259
-0.0097204801 0.792 -0.02638416 1.2348005e-38 313 259
-0.0083108004 0.79000002 -0.026317533 1.2164686e-38 314 259
-0.0069256667 0.79000002 -0.026317533 1.1980295e-38 315 259
-0.0055405335 0.79000002 -0.026317533 1.1888105e-38 316 259
-0.0041554002 0.79000002 -0.026317533 1.179555e-38 317 259
-0.0027702667 0.79000002 -0.026317533 1.1795553e-38 318 259
-0.0013851334 0.79000002 -0.026317533 1.1795553e-38 319 259
0 0.79000002 -0.026317533 1.1797355e-38 320 259
0.0013851334 0.79000002 -0.026317533 1.1981386e-38 321 259
0.0027702667 0.79000002 -0.026317533 1.1982115e-38 322 259
0.0041554002 0.79000002 -0.026317533 1.2258343e-38 323 259
0.0055405335 0.79000002 -0.026317533 1.2442374e-38 324 259
0.0069256667 0.79000002 -0.026317533 1.2626405e-38 325 259
0.0083002793 0.78899997 -0.026284218 1.2994815e-38 326 259
0.0096836593 0.78899997 -0.026284218 1.2994815e-38 327 259
0.011067039 0.78899997 -0.026284218 1.2995166e-38 328 259
0.012450419 0.78899997 -0.026284218 1.2995166e-38 329 259
0.013833799 0.78899997 -0.026284218 1.3088091e-38 330 259
0.015217179 0.78899997 -0.026284218 1.2995894e-38 331 259
0.01655848 0.787 -0.026217593 1.2995908e-38 332 259
0.017938353 0.787 -0.026217593 1.2995908e-38 333 259
0.019269135 0.78500003 -0.026150968 1.2995908e-38 334 259
0.020645501 0.78500003 -0.026150968 1.2995908e-38 335 259
0.022021867 0.78500003 -0.026150968 1.3087741e-38 336 259
0.023398234 0.78500003 -0.026150968 1.3271772e-38 337 259
0.0247746 0.78500003 -0.026150968 1.308881e-38 338 259
0.026150968 0.78500003 -0.026150968 1.3181006e-38 339 259
0.027527334 0.78500003 -0.026150968 1.3181359e-38 340 259
0.0289037 0.78500003 -0.026150968 1.3273554e-38 341 259
0.03020292 0.78299999 -0.026084339 1.3456867e-38 342 259
0.031575777 0.78299999 -0.026084339 1.3549421e-38 343 259
0.032948639 0.78299999 -0.026084339 1.3549421e-38 344 259
0.034321502 0.78299999 -0.026084339 1.3549421e-38 345 259
0.035694357 0.78299999 -0.026084339 1.3549065e-38 346 259
0.036972538 0.78100002 -0.026017714 1.3549065e-38 347 259
0.038341891 0.78100002 -0.026017714 1.3732377e-38 348 259
0.039660398 0.77999997 -0.025984399 1.3732377e-38 349 259
0.041027997 0.77999997 -0.025984399 1.3824926e-38 350 259
0.042395595 0.77999997 -0.025984399 1.3824926e-38 351 259
0.043763198 0.77999997 -0.025984399 1.3824563e-38 352 259
0.045130797 0.77999997 -0.025984399 1.3824563e-38 353 259
0.046379171 0.778 -0.025917772 1.3824563e-38 354 259
0.047743265 0.778 -0.025917772 1.3824563e-38 355 259
0.048981119 0.77600002 -0.025851147 1.3732731e-38 356 259
0.050341707 0.77600002 -0.025851147 1.3732731e-38 357 259
0.051569037 0.77399999 -0.025784519 1.4007522e-38 358 259
0.052926116 0.77399999 -0.025784519 1.4007522e-38 359 259
0.054283198 0.77399999 -0.025784519 1.4007522e-38 360 259
0.055640277 0.77399999 -0.025784519 1.4099718e-38 361 259
0.056997359 0.77399999 -0.025784519 1.4100088e-38 362 259
0.058279041 0.773 -0.025751207 1.4284479e-38 363 259
0.059634373 0.773 -0.025751207 1.3917848e-38 364 259
0.060989697 0.773 -0.025751207 1.4010043e-38 365 259
0.06234502 0.773 -0.025751207 1.4745808e-38 366 259
0.063535534 0.77100003 -0.02568458 1.5207145e-38 367 259
0.064719036 0.76899999 -0.025617953 1.5483729e-38 368 259
0.066067353 0.76899999 -0.025617953 1.5852511e-38 369 259
0.067240335 0.76700002 -0.025551327 1.631419e-38 370 259
0.068585135 0.76700002 -0.025551327 1.6682971e-38 371 259
0.069838762 0.76599997 -0.025518013 1.7234704e-38 372 259
0.071181826 0.76599997 -0.025518013 1.7510931e-38 373 259
0.072335519 0.764 -0.025451386 1.7235073e-38 374 259
0.073482201 0.76200002 -0.02538476 1.7419464e-38 375 259
0.074818239 0.76200002 -0.02538476 1.7236522e-38 376 259
0.076154284 0.76200002 -0.02538476 1.7420913e-38 377 259
0.077490322 0.76200002 -0.02538476 1.7605297e-38 378 259
0.07882636 0.76200002 -0.02538476 1.7697493e-38 379 259
0.080162399 0.76200002 -0.02538476 1.8432894e-38 380 259
0.081498444 0.76200002 -0.02538476 1.8432894e-38 381 259
0.082725771 0.76099998 -0.025351444 1.8250304e-38 382 259
0.084060051 0.76099998 -0.025351444 1.8250304e-38 383 259
0.085169919 0.759 -0.025284819 1.8618007e-38 384 259
0.086500697 0.759 -0.025284819 1.8618007e-38 385 259
0.087831482 0.759 -0.025284819 1.8893505e-38 386 259
0.089397199 0.76099998 -0.025351444 1.8800951e-38 387 259
0.090493038 0.759 -0.025284819 1.8799855e-38 388 259
0.091823816 0.759 -0.025284819 1.870766e-38 389 259
0.093154602 0.759 -0.025284819 1.8431783e-38 390 259
0.09448538 0.759 -0.025284819 1.8247392e-38 391 259
0.095816158 0.759 -0.025284819 1.8430334e-38 392 259
0.096890956 0.75700003 -0.025218192 1.8338139e-38 393 259
0.098218225 0.75700003 -0.025218192 1.7878963e-38 394 259
0.099282496 0.755 -0.025151566 1.7694571e-38 395 259
0.10060626 0.755 -0.025151566 1.659041e-38 396 259
0.10179503 0.75400001 -0.025118252 1.594504e-38 397 259
0.10311703 0.75400001 -0.025118252 1.5856512e-38 398 259
0.10374649 0.74900001 -0.024951685 1.696322e-38 399 259
0.10505974 0.74900001 -0.024951685 1.7885952e-38 400 259
0.10637298 0.74900001 -0.024951685 1.8254735e-38 401 259
-0.032180678 0.79799998 -0.027983198 1.6406491e-38 297 260
-0.030704373 0.796 -0.027913066 1.5301193e-38 298 260
-0.029308718 0.796 -0.027913066 1.4194845e-38 299 260
-0.027913066 0.796 -0.027913066 1.3733845e-38 300 260
-0.026517414 0.796 -0.027913066 1.3457618e-38 301 260
-0.02512176 0.796 -0.027913066 1.364128e-38 302 260
-0.023726106 0.796 -0.027913066 1.3549083e-38 303 260
-0.022330454 0.796 -0.027913066 1.40061e-38 304 260
-0.0209348 0.796 -0.027913066 1.3821709e-38 305 260
-0.019539146 0.796 -0.027913066 1.4005371e-38 306 260
-0.018189078 0.79799998 -0.027983198 1.3729143e-38 307 260
-0.01674784 0.796 -0.027913066 1.3268885e-38 308 260
-0.015352187 0.796 -0.027913066 1.3361081e-38 309 260
-0.013921468 0.79400003 -0.027842935 1.317669e-38 310 260
-0.01252932 0.79400003 -0.027842935 1.3084494e-38 311 260
-0.011109119 0.792 -0.027772799 1.1798772e-38 312 260
-0.0097204801 0.792 -0.027772799 9.7704681e-39 313 260
-0.0083108004 0.79000002 -0.027702667 9.8536618e-39 314 260
-0.0069256667 0.79000002 -0.027702667 8.6551368e-39 315 260
-0.0055405335 0.79000002 -0.027702667 7.2747345e-39 316 260
-0.0041554002 0.79000002 -0.027702667 6.7219278e-39 317 260
-0.0027702667 0.79000002 -0.027702667 5.7124548e-39 318 260
-0.0013851334 0.79000002 -0.027702667 5.5277077e-39 319 260
0 0.79000002 -0.027702667 5.4373071e-39 320 260
0.0013851334 0.79000002 -0.027702667 5.3451129e-39 321 260
0.0027702667 0.79000002 -0.027702667 6.2652615e-39 322 260
0.0041554002 0.79000002 -0.027702667 7.4638033e-39 323 260
0.0055405335 0.79000002 -0.027702667 8.1106146e-39 324 260
0.0069256667 0.79000002 -0.027702667 9.0329311e-39 325 260
0.0083108004 0.79000002 -0.027702667 1.0595934e-38 326 260
0.0096836593 0.78899997 -0.027667599 1.0964718e-38 327 260
0.011067039 0.78899997 -0.027667599 1.1518608e-38 328 260
0.012450419 0.78899997 -0.027667599 1.1887749e-38 329 260
0.013833799 0.78899997 -0.027667599 1.1980667e-38 330 260
0.015217179 0.78899997 -0.027667599 1.1980667e-38 331 260
0.01655848 0.787 -0.027597465 1.2072866e-38 332 260
0.017938353 0.787 -0.027597465 1.2165062e-38 333 260
0.019269135 0.78500003 -0.027527334 1.2441288e-38 334 260
0.020645501 0.78500003 -0.027527334 1.2625681e-38 335 260
0.022077972 0.787 -0.027597465 1.2718233e-38 336 260
0.023457846 0.787 -0.027597465 1.2810428e-38 337 260
0.0247746 0.78500003 -0.027527334 1.3178844e-38 338 260
0.026150968 0.78500003 -0.027527334 1.3271039e-38 339 260
0.027527334 0.78500003 -0.027527334 1.3363952e-38 340 260
0.0289037 0.78500003 -0.027527334 1.3363952e-38 341 260
0.030280067 0.78500003 -0.027527334 1.3547264e-38 342 260
0.031575777 0.78299999 -0.027457198 1.3639819e-38 343 260
0.032948639 0.78299999 -0.027457198 1.3732014e-38 344 260
0.034321502 0.78299999 -0.027457198 1.3732014e-38 345 260
0.035694357 0.78299999 -0.027457198 1.3732733e-38 346 260
0.036972538 0.78100002 -0.027387068 1.3732733e-38 347 260
0.038341891 0.78100002 -0.027387068 1.382421e-38 348 260
0.039711244 0.78100002 -0.027387068 1.382421e-38 349 260
0.041080598 0.78100002 -0.027387068 1.382421e-38 350 260
0.042395595 0.77999997 -0.027351998 1.382421e-38 351 260
0.043763198 0.77999997 -0.027351998 1.3916403e-38 352 260
0.045130797 0.77999997 -0.027351998 1.3824207e-38 353 260
0.046379171 0.778 -0.027281865 1.3732728e-38 354 260
0.047743265 0.778 -0.027281865 1.3732728e-38 355 260
0.048981119 0.77600002 -0.027211733 1.3732365e-38 356 260
0.050341707 0.77600002 -0.027211733 1.3732365e-38 357 260
0.051702294 0.77600002 -0.027211733 1.3915677e-38 358 260
0.052926116 0.77399999 -0.027141599 1.4007873e-38 359 260
0.054283198 0.77399999 -0.027141599 1.4099352e-38 360 260
0.055640277 0.77399999 -0.027141599 1.4099352e-38 361 260
0.056997359 0.77399999 -0.027141599 1.4100071e-38 362 260
0.058279041 0.773 -0.027106533 1.4192268e-38 363 260
0.059634373 0.773 -0.027106533 1.419262e-38 364 260
0.060989697 0.773 -0.027106533 1.4284817e-38 365 260
0.062183715 0.77100003 -0.027036399 1.4652876e-38 366 260
0.063535534 0.77100003 -0.027036399 1.4745072e-38 367 260
0.064719036 0.76899999 -0.026966266 1.4470283e-38 368 260
0.066067353 0.76899999 -0.026966266 1.4562479e-38 369 260
0.067240335 0.76700002 -0.026896132 1.4840142e-38 370 260
0.068585135 0.76700002 -0.026896132 1.5485511e-38 371 260
0.069838762 0.76599997 -0.026861066 1.6130525e-38 372 260
0.071181826 0.76599997 -0.026861066 1.6499306e-38 373 260
0.072335519 0.764 -0.026790932 1.7325468e-38 374 260
0.073482201 0.76200002 -0.0267208 1.7510218e-38 375 260
0.074818239 0.76200002 -0.0267208 1.7235073e-38 376 260
0.076154284 0.76200002 -0.0267208 1.7419464e-38 377 260
0.077490322 0.76200002 -0.0267208 1.7511661e-38 378 260
0.07882636 0.76200002 -0.0267208 1.7788247e-38 379 260
0.080057196 0.76099998 -0.026685731 1.7972269e-38 380 260
0.081391476 0.76099998 -0.026685731 1.7972269e-38 381 260
0.082725771 0.76099998 -0.026685731 1.8340332e-38 382 260
0.084060051 0.76099998 -0.026685731 1.8432527e-38 383 260
0.085169919 0.759 -0.026615599 1.8800232e-38 384 260
0.086500697 0.759 -0.026615599 1.8984622e-38 385 260
0.087831482 0.759 -0.026615599 1.9076815e-38 386 260
0.08916226 0.759 -0.026615599 1.8984619e-38 387 260
0.09025459 0.75700003 -0.026545467 1.8525796e-38 388 260
0.091581859 0.75700003 -0.026545467 1.8433601e-38 389 260
0.092909135 0.75700003 -0.026545467 1.8341035e-38 390 260
0.094236404 0.75700003 -0.026545467 1.8248839e-38 391 260
0.09556368 0.75700003 -0.026545467 1.8156641e-38 392 260
0.096634962 0.755 -0.026475333 1.8064445e-38 393 260
0.097828984 0.75400001 -0.026440267 1.7788584e-38 394 260
0.099150993 0.75400001 -0.026440267 1.7603833e-38 395 260
0.10047301 0.75400001 -0.026440267 1.7602767e-38 396 260
0.10179503 0.75400001 -0.026440267 1.7418017e-38 397 260
0.10284352 0.75199997 -0.02637013 1.6497533e-38 398 260
0.10374649 0.74900001 -0.026264934 1.6405337e-38 399 260
0.10505974 0.74900001 -0.026264934 1.5674664e-38 400 260
0.10637298 0.74900001 -0.026264934 1.6965403e-38 401 260
0.10768622 0.74900001 -0.026264934 1.7704079e-38 402 260
-0.023726106 0.796 -0.029308718 1.3916075e-38 303 261
-0.022330454 0.796 -0.029308718 1.3271775e-38 304 261
-0.013956533 0.796 -0.029308718 1.2626037e-38 310 261
-0.01256088 0.796 -0.029308718 1.253384e-38 311 261
-0.011137174 0.79400003 -0.029235078 1.2349446e-38 312 261
-0.0097204801 0.792 -0.029161438 1.1888468e-38 313 261
-0.0083108004 0.79000002 -0.029087799 1.1056913e-38 314 261
-0.0069256667 0.79000002 -0.029087799 9.7661745e-39 315 261
-0.0055405335 0.79000002 -0.029087799 8.6584004e-39 316 261
-0.00416592 0.792 -0.029161438 7.9208354e-39 317 261
-0.0027772798 0.792 -0.029161438 7.367677e-39 318 261
-0.0013886399 0.792 -0.029161438 6.630112e-39 319 261
0 0.792 -0.029161438 6.0809039e-39 320 261
0.0013886399 0.792 -0.029161438 5.8965126e-39 321 261
0.0027772798 0.792 -0.029161438 6.7262607e-39 322 261
0.0041554002 0.79000002 -0.029087799 7.2794344e-39 323 261
0.0055405335 0.79000002 -0.029087799 8.1995929e-39 324 261
0.0069256667 0.79000002 -0.029087799 9.3981361e-39 325 261
0.0083108004 0.79000002 -0.029087799 1.0594174e-38 326 261
0.0096836593 0.78899997 -0.02905098 1.0778566e-38 327 261
0.011067039 0.78899997 -0.02905098 1.1239893e-38 328 261
0.012450419 0.78899997 -0.02905098 1.1332089e-38 329 261
0.013833799 0.78899997 -0.02905098 1.114948e-38 330 261
0.015217179 0.78899997 -0.02905098 1.1241676e-38 331 261
0.016600559 0.78899997 -0.02905098 1.1977093e-38 332 261
0.017938353 0.787 -0.02897734 1.2345875e-38 333 261
0.019318225 0.787 -0.02897734 1.1886709e-38 334 261
0.0206981 0.787 -0.02897734 1.2071459e-38 335 261
0.022077972 0.787 -0.02897734 1.2164005e-38 336 261
0.023457846 0.787 -0.02897734 1.2440232e-38 337 261
0.024837719 0.787 -0.02897734 1.2442021e-38 338 261
0.026217593 0.787 -0.02897734 1.2718248e-38 339 261
0.027597465 0.787 -0.02897734 1.2627838e-38 340 261
0.02897734 0.787 -0.02897734 1.2811869e-38 341 261
0.030280067 0.78500003 -0.0289037 1.3179209e-38 342 261
0.031575777 0.78299999 -0.028830061 1.3271406e-38 343 261
0.032948639 0.78299999 -0.028830061 1.3363602e-38 344 261
0.034321502 0.78299999 -0.028830061 1.3455798e-38 345 261
0.035694357 0.78299999 -0.028830061 1.3364318e-38 346 261
0.036972538 0.78100002 -0.028756421 1.3364318e-38 347 261
0.038341891 0.78100002 -0.028756421 1.345687e-38 348 261
0.039711244 0.78100002 -0.028756421 1.345687e-38 349 261
0.041080598 0.78100002 -0.028756421 1.3732733e-38 350 261
0.042449951 0.78100002 -0.028756421 1.3732733e-38 351 261
0.043819305 0.78100002 -0.028756421 1.3732731e-38 352 261
0.045130797 0.77999997 -0.028719598 1.3732731e-38 353 261
0.046498396 0.77999997 -0.028719598 1.3732728e-38 354 261
0.047743265 0.778 -0.028645959 1.3732728e-38 355 261
0.049107358 0.778 -0.028645959 1.3732365e-38 356 261
0.050471451 0.778 -0.028645959 1.3732365e-38 357 261
0.051702294 0.77600002 -0.028572321 1.3824563e-38 358 261
0.053062879 0.77600002 -0.028572321 1.3824563e-38 359 261
0.054283198 0.77399999 -0.028498679 1.3824563e-38 360 261
0.055640277 0.77399999 -0.028498679 1.3824563e-38 361 261
0.056997359 0.77399999 -0.028498679 1.3824563e-38 362 261
0.058279041 0.773 -0.028461859 1.3916759e-38 363 261
0.059634373 0.773 -0.028461859 1.3917479e-38 364 261
0.060989697 0.773 -0.028461859 1.3917479e-38 365 261
0.062183715 0.77100003 -0.028388219 1.3918198e-38 366 261
0.063535534 0.77100003 -0.028388219 1.4102589e-38 367 261
0.064719036 0.76899999 -0.028314579 1.4286257e-38 368 261
0.066067353 0.76899999 -0.028314579 1.4102226e-38 369 261
0.067240335 0.76700002 -0.02824094 1.4562844e-38 370 261
0.068495713 0.76599997 -0.028204117 1.4839791e-38 371 261
0.069838762 0.76599997 -0.028204117 1.5207862e-38 372 261
0.071181826 0.76599997 -0.028204117 1.5761034e-38 373 261
0.072335519 0.764 -0.028130481 1.6223445e-38 374 261
0.073482201 0.76200002 -0.028056841 1.6499673e-38 375 261
0.074818239 0.76200002 -0.028056841 1.6682618e-38 376 261
0.076154284 0.76200002 -0.028056841 1.6867011e-38 377 261
0.077490322 0.76200002 -0.028056841 1.7143956e-38 378 261
0.078722909 0.76099998 -0.028020019 1.7327987e-38 379 261
0.080057196 0.76099998 -0.028020019 1.7420184e-38 380 261
0.081391476 0.76099998 -0.028020019 1.7604934e-38 381 261
0.082725771 0.76099998 -0.028020019 1.7880445e-38 382 261
0.083839141 0.759 -0.027946379 1.8064836e-38 383 261
0.084945492 0.75700003 -0.027872739 1.8340346e-38 384 261
0.086272769 0.75700003 -0.027872739 1.8525096e-38 385 261
0.087600037 0.75700003 -0.027872739 1.8525809e-38 386 261
0.088927314 0.75700003 -0.027872739 1.8525809e-38 387 261
0.09025459 0.75700003 -0.027872739 1.8525796e-38 388 261
0.091339901 0.755 -0.027799098 1.8525796e-38 389 261
0.092663661 0.755 -0.027799098 1.8617614e-38 390 261
0.093987428 0.755 -0.027799098 1.8433581e-38 391 261
0.095184959 0.75400001 -0.027762281 1.8524698e-38 392 261
0.096506968 0.75400001 -0.027762281 1.8524698e-38 393 261
0.097828984 0.75400001 -0.027762281 1.8431783e-38 394 261
0.099150993 0.75400001 -0.027762281 1.8247392e-38 395 261
0.10020649 0.75199997 -0.027688639 1.8154836e-38 396 261
0.10152501 0.75199997 -0.027688639 1.7878609e-38 397 261
0.10257 0.75 -0.027615 1.7416924e-38 398 261
0.10374649 0.74900001 -0.027578179 1.6771554e-38 399 261
0.10505974 0.74900001 -0.027578179 1.5576668e-38 400 261
0.10637298 0.74900001 -0.027578179 1.6775212e-38 401 261
0.10739867 0.74699998 -0.027504537 1.6873232e-38 402 261
-0.011137174 0.79400003 -0.030627226 1.2442722e-38 312 262
-0.0097450269 0.79400003 -0.030627226 1.2718949e-38 313 262
-0.0083318399 0.792 -0.030550079 1.2993377e-38 314 262
-0.0069431998 0.792 -0.030550079 1.271643e-38 315 262
-0.0055545596 0.792 -0.030550079 1.1886673e-38 316 262
-0.0013886399 0.792 -0.030550079 9.7661745e-39 319 262
0 0.792 -0.030550079 8.758505e-39 320 262
0.00416592 0.792 -0.030550079 9.9541741e-39 323 262
0.0055405335 0.79000002 -0.030472934 1.0689947e-38 324 262
0.0069256667 0.79000002 -0.030472934 1.0874338e-38 325 262
0.0083108004 0.79000002 -0.030472934 1.0873985e-38 326 262
0.0096959332 0.79000002 -0.030472934 1.1058378e-38 327 262
0.011081067 0.79000002 -0.030472934 1.1059087e-38 328 262
0.0124662 0.79000002 -0.030472934 1.1151282e-38 329 262
0.013833799 0.78899997 -0.030434359 1.1610456e-38 330 262
0.015217179 0.78899997 -0.030434359 1.1702651e-38 331 262
0.016600559 0.78899997 -0.030434359 1.1794847e-38 332 262
0.017938353 0.787 -0.03035721 1.1887401e-38 333 262
0.019318225 0.787 -0.03035721 1.1612253e-38 334 262
0.0206981 0.787 -0.03035721 1.1704451e-38 335 262
0.022134079 0.78899997 -0.030434359 1.1980317e-38 336 262
0.023517458 0.78899997 -0.030434359 1.2164708e-38 337 262
0.024900839 0.78899997 -0.030434359 1.2257976e-38 338 262
0.026217593 0.787 -0.03035721 1.2442369e-38 339 262
0.027597465 0.787 -0.03035721 1.2443088e-38 340 262
0.02897734 0.787 -0.03035721 1.2535283e-38 341 262
0.03035721 0.787 -0.03035721 1.2994459e-38 342 262
0.031656433 0.78500003 -0.030280067 1.3179209e-38 343 262
0.033032801 0.78500003 -0.030280067 1.3271403e-38 344 262
0.034321502 0.78299999 -0.03020292 1.3271403e-38 345 262
0.035694357 0.78299999 -0.03020292 1.3271759e-38 346 262
0.037067216 0.78299999 -0.03020292 1.3363955e-38 347 262
0.038341891 0.78100002 -0.030125774 1.3363952e-38 348 262
0.039711244 0.78100002 -0.030125774 1.3456148e-38 349 262
0.041080598 0.78100002 -0.030125774 1.3640535e-38 350 262
0.042449951 0.78100002 -0.030125774 1.3456504e-38 351 262
0.043819305 0.78100002 -0.030125774 1.3732012e-38 352 262
0.045130797 0.77999997 -0.030087199 1.3639816e-38 353 262
0.046498396 0.77999997 -0.030087199 1.3640535e-38 354 262
0.047865998 0.77999997 -0.030087199 1.3732731e-38 355 262
0.049107358 0.778 -0.03001005 1.3732012e-38 356 262
0.050471451 0.778 -0.03001005 1.3732012e-38 357 262
0.051702294 0.77600002 -0.029932907 1.3915324e-38 358 262
0.052926116 0.77399999 -0.029855758 1.3915324e-38 359 262
0.054283198 0.77399999 -0.029855758 1.400752e-38 360 262
0.055640277 0.77399999 -0.029855758 1.400752e-38 361 262
0.056997359 0.77399999 -0.029855758 1.382456e-38 362 262
0.058354434 0.77399999 -0.029855758 1.382456e-38 363 262
0.059634373 0.773 -0.029817186 1.4100421e-38 364 262
0.060989697 0.773 -0.029817186 1.4100421e-38 365 262
0.062183715 0.77100003 -0.029740039 1.4101496e-38 366 262
0.063535534 0.77100003 -0.029740039 1.4193693e-38 367 262
0.064719036 0.76899999 -0.02966289 1.4285536e-38 368 262
0.066067353 0.76899999 -0.02966289 1.4377731e-38 369 262
0.067240335 0.76700002 -0.029585747 1.4745794e-38 370 262
0.068495713 0.76599997 -0.029547172 1.4745794e-38 371 262
0.069838762 0.76599997 -0.029547172 1.4930184e-38 372 262
0.070995972 0.764 -0.029470026 1.5114573e-38 373 262
0.072146162 0.76200002 -0.029392879 1.5208567e-38 374 262
0.073482201 0.76200002 -0.029392879 1.5761741e-38 375 262
0.074720047 0.76099998 -0.029354304 1.6130878e-38 376 262
0.076054335 0.76099998 -0.029354304 1.6407463e-38 377 262
0.077388622 0.76099998 -0.029354304 1.7142509e-38 378 262
0.078722909 0.76099998 -0.029354304 1.7510931e-38 379 262
0.080057196 0.76099998 -0.029354304 1.7145028e-38 380 262
0.081177577 0.759 -0.029277159 1.7237225e-38 381 262
0.082508355 0.759 -0.029277159 1.7787525e-38 382 262
0.083839141 0.759 -0.029277159 1.7972275e-38 383 262
0.084945492 0.75700003 -0.029200014 1.8247427e-38 384 262
0.086044833 0.755 -0.029122867 1.8432178e-38 385 262
0.087368593 0.755 -0.029122867 1.8432894e-38 386 262
0.08869236 0.755 -0.029122867 1.852509e-38 387 262
0.089896902 0.75400001 -0.029084291 1.8433966e-38 388 262
0.091218919 0.75400001 -0.029084291 1.8526162e-38 389 262
0.092540927 0.75400001 -0.029084291 1.8434317e-38 390 262
0.093862943 0.75400001 -0.029084291 1.8526512e-38 391 262
0.095184959 0.75400001 -0.029084291 1.8433598e-38 392 262
0.096506968 0.75400001 -0.029084291 1.8433598e-38 393 262
0.097309999 0.75 -0.028929999 1.8340679e-38 394 262
0.098624997 0.75 -0.028929999 1.8156288e-38 395 262
0.099939995 0.75 -0.028929999 1.8155919e-38 396 262
0.101255 0.75 -0.028929999 1.7879331e-38 397 262
0.10243323 0.74900001 -0.028891427 1.7786063e-38 398 262
0.10346945 0.74699998 -0.028814279 1.7601313e-38 399 262
0.10477919 0.74699998 -0.028814279 1.6680827e-38 400 262
0.10608894 0.74699998 -0.028814279 1.640424e-38 401 262
0.10739867 0.74699998 -0.028814279 1.5304787e-38 402 262
0.10899947 0.74900001 -0.028891427 1.6964307e-38 403 262
0.11031272 0.74900001 -0.028891427 1.7243457e-38 404 262
0.11162596 0.74900001 -0.028891427 1.7519684e-38 405 262
0.0083108004 0.79000002 -0.031858064 1.0876491e-38 326 263
0.0096959332 0.79000002 -0.031858064 1.0968686e-38 327 263
0.0124662 0.79000002 -0.031858064 1.1153073e-38 329 263
0.013851333 0.79000002 -0.031858064 1.1427859e-38 330 263
0.015236467 0.79000002 -0.031858064 1.1427859e-38 331 263
0.016621601 0.79000002 -0.031858064 1.1520058e-38 332 263
0.017983939 0.78899997 -0.031817738 1.1612253e-38 333 263
0.019367319 0.78899997 -0.031817738 1.1337464e-38 334 263
0.0207507 0.78899997 -0.031817738 1.1337464e-38 335 263
0.022134079 0.78899997 -0.031817738 1.1704806e-38 336 263
0.023517458 0.78899997 -0.031817738 1.1797002e-38 337 263
0.024900839 0.78899997 -0.031817738 1.2073229e-38 338 263
0.026284218 0.78899997 -0.031817738 1.2257979e-38 339 263
0.027667599 0.78899997 -0.031817738 1.2257979e-38 340 263
0.02905098 0.78899997 -0.031817738 1.2350174e-38 341 263
0.03035721 0.787 -0.031737085 1.244309e-38 342 263
0.031737085 0.787 -0.031737085 1.2535286e-38 343 263
0.033032801 0.78500003 -0.031656433 1.2718954e-38 344 263
0.034409165 0.78500003 -0.031656433 1.281115e-38 345 263
0.035694357 0.78299999 -0.031575777 1.3361803e-38 346 263
0.037067216 0.78299999 -0.031575777 1.3453998e-38 347 263
0.038341891 0.78100002 -0.031495128 1.3271039e-38 348 263
0.039711244 0.78100002 -0.031495128 1.3455072e-38 349 263
0.041080598 0.78100002 -0.031495128 1.3547264e-38 350 263
0.042449951 0.78100002 -0.031495128 1.3455069e-38 351 263
0.043819305 0.78100002 -0.031495128 1.3455069e-38 352 263
0.045188658 0.78100002 -0.031495128 1.3455069e-38 353 263
0.046498396 0.77999997 -0.031454798 1.3547264e-38 354 263
0.047865998 0.77999997 -0.031454798 1.3547264e-38 355 263
0.049107358 0.778 -0.031374145 1.3822412e-38 356 263
0.050471451 0.778 -0.031374145 1.3822412e-38 357 263
0.051702294 0.77600002 -0.031293493 1.3822409e-38 358 263
0.052926116 0.77399999 -0.031212838 1.3914605e-38 359 263
0.054283198 0.77399999 -0.031212838 1.3914605e-38 360 263
0.055640277 0.77399999 -0.031212838 1.4006801e-38 361 263
0.056997359 0.77399999 -0.031212838 1.3824558e-38 362 263
0.058354434 0.77399999 -0.031212838 1.3824558e-38 363 263
0.059634373 0.773 -0.03117251 1.3917106e-38 364 263
0.060989697 0.773 -0.03117251 1.3917106e-38 365 263
0.062183715 0.77100003 -0.031091858 1.3917828e-38 366 263
0.063535534 0.77100003 -0.031091858 1.4010025e-38 367 263
0.064719036 0.76899999 -0.031011207 1.4009672e-38 368 263
0.066067353 0.76899999 -0.031011207 1.4102226e-38 369 263
0.067240335 0.76700002 -0.030930554 1.4377378e-38 370 263
0.068495713 0.76599997 -0.030890226 1.4469933e-38 371 263
0.069838762 0.76599997 -0.030890226 1.4837992e-38 372 263
0.070995972 0.764 -0.030809574 1.4837992e-38 373 263
0.072146162 0.76200002 -0.030728921 1.4930186e-38 374 263
0.073482201 0.76200002 -0.030728921 1.5391163e-38 375 263
0.074720047 0.76099998 -0.030688593 1.5301486e-38 376 263
0.076054335 0.76099998 -0.030688593 1.5854659e-38 377 263
0.077388622 0.76099998 -0.030688593 1.6314559e-38 378 263
0.078516021 0.759 -0.030607941 1.6683701e-38 379 263
0.079846799 0.759 -0.030607941 1.677625e-38 380 263
0.081177577 0.759 -0.030607941 1.7052477e-38 381 263
0.082290947 0.75700003 -0.030527288 1.7512017e-38 382 263
0.083618224 0.75700003 -0.030527288 1.7604213e-38 383 263
0.084721066 0.755 -0.030446632 1.7971922e-38 384 263
0.085930869 0.75400001 -0.030406307 1.8155953e-38 385 263
0.087252878 0.75400001 -0.030406307 1.8340346e-38 386 263
0.08869236 0.755 -0.030446632 1.8432541e-38 387 263
0.089896902 0.75400001 -0.030406307 1.8249579e-38 388 263
0.090976954 0.75199997 -0.030325651 1.8433969e-38 389 263
0.09229546 0.75199997 -0.030325651 1.8525793e-38 390 263
0.093613967 0.75199997 -0.030325651 1.8617989e-38 391 263
0.094932474 0.75199997 -0.030325651 1.8525793e-38 392 263
0.096250981 0.75199997 -0.030325651 1.8433598e-38 393 263
0.097309999 0.75 -0.030244999 1.8432878e-38 394 263
0.098624997 0.75 -0.030244999 1.8340682e-38 395 263
0.099939995 0.75 -0.030244999 1.8523626e-38 396 263
0.10111999 0.74900001 -0.030204674 1.8247039e-38 397 263
0.10243323 0.74900001 -0.030204674 1.7879331e-38 398 263
0.10346945 0.74699998 -0.030124018 1.7787135e-38 399 263
0.10477919 0.74699998 -0.030124018 1.7601313e-38 400 263
0.10608894 0.74699998 -0.030124018 1.7048498e-38 401 263
0.10739867 0.74699998 -0.030124018 1.5854685e-38 402 263
0.10899947 0.74900001 -0.030204674 1.64075e-38 403 263
0.11031272 0.74900001 -0.030204674 1.5769393e-38 404 263
0.11162596 0.74900001 -0.030204674 1.7060132e-38 405 263
0.11293921 0.74900001 -0.030204674 1.8253663e-38 406 263
0.11547278 0.75700003 -0.030527288 1.8161467e-38 407 263
0.11680005 0.75700003 -0.030527288 1.8067457e-38 408 263
0.11812732 0.75700003 -0.030527288 1.7329892e-38 409 263
0.11945461 0.75700003 -0.030527288 1.7694336e-38 410 263
0.12046277 0.755 -0.030446632 1.760178e-38 411 263
0.031737085 0.787 -0.033116959 1.2073229e-38 343 264
0.033116959 0.787 -0.033116959 1.234909e-38 344 264
0.034409165 0.78500003 -0.033032801 1.253384e-38 345 264
0.035785533 0.78500003 -0.033032801 1.2901548e-38 346 264
0.037067216 0.78299999 -0.032948639 1.2993743e-38 347 264
0.038440078 0.78299999 -0.032948639 1.2810431e-38 348 264
0.039812941 0.78299999 -0.032948639 1.2994462e-38 349 264
0.0411858 0.78299999 -0.032948639 1.3178488e-38 350 264
0.042449951 0.78100002 -0.032864477 1.3178488e-38 351 264
0.043819305 0.78100002 -0.032864477 1.2994815e-38 352 264
0.045188658 0.78100002 -0.032864477 1.2994815e-38 353 264
0.046558015 0.78100002 -0.032864477 1.3361803e-38 354 264
0.047865998 0.77999997 -0.032822397 1.3269607e-38 355 264
0.049233593 0.77999997 -0.032822397 1.336145e-38 356 264
0.050471451 0.778 -0.032738242 1.336145e-38 357 264
0.051702294 0.77600002 -0.032654081 1.33618e-38 358 264
0.053062879 0.77600002 -0.032654081 1.3546551e-38 359 264
0.054283198 0.77399999 -0.032569919 1.3455069e-38 360 264
0.055640277 0.77399999 -0.032569919 1.3639819e-38 361 264
0.056997359 0.77399999 -0.032569919 1.3640535e-38 362 264
0.058354434 0.77399999 -0.032569919 1.3640535e-38 363 264
0.059634373 0.773 -0.032527838 1.3549771e-38 364 264
0.060989697 0.773 -0.032527838 1.3734164e-38 365 264
0.062183715 0.77100003 -0.032443684 1.3734167e-38 366 264
0.063535534 0.77100003 -0.032443684 1.3918198e-38 367 264
0.064719036 0.76899999 -0.032359518 1.4009678e-38 368 264
0.066067353 0.76899999 -0.032359518 1.4009678e-38 369 264
0.067240335 0.76700002 -0.03227536 1.4284832e-38 370 264
0.068495713 0.76599997 -0.032233275 1.4377028e-38 371 264
0.069838762 0.76599997 -0.032233275 1.4652892e-38 372 264
0.070995972 0.764 -0.032149121 1.4745087e-38 373 264
0.072335519 0.764 -0.032149121 1.474509e-38 374 264
0.073482201 0.76200002 -0.032064959 1.4929483e-38 375 264
0.074720047 0.76099998 -0.032022879 1.456394e-38 376 264
0.076054335 0.76099998 -0.032022879 1.5024918e-38 377 264
0.077185236 0.759 -0.031938717 1.5577719e-38 378 264
0.078309126 0.75700003 -0.031854562 1.6038697e-38 379 264
0.079636402 0.75700003 -0.031854562 1.649894e-38 380 264
0.080963671 0.75700003 -0.031854562 1.6959559e-38 381 264
0.082290947 0.75700003 -0.031854562 1.7327622e-38 382 264
0.083397292 0.755 -0.031770397 1.7512014e-38 383 264
0.084721066 0.755 -0.031770397 1.7603862e-38 384 264
0.085930869 0.75400001 -0.03172832 1.7880089e-38 385 264
0.087252878 0.75400001 -0.03172832 1.8064483e-38 386 264
0.088574894 0.75400001 -0.03172832 1.815668e-38 387 264
0.089658447 0.75199997 -0.031644158 1.8249585e-38 388 264
0.090976954 0.75199997 -0.031644158 1.8249585e-38 389 264
0.092049994 0.75 -0.03156 1.8342853e-38 390 264
0.093364999 0.75 -0.03156 1.8342853e-38 391 264
0.094679996 0.75 -0.03156 1.8433964e-38 392 264
0.095994994 0.75 -0.03156 1.8433964e-38 393 264
0.097309999 0.75 -0.03156 1.861691e-38 394 264
0.098493494 0.74900001 -0.031517919 1.8432878e-38 395 264
0.099806741 0.74900001 -0.031517919 1.8524345e-38 396 264
0.10111999 0.74900001 -0.031517919 1.8339953e-38 397 264
0.10243323 0.74900001 -0.031517919 1.806444e-38 398 264
0.10346945 0.74699998 -0.031433757 1.7696016e-38 399 264
0.10477919 0.74699998 -0.031433757 1.7878965e-38 400 264
0.10608894 0.74699998 -0.031433757 1.760202e-38 401 264
0.10739867 0.74699998 -0.031433757 1.6865918e-38 402 264
0.10870842 0.74699998 -0.031433757 1.6404941e-38 403 264
0.11031272 0.74900001 -0.031517919 1.4752688e-38 404 264
0.11162596 0.74900001 -0.031517919 1.6227818e-38 405 264
0.11369315 0.75400001 -0.03172832 1.7241672e-38 406 264
0.11516769 0.755 -0.031770397 1.7887041e-38 407 264
0.11649147 0.755 -0.031770397 1.8253663e-38 408 264
0.11781523 0.755 -0.031770397 1.806927e-38 409 264
0.11913899 0.755 -0.031770397 1.815785e-38 410 264
0.12046277 0.755 -0.031770397 1.732809e-38 411 264
0.12178653 0.755 -0.031770397 1.7417752e-38 412 264
0.035785533 0.78500003 -0.034409165 1.0967254e-38 346 265
0.037161902 0.78500003 -0.034409165 1.1151645e-38 347 265
0.038440078 0.78299999 -0.034321502 1.1520061e-38 348 265
0.039812941 0.78299999 -0.034321502 1.1704453e-38 349 265
0.0411858 0.78299999 -0.034321502 1.2348374e-38 350 265
0.042558655 0.78299999 -0.034321502 1.2625319e-38 351 265
0.043931518 0.78299999 -0.034321502 1.2809702e-38 352 265
0.045188658 0.78100002 -0.034233831 1.2901898e-38 353 265
0.046558015 0.78100002 -0.034233831 1.2993375e-38 354 265
0.047927368 0.78100002 -0.034233831 1.2901179e-38 355 265
0.049233593 0.77999997 -0.034189999 1.3084138e-38 356 265
0.050471451 0.778 -0.034102332 1.2991941e-38 357 265
0.051702294 0.77600002 -0.034014668 1.2255812e-38 358 265
0.053062879 0.77600002 -0.034014668 1.2532039e-38 359 265
0.054283198 0.77399999 -0.033927001 1.2718583e-38 360 265
0.055640277 0.77399999 -0.033927001 1.2995168e-38 361 265
0.056997359 0.77399999 -0.033927001 1.3729494e-38 362 265
0.058354434 0.77399999 -0.033927001 1.4005722e-38 363 265
0.059634373 0.773 -0.033883166 1.3640166e-38 364 265
0.060989697 0.773 -0.033883166 1.3824558e-38 365 265
0.062183715 0.77100003 -0.033795502 1.3917479e-38 366 265
0.063370727 0.76899999 -0.033707831 1.3917479e-38 367 265
0.064719036 0.76899999 -0.033707831 1.3917845e-38 368 265
0.066067353 0.76899999 -0.033707831 1.3917845e-38 369 265
0.067240335 0.76700002 -0.033620168 1.4377384e-38 370 265
0.068495713 0.76599997 -0.033576332 1.446958e-38 371 265
0.069838762 0.76599997 -0.033576332 1.4469577e-38 372 265
0.071181826 0.76599997 -0.033576332 1.4469577e-38 373 265
0.072335519 0.764 -0.033488665 1.4469933e-38 374 265
0.073482201 0.76200002 -0.033401001 1.4562128e-38 375 265
0.074720047 0.76099998 -0.033357166 1.483764e-38 376 265
0.075854458 0.759 -0.033269498 1.5113867e-38 377 265
0.077185236 0.759 -0.033269498 1.5391529e-38 378 265
0.078309126 0.75700003 -0.033181835 1.5575921e-38 379 265
0.079636402 0.75700003 -0.033181835 1.5854654e-38 380 265
0.080963671 0.75700003 -0.033181835 1.6500023e-38 381 265
0.082073532 0.755 -0.033094164 1.7235426e-38 382 265
0.083397292 0.755 -0.033094164 1.7327622e-38 383 265
0.084608853 0.75400001 -0.033050332 1.7694609e-38 384 265
0.085930869 0.75400001 -0.033050332 1.7970837e-38 385 265
0.087252878 0.75400001 -0.033050332 1.7971566e-38 386 265
0.088574894 0.75400001 -0.033050332 1.8155597e-38 387 265
0.089419998 0.75 -0.032874998 1.8064834e-38 388 265
0.090734996 0.75 -0.032874998 1.8157031e-38 389 265
0.091927268 0.74900001 -0.032831166 1.8433964e-38 390 265
0.093240514 0.74900001 -0.032831166 1.8433964e-38 391 265
0.094553761 0.74900001 -0.032831166 1.8525793e-38 392 265
0.095867008 0.74900001 -0.032831166 1.8525793e-38 393 265
0.097180255 0.74900001 -0.032831166 1.8525793e-38 394 265
0.098493494 0.74900001 -0.032831166 1.8525793e-38 395 265
0.099806741 0.74900001 -0.032831166 1.8432878e-38 396 265
0.10084997 0.74699998 -0.032743499 1.8248486e-38 397 265
0.10215972 0.74699998 -0.032743499 1.7972973e-38 398 265
0.10333094 0.74599999 -0.032699663 1.7788582e-38 399 265
0.10463893 0.74599999 -0.032699663 1.7513067e-38 400 265
0.10566287 0.74400002 -0.032612 1.723648e-38 401 265
0.10696736 0.74400002 -0.032612 1.7416924e-38 402 265
0.10827184 0.74400002 -0.032612 1.7140338e-38 403 265
0.10987087 0.74599999 -0.032699663 1.6037641e-38 404 265
0.11117886 0.74599999 -0.032699663 1.5945445e-38 405 265
0.11369315 0.75400001 -0.033050332 1.5308418e-38 406 265
0.11501516 0.75400001 -0.033050332 1.7060135e-38 407 265
0.11649147 0.755 -0.033094164 1.8161833e-38 408 265
0.11765919 0.75400001 -0.033050332 1.8254028e-38 409 265
0.1189812 0.75400001 -0.033050332 1.816182e-38 410 265
0.12046277 0.755 -0.033094164 1.7516451e-38 411 265
0.12178653 0.755 -0.033094164 1.7512115e-38 412 265
0.12311029 0.755 -0.033094164 1.723517e-38 413 265
0.04530438 0.78299999 -0.035694357 1.1982463e-38 353 266
0.046677239 0.78299999 -0.035694357 1.2350174e-38 354 266
0.048050098 0.78299999 -0.035694357 1.2073229e-38 355 266
0.049296722 0.78100002 -0.035603184 1.1889569e-38 356 266
0.050601196 0.77999997 -0.035557598 1.1797015e-38 357 266
0.051835544 0.778 -0.035466425 1.2255475e-38 358 266
0.053062879 0.77600002 -0.035375252 1.2439866e-38 359 266
0.054423466 0.77600002 -0.035375252 1.2623178e-38 360 266
0.055640277 0.77399999 -0.03528408 1.2900125e-38 361 266
0.056997359 0.77399999 -0.03528408 1.2993037e-38 362 266
0.058354434 0.77399999 -0.03528408 1.3177787e-38 363 266
0.059634373 0.773 -0.035238493 1.3087738e-38 364 266
0.060989697 0.773 -0.035238493 1.3456519e-38 365 266
0.062183715 0.77100003 -0.03514732 1.3549787e-38 366 266
0.063370727 0.76899999 -0.035056144 1.3734179e-38 367 266
0.064719036 0.76899999 -0.035056144 1.3917842e-38 368 266
0.066067353 0.76899999 -0.035056144 1.4010396e-38 369 266
0.067240335 0.76700002 -0.034964975 1.4285904e-38 370 266
0.068585135 0.76700002 -0.034964975 1.43781e-38 371 266
0.069838762 0.76599997 -0.034919381 1.4469577e-38 372 266
0.070995972 0.764 -0.034828212 1.4469577e-38 373 266
0.072146162 0.76200002 -0.034737039 1.446993e-38 374 266
0.073482201 0.76200002 -0.034737039 1.4562125e-38 375 266
0.074720047 0.76099998 -0.034691449 1.4746161e-38 376 266
0.075854458 0.759 -0.034600276 1.4838356e-38 377 266
0.077185236 0.759 -0.034600276 1.465506e-38 378 266
0.078309126 0.75700003 -0.034509107 1.5024202e-38 379 266
0.079636402 0.75700003 -0.034509107 1.5208231e-38 380 266
0.080749765 0.755 -0.034417931 1.58536e-38 381 266
0.082073532 0.755 -0.034417931 1.6315643e-38 382 266
0.083286837 0.75400001 -0.034372345 1.6684067e-38 383 266
0.084608853 0.75400001 -0.034372345 1.714325e-38 384 266
0.085930869 0.75400001 -0.034372345 1.7419837e-38 385 266
0.08702144 0.75199997 -0.034281172 1.7511677e-38 386 266
0.08833994 0.75199997 -0.034281172 1.7604231e-38 387 266
0.089419998 0.75 -0.034189999 1.7788975e-38 388 266
0.090614013 0.74900001 -0.034144413 1.7973006e-38 389 266
0.091927268 0.74900001 -0.034144413 1.806591e-38 390 266
0.093240514 0.74900001 -0.034144413 1.8158105e-38 391 266
0.094301268 0.74699998 -0.034053236 1.8250651e-38 392 266
0.095611013 0.74699998 -0.034053236 1.8250651e-38 393 266
0.096920758 0.74699998 -0.034053236 1.8434317e-38 394 266
0.098230496 0.74699998 -0.034053236 1.8434317e-38 395 266
0.099540234 0.74699998 -0.034053236 1.8617263e-38 396 266
0.10084997 0.74699998 -0.034053236 1.8433231e-38 397 266
0.10202295 0.74599999 -0.034007654 1.824919e-38 398 266
0.10333094 0.74599999 -0.034007654 1.8156994e-38 399 266
0.10463893 0.74599999 -0.034007654 1.806443e-38 400 266
0.10566287 0.74400002 -0.033916477 1.7879679e-38 401 266
0.10696736 0.74400002 -0.033916477 1.7969363e-38 402 266
0.10827184 0.74400002 -0.033916477 1.7784612e-38 403 266
0.10957632 0.74400002 -0.033916477 1.7140691e-38 404 266
0.1108808 0.74400002 -0.033916477 1.6218734e-38 405 266
0.11248685 0.74599999 -0.034007654 1.4843789e-38 406 266
0.11501516 0.75400001 -0.034372345 1.6779898e-38 407 266
0.11633717 0.75400001 -0.034372345 1.7057287e-38 408 266
0.11765919 0.75400001 -0.034372345 1.7702657e-38 409 266
0.1189812 0.75400001 -0.034372345 1.8161833e-38 410 266
0.12178653 0.755 -0.034417931 1.7975621e-38 412 266
