# .PCD v.7 - Point Cloud Data file format
FIELDS x y z rgb imX imY
SIZE 4 4 4 4 4 4
TYPE F F F F F F
COUNT 1 1 1 1 1 1
WIDTH 862
HEIGHT 1
VIEWPOINT 0 0 0 1 0 0 0
POINTS 862
DATA ascii
-0.044709999 0.75 -0 1.8802052e-38 286 240
-0.042304426 0.75400001 -0 1.8709109e-38 288 240
-0.040982414 0.75400001 -0 1.88935e-38 289 240
-0.039660402 0.75400001 -0 1.9537424e-38 290 240
-0.038338386 0.75400001 -0 1.981437e-38 291 240
-0.037065465 0.755 -0 1.9722172e-38 292 240
-0.035741698 0.755 -0 1.9722172e-38 293 240
-0.034509107 0.75700003 -0 1.9445931e-38 294 240
-0.033181835 0.75700003 -0 1.9445931e-38 295 240
-0.031854562 0.75700003 -0 1.953741e-38 296 240
-0.030527288 0.75700003 -0 1.9629607e-38 297 240
-0.029277159 0.759 -0 1.9354112e-38 298 240
-0.027946379 0.759 -0 1.9261915e-38 299 240
-0.026615599 0.759 -0 1.9261915e-38 300 240
-0.025284819 0.759 -0 1.916972e-38 301 240
-0.023954039 0.759 -0 1.8986049e-38 302 240
-0.02262326 0.759 -0 1.8986049e-38 303 240
-0.02129248 0.759 -0 1.8893853e-38 304 240
-0.020014299 0.76099998 -0 1.8893853e-38 305 240
-0.01863092 0.759 -0 1.898497e-38 306 240
-0.017300138 0.759 -0 1.898497e-38 307 240
-0.015969358 0.759 -0 1.8800938e-38 308 240
-0.014638579 0.759 -0 1.8800938e-38 309 240
-0.0133078 0.759 -0 1.8709462e-38 310 240
-0.01197702 0.759 -0 1.8617266e-38 311 240
-0.01064624 0.759 -0 1.8617266e-38 312 240
-0.00931546 0.759 -0 1.8617266e-38 313 240
-0.0079846792 0.759 -0 1.8617266e-38 314 240
-0.0066538998 0.759 -0 1.8433234e-38 315 240
-0.0053231199 0.759 -0 1.8433954e-38 316 240
-0.0039923396 0.759 -0 1.8341398e-38 317 240
-0.00266156 0.759 -0 1.8523994e-38 318 240
-0.00133078 0.759 -0 1.861619e-38 319 240
0 0.759 -0 1.861619e-38 320 240
0.00133078 0.759 -0 1.861619e-38 321 240
0.00266156 0.759 -0 1.8248849e-38 322 240
0.0039923396 0.759 -0 1.8341404e-38 323 240
0.0053231199 0.759 -0 1.8340685e-38 324 240
0.0066538998 0.759 -0 1.824813e-38 325 240
0.0079846792 0.759 -0 1.8340679e-38 326 240
0.00931546 0.759 -0 1.8156288e-38 327 240
0.01064624 0.759 -0 1.83396e-38 328 240
0.01197702 0.759 -0 1.83396e-38 329 240
0.0133078 0.759 -0 1.833925e-38 330 240
0.014638579 0.759 -0 1.8431445e-38 331 240
0.015927281 0.75700003 -0 1.8155219e-38 332 240
0.017254554 0.75700003 -0 1.833925e-38 333 240
0.018581826 0.75700003 -0 1.8522194e-38 334 240
0.019909101 0.75700003 -0 1.8338162e-38 335 240
0.021236373 0.75700003 -0 1.8155569e-38 336 240
0.022563647 0.75700003 -0 1.8155569e-38 337 240
0.02389092 0.75700003 -0 1.8156291e-38 338 240
0.025218192 0.75700003 -0 1.8156291e-38 339 240
0.026545467 0.75700003 -0 1.8339956e-38 340 240
0.027946379 0.759 -0 1.8155566e-38 341 240
0.029277159 0.759 -0 1.8339956e-38 342 240
0.030607941 0.759 -0 1.8339956e-38 343 240
0.031938717 0.759 -0 1.843143e-38 344 240
0.033357166 0.76099998 -0 1.843143e-38 345 240
0.034600276 0.759 -0 1.8155192e-38 346 240
0.035931058 0.759 -0 1.8155192e-38 347 240
0.03726184 0.759 -0 1.8247386e-38 348 240
0.038592618 0.759 -0 1.8339941e-38 349 240
0.0399234 0.759 -0 1.8156275e-38 350 240
0.041254178 0.759 -0 1.8156275e-38 351 240
0.042472746 0.75700003 -0 1.8156275e-38 352 240
0.043800019 0.75700003 -0 1.8156275e-38 353 240
0.045127295 0.75700003 -0 1.8339585e-38 354 240
0.046454567 0.75700003 -0 1.8339585e-38 355 240
0.047655597 0.755 -0 1.8339585e-38 356 240
0.048914492 0.75400001 -0 1.8155192e-38 357 240
0.050236505 0.75400001 -0 1.8339219e-38 358 240
0.051558517 0.75400001 -0 1.8247022e-38 359 240
0.052880533 0.75400001 -0 1.8339918e-38 360 240
0.054202545 0.75400001 -0 1.8247723e-38 361 240
0.055524562 0.75400001 -0 1.8523937e-38 362 240
0.056846574 0.75400001 -0 1.8523937e-38 363 240
0.058168583 0.75400001 -0 1.8616152e-38 364 240
0.059332799 0.75199997 -0 1.8708348e-38 365 240
0.060651302 0.75199997 -0 1.8706572e-38 366 240
0.061969809 0.75199997 -0 1.8614377e-38 367 240
0.063288316 0.75199997 -0 1.8522897e-38 368 240
0.064606823 0.75199997 -0 1.8246669e-38 369 240
0.06592533 0.75199997 -0 1.7693143e-38 370 240
0.067243837 0.75199997 -0 1.7047774e-38 371 240
0.068562344 0.75199997 -0 1.6032561e-38 372 240
0.069880851 0.75199997 -0 1.4742181e-38 373 240
0.071199358 0.75199997 -0 1.3264922e-38 374 240
-0.053699337 0.74699998 -0.0013097399 1.8621347e-38 279 241
-0.052389596 0.74699998 -0.0013097399 1.8893222e-38 280 241
-0.051011477 0.74599999 -0.0013079866 1.85248e-38 281 241
-0.04970349 0.74599999 -0.0013079866 1.8433658e-38 282 241
-0.048460379 0.74699998 -0.0013097399 1.8525854e-38 283 241
-0.047276881 0.74900001 -0.0013132467 1.8985012e-38 284 241
-0.046024997 0.75 -0.001315 1.9077207e-38 285 241
-0.044709999 0.75 -0.001315 1.8986068e-38 286 241
-0.04351072 0.75199997 -0.0013185065 1.9447045e-38 287 241
-0.04219221 0.75199997 -0.0013185065 1.9722537e-38 288 241
-0.040982414 0.75400001 -0.0013220133 1.9722537e-38 289 241
-0.039660402 0.75400001 -0.0013220133 1.935446e-38 290 241
-0.038338386 0.75400001 -0.0013220133 1.935446e-38 291 241
-0.037065465 0.755 -0.0013237667 1.9262263e-38 292 241
-0.035741698 0.755 -0.0013237667 1.9262263e-38 293 241
-0.034417931 0.755 -0.0013237667 1.9445581e-38 294 241
-0.033094164 0.755 -0.0013237667 1.9261549e-38 295 241
-0.031770397 0.755 -0.0013237667 1.9261196e-38 296 241
-0.030527288 0.75700003 -0.0013272733 1.9261196e-38 297 241
-0.029200014 0.75700003 -0.0013272733 1.8986054e-38 298 241
-0.027872739 0.75700003 -0.0013272733 1.8986054e-38 299 241
-0.026545467 0.75700003 -0.0013272733 1.8893853e-38 300 241
-0.025284819 0.759 -0.00133078 1.8893853e-38 301 241
-0.02389092 0.75700003 -0.0013272733 1.8985325e-38 302 241
-0.022563647 0.75700003 -0.0013272733 1.8985325e-38 303 241
-0.02129248 0.759 -0.00133078 1.8801654e-38 304 241
-0.0199617 0.759 -0.00133078 1.8801654e-38 305 241
-0.018581826 0.75700003 -0.0013272733 1.8800936e-38 306 241
-0.017254554 0.75700003 -0.0013272733 1.870874e-38 307 241
-0.015927281 0.75700003 -0.0013272733 1.8892405e-38 308 241
-0.014600007 0.75700003 -0.0013272733 1.8800208e-38 309 241
-0.013272733 0.75700003 -0.0013272733 1.870801e-38 310 241
-0.01194546 0.75700003 -0.0013272733 1.8523979e-38 311 241
-0.010618187 0.75700003 -0.0013272733 1.8707291e-38 312 241
-0.0092909131 0.75700003 -0.0013272733 1.8615095e-38 313 241
-0.0079846792 0.759 -0.00133078 1.8431786e-38 314 241
-0.0066363667 0.75700003 -0.0013272733 1.8431786e-38 315 241
-0.0053090933 0.75700003 -0.0013272733 1.833995e-38 316 241
-0.0039818203 0.75700003 -0.0013272733 1.8063724e-38 317 241
-0.00266156 0.759 -0.00133078 1.8247039e-38 318 241
-0.00133078 0.759 -0.00133078 1.8247039e-38 319 241
0 0.759 -0.00133078 1.8338516e-38 320 241
0.00133078 0.759 -0.00133078 1.8522547e-38 321 241
0.00266156 0.759 -0.00133078 1.8339232e-38 322 241
0.0039923396 0.759 -0.00133078 1.8431786e-38 323 241
0.0053231199 0.759 -0.00133078 1.8063724e-38 324 241
0.0066538998 0.759 -0.00133078 1.7971527e-38 325 241
0.0079846792 0.759 -0.00133078 1.8155192e-38 326 241
0.0092909131 0.75700003 -0.0013272733 1.8155192e-38 327 241
0.010618187 0.75700003 -0.0013272733 1.824559e-38 328 241
0.01194546 0.75700003 -0.0013272733 1.8337785e-38 329 241
0.013272733 0.75700003 -0.0013272733 1.8246316e-38 330 241
0.014600007 0.75700003 -0.0013272733 1.815412e-38 331 241
0.015927281 0.75700003 -0.0013272733 1.815412e-38 332 241
0.017208965 0.755 -0.0013237667 1.815412e-38 333 241
0.018532733 0.755 -0.0013237667 1.7787135e-38 334 241
0.0198565 0.755 -0.0013237667 1.7879331e-38 335 241
0.021180267 0.755 -0.0013237667 1.7878256e-38 336 241
0.022504034 0.755 -0.0013237667 1.8154842e-38 337 241
0.02389092 0.75700003 -0.0013272733 1.8155192e-38 338 241
0.025218192 0.75700003 -0.0013272733 1.8062996e-38 339 241
0.026545467 0.75700003 -0.0013272733 1.8062991e-38 340 241
0.027872739 0.75700003 -0.0013272733 1.8062991e-38 341 241
0.029277159 0.759 -0.00133078 1.8154473e-38 342 241
0.030607941 0.759 -0.00133078 1.8246669e-38 343 241
0.031938717 0.759 -0.00133078 1.8154473e-38 344 241
0.033269498 0.759 -0.00133078 1.8246669e-38 345 241
0.034509107 0.75700003 -0.0013272733 1.7879328e-38 346 241
0.03583638 0.75700003 -0.0013272733 1.7879328e-38 347 241
0.037163652 0.75700003 -0.0013272733 1.8154476e-38 348 241
0.038490929 0.75700003 -0.0013272733 1.8154476e-38 349 241
0.039818201 0.75700003 -0.0013272733 1.8062994e-38 350 241
0.041036766 0.755 -0.0013237667 1.8062994e-38 351 241
0.042360533 0.755 -0.0013237667 1.7971877e-38 352 241
0.043684296 0.755 -0.0013237667 1.7971877e-38 353 241
0.044948451 0.75400001 -0.0013220133 1.8247389e-38 354 241
0.046270464 0.75400001 -0.0013220133 1.8247389e-38 355 241
0.04759248 0.75400001 -0.0013220133 1.8246669e-38 356 241
0.048914492 0.75400001 -0.0013220133 1.8246669e-38 357 241
0.050236505 0.75400001 -0.0013220133 1.8246672e-38 358 241
0.051558517 0.75400001 -0.0013220133 1.8338869e-38 359 241
0.052740261 0.75199997 -0.0013185065 1.8247389e-38 360 241
0.054058768 0.75199997 -0.0013185065 1.8247389e-38 361 241
0.055524562 0.75400001 -0.0013220133 1.8247386e-38 362 241
0.056695782 0.75199997 -0.0013185065 1.8155189e-38 363 241
0.058014289 0.75199997 -0.0013185065 1.8247022e-38 364 241
0.059332799 0.75199997 -0.0013185065 1.8247022e-38 365 241
0.060651302 0.75199997 -0.0013185065 1.8247022e-38 366 241
0.061969809 0.75199997 -0.0013185065 1.8247022e-38 367 241
0.06312 0.75 -0.001315 1.8246666e-38 368 241
0.064434998 0.75 -0.001315 1.8339222e-38 369 241
0.065749995 0.75 -0.001315 1.8338516e-38 370 241
0.067065001 0.75 -0.001315 1.8614742e-38 371 241
0.068562344 0.75199997 -0.0013185065 1.861584e-38 372 241
0.069880851 0.75199997 -0.0013185065 1.8339253e-38 373 241
0.071199358 0.75199997 -0.0013185065 1.7415867e-38 374 241
0.072517857 0.75199997 -0.0013185065 1.6125128e-38 375 241
-0.057242822 0.74199998 -0.0026019465 1.9449305e-38 276 242
-0.05594185 0.74199998 -0.0026019465 1.8988687e-38 277 242
-0.054640878 0.74199998 -0.0026019465 1.8986857e-38 278 242
-0.053627454 0.74599999 -0.0026159731 1.870991e-38 279 242
-0.052389596 0.74699998 -0.0026194798 1.8892817e-38 280 242
-0.051079858 0.74699998 -0.0026194798 1.8524036e-38 281 242
-0.049770117 0.74699998 -0.0026194798 1.8893868e-38 282 242
-0.048460379 0.74699998 -0.0026194798 1.8986064e-38 283 242
-0.047276881 0.74900001 -0.0026264933 1.9353759e-38 284 242
-0.045963634 0.74900001 -0.0026264933 1.9353759e-38 285 242
-0.044650383 0.74900001 -0.0026264933 1.9354465e-38 286 242
-0.043394998 0.75 -0.00263 1.9446661e-38 287 242
-0.04219221 0.75199997 -0.0026370131 1.9538131e-38 288 242
-0.040873703 0.75199997 -0.0026370131 1.9538131e-38 289 242
-0.039555199 0.75199997 -0.0026370131 1.9262263e-38 290 242
-0.038338386 0.75400001 -0.0026440267 1.9170067e-38 291 242
-0.037016369 0.75400001 -0.0026440267 1.917007e-38 292 242
-0.035694357 0.75400001 -0.0026440267 1.9077874e-38 293 242
-0.034417931 0.755 -0.0026475333 1.9077521e-38 294 242
-0.033094164 0.755 -0.0026475333 1.9077521e-38 295 242
-0.031770397 0.755 -0.0026475333 1.9077168e-38 296 242
-0.030446632 0.755 -0.0026475333 1.9077168e-38 297 242
-0.029122867 0.755 -0.0026475333 1.8802026e-38 298 242
-0.027872739 0.75700003 -0.0026545466 1.8617995e-38 299 242
-0.026545467 0.75700003 -0.0026545466 1.8525796e-38 300 242
-0.025218192 0.75700003 -0.0026545466 1.8433601e-38 301 242
-0.02389092 0.75700003 -0.0026545466 1.861691e-38 302 242
-0.022563647 0.75700003 -0.0026545466 1.861691e-38 303 242
-0.021236373 0.75700003 -0.0026545466 1.8341048e-38 304 242
-0.019909101 0.75700003 -0.0026545466 1.8341048e-38 305 242
-0.018581826 0.75700003 -0.0026545466 1.8523997e-38 306 242
-0.017254554 0.75700003 -0.0026545466 1.8523997e-38 307 242
-0.015885198 0.755 -0.0026475333 1.833995e-38 308 242
-0.014561433 0.755 -0.0026475333 1.8155919e-38 309 242
-0.013237666 0.755 -0.0026475333 1.7971877e-38 310 242
-0.011913899 0.755 -0.0026475333 1.7971877e-38 311 242
-0.010590133 0.755 -0.0026475333 1.8062991e-38 312 242
-0.0092663663 0.755 -0.0026475333 1.787896e-38 313 242
-0.0079636406 0.75700003 -0.0026545466 1.7787133e-38 314 242
-0.0066363667 0.75700003 -0.0026545466 1.7787133e-38 315 242
-0.0053090933 0.75700003 -0.0026545466 1.7419073e-38 316 242
-0.0039818203 0.75700003 -0.0026545466 1.7419073e-38 317 242
-0.0026545466 0.75700003 -0.0026545466 1.7235405e-38 318 242
-0.0013272733 0.75700003 -0.0026545466 1.7051012e-38 319 242
0 0.759 -0.00266156 1.7418354e-38 320 242
0.00133078 0.759 -0.00266156 1.7418354e-38 321 242
0.0026545466 0.75700003 -0.0026545466 1.7418707e-38 322 242
0.0039818203 0.75700003 -0.0026545466 1.7418707e-38 323 242
0.0053231199 0.759 -0.00266156 1.7234315e-38 324 242
0.0066538998 0.759 -0.00266156 1.714176e-38 325 242
0.0079636406 0.75700003 -0.0026545466 1.6959167e-38 326 242
0.0092909131 0.75700003 -0.0026545466 1.6959167e-38 327 242
0.010618187 0.75700003 -0.0026545466 1.7050647e-38 328 242
0.01194546 0.75700003 -0.0026545466 1.7234678e-38 329 242
0.013272733 0.75700003 -0.0026545466 1.7234325e-38 330 242
0.014600007 0.75700003 -0.0026545466 1.7234325e-38 331 242
0.015885198 0.755 -0.0026475333 1.7050649e-38 332 242
0.017208965 0.755 -0.0026475333 1.7050649e-38 333 242
0.018532733 0.755 -0.0026475333 1.7050649e-38 334 242
0.0198565 0.755 -0.0026475333 1.7234681e-38 335 242
0.021180267 0.755 -0.0026475333 1.7234327e-38 336 242
0.022504034 0.755 -0.0026475333 1.741872e-38 337 242
0.023827799 0.755 -0.0026475333 1.7419426e-38 338 242
0.025151566 0.755 -0.0026475333 1.7235034e-38 339 242
0.026545467 0.75700003 -0.0026545466 1.7419061e-38 340 242
0.027872739 0.75700003 -0.0026545466 1.7419061e-38 341 242
0.029200014 0.75700003 -0.0026545466 1.7418354e-38 342 242
0.030527288 0.75700003 -0.0026545466 1.751055e-38 343 242
0.031854562 0.75700003 -0.0026545466 1.7418707e-38 344 242
0.033181835 0.75700003 -0.0026545466 1.7694934e-38 345 242
0.034509107 0.75700003 -0.0026545466 1.7694581e-38 346 242
0.035741698 0.755 -0.0026475333 1.7694581e-38 347 242
0.037065465 0.755 -0.0026475333 1.7694587e-38 348 242
0.038389232 0.755 -0.0026475333 1.7694587e-38 349 242
0.039712999 0.755 -0.0026475333 1.7694937e-38 350 242
0.041036766 0.755 -0.0026475333 1.7694937e-38 351 242
0.042360533 0.755 -0.0026475333 1.7512344e-38 352 242
0.043626439 0.75400001 -0.0026440267 1.7512344e-38 353 242
0.044948451 0.75400001 -0.0026440267 1.7879328e-38 354 242
0.046270464 0.75400001 -0.0026440267 1.7879328e-38 355 242
0.04759248 0.75400001 -0.0026440267 1.8062641e-38 356 242
0.048914492 0.75400001 -0.0026440267 1.8062641e-38 357 242
0.050236505 0.75400001 -0.0026440267 1.7879331e-38 358 242
0.051558517 0.75400001 -0.0026440267 1.7971527e-38 359 242
0.052740261 0.75199997 -0.0026370131 1.8062643e-38 360 242
0.054058768 0.75199997 -0.0026370131 1.8154839e-38 361 242
0.055377278 0.75199997 -0.0026370131 1.8062641e-38 362 242
0.056695782 0.75199997 -0.0026370131 1.8062641e-38 363 242
0.058014289 0.75199997 -0.0026370131 1.8062278e-38 364 242
0.059332799 0.75199997 -0.0026370131 1.8062278e-38 365 242
0.060651302 0.75199997 -0.0026370131 1.8062631e-38 366 242
0.061969809 0.75199997 -0.0026370131 1.8062631e-38 367 242
0.06312 0.75 -0.00263 1.8154821e-38 368 242
0.064434998 0.75 -0.00263 1.8062625e-38 369 242
0.065749995 0.75 -0.00263 1.7879313e-38 370 242
0.067065001 0.75 -0.00263 1.7879313e-38 371 242
0.068562344 0.75199997 -0.0026370131 1.8247022e-38 372 242
0.069880851 0.75199997 -0.0026370131 1.852325e-38 373 242
0.071010001 0.75 -0.00263 1.8061924e-38 374 242
0.072324999 0.75 -0.00263 1.7693143e-38 375 242
0.073836371 0.75199997 -0.0026370131 1.6863398e-38 376 242
0.078899994 0.75 -0.00263 8.8373728e-39 380 242
0.080215 0.75 -0.00263 7.8228776e-39 381 242
-0.059764117 0.741 -0.0038976599 1.8528413e-38 274 243
-0.0584649 0.741 -0.0038976599 1.7698652e-38 275 243
-0.057165679 0.741 -0.0038976599 1.7880482e-38 276 243
-0.05594185 0.74199998 -0.0039029196 1.7788286e-38 277 243
-0.054640878 0.74199998 -0.0039029196 1.8432194e-38 278 243
-0.053627454 0.74599999 -0.0039239596 1.8892812e-38 279 243
-0.052389596 0.74699998 -0.0039292197 1.9261579e-38 280 243
-0.051079858 0.74699998 -0.0039292197 1.9353774e-38 281 243
-0.049770117 0.74699998 -0.0039292197 1.9354481e-38 282 243
-0.048460379 0.74699998 -0.0039292197 1.9446676e-38 283 243
-0.047276881 0.74900001 -0.0039397399 1.9446311e-38 284 243
-0.045963634 0.74900001 -0.0039397399 1.9261559e-38 285 243
-0.044650383 0.74900001 -0.0039397399 1.9445227e-38 286 243
-0.04333714 0.74900001 -0.0039397399 1.9445227e-38 287 243
-0.04208 0.75 -0.003945 1.9261559e-38 288 243
-0.040764999 0.75 -0.003945 1.9169364e-38 289 243
-0.039555199 0.75199997 -0.0039555198 1.9077521e-38 290 243
-0.038236689 0.75199997 -0.0039555198 1.8985325e-38 291 243
-0.036918186 0.75199997 -0.0039555198 1.8985323e-38 292 243
-0.035599679 0.75199997 -0.0039555198 1.8801292e-38 293 243
-0.034372345 0.75400001 -0.00396604 1.8800936e-38 294 243
-0.033094164 0.755 -0.0039712996 1.8800936e-38 295 243
-0.031770397 0.755 -0.0039712996 1.8984253e-38 296 243
-0.030446632 0.755 -0.0039712996 1.8892058e-38 297 243
-0.029122867 0.755 -0.0039712996 1.8617266e-38 298 243
-0.027799098 0.755 -0.0039712996 1.8340679e-38 299 243
-0.026475333 0.755 -0.0039712996 1.8157007e-38 300 243
-0.025151566 0.755 -0.0039712996 1.8249202e-38 301 243
-0.023827799 0.755 -0.0039712996 1.8431796e-38 302 243
-0.022504034 0.755 -0.0039712996 1.83396e-38 303 243
-0.021236373 0.75700003 -0.0039818203 1.8064089e-38 304 243
-0.019909101 0.75700003 -0.0039818203 1.7971894e-38 305 243
-0.018532733 0.755 -0.0039712996 1.7971174e-38 306 243
-0.017208965 0.755 -0.0039712996 1.7878978e-38 307 243
-0.015885198 0.755 -0.0039712996 1.7604173e-38 308 243
-0.014561433 0.755 -0.0039712996 1.7327228e-38 309 243
-0.013220133 0.75400001 -0.00396604 1.7419061e-38 310 243
-0.01189812 0.75400001 -0.00396604 1.7419061e-38 311 243
-0.010590133 0.755 -0.0039712996 1.7234309e-38 312 243
-0.0092663663 0.755 -0.0039712996 1.7142114e-38 313 243
-0.0079425992 0.755 -0.0039712996 1.7234309e-38 314 243
-0.0066363667 0.75700003 -0.0039818203 1.7049918e-38 315 243
-0.0053090933 0.75700003 -0.0039818203 1.6865534e-38 316 243
-0.0039818203 0.75700003 -0.0039818203 1.6681141e-38 317 243
-0.0026545466 0.75700003 -0.0039818203 1.6405999e-38 318 243
-0.0013272733 0.75700003 -0.0039818203 1.6221249e-38 319 243
0 0.759 -0.0039923396 1.6404198e-38 320 243
0.00133078 0.759 -0.0039923396 1.6496394e-38 321 243
0.0026545466 0.75700003 -0.0039818203 1.6496394e-38 322 243
0.0039818203 0.75700003 -0.0039818203 1.6496394e-38 323 243
0.0053090933 0.75700003 -0.0039818203 1.6403845e-38 324 243
0.0066363667 0.75700003 -0.0039818203 1.6403845e-38 325 243
0.0079636406 0.75700003 -0.0039818203 1.5945385e-38 326 243
0.0092909131 0.75700003 -0.0039818203 1.5945385e-38 327 243
0.010618187 0.75700003 -0.0039818203 1.622053e-38 328 243
0.01194546 0.75700003 -0.0039818203 1.622053e-38 329 243
0.013272733 0.75700003 -0.0039818203 1.6037215e-38 330 243
0.014561433 0.755 -0.0039712996 1.6037215e-38 331 243
0.015885198 0.755 -0.0039712996 1.622053e-38 332 243
0.017208965 0.755 -0.0039712996 1.622053e-38 333 243
0.018532733 0.755 -0.0039712996 1.6220533e-38 334 243
0.0198565 0.755 -0.0039712996 1.6312728e-38 335 243
0.021180267 0.755 -0.0039712996 1.6220896e-38 336 243
0.022504034 0.755 -0.0039712996 1.631345e-38 337 243
0.023827799 0.755 -0.0039712996 1.6405996e-38 338 243
0.025151566 0.755 -0.0039712996 1.6405996e-38 339 243
0.026475333 0.755 -0.0039712996 1.6773691e-38 340 243
0.027872739 0.75700003 -0.0039818203 1.6681135e-38 341 243
0.029200014 0.75700003 -0.0039818203 1.6681861e-38 342 243
0.030446632 0.755 -0.0039712996 1.6774057e-38 343 243
0.031770397 0.755 -0.0039712996 1.6773701e-38 344 243
0.033181835 0.75700003 -0.0039818203 1.6866255e-38 345 243
0.034509107 0.75700003 -0.0039818203 1.7416905e-38 346 243
0.035741698 0.755 -0.0039712996 1.7416905e-38 347 243
0.037065465 0.755 -0.0039712996 1.7417624e-38 348 243
0.038389232 0.755 -0.0039712996 1.7417624e-38 349 243
0.039712999 0.755 -0.0039712996 1.7417624e-38 350 243
0.041036766 0.755 -0.0039712996 1.750982e-38 351 243
0.042304426 0.75400001 -0.00396604 1.7511256e-38 352 243
0.043626439 0.75400001 -0.00396604 1.7419061e-38 353 243
0.044948451 0.75400001 -0.00396604 1.7694571e-38 354 243
0.046270464 0.75400001 -0.00396604 1.7694571e-38 355 243
0.04759248 0.75400001 -0.00396604 1.7510903e-38 356 243
0.048784744 0.75199997 -0.0039555198 1.7510903e-38 357 243
0.050103247 0.75199997 -0.0039555198 1.7693862e-38 358 243
0.051421758 0.75199997 -0.0039555198 1.7786417e-38 359 243
0.052740261 0.75199997 -0.0039555198 1.7786063e-38 360 243
0.054058768 0.75199997 -0.0039555198 1.7786063e-38 361 243
0.055377278 0.75199997 -0.0039555198 1.7786061e-38 362 243
0.056695782 0.75199997 -0.0039555198 1.7786061e-38 363 243
0.058014289 0.75199997 -0.0039555198 1.7694218e-38 364 243
0.059175 0.75 -0.003945 1.7602022e-38 365 243
0.060489997 0.75 -0.003945 1.7786767e-38 366 243
0.061804999 0.75 -0.003945 1.7694571e-38 367 243
0.06312 0.75 -0.003945 1.7786764e-38 368 243
0.064434998 0.75 -0.003945 1.7786764e-38 369 243
0.065749995 0.75 -0.003945 1.7786764e-38 370 243
0.067065001 0.75 -0.003945 1.7786764e-38 371 243
0.068379998 0.75 -0.003945 1.7694922e-38 372 243
0.069880851 0.75199997 -0.0039555198 1.7694922e-38 373 243
0.071010001 0.75 -0.003945 1.7787117e-38 374 243
0.072324999 0.75 -0.003945 1.7787117e-38 375 243
0.073639996 0.75 -0.003945 1.7695666e-38 376 243
0.074954994 0.75 -0.003945 1.7787861e-38 377 243
0.076473378 0.75199997 -0.0039555198 1.7691359e-38 378 243
0.077791892 0.75199997 -0.0039555198 1.5386829e-38 379 243
0.078899994 0.75 -0.003945 1.2986498e-38 380 243
0.080215 0.75 -0.003945 9.5752854e-39 381 243
0.081747405 0.75199997 -0.0039555198 6.9063163e-39 382 243
-0.061063338 0.741 -0.0051968796 1.788269e-38 273 244
-0.059764117 0.741 -0.0051968796 1.8341461e-38 274 244
-0.0584649 0.741 -0.0051968796 1.797268e-38 275 244
-0.057165679 0.741 -0.0051968796 1.8525093e-38 276 244
-0.056092639 0.74400002 -0.0052179201 1.8893515e-38 277 244
-0.054788161 0.74400002 -0.0052179201 1.9077894e-38 278 244
-0.05348368 0.74400002 -0.0052179201 1.9354481e-38 279 244
-0.052319467 0.74599999 -0.0052319462 1.9354475e-38 280 244
-0.051079858 0.74699998 -0.0052389596 1.9354475e-38 281 244
-0.049770117 0.74699998 -0.0052389596 1.9446311e-38 282 244
-0.048460379 0.74699998 -0.0052389596 1.9353756e-38 283 244
-0.047150634 0.74699998 -0.0052389596 1.9537427e-38 284 244
-0.045963634 0.74900001 -0.0052529867 1.926084e-38 285 244
-0.044650383 0.74900001 -0.0052529867 1.9261196e-38 286 244
-0.04333714 0.74900001 -0.0052529867 1.9169001e-38 287 244
-0.042023893 0.74900001 -0.0052529867 1.9077165e-38 288 244
-0.040710647 0.74900001 -0.0052529867 1.898497e-38 289 244
-0.039449997 0.75 -0.00526 1.8617263e-38 290 244
-0.038135 0.75 -0.00526 1.8617263e-38 291 244
-0.036819998 0.75 -0.00526 1.861654e-38 292 244
-0.035599679 0.75199997 -0.0052740262 1.8524345e-38 293 244
-0.034281172 0.75199997 -0.0052740262 1.870766e-38 294 244
-0.032962665 0.75199997 -0.0052740262 1.870766e-38 295 244
-0.03172832 0.75400001 -0.0052880533 1.8707662e-38 296 244
-0.030406307 0.75400001 -0.0052880533 1.8523631e-38 297 244
-0.029084291 0.75400001 -0.0052880533 1.8156285e-38 298 244
-0.027799098 0.755 -0.0052950666 1.7971894e-38 299 244
-0.026475333 0.755 -0.0052950666 1.7787858e-38 300 244
-0.025151566 0.755 -0.0052950666 1.7603467e-38 301 244
-0.023827799 0.755 -0.0052950666 1.7511625e-38 302 244
-0.022504034 0.755 -0.0052950666 1.741907e-38 303 244
-0.021180267 0.755 -0.0052950666 1.7235034e-38 304 244
-0.0198565 0.755 -0.0052950666 1.7050644e-38 305 244
-0.018532733 0.755 -0.0052950666 1.6866618e-38 306 244
-0.017208965 0.755 -0.0052950666 1.6682587e-38 307 244
-0.01586416 0.75400001 -0.0052880533 1.6406349e-38 308 244
-0.014542146 0.75400001 -0.0052880533 1.6221599e-38 309 244
-0.013220133 0.75400001 -0.0052880533 1.6221236e-38 310 244
-0.01189812 0.75400001 -0.0052880533 1.6129041e-38 311 244
-0.010576107 0.75400001 -0.0052880533 1.6036486e-38 312 244
-0.0092540924 0.75400001 -0.0052880533 1.5760258e-38 313 244
-0.0079425992 0.755 -0.0052950666 1.5668779e-38 314 244
-0.0066188332 0.755 -0.0052950666 1.5576583e-38 315 244
-0.0052950666 0.755 -0.0052950666 1.5575511e-38 316 244
-0.0039818203 0.75700003 -0.0053090933 1.539112e-38 317 244
-0.0026545466 0.75700003 -0.0053090933 1.5115254e-38 318 244
-0.0013272733 0.75700003 -0.0053090933 1.5023059e-38 319 244
0 0.75700003 -0.0053090933 1.5298923e-38 320 244
0.0013272733 0.75700003 -0.0053090933 1.5298923e-38 321 244
0.0026545466 0.75700003 -0.0053090933 1.5298569e-38 322 244
0.0039818203 0.75700003 -0.0053090933 1.5298569e-38 323 244
0.0053090933 0.75700003 -0.0053090933 1.4746845e-38 324 244
0.0066363667 0.75700003 -0.0053090933 1.4931595e-38 325 244
0.0079636406 0.75700003 -0.0053090933 1.4931595e-38 326 244
0.0092909131 0.75700003 -0.0053090933 1.4931595e-38 327 244
0.010618187 0.75700003 -0.0053090933 1.4839749e-38 328 244
0.011913899 0.755 -0.0052950666 1.4747195e-38 329 244
0.013237666 0.755 -0.0052950666 1.4930863e-38 330 244
0.014561433 0.755 -0.0052950666 1.5023059e-38 331 244
0.015885198 0.755 -0.0052950666 1.4931589e-38 332 244
0.017208965 0.755 -0.0052950666 1.4931589e-38 333 244
0.018532733 0.755 -0.0052950666 1.4747201e-38 334 244
0.0198565 0.755 -0.0052950666 1.4839396e-38 335 244
0.021180267 0.755 -0.0052950666 1.4839393e-38 336 244
0.022504034 0.755 -0.0052950666 1.4839393e-38 337 244
0.023827799 0.755 -0.0052950666 1.4931945e-38 338 244
0.025151566 0.755 -0.0052950666 1.5115977e-38 339 244
0.026475333 0.755 -0.0052950666 1.5483315e-38 340 244
0.027799098 0.755 -0.0052950666 1.539112e-38 341 244
0.029200014 0.75700003 -0.0053090933 1.5208526e-38 342 244
0.030446632 0.755 -0.0052950666 1.5300722e-38 343 244
0.031770397 0.755 -0.0052950666 1.5668065e-38 344 244
0.033181835 0.75700003 -0.0053090933 1.5760261e-38 345 244
0.034417931 0.755 -0.0052950666 1.5760611e-38 346 244
0.035741698 0.755 -0.0052950666 1.5760611e-38 347 244
0.037065465 0.755 -0.0052950666 1.5944289e-38 348 244
0.038338386 0.75400001 -0.0052880533 1.6221236e-38 349 244
0.039660402 0.75400001 -0.0052880533 1.6313079e-38 350 244
0.040982414 0.75400001 -0.0052880533 1.6405274e-38 351 244
0.042304426 0.75400001 -0.0052880533 1.6498549e-38 352 244
0.04351072 0.75199997 -0.0052740262 1.6590745e-38 353 244
0.044829223 0.75199997 -0.0052740262 1.6865536e-38 354 244
0.04614773 0.75199997 -0.0052740262 1.6865536e-38 355 244
0.047466237 0.75199997 -0.0052740262 1.6591108e-38 356 244
0.048784744 0.75199997 -0.0052740262 1.6591108e-38 357 244
0.050103247 0.75199997 -0.0052740262 1.7049212e-38 358 244
0.051421758 0.75199997 -0.0052740262 1.7141766e-38 359 244
0.052740261 0.75199997 -0.0052740262 1.7233606e-38 360 244
0.054058768 0.75199997 -0.0052740262 1.714141e-38 361 244
0.055377278 0.75199997 -0.0052740262 1.7050293e-38 362 244
0.056695782 0.75199997 -0.0052740262 1.7234325e-38 363 244
0.057859998 0.75 -0.00526 1.7233959e-38 364 244
0.059175 0.75 -0.00526 1.7233959e-38 365 244
0.060489997 0.75 -0.00526 1.7326508e-38 366 244
0.061804999 0.75 -0.00526 1.7326508e-38 367 244
0.063035838 0.74900001 -0.0052529867 1.7601653e-38 368 244
0.064349085 0.74900001 -0.0052529867 1.7601653e-38 369 244
0.065662332 0.74900001 -0.0052529867 1.7510176e-38 370 244
0.066975579 0.74900001 -0.0052529867 1.7510176e-38 371 244
0.068379998 0.75 -0.00526 1.7692766e-38 372 244
0.069694996 0.75 -0.00526 1.7784962e-38 373 244
0.071010001 0.75 -0.00526 1.7509807e-38 374 244
0.072324999 0.75 -0.00526 1.7417612e-38 375 244
0.073639996 0.75 -0.00526 1.7510176e-38 376 244
0.074954994 0.75 -0.00526 1.7602373e-38 377 244
0.076473378 0.75199997 -0.0052740262 1.7694231e-38 378 244
0.077791892 0.75199997 -0.0052740262 1.7418004e-38 379 244
0.079110399 0.75199997 -0.0052740262 1.6953797e-38 380 244
0.080428898 0.75199997 -0.0052740262 1.5109885e-38 381 244
0.081747405 0.75199997 -0.0052740262 1.344677e-38 382 244
0.08306592 0.75199997 -0.0052740262 1.114224e-38 383 244
0.084384419 0.75199997 -0.0052740262 8.6526257e-39 384 244
0.085702926 0.75199997 -0.0052740262 7.3619065e-39 385 244
-0.061063338 0.741 -0.0064960998 1.7603527e-38 273 245
-0.059764117 0.741 -0.0064960998 1.8248855e-38 274 245
-0.0584649 0.741 -0.0064960998 1.8617639e-38 275 245
-0.057242822 0.74199998 -0.0065048663 1.9078964e-38 276 245
-0.05594185 0.74199998 -0.0065048663 1.9263714e-38 277 245
-0.054788161 0.74400002 -0.0065223998 1.9171516e-38 278 245
-0.05348368 0.74400002 -0.0065223998 1.9171516e-38 279 245
-0.052179199 0.74400002 -0.0065223998 1.9171519e-38 280 245
-0.051011477 0.74599999 -0.0065399334 1.9078964e-38 281 245
-0.04970349 0.74599999 -0.0065399334 1.9078967e-38 282 245
-0.048460379 0.74699998 -0.0065486995 1.898677e-38 283 245
-0.047150634 0.74699998 -0.0065486995 1.880166e-38 284 245
-0.045840897 0.74699998 -0.0065486995 1.880166e-38 285 245
-0.044531155 0.74699998 -0.0065486995 1.8801307e-38 286 245
-0.04333714 0.74900001 -0.0065662335 1.8709111e-38 287 245
-0.042023893 0.74900001 -0.0065662335 1.8433245e-38 288 245
-0.040710647 0.74900001 -0.0065662335 1.8341048e-38 289 245
-0.0393974 0.74900001 -0.0065662335 1.8157007e-38 290 245
-0.038084153 0.74900001 -0.0065662335 1.7972976e-38 291 245
-0.036770906 0.74900001 -0.0065662335 1.797262e-38 292 245
-0.035505001 0.75 -0.006575 1.7880424e-38 293 245
-0.034189999 0.75 -0.006575 1.8063376e-38 294 245
-0.032962665 0.75199997 -0.0065925326 1.8155572e-38 295 245
-0.031644158 0.75199997 -0.0065925326 1.8247392e-38 296 245
-0.030325651 0.75199997 -0.0065925326 1.8154836e-38 297 245
-0.029084291 0.75400001 -0.0066100666 1.7511635e-38 298 245
-0.027762281 0.75400001 -0.0066100666 1.7327603e-38 299 245
-0.026440267 0.75400001 -0.0066100666 1.7143209e-38 300 245
-0.025118252 0.75400001 -0.0066100666 1.6958817e-38 301 245
-0.023827799 0.755 -0.0066188332 1.6683291e-38 302 245
-0.022504034 0.755 -0.0066188332 1.6498899e-38 303 245
-0.021180267 0.755 -0.0066188332 1.6405628e-38 304 245
-0.0198565 0.755 -0.0066188332 1.6221236e-38 305 245
-0.018508185 0.75400001 -0.0066100666 1.5853545e-38 306 245
-0.017186172 0.75400001 -0.0066100666 1.576135e-38 307 245
-0.01586416 0.75400001 -0.0066100666 1.539257e-38 308 245
-0.014542146 0.75400001 -0.0066100666 1.5300374e-38 309 245
-0.013220133 0.75400001 -0.0066100666 1.502416e-38 310 245
-0.01189812 0.75400001 -0.0066100666 1.5116356e-38 311 245
-0.010576107 0.75400001 -0.0066100666 1.4839413e-38 312 245
-0.0092540924 0.75400001 -0.0066100666 1.4747216e-38 313 245
-0.0079425992 0.755 -0.0066188332 1.4747213e-38 314 245
-0.0066188332 0.755 -0.0066188332 1.4931606e-38 315 245
-0.0052950666 0.755 -0.0066188332 1.4839057e-38 316 245
-0.0039712996 0.755 -0.0066188332 1.4562829e-38 317 245
-0.0026475333 0.755 -0.0066188332 1.4562476e-38 318 245
-0.0013272733 0.75700003 -0.0066363667 1.4746866e-38 319 245
0 0.75700003 -0.0066363667 1.4562128e-38 320 245
0.0013272733 0.75700003 -0.0066363667 1.4746161e-38 321 245
0.0026545466 0.75700003 -0.0066363667 1.4561772e-38 322 245
0.0039818203 0.75700003 -0.0066363667 1.4561772e-38 323 245
0.0053090933 0.75700003 -0.0066363667 1.4470296e-38 324 245
0.0066363667 0.75700003 -0.0066363667 1.43781e-38 325 245
0.0079636406 0.75700003 -0.0066363667 1.4562849e-38 326 245
0.0092909131 0.75700003 -0.0066363667 1.4470652e-38 327 245
0.010590133 0.755 -0.0066188332 1.4470649e-38 328 245
0.011913899 0.755 -0.0066188332 1.4470649e-38 329 245
0.013237666 0.755 -0.0066188332 1.4562481e-38 330 245
0.014561433 0.755 -0.0066188332 1.4746513e-38 331 245
0.01586416 0.75400001 -0.0066100666 1.4562844e-38 332 245
0.017186172 0.75400001 -0.0066100666 1.4562844e-38 333 245
0.018508185 0.75400001 -0.0066100666 1.4470652e-38 334 245
0.019830201 0.75400001 -0.0066100666 1.4470652e-38 335 245
0.021152213 0.75400001 -0.0066100666 1.4378453e-38 336 245
0.022474226 0.75400001 -0.0066100666 1.4378453e-38 337 245
0.023827799 0.755 -0.0066188332 1.4287334e-38 338 245
0.025151566 0.755 -0.0066188332 1.4379529e-38 339 245
0.026475333 0.755 -0.0066188332 1.465575e-38 340 245
0.027799098 0.755 -0.0066188332 1.4378803e-38 341 245
0.029122867 0.755 -0.0066188332 1.4378435e-38 342 245
0.030446632 0.755 -0.0066188332 1.4470631e-38 343 245
0.031770397 0.755 -0.0066188332 1.4746847e-38 344 245
0.033094164 0.755 -0.0066188332 1.4839043e-38 345 245
0.034417931 0.755 -0.0066188332 1.4931589e-38 346 245
0.035694357 0.75400001 -0.0066100666 1.4747198e-38 347 245
0.037016369 0.75400001 -0.0066100666 1.4839393e-38 348 245
0.038338386 0.75400001 -0.0066100666 1.511598e-38 349 245
0.039660402 0.75400001 -0.0066100666 1.539257e-38 350 245
0.040982414 0.75400001 -0.0066100666 1.5484766e-38 351 245
0.04219221 0.75199997 -0.0065925326 1.5392933e-38 352 245
0.04351072 0.75199997 -0.0065925326 1.5485129e-38 353 245
0.044829223 0.75199997 -0.0065925326 1.5852473e-38 354 245
0.04614773 0.75199997 -0.0065925326 1.5944669e-38 355 245
0.047466237 0.75199997 -0.0065925326 1.5853543e-38 356 245
0.048784744 0.75199997 -0.0065925326 1.5945738e-38 357 245
0.050103247 0.75199997 -0.0065925326 1.6313435e-38 358 245
0.051421758 0.75199997 -0.0065925326 1.6589661e-38 359 245
0.052740261 0.75199997 -0.0065925326 1.640563e-38 360 245
0.054058768 0.75199997 -0.0065925326 1.6313435e-38 361 245
0.055377278 0.75199997 -0.0065925326 1.6496747e-38 362 245
0.056544997 0.75 -0.006575 1.6588943e-38 363 245
0.057859998 0.75 -0.006575 1.6589664e-38 364 245
0.059175 0.75 -0.006575 1.6774057e-38 365 245
0.060489997 0.75 -0.006575 1.6958451e-38 366 245
0.061804999 0.75 -0.006575 1.7050647e-38 367 245
0.063035838 0.74900001 -0.0065662335 1.7049918e-38 368 245
0.064349085 0.74900001 -0.0065662335 1.7142114e-38 369 245
0.065662332 0.74900001 -0.0065662335 1.7233946e-38 370 245
0.066975579 0.74900001 -0.0065662335 1.7049196e-38 371 245
0.068288825 0.74900001 -0.0065662335 1.7232867e-38 372 245
0.069602072 0.74900001 -0.0065662335 1.7417258e-38 373 245
0.070915319 0.74900001 -0.0065662335 1.7141397e-38 374 245
0.072228566 0.74900001 -0.0065662335 1.7233593e-38 375 245
0.073541813 0.74900001 -0.0065662335 1.7141763e-38 376 245
0.074954994 0.75 -0.006575 1.7141763e-38 377 245
0.076473378 0.75199997 -0.0065925326 1.7050649e-38 378 245
0.077791892 0.75199997 -0.0065925326 1.7511269e-38 379 245
0.079110399 0.75199997 -0.0065925326 1.7877906e-38 380 245
0.080428898 0.75199997 -0.0065925326 1.7601319e-38 381 245
0.081747405 0.75199997 -0.0065925326 1.6861583e-38 382 245
0.08306592 0.75199997 -0.0065925326 1.4557051e-38 383 245
0.084384419 0.75199997 -0.0065925326 1.2249284e-38 384 245
0.085474998 0.75 -0.006575 9.114673e-39 385 245
0.086789995 0.75 -0.006575 7.6417275e-39 386 245
-0.062194239 0.73900002 -0.0077742799 1.843291e-38 272 246
-0.060898528 0.73900002 -0.0077742799 1.8525105e-38 273 246
-0.059764117 0.741 -0.0077953199 1.9262285e-38 274 246
-0.0584649 0.741 -0.0077953199 1.9077894e-38 275 246
-0.057165679 0.741 -0.0077953199 1.9355184e-38 276 246
-0.05594185 0.74199998 -0.0078058392 1.926263e-38 277 246
-0.054640878 0.74199998 -0.0078058392 1.9262633e-38 278 246
-0.053339902 0.74199998 -0.0078058392 1.8986404e-38 279 246
-0.05203893 0.74199998 -0.0078058392 1.916972e-38 280 246
-0.050874721 0.74400002 -0.0078268806 1.9077165e-38 281 246
-0.04957024 0.74400002 -0.0078268806 1.8985325e-38 282 246
-0.048395503 0.74599999 -0.0078479191 1.8800936e-38 283 246
-0.047087517 0.74599999 -0.0078479191 1.8617263e-38 284 246
-0.045779534 0.74599999 -0.0078479191 1.8617263e-38 285 246
-0.044471547 0.74599999 -0.0078479191 1.8340682e-38 286 246
-0.043221418 0.74699998 -0.0078584393 1.8340682e-38 287 246
-0.041911677 0.74699998 -0.0078584393 1.8248484e-38 288 246
-0.040601939 0.74699998 -0.0078584393 1.8156288e-38 289 246
-0.039292198 0.74699998 -0.0078584393 1.7787858e-38 290 246
-0.03798246 0.74699998 -0.0078584393 1.7787858e-38 291 246
-0.036770906 0.74900001 -0.0078794798 1.7878978e-38 292 246
-0.03545766 0.74900001 -0.0078794798 1.7510197e-38 293 246
-0.034144413 0.74900001 -0.0078794798 1.7143215e-38 294 246
-0.032874998 0.75 -0.00789 1.7050659e-38 295 246
-0.03156 0.75 -0.00789 1.7050649e-38 296 246
-0.030244999 0.75 -0.00789 1.6865899e-38 297 246
-0.029007144 0.75199997 -0.0079110395 1.6314884e-38 298 246
-0.027762281 0.75400001 -0.00793208 1.5945741e-38 299 246
-0.026440267 0.75400001 -0.00793208 1.5852824e-38 300 246
-0.025118252 0.75400001 -0.00793208 1.5576235e-38 301 246
-0.02379624 0.75400001 -0.00793208 1.5209608e-38 302 246
-0.022474226 0.75400001 -0.00793208 1.5024858e-38 303 246
-0.021152213 0.75400001 -0.00793208 1.5115257e-38 304 246
-0.019830201 0.75400001 -0.00793208 1.5115257e-38 305 246
-0.018508185 0.75400001 -0.00793208 1.4932312e-38 306 246
-0.017140586 0.75199997 -0.0079110395 1.4747919e-38 307 246
-0.015822079 0.75199997 -0.0079110395 1.474721e-38 308 246
-0.014542146 0.75400001 -0.00793208 1.474721e-38 309 246
-0.013220133 0.75400001 -0.00793208 1.4746863e-38 310 246
-0.01189812 0.75400001 -0.00793208 1.4931256e-38 311 246
-0.010576107 0.75400001 -0.00793208 1.4838342e-38 312 246
-0.0092540924 0.75400001 -0.00793208 1.4930539e-38 313 246
-0.00793208 0.75400001 -0.00793208 1.4746866e-38 314 246
-0.0066188332 0.755 -0.0079425992 1.4839063e-38 315 246
-0.0052950666 0.755 -0.0079425992 1.4746866e-38 316 246
-0.0039712996 0.755 -0.0079425992 1.4746866e-38 317 246
-0.0026475333 0.755 -0.0079425992 1.4562832e-38 318 246
-0.0013272733 0.75700003 -0.0079636406 1.4562832e-38 319 246
0 0.75700003 -0.0079636406 1.4562829e-38 320 246
0.0013272733 0.75700003 -0.0079636406 1.4470633e-38 321 246
0.0026545466 0.75700003 -0.0079636406 1.4470636e-38 322 246
0.0039818203 0.75700003 -0.0079636406 1.4562832e-38 323 246
0.0053090933 0.75700003 -0.0079636406 1.4471002e-38 324 246
0.0066363667 0.75700003 -0.0079636406 1.4471002e-38 325 246
0.0079636406 0.75700003 -0.0079636406 1.4563197e-38 326 246
0.0092909131 0.75700003 -0.0079636406 1.4563197e-38 327 246
0.010590133 0.755 -0.0079425992 1.4563197e-38 328 246
0.011913899 0.755 -0.0079425992 1.4471002e-38 329 246
0.013237666 0.755 -0.0079425992 1.4562476e-38 330 246
0.014561433 0.755 -0.0079425992 1.4562476e-38 331 246
0.01586416 0.75400001 -0.00793208 1.4562476e-38 332 246
0.017186172 0.75400001 -0.00793208 1.4562476e-38 333 246
0.018508185 0.75400001 -0.00793208 1.4562476e-38 334 246
0.019830201 0.75400001 -0.00793208 1.4562476e-38 335 246
0.021152213 0.75400001 -0.00793208 1.4562832e-38 336 246
0.022474226 0.75400001 -0.00793208 1.4562832e-38 337 246
0.023827799 0.755 -0.0079425992 1.4471355e-38 338 246
0.025151566 0.755 -0.0079425992 1.4471355e-38 339 246
0.026475333 0.755 -0.0079425992 1.4653592e-38 340 246
0.027799098 0.755 -0.0079425992 1.4746147e-38 341 246
0.029122867 0.755 -0.0079425992 1.4653595e-38 342 246
0.030446632 0.755 -0.0079425992 1.4745791e-38 343 246
0.031770397 0.755 -0.0079425992 1.4929456e-38 344 246
0.033094164 0.755 -0.0079425992 1.4745425e-38 345 246
0.034372345 0.75400001 -0.00793208 1.5021289e-38 346 246
0.035694357 0.75400001 -0.00793208 1.4929093e-38 347 246
0.037016369 0.75400001 -0.00793208 1.4745422e-38 348 246
0.038338386 0.75400001 -0.00793208 1.4561031e-38 349 246
0.039660402 0.75400001 -0.00793208 1.4286239e-38 350 246
0.040982414 0.75400001 -0.00793208 1.4470631e-38 351 246
0.04219221 0.75199997 -0.0079110395 1.4286958e-38 352 246
0.04351072 0.75199997 -0.0079110395 1.4286958e-38 353 246
0.044829223 0.75199997 -0.0079110395 1.4562453e-38 354 246
0.04614773 0.75199997 -0.0079110395 1.4286227e-38 355 246
0.047466237 0.75199997 -0.0079110395 1.428694e-38 356 246
0.048784744 0.75199997 -0.0079110395 1.447169e-38 357 246
0.050103247 0.75199997 -0.0079110395 1.4747917e-38 358 246
0.051421758 0.75199997 -0.0079110395 1.4563886e-38 359 246
0.0526 0.75 -0.00789 1.4929423e-38 360 246
0.053914998 0.75 -0.00789 1.4929423e-38 361 246
0.055229999 0.75 -0.00789 1.4930845e-38 362 246
0.056544997 0.75 -0.00789 1.4654257e-38 363 246
0.057859998 0.75 -0.00789 1.4469519e-38 364 246
0.059175 0.75 -0.00789 1.5022693e-38 365 246
0.060489997 0.75 -0.00789 1.52993e-38 366 246
0.061804999 0.75 -0.00789 1.5668081e-38 367 246
0.063035838 0.74900001 -0.0078794798 1.6035786e-38 368 246
0.064349085 0.74900001 -0.0078794798 1.6127981e-38 369 246
0.065662332 0.74900001 -0.0078794798 1.6496394e-38 370 246
0.066975579 0.74900001 -0.0078794798 1.6496394e-38 371 246
0.068288825 0.74900001 -0.0078794798 1.6589664e-38 372 246
0.069602072 0.74900001 -0.0078794798 1.6681861e-38 373 246
0.070915319 0.74900001 -0.0078794798 1.7231795e-38 374 246
0.072228566 0.74900001 -0.0078794798 1.7323991e-38 375 246
0.073541813 0.74900001 -0.0078794798 1.7048483e-38 376 246
0.074855059 0.74900001 -0.0078794798 1.7232514e-38 377 246
0.076269999 0.75 -0.00789 1.6865531e-38 378 246
0.077584997 0.75 -0.00789 1.6865531e-38 379 246
0.078899994 0.75 -0.00789 1.6865181e-38 380 246
0.080215 0.75 -0.00789 1.7233962e-38 381 246
0.081529997 0.75 -0.00789 1.7416568e-38 382 246
0.08306592 0.75199997 -0.0079110395 1.7232537e-38 383 246
0.08416 0.75 -0.00789 1.6862681e-38 384 246
0.085361034 0.74900001 -0.0078794798 1.5202801e-38 385 246
0.08667428 0.74900001 -0.0078794798 1.2525537e-38 386 246
-0.063404039 0.73799998 -0.0090577193 1.8432531e-38 271 247
-0.062110078 0.73799998 -0.0090577193 1.9077521e-38 272 247
-0.060898528 0.73900002 -0.0090699932 1.9261912e-38 273 247
-0.059602812 0.73900002 -0.0090699932 1.9078953e-38 274 247
-0.0584649 0.741 -0.0090945391 1.9262986e-38 275 247
-0.057165679 0.741 -0.0090945391 1.9262635e-38 276 247
-0.055866458 0.741 -0.0090945391 1.9078603e-38 277 247
-0.054567236 0.741 -0.0090945391 1.8894224e-38 278 247
-0.053339902 0.74199998 -0.009106813 1.8894224e-38 279 247
-0.05203893 0.74199998 -0.009106813 1.8617639e-38 280 247
-0.050737958 0.74199998 -0.009106813 1.8617639e-38 281 247
-0.049436983 0.74199998 -0.009106813 1.8433245e-38 282 247
-0.048265759 0.74400002 -0.0091313599 1.8433245e-38 283 247
-0.046961278 0.74400002 -0.0091313599 1.7973344e-38 284 247
-0.0456568 0.74400002 -0.0091313599 1.7973344e-38 285 247
-0.044352323 0.74400002 -0.0091313599 1.7881146e-38 286 247
-0.043047838 0.74400002 -0.0091313599 1.7604919e-38 287 247
-0.04174336 0.74400002 -0.0091313599 1.7696735e-38 288 247
-0.040547583 0.74599999 -0.0091559067 1.7512344e-38 289 247
-0.039292198 0.74699998 -0.0091681797 1.7235758e-38 290 247
-0.03798246 0.74699998 -0.0091681797 1.7143562e-38 291 247
-0.036672719 0.74699998 -0.0091681797 1.6774798e-38 292 247
-0.035362978 0.74699998 -0.0091681797 1.6590407e-38 293 247
-0.034144413 0.74900001 -0.0091927266 1.6314912e-38 294 247
-0.032831166 0.74900001 -0.0091927266 1.6038685e-38 295 247
-0.03156 0.75 -0.0092049995 1.6129432e-38 296 247
-0.030244999 0.75 -0.0092049995 1.594504e-38 297 247
-0.028929999 0.75 -0.0092049995 1.5577328e-38 298 247
-0.027688639 0.75199997 -0.0092295464 1.5208905e-38 299 247
-0.026440267 0.75400001 -0.0092540924 1.5116e-38 300 247
-0.025118252 0.75400001 -0.0092540924 1.5116e-38 301 247
-0.02379624 0.75400001 -0.0092540924 1.4840154e-38 302 247
-0.022474226 0.75400001 -0.0092540924 1.4747959e-38 303 247
-0.021152213 0.75400001 -0.0092540924 1.4655057e-38 304 247
-0.019830201 0.75400001 -0.0092540924 1.4747611e-38 305 247
-0.018459093 0.75199997 -0.0092295464 1.465541e-38 306 247
-0.017140586 0.75199997 -0.0092295464 1.465541e-38 307 247
-0.015822079 0.75199997 -0.0092295464 1.4563567e-38 308 247
-0.014503572 0.75199997 -0.0092295464 1.4563567e-38 309 247
-0.013185065 0.75199997 -0.0092295464 1.4379536e-38 310 247
-0.01189812 0.75400001 -0.0092540924 1.4379536e-38 311 247
-0.010576107 0.75400001 -0.0092540924 1.4288055e-38 312 247
-0.0092540924 0.75400001 -0.0092540924 1.4288055e-38 313 247
-0.00793208 0.75400001 -0.0092540924 1.4379532e-38 314 247
-0.0066100666 0.75400001 -0.0092540924 1.4379532e-38 315 247
-0.0052950666 0.755 -0.0092663663 1.4379529e-38 316 247
-0.0039712996 0.755 -0.0092663663 1.4287334e-38 317 247
-0.0026475333 0.755 -0.0092663663 1.428769e-38 318 247
-0.0013237667 0.755 -0.0092663663 1.428769e-38 319 247
0 0.755 -0.0092663663 1.4471355e-38 320 247
0.0013272733 0.75700003 -0.0092909131 1.4378801e-38 321 247
0.0026475333 0.755 -0.0092663663 1.4287684e-38 322 247
0.0039712996 0.755 -0.0092663663 1.4287684e-38 323 247
0.0052950666 0.755 -0.0092663663 1.4287687e-38 324 247
0.0066188332 0.755 -0.0092663663 1.4287687e-38 325 247
0.0079425992 0.755 -0.0092663663 1.4470999e-38 326 247
0.0092663663 0.755 -0.0092663663 1.4563195e-38 327 247
0.010590133 0.755 -0.0092663663 1.4563195e-38 328 247
0.011913899 0.755 -0.0092663663 1.4470999e-38 329 247
0.013237666 0.755 -0.0092663663 1.4287687e-38 330 247
0.014561433 0.755 -0.0092663663 1.4287687e-38 331 247
0.01586416 0.75400001 -0.0092540924 1.4562476e-38 332 247
0.017186172 0.75400001 -0.0092540924 1.4562476e-38 333 247
0.018508185 0.75400001 -0.0092540924 1.4470999e-38 334 247
0.019830201 0.75400001 -0.0092540924 1.4470999e-38 335 247
0.021152213 0.75400001 -0.0092540924 1.4287687e-38 336 247
0.022474226 0.75400001 -0.0092540924 1.4195491e-38 337 247
0.023827799 0.755 -0.0092663663 1.428769e-38 338 247
0.025151566 0.755 -0.0092663663 1.4195135e-38 339 247
0.026475333 0.755 -0.0092663663 1.437845e-38 340 247
0.027799098 0.755 -0.0092663663 1.437845e-38 341 247
0.029122867 0.755 -0.0092663663 1.437845e-38 342 247
0.030446632 0.755 -0.0092663663 1.4470646e-38 343 247
0.03172832 0.75400001 -0.0092540924 1.4378806e-38 344 247
0.033050332 0.75400001 -0.0092540924 1.4378806e-38 345 247
0.034372345 0.75400001 -0.0092540924 1.4195141e-38 346 247
0.035694357 0.75400001 -0.0092540924 1.4195141e-38 347 247
0.037016369 0.75400001 -0.0092540924 1.4285904e-38 348 247
0.038338386 0.75400001 -0.0092540924 1.4285904e-38 349 247
0.039660402 0.75400001 -0.0092540924 1.4011122e-38 350 247
0.040982414 0.75400001 -0.0092540924 1.3918927e-38 351 247
0.04219221 0.75199997 -0.0092295464 1.4102239e-38 352 247
0.04351072 0.75199997 -0.0092295464 1.4102239e-38 353 247
0.044829223 0.75199997 -0.0092295464 1.428663e-38 354 247
0.04614773 0.75199997 -0.0092295464 1.4102239e-38 355 247
0.047466237 0.75199997 -0.0092295464 1.4102242e-38 356 247
0.048784744 0.75199997 -0.0092295464 1.4194437e-38 357 247
0.050103247 0.75199997 -0.0092295464 1.4101533e-38 358 247
0.051421758 0.75199997 -0.0092295464 1.4101533e-38 359 247
0.0526 0.75 -0.0092049995 1.4192987e-38 360 247
0.053914998 0.75 -0.0092049995 1.3824563e-38 361 247
0.055229999 0.75 -0.0092049995 1.4376986e-38 362 247
0.056469604 0.74900001 -0.0091927266 1.3823814e-38 363 247
0.057782855 0.74900001 -0.0091927266 1.317845e-38 364 247
0.059175 0.75 -0.0092049995 1.317845e-38 365 247
0.060489997 0.75 -0.0092049995 1.2996951e-38 366 247
0.061804999 0.75 -0.0092049995 1.410294e-38 367 247
0.06312 0.75 -0.0092049995 1.4930184e-38 368 247
0.064349085 0.74900001 -0.0091927266 1.5114573e-38 369 247
0.065662332 0.74900001 -0.0091927266 1.5391145e-38 370 247
0.066975579 0.74900001 -0.0091927266 1.5575176e-38 371 247
0.068288825 0.74900001 -0.0091927266 1.5852476e-38 372 247
0.069602072 0.74900001 -0.0091927266 1.5944672e-38 373 247
0.070725955 0.74699998 -0.0091681797 1.6221252e-38 374 247
0.072035693 0.74699998 -0.0091681797 1.6221252e-38 375 247
0.073345438 0.74699998 -0.0091681797 1.6496394e-38 376 247
0.074855059 0.74900001 -0.0091927266 1.6680785e-38 377 247
0.076168306 0.74900001 -0.0091927266 1.6498196e-38 378 247
0.077481553 0.74900001 -0.0091927266 1.6498196e-38 379 247
0.0787948 0.74900001 -0.0091927266 1.6589308e-38 380 247
0.080108039 0.74900001 -0.0091927266 1.6589308e-38 381 247
0.081421293 0.74900001 -0.0091927266 1.6680785e-38 382 247
0.082844995 0.75 -0.0092049995 1.6865536e-38 383 247
0.084047787 0.74900001 -0.0091927266 1.6865546e-38 384 247
0.085133098 0.74699998 -0.0091681797 1.6958101e-38 385 247
0.086442836 0.74699998 -0.0091681797 1.5203854e-38 386 247
0.087987527 0.74900001 -0.0091927266 1.2622377e-38 387 247
-0.068208173 0.73400003 -0.010295574 1.751207e-38 267 248
-0.066921227 0.73400003 -0.010295574 1.8432191e-38 268 248
-0.06563428 0.73400003 -0.010295574 1.8893168e-38 269 248
-0.064347334 0.73400003 -0.010295574 1.9078264e-38 270 248
-0.063060381 0.73400003 -0.010295574 1.9170459e-38 271 248
-0.061773442 0.73400003 -0.010295574 1.9262282e-38 272 248
