# .PCD v.7 - Point Cloud Data file format
FIELDS x y z rgb imX imY
SIZE 4 4 4 4 4 4
TYPE F F F F F F
COUNT 1 1 1 1 1 1
WIDTH 838
HEIGHT 1
VIEWPOINT 0 0 0 1 0 0 0
POINTS 838
DATA ascii
-0.051996857 0.67400002 -0.089812748 1.9076111e-38 276 316
-0.050815105 0.67400002 -0.089812748 1.9168307e-38 277 316
-0.049486078 0.67199999 -0.089546233 1.8983916e-38 278 316
-0.04830784 0.67199999 -0.089546233 1.8983916e-38 279 316
-0.047129598 0.67199999 -0.089546233 1.9076465e-38 280 316
-0.045951359 0.67199999 -0.089546233 1.9076465e-38 281 316
-0.044773117 0.67199999 -0.089546233 1.8893152e-38 282 316
-0.043594878 0.67199999 -0.089546233 1.8893152e-38 283 316
-0.042416636 0.67199999 -0.089546233 1.8984266e-38 284 316
-0.041238401 0.67199999 -0.089546233 1.8984266e-38 285 316
-0.040060159 0.67199999 -0.089546233 1.8891702e-38 286 316
-0.03888192 0.67199999 -0.089546233 1.8891702e-38 287 316
-0.037647571 0.671 -0.089412987 1.861619e-38 288 316
-0.036471087 0.671 -0.089412987 1.8523994e-38 289 316
-0.0352946 0.671 -0.089412987 1.824813e-38 290 316
-0.034118112 0.671 -0.089412987 1.824813e-38 291 316
-0.032941625 0.671 -0.089412987 1.8156303e-38 292 316
-0.031765141 0.671 -0.089412987 1.7880077e-38 293 316
-0.030588651 0.671 -0.089412987 1.7050003e-38 294 316
-0.029412165 0.671 -0.089412987 1.7050003e-38 295 316
-0.028235679 0.671 -0.089412987 1.466592e-38 296 316
-0.027099518 0.67199999 -0.089546233 1.6786419e-38 297 316
-0.025998428 0.67400002 -0.089812748 2.2476649e-38 298 316
0.03619932 0.66600001 -0.088746719 1.8154899e-38 351 316
0.037591465 0.67000002 -0.089279734 1.8247079e-38 352 316
0.038766202 0.67000002 -0.089279734 1.8247079e-38 353 316
0.039940935 0.67000002 -0.089279734 1.8522938e-38 354 316
0.040931564 0.667 -0.088879973 1.8522938e-38 355 316
0.042101037 0.667 -0.088879973 1.8523294e-38 356 316
0.04327051 0.667 -0.088879973 1.8431098e-38 357 316
0.044439986 0.667 -0.088879973 1.8522925e-38 358 316
0.045609459 0.667 -0.088879973 1.8522925e-38 359 316
0.046778932 0.667 -0.088879973 1.8523278e-38 360 316
0.047876518 0.66600001 -0.088746719 1.8523278e-38 361 316
0.04904424 0.66600001 -0.088746719 1.8523994e-38 362 316
0.050211959 0.66600001 -0.088746719 1.8523994e-38 363 316
0.051456824 0.667 -0.088879973 1.8522922e-38 364 316
0.052626297 0.667 -0.088879973 1.8522922e-38 365 316
0.05379577 0.667 -0.088879973 1.8522925e-38 366 316
0.054965243 0.667 -0.088879973 1.8522925e-38 367 316
0.056218877 0.66799998 -0.089013219 1.8430729e-38 368 316
0.057561934 0.67000002 -0.089279734 1.8338534e-38 369 316
0.058736663 0.67000002 -0.089279734 1.8153064e-38 370 316
0.0599114 0.67000002 -0.089279734 1.8060868e-38 371 316
0.061086133 0.67000002 -0.089279734 1.7969023e-38 372 316
0.06226087 0.67000002 -0.089279734 1.7876827e-38 373 316
0.063435599 0.67000002 -0.089279734 1.7509116e-38 374 316
0.064610332 0.67000002 -0.089279734 1.7416921e-38 375 316
0.065785065 0.67000002 -0.089279734 1.7141063e-38 376 316
0.066959806 0.67000002 -0.089279734 1.7048508e-38 377 316
0.068134531 0.67000002 -0.089279734 1.6955597e-38 378 316
0.069309272 0.67000002 -0.089279734 1.6863401e-38 379 316
0.070483997 0.67000002 -0.089279734 1.6863401e-38 380 316
0.071658738 0.67000002 -0.089279734 1.6863401e-38 381 316
0.072942175 0.671 -0.089412987 1.6770848e-38 382 316
0.074118659 0.671 -0.089412987 1.6586817e-38 383 316
0.075295143 0.671 -0.089412987 1.6402423e-38 384 316
0.076471634 0.671 -0.089412987 1.6218031e-38 385 316
0.077763841 0.67199999 -0.089546233 1.6125834e-38 386 316
0.078942075 0.67199999 -0.089546233 1.5941445e-38 387 316
0.080358773 0.67400002 -0.089812748 1.5481195e-38 388 316
0.081540518 0.67400002 -0.089812748 1.5388641e-38 389 316
0.082844995 0.67500001 -0.089945994 1.5388646e-38 390 316
0.084028497 0.67500001 -0.089945994 1.5296449e-38 391 316
0.085338242 0.676 -0.090079248 1.5020586e-38 392 316
0.086523488 0.676 -0.090079248 1.492839e-38 393 316
0.08796823 0.67799997 -0.090345755 1.4743996e-38 394 316
0.089288503 0.67900002 -0.090479009 1.4651441e-38 395 316
0.090479009 0.67900002 -0.090479009 1.4376288e-38 396 316
0.091804534 0.68000001 -0.090612262 1.4099703e-38 397 316
0.093270317 0.68199998 -0.090878762 1.3823128e-38 398 316
0.094604604 0.68300003 -0.091012023 1.3546902e-38 399 316
0.095802136 0.68300003 -0.091012023 1.3361803e-38 400 316
0.097141676 0.68400002 -0.091145277 1.3177411e-38 401 316
0.098628499 0.68599999 -0.091411777 1.234982e-38 402 316
0.099831291 0.68599999 -0.091411777 1.1797005e-38 403 316
0.10103408 0.68599999 -0.091411777 1.1337507e-38 404 316
0.10223686 0.68599999 -0.091411777 1.5209723e-38 405 316
-0.079499632 0.68699998 -0.092749573 1.8900457e-38 254 317
-0.078295097 0.68699998 -0.092749573 1.5858001e-38 255 317
-0.076978341 0.68599999 -0.092614569 1.2631094e-38 256 317
-0.075775556 0.68599999 -0.092614569 1.3092072e-38 257 317
-0.074572764 0.68599999 -0.092614569 1.4198753e-38 258 317
-0.073369987 0.68599999 -0.092614569 1.5305101e-38 259 317
-0.071956798 0.68400002 -0.092344552 1.6591165e-38 260 317
-0.070654072 0.68300003 -0.092209555 1.6775915e-38 261 317
-0.069354847 0.68199998 -0.092074543 1.6961013e-38 262 317
-0.067959204 0.68000001 -0.091804534 1.7237241e-38 263 317
-0.066668749 0.67900002 -0.091669522 1.778754e-38 264 317
-0.065478235 0.67900002 -0.091669522 1.7879736e-38 265 317
-0.06419304 0.67799997 -0.09153451 1.8247077e-38 266 317
-0.063004278 0.67799997 -0.09153451 1.8339272e-38 267 317
-0.061815511 0.67799997 -0.09153451 1.8522938e-38 268 317
-0.06044792 0.676 -0.091264501 1.8522938e-38 269 317
-0.059175 0.67500001 -0.091129504 1.8432178e-38 270 317
-0.057991501 0.67500001 -0.091129504 1.8616209e-38 271 317
-0.056723841 0.67400002 -0.090994492 1.8616563e-38 272 317
-0.055377278 0.67199999 -0.090724476 1.8708758e-38 273 317
-0.054199036 0.67199999 -0.090724476 1.8708755e-38 274 317
-0.053020798 0.67199999 -0.090724476 1.8708755e-38 275 317
-0.051842555 0.67199999 -0.090724476 1.9075746e-38 276 317
-0.050664317 0.67199999 -0.090724476 1.9167941e-38 277 317
-0.049412437 0.671 -0.090589471 1.8984269e-38 278 317
-0.048235953 0.671 -0.090589471 1.9076465e-38 279 317
-0.047059465 0.671 -0.090589471 1.9169016e-38 280 317
-0.045882981 0.671 -0.090589471 1.9169016e-38 281 317
-0.044706494 0.671 -0.090589471 1.8985348e-38 282 317
-0.043530006 0.671 -0.090589471 1.8985348e-38 283 317
-0.042353518 0.671 -0.090589471 1.9168294e-38 284 317
-0.041177034 0.671 -0.090589471 1.9168294e-38 285 317
-0.040000543 0.671 -0.090589471 1.8983898e-38 286 317
-0.038824059 0.671 -0.090589471 1.8983898e-38 287 317
-0.037591465 0.67000002 -0.090454467 1.8708387e-38 288 317
-0.036253672 0.667 -0.090049446 1.861619e-38 289 317
-0.035084199 0.667 -0.090049446 1.8341035e-38 290 317
-0.03386388 0.66600001 -0.089914441 1.8341035e-38 291 317
-0.032696161 0.66600001 -0.089914441 1.815736e-38 292 317
-0.031528439 0.66600001 -0.089914441 1.7880774e-38 293 317
-0.030543067 0.67000002 -0.090454467 1.7696385e-38 294 317
-0.029368332 0.67000002 -0.090454467 1.7327603e-38 295 317
-0.028193599 0.67000002 -0.090454467 1.6591515e-38 296 317
-0.027059194 0.671 -0.090589471 1.7236885e-38 297 317
-0.025921278 0.67199999 -0.090724476 1.8888145e-38 298 317
-0.024816679 0.67400002 -0.090994492 1.8242776e-38 299 317
0.033711337 0.66299999 -0.089509413 1.8338196e-38 349 317
0.034873798 0.66299999 -0.089509413 1.8245985e-38 350 317
0.03619932 0.66600001 -0.089914441 1.8338181e-38 351 317
0.037367038 0.66600001 -0.089914441 1.8431083e-38 352 317
0.03853476 0.66600001 -0.089914441 1.8431083e-38 353 317
0.039762091 0.667 -0.090049446 1.8523278e-38 354 317
0.040931564 0.667 -0.090049446 1.8707309e-38 355 317
0.042037919 0.66600001 -0.089914441 1.8523641e-38 356 317
0.043205637 0.66600001 -0.089914441 1.8431445e-38 357 317
0.044439986 0.667 -0.090049446 1.8523278e-38 358 317
0.045609459 0.667 -0.090049446 1.8523278e-38 359 317
0.046778932 0.667 -0.090049446 1.8707306e-38 360 317
0.047876518 0.66600001 -0.089914441 1.8523275e-38 361 317
0.04904424 0.66600001 -0.089914441 1.8523994e-38 362 317
0.050211959 0.66600001 -0.089914441 1.8523994e-38 363 317
0.051379681 0.66600001 -0.089914441 1.8431083e-38 364 317
0.052626297 0.667 -0.090049446 1.8431083e-38 365 317
0.05379577 0.667 -0.090049446 1.8614039e-38 366 317
0.054965243 0.667 -0.090049446 1.8614039e-38 367 317
0.056134716 0.667 -0.090049446 1.8338531e-38 368 317
0.057304189 0.667 -0.090049446 1.8154138e-38 369 317
0.058561329 0.66799998 -0.090184443 1.8153419e-38 370 317
0.05973256 0.66799998 -0.090184443 1.7968669e-38 371 317
0.060903784 0.66799998 -0.090184443 1.7876824e-38 372 317
0.06226087 0.67000002 -0.090454467 1.7600596e-38 373 317
0.063435599 0.67000002 -0.090454467 1.7783189e-38 374 317
0.064417459 0.66799998 -0.090184443 1.7598798e-38 375 317
0.065490507 0.667 -0.090049446 1.7322581e-38 376 317
0.06665998 0.667 -0.090049446 1.713819e-38 377 317
0.067829452 0.667 -0.090049446 1.6862325e-38 378 317
0.068998925 0.667 -0.090049446 1.6770129e-38 379 317
0.070168398 0.667 -0.090049446 1.6769766e-38 380 317
0.071444817 0.66799998 -0.090184443 1.6677212e-38 381 317
0.072833464 0.67000002 -0.090454467 1.6402423e-38 382 317
0.074008204 0.67000002 -0.090454467 1.6218031e-38 383 317
0.07518293 0.67000002 -0.090454467 1.6125479e-38 384 317
0.076471634 0.671 -0.090589471 1.5849252e-38 385 317
0.077648118 0.671 -0.090589471 1.57567e-38 386 317
0.078824602 0.671 -0.090589471 1.5664505e-38 387 317
0.080120318 0.67199999 -0.090724476 1.5020939e-38 388 317
0.08129856 0.67199999 -0.090724476 1.4928384e-38 389 317
0.082476802 0.67199999 -0.090724476 1.492839e-38 390 317
0.083904013 0.67400002 -0.090994492 1.4835836e-38 391 317
0.085212 0.67500001 -0.091129504 1.4651444e-38 392 317
0.086523488 0.676 -0.091264501 1.4467413e-38 393 317
0.08796823 0.67799997 -0.09153451 1.4558526e-38 394 317
0.089156993 0.67799997 -0.09153451 1.446633e-38 395 317
0.090479009 0.67900002 -0.091669522 1.4007507e-38 396 317
0.091804534 0.68000001 -0.091804534 1.3823116e-38 397 317
0.093270317 0.68199998 -0.092074543 1.3638017e-38 398 317
0.094604604 0.68300003 -0.092209555 1.3269236e-38 399 317
0.095802136 0.68300003 -0.092209555 1.2993027e-38 400 317
0.097141676 0.68400002 -0.092344552 1.2808276e-38 401 317
0.098628499 0.68599999 -0.092614569 1.2257273e-38 402 317
0.099831291 0.68599999 -0.092614569 1.2165077e-38 403 317
0.10103408 0.68599999 -0.092614569 1.2258036e-38 404 317
-0.079499632 0.68699998 -0.093954116 1.899265e-38 254 318
-0.078181133 0.68599999 -0.093817353 1.6226781e-38 255 318
-0.076978341 0.68599999 -0.093817353 1.3181398e-38 256 318
-0.075775556 0.68599999 -0.093817353 1.3457984e-38 257 318
-0.074572764 0.68599999 -0.093817353 1.3736343e-38 258 318
-0.073156074 0.68400002 -0.093543842 1.4750855e-38 259 318
-0.071851604 0.68300003 -0.09340708 1.6131259e-38 260 318
-0.070550621 0.68199998 -0.093270317 1.6408206e-38 261 318
-0.069151461 0.68000001 -0.092996798 1.7051054e-38 262 318
-0.067859262 0.67900002 -0.092860043 1.732764e-38 263 318
-0.066668749 0.67900002 -0.092860043 1.7326932e-38 264 318
-0.065381795 0.67799997 -0.092723273 1.7511682e-38 265 318
-0.064003684 0.676 -0.092449754 1.7878667e-38 266 318
-0.062818423 0.676 -0.092449754 1.7878667e-38 267 318
-0.061633173 0.676 -0.092449754 1.8154528e-38 268 318
-0.060358498 0.67500001 -0.092312999 1.8247082e-38 269 318
-0.059175 0.67500001 -0.092312999 1.8247795e-38 270 318
-0.057905588 0.67400002 -0.092176244 1.8339993e-38 271 318
-0.056723841 0.67400002 -0.092176244 1.8340699e-38 272 318
-0.055377278 0.67199999 -0.091902718 1.8340699e-38 273 318
-0.054199036 0.67199999 -0.091902718 1.843325e-38 274 318
-0.053020798 0.67199999 -0.091902718 1.843325e-38 275 318
-0.051765412 0.671 -0.091765963 1.8616212e-38 276 318
-0.050588924 0.671 -0.091765963 1.8708408e-38 277 318
-0.049412437 0.671 -0.091765963 1.8708052e-38 278 318
-0.048164066 0.67000002 -0.0916292 1.8892802e-38 279 318
-0.046989333 0.67000002 -0.0916292 1.8892799e-38 280 318
-0.0458146 0.67000002 -0.0916292 1.8892799e-38 281 318
-0.044639867 0.67000002 -0.0916292 1.8893515e-38 282 318
-0.043465134 0.67000002 -0.0916292 1.8893515e-38 283 318
-0.042290401 0.67000002 -0.0916292 1.9076818e-38 284 318
-0.041115668 0.67000002 -0.0916292 1.8984622e-38 285 318
-0.039940935 0.67000002 -0.0916292 1.9076452e-38 286 318
-0.038766202 0.67000002 -0.0916292 1.8983898e-38 287 318
-0.037591465 0.67000002 -0.0916292 1.8800941e-38 288 318
-0.036253672 0.667 -0.091218919 1.8800941e-38 289 318
-0.035084199 0.667 -0.091218919 1.8433584e-38 290 318
-0.03386388 0.66600001 -0.091082163 1.8341388e-38 291 318
-0.032696161 0.66600001 -0.091082163 1.8249543e-38 292 318
-0.031528439 0.66600001 -0.091082163 1.8156989e-38 293 318
-0.030451892 0.66799998 -0.091355674 1.8248837e-38 294 318
-0.029280664 0.66799998 -0.091355674 1.8248837e-38 295 318
-0.028109439 0.66799998 -0.091355674 1.8431095e-38 296 318
-0.026938211 0.66799998 -0.091355674 1.8523291e-38 297 318
-0.025766984 0.66799998 -0.091355674 1.8155582e-38 298 318
-0.024706218 0.671 -0.091765963 1.8063386e-38 299 318
-0.0211452 0.67000002 -0.0916292 1.8062667e-38 302 318
-0.019970467 0.67000002 -0.0916292 1.7878274e-38 303 318
-0.018739626 0.66799998 -0.091355674 1.7602426e-38 304 318
-0.017568398 0.66799998 -0.091355674 1.7879373e-38 305 318
-0.016397171 0.66799998 -0.091355674 1.78812e-38 306 318
-0.015203152 0.667 -0.091218919 1.7973396e-38 307 318
-0.014033679 0.667 -0.091218919 1.8157089e-38 308 318
0.032548878 0.66299999 -0.090671875 1.8430373e-38 348 318
0.033711337 0.66299999 -0.090671875 1.8522928e-38 349 318
0.034873798 0.66299999 -0.090671875 1.8522928e-38 350 318
0.036036257 0.66299999 -0.090671875 1.8522928e-38 351 318
0.037198719 0.66299999 -0.090671875 1.8523278e-38 352 318
0.03853476 0.66600001 -0.091082163 1.8523278e-38 353 318
0.039702479 0.66600001 -0.091082163 1.8523631e-38 354 318
0.040870197 0.66600001 -0.091082163 1.8707662e-38 355 318
0.042037919 0.66600001 -0.091082163 1.8707662e-38 356 318
0.043205637 0.66600001 -0.091082163 1.8523631e-38 357 318
0.04437336 0.66600001 -0.091082163 1.8523275e-38 358 318
0.045541082 0.66600001 -0.091082163 1.8523275e-38 359 318
0.046708796 0.66600001 -0.091082163 1.8523278e-38 360 318
0.047876518 0.66600001 -0.091082163 1.8523278e-38 361 318
0.04904424 0.66600001 -0.091082163 1.8431801e-38 362 318
0.050211959 0.66600001 -0.091082163 1.8431801e-38 363 318
0.051379681 0.66600001 -0.091082163 1.8431445e-38 364 318
0.052547399 0.66600001 -0.091082163 1.833925e-38 365 318
0.053715117 0.66600001 -0.091082163 1.833925e-38 366 318
0.054882839 0.66600001 -0.091082163 1.8155219e-38 367 318
0.056134716 0.667 -0.091218919 1.8246338e-38 368 318
0.057304189 0.667 -0.091218919 1.8061587e-38 369 318
0.058473662 0.667 -0.091218919 1.7968669e-38 370 318
0.059643134 0.667 -0.091218919 1.750805e-38 371 318
0.060812607 0.667 -0.091218919 1.7232186e-38 372 318
0.06198208 0.667 -0.091218919 1.7139991e-38 373 318
0.063151561 0.667 -0.091218919 1.7322587e-38 374 318
0.064321034 0.667 -0.091218919 1.7137837e-38 375 318
0.065490507 0.667 -0.091218919 1.6770495e-38 376 318
0.06665998 0.667 -0.091218919 1.6494268e-38 377 318
0.067829452 0.667 -0.091218919 1.6218404e-38 378 318
0.068998925 0.667 -0.091218919 1.6034013e-38 379 318
0.070168398 0.667 -0.091218919 1.6218029e-38 380 318
0.071337871 0.667 -0.091218919 1.5941801e-38 381 318
0.072507344 0.667 -0.091218919 1.5757772e-38 382 318
0.073787279 0.66799998 -0.091355674 1.5757772e-38 383 318
0.074958503 0.66799998 -0.091355674 1.5389362e-38 384 318
0.076357663 0.67000002 -0.0916292 1.5297167e-38 385 318
0.077532403 0.67000002 -0.0916292 1.5021302e-38 386 318
0.078707129 0.67000002 -0.0916292 1.4929106e-38 387 318
0.080001086 0.671 -0.091765963 1.4561046e-38 388 318
0.081177577 0.671 -0.091765963 1.428482e-38 389 318
0.082476802 0.67199999 -0.091902718 1.437558e-38 390 318
0.083904013 0.67400002 -0.092176244 1.437558e-38 391 318
0.085212 0.67500001 -0.092312999 1.4098999e-38 392 318
0.086523488 0.676 -0.092449754 1.3914608e-38 393 318
0.087708741 0.676 -0.092449754 1.409792e-38 394 318
0.089156993 0.67799997 -0.092723273 1.4005725e-38 395 318
0.090479009 0.67900002 -0.092860043 1.3454705e-38 396 318
0.091669522 0.67900002 -0.092860043 1.3269955e-38 397 318
0.092996798 0.68000001 -0.092996798 1.2809335e-38 398 318
0.09446609 0.68199998 -0.093270317 1.2716781e-38 399 318
0.095802136 0.68300003 -0.09340708 1.2441291e-38 400 318
0.09699966 0.68300003 -0.09340708 1.2349095e-38 401 318
0.098772272 0.68699998 -0.093954116 1.1980708e-38 402 318
0.099976815 0.68699998 -0.093954116 1.2349132e-38 403 318
-0.078181133 0.68599999 -0.095020145 1.6963993e-38 255 319
-0.076753922 0.68400002 -0.094743125 1.4011157e-38 256 319
-0.075554639 0.68400002 -0.094743125 1.290481e-38 257 319
-0.074355356 0.68400002 -0.094743125 1.3090608e-38 258 319
-0.073049128 0.68300003 -0.094604604 1.410476e-38 259 319
-0.071746394 0.68199998 -0.09446609 1.5027435e-38 260 319
-0.070343733 0.68000001 -0.094189063 1.5672804e-38 261 319
-0.069049768 0.67900002 -0.094050556 1.6865941e-38 262 319
-0.06775932 0.67799997 -0.093912028 1.6958137e-38 263 319
-0.066570558 0.67799997 -0.093912028 1.7509865e-38 264 319
-0.065188929 0.676 -0.093635008 1.760206e-38 265 319
-0.064003684 0.676 -0.093635008 1.7785375e-38 266 319
-0.062818423 0.676 -0.093635008 1.7877571e-38 267 319
-0.061633173 0.676 -0.093635008 1.815308e-38 268 319
-0.060358498 0.67500001 -0.093496501 1.833783e-38 269 319
-0.059087332 0.67400002 -0.093357988 1.833783e-38 270 319
-0.057905588 0.67400002 -0.093357988 1.8522222e-38 271 319
-0.056555521 0.67199999 -0.093080953 1.8523294e-38 272 319
-0.055294871 0.671 -0.092942439 1.8523294e-38 273 319
-0.054118387 0.671 -0.092942439 1.8523644e-38 274 319
-0.052941896 0.671 -0.092942439 1.8523644e-38 275 319
-0.051765412 0.671 -0.092942439 1.8523644e-38 276 319
-0.050513536 0.67000002 -0.092803933 1.8523644e-38 277 319
-0.049338799 0.67000002 -0.092803933 1.8339976e-38 278 319
-0.048164066 0.67000002 -0.092803933 1.8616563e-38 279 319
-0.046849065 0.66799998 -0.092526905 1.8982831e-38 280 319
-0.045677837 0.66799998 -0.092526905 1.9259058e-38 281 319
-0.044506609 0.66799998 -0.092526905 1.8984266e-38 282 319
-0.043335386 0.66799998 -0.092526905 1.9076462e-38 283 319
-0.042164158 0.66799998 -0.092526905 1.9076462e-38 284 319
-0.040992931 0.66799998 -0.092526905 1.9076462e-38 285 319
-0.039821707 0.66799998 -0.092526905 1.8984266e-38 286 319
-0.038650475 0.66799998 -0.092526905 1.9076462e-38 287 319
-0.037367038 0.66600001 -0.092249878 1.8801304e-38 288 319
-0.03619932 0.66600001 -0.092249878 1.8709109e-38 289 319
-0.0349264 0.66399997 -0.091972843 1.8526147e-38 290 319
-0.033762183 0.66399997 -0.091972843 1.8433951e-38 291 319
-0.03259797 0.66399997 -0.091972843 1.8250639e-38 292 319
-0.031433757 0.66399997 -0.091972843 1.8158442e-38 293 319
-0.030269546 0.66399997 -0.091972843 1.8341401e-38 294 319
-0.029192999 0.66600001 -0.092249878 1.8249205e-38 295 319
-0.028025279 0.66600001 -0.092249878 1.8340329e-38 296 319
-0.026857559 0.66600001 -0.092249878 1.8340329e-38 297 319
-0.02568984 0.66600001 -0.092249878 1.8523997e-38 298 319
-0.02452212 0.66600001 -0.092249878 1.8523997e-38 299 319
-0.023354398 0.66600001 -0.092249878 1.8340679e-38 300 319
-0.022120051 0.66399997 -0.091972843 1.8248484e-38 301 319
-0.020955838 0.66399997 -0.091972843 1.8248484e-38 302 319
-0.019851239 0.66600001 -0.092249878 1.8156288e-38 303 319
-0.018739626 0.66799998 -0.092526905 1.8155219e-38 304 319
-0.017568398 0.66799998 -0.092526905 1.8063023e-38 305 319
-0.016397171 0.66799998 -0.092526905 1.7971566e-38 306 319
-0.01518036 0.66600001 -0.092249878 1.7971566e-38 307 319
-0.014012639 0.66600001 -0.092249878 1.8155252e-38 308 319
-0.01284492 0.66600001 -0.092249878 1.8247448e-38 309 319
-0.011589534 0.66100001 -0.091557316 1.8338942e-38 310 319
0.031386416 0.66299999 -0.091834337 1.8339956e-38 347 319
0.032499783 0.662 -0.091695823 1.8431077e-38 348 319
0.033660494 0.662 -0.091695823 1.8431077e-38 349 319
0.034821201 0.662 -0.091695823 1.8706588e-38 350 319
0.035981905 0.662 -0.091695823 1.8706588e-38 351 319
0.037198719 0.66299999 -0.091834337 1.8706588e-38 352 319
0.038419038 0.66399997 -0.091972843 1.8706588e-38 353 319
0.039583251 0.66399997 -0.091972843 1.8523275e-38 354 319
0.040686097 0.66299999 -0.091834337 1.8523275e-38 355 319
0.041848559 0.66299999 -0.091834337 1.8523275e-38 356 319
0.043075889 0.66399997 -0.091972843 1.8523275e-38 357 319
0.044240102 0.66399997 -0.091972843 1.8523278e-38 358 319
0.045404319 0.66399997 -0.091972843 1.8431083e-38 359 319
0.046568532 0.66399997 -0.091972843 1.8614042e-38 360 319
0.047660857 0.66299999 -0.091834337 1.8614042e-38 361 319
0.048823316 0.66299999 -0.091834337 1.8430729e-38 362 319
0.05006117 0.66399997 -0.091972843 1.8522925e-38 363 319
0.051148236 0.66299999 -0.091834337 1.8338528e-38 364 319
0.052310698 0.66299999 -0.091834337 1.8246333e-38 365 319
0.053473156 0.66299999 -0.091834337 1.8245968e-38 366 319
0.054718021 0.66399997 -0.091972843 1.8245968e-38 367 319
0.055882234 0.66399997 -0.091972843 1.8060502e-38 368 319
0.057046451 0.66399997 -0.091972843 1.7876111e-38 369 319
0.05821066 0.66399997 -0.091972843 1.7599167e-38 370 319
0.059374876 0.66399997 -0.091972843 1.7230386e-38 371 319
0.060539093 0.66399997 -0.091972843 1.7414057e-38 372 319
0.061703302 0.66399997 -0.091972843 1.713747e-38 373 319
0.062867515 0.66399997 -0.091972843 1.6309511e-38 374 319
0.064031735 0.66399997 -0.091972843 1.6585738e-38 375 319
0.06519594 0.66399997 -0.091972843 1.6308428e-38 376 319
0.066560037 0.66600001 -0.092249878 1.5847451e-38 377 319
0.067727759 0.66600001 -0.092249878 1.5572662e-38 378 319
0.068895474 0.66600001 -0.092249878 1.5757053e-38 379 319
0.070063196 0.66600001 -0.092249878 1.5848526e-38 380 319
0.071337871 0.667 -0.092388391 1.5664136e-38 381 319
0.072507344 0.667 -0.092388391 1.5389344e-38 382 319
0.073787279 0.66799998 -0.092526905 1.5297147e-38 383 319
0.074958503 0.66799998 -0.092526905 1.5296075e-38 384 319
0.076129727 0.66799998 -0.092526905 1.520388e-38 385 319
0.077532403 0.67000002 -0.092803933 1.5019488e-38 386 319
0.078707129 0.67000002 -0.092803933 1.4927293e-38 387 319
0.080001086 0.671 -0.092942439 1.4375564e-38 388 319
0.081177577 0.671 -0.092942439 1.4375564e-38 389 319
0.082354069 0.671 -0.092942439 1.4190822e-38 390 319
0.083655037 0.67199999 -0.093080953 1.4190822e-38 391 319
0.085085757 0.67400002 -0.093357988 1.4006075e-38 392 319
0.086395502 0.67500001 -0.093496501 1.3729847e-38 393 319
0.087708741 0.676 -0.093635008 1.3545453e-38 394 319
0.089156993 0.67799997 -0.093912028 1.3545453e-38 395 319
0.090345755 0.67799997 -0.093912028 1.3360705e-38 396 319
0.091669522 0.67900002 -0.094050556 1.3084477e-38 397 319
0.092996798 0.68000001 -0.094189063 1.2073216e-38 398 319
0.09446609 0.68199998 -0.09446609 1.2165412e-38 399 319
0.095661856 0.68199998 -0.09446609 1.2438418e-38 400 319
0.09699966 0.68300003 -0.094604604 1.2438418e-38 401 319
0.098197185 0.68300003 -0.094604604 1.1888159e-38 402 319
-0.078181133 0.68599999 -0.096222922 1.7793757e-38 255 320
-0.076753922 0.68400002 -0.0959424 1.46569e-38 256 320
-0.075554639 0.68400002 -0.0959424 1.2720791e-38 257 320
-0.074355356 0.68400002 -0.0959424 1.2812949e-38 258 320
-0.073049128 0.68300003 -0.095802136 1.3734545e-38 259 320
-0.071535997 0.68000001 -0.095381334 1.4288798e-38 260 320
-0.070343733 0.68000001 -0.095381334 1.5026363e-38 261 320
-0.069049768 0.67900002 -0.095241062 1.6037991e-38 262 320
-0.06775932 0.67799997 -0.09510079 1.6314938e-38 263 320
-0.066374183 0.676 -0.094820268 1.6591521e-38 264 320
-0.065188929 0.676 -0.094820268 1.6683717e-38 265 320
-0.063909002 0.67500001 -0.094679996 1.7141821e-38 266 320
-0.062725499 0.67500001 -0.094679996 1.7234016e-38 267 320
-0.061542001 0.67500001 -0.094679996 1.7326215e-38 268 320
-0.060358498 0.67500001 -0.094679996 1.7510607e-38 269 320
-0.058911994 0.67199999 -0.094259195 1.7602803e-38 270 320
-0.057733759 0.67199999 -0.094259195 1.7787193e-38 271 320
-0.056471359 0.671 -0.09411893 1.7879736e-38 272 320
-0.055294871 0.671 -0.09411893 1.7879736e-38 273 320
-0.054037735 0.67000002 -0.093978666 1.7880445e-38 274 320
-0.052863002 0.67000002 -0.093978666 1.7880445e-38 275 320
-0.051688269 0.67000002 -0.093978666 1.8155231e-38 276 320
-0.050513536 0.67000002 -0.093978666 1.8155231e-38 277 320
-0.04919152 0.66799998 -0.093698129 1.8155597e-38 278 320
-0.048020288 0.66799998 -0.093698129 1.8248151e-38 279 320
-0.046849065 0.66799998 -0.093698129 1.8614784e-38 280 320
-0.045677837 0.66799998 -0.093698129 1.8707339e-38 281 320
-0.044506609 0.66799998 -0.093698129 1.8524743e-38 282 320
-0.04327051 0.667 -0.093557864 1.8616938e-38 283 320
-0.042101037 0.667 -0.093557864 1.8801676e-38 284 320
-0.040931564 0.667 -0.093557864 1.8801676e-38 285 320
-0.039702479 0.66600001 -0.093417592 1.8893503e-38 286 320
-0.03853476 0.66600001 -0.093417592 1.8801307e-38 287 320
-0.037367038 0.66600001 -0.093417592 1.880166e-38 288 320
-0.036090612 0.66399997 -0.093137063 1.880166e-38 289 320
-0.034873798 0.66299999 -0.092996798 1.8985325e-38 290 320
-0.033711337 0.66299999 -0.092996798 1.8800936e-38 291 320
-0.03259797 0.66399997 -0.093137063 1.8709815e-38 292 320
-0.031433757 0.66399997 -0.093137063 1.8433228e-38 293 320
-0.030269546 0.66399997 -0.093137063 1.8617263e-38 294 320
-0.02910533 0.66399997 -0.093137063 1.8341035e-38 295 320
-0.027941117 0.66399997 -0.093137063 1.8707662e-38 296 320
-0.026776904 0.66399997 -0.093137063 1.8707662e-38 297 320
-0.025612691 0.66399997 -0.093137063 1.8707306e-38 298 320
-0.024448479 0.66399997 -0.093137063 1.8707306e-38 299 320
-0.023284266 0.66399997 -0.093137063 1.870766e-38 300 320
-0.022120051 0.66399997 -0.093137063 1.8799855e-38 301 320
-0.020955838 0.66399997 -0.093137063 1.85247e-38 302 320
-0.019851239 0.66600001 -0.093417592 1.85247e-38 303 320
-0.018711573 0.667 -0.093557864 1.8432505e-38 304 320
-0.017515799 0.66600001 -0.093417592 1.833995e-38 305 320
-0.016348081 0.66600001 -0.093417592 1.8339953e-38 306 320
-0.015134773 0.66399997 -0.093137063 1.8155922e-38 307 320
-0.013970559 0.66399997 -0.093137063 1.8155566e-38 308 320
-0.012748486 0.66100001 -0.092716269 1.8155566e-38 309 320
-0.011589534 0.66100001 -0.092716269 1.8431083e-38 310 320
-0.01043058 0.66100001 -0.092716269 1.8431083e-38 311 320
-0.0092716264 0.66100001 -0.092716269 1.8154863e-38 312 320
-0.0081249457 0.662 -0.092856526 1.8062667e-38 313 320
-0.0069642398 0.662 -0.092856526 1.7971544e-38 314 320
-0.0058035329 0.662 -0.092856526 1.7971544e-38 315 320
-0.0046708798 0.66600001 -0.093417592 1.8063739e-38 316 320
0.0069747595 0.66299999 -0.092996798 1.8337465e-38 326 320
0.0081249457 0.662 -0.092856526 1.8521496e-38 327 320
0.0092716264 0.66100001 -0.092716269 1.8337109e-38 328 320
0.01036746 0.65700001 -0.092155196 1.8244913e-38 329 320
0.017331699 0.65899998 -0.092435725 1.8338528e-38 335 320
0.018487146 0.65899998 -0.092435725 1.8521846e-38 336 320
0.019642593 0.65899998 -0.092435725 1.8706237e-38 337 320
0.020798039 0.65899998 -0.092435725 1.8523647e-38 338 320
0.022120051 0.66399997 -0.093137063 1.8523647e-38 339 320
0.023284266 0.66399997 -0.093137063 1.8523994e-38 340 320
0.024448479 0.66399997 -0.093137063 1.8431799e-38 341 320
0.025612691 0.66399997 -0.093137063 1.8523628e-38 342 320
0.026857559 0.66600001 -0.093417592 1.8523628e-38 343 320
0.030132787 0.66100001 -0.092716269 1.8615095e-38 346 320
0.031291738 0.66100001 -0.092716269 1.8615095e-38 347 320
0.032450691 0.66100001 -0.092716269 1.8615098e-38 348 320
0.033609647 0.66100001 -0.092716269 1.8615098e-38 349 320
0.0347686 0.66100001 -0.092716269 1.8523631e-38 350 320
0.035927553 0.66100001 -0.092716269 1.8523631e-38 351 320
0.037142612 0.662 -0.092856526 1.8523278e-38 352 320
0.038361177 0.66299999 -0.092996798 1.8523278e-38 353 320
0.039523639 0.66299999 -0.092996798 1.8523278e-38 354 320
0.04062473 0.662 -0.092856526 1.8523278e-38 355 320
0.041785441 0.662 -0.092856526 1.8523278e-38 356 320
0.043011017 0.66299999 -0.092996798 1.8431083e-38 357 320
0.044173479 0.66299999 -0.092996798 1.8430729e-38 358 320
0.045335937 0.66299999 -0.092996798 1.8430729e-38 359 320
0.046498399 0.66299999 -0.092996798 1.8430373e-38 360 320
0.047660857 0.66299999 -0.092996798 1.8430373e-38 361 320
0.048749682 0.662 -0.092856526 1.8154868e-38 362 320
0.049910385 0.662 -0.092856526 1.8154868e-38 363 320
0.051071092 0.662 -0.092856526 1.8062673e-38 364 320
0.0522318 0.662 -0.092856526 1.7970118e-38 365 320
0.053392503 0.662 -0.092856526 1.7877553e-38 366 320
0.054553211 0.662 -0.092856526 1.7600966e-38 367 320
0.055798076 0.66299999 -0.092996798 1.7508417e-38 368 320
0.056960538 0.66299999 -0.092996798 1.7232189e-38 369 320
0.058122993 0.66299999 -0.092996798 1.7230401e-38 370 320
0.059285458 0.66299999 -0.092996798 1.6861977e-38 371 320
0.060447913 0.66299999 -0.092996798 1.667723e-38 372 320
0.061610378 0.66299999 -0.092996798 1.6401003e-38 373 320
0.062772833 0.66299999 -0.092996798 1.5941463e-38 374 320
0.064031735 0.66399997 -0.093137063 1.5941463e-38 375 320
0.06519594 0.66399997 -0.093137063 1.5481192e-38 376 320
0.066360161 0.66399997 -0.093137063 1.511205e-38 377 320
0.067524366 0.66399997 -0.093137063 1.465143e-38 378 320
0.068895474 0.66600001 -0.093417592 1.4835823e-38 379 320
0.070063196 0.66600001 -0.093417592 1.5112055e-38 380 320
0.071230918 0.66600001 -0.093417592 1.5112055e-38 381 320
0.072507344 0.667 -0.093557864 1.4653595e-38 382 320
0.073676817 0.667 -0.093557864 1.45614e-38 383 320
0.074958503 0.66799998 -0.093698129 1.4468485e-38 384 320
0.076129727 0.66799998 -0.093698129 1.4376288e-38 385 320
0.077532403 0.67000002 -0.093978666 1.4099349e-38 386 320
0.078707129 0.67000002 -0.093978666 1.4099349e-38 387 320
0.079881869 0.67000002 -0.093978666 1.3915677e-38 388 320
0.081056595 0.67000002 -0.093978666 1.3823481e-38 389 320
0.082231335 0.67000002 -0.093978666 1.363945e-38 390 320
0.083530545 0.671 -0.09411893 1.3454699e-38 391 320
0.084833272 0.67199999 -0.094259195 1.327031e-38 392 320
0.086267509 0.67400002 -0.094539732 1.2993725e-38 393 320
0.087578997 0.67500001 -0.094679996 1.2810039e-38 394 320
0.088893995 0.676 -0.094820268 1.2533093e-38 395 320
0.090345755 0.67799997 -0.09510079 1.2349074e-38 396 320
0.091669522 0.67900002 -0.095241062 1.2256879e-38 397 320
0.092996798 0.68000001 -0.095381334 1.1796649e-38 398 320
0.094189063 0.68000001 -0.095381334 1.1704453e-38 399 320
0.095661856 0.68199998 -0.095661856 1.1704469e-38 400 320
0.09685763 0.68199998 -0.095661856 1.1612273e-38 401 320
-0.076753922 0.68400002 -0.097141676 1.5579947e-38 256 321
-0.075554639 0.68400002 -0.097141676 1.2814079e-38 257 321
-0.074355356 0.68400002 -0.097141676 1.2810794e-38 258 321
-0.073049128 0.68300003 -0.09699966 1.3456163e-38 259 321
-0.071535997 0.68000001 -0.096573599 1.3551586e-38 260 321
-0.070343733 0.68000001 -0.096573599 1.4196956e-38 261 321
-0.069049768 0.67900002 -0.096431576 1.4841606e-38 262 321
-0.067559443 0.676 -0.096005514 1.5486975e-38 263 321
-0.066374183 0.676 -0.096005514 1.613053e-38 264 321
-0.065092497 0.67500001 -0.095863499 1.6406757e-38 265 321
-0.063909002 0.67500001 -0.095863499 1.704924e-38 266 321
-0.062725499 0.67500001 -0.095863499 1.7233272e-38 267 321
-0.061450824 0.67400002 -0.095721483 1.7325471e-38 268 321
-0.06026908 0.67400002 -0.095721483 1.7417666e-38 269 321
-0.058824331 0.671 -0.095295422 1.7509868e-38 270 321
-0.057647847 0.671 -0.095295422 1.7602063e-38 271 321
-0.056471359 0.671 -0.095295422 1.7693903e-38 272 321
-0.055212468 0.67000002 -0.095153399 1.7693903e-38 273 321
-0.054037735 0.67000002 -0.095153399 1.7786453e-38 274 321
-0.052863002 0.67000002 -0.095153399 1.7970843e-38 275 321
-0.051533967 0.66799998 -0.094869353 1.8063392e-38 276 321
-0.050362743 0.66799998 -0.094869353 1.8063392e-38 277 321
-0.049117878 0.667 -0.094727337 1.8154868e-38 278 321
-0.047948405 0.667 -0.094727337 1.8154868e-38 279 321
-0.046708796 0.66600001 -0.094585314 1.8430379e-38 280 321
-0.045541082 0.66600001 -0.094585314 1.8706606e-38 281 321
-0.04437336 0.66600001 -0.094585314 1.8615488e-38 282 321
-0.043205637 0.66600001 -0.094585314 1.8800238e-38 283 321
-0.041911677 0.66399997 -0.094301268 1.8708755e-38 284 321
-0.040747464 0.66399997 -0.094301268 1.8800951e-38 285 321
-0.039583251 0.66399997 -0.094301268 1.8800951e-38 286 321
-0.038419038 0.66399997 -0.094301268 1.8800951e-38 287 321
-0.037254825 0.66399997 -0.094301268 1.8893503e-38 288 321
-0.036036257 0.66299999 -0.094159253 1.8801307e-38 289 321
-0.034873798 0.66299999 -0.094159253 1.8984619e-38 290 321
-0.033711337 0.66299999 -0.094159253 1.8800588e-38 291 321
-0.03259797 0.66399997 -0.094301268 1.8617639e-38 292 321
-0.031433757 0.66399997 -0.094301268 1.8525443e-38 293 321
-0.030269546 0.66399997 -0.094301268 1.8616916e-38 294 321
-0.02910533 0.66399997 -0.094301268 1.8432524e-38 295 321
-0.027899038 0.66299999 -0.094159253 1.8616195e-38 296 321
-0.026736578 0.66299999 -0.094159253 1.8523641e-38 297 321
-0.025574118 0.66299999 -0.094159253 1.8707312e-38 298 321
-0.024411658 0.66299999 -0.094159253 1.8707312e-38 299 321
-0.0232492 0.66299999 -0.094159253 1.8616195e-38 300 321
-0.02208674 0.66299999 -0.094159253 1.8616195e-38 301 321
-0.020924279 0.66299999 -0.094159253 1.8433598e-38 302 321
-0.019851239 0.66600001 -0.094585314 1.8433598e-38 303 321
-0.018627413 0.66399997 -0.094301268 1.8433231e-38 304 321
-0.0174632 0.66399997 -0.094301268 1.8341035e-38 305 321
-0.016298985 0.66399997 -0.094301268 1.8341032e-38 306 321
-0.015111978 0.66299999 -0.094159253 1.8341032e-38 307 321
-0.013949519 0.66299999 -0.094159253 1.8524345e-38 308 321
-0.012748486 0.66100001 -0.093875214 1.8524345e-38 309 321
-0.011589534 0.66100001 -0.093875214 1.8799858e-38 310 321
-0.01043058 0.66100001 -0.093875214 1.8799858e-38 311 321
-0.0092716264 0.66100001 -0.093875214 1.8523997e-38 312 321
-0.0081249457 0.662 -0.094017237 1.8616193e-38 313 321
-0.0069642398 0.662 -0.094017237 1.8340685e-38 314 321
-0.0058035329 0.662 -0.094017237 1.8340685e-38 315 321
-0.0046708798 0.66600001 -0.094585314 1.8523641e-38 316 321
-0.0035031599 0.66600001 -0.094585314 1.8523641e-38 317 321
-0.0023354399 0.66600001 -0.094585314 1.8340685e-38 318 321
-0.00116772 0.66600001 -0.094585314 1.8340685e-38 319 321
0 0.66299999 -0.094159253 1.852435e-38 320 321
0.00116246 0.66299999 -0.094159253 1.8431796e-38 321 321
0.0023284266 0.66399997 -0.094301268 1.8523631e-38 322 321
0.0034873798 0.66299999 -0.094159253 1.8431077e-38 323 321
0.0046498398 0.66299999 -0.094159253 1.8430727e-38 324 321
0.0058122999 0.66299999 -0.094159253 1.8430727e-38 325 321
0.0069747595 0.66299999 -0.094159253 1.8706237e-38 326 321
0.0081249457 0.662 -0.094017237 1.8706237e-38 327 321
0.0092716264 0.66100001 -0.093875214 1.8430727e-38 328 321
0.01036746 0.65700001 -0.093307137 1.8430727e-38 329 321
0.011519399 0.65700001 -0.093307137 1.8339603e-38 330 321
0.01267134 0.65700001 -0.093307137 1.8339603e-38 331 321
0.01384432 0.65799999 -0.09344916 1.8431077e-38 332 321
0.014998012 0.65799999 -0.09344916 1.8431077e-38 333 321
0.016151706 0.65799999 -0.09344916 1.843143e-38 334 321
0.017331699 0.65899998 -0.093591176 1.843143e-38 335 321
0.018487146 0.65899998 -0.093591176 1.8431077e-38 336 321
0.019642593 0.65899998 -0.093591176 1.8431077e-38 337 321
0.020798039 0.65899998 -0.093591176 1.8523278e-38 338 321
0.022053426 0.662 -0.094017237 1.8707309e-38 339 321
0.023214132 0.662 -0.094017237 1.8523997e-38 340 321
0.024374841 0.662 -0.094017237 1.8616193e-38 341 321
0.025535546 0.662 -0.094017237 1.852435e-38 342 321
0.026575271 0.65899998 -0.093591176 1.8431796e-38 343 321
0.027730718 0.65899998 -0.093591176 1.8523626e-38 344 321
0.028886165 0.65899998 -0.093591176 1.8523626e-38 345 321
0.030041611 0.65899998 -0.093591176 1.8523982e-38 346 321
0.031291738 0.66100001 -0.093875214 1.8523982e-38 347 321
0.032450691 0.66100001 -0.093875214 1.8523628e-38 348 321
0.033609647 0.66100001 -0.093875214 1.8523628e-38 349 321
0.0347686 0.66100001 -0.093875214 1.8706588e-38 350 321
0.035927553 0.66100001 -0.093875214 1.8706588e-38 351 321
0.037086505 0.66100001 -0.093875214 1.870659e-38 352 321
0.038303319 0.662 -0.094017237 1.870659e-38 353 321
0.039464023 0.662 -0.094017237 1.8431083e-38 354 321
0.04062473 0.662 -0.094017237 1.8431083e-38 355 321
0.041785441 0.662 -0.094017237 1.8614395e-38 356 321
0.042946145 0.662 -0.094017237 1.8522199e-38 357 321
0.044173479 0.66299999 -0.094159253 1.8521843e-38 358 321
0.045335937 0.66299999 -0.094159253 1.8337812e-38 359 321
0.046498399 0.66299999 -0.094159253 1.8337815e-38 360 321
0.047588971 0.662 -0.094017237 1.8245619e-38 361 321
0.048749682 0.662 -0.094017237 1.8337085e-38 362 321
0.049910385 0.662 -0.094017237 1.8060499e-38 363 321
0.051071092 0.662 -0.094017237 1.796866e-38 364 321
0.0522318 0.662 -0.094017237 1.796866e-38 365 321
0.053392503 0.662 -0.094017237 1.7783914e-38 366 321
0.054553211 0.662 -0.094017237 1.7415133e-38 367 321
0.055713918 0.662 -0.094017237 1.6955597e-38 368 321
0.056874625 0.662 -0.094017237 1.6863401e-38 369 321
0.058035329 0.662 -0.094017237 1.6770485e-38 370 321
0.05919604 0.662 -0.094017237 1.6401704e-38 371 321
0.060447913 0.66299999 -0.094159253 1.6492456e-38 372 321
0.061610378 0.66299999 -0.094159253 1.6215511e-38 373 321
0.062772833 0.66299999 -0.094159253 1.5848526e-38 374 321
0.063935295 0.66299999 -0.094159253 1.5848526e-38 375 321
0.06519594 0.66399997 -0.094301268 1.5480109e-38 376 321
0.066360161 0.66399997 -0.094301268 1.4926937e-38 377 321
0.067524366 0.66399997 -0.094301268 1.4283015e-38 378 321
0.068895474 0.66600001 -0.094585314 1.4375569e-38 379 321
0.070063196 0.66600001 -0.094585314 1.4743274e-38 380 321
0.071230918 0.66600001 -0.094585314 1.4651077e-38 381 321
0.072507344 0.667 -0.094727337 1.465143e-38 382 321
0.073676817 0.667 -0.094727337 1.4559235e-38 383 321
0.07484629 0.667 -0.094727337 1.4374485e-38 384 321
0.076129727 0.66799998 -0.094869353 1.4190453e-38 385 321
0.077300951 0.66799998 -0.094869353 1.4097902e-38 386 321
0.078472182 0.66799998 -0.094869353 1.4005705e-38 387 321
0.079881869 0.67000002 -0.095153399 1.37302e-38 388 321
0.081056595 0.67000002 -0.095153399 1.3637645e-38 389 321
0.082231335 0.67000002 -0.095153399 1.3453251e-38 390 321
0.083530545 0.671 -0.095295422 1.3361056e-38 391 321
0.084833272 0.67199999 -0.095437437 1.2901155e-38 392 321
0.086267509 0.67400002 -0.095721483 1.2716765e-38 393 321
0.087578997 0.67500001 -0.095863499 1.2347628e-38 394 321
0.088893995 0.676 -0.096005514 1.1886652e-38 395 321
0.090345755 0.67799997 -0.096289553 1.2071417e-38 396 321
0.091669522 0.67900002 -0.096431576 1.2071417e-38 397 321
0.092996798 0.68000001 -0.096573599 1.1887048e-38 398 321
0.094189063 0.68000001 -0.096573599 1.1887048e-38 399 321
0.095381334 0.68000001 -0.096573599 1.151972e-38 400 321
-0.075554639 0.68400002 -0.098340958 1.3183587e-38 257 322
-0.074355356 0.68400002 -0.098340958 1.2900841e-38 258 322
-0.072942168 0.68199998 -0.098053411 1.3638406e-38 259 322
-0.071430802 0.67900002 -0.097622089 1.3364321e-38 260 322
-0.070240289 0.67900002 -0.097622089 1.3733463e-38 261 322
-0.068948075 0.67799997 -0.097478308 1.4011838e-38 262 322
-0.067559443 0.676 -0.097190768 1.4841959e-38 263 322
-0.066374183 0.676 -0.097190768 1.5486243e-38 264 322
-0.065092497 0.67500001 -0.097047001 1.576319e-38 265 322
-0.063909002 0.67500001 -0.097047001 1.6589703e-38 266 322
-0.062725499 0.67500001 -0.097047001 1.6774095e-38 267 322
-0.061268479 0.67199999 -0.09661568 1.649859e-38 268 322
-0.060090236 0.67199999 -0.09661568 1.6682621e-38 269 322
-0.058824331 0.671 -0.096471906 1.6774467e-38 270 322
-0.057561934 0.67000002 -0.096328132 1.6866663e-38 271 322
-0.056387197 0.67000002 -0.096328132 1.7233648e-38 272 322
-0.05504765 0.66799998 -0.096040577 1.7233648e-38 273 322
-0.053876422 0.66799998 -0.096040577 1.7326918e-38 274 322
-0.052705199 0.66799998 -0.096040577 1.7419114e-38 275 322
-0.051456824 0.667 -0.09589681 1.7694976e-38 276 322
-0.050287351 0.667 -0.09589681 1.7787172e-38 277 322
-0.04904424 0.66600001 -0.095753036 1.8063036e-38 278 322
-0.047876518 0.66600001 -0.095753036 1.8063036e-38 279 322
-0.046708796 0.66600001 -0.095753036 1.8063036e-38 280 322
-0.045541082 0.66600001 -0.095753036 1.8155231e-38 281 322
-0.04437336 0.66600001 -0.095753036 1.8155953e-38 282 322
-0.043075889 0.66399997 -0.095465489 1.8248149e-38 283 322
-0.041848559 0.66299999 -0.095321715 1.8340699e-38 284 322
-0.040686097 0.66299999 -0.095321715 1.8432894e-38 285 322
-0.039523639 0.66299999 -0.095321715 1.8616563e-38 286 322
-0.038361177 0.66299999 -0.095321715 1.8616563e-38 287 322
-0.037198719 0.66299999 -0.095321715 1.861656e-38 288 322
-0.036036257 0.66299999 -0.095321715 1.8708755e-38 289 322
-0.034873798 0.66299999 -0.095321715 1.8708755e-38 290 322
-0.033711337 0.66299999 -0.095321715 1.8708755e-38 291 322
-0.03259797 0.66399997 -0.095465489 1.8800232e-38 292 322
-0.031433757 0.66399997 -0.095465489 1.8800232e-38 293 322
-0.030269546 0.66399997 -0.095465489 1.8708037e-38 294 322
-0.029061496 0.66299999 -0.095321715 1.8708037e-38 295 322
-0.027899038 0.66299999 -0.095321715 1.861584e-38 296 322
-0.026736578 0.66299999 -0.095321715 1.861584e-38 297 322
-0.025535546 0.662 -0.095177941 1.861584e-38 298 322
-0.024374841 0.662 -0.095177941 1.861584e-38 299 322
-0.023214132 0.662 -0.095177941 1.870839e-38 300 322
-0.022053426 0.662 -0.095177941 1.870839e-38 301 322
-0.020892721 0.662 -0.095177941 1.8709459e-38 302 322
-0.019761819 0.66299999 -0.095321715 1.8709459e-38 303 322
-0.018599359 0.66299999 -0.095321715 1.8801289e-38 304 322
-0.017436899 0.66299999 -0.095321715 1.8709093e-38 305 322
-0.016274439 0.66299999 -0.095321715 1.8709446e-38 306 322
-0.015111978 0.66299999 -0.095321715 1.8709446e-38 307 322
-0.013949519 0.66299999 -0.095321715 1.870909e-38 308 322
-0.012748486 0.66100001 -0.095034167 1.870909e-38 309 322
-0.011589534 0.66100001 -0.095034167 1.8892408e-38 310 322
-0.01043058 0.66100001 -0.095034167 1.8892408e-38 311 322
-0.0092716264 0.66100001 -0.095034167 1.8892052e-38 312 322
-0.0081126727 0.66100001 -0.095034167 1.8892052e-38 313 322
-0.00695372 0.66100001 -0.095034167 1.8708743e-38 314 322
-0.0057947668 0.66100001 -0.095034167 1.8708743e-38 315 322
-0.0046358132 0.66100001 -0.095034167 1.8799861e-38 316 322
-0.0035031599 0.66600001 -0.095753036 1.8799861e-38 317 322
-0.0023179066 0.66100001 -0.095034167 1.861619e-38 318 322
-0.0011589533 0.66100001 -0.095034167 1.861619e-38 319 322
0 0.66100001 -0.095034167 1.8799855e-38 320 322
0.00116246 0.66299999 -0.095321715 1.8799855e-38 321 322
0.0023249199 0.66299999 -0.095321715 1.8708013e-38 322 322
0.0034873798 0.66299999 -0.095321715 1.8708013e-38 323 322
0.0046498398 0.66299999 -0.095321715 1.870766e-38 324 322
0.0058035329 0.662 -0.095177941 1.870766e-38 325 322
0.00695372 0.66100001 -0.095034167 1.8799139e-38 326 322
0.0081126727 0.66100001 -0.095034167 1.8799139e-38 327 322
0.0092716264 0.66100001 -0.095034167 1.8523626e-38 328 322
0.01036746 0.65700001 -0.094459079 1.8523626e-38 329 322
0.011519399 0.65700001 -0.094459079 1.8432505e-38 330 322
0.01267134 0.65700001 -0.094459079 1.8432505e-38 331 322
0.01384432 0.65799999 -0.094602853 1.8523979e-38 332 322
0.014998012 0.65799999 -0.094602853 1.8523979e-38 333 322
0.016151706 0.65799999 -0.094602853 1.8524335e-38 334 322
0.017331699 0.65899998 -0.094746619 1.8524335e-38 335 322
0.018543253 0.66100001 -0.095034167 1.8707294e-38 336 322
0.019702207 0.66100001 -0.095034167 1.8707294e-38 337 322
0.02086116 0.66100001 -0.095034167 1.8707662e-38 338 322
0.022020113 0.66100001 -0.095034167 1.8707662e-38 339 322
0.023179067 0.66100001 -0.095034167 1.8707306e-38 340 322
0.02433802 0.66100001 -0.095034167 1.8799861e-38 341 322
0.025419824 0.65899998 -0.094746619 1.8707662e-38 342 322
0.026575271 0.65899998 -0.094746619 1.8707662e-38 343 322
0.027688639 0.65799999 -0.094602853 1.8523628e-38 344 322
0.028842334 0.65799999 -0.094602853 1.8523628e-38 345 322
0.029996024 0.65799999 -0.094602853 1.8523628e-38 346 322
0.031197058 0.65899998 -0.094746619 1.8523628e-38 347 322
0.032352503 0.65899998 -0.094746619 1.843108e-38 348 322
0.033507951 0.65899998 -0.094746619 1.8523275e-38 349 322
0.0347686 0.66100001 -0.095034167 1.833925e-38 350 322
0.035927553 0.66100001 -0.095034167 1.833925e-38 351 322
0.037086505 0.66100001 -0.095034167 1.8339247e-38 352 322
0.038245458 0.66100001 -0.095034167 1.8339247e-38 353 322
0.039404415 0.66100001 -0.095034167 1.8338531e-38 354 322
0.040563367 0.66100001 -0.095034167 1.8246335e-38 355 322
0.04172232 0.66100001 -0.095034167 1.8337815e-38 356 322
0.042881273 0.66100001 -0.095034167 1.8245619e-38 357 322
0.044106852 0.662 -0.095177941 1.8061234e-38 358 322
0.04526756 0.662 -0.095177941 1.7877202e-38 359 322
0.046428263 0.662 -0.095177941 1.7968322e-38 360 322
0.047517084 0.66100001 -0.095034167 1.7968322e-38 361 322
0.04867604 0.66100001 -0.095034167 1.7876105e-38 362 322
0.049834993 0.66100001 -0.095034167 1.7691713e-38 363 322
0.050993945 0.66100001 -0.095034167 1.7691347e-38 364 322
0.052152898 0.66100001 -0.095034167 1.7599151e-38 365 322
0.053311851 0.66100001 -0.095034167 1.7231107e-38 366 322
0.054470807 0.66100001 -0.095034167 1.7047076e-38 367 322
0.05562976 0.66100001 -0.095034167 1.667758e-38 368 322
0.056788713 0.66100001 -0.095034167 1.667758e-38 369 322
0.057947662 0.66100001 -0.095034167 1.6217676e-38 370 322
0.059106622 0.66100001 -0.095034167 1.5849252e-38 371 322
0.060356744 0.662 -0.095177941 1.5664492e-38 372 322
0.061610378 0.66299999 -0.095321715 1.5572295e-38 373 322
0.062772833 0.66299999 -0.095321715 1.5204598e-38 374 322
0.063935295 0.66299999 -0.095321715 1.5204598e-38 375 322
0.065097757 0.66299999 -0.095321715 1.4928021e-38 376 322
0.066360161 0.66399997 -0.095465489 1.4651074e-38 377 322
0.067524366 0.66399997 -0.095465489 1.4558881e-38 378 322
0.068895474 0.66600001 -0.095753036 1.4558881e-38 379 322
0.070063196 0.66600001 -0.095753036 1.4466333e-38 380 322
0.071230918 0.66600001 -0.095753036 1.4374137e-38 381 322
0.07239864 0.66600001 -0.095753036 1.4190822e-38 382 322
0.073676817 0.667 -0.09589681 1.4098626e-38 383 322
0.07484629 0.667 -0.09589681 1.3822395e-38 384 322
0.076129727 0.66799998 -0.096040577 1.3822395e-38 385 322
0.077300951 0.66799998 -0.096040577 1.3637651e-38 386 322
0.078472182 0.66799998 -0.096040577 1.3637651e-38 387 322
0.079643413 0.66799998 -0.096040577 1.3361431e-38 388 322
0.081056595 0.67000002 -0.096328132 1.317704e-38 389 322
0.082231335 0.67000002 -0.096328132 1.2900799e-38 390 322
0.083530545 0.671 -0.096471906 1.2440181e-38 391 322
0.084833272 0.67199999 -0.09661568 1.2071767e-38 392 322
0.086395502 0.67500001 -0.097047001 1.1887376e-38 393 322
0.087708741 0.676 -0.097190768 1.1703007e-38 394 322
0.089156993 0.67799997 -0.097478308 1.1610453e-38 395 322
0.090345755 0.67799997 -0.097478308 1.1335667e-38 396 322
0.091669522 0.67900002 -0.097622089 1.1427862e-38 397 322
0.092996798 0.68000001 -0.09776587 1.1518991e-38 398 322
0.094189063 0.68000001 -0.09776587 1.1518991e-38 399 322
0.095381334 0.68000001 -0.09776587 1.115131e-38 400 322
-0.075554639 0.68400002 -0.099540241 1.3643855e-38 257 323
-0.074355356 0.68400002 -0.099540241 1.2901197e-38 258 323
-0.072942168 0.68199998 -0.099249184 1.3269981e-38 259 323
-0.071430802 0.67900002 -0.09881261 1.3547264e-38 260 323
-0.070240289 0.67900002 -0.09881261 1.3547264e-38 261 323
-0.068948075 0.67799997 -0.09866707 1.318316e-38 262 323
-0.067559443 0.676 -0.098376028 1.3828529e-38 263 323
-0.066275999 0.67500001 -0.098230496 1.4473896e-38 264 323
-0.065092497 0.67500001 -0.098230496 1.5119265e-38 265 323
-0.06381432 0.67400002 -0.098084971 1.6129092e-38 266 323
-0.062632568 0.67400002 -0.098084971 1.6221647e-38 267 323
-0.061177302 0.671 -0.09764839 1.6313477e-38 268 323
-0.060000818 0.671 -0.09764839 1.6313477e-38 269 323
-0.058736663 0.67000002 -0.097502865 1.6589703e-38 270 323
-0.057561934 0.67000002 -0.097502865 1.6589703e-38 271 323
-0.056218877 0.66799998 -0.097211808 1.6957407e-38 272 323
-0.05504765 0.66799998 -0.097211808 1.6957407e-38 273 323
