# .PCD v.7 - Point Cloud Data file format
FIELDS x y z rgb imX imY
SIZE 4 4 4 4 4 4
TYPE F F F F F F
COUNT 1 1 1 1 1 1
WIDTH 845
HEIGHT 1
VIEWPOINT 0 0 0 1 0 0 0
POINTS 845
DATA ascii
0.013097399 0.74699998 -0.0065486995 1.7697828e-38 330 245
0.014387853 0.74599999 -0.0065399334 1.7790382e-38 331 245
0.015695838 0.74599999 -0.0065399334 1.8249205e-38 332 245
0.017003827 0.74599999 -0.0065399334 1.8341401e-38 333 245
0.01826272 0.74400002 -0.0065223998 1.8433964e-38 334 245
0.0195146 0.74199998 -0.0065048663 1.8526159e-38 335 245
0.020815572 0.74199998 -0.0065048663 1.8526165e-38 336 245
0.022116546 0.74199998 -0.0065048663 1.861836e-38 337 245
0.023417519 0.74199998 -0.0065048663 1.8710909e-38 338 245
0.024685178 0.741 -0.0064960998 1.8710909e-38 339 245
0.025984399 0.741 -0.0064960998 1.8803455e-38 340 245
0.027283618 0.741 -0.0064960998 1.8803455e-38 341 245
0.028582839 0.741 -0.0064960998 1.9078597e-38 342 245
0.029882059 0.741 -0.0064960998 1.9078597e-38 343 245
0.03109712 0.73900002 -0.0064785667 1.9078948e-38 344 245
0.032392833 0.73900002 -0.0064785667 1.8986752e-38 345 245
0.033551786 0.736 -0.0064522666 1.8895628e-38 346 245
0.034842238 0.736 -0.0064522666 1.8803433e-38 347 245
0.036034506 0.73400003 -0.006434733 1.8803077e-38 348 245
0.037270606 0.73299998 -0.0064259665 1.8619046e-38 349 245
0.038450599 0.73100001 -0.006408433 1.8433954e-38 350 245
0.039732285 0.73100001 -0.006408433 1.8341398e-38 351 245
0.041013971 0.73100001 -0.006408433 1.7880439e-38 352 245
0.042411376 0.73299998 -0.0064259665 1.7512017e-38 353 245
-0.027036399 0.77100003 -0.0081109209 1.6222738e-38 300 246
-0.02568458 0.77100003 -0.0081109209 1.6591521e-38 301 246
-0.02433276 0.77100003 -0.0081109209 1.7051405e-38 302 246
-0.02298094 0.77100003 -0.0081109209 1.6959209e-38 303 246
-0.021629119 0.77100003 -0.0081109209 1.6406744e-38 304 246
-0.0202247 0.76899999 -0.0080898795 1.6037602e-38 305 246
-0.018876385 0.76899999 -0.0080898795 1.566953e-38 306 246
-0.017482487 0.76700002 -0.00806884 1.5208551e-38 307 246
-0.01613768 0.76700002 -0.00806884 1.5115277e-38 308 246
-0.014773586 0.76599997 -0.0080583189 1.4930887e-38 309 246
-0.013430533 0.76599997 -0.0080583189 1.4471349e-38 310 246
-0.012087479 0.76599997 -0.0080583189 1.4286958e-38 311 246
-0.010716373 0.764 -0.0080372803 1.4653592e-38 312 246
-0.0093768267 0.764 -0.0080372803 1.4469201e-38 313 246
-0.0080162399 0.76200002 -0.0080162399 1.4283737e-38 314 246
-0.0066714329 0.76099998 -0.0080057196 1.4375932e-38 315 246
-0.0053371461 0.76099998 -0.0080057196 1.4102942e-38 316 246
-0.0040028598 0.76099998 -0.0080057196 1.4287334e-38 317 246
-0.00266156 0.759 -0.0079846792 1.4838707e-38 318 246
-0.00133078 0.759 -0.0079846792 1.5115652e-38 319 246
0 0.75700003 -0.0079636406 1.5849617e-38 320 246
0.0013237667 0.755 -0.0079425992 1.5941813e-38 321 246
0.0026440267 0.75400001 -0.00793208 1.5301486e-38 322 246
0.00396604 0.75400001 -0.00793208 1.5393681e-38 323 246
0.0052740262 0.75199997 -0.0079110395 1.5578426e-38 324 246
0.0065925326 0.75199997 -0.0079110395 1.5578426e-38 325 246
0.00789 0.75 -0.00789 1.5763893e-38 326 246
0.0091927266 0.74900001 -0.0078794798 1.6132315e-38 327 246
0.010477919 0.74699998 -0.0078584393 1.6499653e-38 328 246
0.011787659 0.74699998 -0.0078584393 1.6592209e-38 329 246
0.013079867 0.74599999 -0.0078479191 1.6869868e-38 330 246
0.014387853 0.74599999 -0.0078479191 1.7054259e-38 331 246
0.015695838 0.74599999 -0.0078479191 1.7421967e-38 332 246
0.016958239 0.74400002 -0.0078268806 1.7790748e-38 333 246
0.01826272 0.74400002 -0.0078268806 1.8431801e-38 334 246
0.0195146 0.74199998 -0.0078058392 1.8616193e-38 335 246
0.020815572 0.74199998 -0.0078058392 1.8708387e-38 336 246
0.02208674 0.741 -0.0077953199 1.8800941e-38 337 246
0.023385961 0.741 -0.0077953199 1.8801657e-38 338 246
0.024685178 0.741 -0.0077953199 1.8893853e-38 339 246
0.025984399 0.741 -0.0077953199 1.8894572e-38 340 246
0.027283618 0.741 -0.0077953199 1.8894572e-38 341 246
0.028505694 0.73900002 -0.0077742799 1.8986404e-38 342 246
0.029801406 0.73900002 -0.0077742799 1.90786e-38 343 246
0.03109712 0.73900002 -0.0077742799 1.9169714e-38 344 246
0.032348998 0.73799998 -0.0077637597 1.9354465e-38 345 246
0.033460613 0.73400003 -0.0077216802 1.8987118e-38 346 246
0.034700219 0.73299998 -0.0077111595 1.8987118e-38 347 246
0.035985414 0.73299998 -0.0077111595 1.8894928e-38 348 246
0.037168913 0.73100001 -0.00769012 1.8894928e-38 349 246
0.038292799 0.72799999 -0.0076585598 1.8617989e-38 350 246
0.039569225 0.72799999 -0.0076585598 1.8617989e-38 351 246
0.040845651 0.72799999 -0.0076585598 1.8157735e-38 352 246
0.042122077 0.72799999 -0.0076585598 1.8157735e-38 353 246
0.043398503 0.72799999 -0.0076585598 1.806485e-38 354 246
-0.031212838 0.77399999 -0.0094995592 1.5856515e-38 297 247
-0.029855758 0.77399999 -0.0094995592 1.4932367e-38 298 247
-0.028498679 0.77399999 -0.0094995592 1.5485539e-38 299 247
-0.027141599 0.77399999 -0.0094995592 1.6130177e-38 300 247
-0.02568458 0.77100003 -0.0094627403 1.6314208e-38 301 247
-0.02433276 0.77100003 -0.0094627403 1.6130525e-38 302 247
-0.02298094 0.77100003 -0.0094627403 1.5761741e-38 303 247
-0.021629119 0.77100003 -0.0094627403 1.5393678e-38 304 247
-0.0202247 0.76899999 -0.0094381925 1.5025255e-38 305 247
-0.018876385 0.76899999 -0.0094381925 1.484051e-38 306 247
-0.017459691 0.76599997 -0.0094013726 1.4747956e-38 307 247
-0.016116638 0.76599997 -0.0094013726 1.4380252e-38 308 247
-0.014773586 0.76599997 -0.0094013726 1.419586e-38 309 247
-0.013430533 0.76599997 -0.0094013726 1.4194785e-38 310 247
-0.012087479 0.76599997 -0.0094013726 1.4286981e-38 311 247
-0.010716373 0.764 -0.0093768267 1.4287334e-38 312 247
-0.0093768267 0.764 -0.0093768267 1.4195138e-38 313 247
-0.0080162399 0.76200002 -0.0093522798 1.4378082e-38 314 247
-0.0066714329 0.76099998 -0.0093400059 1.4562832e-38 315 247
-0.0053371461 0.76099998 -0.0093400059 1.4563567e-38 316 247
-0.0039923396 0.759 -0.00931546 1.4840154e-38 317 247
-0.00266156 0.759 -0.00931546 1.4839438e-38 318 247
-0.0013272733 0.75700003 -0.0092909131 1.5023469e-38 319 247
0 0.755 -0.0092663663 1.5023467e-38 320 247
0.0013237667 0.755 -0.0092663663 1.5208217e-38 321 247
0.0026440267 0.75400001 -0.0092540924 1.493272e-38 322 247
0.00396604 0.75400001 -0.0092540924 1.511747e-38 323 247
0.0052740262 0.75199997 -0.0092295464 1.5208584e-38 324 247
0.006575 0.75 -0.0092049995 1.5300779e-38 325 247
0.00789 0.75 -0.0092049995 1.5210363e-38 326 247
0.0091927266 0.74900001 -0.0091927266 1.5302918e-38 327 247
0.010477919 0.74699998 -0.0091681797 1.6037952e-38 328 247
0.011787659 0.74699998 -0.0091681797 1.6222345e-38 329 247
0.013079867 0.74599999 -0.0091559067 1.6499641e-38 330 247
0.014387853 0.74599999 -0.0091559067 1.6775867e-38 331 247
0.015653761 0.74400002 -0.0091313599 1.6960266e-38 332 247
0.016958239 0.74400002 -0.0091313599 1.7513439e-38 333 247
0.01826272 0.74400002 -0.0091313599 1.7605285e-38 334 247
0.0195146 0.74199998 -0.009106813 1.7789676e-38 335 247
0.020787518 0.741 -0.0090945391 1.8157735e-38 336 247
0.02208674 0.741 -0.0090945391 1.8433964e-38 337 247
0.023385961 0.741 -0.0090945391 1.8251007e-38 338 247
0.024618553 0.73900002 -0.0090699932 1.8343203e-38 339 247
0.025914267 0.73900002 -0.0090699932 1.8435399e-38 340 247
0.027209979 0.73900002 -0.0090699932 1.8435399e-38 341 247
0.028389972 0.736 -0.0090331733 1.8711262e-38 342 247
0.029680425 0.736 -0.0090331733 1.8711262e-38 343 247
0.030886721 0.73400003 -0.0090086265 1.9078603e-38 344 247
0.032129832 0.73299998 -0.0089963535 1.9078603e-38 345 247
0.033415023 0.73299998 -0.0089963535 1.8987123e-38 346 247
0.034558199 0.73000002 -0.0089595336 1.8987123e-38 347 247
0.035838135 0.73000002 -0.0089595336 1.8986402e-38 348 247
0.037118066 0.73000002 -0.0089595336 1.8986402e-38 349 247
0.038292799 0.72799999 -0.0089349858 1.9077518e-38 350 247
0.039569225 0.72799999 -0.0089349858 1.8985323e-38 351 247
0.040845651 0.72799999 -0.0089349858 1.8984607e-38 352 247
0.042122077 0.72799999 -0.0089349858 1.8892052e-38 353 247
0.043338891 0.727 -0.0089227129 1.8433584e-38 354 247
0.044613566 0.727 -0.0089227129 1.7788214e-38 355 247
0.045761999 0.72500002 -0.0088981669 1.7052111e-38 356 247
0.047033165 0.72500002 -0.0088981669 1.7328338e-38 357 247
0.048171077 0.72299999 -0.0088736191 1.7239093e-38 358 247
0.049438741 0.72299999 -0.0088736191 1.7977017e-38 359 247
-0.032569919 0.77399999 -0.01085664 1.5300079e-38 296 248
-0.031212838 0.77399999 -0.01085664 1.4562514e-38 297 248
-0.029855758 0.77399999 -0.01085664 1.44721e-38 298 248
-0.028461859 0.773 -0.010842613 1.511747e-38 299 248
-0.027106533 0.773 -0.010842613 1.5668117e-38 300 248
-0.02568458 0.77100003 -0.01081456 1.5115302e-38 301 248
-0.02433276 0.77100003 -0.01081456 1.4655748e-38 302 248
-0.02298094 0.77100003 -0.01081456 1.4378801e-38 303 248
-0.021573013 0.76899999 -0.010786506 1.3920349e-38 304 248
-0.0202247 0.76899999 -0.010786506 1.4012545e-38 305 248
-0.018876385 0.76899999 -0.010786506 1.3919643e-38 306 248
-0.017459691 0.76599997 -0.010744425 1.419659e-38 307 248
-0.016116638 0.76599997 -0.010744425 1.4562861e-38 308 248
-0.014773586 0.76599997 -0.010744425 1.4562861e-38 309 248
-0.013395466 0.764 -0.010716373 1.428735e-38 310 248
-0.01205592 0.764 -0.010716373 1.428735e-38 311 248
-0.01068832 0.76200002 -0.01068832 1.428735e-38 312 248
-0.0093522798 0.76200002 -0.01068832 1.428735e-38 313 248
-0.0080057196 0.76099998 -0.010674292 1.4287704e-38 314 248
-0.0066714329 0.76099998 -0.010674292 1.4287704e-38 315 248
-0.0053371461 0.76099998 -0.010674292 1.4379899e-38 316 248
-0.0039923396 0.759 -0.01064624 1.4564649e-38 317 248
-0.00266156 0.759 -0.01064624 1.4839438e-38 318 248
-0.0013272733 0.75700003 -0.010618187 1.4839438e-38 319 248
0 0.755 -0.010590133 1.5023469e-38 320 248
0.0013220133 0.75400001 -0.010576107 1.5023469e-38 321 248
0.0026440267 0.75400001 -0.010576107 1.5023823e-38 322 248
0.0039555198 0.75199997 -0.010548052 1.5116018e-38 323 248
0.0052740262 0.75199997 -0.010548052 1.520857e-38 324 248
0.006575 0.75 -0.01052 1.5300767e-38 325 248
0.0078794798 0.74900001 -0.010505973 1.539296e-38 326 248
0.0091681797 0.74699998 -0.010477919 1.539296e-38 327 248
0.010477919 0.74699998 -0.010477919 1.530147e-38 328 248
0.011771879 0.74599999 -0.010463892 1.530147e-38 329 248
0.013079867 0.74599999 -0.010463892 1.5577684e-38 330 248
0.014387853 0.74599999 -0.010463892 1.5762076e-38 331 248
0.015653761 0.74400002 -0.01043584 1.6405293e-38 332 248
0.016912652 0.74199998 -0.010407786 1.6958466e-38 333 248
0.018213626 0.74199998 -0.010407786 1.6960278e-38 334 248
0.019488299 0.741 -0.010393759 1.7329421e-38 335 248
0.020787518 0.741 -0.010393759 1.7789679e-38 336 248
0.022027127 0.73900002 -0.010365707 1.797371e-38 337 248
0.023322839 0.73900002 -0.010365707 1.8066256e-38 338 248
0.024618553 0.73900002 -0.010365707 1.8158453e-38 339 248
0.025914267 0.73900002 -0.010365707 1.8434317e-38 340 248
0.027173158 0.73799998 -0.010351679 1.8434317e-38 341 248
0.028312827 0.73400003 -0.010295574 1.8801657e-38 342 248
0.029599773 0.73400003 -0.010295574 1.8893853e-38 343 248
0.03076048 0.73100001 -0.010253493 1.9077518e-38 344 248
0.031998333 0.73000002 -0.010239467 1.9169714e-38 345 248
0.033278264 0.73000002 -0.010239467 1.916972e-38 346 248
0.034463517 0.72799999 -0.010211413 1.916972e-38 347 248
0.035739943 0.72799999 -0.010211413 1.8986051e-38 348 248
0.037016369 0.72799999 -0.010211413 1.9078247e-38 349 248
0.038240198 0.727 -0.010197386 1.8986051e-38 350 248
0.039514873 0.727 -0.010197386 1.8893856e-38 351 248
0.040789545 0.727 -0.010197386 1.8800936e-38 352 248
0.042064216 0.727 -0.010197386 1.8800936e-38 353 248
0.043338891 0.727 -0.010197386 1.870874e-38 354 248
0.044490833 0.72500002 -0.010169334 1.8524347e-38 355 248
0.045572639 0.722 -0.010127253 1.8156654e-38 356 248
0.046838548 0.722 -0.010127253 1.7972623e-38 357 248
0.0479712 0.72000003 -0.010099201 1.6960308e-38 358 248
0.049165215 0.71899998 -0.010085173 1.6960308e-38 359 248
0.0502856 0.71700001 -0.01005712 1.6318959e-38 360 248
0.051542737 0.71700001 -0.01005712 1.7794087e-38 361 248
-0.033927001 0.77399999 -0.01221372 1.4748701e-38 295 249
-0.032569919 0.77399999 -0.01221372 1.4655766e-38 296 249
-0.031212838 0.77399999 -0.01221372 1.437918e-38 297 249
-0.029855758 0.77399999 -0.01221372 1.3826725e-38 298 249
-0.028461859 0.773 -0.012197939 1.391928e-38 299 249
-0.027106533 0.773 -0.012197939 1.4563565e-38 300 249
-0.02568458 0.77100003 -0.01216638 1.4379532e-38 301 249
-0.02433276 0.77100003 -0.01216638 1.4104743e-38 302 249
-0.02298094 0.77100003 -0.01216638 1.4012189e-38 303 249
-0.021573013 0.76899999 -0.012134819 1.4012561e-38 304 249
-0.0202247 0.76899999 -0.012134819 1.4012561e-38 305 249
-0.018827293 0.76700002 -0.01210326 1.4011485e-38 306 249
-0.017459691 0.76599997 -0.012087479 1.4104041e-38 307 249
-0.016116638 0.76599997 -0.012087479 1.4104041e-38 308 249
-0.014735013 0.764 -0.01205592 1.4104041e-38 309 249
-0.013395466 0.764 -0.01205592 1.4103685e-38 310 249
-0.012008579 0.76099998 -0.012008579 1.4103685e-38 311 249
-0.010674292 0.76099998 -0.012008579 1.4103685e-38 312 249
-0.0093400059 0.76099998 -0.012008579 1.4103685e-38 313 249
-0.0080057196 0.76099998 -0.012008579 1.4104041e-38 314 249
-0.0066714329 0.76099998 -0.012008579 1.4104041e-38 315 249
-0.0053231199 0.759 -0.01197702 1.4104038e-38 316 249
-0.0039923396 0.759 -0.01197702 1.4380265e-38 317 249
-0.0026545466 0.75700003 -0.01194546 1.4747608e-38 318 249
-0.0013272733 0.75700003 -0.01194546 1.4747608e-38 319 249
0 0.755 -0.011913899 1.4839085e-38 320 249
0.0013220133 0.75400001 -0.01189812 1.4839085e-38 321 249
0.0026440267 0.75400001 -0.01189812 1.4747606e-38 322 249
0.0039555198 0.75199997 -0.011866559 1.4932356e-38 323 249
0.00526 0.75 -0.011835 1.502455e-38 324 249
0.0065662335 0.74900001 -0.01181922 1.502455e-38 325 249
0.0078794798 0.74900001 -0.01181922 1.5025255e-38 326 249
0.0091681797 0.74699998 -0.011787659 1.5025255e-38 327 249
0.010477919 0.74699998 -0.011787659 1.530148e-38 328 249
0.011771879 0.74599999 -0.011771879 1.5394034e-38 329 249
0.013079867 0.74599999 -0.011771879 1.5485508e-38 330 249
0.01434928 0.74400002 -0.011740319 1.5485508e-38 331 249
0.015611678 0.74199998 -0.01170876 1.6037602e-38 332 249
0.016912652 0.74199998 -0.01170876 1.631419e-38 333 249
0.018213626 0.74199998 -0.01170876 1.6131243e-38 334 249
0.019488299 0.741 -0.01169298 1.6592222e-38 335 249
0.020731414 0.73900002 -0.01166142 1.7052479e-38 336 249
0.021997318 0.73799998 -0.011645639 1.7329068e-38 337 249
0.023291279 0.73799998 -0.011645639 1.7698199e-38 338 249
0.024518613 0.736 -0.01161408 1.7698199e-38 339 249
0.025809066 0.736 -0.01161408 1.8157733e-38 340 249
0.02702588 0.73400003 -0.011582521 1.8250288e-38 341 249
0.028274251 0.73299998 -0.011566739 1.8526149e-38 342 249
0.029438468 0.73000002 -0.011519399 1.8526149e-38 343 249
0.030718399 0.73000002 -0.011519399 1.9077165e-38 344 249
0.031910665 0.72799999 -0.01148784 1.916972e-38 345 249
0.033187091 0.72799999 -0.01148784 1.9169364e-38 346 249
0.034463517 0.72799999 -0.01148784 1.9169364e-38 347 249
0.035739943 0.72799999 -0.01148784 1.9169364e-38 348 249
0.036965527 0.727 -0.01147206 1.9169364e-38 349 249
0.038240198 0.727 -0.01147206 1.8986404e-38 350 249
0.039514873 0.727 -0.01147206 1.8894209e-38 351 249
0.040677335 0.72500002 -0.0114405 1.8985676e-38 352 249
0.041948501 0.72500002 -0.0114405 1.8801645e-38 353 249
0.043219667 0.72500002 -0.0114405 1.8709446e-38 354 249
0.044490833 0.72500002 -0.0114405 1.8617249e-38 355 249
0.045572639 0.722 -0.01139316 1.8248834e-38 356 249
0.0467088 0.72000003 -0.011361601 1.8064443e-38 357 249
0.04790457 0.71899998 -0.01134582 1.742017e-38 358 249
0.04902846 0.71700001 -0.01131426 1.7143225e-38 359 249
0.050215468 0.71600002 -0.01129848 1.6499351e-38 360 249
0.051470853 0.71600002 -0.01129848 1.714472e-38 361 249
0.052726239 0.71600002 -0.01129848 1.6689201e-38 362 249
-0.033927001 0.77399999 -0.013570799 1.4195507e-38 295 250
-0.032569919 0.77399999 -0.013570799 1.3827081e-38 296 250
-0.031212838 0.77399999 -0.013570799 1.3734886e-38 297 250
-0.029855758 0.77399999 -0.013570799 1.3458669e-38 298 250
-0.028498679 0.77399999 -0.013570799 1.3274276e-38 299 250
-0.027141599 0.77399999 -0.013570799 1.3368271e-38 300 250
-0.025751207 0.773 -0.013553266 1.3552302e-38 301 250
-0.02433276 0.77100003 -0.013518199 1.3644498e-38 302 250
-0.02298094 0.77100003 -0.013518199 1.3737052e-38 303 250
-0.021573013 0.76899999 -0.013483133 1.3736333e-38 304 250
-0.0202247 0.76899999 -0.013483133 1.3736333e-38 305 250
-0.018827293 0.76700002 -0.013448066 1.3919646e-38 306 250
-0.017459691 0.76599997 -0.013430533 1.3919646e-38 307 250
-0.016116638 0.76599997 -0.013430533 1.4011488e-38 308 250
-0.014735013 0.764 -0.013395466 1.4011488e-38 309 250
-0.013395466 0.764 -0.013395466 1.419445e-38 310 250
-0.012008579 0.76099998 -0.013342866 1.419445e-38 311 250
-0.010674292 0.76099998 -0.013342866 1.4011491e-38 312 250
-0.0093400059 0.76099998 -0.013342866 1.4011491e-38 313 250
-0.0080057196 0.76099998 -0.013342866 1.4195156e-38 314 250
-0.0066714329 0.76099998 -0.013342866 1.4195156e-38 315 250
-0.0053231199 0.759 -0.0133078 1.4195156e-38 316 250
-0.0039923396 0.759 -0.0133078 1.4287353e-38 317 250
-0.0026545466 0.75700003 -0.013272733 1.4379549e-38 318 250
-0.0013272733 0.75700003 -0.013272733 1.4471745e-38 319 250
0 0.755 -0.013237666 1.4655057e-38 320 250
0.0013220133 0.75400001 -0.013220133 1.4655057e-38 321 250
0.0026440267 0.75400001 -0.013220133 1.4747611e-38 322 250
0.0039555198 0.75199997 -0.013185065 1.4839807e-38 323 250
0.00526 0.75 -0.01315 1.4839801e-38 324 250
0.0065662335 0.74900001 -0.013132467 1.4839801e-38 325 250
0.0078584393 0.74699998 -0.013097399 1.4841224e-38 326 250
0.0091681797 0.74699998 -0.013097399 1.4841224e-38 327 250
0.010463892 0.74599999 -0.013079867 1.5209637e-38 328 250
0.011771879 0.74599999 -0.013079867 1.5301833e-38 329 250
0.0130448 0.74400002 -0.0130448 1.539331e-38 330 250
0.01434928 0.74400002 -0.0130448 1.5485864e-38 331 250
0.015611678 0.74199998 -0.013009733 1.5853217e-38 332 250
0.016889861 0.741 -0.0129922 1.6129446e-38 333 250
0.018189078 0.741 -0.0129922 1.5854303e-38 334 250
0.019488299 0.741 -0.0129922 1.6131249e-38 335 250
0.020731414 0.73900002 -0.012957133 1.6223795e-38 336 250
0.021937706 0.736 -0.012904533 1.6684773e-38 337 250
0.023228159 0.736 -0.012904533 1.7237577e-38 338 250
0.024451986 0.73400003 -0.012869466 1.742197e-38 339 250
0.025738932 0.73400003 -0.012869466 1.8065893e-38 340 250
0.026989058 0.73299998 -0.012851933 1.8065893e-38 341 250
0.028197108 0.73100001 -0.012816866 1.8433954e-38 342 250
0.029357811 0.72799999 -0.012764266 1.8526149e-38 343 250
0.030634239 0.72799999 -0.012764266 1.880166e-38 344 250
0.031910665 0.72799999 -0.012764266 1.8893856e-38 345 250
0.033187091 0.72799999 -0.012764266 1.8893856e-38 346 250
0.03441618 0.727 -0.012746733 1.8893856e-38 347 250
0.035690852 0.727 -0.012746733 1.9077165e-38 348 250
0.036863834 0.72500002 -0.012711667 1.9077165e-38 349 250
0.038029801 0.72299999 -0.012676599 1.8894206e-38 350 250
0.039297458 0.72299999 -0.012676599 1.8894206e-38 351 250
0.040565118 0.72299999 -0.012676599 1.8894556e-38 352 250
0.041832779 0.72299999 -0.012676599 1.8894556e-38 353 250
0.043100435 0.72299999 -0.012676599 1.8984954e-38 354 250
0.044368099 0.72299999 -0.012676599 1.8892759e-38 355 250
0.045446403 0.72000003 -0.012624 1.8525054e-38 356 250
0.046643924 0.71899998 -0.012606465 1.8340304e-38 357 250
0.04777132 0.71700001 -0.0125714 1.8064445e-38 358 250
0.04902846 0.71700001 -0.0125714 1.7695663e-38 359 250
0.050215468 0.71600002 -0.012553867 1.741982e-38 360 250
0.051470853 0.71600002 -0.012553867 1.6866648e-38 361 250
0.052726239 0.71600002 -0.012553867 1.5488087e-38 362 250
0.053981625 0.71600002 -0.012553867 1.6963217e-38 363 250
-0.034014668 0.77600002 -0.014966453 1.3182428e-38 295 251
-0.032654081 0.77600002 -0.014966453 1.3089879e-38 296 251
-0.031212838 0.77399999 -0.014927879 1.3274629e-38 297 251
-0.029855758 0.77399999 -0.014927879 1.3366472e-38 298 251
-0.028498679 0.77399999 -0.014927879 1.3458669e-38 299 251
-0.027141599 0.77399999 -0.014927879 1.355122e-38 300 251
-0.025751207 0.773 -0.014908593 1.3735251e-38 301 251
-0.024395877 0.773 -0.014908593 1.3736328e-38 302 251
-0.02298094 0.77100003 -0.01487002 1.3828523e-38 303 251
-0.021573013 0.76899999 -0.014831445 1.3736328e-38 304 251
-0.0202247 0.76899999 -0.014831445 1.3644132e-38 305 251
-0.018876385 0.76899999 -0.014831445 1.382745e-38 306 251
-0.017459691 0.76599997 -0.014773586 1.382745e-38 307 251
-0.016074561 0.764 -0.014735013 1.4010769e-38 308 251
-0.014735013 0.764 -0.014735013 1.4010769e-38 309 251
-0.013395466 0.764 -0.014735013 1.4010772e-38 310 251
-0.01202436 0.76200002 -0.01469644 1.4010772e-38 311 251
-0.01068832 0.76200002 -0.01469644 1.4010769e-38 312 251
-0.0093400059 0.76099998 -0.014677152 1.4010769e-38 313 251
-0.0080057196 0.76099998 -0.014677152 1.4194437e-38 314 251
-0.0066714329 0.76099998 -0.014677152 1.4194437e-38 315 251
-0.0053231199 0.759 -0.014638579 1.4194437e-38 316 251
-0.0039923396 0.759 -0.014638579 1.4286633e-38 317 251
-0.0026545466 0.75700003 -0.014600007 1.4286633e-38 318 251
-0.0013272733 0.75700003 -0.014600007 1.437883e-38 319 251
0 0.755 -0.014561433 1.4745455e-38 320 251
0.0013220133 0.75400001 -0.014542146 1.4838009e-38 321 251
0.0026440267 0.75400001 -0.014542146 1.4747608e-38 322 251
0.0039555198 0.75199997 -0.014503572 1.4839804e-38 323 251
0.00526 0.75 -0.014465 1.4747606e-38 324 251
0.0065662335 0.74900001 -0.014445714 1.4747606e-38 325 251
0.0078584393 0.74699998 -0.014407139 1.484051e-38 326 251
0.0091681797 0.74699998 -0.014407139 1.484051e-38 327 251
0.010463892 0.74599999 -0.014387853 1.5025255e-38 328 251
0.011771879 0.74599999 -0.014387853 1.5025255e-38 329 251
0.0130448 0.74400002 -0.01434928 1.5393315e-38 330 251
0.01434928 0.74400002 -0.01434928 1.5485511e-38 331 251
0.015611678 0.74199998 -0.014310705 1.5761019e-38 332 251
0.016889861 0.741 -0.01429142 1.6037604e-38 333 251
0.018189078 0.741 -0.01429142 1.6129448e-38 334 251
0.019488299 0.741 -0.01429142 1.631384e-38 335 251
0.020731414 0.73900002 -0.014252847 1.6039404e-38 336 251
0.021937706 0.736 -0.014194986 1.6039404e-38 337 251
0.023165042 0.73400003 -0.014156413 1.6316708e-38 338 251
0.024451986 0.73400003 -0.014156413 1.686988e-38 339 251
0.025703866 0.73299998 -0.014137126 1.733014e-38 340 251
0.026915418 0.73100001 -0.014098554 1.7514531e-38 341 251
0.028158534 0.73000002 -0.014079267 1.8249205e-38 342 251
0.029357811 0.72799999 -0.014040692 1.8433598e-38 343 251
0.030592158 0.727 -0.014021406 1.8617263e-38 344 251
0.03186683 0.727 -0.014021406 1.8709459e-38 345 251
0.033050332 0.72500002 -0.013982833 1.8709459e-38 346 251
0.03422682 0.72299999 -0.01394426 1.8709459e-38 347 251
0.035494477 0.72299999 -0.01394426 1.9076802e-38 348 251
0.03671129 0.722 -0.013924973 1.9076802e-38 349 251
0.0379772 0.722 -0.013924973 1.9077518e-38 350 251
0.039243106 0.722 -0.013924973 1.8985323e-38 351 251
0.040509012 0.722 -0.013924973 1.8986758e-38 352 251
0.041774917 0.722 -0.013924973 1.8894203e-38 353 251
0.043040827 0.722 -0.013924973 1.9077153e-38 354 251
0.044183999 0.72000003 -0.0138864 1.8984957e-38 355 251
0.045257039 0.71700001 -0.013828539 1.8800206e-38 356 251
0.046514176 0.71700001 -0.013828539 1.8523979e-38 357 251
0.04777132 0.71700001 -0.013828539 1.8340304e-38 358 251
0.048960082 0.71600002 -0.013809253 1.797188e-38 359 251
0.050215468 0.71600002 -0.013809253 1.7513423e-38 360 251
0.051470853 0.71600002 -0.013809253 1.7236477e-38 361 251
0.052578956 0.71399999 -0.01377068 1.649932e-38 362 251
0.053830836 0.71399999 -0.01377068 1.6591515e-38 363 251
-0.032569919 0.77399999 -0.016284959 1.2353786e-38 296 252
-0.031212838 0.77399999 -0.016284959 1.2630371e-38 297 252
-0.029855758 0.77399999 -0.016284959 1.2998778e-38 298 252
-0.028498679 0.77399999 -0.016284959 1.2906582e-38 299 252
-0.027141599 0.77399999 -0.016284959 1.3090611e-38 300 252
-0.025751207 0.773 -0.016263919 1.3459035e-38 301 252
-0.024395877 0.773 -0.016263919 1.3367565e-38 302 252
-0.02298094 0.77100003 -0.016221842 1.3367565e-38 303 252
-0.021573013 0.76899999 -0.016179759 1.3276088e-38 304 252
-0.0202247 0.76899999 -0.016179759 1.3183892e-38 305 252
-0.018876385 0.76899999 -0.016179759 1.3367568e-38 306 252
-0.017459691 0.76599997 -0.016116638 1.3367568e-38 307 252
-0.016074561 0.764 -0.016074561 1.3734192e-38 308 252
-0.014735013 0.764 -0.016074561 1.3826746e-38 309 252
-0.0133604 0.76200002 -0.01603248 1.3643431e-38 310 252
-0.01202436 0.76200002 -0.01603248 1.3643431e-38 311 252
-0.01068832 0.76200002 -0.01603248 1.3735624e-38 312 252
-0.0093400059 0.76099998 -0.016011439 1.3643429e-38 313 252
-0.0080057196 0.76099998 -0.016011439 1.3826744e-38 314 252
-0.0066714329 0.76099998 -0.016011439 1.3734548e-38 315 252
-0.0053231199 0.759 -0.015969358 1.3826025e-38 316 252
-0.0039923396 0.759 -0.015969358 1.3826025e-38 317 252
-0.00266156 0.759 -0.015969358 1.3826378e-38 318 252
-0.00133078 0.759 -0.015969358 1.3826378e-38 319 252
0 0.75700003 -0.015927281 1.4194437e-38 320 252
0.0013220133 0.75400001 -0.01586416 1.4562861e-38 321 252
0.0026440267 0.75400001 -0.01586416 1.4747611e-38 322 252
0.0039555198 0.75199997 -0.015822079 1.4747611e-38 323 252
0.0052740262 0.75199997 -0.015822079 1.4379915e-38 324 252
0.006575 0.75 -0.01578 1.4379915e-38 325 252
0.0078794798 0.74900001 -0.01575896 1.456394e-38 326 252
0.0091681797 0.74699998 -0.015716879 1.4656495e-38 327 252
0.010463892 0.74599999 -0.015695838 1.4840876e-38 328 252
0.011771879 0.74599999 -0.015695838 1.4933073e-38 329 252
0.0130448 0.74400002 -0.015653761 1.530113e-38 330 252
0.01434928 0.74400002 -0.015653761 1.5393325e-38 331 252
0.015611678 0.74199998 -0.015611678 1.5761385e-38 332 252
0.016889861 0.741 -0.01559064 1.5853939e-38 333 252
0.018189078 0.741 -0.01559064 1.5946133e-38 334 252
0.0194357 0.73900002 -0.01554856 1.6038329e-38 335 252
0.020731414 0.73900002 -0.01554856 1.6038332e-38 336 252
0.021937706 0.736 -0.015485439 1.6130527e-38 337 252
0.023165042 0.73400003 -0.01544336 1.6039404e-38 338 252
0.024451986 0.73400003 -0.01544336 1.6223795e-38 339 252
0.025703866 0.73299998 -0.015422319 1.6592925e-38 340 252
0.026804959 0.72799999 -0.01531712 1.7238294e-38 341 252
0.028081384 0.72799999 -0.01531712 1.7697831e-38 342 252
0.029317487 0.727 -0.015296079 1.7790026e-38 343 252
0.030508002 0.72500002 -0.015254001 1.8341401e-38 344 252
0.031779166 0.72500002 -0.015254001 1.8433598e-38 345 252
0.032959159 0.72299999 -0.015211919 1.861691e-38 346 252
0.034179479 0.722 -0.015190879 1.8709106e-38 347 252
0.035445385 0.722 -0.015190879 1.8800938e-38 348 252
0.036609601 0.72000003 -0.0151488 1.8800938e-38 349 252
0.037871998 0.72000003 -0.0151488 1.898497e-38 350 252
0.039134402 0.72000003 -0.0151488 1.9077165e-38 351 252
0.040396802 0.72000003 -0.0151488 1.8894203e-38 352 252
0.041659199 0.72000003 -0.0151488 1.8894203e-38 353 252
0.042861983 0.71899998 -0.01512776 1.9169701e-38 354 252
0.044122629 0.71899998 -0.01512776 1.9077506e-38 355 252
0.045193922 0.71600002 -0.01506464 1.916862e-38 356 252
0.046449307 0.71600002 -0.01506464 1.8892391e-38 357 252
0.047571439 0.71399999 -0.015022559 1.8707995e-38 358 252
0.048754938 0.713 -0.015001519 1.8339571e-38 359 252
0.050005067 0.713 -0.015001519 1.7696366e-38 360 252
0.051255193 0.713 -0.015001519 1.7604171e-38 361 252
0.052358042 0.71100003 -0.014959441 1.7327959e-38 362 252
0.053604662 0.71100003 -0.014959441 1.668259e-38 363 252
0.054851279 0.71100003 -0.014959441 1.4934889e-38 364 252
-0.031212838 0.77399999 -0.01764204 1.2259425e-38 297 253
-0.029855758 0.77399999 -0.01764204 1.2167933e-38 298 253
-0.028498679 0.77399999 -0.01764204 1.1983181e-38 299 253
-0.027141599 0.77399999 -0.01764204 1.207645e-38 300 253
-0.025751207 0.773 -0.017619247 1.2445592e-38 301 253
-0.024395877 0.773 -0.017619247 1.253779e-38 302 253
-0.02298094 0.77100003 -0.01757366 1.2906214e-38 303 253
-0.021573013 0.76899999 -0.017528072 1.2998412e-38 304 253
-0.0202247 0.76899999 -0.017528072 1.3182804e-38 305 253
-0.018876385 0.76899999 -0.017528072 1.3549434e-38 306 253
-0.017459691 0.76599997 -0.017459691 1.3549434e-38 307 253
-0.016074561 0.764 -0.017414106 1.3640908e-38 308 253
-0.014735013 0.764 -0.017414106 1.3733463e-38 309 253
-0.0133604 0.76200002 -0.01736852 1.3826731e-38 310 253
-0.01202436 0.76200002 -0.01736852 1.3826731e-38 311 253
-0.01068832 0.76200002 -0.01736852 1.3734177e-38 312 253
-0.0093400059 0.76099998 -0.017345725 1.3734177e-38 313 253
-0.0080057196 0.76099998 -0.017345725 1.3732377e-38 314 253
-0.0066714329 0.76099998 -0.017345725 1.3732377e-38 315 253
-0.0053231199 0.759 -0.017300138 1.3640182e-38 316 253
-0.0039923396 0.759 -0.017300138 1.3271759e-38 317 253
-0.00266156 0.759 -0.017300138 1.2811488e-38 318 253
-0.00133078 0.759 -0.017300138 1.2718933e-38 319 253
0 0.75700003 -0.017254554 1.3270305e-38 320 253
0.0013220133 0.75400001 -0.017186172 1.3823479e-38 321 253
0.0026440267 0.75400001 -0.017186172 1.3641614e-38 322 253
0.0039555198 0.75199997 -0.017140586 1.3917842e-38 323 253
0.0052740262 0.75199997 -0.017140586 1.4194081e-38 324 253
0.006575 0.75 -0.017095 1.4562864e-38 325 253
0.0078794798 0.74900001 -0.017072206 1.4654338e-38 326 253
0.0091681797 0.74699998 -0.017026618 1.4746892e-38 327 253
0.010463892 0.74599999 -0.017003827 1.5023467e-38 328 253
0.011771879 0.74599999 -0.017003827 1.5116021e-38 329 253
0.0130448 0.74400002 -0.016958239 1.5575921e-38 330 253
0.01434928 0.74400002 -0.016958239 1.5668117e-38 331 253
0.01559064 0.741 -0.016889861 1.5944337e-38 332 253
0.016889861 0.741 -0.016889861 1.6128728e-38 333 253
0.018139986 0.73900002 -0.016844273 1.6037604e-38 334 253
0.0194357 0.73900002 -0.016844273 1.6129802e-38 335 253
0.020703359 0.73799998 -0.016821479 1.6129799e-38 336 253
0.021878093 0.73400003 -0.016730307 1.6221994e-38 337 253
0.023133477 0.73299998 -0.016707512 1.6222347e-38 338 253
0.024418673 0.73299998 -0.016707512 1.6037955e-38 339 253
0.025633732 0.73100001 -0.016661927 1.66826e-38 340 253
0.026804959 0.72799999 -0.016593546 1.7143578e-38 341 253
0.028042812 0.727 -0.016570752 1.7329044e-38 342 253
0.029317487 0.727 -0.016570752 1.7697828e-38 343 253
0.030508002 0.72500002 -0.016525166 1.8432149e-38 344 253
0.031647664 0.722 -0.016456785 1.861654e-38 345 253
0.032913569 0.722 -0.016456785 1.861654e-38 346 253
0.034084801 0.72000003 -0.0164112 1.8709096e-38 347 253
0.035347197 0.72000003 -0.0164112 1.8892405e-38 348 253
0.036609601 0.72000003 -0.0164112 1.8984601e-38 349 253
0.037819397 0.71899998 -0.016388407 1.898532e-38 350 253
0.039080046 0.71899998 -0.016388407 1.898532e-38 351 253
0.040340692 0.71899998 -0.016388407 1.9169714e-38 352 253
0.041485619 0.71700001 -0.016342819 1.9077518e-38 353 253
0.042683143 0.71600002 -0.016320027 1.9168995e-38 354 253
0.043938532 0.71600002 -0.016320027 1.9076799e-38 355 253
0.045067675 0.71399999 -0.016274439 1.8984601e-38 356 253
0.046319555 0.71399999 -0.016274439 1.8800208e-38 357 253
0.047504812 0.713 -0.016251646 1.8524698e-38 358 253
0.048754938 0.713 -0.016251646 1.8156275e-38 359 253
0.050005067 0.713 -0.016251646 1.732831e-38 360 253
0.051111419 0.71100003 -0.01620606 1.6959167e-38 361 253
0.052284397 0.70999998 -0.016183265 1.6960253e-38 362 253
0.053529263 0.70999998 -0.016183265 1.6960253e-38 363 253
0.054774132 0.70999998 -0.016183265 1.6681902e-38 364 253
-0.0202247 0.76899999 -0.018876385 1.235486e-38 305 254
-0.018876385 0.76899999 -0.018876385 1.2905157e-38 306 254
-0.017459691 0.76599997 -0.018802745 1.2997712e-38 307 254
-0.016116638 0.76599997 -0.018802745 1.2906232e-38 308 254
-0.014773586 0.76599997 -0.018802745 1.2998428e-38 309 254
-0.013395466 0.764 -0.018753653 1.3090979e-38 310 254
-0.01205592 0.764 -0.018753653 1.3090979e-38 311 254
-0.01068832 0.76200002 -0.01870456 1.3182806e-38 312 254
-0.0093400059 0.76099998 -0.018680012 1.3090611e-38 313 254
-0.0080057196 0.76099998 -0.018680012 1.327392e-38 314 254
-0.0066714329 0.76099998 -0.018680012 1.3089529e-38 315 254
-0.0053371461 0.76099998 -0.018680012 1.3089532e-38 316 254
-0.0039923396 0.759 -0.01863092 1.2905142e-38 317 254
-0.00266156 0.759 -0.01863092 1.2903343e-38 318 254
-0.00133078 0.759 -0.01863092 1.2718951e-38 319 254
0 0.75700003 -0.018581826 1.2994096e-38 320 254
0.0013272733 0.75700003 -0.018581826 1.2901901e-38 321 254
0.0026440267 0.75400001 -0.018508185 1.2351242e-38 322 254
0.00396604 0.75400001 -0.018508185 1.2443438e-38 323 254
0.0052740262 0.75199997 -0.018459093 1.272147e-38 324 254
0.006575 0.75 -0.018409999 1.3182806e-38 325 254
0.0078794798 0.74900001 -0.018385453 1.4194432e-38 326 254
0.0091681797 0.74699998 -0.018336359 1.465541e-38 327 254
0.010463892 0.74599999 -0.018311813 1.5023467e-38 328 254
0.011771879 0.74599999 -0.018311813 1.5116021e-38 329 254
0.0130448 0.74400002 -0.01826272 1.5208231e-38 330 254
0.014310705 0.74199998 -0.018213626 1.5300426e-38 331 254
0.01559064 0.741 -0.018189078 1.5668486e-38 332 254
0.016889861 0.741 -0.018189078 1.5760681e-38 333 254
0.018139986 0.73900002 -0.018139986 1.6036895e-38 334 254
0.0194357 0.73900002 -0.018139986 1.6036895e-38 335 254
0.020703359 0.73799998 -0.018115439 1.6129802e-38 336 254
0.021878093 0.73400003 -0.018017253 1.6221997e-38 337 254
0.023133477 0.73299998 -0.017992707 1.6038685e-38 338 254
0.024418673 0.73299998 -0.017992707 1.6130881e-38 339 254
0.025598666 0.73000002 -0.017919067 1.6224501e-38 340 254
0.026804959 0.72799999 -0.017869972 1.6131947e-38 341 254
0.028042812 0.727 -0.017845426 1.6683672e-38 342 254
0.029236834 0.72500002 -0.017796334 1.714501e-38 343 254
0.030381758 0.722 -0.017722692 1.7972973e-38 344 254
0.03156 0.72000003 -0.017673599 1.8341754e-38 345 254
0.0328224 0.72000003 -0.017673599 1.8248839e-38 346 254
0.03403746 0.71899998 -0.017649053 1.8433231e-38 347 254
0.035298105 0.71899998 -0.017649053 1.8433951e-38 348 254
0.036457058 0.71700001 -0.017599959 1.8526147e-38 349 254
0.037661601 0.71600002 -0.017575413 1.8526147e-38 350 254
0.038808275 0.71399999 -0.017526319 1.8618342e-38 351 254
0.040060159 0.71399999 -0.017526319 1.8802373e-38 352 254
0.041312039 0.71399999 -0.017526319 1.8802373e-38 353 254
0.042504307 0.713 -0.017501773 1.9077874e-38 354 254
0.043754432 0.713 -0.017501773 1.898532e-38 355 254
0.044815198 0.70999998 -0.017428132 1.9077506e-38 356 254
0.046060063 0.70999998 -0.017428132 1.8892756e-38 357 254
0.047304932 0.70999998 -0.017428132 1.870836e-38 358 254
0.048549797 0.70999998 -0.017428132 1.8524329e-38 359 254
0.049794663 0.70999998 -0.017428132 1.7970429e-38 360 254
0.051039528 0.70999998 -0.017428132 1.7509451e-38 361 254
0.052137118 0.708 -0.017379038 1.760237e-38 362 254
0.053378478 0.708 -0.017379038 1.760237e-38 363 254
0.054542694 0.70700002 -0.017354494 1.7234678e-38 364 254
0.055782299 0.70700002 -0.017354494 1.6589308e-38 365 254
0.057021905 0.70700002 -0.017354494 1.4935239e-38 366 254
-0.017482487 0.76700002 -0.020172099 1.2537434e-38 307 255
-0.016116638 0.76599997 -0.020145798 1.2537437e-38 308 255
-0.014773586 0.76599997 -0.020145798 1.272147e-38 309 255
-0.013430533 0.76599997 -0.020145798 1.2906217e-38 310 255
-0.01205592 0.764 -0.020093199 1.2906217e-38 311 255
-0.01068832 0.76200002 -0.0200406 1.2906214e-38 312 255
-0.0093522798 0.76200002 -0.0200406 1.2906214e-38 313 255
-0.0080057196 0.76099998 -0.020014299 1.290657e-38 314 255
-0.0066714329 0.76099998 -0.020014299 1.290657e-38 315 255
-0.0053371461 0.76099998 -0.020014299 1.2905845e-38 316 255
-0.0040028598 0.76099998 -0.020014299 1.281365e-38 317 255
-0.00266156 0.759 -0.0199617 1.2997315e-38 318 255
-0.00133078 0.759 -0.0199617 1.2812922e-38 319 255
0 0.759 -0.0199617 1.2812925e-38 320 255
0.0013272733 0.75700003 -0.019909101 1.2628535e-38 321 255
0.0026545466 0.75700003 -0.019909101 1.2260482e-38 322 255
0.00396604 0.75400001 -0.019830201 1.207573e-38 323 255
0.0052740262 0.75199997 -0.0197776 1.170839e-38 324 255
0.0065925326 0.75199997 -0.0197776 1.1893141e-38 325 255
0.00789 0.75 -0.019724999 1.3364671e-38 326 255
0.0091681797 0.74699998 -0.019646099 1.4379183e-38 327 255
0.010463892 0.74599999 -0.019619798 1.4655766e-38 328 255
0.011771879 0.74599999 -0.019619798 1.4840157e-38 329 255
0.0130448 0.74400002 -0.019567199 1.4932353e-38 330 255
0.014310705 0.74199998 -0.0195146 1.5208581e-38 331 255
0.015611678 0.74199998 -0.0195146 1.5575924e-38 332 255
0.016889861 0.741 -0.019488299 1.5760316e-38 333 255
0.018139986 0.73900002 -0.0194357 1.6036177e-38 334 255
0.0194357 0.73900002 -0.0194357 1.6128731e-38 335 255
0.020647252 0.736 -0.019356798 1.6037249e-38 336 255
0.021878093 0.73400003 -0.019304199 1.6129446e-38 337 255
0.023133477 0.73299998 -0.019277899 1.6038685e-38 338 255
0.024352046 0.73100001 -0.019225299 1.6038685e-38 339 255
0.025598666 0.73000002 -0.019199001 1.6314546e-38 340 255
0.026768139 0.727 -0.019120099 1.6314546e-38 341 255
0.028042812 0.727 -0.019120099 1.613195e-38 342 255
0.029115854 0.722 -0.0189886 1.6592928e-38 343 255
0.0302976 0.72000003 -0.018935999 1.742124e-38 344 255
0.03156 0.72000003 -0.018935999 1.7697828e-38 345 255
0.032776814 0.71899998 -0.018909698 1.8339953e-38 346 255
0.033942781 0.71700001 -0.018857099 1.8524345e-38 347 255
0.035052639 0.71399999 -0.018778199 1.8433231e-38 348 255
0.036304519 0.71399999 -0.018778199 1.8617263e-38 349 255
0.037503798 0.713 -0.018751899 1.8709815e-38 350 255
0.038645219 0.71100003 -0.0186993 1.880201e-38 351 255
0.039891839 0.71100003 -0.0186993 1.8802008e-38 352 255
0.041080594 0.70999998 -0.018672999 1.8802008e-38 353 255
0.042325463 0.70999998 -0.018672999 1.898532e-38 354 255
0.043570329 0.70999998 -0.018672999 1.898532e-38 355 255
0.044688959 0.708 -0.0186204 1.8985676e-38 356 255
0.045930319 0.708 -0.0186204 1.8801645e-38 357 255
0.047105055 0.70700002 -0.018594101 1.8709792e-38 358 255
0.048344657 0.70700002 -0.018594101 1.8433205e-38 359 255
0.049794663 0.70999998 -0.018672999 1.8340288e-38 360 255
0.050823875 0.70700002 -0.018594101 1.8155896e-38 361 255
0.051989835 0.70599997 -0.018567799 1.7787839e-38 362 255
0.053227689 0.70599997 -0.018567799 1.7695285e-38 363 255
0.054311249 0.704 -0.018515198 1.7236108e-38 364 255
0.055545598 0.704 -0.018515198 1.7051716e-38 365 255
0.056699295 0.70300001 -0.018488899 1.6497858e-38 366 255
0.057931885 0.70300001 -0.018488899 1.5760293e-38 367 255
0.059164476 0.70300001 -0.018488899 1.5308027e-38 368 255
-0.010716373 0.764 -0.021432746 1.263035e-38 312 256
-0.0093768267 0.764 -0.021432746 1.2538154e-38 313 256
-0.0080162399 0.76200002 -0.02137664 1.2721823e-38 314 256
-0.0066714329 0.76099998 -0.021348584 1.253779e-38 315 256
-0.0053371461 0.76099998 -0.021348584 1.2537787e-38 316 256
-0.0040028598 0.76099998 -0.021348584 1.2537787e-38 317 256
-0.00266156 0.759 -0.02129248 1.2629257e-38 318 256
-0.00133078 0.759 -0.02129248 1.2629257e-38 319 256
0 0.759 -0.02129248 1.2445589e-38 320 256
0.0013272733 0.75700003 -0.021236373 1.2445589e-38 321 256
0.0026545466 0.75700003 -0.021236373 1.2445594e-38 322 256
0.00396604 0.75400001 -0.021152213 1.253779e-38 323 256
0.0052880533 0.75400001 -0.021152213 1.2628551e-38 324 256
0.0065925326 0.75199997 -0.021096105 1.2628551e-38 325 256
0.00789 0.75 -0.02104 1.3179204e-38 326 256
0.0091927266 0.74900001 -0.021011947 1.410152e-38 327 256
0.010477919 0.74699998 -0.020955838 1.428735e-38 328 256
0.011771879 0.74599999 -0.020927785 1.4564296e-38 329 256
0.013079867 0.74599999 -0.020927785 1.4932356e-38 330 256
0.01434928 0.74400002 -0.02087168 1.5208584e-38 331 256
0.015611678 0.74199998 -0.020815572 1.5392256e-38 332 256
0.016889861 0.741 -0.020787518 1.5484452e-38 333 256
0.018139986 0.73900002 -0.020731414 1.5760318e-38 334 256
0.019409399 0.73799998 -0.020703359 1.5852514e-38 335 256
0.020591147 0.73400003 -0.020591147 1.6036898e-38 336 256
0.021848286 0.73299998 -0.020563092 1.6129095e-38 337 256
0.023133477 0.73299998 -0.020563092 1.6221641e-38 338 256
0.024318734 0.73000002 -0.020478934 1.6221641e-38 339 256
0.025528532 0.72799999 -0.020422826 1.6221997e-38 340 256
0.026768139 0.727 -0.020394772 1.6221997e-38 341 256
0.027965667 0.72500002 -0.020338668 1.6131599e-38 342 256
0.029035201 0.72000003 -0.020198401 1.6315991e-38 343 256
0.0302976 0.72000003 -0.020198401 1.695955e-38 344 256
0.031516165 0.71899998 -0.020170346 1.7512363e-38 345 256
0.032685637 0.71700001 -0.020114239 1.7880777e-38 346 256
0.03389544 0.71600002 -0.020086186 1.8157004e-38 347 256
0.035052639 0.71399999 -0.020030079 1.8248484e-38 348 256
0.036253672 0.713 -0.020002026 1.8433234e-38 349 256
0.037398599 0.71100003 -0.01994592 1.8526147e-38 350 256
0.038590867 0.70999998 -0.019917866 1.8526147e-38 351 256
0.039723519 0.708 -0.01986176 1.8802008e-38 352 256
0.040964879 0.708 -0.01986176 1.8802008e-38 353 256
0.042146627 0.70700002 -0.019833706 1.8802008e-38 354 256
0.043386232 0.70700002 -0.019833706 1.8802008e-38 355 256
0.044562716 0.70599997 -0.019805651 1.8985673e-38 356 256
0.045670826 0.704 -0.019749546 1.8801642e-38 357 256
0.046905171 0.704 -0.019749546 1.8893463e-38 358 256
0.048139516 0.704 -0.019749546 1.8708713e-38 359 256
0.049373865 0.704 -0.019749546 1.8433205e-38 360 256
0.050608214 0.704 -0.019749546 1.834101e-38 361 256
0.051842559 0.704 -0.019749546 1.7972949e-38 362 256
0.053076904 0.704 -0.019749546 1.7696722e-38 363 256
0.054311249 0.704 -0.019749546 1.7604168e-38 364 256
0.0554667 0.70300001 -0.019721493 1.7419777e-38 365 256
0.056699295 0.70300001 -0.019721493 1.6866618e-38 366 256
0.057931885 0.70300001 -0.019721493 1.6221249e-38 367 256
0.059164476 0.70300001 -0.019721493 1.5028531e-38 368 256
0.06039707 0.70300001 -0.019721493 1.6227074e-38 369 256
-0.0040028598 0.76099998 -0.022682872 1.2353759e-38 317 257
-0.0026685731 0.76099998 -0.022682872 1.235269e-38 318 257
-0.00133078 0.759 -0.02262326 1.235269e-38 319 257
0 0.759 -0.02262326 1.2353409e-38 320 257
0.0013272733 0.75700003 -0.022563647 1.2353409e-38 321 257
0.0026545466 0.75700003 -0.022563647 1.2353759e-38 322 257
0.0039712996 0.755 -0.022504034 1.2446313e-38 323 257
0.0052880533 0.75400001 -0.022474226 1.2813653e-38 324 257
0.0065925326 0.75199997 -0.022414612 1.2905848e-38 325 257
0.00789 0.75 -0.022355 1.2906214e-38 326 257
0.0091927266 0.74900001 -0.022325192 1.3367192e-38 327 257
0.010477919 0.74699998 -0.022265578 1.3643782e-38 328 257
0.011771879 0.74599999 -0.022235774 1.3828173e-38 329 257
0.013079867 0.74599999 -0.022235774 1.465541e-38 330 257
0.01434928 0.74400002 -0.022176161 1.4839801e-38 331 257
0.015611678 0.74199998 -0.022116546 1.5207868e-38 332 257
0.016889861 0.741 -0.02208674 1.5392259e-38 333 257
0.018115439 0.73799998 -0.021997318 1.5392262e-38 334 257
0.019356798 0.736 -0.021937706 1.5668488e-38 335 257
0.020591147 0.73400003 -0.021878093 1.5852514e-38 336 257
0.021848286 0.73299998 -0.021848286 1.6036547e-38 337 257
0.02307036 0.73100001 -0.021788673 1.5853583e-38 338 257
0.024252106 0.72799999 -0.021699252 1.594578e-38 339 257
0.025528532 0.72799999 -0.021699252 1.6129802e-38 340 257
0.026768139 0.727 -0.021669446 1.6221997e-38 341 257
0.027849946 0.722 -0.021520413 1.6130881e-38 342 257
0.029035201 0.72000003 -0.021460801 1.6314912e-38 343 257
0.030171359 0.71700001 -0.021371379 1.6499653e-38 344 257
0.031384666 0.71600002 -0.021341572 1.6684405e-38 345 257
0.032548878 0.71399999 -0.021281958 1.7420874e-38 346 257
0.033753417 0.713 -0.021252153 1.7605267e-38 347 257
0.035003547 0.713 -0.021252153 1.8157004e-38 348 257
0.036253672 0.713 -0.021252153 1.8249558e-38 349 257
0.037345998 0.70999998 -0.021162732 1.8341751e-38 350 257
0.038482159 0.708 -0.021103119 1.8433948e-38 351 257
0.039611302 0.70599997 -0.021043506 1.8709809e-38 352 257
0.040849157 0.70599997 -0.021043506 1.8709809e-38 353 257
0.041967787 0.704 -0.020983893 1.8801289e-38 354 257
0.043202132 0.704 -0.020983893 1.898532e-38 355 257
0.044436477 0.704 -0.020983893 1.898532e-38 356 257
0.04560595 0.70300001 -0.020954086 1.8801289e-38 357 257
0.046838548 0.70300001 -0.020954086 1.8985304e-38 358 257
0.048071139 0.70300001 -0.020954086 1.8800912e-38 359 257
0.049303733 0.70300001 -0.020954086 1.8434282e-38 360 257
0.050536323 0.70300001 -0.020954086 1.824989e-38 361 257
0.051768921 0.70300001 -0.020954086 1.8065143e-38 362 257
0.053001512 0.70300001 -0.020954086 1.7972946e-38 363 257
0.054234106 0.70300001 -0.020954086 1.7696719e-38 364 257
0.0554667 0.70300001 -0.020954086 1.7512328e-38 365 257
0.056699295 0.70300001 -0.020954086 1.7051719e-38 366 257
0.057767071 0.70099998 -0.020894472 1.6866969e-38 367 257
0.058996156 0.70099998 -0.020894472 1.5670624e-38 368 257
0.06039707 0.70300001 -0.020954086 1.5393678e-38 369 257
0.0026545466 0.75700003 -0.02389092 1.2536355e-38 322 258
0.0039818203 0.75700003 -0.02389092 1.2628551e-38 323 258
0.0052880533 0.75400001 -0.02379624 1.2904768e-38 324 258
0.0065925326 0.75199997 -0.023733119 1.2996965e-38 325 258
0.0079110395 0.75199997 -0.023733119 1.2814369e-38 326 258
0.0092049995 0.75 -0.023669999 1.2999119e-38 327 258
0.010477919 0.74699998 -0.023575317 1.3550134e-38 328 258
0.011787659 0.74699998 -0.023575317 1.3827081e-38 329 258
0.013079867 0.74599999 -0.023543758 1.4012194e-38 330 258
0.014387853 0.74599999 -0.023543758 1.4196587e-38 331 258
0.015611678 0.74199998 -0.023417519 1.4930202e-38 332 258
0.016889861 0.741 -0.023385961 1.539118e-38 333 258
0.018115439 0.73799998 -0.023291279 1.5207865e-38 334 258
0.019356798 0.736 -0.023228159 1.5484452e-38 335 258
0.020591147 0.73400003 -0.023165042 1.5760316e-38 336 258
0.021848286 0.73299998 -0.023133477 1.5852511e-38 337 258
0.023038799 0.73000002 -0.023038799 1.6036895e-38 338 258
0.024252106 0.72799999 -0.022975679 1.6129092e-38 339 258
0.025493465 0.727 -0.022944121 1.6038329e-38 340 258
0.026694499 0.72500002 -0.022880999 1.6038329e-38 341 258
0.027772799 0.72000003 -0.022723202 1.6221994e-38 342 258
0.028994869 0.71899998 -0.022691639 1.631419e-38 343 258
0.03012928 0.71600002 -0.022596961 1.6498934e-38 344 258
0.031384666 0.71600002 -0.022596961 1.6498934e-38 345 258
0.032503292 0.713 -0.022502279 1.7052814e-38 346 258
0.033753417 0.713 -0.022502279 1.7421237e-38 347 258
0.034905359 0.71100003 -0.022439159 1.8249553e-38 348 258
0.036101133 0.70999998 -0.022407599 1.8157357e-38 349 258
0.0372408 0.708 -0.022344479 1.8524698e-38 350 258
0.038373452 0.70599997 -0.022281358 1.8616893e-38 351 258
0.039499093 0.704 -0.022218239 1.8892759e-38 352 258
0.040733438 0.704 -0.022218239 1.8800561e-38 353 258
0.041908171 0.70300001 -0.02218668 1.8892761e-38 354 258
0.043140765 0.70300001 -0.02218668 1.8984957e-38 355 258
0.04437336 0.70300001 -0.02218668 1.8984601e-38 356 258
0.045476202 0.70099998 -0.022123558 1.9077155e-38 357 258
0.046705291 0.70099998 -0.022123558 1.8985673e-38 358 258
0.047865998 0.69999999 -0.022091998 1.8709446e-38 359 258
0.049093332 0.69999999 -0.022091998 1.8617967e-38 360 258
0.050320663 0.69999999 -0.022091998 1.8341739e-38 361 258
0.051547997 0.69999999 -0.022091998 1.8249187e-38 362 258
0.052775331 0.69999999 -0.022091998 1.8156991e-38 363 258
0.054079808 0.70099998 -0.022123558 1.7788562e-38 364 258
0.055229999 0.69999999 -0.022091998 1.7604171e-38 365 258
0.056457333 0.69999999 -0.022091998 1.7236464e-38 366 258
0.05768466 0.69999999 -0.022091998 1.6959517e-38 367 258
0.058911994 0.69999999 -0.022091998 1.631453e-38 368 258
0.060225245 0.70099998 -0.022123558 1.5945388e-38 369 258
0.06145433 0.70099998 -0.022123558 1.493743e-38 370 258
0.0052950666 0.755 -0.025151566 1.2352337e-38 324 259
0.0066100666 0.75400001 -0.025118252 1.2444891e-38 325 259
0.0079110395 0.75199997 -0.025051624 1.2170803e-38 326 259
0.0092295464 0.75199997 -0.025051624 1.2539226e-38 327 259
0.010505973 0.74900001 -0.024951685 1.3182081e-38 328 259
0.011787659 0.74699998 -0.024885058 1.3366472e-38 329 259
0.013097399 0.74699998 -0.024885058 1.318389e-38 330 259
0.014387853 0.74599999 -0.024851745 1.3460835e-38 331 259
0.015653761 0.74400002 -0.02478512 1.4195153e-38 332 259
0.016889861 0.741 -0.024685178 1.4564296e-38 333 259
