# .PCD v.7 - Point Cloud Data file format
FIELDS x y z rgb imX imY
SIZE 4 4 4 4 4 4
TYPE F F F F F F
COUNT 1 1 1 1 1 1
WIDTH 846
HEIGHT 1
VIEWPOINT 0 0 0 1 0 0 0
POINTS 846
DATA ascii
0.082231328 0.69999999 -0.068730667 1.8154863e-38 387 296
0.083220214 0.69800001 -0.068534292 1.8339247e-38 388 296
0.084444039 0.69800001 -0.068534292 1.8431801e-38 389 296
0.085667863 0.69800001 -0.068534292 1.8523997e-38 390 296
0.086767212 0.69700003 -0.068436109 1.8616193e-38 391 296
0.087989278 0.69700003 -0.068436109 1.8616913e-38 392 296
0.089211352 0.69700003 -0.068436109 1.8616913e-38 393 296
0.090433426 0.69700003 -0.068436109 1.8799861e-38 394 296
0.0916555 0.69700003 -0.068436109 1.8707306e-38 395 296
0.092877567 0.69700003 -0.068436109 1.8523631e-38 396 296
0.093964636 0.69599998 -0.068337917 1.8338881e-38 397 296
0.095184952 0.69599998 -0.068337917 1.8154842e-38 398 296
0.096405275 0.69599998 -0.068337917 1.7786061e-38 399 296
0.097625598 0.69599998 -0.068337917 1.760202e-38 400 296
0.098987937 0.69700003 -0.068436109 1.7417627e-38 401 296
0.10021002 0.69700003 -0.068436109 1.7141042e-38 402 296
0.10157761 0.69800001 -0.068534292 1.6864453e-38 403 296
0.10280143 0.69800001 -0.068534292 1.6587517e-38 404 296
0.10402527 0.69800001 -0.068534292 1.6310931e-38 405 296
0.10524909 0.69800001 -0.068534292 1.6126185e-38 406 296
0.106778 0.69999999 -0.068730667 1.5849599e-38 407 296
0.10800533 0.69999999 -0.068730667 1.5297164e-38 408 296
0.1093887 0.70099998 -0.068828844 1.5113131e-38 409 296
0.1109334 0.70300001 -0.069025226 1.4100819e-38 410 296
0.11232555 0.704 -0.06912341 1.5022416e-38 411 296
0.07798475 0.70599997 -0.070557632 1.7050701e-38 383 297
0.078998186 0.704 -0.070357755 1.7694612e-38 384 297
0.080118567 0.70300001 -0.070257813 1.797084e-38 385 297
0.081119716 0.70099998 -0.070057929 1.8155587e-38 386 297
0.082231328 0.69999999 -0.069957994 1.8063392e-38 387 297
0.083100989 0.69700003 -0.069658175 1.8339253e-38 388 297
0.084323063 0.69700003 -0.069658175 1.8431448e-38 389 297
0.085667863 0.69800001 -0.069758117 1.843288e-38 390 297
0.086767212 0.69700003 -0.069658175 1.8616913e-38 391 297
0.087863036 0.69599998 -0.069558233 1.8708392e-38 392 297
0.089083351 0.69599998 -0.069558233 1.8708392e-38 393 297
0.090044186 0.69400001 -0.069358356 1.8799861e-38 394 297
0.091260992 0.69400001 -0.069358356 1.8707306e-38 395 297
0.092477806 0.69400001 -0.069358356 1.8431433e-38 396 297
0.09369462 0.69400001 -0.069358356 1.8246683e-38 397 297
0.095184952 0.69599998 -0.069558233 1.8062646e-38 398 297
0.096128248 0.69400001 -0.069358356 1.7693865e-38 399 297
0.097345062 0.69400001 -0.069358356 1.7418352e-38 400 297
0.098845914 0.69599998 -0.069558233 1.7141763e-38 401 297
0.10006624 0.69599998 -0.069558233 1.7048849e-38 402 297
0.10143209 0.69700003 -0.069658175 1.6864456e-38 403 297
0.10265417 0.69700003 -0.069658175 1.6403845e-38 404 297
0.10402527 0.69800001 -0.069758117 1.6127618e-38 405 297
0.10524909 0.69800001 -0.069758117 1.5941798e-38 406 297
0.10647292 0.69800001 -0.069758117 1.5665211e-38 407 297
0.10800533 0.69999999 -0.069957994 1.5113131e-38 408 297
0.10923266 0.69999999 -0.069957994 1.5020936e-38 409 297
0.1109334 0.70300001 -0.070257813 1.4191933e-38 410 297
0.11216599 0.70300001 -0.070257813 1.4837303e-38 411 297
0.11355989 0.704 -0.070357755 1.6410081e-38 412 297
0.07798475 0.70599997 -0.071795486 1.7418761e-38 383 298
0.078998186 0.704 -0.071592107 1.7786809e-38 384 298
0.079548739 0.69800001 -0.07098195 1.8063036e-38 385 298
0.080772556 0.69800001 -0.07098195 1.8154868e-38 386 298
0.081878915 0.69700003 -0.070880257 1.83389e-38 387 298
0.082981758 0.69599998 -0.070778556 1.824778e-38 388 298
0.084202074 0.69599998 -0.070778556 1.8339976e-38 389 298
0.085176937 0.69400001 -0.07057517 1.8708392e-38 390 298
0.086393744 0.69400001 -0.07057517 1.8616195e-38 391 298
0.087610558 0.69400001 -0.07057517 1.8799505e-38 392 298
0.088827372 0.69400001 -0.07057517 1.8891702e-38 393 298
0.089914441 0.69300002 -0.070473477 1.8707309e-38 394 298
0.091129504 0.69300002 -0.070473477 1.8523278e-38 395 298
0.09234456 0.69300002 -0.070473477 1.8522194e-38 396 298
0.093559615 0.69300002 -0.070473477 1.8245965e-38 397 298
0.094911434 0.69400001 -0.07057517 1.7878256e-38 398 298
0.096128248 0.69400001 -0.07057517 1.7601669e-38 399 298
0.097345062 0.69400001 -0.07057517 1.7326157e-38 400 298
0.098561876 0.69400001 -0.07057517 1.7049212e-38 401 298
0.099778689 0.69400001 -0.07057517 1.6865183e-38 402 298
0.10128655 0.69599998 -0.070778556 1.6680791e-38 403 298
0.10265417 0.69700003 -0.070880257 1.622018e-38 404 298
0.10387623 0.69700003 -0.070880257 1.5943591e-38 405 298
0.10509831 0.69700003 -0.070880257 1.5758128e-38 406 298
0.10632038 0.69700003 -0.070880257 1.5481543e-38 407 298
0.10769674 0.69800001 -0.07098195 1.4929459e-38 408 298
0.10892057 0.69800001 -0.07098195 1.4745428e-38 409 298
0.11046 0.69999999 -0.071185328 1.4099735e-38 410 298
0.11184688 0.70099998 -0.071287021 1.4468876e-38 411 298
0.11355989 0.704 -0.071592107 1.6134213e-38 412 298
0.077876054 0.69400001 -0.071791984 1.7786453e-38 384 299
0.079092868 0.69400001 -0.071791984 1.8063038e-38 385 299
0.080541112 0.69599998 -0.071998879 1.8155587e-38 386 299
0.081761435 0.69599998 -0.071998879 1.8155587e-38 387 299
0.082743309 0.69400001 -0.071791984 1.8340332e-38 388 299
0.083839141 0.69300002 -0.07168854 1.8432527e-38 389 299
0.085054204 0.69300002 -0.07168854 1.843288e-38 390 299
0.086269259 0.69300002 -0.07168854 1.8616913e-38 391 299
0.087484315 0.69300002 -0.07168854 1.8708387e-38 392 299
0.088443391 0.69099998 -0.071481638 1.861619e-38 393 299
0.0895252 0.69 -0.071378194 1.8799142e-38 394 299
0.090734996 0.69 -0.071378194 1.8614392e-38 395 299
0.092078045 0.69099998 -0.071481638 1.8338518e-38 396 299
0.093289606 0.69099998 -0.071481638 1.8061571e-38 397 299
0.094501153 0.69099998 -0.071481638 1.7693865e-38 398 299
0.095712706 0.69099998 -0.071481638 1.7601669e-38 399 299
0.097204804 0.69300002 -0.07168854 1.7050649e-38 400 299
0.09841986 0.69300002 -0.07168854 1.6865899e-38 401 299
0.099634916 0.69300002 -0.07168854 1.6772985e-38 402 299
0.1009955 0.69400001 -0.071791984 1.6588592e-38 403 299
0.10221232 0.69400001 -0.071791984 1.6127984e-38 404 299
0.10342913 0.69400001 -0.071791984 1.5759202e-38 405 299
0.10464595 0.69400001 -0.071791984 1.5757409e-38 406 299
0.10616783 0.69599998 -0.071998879 1.5480462e-38 407 299
0.10754246 0.69700003 -0.072102323 1.4653595e-38 408 299
0.10892057 0.69800001 -0.072205767 1.45614e-38 409 299
0.11046 0.69999999 -0.072412662 1.373168e-38 410 299
0.11184688 0.70099998 -0.072516106 1.4377049e-38 411 299
0.11355989 0.704 -0.072826453 1.604202e-38 412 299
0.075116299 0.69099998 -0.072693199 1.7326915e-38 382 300
0.076327853 0.69099998 -0.072693199 1.7511667e-38 383 300
0.077539407 0.69099998 -0.072693199 1.7971193e-38 384 300
0.078750968 0.69099998 -0.072693199 1.8063389e-38 385 300
0.080193959 0.69300002 -0.072903603 1.8155935e-38 386 300
0.081409015 0.69300002 -0.072903603 1.824813e-38 387 300
0.082385622 0.69099998 -0.072693199 1.824813e-38 388 300
0.083597176 0.69099998 -0.072693199 1.8340685e-38 389 300
0.08480873 0.69099998 -0.072693199 1.8616913e-38 390 300
0.086020276 0.69099998 -0.072693199 1.8616913e-38 391 300
0.087105595 0.69 -0.072587997 1.8799505e-38 392 300
0.088315398 0.69 -0.072587997 1.8891702e-38 393 300
0.0895252 0.69 -0.072587997 1.8706588e-38 394 300
0.090734996 0.69 -0.072587997 1.8522196e-38 395 300
0.091944791 0.69 -0.072587997 1.8154489e-38 396 300
0.093154602 0.69 -0.072587997 1.7878262e-38 397 300
0.094364397 0.69 -0.072587997 1.741872e-38 398 300
0.095574193 0.69 -0.072587997 1.7234327e-38 399 300
0.096783996 0.69 -0.072587997 1.7050649e-38 400 300
0.097993799 0.69 -0.072587997 1.6773704e-38 401 300
0.099347368 0.69099998 -0.072693199 1.6588958e-38 402 300
0.10084998 0.69300002 -0.072903603 1.6312731e-38 403 300
0.10206504 0.69300002 -0.072903603 1.5851767e-38 404 300
0.10342913 0.69400001 -0.073008798 1.5667374e-38 405 300
0.10464595 0.69400001 -0.073008798 1.538936e-38 406 300
0.10586276 0.69400001 -0.073008798 1.5297164e-38 407 300
0.10738815 0.69599998 -0.073219195 1.4744719e-38 408 300
0.10876452 0.69700003 -0.073324397 1.4652523e-38 409 300
0.1101444 0.69800001 -0.073429599 1.3915702e-38 410 300
0.11184688 0.70099998 -0.073745191 1.437668e-38 411 300
0.074118659 0.69300002 -0.074118659 1.6959601e-38 381 301
0.075116299 0.69099998 -0.073904753 1.742054e-38 382 301
0.076217398 0.69 -0.0737978 1.742054e-38 383 301
0.077427194 0.69 -0.0737978 1.7787878e-38 384 301
0.078750968 0.69099998 -0.073904753 1.7880074e-38 385 301
0.079962514 0.69099998 -0.073904753 1.8155935e-38 386 301
0.081174068 0.69099998 -0.073904753 1.8155935e-38 387 301
0.082266398 0.69 -0.0737978 1.8340682e-38 388 301
0.083476201 0.69 -0.0737978 1.8432878e-38 389 301
0.084685996 0.69 -0.0737978 1.861691e-38 390 301
0.085895799 0.69 -0.0737978 1.861691e-38 391 301
0.086853124 0.68800002 -0.073583893 1.861619e-38 392 301
0.088059418 0.68800002 -0.073583893 1.8523994e-38 393 301
0.089265712 0.68800002 -0.073583893 1.8706588e-38 394 301
0.090471998 0.68800002 -0.073583893 1.8338165e-38 395 301
0.091678292 0.68800002 -0.073583893 1.7878259e-38 396 301
0.092884585 0.68800002 -0.073583893 1.7693868e-38 397 301
0.094090879 0.68800002 -0.073583893 1.7418357e-38 398 301
0.095297173 0.68800002 -0.073583893 1.732616e-38 399 301
0.096503466 0.68800002 -0.073583893 1.7049212e-38 400 301
0.097993799 0.69 -0.0737978 1.6772985e-38 401 301
0.099203594 0.69 -0.0737978 1.6588239e-38 402 301
0.1004134 0.69 -0.0737978 1.6403848e-38 403 301
0.10177048 0.69099998 -0.073904753 1.6126915e-38 404 301
0.1032801 0.69300002 -0.074118659 1.5757772e-38 405 301
0.10449516 0.69300002 -0.074118659 1.5481195e-38 406 301
0.10571022 0.69300002 -0.074118659 1.5204248e-38 407 301
0.10707957 0.69400001 -0.074225612 1.4652526e-38 408 301
0.10860847 0.69599998 -0.074439511 1.456033e-38 409 301
0.1101444 0.69800001 -0.074653424 1.3731677e-38 410 301
0.11184688 0.70099998 -0.074974284 1.4008265e-38 411 301
0.11339859 0.70300001 -0.07518819 1.6132049e-38 412 301
0.0737978 0.69 -0.075007595 1.7511332e-38 381 302
0.075007595 0.69 -0.075007595 1.7512014e-38 382 302
0.076217398 0.69 -0.075007595 1.7512014e-38 383 302
0.077427194 0.69 -0.075007595 1.7971546e-38 384 302
0.078636996 0.69 -0.075007595 1.8063742e-38 385 302
0.079615362 0.68800002 -0.074790187 1.8156291e-38 386 302
0.080821648 0.68800002 -0.074790187 1.8248486e-38 387 302
0.082027942 0.68800002 -0.074790187 1.852435e-38 388 302
0.083113261 0.68699998 -0.074681476 1.8616546e-38 389 302
0.084317796 0.68699998 -0.074681476 1.8433598e-38 390 302
0.085522331 0.68699998 -0.074681476 1.8433598e-38 391 302
0.086726874 0.68699998 -0.074681476 1.861619e-38 392 302
0.087931409 0.68699998 -0.074681476 1.8431799e-38 393 302
0.089135952 0.68699998 -0.074681476 1.8614748e-38 394 302
0.090340495 0.68699998 -0.074681476 1.8245965e-38 395 302
0.09154503 0.68699998 -0.074681476 1.7693868e-38 396 302
0.092749573 0.68699998 -0.074681476 1.7601313e-38 397 302
0.093954116 0.68699998 -0.074681476 1.7418001e-38 398 302
0.095158651 0.68699998 -0.074681476 1.7141413e-38 399 302
0.096363194 0.68699998 -0.074681476 1.6865546e-38 400 302
0.09770976 0.68800002 -0.074790187 1.6404927e-38 401 302
0.098916054 0.68800002 -0.074790187 1.6496043e-38 402 302
0.10012234 0.68800002 -0.074790187 1.6219458e-38 403 302
0.10162319 0.69 -0.075007595 1.5667372e-38 404 302
0.10298203 0.69099998 -0.075116299 1.5391145e-38 405 302
0.10419358 0.69099998 -0.075116299 1.5297164e-38 406 302
0.10571022 0.69300002 -0.075333714 1.5020936e-38 407 302
0.10707957 0.69400001 -0.075442426 1.4468854e-38 408 302
0.10860847 0.69599998 -0.075659841 1.4284464e-38 409 302
0.1099866 0.69700003 -0.075768545 1.3730605e-38 410 302
0.11184688 0.70099998 -0.076203369 1.4375974e-38 411 302
0.11339859 0.70300001 -0.076420791 1.6041301e-38 412 302
0.072587997 0.69 -0.076217398 1.750953e-38 380 303
0.0737978 0.69 -0.076217398 1.7786118e-38 381 303
0.074790187 0.68800002 -0.075996481 1.7786809e-38 382 303
0.075996481 0.68800002 -0.075996481 1.797084e-38 383 303
0.077202775 0.68800002 -0.075996481 1.788043e-38 384 303
0.078295097 0.68699998 -0.075886011 1.7972625e-38 385 303
0.079499632 0.68699998 -0.075886011 1.8431799e-38 386 303
0.080704175 0.68699998 -0.075886011 1.8523994e-38 387 303
0.081789486 0.68599999 -0.075775556 1.852435e-38 388 303
0.082992278 0.68599999 -0.075775556 1.8616546e-38 389 303
0.084195063 0.68599999 -0.075775556 1.8432878e-38 390 303
0.085397847 0.68599999 -0.075775556 1.8432878e-38 391 303
0.086600631 0.68599999 -0.075775556 1.8340679e-38 392 303
0.087803423 0.68599999 -0.075775556 1.8156288e-38 393 303
0.089006208 0.68599999 -0.075775556 1.8338518e-38 394 303
0.090209 0.68599999 -0.075775556 1.8061571e-38 395 303
0.091411777 0.68599999 -0.075775556 1.7601313e-38 396 303
0.092614569 0.68599999 -0.075775556 1.7509116e-38 397 303
0.093817353 0.68599999 -0.075775556 1.7416924e-38 398 303
0.095020145 0.68599999 -0.075775556 1.7140338e-38 399 303
0.096363194 0.68699998 -0.075886011 1.6772635e-38 400 303
0.097567737 0.68699998 -0.075886011 1.6495688e-38 401 303
0.098772272 0.68699998 -0.075886011 1.6127984e-38 402 303
0.099976815 0.68699998 -0.075886011 1.6035788e-38 403 303
0.10132864 0.68800002 -0.075996481 1.5758851e-38 404 303
0.102833 0.69 -0.076217398 1.5482264e-38 405 303
0.10419358 0.69099998 -0.076327853 1.5296444e-38 406 303
0.10571022 0.69300002 -0.076548778 1.4928021e-38 407 303
0.10707957 0.69400001 -0.07665924 1.4375583e-38 408 303
0.10860847 0.69599998 -0.076880157 1.4283386e-38 409 303
0.1099866 0.69700003 -0.076990619 1.3454744e-38 410 303
0.11184688 0.70099998 -0.077432454 1.4284144e-38 411 303
0.11307596 0.70099998 -0.077432454 1.558069e-38 412 303
0.072587997 0.69 -0.077427194 1.7509514e-38 380 304
0.073583893 0.68800002 -0.077202775 1.7786103e-38 381 304
0.074790187 0.68800002 -0.077202775 1.7786806e-38 382 304
0.075886011 0.68699998 -0.077090554 1.7970837e-38 383 304
0.077090554 0.68699998 -0.077090554 1.7880074e-38 384 304
0.078295097 0.68699998 -0.077090554 1.8156301e-38 385 304
0.079383917 0.68599999 -0.076978341 1.8340685e-38 386 304
0.080586702 0.68599999 -0.076978341 1.843288e-38 387 304
0.081789486 0.68599999 -0.076978341 1.8616546e-38 388 304
0.082750313 0.68400002 -0.076753922 1.8708743e-38 389 304
0.083949596 0.68400002 -0.076753922 1.8433234e-38 390 304
0.085148886 0.68400002 -0.076753922 1.8340679e-38 391 304
0.086348161 0.68400002 -0.076753922 1.8431796e-38 392 304
0.087547436 0.68400002 -0.076753922 1.83396e-38 393 304
0.088746719 0.68400002 -0.076753922 1.8153767e-38 394 304
0.089946002 0.68400002 -0.076753922 1.7969376e-38 395 304
0.091145277 0.68400002 -0.076753922 1.7600949e-38 396 304
0.092344552 0.68400002 -0.076753922 1.7416558e-38 397 304
0.093543842 0.68400002 -0.076753922 1.7049217e-38 398 304
0.094743125 0.68400002 -0.076753922 1.6864827e-38 399 304
0.096222922 0.68599999 -0.076978341 1.6588242e-38 400 304
0.097425714 0.68599999 -0.076978341 1.6403492e-38 401 304
0.098628499 0.68599999 -0.076978341 1.6035435e-38 402 304
0.099976815 0.68699998 -0.077090554 1.594324e-38 403 304
0.10118135 0.68699998 -0.077090554 1.5666658e-38 404 304
0.10253493 0.68800002 -0.077202775 1.5389713e-38 405 304
0.1040428 0.69 -0.077427194 1.5020933e-38 406 304
0.10540513 0.69099998 -0.077539407 1.4744346e-38 407 304
0.10692528 0.69300002 -0.077763841 1.4283386e-38 408 304
0.10860847 0.69599998 -0.078100473 1.4099355e-38 409 304
0.1099866 0.69700003 -0.078212693 1.3455465e-38 410 304
0.11168733 0.69999999 -0.078549333 1.419303e-38 411 304
0.11307596 0.70099998 -0.078661539 1.5211906e-38 412 304
0.071171306 0.68800002 -0.078409068 1.7051818e-38 379 305
0.07227239 0.68699998 -0.078295097 1.7877568e-38 380 305
0.073476933 0.68699998 -0.078295097 1.7970124e-38 381 305
0.074681476 0.68699998 -0.078295097 1.7970474e-38 382 305
0.075886011 0.68699998 -0.078295097 1.806267e-38 383 305
0.076978341 0.68599999 -0.078181133 1.8155938e-38 384 305
0.078181133 0.68599999 -0.078181133 1.8340329e-38 385 305
0.079383917 0.68599999 -0.078181133 1.8340685e-38 386 305
0.080586702 0.68599999 -0.078181133 1.843288e-38 387 305
0.081551038 0.68400002 -0.077953197 1.870839e-38 388 305
0.082629345 0.68300003 -0.077839233 1.8616193e-38 389 305
0.08382687 0.68300003 -0.077839233 1.8523997e-38 390 305
0.085024394 0.68300003 -0.077839233 1.8616193e-38 391 305
0.086221918 0.68300003 -0.077839233 1.843108e-38 392 305
0.087419443 0.68300003 -0.077839233 1.8338884e-38 393 305
0.088616975 0.68300003 -0.077839233 1.8061571e-38 394 305
0.089814499 0.68300003 -0.077839233 1.787718e-38 395 305
0.091012023 0.68300003 -0.077839233 1.7417274e-38 396 305
0.092209555 0.68300003 -0.077839233 1.7141047e-38 397 305
0.09340708 0.68300003 -0.077839233 1.6772985e-38 398 305
0.094604604 0.68300003 -0.077839233 1.6588592e-38 399 305
0.0959424 0.68400002 -0.077953197 1.6496043e-38 400 305
0.097141676 0.68400002 -0.077953197 1.6219458e-38 401 305
0.098628499 0.68599999 -0.078181133 1.5942884e-38 402 305
0.099831291 0.68599999 -0.078181133 1.5758851e-38 403 305
0.10103408 0.68599999 -0.078181133 1.5298243e-38 404 305
0.10238589 0.68699998 -0.078295097 1.5113852e-38 405 305
0.10374123 0.68800002 -0.078409068 1.4561397e-38 406 305
0.10525259 0.69 -0.078636996 1.4469201e-38 407 305
0.10661669 0.69099998 -0.078750968 1.4100074e-38 408 305
0.10829638 0.69400001 -0.079092868 1.400752e-38 409 305
0.10982879 0.69599998 -0.079320796 1.3455465e-38 410 305
0.11120867 0.69700003 -0.079434767 1.419303e-38 411 305
0.11291467 0.69999999 -0.079776667 1.4568335e-38 412 305
0.069863312 0.68699998 -0.079499632 1.7697172e-38 378 306
0.071067855 0.68699998 -0.079499632 1.7051803e-38 379 306
0.07227239 0.68699998 -0.079499632 1.8062673e-38 380 306
0.073476933 0.68699998 -0.079499632 1.7970118e-38 381 306
0.074572764 0.68599999 -0.079383917 1.8245982e-38 382 306
0.075775556 0.68599999 -0.079383917 1.8338178e-38 383 306
0.076753922 0.68400002 -0.07915248 1.8155582e-38 384 306
0.077953197 0.68400002 -0.07915248 1.8248136e-38 385 306
0.079036765 0.68300003 -0.079036765 1.8432524e-38 386 306
0.080234289 0.68300003 -0.079036765 1.8432524e-38 387 306
0.081312582 0.68199998 -0.078921035 1.8708392e-38 388 306
0.082508355 0.68199998 -0.078921035 1.8708392e-38 389 306
0.083704129 0.68199998 -0.078921035 1.8523997e-38 390 306
0.084899902 0.68199998 -0.078921035 1.8431801e-38 391 306
0.085843198 0.68000001 -0.078689598 1.8338881e-38 392 306
0.087035462 0.68000001 -0.078689598 1.8062293e-38 393 306
0.088487223 0.68199998 -0.078921035 1.7786417e-38 394 306
0.089682996 0.68199998 -0.078921035 1.750947e-38 395 306
0.090878762 0.68199998 -0.078921035 1.7233596e-38 396 306
0.092074543 0.68199998 -0.078921035 1.695665e-38 397 306
0.093270317 0.68199998 -0.078921035 1.6681138e-38 398 306
0.094604604 0.68300003 -0.079036765 1.6496747e-38 399 306
0.095802136 0.68300003 -0.079036765 1.6219814e-38 400 306
0.097141676 0.68400002 -0.07915248 1.6127618e-38 401 306
0.098340958 0.68400002 -0.07915248 1.5758851e-38 402 306
0.099540241 0.68400002 -0.07915248 1.5666656e-38 403 306
0.10103408 0.68599999 -0.079383917 1.5207119e-38 404 306
0.10223686 0.68599999 -0.079383917 1.4838696e-38 405 306
0.10359043 0.68699998 -0.079499632 1.4929093e-38 406 306
0.10494752 0.68800002 -0.079615362 1.4652148e-38 407 306
0.1064624 0.69 -0.079846799 1.4098999e-38 408 306
0.10814034 0.69300002 -0.080193959 1.3914608e-38 409 306
0.10951319 0.69400001 -0.080309682 1.3089574e-38 410 306
0.11120867 0.69700003 -0.080656841 1.3734943e-38 411 306
0.11291467 0.69999999 -0.081004001 1.438359e-38 412 306
0.06955824 0.68400002 -0.080351762 1.7420212e-38 378 307
0.070757523 0.68400002 -0.080351762 1.7328017e-38 379 307
0.071956798 0.68400002 -0.080351762 1.8062317e-38 380 307
0.073049128 0.68300003 -0.080234289 1.8062317e-38 381 307
0.074246652 0.68300003 -0.080234289 1.8062667e-38 382 307
0.075444184 0.68300003 -0.080234289 1.8154863e-38 383 307
0.076529488 0.68199998 -0.080116808 1.824813e-38 384 307
0.077725261 0.68199998 -0.080116808 1.843288e-38 385 307
0.078689598 0.68000001 -0.079881869 1.8432524e-38 386 307
0.079881869 0.68000001 -0.079881869 1.8616916e-38 387 307
0.081074134 0.68000001 -0.079881869 1.8708392e-38 388 307
0.082145423 0.67900002 -0.079764389 1.8616195e-38 389 307
0.083335936 0.67900002 -0.079764389 1.8523994e-38 390 307
0.084526442 0.67900002 -0.079764389 1.8339603e-38 391 307
0.085716955 0.67900002 -0.079764389 1.8246686e-38 392 307
0.086907476 0.67900002 -0.079764389 1.8062293e-38 393 307
0.08809799 0.67900002 -0.079764389 1.7601313e-38 394 307
0.089419998 0.68000001 -0.079881869 1.7509116e-38 395 307
0.090612262 0.68000001 -0.079881869 1.7141057e-38 396 307
0.092074543 0.68199998 -0.080116808 1.686483e-38 397 307
0.093270317 0.68199998 -0.080116808 1.6680438e-38 398 307
0.09446609 0.68199998 -0.080116808 1.6403492e-38 399 307
0.095661856 0.68199998 -0.080116808 1.6219464e-38 400 307
0.09699966 0.68300003 -0.080234289 1.6034714e-38 401 307
0.098197185 0.68300003 -0.080234289 1.5758854e-38 402 307
0.099394716 0.68300003 -0.080234289 1.5574463e-38 403 307
0.10073952 0.68400002 -0.080351762 1.4930537e-38 404 307
0.10223686 0.68599999 -0.080586702 1.483834e-38 405 307
0.10343964 0.68599999 -0.080586702 1.4560678e-38 406 307
0.10479497 0.68699998 -0.080704175 1.4468482e-38 407 307
0.10615382 0.68800002 -0.080821648 1.3639463e-38 408 307
0.1076722 0.69 -0.081056595 1.3455072e-38 409 307
0.10903979 0.69099998 -0.081174068 1.3272166e-38 410 307
0.11025134 0.69099998 -0.081174068 1.3917535e-38 411 307
0.068259016 0.68300003 -0.081431814 1.7236209e-38 377 308
0.069456547 0.68300003 -0.081431814 1.7419114e-38 378 308
0.070654072 0.68300003 -0.081431814 1.7787896e-38 379 308
0.071851604 0.68300003 -0.081431814 1.797119e-38 380 308
0.072942168 0.68199998 -0.081312582 1.8063386e-38 381 308
0.073920533 0.68000001 -0.081074134 1.8339603e-38 382 308
0.075112797 0.68000001 -0.081074134 1.8431799e-38 383 308
0.076305062 0.68000001 -0.081074134 1.8248849e-38 384 308
0.077383369 0.67900002 -0.080954902 1.8341404e-38 385 308
0.078458153 0.67799997 -0.08083567 1.8340696e-38 386 308
0.079646915 0.67799997 -0.08083567 1.8340696e-38 387 308
0.08083567 0.67799997 -0.08083567 1.8523647e-38 388 308
0.082024433 0.67799997 -0.08083567 1.8431092e-38 389 308
0.083213195 0.67799997 -0.08083567 1.8430727e-38 390 308
0.08440195 0.67799997 -0.08083567 1.8338531e-38 391 308
0.085590713 0.67799997 -0.08083567 1.8061937e-38 392 308
0.086779475 0.67799997 -0.08083567 1.778571e-38 393 308
0.08809799 0.67900002 -0.080954902 1.7509119e-38 394 308
0.089288503 0.67900002 -0.080954902 1.7232892e-38 395 308
0.090479009 0.67900002 -0.080954902 1.7048864e-38 396 308
0.091804534 0.68000001 -0.081074134 1.6772637e-38 397 308
0.092996798 0.68000001 -0.081074134 1.6588242e-38 398 308
0.09446609 0.68199998 -0.081312582 1.6219461e-38 399 308
0.095661856 0.68199998 -0.081312582 1.6035788e-38 400 308
0.09685763 0.68199998 -0.081312582 1.5943591e-38 401 308
0.098053411 0.68199998 -0.081312582 1.5575176e-38 402 308
0.099394716 0.68300003 -0.081431814 1.5206754e-38 403 308
0.10059224 0.68300003 -0.081431814 1.4838696e-38 404 308
0.1019388 0.68400002 -0.081551038 1.4653946e-38 405 308
0.10313808 0.68400002 -0.081551038 1.4468482e-38 406 308
0.10479497 0.68699998 -0.081908718 1.428409e-38 407 308
0.10615382 0.68800002 -0.082027942 1.3822425e-38 408 308
0.10736011 0.68800002 -0.082027942 1.3546198e-38 409 308
0.108882 0.69 -0.082266398 1.2813357e-38 410 308
0.1100918 0.69 -0.082266398 1.3458726e-38 411 308
0.0669633 0.68199998 -0.082508355 1.7788289e-38 376 309
0.068159081 0.68199998 -0.082508355 1.7419506e-38 377 309
0.069354847 0.68199998 -0.082508355 1.7879726e-38 378 309
0.070343733 0.68000001 -0.082266398 1.7879726e-38 379 309
0.071535997 0.68000001 -0.082266398 1.8063386e-38 380 309
0.072621316 0.67900002 -0.082145423 1.8155582e-38 381 309
0.073811822 0.67900002 -0.082145423 1.8431801e-38 382 309
0.074891873 0.67799997 -0.082024433 1.8523997e-38 383 309
0.075856209 0.676 -0.081782483 1.8340329e-38 384 309
0.077041462 0.676 -0.081782483 1.8340329e-38 385 309
0.078226723 0.676 -0.081782483 1.8247783e-38 386 309
0.079411969 0.676 -0.081782483 1.8247783e-38 387 309
0.080597222 0.676 -0.081782483 1.8338544e-38 388 309
0.081782483 0.676 -0.081782483 1.8338544e-38 389 309
0.082967728 0.676 -0.081782483 1.8154863e-38 390 309
0.084152982 0.676 -0.081782483 1.7970472e-38 391 309
0.085590713 0.67799997 -0.082024433 1.7969025e-38 392 309
0.086779475 0.67799997 -0.082024433 1.7692799e-38 393 309
0.08796823 0.67799997 -0.082024433 1.7416205e-38 394 309
0.089288503 0.67900002 -0.082145423 1.7231455e-38 395 309
0.090479009 0.67900002 -0.082145423 1.6772635e-38 396 309
0.091669522 0.67900002 -0.082145423 1.6588242e-38 397 309
0.092996798 0.68000001 -0.082266398 1.6403495e-38 398 309
0.094189063 0.68000001 -0.082266398 1.6127268e-38 399 309
0.095381334 0.68000001 -0.082266398 1.594324e-38 400 309
0.096573599 0.68000001 -0.082266398 1.5666653e-38 401 309
0.098053411 0.68199998 -0.082508355 1.5298952e-38 402 309
0.099249184 0.68199998 -0.082508355 1.5114202e-38 403 309
0.10059224 0.68300003 -0.082629345 1.4653948e-38 404 309
0.10178977 0.68300003 -0.082629345 1.4469198e-38 405 309
0.10313808 0.68400002 -0.082750313 1.4100068e-38 406 309
0.10464244 0.68599999 -0.082992278 1.3915677e-38 407 309
0.10599951 0.68699998 -0.083113261 1.3454365e-38 408 309
0.10736011 0.68800002 -0.083234236 1.3270333e-38 409 309
0.1085664 0.68800002 -0.083234236 1.2628964e-38 410 309
0.10977269 0.68800002 -0.083234236 1.3458726e-38 411 309
0.065478235 0.67900002 -0.083335936 1.7971992e-38 375 310
0.066668749 0.67900002 -0.083335936 1.7879033e-38 376 310
0.067859262 0.67900002 -0.083335936 1.7879033e-38 377 310
0.069049768 0.67900002 -0.083335936 1.7971919e-38 378 310
0.070240289 0.67900002 -0.083335936 1.7971919e-38 379 310
0.071430802 0.67900002 -0.083335936 1.824813e-38 380 310
0.072514355 0.67799997 -0.083213195 1.824813e-38 381 310
0.073485702 0.676 -0.082967728 1.8340682e-38 382 310
0.074560501 0.67500001 -0.082844995 1.8340682e-38 383 310
0.07563179 0.67400002 -0.082722262 1.8340329e-38 384 310
0.076813534 0.67400002 -0.082722262 1.8248133e-38 385 310
0.078110993 0.67500001 -0.082844995 1.83389e-38 386 310
0.079294503 0.67500001 -0.082844995 1.8062673e-38 387 310
0.080477998 0.67500001 -0.082844995 1.8062317e-38 388 310
0.0816615 0.67500001 -0.082844995 1.8062317e-38 389 310
0.082844995 0.67500001 -0.082844995 1.7970474e-38 390 310
0.084028497 0.67500001 -0.082844995 1.7785723e-38 391 310
0.085338242 0.676 -0.082967728 1.7692443e-38 392 310
0.086523488 0.676 -0.082967728 1.750805e-38 393 310
0.08796823 0.67799997 -0.083213195 1.7231455e-38 394 310
0.089156993 0.67799997 -0.083213195 1.6955227e-38 395 310
0.090345755 0.67799997 -0.083213195 1.6588239e-38 396 310
0.09153451 0.67799997 -0.083213195 1.6496043e-38 397 310
0.092860043 0.67900002 -0.083335936 1.6127262e-38 398 310
0.094050556 0.67900002 -0.083335936 1.6035065e-38 399 310
0.095241062 0.67900002 -0.083335936 1.5759207e-38 400 310
0.096573599 0.68000001 -0.083458669 1.5482261e-38 401 310
0.09776587 0.68000001 -0.083458669 1.5114205e-38 402 310
0.099249184 0.68199998 -0.083704129 1.4929812e-38 403 310
0.10044495 0.68199998 -0.083704129 1.4469198e-38 404 310
0.10178977 0.68300003 -0.08382687 1.419297e-38 405 310
0.10313808 0.68400002 -0.083949596 1.391568e-38 406 310
0.10464244 0.68599999 -0.084195063 1.3546899e-38 407 310
0.10599951 0.68699998 -0.084317796 1.3086305e-38 408 310
0.10720405 0.68699998 -0.084317796 1.3086305e-38 409 310
0.1085664 0.68800002 -0.084440529 1.2536413e-38 410 310
0.064287722 0.67900002 -0.084526442 1.7787218e-38 374 311
0.065381795 0.67799997 -0.08440195 1.7602468e-38 375 311
0.066570558 0.67799997 -0.08440195 1.7971572e-38 376 311
0.06775932 0.67799997 -0.08440195 1.7971572e-38 377 311
0.068948075 0.67799997 -0.08440195 1.8063386e-38 378 311
0.070136838 0.67799997 -0.08440195 1.8248136e-38 379 311
0.071115203 0.676 -0.084152982 1.8248486e-38 380 311
0.072300449 0.676 -0.084152982 1.8340682e-38 381 311
0.073376998 0.67500001 -0.084028497 1.8248849e-38 382 311
0.074450038 0.67400002 -0.083904013 1.8248849e-38 383 311
0.075407356 0.67199999 -0.083655037 1.8156656e-38 384 311
0.076585598 0.67199999 -0.083655037 1.788043e-38 385 311
0.077995278 0.67400002 -0.083904013 1.806267e-38 386 311
0.079177029 0.67400002 -0.083904013 1.7970474e-38 387 311
0.080358773 0.67400002 -0.083904013 1.7878277e-38 388 311
0.081540518 0.67400002 -0.083904013 1.7878277e-38 389 311
0.082722262 0.67400002 -0.083904013 1.7877558e-38 390 311
0.083904013 0.67400002 -0.083904013 1.7692808e-38 391 311
0.085212 0.67500001 -0.084028497 1.750805e-38 392 311
0.086523488 0.676 -0.084152982 1.73233e-38 393 311
0.087708741 0.676 -0.084152982 1.686375e-38 394 311
0.088893995 0.676 -0.084152982 1.6587523e-38 395 311
0.090345755 0.67799997 -0.08440195 1.6403492e-38 396 311
0.09153451 0.67799997 -0.08440195 1.6219461e-38 397 311
0.092723273 0.67799997 -0.08440195 1.5943591e-38 398 311
0.093912028 0.67799997 -0.08440195 1.5667006e-38 399 311
0.09510079 0.67799997 -0.08440195 1.5391145e-38 400 311
0.096431576 0.67900002 -0.084526442 1.5114558e-38 401 311
0.09776587 0.68000001 -0.084650926 1.4746144e-38 402 311
0.098958135 0.68000001 -0.084650926 1.4561753e-38 403 311
0.10044495 0.68199998 -0.084899902 1.4193337e-38 404 311
0.10178977 0.68300003 -0.085024394 1.3732718e-38 405 311
0.10313808 0.68400002 -0.085148886 1.3730217e-38 406 311
0.10464244 0.68599999 -0.085397847 1.3637661e-38 407 311
0.10599951 0.68699998 -0.085522331 1.2993761e-38 408 311
0.10720405 0.68699998 -0.085522331 1.3085957e-38 409 311
0.10840859 0.68699998 -0.085522331 1.2260554e-38 410 311
0.063004278 0.67799997 -0.085590713 1.7419894e-38 373 312
0.06419304 0.67799997 -0.085590713 1.7510613e-38 374 312
0.065381795 0.67799997 -0.085590713 1.778684e-38 375 312
0.066570558 0.67799997 -0.085590713 1.7971922e-38 376 312
0.067559443 0.676 -0.085338242 1.7971922e-38 377 312
0.068744689 0.676 -0.085338242 1.8339247e-38 378 312
0.070136838 0.67799997 -0.085590713 1.8431801e-38 379 312
0.071115203 0.676 -0.085338242 1.8340682e-38 380 312
0.072193496 0.67500001 -0.085212 1.8340682e-38 381 312
0.073268294 0.67400002 -0.085085757 1.8248852e-38 382 312
0.074229114 0.67199999 -0.084833272 1.8156656e-38 383 312
0.075407356 0.67199999 -0.084833272 1.8155938e-38 384 312
0.076585598 0.67199999 -0.084833272 1.7971546e-38 385 312
0.077763841 0.67199999 -0.084833272 1.7787511e-38 386 312
0.078942075 0.67199999 -0.084833272 1.7602761e-38 387 312
0.080120318 0.67199999 -0.084833272 1.7877909e-38 388 312
0.08129856 0.67199999 -0.084833272 1.7693159e-38 389 312
0.082476802 0.67199999 -0.084833272 1.7600963e-38 390 312
0.083655037 0.67199999 -0.084833272 1.741657e-38 391 312
0.085085757 0.67400002 -0.085085757 1.7140344e-38 392 312
0.086395502 0.67500001 -0.085212 1.6955594e-38 393 312
0.087578997 0.67500001 -0.085212 1.6770835e-38 394 312
0.088893995 0.676 -0.085338242 1.6586085e-38 395 312
0.090079248 0.676 -0.085338242 1.6402776e-38 396 312
0.091264501 0.676 -0.085338242 1.6218385e-38 397 312
0.092449754 0.676 -0.085338242 1.5758851e-38 398 312
0.093912028 0.67799997 -0.085590713 1.557446e-38 399 312
0.09510079 0.67799997 -0.085590713 1.52064e-38 400 312
0.096289553 0.67799997 -0.085590713 1.4929812e-38 401 312
0.097622089 0.67900002 -0.085716955 1.447028e-38 402 312
0.098958135 0.68000001 -0.085843198 1.4285889e-38 403 312
0.10044495 0.68199998 -0.086095676 1.3824914e-38 404 312
0.10164072 0.68199998 -0.086095676 1.3455771e-38 405 312
0.1029873 0.68300003 -0.086221918 1.3361431e-38 406 312
0.10433736 0.68400002 -0.086348161 1.3361431e-38 407 312
0.10599951 0.68699998 -0.086726874 1.253458e-38 408 312
0.10720405 0.68699998 -0.086726874 1.2627134e-38 409 312
0.10840859 0.68699998 -0.086726874 1.1801731e-38 410 312
0.061815511 0.67799997 -0.086779475 1.741878e-38 372 313
0.062818423 0.676 -0.086523488 1.7049998e-38 373 313
0.064003684 0.676 -0.086523488 1.7879373e-38 374 313
0.065188929 0.676 -0.086523488 1.7879373e-38 375 313
0.066374183 0.676 -0.086523488 1.7971919e-38 376 313
0.067459501 0.67500001 -0.086395502 1.815595e-38 377 313
0.068643004 0.67500001 -0.086395502 1.8339247e-38 378 313
0.069929942 0.676 -0.086523488 1.8431801e-38 379 313
0.071010001 0.67500001 -0.086395502 1.8340685e-38 380 313
0.072193496 0.67500001 -0.086395502 1.8340685e-38 381 313
0.073268294 0.67400002 -0.086267509 1.8248136e-38 382 313
0.074229114 0.67199999 -0.086011514 1.8155582e-38 383 313
0.075407356 0.67199999 -0.086011514 1.8063386e-38 384 313
0.076585598 0.67199999 -0.086011514 1.797119e-38 385 313
0.077763841 0.67199999 -0.086011514 1.7786432e-38 386 313
0.078942075 0.67199999 -0.086011514 1.7693878e-38 387 313
0.080120318 0.67199999 -0.086011514 1.7418367e-38 388 313
0.08129856 0.67199999 -0.086011514 1.7326171e-38 389 313
0.082476802 0.67199999 -0.086011514 1.7233255e-38 390 313
0.083655037 0.67199999 -0.086011514 1.714106e-38 391 313
0.084833272 0.67199999 -0.086011514 1.7047426e-38 392 313
0.086267509 0.67400002 -0.086267509 1.6770479e-38 393 313
0.087449253 0.67400002 -0.086267509 1.6402779e-38 394 313
0.088631004 0.67400002 -0.086267509 1.6218029e-38 395 313
0.089945994 0.67500001 -0.086395502 1.5942533e-38 396 313
0.091264501 0.676 -0.086523488 1.5758501e-38 397 313
0.092449754 0.676 -0.086523488 1.5298965e-38 398 313
0.093635008 0.676 -0.086523488 1.5114573e-38 399 313
0.094820268 0.676 -0.086523488 1.4746866e-38 400 313
0.096005514 0.676 -0.086523488 1.447028e-38 401 313
0.097478308 0.67799997 -0.086779475 1.4285889e-38 402 313
0.098958135 0.68000001 -0.087035462 1.3917106e-38 403 313
0.10044495 0.68199998 -0.087291449 1.3364305e-38 404 313
0.10164072 0.68199998 -0.087291449 1.2995163e-38 405 313
0.1028365 0.68199998 -0.087291449 1.2901548e-38 406 313
0.10433736 0.68400002 -0.087547436 1.2901548e-38 407 313
0.10584522 0.68599999 -0.087803423 1.2442034e-38 408 313
0.10704801 0.68599999 -0.087803423 1.2257643e-38 409 313
0.1085664 0.68800002 -0.088059418 1.1157091e-38 410 313
0.061633173 0.676 -0.087708741 1.7418768e-38 372 314
0.062725499 0.67500001 -0.087578997 1.7603159e-38 373 314
0.063909002 0.67500001 -0.087578997 1.787937e-38 374 314
0.064996064 0.67400002 -0.087449253 1.7971566e-38 375 314
0.066177815 0.67400002 -0.087449253 1.7972272e-38 376 314
0.067359567 0.67400002 -0.087449253 1.8156303e-38 377 314
0.068541311 0.67400002 -0.087449253 1.8248852e-38 378 314
0.069723055 0.67400002 -0.087449253 1.8248852e-38 379 314
0.070694394 0.67199999 -0.087189756 1.8248852e-38 380 314
0.071872637 0.67199999 -0.087189756 1.8248852e-38 381 314
0.073050871 0.67199999 -0.087189756 1.824778e-38 382 314
0.074229114 0.67199999 -0.087189756 1.8155584e-38 383 314
0.075295143 0.671 -0.087060012 1.8063386e-38 384 314
0.076471634 0.671 -0.087060012 1.7787159e-38 385 314
0.077648118 0.671 -0.087060012 1.7695315e-38 386 314
0.078824602 0.671 -0.087060012 1.7510565e-38 387 314
0.080001086 0.671 -0.087060012 1.7326177e-38 388 314
0.08129856 0.67199999 -0.087189756 1.7233623e-38 389 314
0.082354069 0.671 -0.087060012 1.7232183e-38 390 314
0.083530545 0.671 -0.087060012 1.7047792e-38 391 314
0.084833272 0.67199999 -0.087189756 1.6771201e-38 392 314
0.086011514 0.67199999 -0.087189756 1.6494974e-38 393 314
0.087189756 0.67199999 -0.087189756 1.6217664e-38 394 314
0.088631004 0.67400002 -0.087449253 1.612511e-38 395 314
0.089945994 0.67500001 -0.087578997 1.5849252e-38 396 314
0.091129504 0.67500001 -0.087578997 1.5757056e-38 397 314
0.092312999 0.67500001 -0.087578997 1.5298246e-38 398 314
0.093635008 0.676 -0.087708741 1.5021657e-38 399 314
0.094820268 0.676 -0.087708741 1.4746147e-38 400 314
0.096005514 0.676 -0.087708741 1.4469201e-38 401 314
0.097190768 0.676 -0.087708741 1.3917109e-38 402 314
0.09866707 0.67799997 -0.08796823 1.327174e-38 403 314
0.10000312 0.67900002 -0.08809799 1.3084847e-38 404 314
0.10134266 0.68000001 -0.088227727 1.3084847e-38 405 314
0.1028365 0.68199998 -0.088487223 1.2809352e-38 406 314
0.10403228 0.68199998 -0.088487223 1.2809352e-38 407 314
0.10584522 0.68599999 -0.089006208 1.2349838e-38 408 314
0.10704801 0.68599999 -0.089006208 1.188886e-38 409 314
0.06026908 0.67400002 -0.088631004 1.7142547e-38 371 315
0.061450824 0.67400002 -0.088631004 1.7970843e-38 372 315
0.062632568 0.67400002 -0.088631004 1.8063038e-38 373 315
0.06381432 0.67400002 -0.088631004 1.8155587e-38 374 315
0.064803198 0.67199999 -0.088367991 1.8247783e-38 375 315
0.065883249 0.671 -0.088236496 1.8340329e-38 376 315
0.06705974 0.671 -0.088236496 1.8340329e-38 377 315
0.068236224 0.671 -0.088236496 1.8340685e-38 378 315
0.069309272 0.67000002 -0.088105001 1.8340685e-38 379 315
0.070483997 0.67000002 -0.088105001 1.8248852e-38 380 315
0.071658738 0.67000002 -0.088105001 1.8248852e-38 381 315
0.072942175 0.671 -0.088236496 1.8156303e-38 382 315
0.074008204 0.67000002 -0.088105001 1.7972272e-38 383 315
0.07518293 0.67000002 -0.088105001 1.7971546e-38 384 315
0.076357663 0.67000002 -0.088105001 1.7787155e-38 385 315
0.077300951 0.66799998 -0.087841995 1.7603117e-38 386 315
0.078472182 0.66799998 -0.087841995 1.7418367e-38 387 315
0.079881869 0.67000002 -0.088105001 1.7049593e-38 388 315
0.081177577 0.671 -0.088236496 1.6865202e-38 389 315
0.082231335 0.67000002 -0.088105001 1.6771934e-38 390 315
0.083406061 0.67000002 -0.088105001 1.6587183e-38 391 315
0.084707037 0.671 -0.088236496 1.6494618e-38 392 315
0.086011514 0.67199999 -0.088367991 1.6310227e-38 393 315
0.087189756 0.67199999 -0.088367991 1.5941801e-38 394 315
0.088367991 0.67199999 -0.088367991 1.5757409e-38 395 315
0.089812748 0.67400002 -0.088631004 1.5298243e-38 396 315
0.090994492 0.67400002 -0.088631004 1.5206047e-38 397 315
0.092312999 0.67500001 -0.088762499 1.4837989e-38 398 315
0.093496501 0.67500001 -0.088762499 1.4653598e-38 399 315
0.094679996 0.67500001 -0.088762499 1.4377731e-38 400 315
0.095863499 0.67500001 -0.088762499 1.3917112e-38 401 315
0.097190768 0.676 -0.088893995 1.36391e-38 402 315
0.098376028 0.676 -0.088893995 1.3177762e-38 403 315
0.099855833 0.67799997 -0.089156993 1.2715717e-38 404 315
0.1010446 0.67799997 -0.089156993 1.2899748e-38 405 315
0.10253493 0.68000001 -0.089419998 1.2350174e-38 406 315
0.10403228 0.68199998 -0.089682996 1.2442371e-38 407 315
0.10522805 0.68199998 -0.089682996 1.2440962e-38 408 315
0.057390101 0.66799998 -0.089013219 1.7142563e-38 369 316
0.058911994 0.67199999 -0.089546233 1.7419834e-38 370 316
0.060090236 0.67199999 -0.089546233 1.7604225e-38 371 316
0.061268479 0.67199999 -0.089546233 1.8155587e-38 372 316
0.062446721 0.67199999 -0.089546233 1.8247783e-38 373 316
0.063530281 0.671 -0.089412987 1.8248133e-38 374 316
0.064610332 0.67000002 -0.089279734 1.8340329e-38 375 316
0.065588683 0.66799998 -0.089013219 1.8248852e-38 376 316
0.066759922 0.66799998 -0.089013219 1.8341048e-38 377 316
0.067931145 0.66799998 -0.089013219 1.834105e-38 378 316
0.068998925 0.667 -0.088879973 1.8248855e-38 379 316
0.070063196 0.66600001 -0.088746719 1.8156303e-38 380 316
0.071230918 0.66600001 -0.088746719 1.8156303e-38 381 316
0.072507344 0.667 -0.088879973 1.8155587e-38 382 316
0.073787279 0.66799998 -0.089013219 1.8063392e-38 383 316
0.074958503 0.66799998 -0.089013219 1.797119e-38 384 316
0.076015763 0.667 -0.088879973 1.7602767e-38 385 316
0.077185236 0.667 -0.088879973 1.7418373e-38 386 316
0.078354709 0.667 -0.088879973 1.7233623e-38 387 316
0.079643413 0.66799998 -0.089013219 1.7140354e-38 388 316
0.081056595 0.67000002 -0.089279734 1.6864127e-38 389 316
0.081985861 0.66799998 -0.089013219 1.667938e-38 390 316
0.083157085 0.66799998 -0.089013219 1.6494987e-38 391 316
0.084707037 0.671 -0.089412987 1.6126562e-38 392 316
0.085883528 0.671 -0.089412987 1.6034366e-38 393 316
0.087060012 0.671 -0.089412987 1.5757772e-38 394 316
0.088367991 0.67199999 -0.089546233 1.5481545e-38 395 316
0.089546233 0.67199999 -0.089546233 1.5297517e-38 396 316
0.090724476 0.67199999 -0.089546233 1.5113485e-38 397 316
0.092176244 0.67400002 -0.089812748 1.4746147e-38 398 316
0.093496501 0.67500001 -0.089945994 1.4469201e-38 399 316
0.094679996 0.67500001 -0.089945994 1.419334e-38 400 316
0.095863499 0.67500001 -0.089945994 1.3547971e-38 401 316
0.097190768 0.676 -0.090079248 1.2993375e-38 402 316
0.098376028 0.676 -0.090079248 1.2716786e-38 403 316
0.099855833 0.67799997 -0.090345755 1.2531689e-38 404 316
0.1010446 0.67799997 -0.090345755 1.2623884e-38 405 316
0.10238414 0.67900002 -0.090479009 1.2258698e-38 406 316
0.10357466 0.67900002 -0.090479009 1.2350895e-38 407 316
0.056218877 0.66799998 -0.090184443 1.7511314e-38 368 317
0.057390101 0.66799998 -0.090184443 1.7511314e-38 369 317
0.058561329 0.66799998 -0.090184443 1.7880077e-38 370 317
0.0599114 0.67000002 -0.090454467 1.7972272e-38 371 317
0.061086133 0.67000002 -0.090454467 1.833925e-38 372 317
0.06226087 0.67000002 -0.090454467 1.8523641e-38 373 317
0.063151561 0.667 -0.090049446 1.8523641e-38 374 317
0.064321034 0.667 -0.090049446 1.8616195e-38 375 317
0.065392323 0.66600001 -0.089914441 1.8432527e-38 376 317
0.066560037 0.66600001 -0.089914441 1.8432527e-38 377 317
0.067727759 0.66600001 -0.089914441 1.8339979e-38 378 317
0.068688579 0.66399997 -0.089644417 1.8339979e-38 379 317
0.069852799 0.66399997 -0.089644417 1.8247783e-38 380 317
0.071017005 0.66399997 -0.089644417 1.8155587e-38 381 317
0.072181225 0.66399997 -0.089644417 1.8063392e-38 382 317
0.073566355 0.66600001 -0.089914441 1.7970837e-38 383 317
0.074734077 0.66600001 -0.089914441 1.7694962e-38 384 317
0.075901799 0.66600001 -0.089914441 1.7418017e-38 385 317
0.077069521 0.66600001 -0.089914441 1.7233623e-38 386 317
0.078237243 0.66600001 -0.089914441 1.6957394e-38 387 317
0.079524182 0.667 -0.090049446 1.6864483e-38 388 317
0.080814637 0.66799998 -0.090184443 1.6587536e-38 389 317
0.081985861 0.66799998 -0.090184443 1.6219479e-38 390 317
0.083157085 0.66799998 -0.090184443 1.6127283e-38 391 317
0.084580801 0.67000002 -0.090454467 1.5942533e-38 392 317
0.085883528 0.671 -0.090589471 1.5666305e-38 393 317
0.087060012 0.671 -0.090589471 1.5481911e-38 394 317
0.088236496 0.671 -0.090589471 1.529752e-38 395 317
0.089546233 0.67199999 -0.090724476 1.5021289e-38 396 317
0.090724476 0.67199999 -0.090724476 1.4929093e-38 397 317
0.091902718 0.67199999 -0.090724476 1.4561397e-38 398 317
0.093496501 0.67500001 -0.091129504 1.428517e-38 399 317
0.094679996 0.67500001 -0.091129504 1.3823484e-38 400 317
0.095863499 0.67500001 -0.091129504 1.2993725e-38 401 317
0.097190768 0.676 -0.091264501 1.2255456e-38 402 317
0.098376028 0.676 -0.091264501 1.2532042e-38 403 317
0.099855833 0.67799997 -0.09153451 1.2349093e-38 404 317
0.1010446 0.67799997 -0.09153451 1.2441288e-38 405 317
0.10223336 0.67799997 -0.09153451 1.2350895e-38 406 317
0.10342211 0.67799997 -0.09153451 1.2350895e-38 407 317
0.056134716 0.667 -0.091218919 1.7970837e-38 368 318
0.057304189 0.667 -0.091218919 1.8063392e-38 369 318
0.058473662 0.667 -0.091218919 1.824813e-38 370 318
0.059643134 0.667 -0.091218919 1.824813e-38 371 318
0.060812607 0.667 -0.091218919 1.8707306e-38 372 318
0.06198208 0.667 -0.091218919 1.8707306e-38 373 318
0.063056879 0.66600001 -0.091082163 1.8616195e-38 374 318
0.064031735 0.66399997 -0.090808637 1.8616195e-38 375 318
0.06519594 0.66399997 -0.090808637 1.8615488e-38 376 318
0.066360161 0.66399997 -0.090808637 1.8523291e-38 377 318
0.067524366 0.66399997 -0.090808637 1.8431095e-38 378 318
0.068585135 0.66299999 -0.090671875 1.83389e-38 379 318
0.069747597 0.66299999 -0.090671875 1.8063389e-38 380 318
0.070910059 0.66299999 -0.090671875 1.8063389e-38 381 318
0.072072513 0.66299999 -0.090671875 1.7970837e-38 382 318
0.073234983 0.66299999 -0.090671875 1.7694609e-38 383 318
0.07450965 0.66399997 -0.090808637 1.7510218e-38 384 318
0.075673863 0.66399997 -0.090808637 1.7325468e-38 385 318
0.076838076 0.66399997 -0.090808637 1.6865564e-38 386 318
0.078237243 0.66600001 -0.091082163 1.6589338e-38 387 318
0.079524182 0.667 -0.091218919 1.6588259e-38 388 318
0.080693655 0.667 -0.091218919 1.6219476e-38 389 318
0.081863128 0.667 -0.091218919 1.5851417e-38 390 318
0.083032601 0.667 -0.091218919 1.5759221e-38 391 318
0.084202074 0.667 -0.091218919 1.5666308e-38 392 318
0.085755527 0.67000002 -0.0916292 1.5481558e-38 393 318
0.086930268 0.67000002 -0.0916292 1.5113852e-38 394 318
0.088105001 0.67000002 -0.0916292 1.4929459e-38 395 318
0.089412987 0.671 -0.091765963 1.4745425e-38 396 318
0.090589471 0.671 -0.091765963 1.446848e-38 397 318
0.091765963 0.671 -0.091765963 1.4101496e-38 398 318
0.093080953 0.67199999 -0.091902718 1.4101496e-38 399 318
0.094539732 0.67400002 -0.092176244 1.3270305e-38 400 318
0.095863499 0.67500001 -0.092312999 1.2348709e-38 401 318
0.097047001 0.67500001 -0.092312999 1.2714986e-38 402 318
0.098376028 0.676 -0.092449754 1.2899377e-38 403 318
0.099561274 0.676 -0.092449754 1.1982465e-38 404 318
0.10074653 0.676 -0.092449754 1.2258692e-38 405 318
0.10223336 0.67799997 -0.092723273 1.225799e-38 406 318
0.10342211 0.67799997 -0.092723273 1.2165793e-38 407 318
0.051456824 0.667 -0.092388391 1.7602803e-38 364 319
0.052626297 0.667 -0.092388391 1.7787193e-38 365 319
0.05379577 0.667 -0.092388391 1.7787528e-38 366 319
0.054882839 0.66600001 -0.092249878 1.7879723e-38 367 319
0.056050558 0.66600001 -0.092249878 1.7972625e-38 368 319
0.057218276 0.66600001 -0.092249878 1.7972625e-38 369 319
0.058385998 0.66600001 -0.092249878 1.824813e-38 370 319
0.059553716 0.66600001 -0.092249878 1.8340685e-38 371 319
0.060539093 0.66399997 -0.091972843 1.8523641e-38 372 319
0.061703302 0.66399997 -0.091972843 1.8616195e-38 373 319
0.062772833 0.66299999 -0.091834337 1.8432531e-38 374 319
0.063838862 0.662 -0.091695823 1.8432531e-38 375 319
0.064999565 0.662 -0.091695823 1.8615491e-38 376 319
0.066160277 0.662 -0.091695823 1.8431098e-38 377 319
0.067320988 0.662 -0.091695823 1.83389e-38 378 319
0.068481691 0.662 -0.091695823 1.8154868e-38 379 319
0.069642402 0.662 -0.091695823 1.7787159e-38 380 319
0.070803106 0.662 -0.091695823 1.7787159e-38 381 319
0.071963809 0.662 -0.091695823 1.7786079e-38 382 319
0.07312452 0.662 -0.091695823 1.7509852e-38 383 319
0.074285224 0.662 -0.091695823 1.7508414e-38 384 319
0.075559892 0.66299999 -0.091834337 1.7232186e-38 385 319
0.076838076 0.66399997 -0.091972843 1.686448e-38 386 319
0.078237243 0.66600001 -0.092249878 1.6587533e-38 387 319
0.079404958 0.66600001 -0.092249878 1.6219832e-38 388 319
0.080693655 0.667 -0.092388391 1.6035082e-38 389 319
0.081863128 0.667 -0.092388391 1.5758498e-38 390 319
0.083032601 0.667 -0.092388391 1.5574107e-38 391 319
0.084202074 0.667 -0.092388391 1.5206047e-38 392 319
0.085499547 0.66799998 -0.092526905 1.5206047e-38 393 319
0.086670771 0.66799998 -0.092526905 1.5020939e-38 394 319
0.088105001 0.67000002 -0.092803933 1.4836189e-38 395 319
0.089412987 0.671 -0.092942439 1.446848e-38 396 319
0.090589471 0.671 -0.092942439 1.4376282e-38 397 319
0.091765963 0.671 -0.092942439 1.4101128e-38 398 319
0.093080953 0.67199999 -0.093080953 1.3916378e-38 399 319
0.094539732 0.67400002 -0.093357988 1.2902234e-38 400 319
0.095721483 0.67400002 -0.093357988 1.2717484e-38 401 319
0.097047001 0.67500001 -0.093496501 1.2533469e-38 402 319
0.098230496 0.67500001 -0.093496501 1.2441273e-38 403 319
0.099561274 0.676 -0.093635008 1.2258326e-38 404 319
0.10074653 0.676 -0.093635008 1.2350522e-38 405 319
0.10223336 0.67799997 -0.093912028 1.2075397e-38 406 319
0.04904424 0.66600001 -0.093417592 1.7326568e-38 362 320
0.050211959 0.66600001 -0.093417592 1.7326568e-38 363 320
0.051379681 0.66600001 -0.093417592 1.7602058e-38 364 320
0.052547399 0.66600001 -0.093417592 1.8063036e-38 365 320
0.053715117 0.66600001 -0.093417592 1.7880074e-38 366 320
0.054882839 0.66600001 -0.093417592 1.7880074e-38 367 320
0.056050558 0.66600001 -0.093417592 1.8155938e-38 368 320
0.057218276 0.66600001 -0.093417592 1.8248133e-38 369 320
0.058035329 0.662 -0.092856526 1.8340332e-38 370 320
0.05919604 0.662 -0.092856526 1.8340332e-38 371 320
