# .PCD v.7 - Point Cloud Data file format
FIELDS x y z rgb imX imY
SIZE 4 4 4 4 4 4
TYPE F F F F F F
COUNT 1 1 1 1 1 1
WIDTH 833
HEIGHT 1
VIEWPOINT 0 0 0 1 0 0 0
POINTS 833
DATA ascii
0.0461565 0.67500001 -0.044972997 1.5026013e-38 359 278
0.047410134 0.676 -0.045039624 1.4751221e-38 360 278
0.048811045 0.67900002 -0.045239504 1.4751221e-38 361 278
0.050075196 0.68000001 -0.045306131 1.4750855e-38 362 278
0.051418249 0.68199998 -0.045439381 1.465866e-38 363 278
0.052614026 0.68199998 -0.045439381 1.4657931e-38 364 278
0.053809796 0.68199998 -0.045439381 1.4657931e-38 365 278
0.055005573 0.68199998 -0.045439381 1.4748351e-38 366 278
-0.10274182 0.70599997 -0.048276275 1.2167598e-38 237 279
-0.10107265 0.70300001 -0.048071139 1.2259045e-38 238 279
-0.099556014 0.70099998 -0.047934376 1.1982818e-38 239 279
-0.097906128 0.69800001 -0.047729239 1.2349077e-38 240 279
-0.096543796 0.69700003 -0.047660861 1.2164686e-38 241 279
-0.094911434 0.69400001 -0.047455717 1.2624938e-38 242 279
-0.09369462 0.69400001 -0.047455717 1.2717134e-38 243 279
-0.092078045 0.69099998 -0.047250576 1.2810752e-38 244 279
-0.090866491 0.69099998 -0.047250576 1.2903308e-38 245 279
-0.0895252 0.69 -0.047182199 1.2903302e-38 246 279
-0.088059418 0.68800002 -0.047045439 1.2903302e-38 247 279
-0.086853124 0.68800002 -0.047045439 1.2903655e-38 248 279
-0.085522331 0.68699998 -0.046977058 1.2903655e-38 249 279
-0.083949596 0.68400002 -0.046771921 1.2812892e-38 250 279
-0.082750313 0.68400002 -0.046771921 1.2720696e-38 251 279
-0.081431814 0.68300003 -0.04670354 1.2904008e-38 252 279
-0.080116808 0.68199998 -0.046635158 1.2996204e-38 253 279
-0.078921035 0.68199998 -0.046635158 1.3179516e-38 254 279
-0.077497333 0.68000001 -0.046498399 1.3179516e-38 255 279
-0.076305062 0.68000001 -0.046498399 1.3456096e-38 256 279
-0.075002335 0.67900002 -0.046430022 1.3363542e-38 257 279
-0.073703118 0.67799997 -0.046361636 1.2996905e-38 258 279
-0.072514355 0.67799997 -0.046361636 1.2996905e-38 259 279
-0.071115203 0.676 -0.046224877 1.3733023e-38 260 279
-0.069929942 0.676 -0.046224877 1.3917775e-38 261 279
-0.068744689 0.676 -0.046224877 1.4102529e-38 262 279
-0.067459501 0.67500001 -0.0461565 1.4287279e-38 263 279
-0.066177815 0.67400002 -0.046088122 1.456351e-38 264 279
-0.064803198 0.67199999 -0.045951359 1.4747901e-38 265 279
-0.063624956 0.67199999 -0.045951359 1.5025214e-38 266 279
-0.062446721 0.67199999 -0.045951359 1.5393636e-38 267 279
-0.061268479 0.67199999 -0.045951359 1.6036122e-38 268 279
-0.060000818 0.671 -0.045882981 1.6128319e-38 269 279
-0.058824331 0.671 -0.045882981 1.6129035e-38 270 279
-0.057647847 0.671 -0.045882981 1.6129035e-38 271 279
-0.056387197 0.67000002 -0.0458146 1.6221236e-38 272 279
-0.055212468 0.67000002 -0.0458146 1.6221236e-38 273 279
-0.053876422 0.66799998 -0.045677837 1.6039006e-38 274 279
-0.052626297 0.667 -0.045609459 1.6039006e-38 275 279
-0.051456824 0.667 -0.045609459 1.63138e-38 276 279
-0.050287351 0.667 -0.045609459 1.63138e-38 277 279
-0.04904424 0.66600001 -0.045541082 1.6404924e-38 278 279
-0.047876518 0.66600001 -0.045541082 1.6588955e-38 279 279
-0.046708796 0.66600001 -0.045541082 1.6588955e-38 280 279
-0.045335937 0.66299999 -0.045335937 1.6681511e-38 281 279
-0.044173479 0.66299999 -0.045335937 1.6590392e-38 282 279
-0.043011017 0.66299999 -0.045335937 1.6682587e-38 283 279
-0.041848559 0.66299999 -0.045335937 1.6498549e-38 284 279
-0.040686097 0.66299999 -0.045335937 1.6498549e-38 285 279
-0.039523639 0.66299999 -0.045335937 1.6498543e-38 286 279
-0.038361177 0.66299999 -0.045335937 1.6590739e-38 287 279
-0.037198719 0.66299999 -0.045335937 1.7141763e-38 288 279
-0.036036257 0.66299999 -0.045335937 1.7141763e-38 289 279
-0.034821201 0.662 -0.04526756 1.7233609e-38 290 279
-0.033660494 0.662 -0.04526756 1.7233609e-38 291 279
-0.032499783 0.662 -0.04526756 1.7325451e-38 292 279
-0.031339079 0.662 -0.04526756 1.7325451e-38 293 279
-0.030178372 0.662 -0.04526756 1.7049217e-38 294 279
-0.029017664 0.662 -0.04526756 1.7233609e-38 295 279
-0.02781488 0.66100001 -0.045199182 1.6960253e-38 296 279
-0.026655925 0.66100001 -0.045199182 1.6960253e-38 297 279
-0.025496973 0.66100001 -0.045199182 1.7235034e-38 298 279
-0.02433802 0.66100001 -0.045199182 1.7235034e-38 299 279
-0.023179067 0.66100001 -0.045199182 1.7326875e-38 300 279
-0.022020113 0.66100001 -0.045199182 1.741907e-38 301 279
-0.02076648 0.65799999 -0.044994038 1.7143928e-38 302 279
-0.019612785 0.65799999 -0.044994038 1.7236124e-38 303 279
-0.018459093 0.65799999 -0.044994038 1.7326875e-38 304 279
-0.017305398 0.65799999 -0.044994038 1.7326875e-38 305 279
-0.016151706 0.65799999 -0.044994038 1.7235761e-38 306 279
-0.014998012 0.65799999 -0.044994038 1.7327957e-38 307 279
-0.01384432 0.65799999 -0.044994038 1.7328325e-38 308 279
-0.012709912 0.65899998 -0.045062415 1.7328325e-38 309 279
-0.011554466 0.65899998 -0.045062415 1.7236129e-38 310 279
-0.01043058 0.66100001 -0.045199182 1.7328325e-38 311 279
-0.0092716264 0.66100001 -0.045199182 1.7052814e-38 312 279
-0.0081126727 0.66100001 -0.045199182 1.7052814e-38 313 279
-0.00695372 0.66100001 -0.045199182 1.6960266e-38 314 279
-0.0057947668 0.66100001 -0.045199182 1.7052461e-38 315 279
-0.0046358132 0.66100001 -0.045199182 1.7235057e-38 316 279
-0.0034663398 0.65899998 -0.045062415 1.7235057e-38 317 279
-0.0023108933 0.65899998 -0.045062415 1.7327975e-38 318 279
-0.0011554466 0.65899998 -0.045062415 1.7235779e-38 319 279
0 0.65799999 -0.044994038 1.7327256e-38 320 279
0.0011536933 0.65799999 -0.044994038 1.7142506e-38 321 279
0.0023108933 0.65899998 -0.045062415 1.7234681e-38 322 279
0.0034663398 0.65899998 -0.045062415 1.7234681e-38 323 279
0.0046217865 0.65899998 -0.045062415 1.7050647e-38 324 279
0.0057772328 0.65899998 -0.045062415 1.6958451e-38 325 279
0.0069326796 0.65899998 -0.045062415 1.6866265e-38 326 279
0.0080881258 0.65899998 -0.045062415 1.6682234e-38 327 279
0.0092435731 0.65899998 -0.045062415 1.7233623e-38 328 279
0.010399019 0.65899998 -0.045062415 1.7233623e-38 329 279
0.011554466 0.65899998 -0.045062415 1.6865562e-38 330 279
0.012690626 0.65799999 -0.044994038 1.6589335e-38 331 279
0.01384432 0.65799999 -0.044994038 1.6314546e-38 332 279
0.015020805 0.65899998 -0.045062415 1.6314546e-38 333 279
0.016176252 0.65899998 -0.045062415 1.6313824e-38 334 279
0.0173843 0.66100001 -0.045199182 1.6221629e-38 335 279
0.018571306 0.662 -0.04526756 1.6313097e-38 336 279
0.019732011 0.662 -0.04526756 1.603687e-38 337 279
0.020892721 0.662 -0.04526756 1.6037955e-38 338 279
0.022053426 0.662 -0.04526756 1.5761369e-38 339 279
0.023214132 0.662 -0.04526756 1.5761022e-38 340 279
0.024374841 0.662 -0.04526756 1.5853217e-38 341 279
0.025535546 0.662 -0.04526756 1.5760666e-38 342 279
0.026696252 0.662 -0.04526756 1.5760666e-38 343 279
0.027856959 0.662 -0.04526756 1.5576277e-38 344 279
0.029061496 0.66299999 -0.045335937 1.5391526e-38 345 279
0.030269546 0.66399997 -0.045404319 1.5022748e-38 346 279
0.031528439 0.66600001 -0.045541082 1.5391529e-38 347 279
0.032696161 0.66600001 -0.045541082 1.5208231e-38 348 279
0.033914726 0.667 -0.045609459 1.5208231e-38 349 279
0.035136797 0.66799998 -0.045677837 1.5024565e-38 350 279
0.036308024 0.66799998 -0.045677837 1.5024565e-38 351 279
0.037479252 0.66799998 -0.045677837 1.484125e-38 352 279
0.038766202 0.67000002 -0.0458146 1.502564e-38 353 279
0.039940935 0.67000002 -0.0458146 1.4841972e-38 354 279
0.041115668 0.67000002 -0.0458146 1.4841972e-38 355 279
0.042290401 0.67000002 -0.0458146 1.5025287e-38 356 279
0.043530006 0.671 -0.045882981 1.5117482e-38 357 279
0.044773117 0.67199999 -0.045951359 1.5117482e-38 358 279
0.046088122 0.67400002 -0.046088122 1.5117482e-38 359 279
0.047339998 0.67500001 -0.0461565 1.4934167e-38 360 279
0.048739154 0.67799997 -0.046361636 1.4934167e-38 361 279
0.050001562 0.67900002 -0.046430022 1.4750852e-38 362 279
0.051267464 0.68000001 -0.046498399 1.4750852e-38 363 279
0.052459732 0.68000001 -0.046498399 1.4474631e-38 364 279
0.053809796 0.68199998 -0.046635158 1.42906e-38 365 279
0.055005573 0.68199998 -0.046635158 1.4105521e-38 366 279
-0.099556014 0.70099998 -0.049163464 1.1797718e-38 239 280
-0.097906128 0.69800001 -0.048953064 1.1613323e-38 240 280
-0.096543796 0.69700003 -0.048882935 1.1337096e-38 241 280
-0.094911434 0.69400001 -0.048672531 1.1520774e-38 242 280
-0.09369462 0.69400001 -0.048672531 1.1889917e-38 243 280
-0.092078045 0.69099998 -0.04846213 1.262639e-38 244 280
-0.090866491 0.69099998 -0.04846213 1.2718586e-38 245 280
-0.0895252 0.69 -0.048391998 1.2628163e-38 246 280
-0.088059418 0.68800002 -0.048251733 1.2628163e-38 247 280
-0.086853124 0.68800002 -0.048251733 1.272034e-38 248 280
-0.085522331 0.68699998 -0.048181597 1.2812536e-38 249 280
-0.083949596 0.68400002 -0.0479712 1.2813245e-38 250 280
-0.082750313 0.68400002 -0.0479712 1.2720689e-38 251 280
-0.081431814 0.68300003 -0.047901068 1.2904005e-38 252 280
-0.080116808 0.68199998 -0.047830928 1.2904005e-38 253 280
-0.078921035 0.68199998 -0.047830928 1.2903655e-38 254 280
-0.077725261 0.68199998 -0.047830928 1.2995851e-38 255 280
-0.076305062 0.68000001 -0.047690667 1.2812541e-38 256 280
-0.075002335 0.67900002 -0.047620531 1.2996572e-38 257 280
-0.073703118 0.67799997 -0.047550395 1.2813623e-38 258 280
-0.072514355 0.67799997 -0.047550395 1.2813623e-38 259 280
-0.071115203 0.676 -0.047410134 1.2905824e-38 260 280
-0.069929942 0.676 -0.047410134 1.2905824e-38 261 280
-0.068744689 0.676 -0.047410134 1.3180245e-38 262 280
-0.067459501 0.67500001 -0.047339998 1.345683e-38 263 280
-0.066177815 0.67400002 -0.047269866 1.3549729e-38 264 280
-0.064706765 0.671 -0.047059465 1.3918513e-38 265 280
-0.063530281 0.671 -0.047059465 1.4380208e-38 266 280
-0.06235379 0.671 -0.047059465 1.4657153e-38 267 280
-0.061177302 0.671 -0.047059465 1.4933013e-38 268 280
-0.060000818 0.671 -0.047059465 1.5025208e-38 269 280
-0.058824331 0.671 -0.047059465 1.5392549e-38 270 280
-0.057390101 0.66799998 -0.046849065 1.5669134e-38 271 280
-0.056218877 0.66799998 -0.046849065 1.5485119e-38 272 280
-0.05504765 0.66799998 -0.046849065 1.5577314e-38 273 280
-0.05379577 0.667 -0.046778932 1.5394019e-38 274 280
-0.052626297 0.667 -0.046778932 1.5394019e-38 275 280
-0.051456824 0.667 -0.046778932 1.5761725e-38 276 280
-0.050211959 0.66600001 -0.046708796 1.5761725e-38 277 280
-0.04904424 0.66600001 -0.046708796 1.5761725e-38 278 280
-0.047876518 0.66600001 -0.046708796 1.5761725e-38 279 280
-0.046568532 0.66399997 -0.046568532 1.5853924e-38 280 280
-0.045335937 0.66299999 -0.046498399 1.6037955e-38 281 280
-0.044173479 0.66299999 -0.046498399 1.6129076e-38 282 280
-0.043011017 0.66299999 -0.046498399 1.6221631e-38 283 280
-0.041848559 0.66299999 -0.046498399 1.6222701e-38 284 280
-0.040686097 0.66299999 -0.046498399 1.6130504e-38 285 280
-0.039523639 0.66299999 -0.046498399 1.6130149e-38 286 280
-0.038303319 0.662 -0.046428263 1.6130149e-38 287 280
-0.037142612 0.662 -0.046428263 1.622235e-38 288 280
-0.035981905 0.662 -0.046428263 1.622235e-38 289 280
-0.034821201 0.662 -0.046428263 1.6313474e-38 290 280
-0.033609647 0.66100001 -0.046358135 1.6497505e-38 291 280
-0.032450691 0.66100001 -0.046358135 1.6313842e-38 292 280
-0.031291738 0.66100001 -0.046358135 1.6406038e-38 293 280
-0.030132787 0.66100001 -0.046358135 1.6313842e-38 294 280
-0.028973831 0.66100001 -0.046358135 1.6406038e-38 295 280
-0.02781488 0.66100001 -0.046358135 1.6406035e-38 296 280
-0.026655925 0.66100001 -0.046358135 1.6406035e-38 297 280
-0.025419824 0.65899998 -0.046217863 1.6682968e-38 298 280
-0.024264378 0.65899998 -0.046217863 1.6406742e-38 299 280
-0.023179067 0.66100001 -0.046358135 1.6682237e-38 300 280
-0.021953486 0.65899998 -0.046217863 1.6866268e-38 301 280
-0.02076648 0.65799999 -0.04614773 1.6775149e-38 302 280
-0.019582979 0.65700001 -0.046077598 1.6775149e-38 303 280
-0.01843104 0.65700001 -0.046077598 1.6958819e-38 304 280
-0.0172791 0.65700001 -0.046077598 1.6958819e-38 305 280
-0.01612716 0.65700001 -0.046077598 1.7051015e-38 306 280
-0.014998012 0.65799999 -0.04614773 1.7051015e-38 307 280
-0.01384432 0.65799999 -0.04614773 1.6958817e-38 308 280
-0.012690626 0.65799999 -0.04614773 1.6958817e-38 309 280
-0.011554466 0.65899998 -0.046217863 1.6958819e-38 310 280
-0.010399019 0.65899998 -0.046217863 1.6958819e-38 311 280
-0.0092435731 0.65899998 -0.046217863 1.6683675e-38 312 280
-0.0081126727 0.66100001 -0.046358135 1.6499643e-38 313 280
-0.00695372 0.66100001 -0.046358135 1.704994e-38 314 280
-0.0057947668 0.66100001 -0.046358135 1.6957745e-38 315 280
-0.0046217865 0.65899998 -0.046217863 1.6957745e-38 316 280
-0.0034663398 0.65899998 -0.046217863 1.6957745e-38 317 280
-0.0023108933 0.65899998 -0.046217863 1.6865915e-38 318 280
-0.0011536933 0.65799999 -0.04614773 1.695811e-38 319 280
0 0.65799999 -0.04614773 1.6774445e-38 320 280
0.0011536933 0.65799999 -0.04614773 1.6774445e-38 321 280
0.0023108933 0.65899998 -0.046217863 1.6865562e-38 322 280
0.0034663398 0.65899998 -0.046217863 1.6865562e-38 323 280
0.0046217865 0.65899998 -0.046217863 1.6315262e-38 324 280
0.0057772328 0.65899998 -0.046217863 1.6039035e-38 325 280
0.0069326796 0.65899998 -0.046217863 1.6037952e-38 326 280
0.0080881258 0.65899998 -0.046217863 1.6130149e-38 327 280
0.0092435731 0.65899998 -0.046217863 1.6220922e-38 328 280
0.01038324 0.65799999 -0.04614773 1.6313477e-38 329 280
0.011536933 0.65799999 -0.04614773 1.6129448e-38 330 280
0.012690626 0.65799999 -0.04614773 1.6221644e-38 331 280
0.01384432 0.65799999 -0.04614773 1.5946502e-38 332 280
0.014998012 0.65799999 -0.04614773 1.5946502e-38 333 280
0.016176252 0.65899998 -0.046217863 1.5669572e-38 334 280
0.0173843 0.66100001 -0.046358135 1.5669572e-38 335 280
0.018543253 0.66100001 -0.046358135 1.5761037e-38 336 280
0.019702207 0.66100001 -0.046358135 1.5668842e-38 337 280
0.02086116 0.66100001 -0.046358135 1.5302214e-38 338 280
0.022020113 0.66100001 -0.046358135 1.520966e-38 339 280
0.023214132 0.662 -0.046428263 1.502599e-38 340 280
0.024374841 0.662 -0.046428263 1.502599e-38 341 280
0.025535546 0.662 -0.046428263 1.4933076e-38 342 280
0.026696252 0.662 -0.046428263 1.4933076e-38 343 280
0.027856959 0.662 -0.046428263 1.4840526e-38 344 280
0.029017664 0.662 -0.046428263 1.4656495e-38 345 280
0.030223956 0.66299999 -0.046498399 1.4654694e-38 346 280
0.031433757 0.66399997 -0.046568532 1.4654694e-38 347 280
0.03259797 0.66399997 -0.046568532 1.4105486e-38 348 280
0.033914726 0.667 -0.046778932 1.4289517e-38 349 280
0.035084199 0.667 -0.046778932 1.4288813e-38 350 280
0.036253672 0.667 -0.046778932 1.4288813e-38 351 280
0.037479252 0.66799998 -0.046849065 1.4381365e-38 352 280
0.038766202 0.67000002 -0.046989333 1.4381365e-38 353 280
0.039940935 0.67000002 -0.046989333 1.4473562e-38 354 280
0.041115668 0.67000002 -0.046989333 1.4473562e-38 355 280
0.042290401 0.67000002 -0.046989333 1.4473565e-38 356 280
0.043465134 0.67000002 -0.046989333 1.456576e-38 357 280
0.044773117 0.67199999 -0.047129598 1.4565755e-38 358 280
0.045951359 0.67199999 -0.047129598 1.4473559e-38 359 280
0.047269866 0.67400002 -0.047269866 1.4473912e-38 360 280
0.048523501 0.67500001 -0.047339998 1.4566108e-38 361 280
0.049927916 0.67799997 -0.047550395 1.4290603e-38 362 280
0.051267464 0.68000001 -0.047690667 1.4290603e-38 363 280
0.052459732 0.68000001 -0.047690667 1.4106224e-38 364 280
0.053809796 0.68199998 -0.047830928 1.4106224e-38 365 280
0.055005573 0.68199998 -0.047830928 1.3828954e-38 366 280
-0.097906128 0.69800001 -0.050176892 1.1336743e-38 240 281
-0.096543796 0.69700003 -0.050105009 1.1152352e-38 241 281
-0.095184952 0.69599998 -0.050033119 1.1243101e-38 242 281
-0.093964636 0.69599998 -0.050033119 1.1427494e-38 243 281
-0.09234456 0.69300002 -0.049817458 1.1612957e-38 244 281
-0.090866491 0.69099998 -0.049673684 1.2166131e-38 245 281
-0.0895252 0.69 -0.049601797 1.2443774e-38 246 281
-0.088059418 0.68800002 -0.049458027 1.2443774e-38 247 281
-0.086726874 0.68699998 -0.049386136 1.2903658e-38 248 281
-0.085522331 0.68699998 -0.049386136 1.2903658e-38 249 281
-0.083949596 0.68400002 -0.049170479 1.2812536e-38 250 281
-0.082750313 0.68400002 -0.049170479 1.2812536e-38 251 281
-0.081431814 0.68300003 -0.049098592 1.2812892e-38 252 281
-0.080116808 0.68199998 -0.049026705 1.2720696e-38 253 281
-0.078921035 0.68199998 -0.049026705 1.2812892e-38 254 281
-0.077725261 0.68199998 -0.049026705 1.2720696e-38 255 281
-0.076305062 0.68000001 -0.048882935 1.2812536e-38 256 281
-0.075002335 0.67900002 -0.048811045 1.2812536e-38 257 281
-0.073703118 0.67799997 -0.048739154 1.2812892e-38 258 281
-0.072514355 0.67799997 -0.048739154 1.2812892e-38 259 281
-0.0713256 0.67799997 -0.048739154 1.2996201e-38 260 281
-0.069929942 0.676 -0.048595384 1.3088755e-38 261 281
-0.068744689 0.676 -0.048595384 1.2813245e-38 262 281
-0.067359567 0.67400002 -0.048451614 1.2813245e-38 263 281
-0.06598144 0.67199999 -0.04830784 1.2811806e-38 264 281
-0.064706765 0.671 -0.048235953 1.3180948e-38 265 281
-0.063530281 0.671 -0.048235953 1.3366779e-38 266 281
-0.06235379 0.671 -0.048235953 1.3459333e-38 267 281
-0.061177302 0.671 -0.048235953 1.382739e-38 268 281
-0.0599114 0.67000002 -0.048164066 1.4011781e-38 269 281
-0.058736663 0.67000002 -0.048164066 1.4379845e-38 270 281
-0.057304189 0.667 -0.047948405 1.4748267e-38 271 281
-0.056134716 0.667 -0.047948405 1.5116684e-38 272 281
-0.054965243 0.667 -0.047948405 1.4932292e-38 273 281
-0.053715117 0.66600001 -0.047876518 1.5483666e-38 274 281
-0.052547399 0.66600001 -0.047876518 1.557622e-38 275 281
-0.051379681 0.66600001 -0.047876518 1.5668065e-38 276 281
-0.050211959 0.66600001 -0.047876518 1.5760261e-38 277 281
-0.048896957 0.66399997 -0.047732744 1.5668784e-38 278 281
-0.047732744 0.66399997 -0.047732744 1.576098e-38 279 281
-0.046498399 0.66299999 -0.047660857 1.5944295e-38 280 281
-0.045335937 0.66299999 -0.047660857 1.6036492e-38 281 281
-0.044173479 0.66299999 -0.047660857 1.6036139e-38 282 281
-0.043011017 0.66299999 -0.047660857 1.6128334e-38 283 281
-0.041785441 0.662 -0.047588971 1.6037215e-38 284 281
-0.04062473 0.662 -0.047588971 1.6037215e-38 285 281
-0.039464023 0.662 -0.047588971 1.5945022e-38 286 281
-0.038303319 0.662 -0.047588971 1.6037218e-38 287 281
-0.037142612 0.662 -0.047588971 1.5852471e-38 288 281
-0.035927553 0.66100001 -0.047517084 1.5852471e-38 289 281
-0.0347686 0.66100001 -0.047517084 1.6403845e-38 290 281
-0.033609647 0.66100001 -0.047517084 1.6403845e-38 291 281
-0.032450691 0.66100001 -0.047517084 1.622018e-38 292 281
-0.031197058 0.65899998 -0.04737331 1.6312375e-38 293 281
-0.030041611 0.65899998 -0.04737331 1.6312022e-38 294 281
-0.028886165 0.65899998 -0.04737331 1.6312022e-38 295 281
-0.027730718 0.65899998 -0.04737331 1.6404574e-38 296 281
-0.026575271 0.65899998 -0.04737331 1.6404574e-38 297 281
-0.025419824 0.65899998 -0.04737331 1.640529e-38 298 281
-0.024264378 0.65899998 -0.04737331 1.6313094e-38 299 281
-0.023108931 0.65899998 -0.04737331 1.6037949e-38 300 281
-0.021953486 0.65899998 -0.04737331 1.6037949e-38 301 281
-0.020671798 0.65499997 -0.047085766 1.622198e-38 302 281
-0.019523365 0.65499997 -0.047085766 1.6314177e-38 303 281
-0.018374931 0.65499997 -0.047085766 1.6221626e-38 304 281
-0.017226499 0.65499997 -0.047085766 1.631418e-38 305 281
-0.016078066 0.65499997 -0.047085766 1.6314899e-38 306 281
-0.01497522 0.65700001 -0.04722954 1.6222345e-38 307 281
-0.013823279 0.65700001 -0.04722954 1.6773353e-38 308 281
-0.01267134 0.65700001 -0.04722954 1.6773353e-38 309 281
-0.011519399 0.65700001 -0.04722954 1.6314175e-38 310 281
-0.01038324 0.65799999 -0.047301427 1.6221978e-38 311 281
-0.0092295464 0.65799999 -0.047301427 1.6314175e-38 312 281
-0.0080881258 0.65899998 -0.04737331 1.6129782e-38 313 281
-0.0069326796 0.65899998 -0.04737331 1.6405646e-38 314 281
-0.0057772328 0.65899998 -0.04737331 1.6220896e-38 315 281
-0.0046217865 0.65899998 -0.04737331 1.6312731e-38 316 281
-0.0034610799 0.65799999 -0.047301427 1.6312731e-38 317 281
-0.0023073866 0.65799999 -0.047301427 1.6129429e-38 318 281
-0.0011536933 0.65799999 -0.047301427 1.6129429e-38 319 281
0 0.65799999 -0.047301427 1.6129432e-38 320 281
0.0011536933 0.65799999 -0.047301427 1.6129432e-38 321 281
0.0023073866 0.65799999 -0.047301427 1.6129429e-38 322 281
0.0034610799 0.65799999 -0.047301427 1.6221626e-38 323 281
0.0046147732 0.65799999 -0.047301427 1.6129432e-38 324 281
0.0057684663 0.65799999 -0.047301427 1.5852486e-38 325 281
0.0069221598 0.65799999 -0.047301427 1.5393666e-38 326 281
0.0080758529 0.65799999 -0.047301427 1.530147e-38 327 281
0.0092295464 0.65799999 -0.047301427 1.5945038e-38 328 281
0.01038324 0.65799999 -0.047301427 1.5852842e-38 329 281
0.011519399 0.65700001 -0.04722954 1.5759925e-38 330 281
0.01267134 0.65700001 -0.04722954 1.585212e-38 331 281
0.01384432 0.65799999 -0.047301427 1.5852136e-38 332 281
0.014998012 0.65799999 -0.047301427 1.5852136e-38 333 281
0.016176252 0.65899998 -0.04737331 1.5668473e-38 334 281
0.017331699 0.65899998 -0.04737331 1.5576277e-38 335 281
0.018543253 0.66100001 -0.047517084 1.5484082e-38 336 281
0.019702207 0.66100001 -0.047517084 1.5484082e-38 337 281
0.02086116 0.66100001 -0.047517084 1.5208937e-38 338 281
0.022020113 0.66100001 -0.047517084 1.5024904e-38 339 281
0.023179067 0.66100001 -0.047517084 1.4840873e-38 340 281
0.02433802 0.66100001 -0.047517084 1.4840873e-38 341 281
0.025496973 0.66100001 -0.047517084 1.4564644e-38 342 281
0.026655925 0.66100001 -0.047517084 1.4472448e-38 343 281
0.02781488 0.66100001 -0.047517084 1.4563197e-38 344 281
0.029017664 0.662 -0.047588971 1.4378806e-38 345 281
0.030223956 0.66299999 -0.047660857 1.373416e-38 346 281
0.031386416 0.66299999 -0.047660857 1.3918551e-38 347 281
0.03259797 0.66399997 -0.047732744 1.3827447e-38 348 281
0.03386388 0.66600001 -0.047876518 1.3919643e-38 349 281
0.035031598 0.66600001 -0.047876518 1.428663e-38 350 281
0.036253672 0.667 -0.047948405 1.428663e-38 351 281
0.037423145 0.667 -0.047948405 1.4287706e-38 352 281
0.038650475 0.66799998 -0.048020288 1.4287706e-38 353 281
0.039821707 0.66799998 -0.048020288 1.4104041e-38 354 281
0.040992931 0.66799998 -0.048020288 1.4380268e-38 355 281
0.042290401 0.67000002 -0.048164066 1.4471391e-38 356 281
0.043465134 0.67000002 -0.048164066 1.4563946e-38 357 281
0.044706494 0.671 -0.048235953 1.4472116e-38 358 281
0.045951359 0.67199999 -0.04830784 1.4379562e-38 359 281
0.047129598 0.67199999 -0.04830784 1.4379564e-38 360 281
0.048523501 0.67500001 -0.048523501 1.4379564e-38 361 281
0.049780637 0.676 -0.048595384 1.3462287e-38 362 281
0.051192071 0.67900002 -0.048811045 1.3462287e-38 363 281
0.052382588 0.67900002 -0.048811045 1.3554848e-38 364 281
0.053652 0.68000001 -0.048882935 1.3462653e-38 365 281
0.054844268 0.68000001 -0.048882935 1.3646357e-38 366 281
-0.093964636 0.69599998 -0.051253434 1.1151998e-38 243 282
-0.092078045 0.69099998 -0.050885238 1.115163e-38 244 282
-0.090866491 0.69099998 -0.050885238 1.115163e-38 245 282
-0.0895252 0.69 -0.050811596 1.1523267e-38 246 282
-0.088059418 0.68800002 -0.050664321 1.1983885e-38 247 282
-0.086726874 0.68699998 -0.050590675 1.2627796e-38 248 282
-0.085522331 0.68699998 -0.050590675 1.2627796e-38 249 282
-0.083949596 0.68400002 -0.050369758 1.2812538e-38 250 282
-0.082750313 0.68400002 -0.050369758 1.2812538e-38 251 282
-0.081431814 0.68300003 -0.05029612 1.2996201e-38 252 282
-0.080116808 0.68199998 -0.050222475 1.2996201e-38 253 282
-0.078921035 0.68199998 -0.050222475 1.3179872e-38 254 282
-0.077725261 0.68199998 -0.050222475 1.3179872e-38 255 282
-0.076305062 0.68000001 -0.050075196 1.3179519e-38 256 282
-0.075002335 0.67900002 -0.050001562 1.3179519e-38 257 282
-0.073811822 0.67900002 -0.050001562 1.2812536e-38 258 282
-0.072514355 0.67799997 -0.049927916 1.2812536e-38 259 282
-0.071115203 0.676 -0.049780637 1.2812536e-38 260 282
-0.069929942 0.676 -0.049780637 1.2812536e-38 261 282
-0.068643004 0.67500001 -0.049706999 1.2721062e-38 262 282
-0.067359567 0.67400002 -0.049633358 1.2721062e-38 263 282
-0.06598144 0.67199999 -0.049486078 1.2812551e-38 264 282
-0.064706765 0.671 -0.049412437 1.2905105e-38 265 282
-0.063530281 0.671 -0.049412437 1.3088415e-38 266 282
-0.06235379 0.671 -0.049412437 1.3088415e-38 267 282
-0.061177302 0.671 -0.049412437 1.2998358e-38 268 282
-0.0599114 0.67000002 -0.049338799 1.3274584e-38 269 282
-0.058561329 0.66799998 -0.04919152 1.3826318e-38 270 282
-0.057304189 0.667 -0.049117878 1.3918513e-38 271 282
-0.056134716 0.667 -0.049117878 1.4195081e-38 272 282
-0.054965243 0.667 -0.049117878 1.4102885e-38 273 282
-0.053715117 0.66600001 -0.04904424 1.4470942e-38 274 282
-0.052547399 0.66600001 -0.04904424 1.4655334e-38 275 282
-0.051225383 0.66399997 -0.048896957 1.465535e-38 276 282
-0.05006117 0.66399997 -0.048896957 1.48401e-38 277 282
-0.048896957 0.66399997 -0.048896957 1.465715e-38 278 282
-0.047732744 0.66399997 -0.048896957 1.4841902e-38 279 282
-0.046498399 0.66299999 -0.048823316 1.5024861e-38 280 282
-0.045335937 0.66299999 -0.048823316 1.5117056e-38 281 282
-0.044106852 0.662 -0.048749682 1.5209621e-38 282 282
-0.042946145 0.662 -0.048749682 1.5301816e-38 283 282
-0.041785441 0.662 -0.048749682 1.5485136e-38 284 282
-0.04062473 0.662 -0.048749682 1.5485136e-38 285 282
-0.039464023 0.662 -0.048749682 1.5576256e-38 286 282
-0.038303319 0.662 -0.048749682 1.5576256e-38 287 282
-0.037086505 0.66100001 -0.04867604 1.5576256e-38 288 282
-0.035927553 0.66100001 -0.04867604 1.5576256e-38 289 282
-0.0347686 0.66100001 -0.04867604 1.5759925e-38 290 282
-0.033609647 0.66100001 -0.04867604 1.585212e-38 291 282
-0.032352503 0.65899998 -0.048528757 1.5852123e-38 292 282
-0.031197058 0.65899998 -0.048528757 1.5944319e-38 293 282
-0.030041611 0.65899998 -0.048528757 1.5852489e-38 294 282
-0.028886165 0.65899998 -0.048528757 1.5944684e-38 295 282
-0.027730718 0.65899998 -0.048528757 1.5852842e-38 296 282
-0.026575271 0.65899998 -0.048528757 1.5852842e-38 297 282
-0.025381252 0.65799999 -0.048455119 1.5761722e-38 298 282
-0.02422756 0.65799999 -0.048455119 1.5853918e-38 299 282
-0.023073865 0.65799999 -0.048455119 1.6037952e-38 300 282
-0.021920172 0.65799999 -0.048455119 1.6037952e-38 301 282
-0.020671798 0.65499997 -0.048234195 1.6221629e-38 302 282
-0.019523365 0.65499997 -0.048234195 1.6221629e-38 303 282
-0.018374931 0.65499997 -0.048234195 1.6312391e-38 304 282
-0.017226499 0.65499997 -0.048234195 1.6404588e-38 305 282
-0.016078066 0.65499997 -0.048234195 1.6404593e-38 306 282
-0.014929632 0.65499997 -0.048234195 1.6404593e-38 307 282
-0.013781199 0.65499997 -0.048234195 1.6312747e-38 308 282
-0.012632766 0.65499997 -0.048234195 1.6312747e-38 309 282
-0.011519399 0.65700001 -0.048381478 1.6221626e-38 310 282
-0.01036746 0.65700001 -0.048381478 1.6129429e-38 311 282
-0.0092295464 0.65799999 -0.048455119 1.6129432e-38 312 282
-0.0080758529 0.65799999 -0.048455119 1.6129432e-38 313 282
-0.0069116396 0.65700001 -0.048381478 1.6221629e-38 314 282
-0.0057421662 0.65499997 -0.048234195 1.6037236e-38 315 282
-0.0045937328 0.65499997 -0.048234195 1.6036883e-38 316 282
-0.0034558198 0.65700001 -0.048381478 1.6036883e-38 317 282
-0.0023038799 0.65700001 -0.048381478 1.585322e-38 318 282
-0.00115194 0.65700001 -0.048381478 1.585322e-38 319 282
0 0.65700001 -0.048381478 1.5944331e-38 320 282
0.00115194 0.65700001 -0.048381478 1.5852136e-38 321 282
0.0023073866 0.65799999 -0.048455119 1.5761372e-38 322 282
0.0034610799 0.65799999 -0.048455119 1.5669176e-38 323 282
0.0046147732 0.65799999 -0.048455119 1.5668823e-38 324 282
0.0057596997 0.65700001 -0.048381478 1.5576628e-38 325 282
0.0069116396 0.65700001 -0.048381478 1.5392962e-38 326 282
0.0080758529 0.65799999 -0.048455119 1.5300767e-38 327 282
0.0092155198 0.65700001 -0.048381478 1.5392235e-38 328 282
0.01036746 0.65700001 -0.048381478 1.5207845e-38 329 282
0.011519399 0.65700001 -0.048381478 1.5392229e-38 330 282
0.01267134 0.65700001 -0.048381478 1.5208198e-38 331 282
0.013823279 0.65700001 -0.048381478 1.5208214e-38 332 282
0.01497522 0.65700001 -0.048381478 1.5300411e-38 333 282
0.016151706 0.65799999 -0.048455119 1.5207865e-38 334 282
0.017331699 0.65899998 -0.048528757 1.5115668e-38 335 282
0.018487146 0.65899998 -0.048528757 1.4840157e-38 336 282
0.019642593 0.65899998 -0.048528757 1.4840157e-38 337 282
0.020798039 0.65899998 -0.048528757 1.4839801e-38 338 282
0.021953486 0.65899998 -0.048528757 1.4747606e-38 339 282
0.023179067 0.66100001 -0.04867604 1.4564649e-38 340 282
0.02433802 0.66100001 -0.04867604 1.4472095e-38 341 282
0.025496973 0.66100001 -0.04867604 1.4287704e-38 342 282
0.026655925 0.66100001 -0.04867604 1.4195507e-38 343 282
0.02781488 0.66100001 -0.04867604 1.4010744e-38 344 282
0.029017664 0.662 -0.048749682 1.3549766e-38 345 282
0.030223956 0.66299999 -0.048823316 1.2905115e-38 346 282
0.031386416 0.66299999 -0.048823316 1.2905115e-38 347 282
0.03259797 0.66399997 -0.048896957 1.290657e-38 348 282
0.033762183 0.66399997 -0.048896957 1.3090961e-38 349 282
0.035031598 0.66600001 -0.04904424 1.3642337e-38 350 282
0.036253672 0.667 -0.049117878 1.3734533e-38 351 282
0.037423145 0.667 -0.049117878 1.3551571e-38 352 282
0.038592618 0.667 -0.049117878 1.3551571e-38 353 282
0.039762091 0.667 -0.049117878 1.3459741e-38 354 282
0.040992931 0.66799998 -0.04919152 1.3551936e-38 355 282
0.042290401 0.67000002 -0.049338799 1.3734898e-38 356 282
0.043465134 0.67000002 -0.049338799 1.3734898e-38 357 282
0.044706494 0.671 -0.049412437 1.3458681e-38 358 282
0.045951359 0.67199999 -0.049486078 1.3366486e-38 359 282
0.047129598 0.67199999 -0.049486078 1.2907311e-38 360 282
0.048451614 0.67400002 -0.049633358 1.3183539e-38 361 282
0.049780637 0.676 -0.049780637 1.2909476e-38 362 282
0.051116679 0.67799997 -0.049927916 1.3001672e-38 363 282
0.052305438 0.67799997 -0.049927916 1.3094237e-38 364 282
0.053573098 0.67900002 -0.050001562 1.3002042e-38 365 282
0.054763615 0.67900002 -0.050001562 1.3554164e-38 366 282
-0.092078045 0.69099998 -0.052096792 1.1059437e-38 244 283
-0.090866491 0.69099998 -0.052096792 1.0874686e-38 245 283
-0.0895252 0.69 -0.052021399 1.0602046e-38 246 283
-0.088059418 0.68800002 -0.051870614 1.1247416e-38 247 283
-0.086853124 0.68800002 -0.051870614 1.2166837e-38 248 283
-0.085522331 0.68699998 -0.051795214 1.2259033e-38 249 283
-0.084195063 0.68599999 -0.051719822 1.262744e-38 250 283
-0.082750313 0.68400002 -0.051569041 1.2812191e-38 251 283
-0.081431814 0.68300003 -0.051493648 1.2995851e-38 252 283
-0.080234289 0.68300003 -0.051493648 1.2995851e-38 253 283
-0.078921035 0.68199998 -0.051418249 1.2996204e-38 254 283
-0.077725261 0.68199998 -0.051418249 1.2996204e-38 255 283
-0.076305062 0.68000001 -0.051267464 1.2996207e-38 256 283
-0.075002335 0.67900002 -0.051192071 1.2996207e-38 257 283
-0.073811822 0.67900002 -0.051192071 1.2996204e-38 258 283
-0.072514355 0.67799997 -0.051116679 1.2996204e-38 259 283
-0.071115203 0.676 -0.050965894 1.2720696e-38 260 283
-0.069929942 0.676 -0.050965894 1.2720696e-38 261 283
-0.068643004 0.67500001 -0.050890498 1.2720696e-38 262 283
-0.067359567 0.67400002 -0.050815105 1.2720696e-38 263 283
-0.06598144 0.67199999 -0.050664317 1.2903652e-38 264 283
-0.064706765 0.671 -0.050588924 1.2903652e-38 265 283
-0.063530281 0.671 -0.050588924 1.2995135e-38 266 283
-0.06235379 0.671 -0.050588924 1.3179166e-38 267 283
-0.061086133 0.67000002 -0.050513536 1.2812541e-38 268 283
-0.0599114 0.67000002 -0.050513536 1.2996572e-38 269 283
-0.058561329 0.66799998 -0.050362743 1.3089847e-38 270 283
-0.057304189 0.667 -0.050287351 1.327388e-38 271 283
-0.056134716 0.667 -0.050287351 1.3274584e-38 272 283
-0.054965243 0.667 -0.050287351 1.2998358e-38 273 283
-0.053715117 0.66600001 -0.050211959 1.373232e-38 274 283
-0.052389596 0.66399997 -0.05006117 1.3917071e-38 275 283
-0.051225383 0.66399997 -0.05006117 1.3551173e-38 276 283
-0.05006117 0.66399997 -0.05006117 1.3551173e-38 277 283
-0.048823316 0.66299999 -0.049985778 1.3919954e-38 278 283
-0.047660857 0.66299999 -0.049985778 1.4104347e-38 279 283
-0.046498399 0.66299999 -0.049985778 1.4379138e-38 280 283
-0.04526756 0.662 -0.049910385 1.456353e-38 281 283
-0.044106852 0.662 -0.049910385 1.4747566e-38 282 283
-0.042946145 0.662 -0.049910385 1.4839763e-38 283 283
-0.041785441 0.662 -0.049910385 1.5115271e-38 284 283
-0.04062473 0.662 -0.049910385 1.5115271e-38 285 283
-0.039464023 0.662 -0.049910385 1.5299653e-38 286 283
-0.038245458 0.66100001 -0.049834993 1.5207457e-38 287 283
-0.037086505 0.66100001 -0.049834993 1.5299653e-38 288 283
-0.035927553 0.66100001 -0.049834993 1.5391848e-38 289 283
-0.0347686 0.66100001 -0.049834993 1.5575526e-38 290 283
-0.033507951 0.65899998 -0.049684204 1.5575526e-38 291 283
-0.032352503 0.65899998 -0.049684204 1.5575163e-38 292 283
-0.031197058 0.65899998 -0.049684204 1.5667359e-38 293 283
-0.030041611 0.65899998 -0.049684204 1.5484412e-38 294 283
-0.028842334 0.65799999 -0.049608808 1.5576608e-38 295 283
-0.027688639 0.65799999 -0.049608808 1.5485131e-38 296 283
-0.026534945 0.65799999 -0.049608808 1.5485131e-38 297 283
-0.025381252 0.65799999 -0.049608808 1.5577682e-38 298 283
-0.02422756 0.65799999 -0.049608808 1.5669877e-38 299 283
-0.023073865 0.65799999 -0.049608808 1.566988e-38 300 283
-0.021886859 0.65700001 -0.049533416 1.566988e-38 301 283
-0.020671798 0.65499997 -0.049382631 1.5945391e-38 302 283
-0.019523365 0.65499997 -0.049382631 1.6037586e-38 303 283
-0.018374931 0.65499997 -0.049382631 1.6220545e-38 304 283
-0.017226499 0.65499997 -0.049382631 1.6220545e-38 305 283
-0.016078066 0.65499997 -0.049382631 1.6220545e-38 306 283
-0.014929632 0.65499997 -0.049382631 1.6220545e-38 307 283
-0.013781199 0.65499997 -0.049382631 1.6036867e-38 308 283
-0.012632766 0.65499997 -0.049382631 1.6220899e-38 309 283
-0.011484332 0.65499997 -0.049382631 1.5945388e-38 310 283
-0.01036746 0.65700001 -0.049533416 1.5945388e-38 311 283
-0.0092155198 0.65700001 -0.049533416 1.5945035e-38 312 283
-0.0080635799 0.65700001 -0.049533416 1.5945035e-38 313 283
-0.0069116396 0.65700001 -0.049533416 1.5945038e-38 314 283
-0.0057421662 0.65499997 -0.049382631 1.5852842e-38 315 283
-0.0045937328 0.65499997 -0.049382631 1.5852486e-38 316 283
-0.0034452998 0.65499997 -0.049382631 1.576029e-38 317 283
-0.0022968664 0.65499997 -0.049382631 1.5576981e-38 318 283
-0.0011484332 0.65499997 -0.049382631 1.5576981e-38 319 283
0 0.65499997 -0.049382631 1.575994e-38 320 283
0.00115194 0.65700001 -0.049533416 1.5575909e-38 321 283
0.0023038799 0.65700001 -0.049533416 1.5484432e-38 322 283
0.0034558198 0.65700001 -0.049533416 1.5392235e-38 323 283
0.0046077599 0.65700001 -0.049533416 1.5392232e-38 324 283
0.0057596997 0.65700001 -0.049533416 1.5208201e-38 325 283
0.0069116396 0.65700001 -0.049533416 1.5299318e-38 326 283
0.0080635799 0.65700001 -0.049533416 1.4930537e-38 327 283
0.0092155198 0.65700001 -0.049533416 1.474651e-38 328 283
0.010335899 0.65499997 -0.049382631 1.4838707e-38 329 283
0.011484332 0.65499997 -0.049382631 1.4747596e-38 330 283
0.012632766 0.65499997 -0.049382631 1.4839791e-38 331 283
0.013781199 0.65499997 -0.049382631 1.4930908e-38 332 283
0.01497522 0.65700001 -0.049533416 1.5023104e-38 333 283
0.016151706 0.65799999 -0.049608808 1.4747596e-38 334 283
0.017305398 0.65799999 -0.049608808 1.4747596e-38 335 283
0.018487146 0.65899998 -0.049684204 1.474724e-38 336 283
0.019642593 0.65899998 -0.049684204 1.4562849e-38 337 283
0.020798039 0.65899998 -0.049684204 1.4379536e-38 338 283
0.021953486 0.65899998 -0.049684204 1.4286981e-38 339 283
0.023179067 0.66100001 -0.049834993 1.4378453e-38 340 283
0.02433802 0.66100001 -0.049834993 1.4378453e-38 341 283
0.025496973 0.66100001 -0.049834993 1.4286257e-38 342 283
0.026655925 0.66100001 -0.049834993 1.4102226e-38 343 283
0.02781488 0.66100001 -0.049834993 1.3640882e-38 344 283
0.029017664 0.662 -0.049910385 1.3180263e-38 345 283
0.030223956 0.66299999 -0.049985778 1.1706223e-38 346 283
0.031386416 0.66299999 -0.049985778 1.1153408e-38 347 283
0.03259797 0.66399997 -0.05006117 1.179879e-38 348 283
0.033762183 0.66399997 -0.05006117 1.2260128e-38 349 283
0.035031598 0.66600001 -0.050211959 1.2720749e-38 350 283
0.03619932 0.66600001 -0.050211959 1.2812946e-38 351 283
0.037423145 0.667 -0.050287351 1.2538157e-38 352 283
0.038592618 0.667 -0.050287351 1.2630353e-38 353 283
0.039762091 0.667 -0.050287351 1.263035e-38 354 283
0.040992931 0.66799998 -0.050362743 1.2538154e-38 355 283
0.042290401 0.67000002 -0.050513536 1.2812949e-38 356 283
0.043465134 0.67000002 -0.050513536 1.2812949e-38 357 283
0.044706494 0.671 -0.050588924 1.2537804e-38 358 283
0.045951359 0.67199999 -0.050664317 1.2261216e-38 359 283
0.047129598 0.67199999 -0.050664317 1.1892806e-38 360 283
0.048451614 0.67400002 -0.050815105 1.2353786e-38 361 283
0.049706999 0.67500001 -0.050890498 1.2448155e-38 362 283
0.050965894 0.676 -0.050965894 1.2724381e-38 363 283
0.052151144 0.676 -0.050965894 1.2908773e-38 364 283
0.053336397 0.676 -0.050965894 1.3001327e-38 365 283
0.054521654 0.676 -0.050965894 1.3461612e-38 366 283
-0.090866491 0.69099998 -0.053308345 1.0691756e-38 245 284
-0.0895252 0.69 -0.053231198 1.0876488e-38 246 284
-0.088059418 0.68800002 -0.053076908 1.1245269e-38 247 284
-0.086853124 0.68800002 -0.053076908 1.1797703e-38 248 284
-0.085522331 0.68699998 -0.052999757 1.2074288e-38 249 284
-0.084195063 0.68599999 -0.05292261 1.2442695e-38 250 284
-0.082992278 0.68599999 -0.05292261 1.2534891e-38 251 284
-0.081551038 0.68400002 -0.05276832 1.2994779e-38 252 284
-0.080234289 0.68300003 -0.052691177 1.3179169e-38 253 284
-0.079036765 0.68300003 -0.052691177 1.3179166e-38 254 284
-0.077725261 0.68199998 -0.052614026 1.3179166e-38 255 284
-0.076529488 0.68199998 -0.052614026 1.2995854e-38 256 284
-0.075112797 0.68000001 -0.052459732 1.2995854e-38 257 284
-0.073811822 0.67900002 -0.052382588 1.2903652e-38 258 284
-0.072514355 0.67799997 -0.052305438 1.2903652e-38 259 284
-0.071115203 0.676 -0.052151144 1.272034e-38 260 284
-0.069929942 0.676 -0.052151144 1.272034e-38 261 284
-0.068643004 0.67500001 -0.052074 1.2628866e-38 262 284
-0.067359567 0.67400002 -0.051996857 1.2444834e-38 263 284
-0.06598144 0.67199999 -0.051842555 1.2628143e-38 264 284
-0.064706765 0.671 -0.051765412 1.2628143e-38 265 284
-0.063530281 0.671 -0.051765412 1.262779e-38 266 284
-0.06226087 0.67000002 -0.051688269 1.2720346e-38 267 284
-0.061086133 0.67000002 -0.051688269 1.271999e-38 268 284
-0.0599114 0.67000002 -0.051688269 1.2812185e-38 269 284
-0.058473662 0.667 -0.051456824 1.2996572e-38 270 284
-0.057304189 0.667 -0.051456824 1.3088768e-38 271 284
-0.056134716 0.667 -0.051456824 1.2905453e-38 272 284
-0.054965243 0.667 -0.051456824 1.2905453e-38 273 284
-0.053715117 0.66600001 -0.051379681 1.3363913e-38 274 284
-0.052389596 0.66399997 -0.051225383 1.3456109e-38 275 284
-0.051225383 0.66399997 -0.051225383 1.318132e-38 276 284
-0.05006117 0.66399997 -0.051225383 1.3273515e-38 277 284
-0.048823316 0.66299999 -0.051148236 1.327423e-38 278 284
-0.047660857 0.66299999 -0.051148236 1.327423e-38 279 284
-0.046498399 0.66299999 -0.051148236 1.3641576e-38 280 284
-0.04526756 0.662 -0.051071092 1.3733772e-38 281 284
-0.044106852 0.662 -0.051071092 1.3643021e-38 282 284
-0.042946145 0.662 -0.051071092 1.3735216e-38 283 284
-0.041785441 0.662 -0.051071092 1.3919252e-38 284 284
-0.040563367 0.66100001 -0.050993945 1.3919252e-38 285 284
-0.039404415 0.66100001 -0.050993945 1.4286943e-38 286 284
-0.038245458 0.66100001 -0.050993945 1.4194746e-38 287 284
-0.037086505 0.66100001 -0.050993945 1.4102547e-38 288 284
-0.035818845 0.65899998 -0.050839648 1.4102547e-38 289 284
-0.034663398 0.65899998 -0.050839648 1.4102194e-38 290 284
-0.033507951 0.65899998 -0.050839648 1.4194391e-38 291 284
-0.032303412 0.65799999 -0.050762504 1.4378785e-38 292 284
-0.031149717 0.65799999 -0.050762504 1.4839763e-38 293 284
-0.029996024 0.65799999 -0.050762504 1.4840489e-38 294 284
-0.028842334 0.65799999 -0.050762504 1.5024879e-38 295 284
-0.027688639 0.65799999 -0.050762504 1.5117072e-38 296 284
-0.026494619 0.65700001 -0.050685361 1.5209268e-38 297 284
-0.025342681 0.65700001 -0.050685361 1.5485129e-38 298 284
-0.024190739 0.65700001 -0.050685361 1.5577684e-38 299 284
-0.023038799 0.65700001 -0.050685361 1.5669877e-38 300 284
-0.021886859 0.65700001 -0.050685361 1.5669877e-38 301 284
-0.020671798 0.65499997 -0.050531063 1.5853192e-38 302 284
-0.019523365 0.65499997 -0.050531063 1.5945388e-38 303 284
-0.018374931 0.65499997 -0.050531063 1.5945035e-38 304 284
-0.017200198 0.65399998 -0.050453916 1.5945035e-38 305 284
-0.01605352 0.65399998 -0.050453916 1.6036514e-38 306 284
-0.014929632 0.65499997 -0.050531063 1.6220545e-38 307 284
-0.013781199 0.65499997 -0.050531063 1.5944316e-38 308 284
-0.012632766 0.65499997 -0.050531063 1.603687e-38 309 284
-0.011484332 0.65499997 -0.050531063 1.5853195e-38 310 284
-0.010335899 0.65499997 -0.050531063 1.5760641e-38 311 284
-0.0091734398 0.65399998 -0.050453916 1.5576608e-38 312 284
-0.0080267601 0.65399998 -0.050453916 1.5760641e-38 313 284
-0.0068905996 0.65499997 -0.050531063 1.548478e-38 314 284
-0.0057421662 0.65499997 -0.050531063 1.548478e-38 315 284
-0.0045937328 0.65499997 -0.050531063 1.5484782e-38 316 284
-0.0034452998 0.65499997 -0.050531063 1.5484782e-38 317 284
-0.0022968664 0.65499997 -0.050531063 1.5208917e-38 318 284
-0.0011484332 0.65499997 -0.050531063 1.5116722e-38 319 284
0 0.65499997 -0.050531063 1.5116371e-38 320 284
0.0011484332 0.65499997 -0.050531063 1.5116371e-38 321 284
0.0022968664 0.65499997 -0.050531063 1.5207848e-38 322 284
0.0034558198 0.65700001 -0.050685361 1.5207848e-38 323 284
0.0046077599 0.65700001 -0.050685361 1.5116371e-38 324 284
0.0057421662 0.65499997 -0.050531063 1.5116371e-38 325 284
0.0068905996 0.65499997 -0.050531063 1.4839789e-38 326 284
0.008039033 0.65499997 -0.050531063 1.4010028e-38 327 284
0.0091874655 0.65499997 -0.050531063 1.419262e-38 328 284
0.010335899 0.65499997 -0.050531063 1.419262e-38 329 284
0.011484332 0.65499997 -0.050531063 1.3827079e-38 330 284
0.012632766 0.65499997 -0.050531063 1.3919274e-38 331 284
0.013781199 0.65499997 -0.050531063 1.4195141e-38 332 284
0.01497522 0.65700001 -0.050685361 1.4287336e-38 333 284
0.01612716 0.65700001 -0.050685361 1.4562481e-38 334 284
0.017305398 0.65799999 -0.050762504 1.4562481e-38 335 284
0.018459093 0.65799999 -0.050762504 1.4470652e-38 336 284
0.019642593 0.65899998 -0.050839648 1.4285902e-38 337 284
0.020798039 0.65899998 -0.050839648 1.419334e-38 338 284
0.021953486 0.65899998 -0.050839648 1.3640166e-38 339 284
0.023179067 0.66100001 -0.050993945 1.3364656e-38 340 284
0.02433802 0.66100001 -0.050993945 1.3364656e-38 341 284
0.025496973 0.66100001 -0.050993945 1.3272829e-38 342 284
0.026655925 0.66100001 -0.050993945 1.2996242e-38 343 284
0.02781488 0.66100001 -0.050993945 1.2719658e-38 344 284
0.028973831 0.66100001 -0.050993945 1.2443072e-38 345 284
0.030178372 0.662 -0.051071092 1.0508054e-38 346 284
0.031386416 0.66299999 -0.051148236 9.8626847e-39 347 284
0.03259797 0.66399997 -0.051225383 9.9566824e-39 348 284
0.03386388 0.66600001 -0.051379681 1.0970474e-38 349 284
0.035031598 0.66600001 -0.051379681 1.1707676e-38 350 284
0.03619932 0.66600001 -0.051379681 1.20761e-38 351 284
0.037423145 0.667 -0.051456824 1.2168299e-38 352 284
0.038592618 0.667 -0.051456824 1.2168299e-38 353 284
0.039762091 0.667 -0.051456824 1.2260494e-38 354 284
0.040992931 0.66799998 -0.051533967 1.2260494e-38 355 284
0.042290401 0.67000002 -0.051688269 1.2536008e-38 356 284
0.043465134 0.67000002 -0.051688269 1.2536008e-38 357 284
0.044706494 0.671 -0.051765412 1.2352342e-38 358 284
0.045951359 0.67199999 -0.051842555 1.2260147e-38 359 284
0.047129598 0.67199999 -0.051842555 1.2076125e-38 360 284
0.048451614 0.67400002 -0.051996857 1.2352352e-38 361 284
0.049633358 0.67400002 -0.051996857 1.2446355e-38 362 284
0.050890498 0.67500001 -0.052074 1.2814779e-38 363 284
0.052074 0.67500001 -0.052074 1.2724028e-38 364 284
0.053257499 0.67500001 -0.052074 1.3277202e-38 365 284
0.054441001 0.67500001 -0.052074 1.3370865e-38 366 284
-0.087931409 0.68699998 -0.054204296 1.0969052e-38 247 285
-0.086726874 0.68699998 -0.054204296 1.1338536e-38 248 285
-0.085522331 0.68699998 -0.054204296 1.1430733e-38 249 285
-0.084195063 0.68599999 -0.054125395 1.179914e-38 250 285
-0.082992278 0.68599999 -0.054125395 1.1891336e-38 251 285
-0.081551038 0.68400002 -0.053967599 1.2534894e-38 252 285
-0.080234289 0.68300003 -0.053888701 1.2627091e-38 253 285
-0.079036765 0.68300003 -0.053888701 1.2811835e-38 254 285
-0.077725261 0.68199998 -0.053809796 1.2811835e-38 255 285
-0.076529488 0.68199998 -0.053809796 1.2812191e-38 256 285
-0.075112797 0.68000001 -0.053652 1.2719637e-38 257 285
-0.073811822 0.67900002 -0.053573098 1.2903302e-38 258 285
-0.072514355 0.67799997 -0.053494196 1.2903302e-38 259 285
-0.071115203 0.676 -0.053336397 1.2720346e-38 260 285
-0.069929942 0.676 -0.053336397 1.262779e-38 261 285
-0.068643004 0.67500001 -0.053257499 1.2628146e-38 262 285
-0.067359567 0.67400002 -0.053178601 1.2628146e-38 263 285
-0.06598144 0.67199999 -0.053020798 1.2628143e-38 264 285
-0.064706765 0.671 -0.052941896 1.2628143e-38 265 285
-0.063530281 0.671 -0.052941896 1.2628143e-38 266 285
-0.06226087 0.67000002 -0.052863002 1.2628143e-38 267 285
-0.061086133 0.67000002 -0.052863002 1.2628146e-38 268 285
-0.05973256 0.66799998 -0.052705199 1.2720343e-38 269 285
-0.058473662 0.667 -0.052626297 1.2720343e-38 270 285
-0.057304189 0.667 -0.052626297 1.2720343e-38 271 285
-0.056134716 0.667 -0.052626297 1.272034e-38 272 285
-0.054882839 0.66600001 -0.052547399 1.272034e-38 273 285
-0.053715117 0.66600001 -0.052547399 1.2812536e-38 274 285
-0.052547399 0.66600001 -0.052547399 1.2812536e-38 275 285
-0.051225383 0.66399997 -0.052389596 1.2996216e-38 276 285
-0.05006117 0.66399997 -0.052389596 1.2996216e-38 277 285
-0.048896957 0.66399997 -0.052389596 1.2904396e-38 278 285
-0.047732744 0.66399997 -0.052389596 1.2996951e-38 279 285
-0.046568532 0.66399997 -0.052389596 1.3179557e-38 280 285
-0.04526756 0.662 -0.0522318 1.3271754e-38 281 285
-0.044106852 0.662 -0.0522318 1.3089163e-38 282 285
-0.042946145 0.662 -0.0522318 1.3181359e-38 283 285
-0.041785441 0.662 -0.0522318 1.3182081e-38 284 285
-0.040563367 0.66100001 -0.052152898 1.3182081e-38 285 285
-0.039404415 0.66100001 -0.052152898 1.3641238e-38 286 285
-0.038245458 0.66100001 -0.052152898 1.3365012e-38 287 285
-0.036974292 0.65899998 -0.051995095 1.3180966e-38 288 285
-0.035818845 0.65899998 -0.051995095 1.3088771e-38 289 285
-0.034663398 0.65899998 -0.051995095 1.2812188e-38 290 285
-0.033507951 0.65899998 -0.051995095 1.2996219e-38 291 285
-0.032303412 0.65799999 -0.051916201 1.3457921e-38 292 285
-0.031149717 0.65799999 -0.051916201 1.410329e-38 293 285
-0.029996024 0.65799999 -0.051916201 1.4195844e-38 294 285
-0.028842334 0.65799999 -0.051916201 1.428804e-38 295 285
-0.027688639 0.65799999 -0.051916201 1.4564265e-38 296 285
-0.026494619 0.65700001 -0.051837299 1.4749015e-38 297 285
-0.025342681 0.65700001 -0.051837299 1.5116356e-38 298 285
-0.024190739 0.65700001 -0.051837299 1.5208551e-38 299 285
-0.023038799 0.65700001 -0.051837299 1.5576608e-38 300 285
-0.021886859 0.65700001 -0.051837299 1.5484412e-38 301 285
-0.020671798 0.65499997 -0.051679496 1.5485131e-38 302 285
-0.019523365 0.65499997 -0.051679496 1.5669524e-38 303 285
-0.018374931 0.65499997 -0.051679496 1.5393663e-38 304 285
-0.017200198 0.65399998 -0.051600594 1.5301467e-38 305 285
-0.01605352 0.65399998 -0.051600594 1.5577328e-38 306 285
-0.014906839 0.65399998 -0.051600594 1.5669524e-38 307 285
-0.013760159 0.65399998 -0.051600594 1.5577684e-38 308 285
-0.012613479 0.65399998 -0.051600594 1.5577684e-38 309 285
-0.011484332 0.65499997 -0.051679496 1.5485129e-38 310 285
-0.010335899 0.65499997 -0.051679496 1.5392933e-38 311 285
-0.0091734398 0.65399998 -0.051600594 1.5117059e-38 312 285
-0.0080267601 0.65399998 -0.051600594 1.5117059e-38 313 285
-0.0068905996 0.65499997 -0.051679496 1.5117075e-38 314 285
-0.0057421662 0.65499997 -0.051679496 1.5301467e-38 315 285
-0.0045937328 0.65499997 -0.051679496 1.4932703e-38 316 285
-0.0034452998 0.65499997 -0.051679496 1.4932703e-38 317 285
