# .PCD v.7 - Point Cloud Data file format
FIELDS x y z rgb imX imY
SIZE 4 4 4 4 4 4
TYPE F F F F F F
COUNT 1 1 1 1 1 1
WIDTH 840
HEIGHT 1
VIEWPOINT 0 0 0 1 0 0 0
POINTS 840
DATA ascii
-0.017801592 0.78100002 0.010954826 1.8617614e-38 307 232
-0.016432239 0.78100002 0.010954826 1.8617614e-38 308 232
-0.015062887 0.78100002 0.010954826 1.8617614e-38 309 232
-0.013728599 0.78299999 0.010982879 1.8342104e-38 310 232
-0.012355739 0.78299999 0.010982879 1.8249909e-38 311 232
-0.011010934 0.78500003 0.011010934 1.8248837e-38 312 232
-0.0096591124 0.787 0.011038986 1.8248837e-38 313 232
-0.0082792398 0.787 0.011038986 1.7972973e-38 314 232
-0.0069168997 0.78899997 0.011067039 1.7880777e-38 315 232
-0.0055405335 0.79000002 0.011081067 1.7971891e-38 316 232
-0.00416592 0.792 0.011109119 1.7787858e-38 317 232
-0.0027772798 0.792 0.011109119 1.7972247e-38 318 232
-0.0013921467 0.79400003 0.011137174 1.7696019e-38 319 232
0 0.79400003 0.011137174 1.7879331e-38 320 232
0.0013921467 0.79400003 0.011137174 1.751055e-38 321 232
0.0027913067 0.796 0.011165227 1.732688e-38 322 232
0.0041869599 0.796 0.011165227 1.7419076e-38 323 232
0.0055826134 0.796 0.011165227 1.7326524e-38 324 232
0.0069782664 0.796 0.011165227 1.7326524e-38 325 232
0.0083949603 0.79799998 0.011193279 1.7052461e-38 326 232
0.0098186666 0.80000001 0.011221333 1.686807e-38 327 232
0.011249386 0.80199999 0.011249386 1.6683321e-38 328 232
0.012671339 0.80299997 0.011263412 1.6314899e-38 329 232
0.014079265 0.80299997 0.011263412 1.5762091e-38 330 232
0.015525767 0.80500001 0.011291467 1.5301114e-38 331 232
0.016895119 0.80299997 0.011263412 1.4104754e-38 332 232
0.018303044 0.80299997 0.011263412 1.3183157e-38 333 232
0.019760067 0.80500001 0.011291467 1.0052509e-38 334 232
-0.039304473 0.773 0.0094872871 1.336905e-38 291 233
-0.037949149 0.773 0.0094872871 1.594653e-38 292 233
-0.036641158 0.77399999 0.0094995592 1.677593e-38 293 233
-0.03528408 0.77399999 0.0094995592 1.7604216e-38 294 233
-0.034014668 0.77600002 0.009524107 1.8064834e-38 295 233
-0.032654081 0.77600002 0.009524107 1.8800938e-38 296 233
-0.031374145 0.778 0.0095486529 1.9354112e-38 297 233
-0.030087199 0.77999997 0.0095731998 1.9539573e-38 298 233
-0.028756421 0.78100002 0.0095854728 1.9078953e-38 299 233
-0.027457198 0.78299999 0.0096100196 1.898532e-38 300 233
-0.026084339 0.78299999 0.0096100196 1.898532e-38 301 233
-0.024711479 0.78299999 0.0096100196 1.8802008e-38 302 233
-0.02333862 0.78299999 0.0096100196 1.8709812e-38 303 233
-0.021965759 0.78299999 0.0096100196 1.8617614e-38 304 233
-0.0205929 0.78299999 0.0096100196 1.8433581e-38 305 233
-0.019220039 0.78299999 0.0096100196 1.8158439e-38 306 233
-0.017801592 0.78100002 0.0095854728 1.8250636e-38 307 233
-0.016432239 0.78100002 0.0095854728 1.8158089e-38 308 233
-0.015062887 0.78100002 0.0095854728 1.8065893e-38 309 233
-0.013728599 0.78299999 0.0096100196 1.8156654e-38 310 233
-0.012355739 0.78299999 0.0096100196 1.8156654e-38 311 233
-0.011010934 0.78500003 0.0096345674 1.7973694e-38 312 233
-0.0096345674 0.78500003 0.0096345674 1.7881499e-38 313 233
-0.0082582003 0.78500003 0.0096345674 1.7605267e-38 314 233
-0.0068993662 0.787 0.0096591124 1.7420874e-38 315 233
-0.0055335197 0.78899997 0.0096836593 1.7328307e-38 316 233
-0.0041554002 0.79000002 0.0096959332 1.7236111e-38 317 233
-0.0027772798 0.792 0.0097204801 1.723683e-38 318 233
-0.0013886399 0.792 0.0097204801 1.6960603e-38 319 233
0 0.79400003 0.0097450269 1.6684025e-38 320 233
0.0013921467 0.79400003 0.0097450269 1.6315602e-38 321 233
0.0027842934 0.79400003 0.0097450269 1.6682956e-38 322 233
0.0041869599 0.796 0.0097695729 1.6775151e-38 323 233
0.0055826134 0.796 0.0097695729 1.6224864e-38 324 233
0.0069782664 0.796 0.0097695729 1.6132669e-38 325 233
0.0083739199 0.796 0.0097695729 1.6316344e-38 326 233
0.0097941197 0.79799998 0.0097941197 1.6224148e-38 327 233
0.011221333 0.80000001 0.0098186666 1.594684e-38 328 233
0.01265556 0.80199999 0.0098432126 1.5762088e-38 329 233
0.014079265 0.80299997 0.0098554865 1.5026322e-38 330 233
0.015487193 0.80299997 0.0098554865 1.4657899e-38 331 233
0.016895119 0.80299997 0.0098554865 1.4013264e-38 332 233
0.018303044 0.80299997 0.0098554865 1.3460091e-38 333 233
0.019710973 0.80299997 0.0098554865 1.0234708e-38 334 233
-0.0406598 0.773 0.0081319595 1.8526207e-38 290 234
-0.039304473 0.773 0.0081319595 1.9079381e-38 291 234
-0.037949149 0.773 0.0081319595 1.9815125e-38 292 234
-0.036593821 0.773 0.0081319595 1.972293e-38 293 234
-0.035238493 0.773 0.0081319595 1.963107e-38 294 234
-0.034014668 0.77600002 0.0081635201 1.944632e-38 295 234
-0.032654081 0.77600002 0.0081635201 1.9447011e-38 296 234
-0.031374145 0.778 0.0081845606 1.9170064e-38 297 234
-0.03001005 0.778 0.0081845606 1.8987108e-38 298 234
-0.028756421 0.78100002 0.0082161194 1.8894912e-38 299 234
-0.027387068 0.78100002 0.0082161194 1.8801654e-38 300 234
-0.026017714 0.78100002 0.0082161194 1.8801654e-38 301 234
-0.024648361 0.78100002 0.0082161194 1.8617263e-38 302 234
-0.023279008 0.78100002 0.0082161194 1.8709459e-38 303 234
-0.021909652 0.78100002 0.0082161194 1.8617616e-38 304 234
-0.020540299 0.78100002 0.0082161194 1.8341388e-38 305 234
-0.019170946 0.78100002 0.0082161194 1.8249553e-38 306 234
-0.017801592 0.78100002 0.0082161194 1.8249553e-38 307 234
-0.016432239 0.78100002 0.0082161194 1.8249202e-38 308 234
-0.015062887 0.78100002 0.0082161194 1.8249202e-38 309 234
-0.013693534 0.78100002 0.0082161194 1.797262e-38 310 234
-0.01232418 0.78100002 0.0082161194 1.797262e-38 311 234
-0.011038986 0.787 0.0082792398 1.7881499e-38 312 234
-0.0096345674 0.78500003 0.0082582003 1.7881499e-38 313 234
-0.0082582003 0.78500003 0.0082582003 1.7512716e-38 314 234
-0.0068993662 0.787 0.0082792398 1.6959544e-38 315 234
-0.0055335197 0.78899997 0.0083002793 1.6313447e-38 316 234
-0.0041501396 0.78899997 0.0083002793 1.5668078e-38 317 234
-0.0027702667 0.79000002 0.0083108004 1.5391495e-38 318 234
-0.0013851334 0.79000002 0.0083108004 1.5668081e-38 319 234
0 0.792 0.0083318399 1.5302912e-38 320 234
0.0013921467 0.79400003 0.0083528794 1.5210716e-38 321 234
0.0027842934 0.79400003 0.0083528794 1.5486596e-38 322 234
0.0041869599 0.796 0.0083739199 1.5763184e-38 323 234
0.0055826134 0.796 0.0083739199 1.5946499e-38 324 234
0.0069782664 0.796 0.0083739199 1.5670271e-38 325 234
0.0083739199 0.796 0.0083739199 1.5119615e-38 326 234
0.0097941197 0.79799998 0.0083949603 1.4935224e-38 327 234
0.011221333 0.80000001 0.0084159998 1.4842663e-38 328 234
0.01265556 0.80199999 0.0084370393 1.447352e-38 329 234
0.014061732 0.80199999 0.0084370393 1.4290205e-38 330 234
0.015487193 0.80299997 0.0084475596 1.4198009e-38 331 234
0.016895119 0.80299997 0.0084475596 1.3829595e-38 332 234
0.018303044 0.80299997 0.0084475596 1.3553008e-38 333 234
0.019710973 0.80299997 0.0084475596 1.1800225e-38 334 234
0.0211189 0.80299997 0.0084475596 9.8641168e-39 335 234
-0.042977702 0.76599997 0.0067152665 1.7420212e-38 288 235
-0.041634649 0.76599997 0.0067152665 1.8434006e-38 289 235
-0.0404494 0.76899999 0.0067415666 1.917081e-38 290 235
-0.039101087 0.76899999 0.0067415666 1.9263364e-38 291 235
-0.03775277 0.76899999 0.0067415666 1.9354465e-38 292 235
-0.036499143 0.77100003 0.0067590997 1.9446661e-38 293 235
-0.03514732 0.77100003 0.0067590997 1.935446e-38 294 235
-0.033927001 0.77399999 0.0067853997 1.9262263e-38 295 235
-0.032654081 0.77600002 0.0068029333 1.9078948e-38 296 235
-0.031293493 0.77600002 0.0068029333 1.8894556e-38 297 235
-0.03001005 0.778 0.0068204664 1.8894203e-38 298 235
-0.028719598 0.77999997 0.0068379994 1.8709812e-38 299 235
-0.027351998 0.77999997 0.0068379994 1.8433954e-38 300 235
-0.025984399 0.77999997 0.0068379994 1.8526149e-38 301 235
-0.024616797 0.77999997 0.0068379994 1.8433954e-38 302 235
-0.023249198 0.77999997 0.0068379994 1.8341398e-38 303 235
-0.021881599 0.77999997 0.0068379994 1.806589e-38 304 235
-0.020540299 0.78100002 0.0068467669 1.7973694e-38 305 235
-0.019170946 0.78100002 0.0068467669 1.7973692e-38 306 235
-0.017778799 0.77999997 0.0068379994 1.7881496e-38 307 235
-0.016411198 0.77999997 0.0068379994 1.7881143e-38 308 235
-0.015062887 0.78100002 0.0068467669 1.7788947e-38 309 235
-0.013693534 0.78100002 0.0068467669 1.7513086e-38 310 235
-0.01232418 0.78100002 0.0068467669 1.7420889e-38 311 235
-0.011010934 0.78500003 0.0068818335 1.7328688e-38 312 235
-0.0096345674 0.78500003 0.0068818335 1.686807e-38 313 235
-0.0082792398 0.787 0.0068993662 1.6316694e-38 314 235
-0.0068993662 0.787 0.0068993662 1.5855356e-38 315 235
-0.005519493 0.787 0.0068993662 1.5208917e-38 316 235
-0.0041501396 0.78899997 0.0069168997 1.4102571e-38 317 235
-0.0027667598 0.78899997 0.0069168997 1.373416e-38 318 235
-0.0013833799 0.78899997 0.0069168997 1.4195138e-38 319 235
0 0.79000002 0.0069256667 1.4659013e-38 320 235
0.0013886399 0.792 0.0069431998 1.4935239e-38 321 235
0.0027772798 0.792 0.0069431998 1.5210034e-38 322 235
0.0041764397 0.79400003 0.0069607338 1.5394427e-38 323 235
0.0055685868 0.79400003 0.0069607338 1.5394424e-38 324 235
0.0069607338 0.79400003 0.0069607338 1.5394424e-38 325 235
0.0083739199 0.796 0.0069782664 1.5302947e-38 326 235
0.0097941197 0.79799998 0.0069957995 1.5026719e-38 327 235
0.011221333 0.80000001 0.007013333 1.5118189e-38 328 235
0.01265556 0.80199999 0.0070308661 1.4841603e-38 329 235
0.014061732 0.80199999 0.0070308661 1.4474246e-38 330 235
0.015487193 0.80299997 0.0070396326 1.4289855e-38 331 235
0.016895119 0.80299997 0.0070396326 1.4105463e-38 332 235
0.018303044 0.80299997 0.0070396326 1.4105463e-38 333 235
0.019710973 0.80299997 0.0070396326 1.2906217e-38 334 235
0.0211189 0.80299997 0.0070396326 1.0970108e-38 335 235
-0.045544583 0.764 0.0053581866 1.8709867e-38 286 236
-0.04420504 0.764 0.0053581866 1.8894617e-38 287 236
-0.042977702 0.76599997 0.0053722127 1.907863e-38 288 236
-0.041634649 0.76599997 0.0053722127 1.9171184e-38 289 236
-0.0404494 0.76899999 0.0053932532 1.9354475e-38 290 236
-0.039101087 0.76899999 0.0053932532 1.926228e-38 291 236
-0.03775277 0.76899999 0.0053932532 1.9078953e-38 292 236
-0.036404461 0.76899999 0.0053932532 1.9078953e-38 293 236
-0.035056144 0.76899999 0.0053932532 1.8986404e-38 294 236
-0.033883166 0.773 0.0054213065 1.8986404e-38 295 236
-0.032527838 0.773 0.0054213065 1.8986051e-38 296 236
-0.031212838 0.77399999 0.0054283198 1.880166e-38 297 236
-0.029855758 0.77399999 0.0054283198 1.8709106e-38 298 236
-0.028572321 0.77600002 0.0054423464 1.8432878e-38 299 236
-0.027211733 0.77600002 0.0054423464 1.8432878e-38 300 236
-0.025851147 0.77600002 0.0054423464 1.8432878e-38 301 236
-0.024553679 0.778 0.0054563731 1.8249202e-38 302 236
-0.023189586 0.778 0.0054563731 1.8157007e-38 303 236
-0.021825492 0.778 0.0054563731 1.7973694e-38 304 236
-0.020513998 0.77999997 0.0054703997 1.7881499e-38 305 236
-0.0191464 0.77999997 0.0054703997 1.77893e-38 306 236
-0.017778799 0.77999997 0.0054703997 1.7605269e-38 307 236
-0.016411198 0.77999997 0.0054703997 1.7513069e-38 308 236
-0.0150436 0.77999997 0.0054703997 1.7420874e-38 309 236
-0.013693534 0.78100002 0.0054774131 1.7052464e-38 310 236
-0.01232418 0.78100002 0.0054774131 1.6867714e-38 311 236
-0.010954826 0.78100002 0.0054774131 1.6499656e-38 312 236
-0.0095854728 0.78100002 0.0054774131 1.5946484e-38 313 236
-0.0082582003 0.78500003 0.0055054668 1.5304e-38 314 236
-0.0068818335 0.78500003 0.0055054668 1.4750827e-38 315 236
-0.005519493 0.787 0.005519493 1.4472451e-38 316 236
-0.0041396199 0.787 0.005519493 1.3642331e-38 317 236
-0.0027667598 0.78899997 0.0055335197 1.3182078e-38 318 236
-0.0013833799 0.78899997 0.0055335197 1.3366469e-38 319 236
0 0.79000002 0.0055405335 1.4290597e-38 320 236
0.0013886399 0.792 0.0055545596 1.4567183e-38 321 236
0.0027772798 0.792 0.0055545596 1.4933814e-38 322 236
0.0041764397 0.79400003 0.0055685868 1.5026369e-38 323 236
0.0055685868 0.79400003 0.0055685868 1.5026366e-38 324 236
0.0069607338 0.79400003 0.0055685868 1.5118561e-38 325 236
0.0083739199 0.796 0.0055826134 1.5027435e-38 326 236
0.0097941197 0.79799998 0.0055966396 1.4935239e-38 327 236
0.011221333 0.80000001 0.0056106667 1.4934874e-38 328 236
0.01265556 0.80199999 0.0056246929 1.4750124e-38 329 236
0.014079265 0.80299997 0.0056317062 1.4658284e-38 330 236
0.015487193 0.80299997 0.0056317062 1.4381697e-38 331 236
0.016895119 0.80299997 0.0056317062 1.4106555e-38 332 236
0.018303044 0.80299997 0.0056317062 1.4198751e-38 333 236
0.019686425 0.80199999 0.0056246929 1.327539e-38 334 236
0.021092599 0.80199999 0.0056246929 1.2353435e-38 335 236
0.022498772 0.80199999 0.0056246929 1.1063457e-38 336 236
-0.045425359 0.76200002 0.0040081199 1.9446676e-38 286 237
-0.044089317 0.76200002 0.0040081199 1.9262285e-38 287 237
-0.042865492 0.764 0.0040186401 1.90786e-38 288 237
-0.041634649 0.76599997 0.0040291594 1.90786e-38 289 237
-0.040344197 0.76700002 0.00403442 1.9078597e-38 290 237
-0.038999394 0.76700002 0.00403442 1.8986402e-38 291 237
-0.037654586 0.76700002 0.00403442 1.9169717e-38 292 237
-0.036309779 0.76700002 0.00403442 1.9077521e-38 293 237
-0.034964975 0.76700002 0.00403442 1.8893856e-38 294 237
-0.033707831 0.76899999 0.0040449398 1.8893856e-38 295 237
-0.032359518 0.76899999 0.0040449398 1.8801304e-38 296 237
-0.031091858 0.77100003 0.0040554604 1.8709109e-38 297 237
-0.029817186 0.773 0.0040659797 1.8616195e-38 298 237
-0.028461859 0.773 0.0040659797 1.8523641e-38 299 237
-0.027106533 0.773 0.0040659797 1.8340685e-38 300 237
-0.025751207 0.773 0.0040659797 1.8340685e-38 301 237
-0.02442744 0.77399999 0.0040712398 1.7973339e-38 302 237
-0.02307036 0.77399999 0.0040712398 1.7881143e-38 303 237
-0.021769386 0.77600002 0.0040817601 1.7605635e-38 304 237
-0.0204088 0.77600002 0.0040817601 1.7513439e-38 305 237
-0.019048214 0.77600002 0.0040817601 1.7328325e-38 306 237
-0.017733213 0.778 0.0040922803 1.7236129e-38 307 237
-0.016369121 0.778 0.0040922803 1.6592558e-38 308 237
-0.0150436 0.77999997 0.0041027996 1.6407808e-38 309 237
-0.013675999 0.77999997 0.0041027996 1.5856086e-38 310 237
-0.01232418 0.78100002 0.0041080597 1.576389e-38 311 237
-0.010954826 0.78100002 0.0041080597 1.5487323e-38 312 237
-0.0095854728 0.78100002 0.0041080597 1.530293e-38 313 237
-0.0082582003 0.78500003 0.0041291001 1.5210028e-38 314 237
-0.0068818335 0.78500003 0.0041291001 1.5025637e-38 315 237
-0.0055054668 0.78500003 0.0041291001 1.4656504e-38 316 237
-0.0041396199 0.787 0.0041396199 1.4011135e-38 317 237
-0.0027597465 0.787 0.0041396199 1.3366842e-38 318 237
-0.0013798733 0.787 0.0041396199 1.2813668e-38 319 237
0 0.78899997 0.0041501396 1.4013656e-38 320 237
0.0013886399 0.792 0.00416592 1.4290603e-38 321 237
0.0027772798 0.792 0.00416592 1.4658672e-38 322 237
0.00416592 0.792 0.00416592 1.4843422e-38 323 237
0.0055545596 0.792 0.00416592 1.4934533e-38 324 237
0.0069607338 0.79400003 0.0041764397 1.5027088e-38 325 237
0.0083739199 0.796 0.0041869599 1.5118912e-38 326 237
0.0097941197 0.79799998 0.0041974802 1.5118912e-38 327 237
0.011221333 0.80000001 0.0042079999 1.5025988e-38 328 237
0.01265556 0.80199999 0.0042185197 1.4749761e-38 329 237
0.014061732 0.80199999 0.0042185197 1.4473893e-38 330 237
0.015487193 0.80299997 0.0042237798 1.4381697e-38 331 237
0.016895119 0.80299997 0.0042237798 1.4014006e-38 332 237
0.018280253 0.80199999 0.0042185197 1.3368637e-38 333 237
0.019686425 0.80199999 0.0042185197 1.0974832e-38 334 237
0.021092599 0.80199999 0.0042185197 1.3371919e-38 335 237
0.022498772 0.80199999 0.0042185197 1.6504093e-38 336 237
-0.054274432 0.755 0.0026475333 1.262791e-38 279 238
-0.052950665 0.755 0.0026475333 1.5853994e-38 280 238
-0.048979364 0.755 0.0026475333 1.9170478e-38 283 238
-0.047655597 0.755 0.0026475333 1.9354481e-38 284 238
-0.046454567 0.75700003 0.0026545466 1.9262285e-38 285 238
-0.045365743 0.76099998 0.0026685731 1.9354463e-38 286 238
-0.044089317 0.76200002 0.00267208 1.9446658e-38 287 238
-0.042753279 0.76200002 0.00267208 1.9262986e-38 288 238
-0.041525945 0.764 0.0026790933 1.9078953e-38 289 238
-0.040291596 0.76599997 0.0026861064 1.8894572e-38 290 238
-0.038948543 0.76599997 0.0026861064 1.8894572e-38 291 238
-0.037605491 0.76599997 0.0026861064 1.8893503e-38 292 238
-0.036262438 0.76599997 0.0026861064 1.8801307e-38 293 238
-0.034919381 0.76599997 0.0026861064 1.8800951e-38 294 238
-0.033620168 0.76700002 0.0026896133 1.8708755e-38 295 238
-0.03227536 0.76700002 0.0026896133 1.834105e-38 296 238
-0.030930554 0.76700002 0.0026896133 1.834105e-38 297 238
-0.029585747 0.76700002 0.0026896133 1.8340332e-38 298 238
-0.028314579 0.76899999 0.0026966266 1.8248136e-38 299 238
-0.027036399 0.77100003 0.0027036399 1.7972269e-38 300 238
-0.02568458 0.77100003 0.0027036399 1.7972269e-38 301 238
-0.024395877 0.773 0.0027106532 1.7605638e-38 302 238
-0.023040552 0.773 0.0027106532 1.7513083e-38 303 238
-0.021713279 0.77399999 0.0027141599 1.705318e-38 304 238
-0.020356199 0.77399999 0.0027141599 1.6960985e-38 305 238
-0.019048214 0.77600002 0.0027211732 1.6776597e-38 306 238
-0.017687626 0.77600002 0.0027211732 1.6592205e-38 307 238
-0.01632704 0.77600002 0.0027211732 1.6039404e-38 308 238
-0.015005025 0.778 0.0027281865 1.5854654e-38 309 238
-0.013675999 0.77999997 0.0027351999 1.5303297e-38 310 238
-0.012308398 0.77999997 0.0027351999 1.5303297e-38 311 238
-0.010954826 0.78100002 0.0027387065 1.5027082e-38 312 238
-0.0095854728 0.78100002 0.0027387065 1.465866e-38 313 238
-0.0082371598 0.78299999 0.0027457199 1.4841975e-38 314 238
-0.0068642995 0.78299999 0.0027457199 1.474942e-38 315 238
-0.0055054668 0.78500003 0.0027527334 1.4380646e-38 316 238
-0.0041396199 0.787 0.0027597465 1.4195896e-38 317 238
-0.0027597465 0.787 0.0027597465 1.3275022e-38 318 238
-0.0013798733 0.787 0.0027597465 1.2905879e-38 319 238
0 0.78899997 0.0027667598 1.3735996e-38 320 238
0.0013886399 0.792 0.0027772798 1.4381365e-38 321 238
0.0027772798 0.792 0.0027772798 1.4658675e-38 322 238
0.00416592 0.792 0.0027772798 1.4750871e-38 323 238
0.0055545596 0.792 0.0027772798 1.4750149e-38 324 238
0.0069607338 0.79400003 0.0027842934 1.4657953e-38 325 238
0.0083739199 0.796 0.0027913067 1.511747e-38 326 238
0.0097941197 0.79799998 0.0027983198 1.5024916e-38 327 238
0.011249386 0.80199999 0.0028123464 1.4933069e-38 328 238
0.01265556 0.80199999 0.0028123464 1.4656842e-38 329 238
0.014061732 0.80199999 0.0028123464 1.4381347e-38 330 238
0.015487193 0.80299997 0.0028158531 1.4196956e-38 331 238
0.016895119 0.80299997 0.0028158531 1.327539e-38 332 238
0.018280253 0.80199999 0.0028123464 1.2722216e-38 333 238
0.019686425 0.80199999 0.0028123464 1.1803898e-38 334 238
0.021092599 0.80199999 0.0028123464 1.5030386e-38 335 238
-0.055524562 0.75400001 0.0013220133 1.5857594e-38 278 239
-0.054202545 0.75400001 0.0013220133 1.7148333e-38 279 239
-0.052950665 0.755 0.0013237667 1.8987178e-38 280 239
-0.051626898 0.755 0.0013237667 1.8987178e-38 281 239
-0.050303131 0.755 0.0013237667 1.9171166e-38 282 239
-0.048979364 0.755 0.0013237667 1.8986773e-38 283 239
-0.047655597 0.755 0.0013237667 1.9262263e-38 284 239
-0.04633183 0.755 0.0013237667 1.9262263e-38 285 239
-0.045246519 0.759 0.00133078 1.9079674e-38 286 239
-0.043915741 0.759 0.00133078 1.9079674e-38 287 239
-0.042753279 0.76200002 0.00133604 1.917007e-38 288 239
-0.041417241 0.76200002 0.00133604 1.917007e-38 289 239
-0.040081199 0.76200002 0.00133604 1.9077521e-38 290 239
-0.038745161 0.76200002 0.00133604 1.8985325e-38 291 239
-0.037507307 0.764 0.0013395466 1.8800941e-38 292 239
-0.036167759 0.764 0.0013395466 1.8708387e-38 293 239
-0.034828212 0.764 0.0013395466 1.8616195e-38 294 239
-0.033576332 0.76599997 0.0013430532 1.8523641e-38 295 239
-0.032233275 0.76599997 0.0013430532 1.8431801e-38 296 239
-0.030890226 0.76599997 0.0013430532 1.8431801e-38 297 239
-0.029547172 0.76599997 0.0013430532 1.8156291e-38 298 239
-0.02824094 0.76700002 0.0013448066 1.8063736e-38 299 239
-0.026966266 0.76899999 0.0013483133 1.7696031e-38 300 239
-0.025617953 0.76899999 0.0013483133 1.7696031e-38 301 239
-0.02433276 0.77100003 0.00135182 1.7142506e-38 302 239
-0.023040552 0.773 0.0013553266 1.7142506e-38 303 239
-0.021713279 0.77399999 0.0013570799 1.6406739e-38 304 239
-0.020356199 0.77399999 0.0013570799 1.6037955e-38 305 239
-0.018999118 0.77399999 0.0013570799 1.5396185e-38 306 239
-0.017687626 0.77600002 0.0013605866 1.5211435e-38 307 239
-0.01632704 0.77600002 0.0013605866 1.5210016e-38 308 239
-0.014966453 0.77600002 0.0013605866 1.5578438e-38 309 239
-0.013640933 0.778 0.0013640933 1.5302227e-38 310 239
-0.012308398 0.77999997 0.0013675999 1.5302227e-38 311 239
-0.010940799 0.77999997 0.0013675999 1.493417e-38 312 239
-0.0095731998 0.77999997 0.0013675999 1.4841975e-38 313 239
-0.0082371598 0.78299999 0.0013728599 1.465723e-38 314 239
-0.0068642995 0.78299999 0.0013728599 1.4472839e-38 315 239
-0.0054914397 0.78299999 0.0013728599 1.4195896e-38 316 239
-0.0041291001 0.78500003 0.0013763667 1.4011505e-38 317 239
-0.0027667598 0.78899997 0.0013833799 1.355053e-38 318 239
-0.0013833799 0.78899997 0.0013833799 1.3089551e-38 319 239
0 0.78899997 0.0013833799 1.3458334e-38 320 239
0.0013851334 0.79000002 0.0013851334 1.3642725e-38 321 239
0.0027772798 0.792 0.0013886399 1.3460135e-38 322 239
0.0041764397 0.79400003 0.0013921467 1.3552332e-38 323 239
0.0055685868 0.79400003 0.0013921467 1.3552683e-38 324 239
0.0069607338 0.79400003 0.0013921467 1.364488e-38 325 239
0.0083739199 0.796 0.0013956534 1.401112e-38 326 239
0.0097941197 0.79799998 0.0013991599 1.3642337e-38 327 239
0.011221333 0.80000001 0.0014026667 1.391963e-38 328 239
0.01265556 0.80199999 0.0014061732 1.4195857e-38 329 239
0.014079265 0.80299997 0.0014079266 1.3917492e-38 330 239
0.015487193 0.80299997 0.0014079266 1.3456872e-38 331 239
0.016895119 0.80299997 0.0014079266 1.2908778e-38 332 239
0.018303044 0.80299997 0.0014079266 1.4844886e-38 333 239
0.019686425 0.80199999 0.0014061732 1.6326179e-38 334 239
0.021092599 0.80199999 0.0014061732 1.7432887e-38 335 239
-0.058168583 0.75400001 -0 1.6590462e-38 276 240
-0.056695782 0.75199997 -0 1.6590462e-38 277 240
-0.055377278 0.75199997 -0 1.8248855e-38 278 240
-0.054058768 0.75199997 -0 1.8894224e-38 279 240
-0.052880533 0.75400001 -0 1.9262266e-38 280 240
-0.051558517 0.75400001 -0 1.898532e-38 281 240
-0.050236505 0.75400001 -0 1.9353014e-38 282 240
-0.048914492 0.75400001 -0 1.9537405e-38 283 240
-0.04759248 0.75400001 -0 1.9445575e-38 284 240
-0.04633183 0.755 -0 1.9538131e-38 285 240
-0.045008067 0.755 -0 1.9262633e-38 286 240
-0.043800019 0.75700003 -0 1.8986404e-38 287 240
-0.042697169 0.76099998 -0 1.8893856e-38 288 240
-0.041362885 0.76099998 -0 1.880166e-38 289 240
-0.040081199 0.76200002 -0 1.8525796e-38 290 240
-0.038745161 0.76200002 -0 1.8433601e-38 291 240
-0.037409119 0.76200002 -0 1.8341404e-38 292 240
-0.036073081 0.76200002 -0 1.8341404e-38 293 240
-0.034737039 0.76200002 -0 1.7972625e-38 294 240
-0.033488665 0.764 -0 1.8156656e-38 295 240
-0.032233275 0.76599997 -0 1.788079e-38 296 240
-0.030890226 0.76599997 -0 1.7604563e-38 297 240
-0.029547172 0.76599997 -0 1.7420886e-38 298 240
-0.02824094 0.76700002 -0 1.7328691e-38 299 240
-0.026966266 0.76899999 -0 1.6960982e-38 300 240
-0.025617953 0.76899999 -0 1.6500362e-38 301 240
-0.02433276 0.77100003 -0 1.640746e-38 302 240
-0.02298094 0.77100003 -0 1.640746e-38 303 240
-0.021685226 0.773 -0 1.5763187e-38 304 240
-0.020356199 0.77399999 -0 1.5486599e-38 305 240
-0.018999118 0.77399999 -0 1.5302944e-38 306 240
-0.017687626 0.77600002 -0 1.5302944e-38 307 240
-0.01632704 0.77600002 -0 1.5118561e-38 308 240
-0.014966453 0.77600002 -0 1.5118561e-38 309 240
-0.013640933 0.778 -0 1.4751221e-38 310 240
-0.012308398 0.77999997 -0 1.4659025e-38 311 240
-0.010940799 0.77999997 -0 1.4841621e-38 312 240
-0.0095731998 0.77999997 -0 1.4749426e-38 313 240
-0.0082161194 0.78100002 -0 1.4472842e-38 314 240
-0.0068642995 0.78299999 -0 1.4103701e-38 315 240
-0.0054914397 0.78299999 -0 1.3734192e-38 316 240
-0.0041291001 0.78500003 -0 1.3273573e-38 317 240
-0.0027597465 0.787 -0 1.2537087e-38 318 240
-0.0013833799 0.78899997 -0 1.2167945e-38 319 240
0 0.78899997 -0 1.1799168e-38 320 240
0.0013851334 0.79000002 -0 1.1706973e-38 321 240
0.0027772798 0.792 -0 1.1248516e-38 322 240
0.0041764397 0.79400003 -0 1.1801689e-38 323 240
0.0055685868 0.79400003 -0 1.2630371e-38 324 240
0.0069607338 0.79400003 -0 1.2906959e-38 325 240
0.0083739199 0.796 -0 1.3458334e-38 326 240
0.0097941197 0.79799998 -0 1.355053e-38 327 240
0.011221333 0.80000001 -0 1.3458687e-38 328 240
0.01265556 0.80199999 -0 1.3366491e-38 329 240
0.014079265 0.80299997 -0 1.2721144e-38 330 240
0.015487193 0.80299997 -0 1.3182123e-38 331 240
0.016895119 0.80299997 -0 1.4476866e-38 332 240
0.018303044 0.80299997 -0 1.6873951e-38 333 240
0.019710973 0.80299997 -0 1.8993751e-38 334 240
-0.06016738 0.74599999 -0.0013079866 1.8710614e-38 274 241
-0.058859397 0.74599999 -0.0013079866 1.751207e-38 275 241
-0.057782855 0.74900001 -0.0013132467 1.806591e-38 276 241
-0.056695782 0.75199997 -0.0013185065 1.806591e-38 277 241
-0.055377278 0.75199997 -0.0013185065 1.8984251e-38 278 241
-0.054058768 0.75199997 -0.0013185065 1.9076446e-38 279 241
-0.052740261 0.75199997 -0.0013185065 1.917007e-38 280 241
-0.051421758 0.75199997 -0.0013185065 1.917007e-38 281 241
-0.050236505 0.75400001 -0.0013220133 1.9170067e-38 282 241
-0.048914492 0.75400001 -0.0013220133 1.9262263e-38 283 241
-0.04759248 0.75400001 -0.0013220133 1.926191e-38 284 241
-0.046270464 0.75400001 -0.0013220133 1.9169714e-38 285 241
-0.044948451 0.75400001 -0.0013220133 1.8986049e-38 286 241
-0.043684296 0.755 -0.0013237667 1.8893853e-38 287 241
-0.042472746 0.75700003 -0.0013272733 1.8709106e-38 288 241
-0.041254178 0.759 -0.00133078 1.8709106e-38 289 241
-0.040028598 0.76099998 -0.0013342865 1.8432878e-38 290 241
-0.038694311 0.76099998 -0.0013342865 1.8340682e-38 291 241
-0.037409119 0.76200002 -0.00133604 1.8249202e-38 292 241
-0.036073081 0.76200002 -0.00133604 1.7972976e-38 293 241
-0.034737039 0.76200002 -0.00133604 1.7697828e-38 294 241
-0.033488665 0.764 -0.0013395466 1.7605632e-38 295 241
-0.032149121 0.764 -0.0013395466 1.7604919e-38 296 241
-0.030809574 0.764 -0.0013395466 1.7327972e-38 297 241
-0.029585747 0.76700002 -0.0013448066 1.6592572e-38 298 241
-0.02824094 0.76700002 -0.0013448066 1.6224148e-38 299 241
-0.026966266 0.76899999 -0.0013483133 1.5764256e-38 300 241
-0.025617953 0.76899999 -0.0013483133 1.5395832e-38 301 241
-0.02433276 0.77100003 -0.00135182 1.5395129e-38 302 241
-0.02298094 0.77100003 -0.00135182 1.5579521e-38 303 241
-0.021685226 0.773 -0.0013553266 1.5395499e-38 304 241
-0.020356199 0.77399999 -0.0013570799 1.5302944e-38 305 241
-0.018999118 0.77399999 -0.0013570799 1.5302944e-38 306 241
-0.01764204 0.77399999 -0.0013570799 1.5118912e-38 307 241
-0.016284959 0.77399999 -0.0013570799 1.5027082e-38 308 241
-0.014966453 0.77600002 -0.0013605866 1.4934886e-38 309 241
-0.013605867 0.77600002 -0.0013605866 1.4659378e-38 310 241
-0.012308398 0.77999997 -0.0013675999 1.4659378e-38 311 241
-0.010954826 0.78100002 -0.0013693533 1.4566111e-38 312 241
-0.0095854728 0.78100002 -0.0013693533 1.4473915e-38 313 241
-0.0082161194 0.78100002 -0.0013693533 1.4013306e-38 314 241
-0.0068467669 0.78100002 -0.0013693533 1.2814762e-38 315 241
-0.0054914397 0.78299999 -0.0013728599 1.2348386e-38 316 241
-0.0041291001 0.78500003 -0.0013763667 1.0873616e-38 317 241
-0.0027597465 0.787 -0.0013798733 9.1254924e-39 318 241
-0.0013833799 0.78899997 -0.0013833799 8.1109818e-39 319 241
0 0.78899997 -0.0013833799 7.7407573e-39 320 241
0.0013886399 0.792 -0.0013886399 7.4645291e-39 321 241
0.0027772798 0.792 -0.0013886399 7.5585142e-39 322 241
0.0041764397 0.79400003 -0.0013921467 9.1261987e-39 323 241
0.0055685868 0.79400003 -0.0013921467 1.0603847e-38 324 241
0.0069607338 0.79400003 -0.0013921467 1.1894586e-38 325 241
0.0083528794 0.79400003 -0.0013921467 1.2907661e-38 326 241
0.0097695729 0.796 -0.0013956534 1.2999858e-38 327 241
0.011137174 0.79400003 -0.0013921467 1.3275741e-38 328 241
0.01252932 0.79400003 -0.0013921467 1.3552329e-38 329 241
0.014079265 0.80299997 -0.0014079266 1.484455e-38 330 241
0.015525767 0.80500001 -0.0014114333 1.7241995e-38 331 241
0.0169372 0.80500001 -0.0014114333 1.8351618e-38 332 241
-0.062446713 0.74199998 -0.0026019465 1.8898271e-38 272 242
-0.061145745 0.74199998 -0.0026019465 1.7791564e-38 273 242
-0.060006075 0.74400002 -0.00260896 1.8156301e-38 274 242
-0.058701597 0.74400002 -0.00260896 1.73269e-38 275 242
-0.05739712 0.74400002 -0.00260896 1.8524329e-38 276 242
-0.056544997 0.75 -0.00263 1.9077503e-38 277 242
-0.055229999 0.75 -0.00263 1.9077518e-38 278 242
-0.053914998 0.75 -0.00263 1.9169714e-38 279 242
-0.052740261 0.75199997 -0.0026370131 1.9170064e-38 280 242
-0.051421758 0.75199997 -0.0026370131 1.9170064e-38 281 242
-0.050103247 0.75199997 -0.0026370131 1.9078953e-38 282 242
-0.048784744 0.75199997 -0.0026370131 1.9078953e-38 283 242
-0.047466237 0.75199997 -0.0026370131 1.8986404e-38 284 242
-0.04614773 0.75199997 -0.0026370131 1.8986404e-38 285 242
-0.044948451 0.75400001 -0.0026440267 1.8802379e-38 286 242
-0.043684296 0.755 -0.0026475333 1.8617989e-38 287 242
-0.042472746 0.75700003 -0.0026545466 1.8433601e-38 288 242
-0.041145474 0.75700003 -0.0026545466 1.8341404e-38 289 242
-0.0399234 0.759 -0.00266156 1.8248849e-38 290 242
-0.038694311 0.76099998 -0.0026685731 1.8248849e-38 291 242
-0.037360024 0.76099998 -0.0026685731 1.7881499e-38 292 242
-0.036073081 0.76200002 -0.00267208 1.7788945e-38 293 242
-0.034737039 0.76200002 -0.00267208 1.7237571e-38 294 242
-0.033401001 0.76200002 -0.00267208 1.705318e-38 295 242
-0.032149121 0.764 -0.0026790933 1.686772e-38 296 242
-0.030809574 0.764 -0.0026790933 1.6682968e-38 297 242
-0.029547172 0.76599997 -0.0026861064 1.6131965e-38 298 242
-0.02824094 0.76700002 -0.0026896133 1.5855738e-38 299 242
-0.026896132 0.76700002 -0.0026896133 1.5487692e-38 300 242
-0.025617953 0.76899999 -0.0026966266 1.5487692e-38 301 242
-0.024269639 0.76899999 -0.0026966266 1.5487341e-38 302 242
-0.02298094 0.77100003 -0.0027036399 1.5487341e-38 303 242
-0.021685226 0.773 -0.0027106532 1.5119635e-38 304 242
-0.020356199 0.77399999 -0.0027141599 1.5119635e-38 305 242
-0.018999118 0.77399999 -0.0027141599 1.5119635e-38 306 242
-0.01764204 0.77399999 -0.0027141599 1.5027438e-38 307 242
-0.016284959 0.77399999 -0.0027141599 1.4751574e-38 308 242
-0.014966453 0.77600002 -0.0027211732 1.4751574e-38 309 242
-0.013605867 0.77600002 -0.0027211732 1.4750858e-38 310 242
-0.012276839 0.778 -0.0027281865 1.4658304e-38 311 242
-0.010940799 0.77999997 -0.0027351999 1.4473915e-38 312 242
-0.0095731998 0.77999997 -0.0027351999 1.4012937e-38 313 242
-0.0082161194 0.78100002 -0.0027387065 1.3734926e-38 314 242
-0.0068467669 0.78100002 -0.0027387065 1.1706623e-38 315 242
-0.0054774131 0.78100002 -0.0027387065 8.6666989e-39 316 242
-0.0041291001 0.78500003 -0.0027527334 6.1777756e-39 317 242
-0.0027597465 0.787 -0.0027597465 5.8086358e-39 318 242
-0.0013833799 0.78899997 -0.0027667598 4.6100926e-39 319 242
0 0.78899997 -0.0027667598 3.6006168e-39 320 242
0.0013886399 0.792 -0.0027772798 5.0753867e-39 321 242
0.0027772798 0.792 -0.0027772798 7.7447258e-39 322 242
0.00416592 0.792 -0.0027772798 9.5886384e-39 323 242
0.0055685868 0.79400003 -0.0027842934 1.1708042e-38 324 242
0.0069607338 0.79400003 -0.0027842934 1.2722195e-38 325 242
0.0083528794 0.79400003 -0.0027842934 1.2999864e-38 326 242
0.0097450269 0.79400003 -0.0027842934 1.3183895e-38 327 242
0.011137174 0.79400003 -0.0027842934 1.3736738e-38 328 242
0.01252932 0.79400003 -0.0027842934 1.5119673e-38 329 242
-0.063661776 0.741 -0.0038976599 1.7238746e-38 271 243
-0.062362559 0.741 -0.0038976599 1.7329086e-38 272 243
-0.061145745 0.74199998 -0.0039029196 1.7052859e-38 273 243
-0.05984477 0.74199998 -0.0039029196 1.8064092e-38 274 243
-0.058543798 0.74199998 -0.0039029196 1.8156288e-38 275 243
-0.057242822 0.74199998 -0.0039029196 1.8985323e-38 276 243
-0.056092639 0.74400002 -0.0039134403 1.926191e-38 277 243
-0.054935437 0.74599999 -0.0039239596 1.9078603e-38 278 243
-0.053699337 0.74699998 -0.0039292197 1.9262635e-38 279 243
-0.052529868 0.74900001 -0.0039397399 1.9261912e-38 280 243
-0.051216617 0.74900001 -0.0039397399 1.9261912e-38 281 243
-0.049969997 0.75 -0.003945 1.916972e-38 282 243
-0.048655 0.75 -0.003945 1.916972e-38 283 243
-0.047466237 0.75199997 -0.0039555198 1.8893853e-38 284 243
-0.04614773 0.75199997 -0.0039555198 1.8801657e-38 285 243
-0.044829223 0.75199997 -0.0039555198 1.8525793e-38 286 243
-0.04351072 0.75199997 -0.0039555198 1.8525793e-38 287 243
-0.042304426 0.75400001 -0.00396604 1.8250286e-38 288 243
-0.041036766 0.755 -0.0039712996 1.8158089e-38 289 243
-0.039818201 0.75700003 -0.0039818203 1.7973339e-38 290 243
-0.038490929 0.75700003 -0.0039818203 1.7881143e-38 291 243
-0.03726184 0.759 -0.0039923396 1.7788945e-38 292 243
-0.036025736 0.76099998 -0.0040028598 1.7512716e-38 293 243
-0.034737039 0.76200002 -0.0040081199 1.714466e-38 294 243
-0.033401001 0.76200002 -0.0040081199 1.6867714e-38 295 243
-0.032064959 0.76200002 -0.0040081199 1.6131246e-38 296 243
-0.030809574 0.764 -0.0040186401 1.6039051e-38 297 243
-0.029547172 0.76599997 -0.0040291594 1.5855032e-38 298 243
-0.02824094 0.76700002 -0.00403442 1.5762836e-38 299 243
-0.026896132 0.76700002 -0.00403442 1.5487694e-38 300 243
-0.025617953 0.76899999 -0.0040449398 1.5487694e-38 301 243
-0.024269639 0.76899999 -0.0040449398 1.5395143e-38 302 243
-0.02298094 0.77100003 -0.0040554604 1.5395143e-38 303 243
-0.021685226 0.773 -0.0040659797 1.5211831e-38 304 243
-0.0203299 0.773 -0.0040659797 1.5119635e-38 305 243
-0.018999118 0.77399999 -0.0040712398 1.484377e-38 306 243
-0.01764204 0.77399999 -0.0040712398 1.4751574e-38 307 243
-0.016284959 0.77399999 -0.0040712398 1.4934889e-38 308 243
-0.014966453 0.77600002 -0.0040817601 1.4750858e-38 309 243
-0.013605867 0.77600002 -0.0040817601 1.474942e-38 310 243
-0.012276839 0.778 -0.0040922803 1.4657225e-38 311 243
-0.010940799 0.77999997 -0.0041027996 1.4472113e-38 312 243
-0.0095731998 0.77999997 -0.0041027996 1.3734548e-38 313 243
-0.0082161194 0.78100002 -0.0041080597 1.2444182e-38 314 243
-0.0068467669 0.78100002 -0.0041080597 9.4017262e-39 315 243
-0.0054774131 0.78100002 -0.0041080597 5.257243e-39 316 243
-0.0041291001 0.78500003 -0.0041291001 2.8598147e-39 317 243
-0.0027597465 0.787 -0.0041396199 2.493556e-39 318 243
-0.0013833799 0.78899997 -0.0041501396 2.5857516e-39 319 243
0 0.78899997 -0.0041501396 3.4151788e-39 320 243
0.0013886399 0.792 -0.00416592 6.273602e-39 321 243
0.0027772798 0.792 -0.00416592 1.0324431e-38 322 243
0.00416592 0.792 -0.00416592 1.1983592e-38 323 243
0.0055685868 0.79400003 -0.0041764397 1.2999155e-38 324 243
0.0069607338 0.79400003 -0.0041764397 1.3275741e-38 325 243
0.0083528794 0.79400003 -0.0041764397 1.3184274e-38 326 243
0.0097450269 0.79400003 -0.0041764397 1.3737089e-38 327 243
0.011137174 0.79400003 -0.0041764397 1.4659083e-38 328 243
-0.064960994 0.741 -0.0051968796 1.7791159e-38 270 244
-0.063661776 0.741 -0.0051968796 1.7330182e-38 271 244
-0.062362559 0.741 -0.0051968796 1.788079e-38 272 244
-0.061063338 0.741 -0.0051968796 1.7973344e-38 273 244
-0.05984477 0.74199998 -0.0052038929 1.8433231e-38 274 244
-0.058543798 0.74199998 -0.0052038929 1.8894209e-38 275 244
-0.057242822 0.74199998 -0.0052038929 1.8986404e-38 276 244
-0.05594185 0.74199998 -0.0052038929 1.9262633e-38 277 244
-0.054788161 0.74400002 -0.0052179201 1.9262633e-38 278 244
-0.053627454 0.74599999 -0.0052319462 1.9262633e-38 279 244
-0.052319467 0.74599999 -0.0052319462 1.9261915e-38 280 244
-0.051079858 0.74699998 -0.0052389596 1.916972e-38 281 244
-0.04990337 0.74900001 -0.0052529867 1.9169364e-38 282 244
-0.048590127 0.74900001 -0.0052529867 1.9077168e-38 283 244
-0.047339998 0.75 -0.00526 1.8617992e-38 284 244
-0.046024997 0.75 -0.00526 1.8525796e-38 285 244
-0.044829223 0.75199997 -0.0052740262 1.8249932e-38 286 244
-0.04351072 0.75199997 -0.0052740262 1.8249932e-38 287 244
-0.042304426 0.75400001 -0.0052880533 1.8066259e-38 288 244
-0.040982414 0.75400001 -0.0052880533 1.7974063e-38 289 244
-0.039712999 0.755 -0.0052950666 1.7697478e-38 290 244
-0.038389232 0.755 -0.0052950666 1.7513086e-38 291 244
-0.037163652 0.75700003 -0.0053090933 1.705283e-38 292 244
-0.035931058 0.759 -0.0053231199 1.6960634e-38 293 244
-0.034691449 0.76099998 -0.0053371461 1.6223795e-38 294 244
-0.033401001 0.76200002 -0.0053441599 1.6223795e-38 295 244
-0.032064959 0.76200002 -0.0053441599 1.5763553e-38 296 244
-0.030728921 0.76200002 -0.0053441599 1.5763553e-38 297 244
-0.029470026 0.764 -0.0053581866 1.557989e-38 298 244
-0.028204117 0.76599997 -0.0053722127 1.5487694e-38 299 244
-0.026896132 0.76700002 -0.0053792265 1.5304026e-38 300 244
-0.025617953 0.76899999 -0.0053932532 1.5211831e-38 301 244
-0.024269639 0.76899999 -0.0053932532 1.530295e-38 302 244
-0.02298094 0.77100003 -0.0054072798 1.530295e-38 303 244
-0.021685226 0.773 -0.0054213065 1.4935967e-38 304 244
-0.0203299 0.773 -0.0054213065 1.484377e-38 305 244
-0.018999118 0.77399999 -0.0054283198 1.4751577e-38 306 244
-0.01764204 0.77399999 -0.0054283198 1.4659022e-38 307 244
-0.016284959 0.77399999 -0.0054283198 1.4658306e-38 308 244
-0.014927879 0.77399999 -0.0054283198 1.4381718e-38 309 244
-0.013605867 0.77600002 -0.0054423464 1.4196249e-38 310 244
-0.012276839 0.778 -0.0054563731 1.355088e-38 311 244
-0.010940799 0.77999997 -0.0054703997 1.3272478e-38 312 244
-0.0095731998 0.77999997 -0.0054703997 1.1152339e-38 313 244
-0.0082161194 0.78100002 -0.0054774131 9.3084417e-39 314 244
-0.0068467669 0.78100002 -0.0054774131 7.1875835e-39 315 244
-0.0054774131 0.78100002 -0.0054774131 5.9004629e-39 316 244
-0.0041291001 0.78500003 -0.0055054668 6.0848541e-39 317 244
-0.0027597465 0.787 -0.005519493 6.6405614e-39 318 244
-0.0013833799 0.78899997 -0.0055335197 7.8391046e-39 319 244
0 0.78899997 -0.0055335197 9.7737933e-39 320 244
0.0013886399 0.792 -0.0055545596 1.1156728e-38 321 244
0.0027842934 0.79400003 -0.0055685868 1.2721157e-38 322 244
0.0041764397 0.79400003 -0.0055685868 1.2905908e-38 323 244
0.0055826134 0.796 -0.0055826134 1.2907325e-38 324 244
0.0069782664 0.796 -0.0055826134 1.2907325e-38 325 244
0.0083528794 0.79400003 -0.0055685868 1.3184289e-38 326 244
0.0097450269 0.79400003 -0.0055685868 1.4106247e-38 327 244
-0.064785667 0.73900002 -0.0064785667 1.77886e-38 270 245
-0.063489959 0.73900002 -0.0064785667 1.8065187e-38 271 245
-0.062362559 0.741 -0.0064960998 1.8434304e-38 272 245
-0.061063338 0.741 -0.0064960998 1.85265e-38 273 245
-0.059764117 0.741 -0.0064960998 1.8801995e-38 274 245
-0.0584649 0.741 -0.0064960998 1.9078222e-38 275 245
-0.057165679 0.741 -0.0064960998 1.8986758e-38 276 245
-0.05594185 0.74199998 -0.0065048663 1.9078953e-38 277 245
-0.054640878 0.74199998 -0.0065048663 1.898677e-38 278 245
-0.053339902 0.74199998 -0.0065048663 1.8894575e-38 279 245
-0.052179199 0.74400002 -0.0065223998 1.8894221e-38 280 245
-0.050874721 0.74400002 -0.0065223998 1.8802026e-38 281 245
-0.04970349 0.74599999 -0.0065399334 1.8802026e-38 282 245
-0.048460379 0.74699998 -0.0065486995 1.8617995e-38 283 245
-0.047276881 0.74900001 -0.0065662335 1.8433964e-38 284 245
-0.045963634 0.74900001 -0.0065662335 1.8249932e-38 285 245
-0.044650383 0.74900001 -0.0065662335 1.8065907e-38 286 245
-0.043394998 0.75 -0.006575 1.797371e-38 287 245
-0.04219221 0.75199997 -0.0065925326 1.7790398e-38 288 245
-0.040982414 0.75400001 -0.0066100666 1.7697843e-38 289 245
-0.039660402 0.75400001 -0.0066100666 1.7329424e-38 290 245
-0.038389232 0.755 -0.0066188332 1.7052477e-38 291 245
-0.037065465 0.755 -0.0066188332 1.6501108e-38 292 245
-0.03583638 0.75700003 -0.0066363667 1.5947934e-38 293 245
-0.034600276 0.759 -0.0066538998 1.6131615e-38 294 245
-0.033357166 0.76099998 -0.0066714329 1.5947584e-38 295 245
-0.032064959 0.76200002 -0.0066801999 1.5580243e-38 296 245
-0.030728921 0.76200002 -0.0066801999 1.5580243e-38 297 245
-0.029470026 0.764 -0.006697733 1.5396578e-38 298 245
-0.028204117 0.76599997 -0.0067152665 1.5304382e-38 299 245
-0.026896132 0.76700002 -0.006724033 1.5212552e-38 300 245
-0.025617953 0.76899999 -0.0067415666 1.5119998e-38 301 245
-0.024269639 0.76899999 -0.0067415666 1.5211477e-38 302 245
-0.022921326 0.76899999 -0.0067415666 1.5119282e-38 303 245
-0.021629119 0.77100003 -0.0067590997 1.4843417e-38 304 245
-0.0203299 0.773 -0.0067766332 1.4751221e-38 305 245
-0.018974574 0.773 -0.0067766332 1.4566477e-38 306 245
-0.01764204 0.77399999 -0.0067853997 1.429025e-38 307 245
-0.016284959 0.77399999 -0.0067853997 1.4288445e-38 308 245
-0.014927879 0.77399999 -0.0067853997 1.4011858e-38 309 245
-0.013605867 0.77600002 -0.0068029333 1.355088e-38 310 245
-0.012276839 0.778 -0.0068204664 1.2444891e-38 311 245
-0.010940799 0.77999997 -0.0068379994 1.1703726e-38 312 245
-0.0095731998 0.77999997 -0.0068379994 9.8598135e-39 313 245
-0.0082161194 0.78100002 -0.0068467669 8.0195176e-39 314 245
-0.0068467669 0.78100002 -0.0068467669 7.927322e-39 315 245
-0.0054914397 0.78299999 -0.0068642995 8.1142496e-39 316 245
-0.0041291001 0.78500003 -0.0068818335 9.3127928e-39 317 245
-0.0027597465 0.787 -0.0068993662 1.0603162e-38 318 245
-0.0013833799 0.78899997 -0.0069168997 1.170915e-38 319 245
0 0.79000002 -0.0069256667 1.3090277e-38 320 245
0.0013921467 0.79400003 -0.0069607338 1.3550895e-38 321 245
-0.064697996 0.73799998 -0.0077637597 1.8249932e-38 270 246
-0.063404039 0.73799998 -0.0077637597 1.8526159e-38 271 246
-0.062110078 0.73799998 -0.0077637597 1.8802726e-38 272 246
-0.060816113 0.73799998 -0.0077637597 1.8894922e-38 273 246
-0.059602812 0.73900002 -0.0077742799 1.8987474e-38 274 246
-0.0583071 0.73900002 -0.0077742799 1.8987474e-38 275 246
-0.057011388 0.73900002 -0.0077742799 1.9078953e-38 276 246
-0.055715673 0.73900002 -0.0077742799 1.8986758e-38 277 246
-0.054419957 0.73900002 -0.0077742799 1.8986049e-38 278 246
-0.053268019 0.741 -0.0077953199 1.8893853e-38 279 246
-0.051968798 0.741 -0.0077953199 1.880166e-38 280 246
-0.050737958 0.74199998 -0.0078058392 1.8709106e-38 281 246
-0.049436983 0.74199998 -0.0078058392 1.8526147e-38 282 246
-0.048395503 0.74599999 -0.0078479191 1.8526147e-38 283 246
-0.047087517 0.74599999 -0.0078479191 1.8066612e-38 284 246
-0.045840897 0.74699998 -0.0078584393 1.8066612e-38 285 246
-0.044531155 0.74699998 -0.0078584393 1.7789676e-38 286 246
-0.043221418 0.74699998 -0.0078584393 1.7605285e-38 287 246
-0.042023893 0.74900001 -0.0078794798 1.7512733e-38 288 246
-0.040764999 0.75 -0.00789 1.7328341e-38 289 246
-0.039555199 0.75199997 -0.0079110395 1.6500023e-38 290 246
-0.038338386 0.75400001 -0.00793208 1.6131599e-38 291 246
-0.037065465 0.755 -0.0079425992 1.5855748e-38 292 246
-0.03583638 0.75700003 -0.0079636406 1.5855748e-38 293 246
-0.034600276 0.759 -0.0079846792 1.5947593e-38 294 246
-0.033269498 0.759 -0.0079846792 1.5855398e-38 295 246
-0.032022879 0.76099998 -0.0080057196 1.5580612e-38 296 246
-0.030728921 0.76200002 -0.0080162399 1.5396222e-38 297 246
-0.029392879 0.76200002 -0.0080162399 1.5212552e-38 298 246
-0.028130481 0.764 -0.0080372803 1.5304748e-38 299 246
-0.026861066 0.76599997 -0.0080583189 1.5120001e-38 300 246
-0.025551327 0.76700002 -0.00806884 1.5120001e-38 301 246
-0.024269639 0.76899999 -0.0080898795 1.5118561e-38 302 246
-0.022921326 0.76899999 -0.0080898795 1.5118561e-38 303 246
-0.021573013 0.76899999 -0.0080898795 1.4934889e-38 304 246
-0.020277301 0.77100003 -0.0081109209 1.4658304e-38 305 246
-0.018974574 0.773 -0.0081319595 1.474942e-38 306 246
-0.01764204 0.77399999 -0.0081424797 1.4011855e-38 307 246
-0.016284959 0.77399999 -0.0081424797 1.3273201e-38 308 246
-0.014966453 0.77600002 -0.0081635201 1.2535636e-38 309 246
-0.013605867 0.77600002 -0.0081635201 1.1523282e-38 310 246
-0.012276839 0.778 -0.0081845606 1.0785717e-38 311 246
-0.010940799 0.77999997 -0.0082055992 1.1795566e-38 312 246
-0.0095731998 0.77999997 -0.0082055992 1.234874e-38 313 246
-0.0082161194 0.78100002 -0.0082161194 1.1893179e-38 314 246
-0.0068467669 0.78100002 -0.0082161194 1.2630744e-38 315 246
-0.0055054668 0.78500003 -0.0082582003 1.3182488e-38 316 246
-0.0041396199 0.787 -0.0082792398 1.3182488e-38 317 246
-0.0027667598 0.78899997 -0.0083002793 1.3366511e-38 318 246
-0.0013851334 0.79000002 -0.0083108004 1.318212e-38 319 246
-0.066921227 0.73400003 -0.0090086265 1.8249553e-38 268 247
-0.06563428 0.73400003 -0.0090086265 1.85265e-38 269 247
-0.064522661 0.736 -0.0090331733 1.9077871e-38 270 247
-0.063232213 0.736 -0.0090331733 1.9077871e-38 271 247
-0.061941758 0.736 -0.0090331733 1.9262619e-38 272 247
-0.060651302 0.736 -0.0090331733 1.9262619e-38 273 247
-0.059360851 0.736 -0.0090331733 1.907895e-38 274 247
-0.058070395 0.736 -0.0090331733 1.907895e-38 275 247
-0.056779943 0.736 -0.0090331733 1.90786e-38 276 247
-0.055489492 0.736 -0.0090331733 1.8986404e-38 277 247
-0.054346316 0.73799998 -0.0090577193 1.8618714e-38 278 247
-0.053052358 0.73799998 -0.0090577193 1.8526159e-38 279 247
-0.051828533 0.73900002 -0.0090699932 1.852544e-38 280 247
-0.050669577 0.741 -0.0090945391 1.852544e-38 281 247
-0.049370356 0.741 -0.0090945391 1.8250286e-38 282 247
-0.048136011 0.74199998 -0.009106813 1.8158089e-38 283 247
-0.046961278 0.74400002 -0.0091313599 1.8066256e-38 284 247
-0.0456568 0.74400002 -0.0091313599 1.7790029e-38 285 247
-0.044471547 0.74599999 -0.0091559067 1.7606004e-38 286 247
-0.04316356 0.74599999 -0.0091559067 1.7237222e-38 287 247
-0.042023893 0.74900001 -0.0091927266 1.7052833e-38 288 247
-0.040710647 0.74900001 -0.0091927266 1.6591856e-38 289 247
-0.039449997 0.75 -0.0092049995 1.622381e-38 290 247
-0.038236689 0.75199997 -0.0092295464 1.5947584e-38 291 247
-0.037016369 0.75400001 -0.0092540924 1.5671732e-38 292 247
-0.035741698 0.755 -0.0092663663 1.5671732e-38 293 247
-0.034509107 0.75700003 -0.0092909131 1.5672088e-38 294 247
-0.033269498 0.759 -0.00931546 1.5672088e-38 295 247
-0.032022879 0.76099998 -0.0093400059 1.5579537e-38 296 247
-0.030728921 0.76200002 -0.0093522798 1.5487341e-38 297 247
-0.029392879 0.76200002 -0.0093522798 1.5303673e-38 298 247
-0.028130481 0.764 -0.0093768267 1.5211477e-38 299 247
-0.026861066 0.76599997 -0.0094013726 1.5120003e-38 300 247
-0.025551327 0.76700002 -0.0094136465 1.4935972e-38 301 247
-0.024269639 0.76899999 -0.0094381925 1.5026013e-38 302 247
-0.022921326 0.76899999 -0.0094381925 1.4841621e-38 303 247
-0.021573013 0.76899999 -0.0094381925 1.465723e-38 304 247
-0.020277301 0.77100003 -0.0094627403 1.4380643e-38 305 247
-0.018925481 0.77100003 -0.0094627403 1.3919295e-38 306 247
-0.017619247 0.773 -0.0094872871 1.3458318e-38 307 247
-0.016284959 0.77399999 -0.0094995592 1.2536358e-38 308 247
-0.014966453 0.77600002 -0.009524107 1.2444162e-38 309 247
-0.013640933 0.778 -0.0095486529 1.1798084e-38 310 247
-0.012276839 0.778 -0.0095486529 1.1798084e-38 311 247
-0.010940799 0.77999997 -0.0095731998 1.2442387e-38 312 247
-0.0095854728 0.78100002 -0.0095854728 1.3087756e-38 313 247
-0.0082161194 0.78100002 -0.0095854728 1.3090272e-38 314 247
-0.0068467669 0.78100002 -0.0095854728 1.3090272e-38 315 247
-0.0055054668 0.78500003 -0.0096345674 1.3183157e-38 316 247
-0.0041396199 0.787 -0.0096591124 1.290657e-38 317 247
-0.066830046 0.73299998 -0.010281546 1.8618698e-38 268 248
-0.065544859 0.73299998 -0.010281546 1.8894925e-38 269 248
-0.064259663 0.73299998 -0.010281546 1.907895e-38 270 248
-0.062974468 0.73299998 -0.010281546 1.9262983e-38 271 248
-0.061773442 0.73400003 -0.010295574 1.9355181e-38 272 248
-0.060486492 0.73400003 -0.010295574 1.9262986e-38 273 248
-0.059199546 0.73400003 -0.010295574 1.9262633e-38 274 248
-0.057912603 0.73400003 -0.010295574 1.90786e-38 275 248
-0.056625653 0.73400003 -0.010295574 1.8986049e-38 276 248
-0.055338707 0.73400003 -0.010295574 1.8893853e-38 277 248
-0.05419904 0.736 -0.010323626 1.8526512e-38 278 248
-0.052908584 0.736 -0.010323626 1.8434317e-38 279 248
-0.051758397 0.73799998 -0.010351679 1.8434314e-38 280 248
-0.050464436 0.73799998 -0.010351679 1.8158086e-38 281 248
-0.049237106 0.73900002 -0.010365707 1.8341754e-38 282 248
