# .PCD v.7 - Point Cloud Data file format
FIELDS x y z rgb imX imY
SIZE 4 4 4 4 4 4
TYPE F F F F F F
COUNT 1 1 1 1 1 1
WIDTH 829
HEIGHT 1
VIEWPOINT 0 0 0 1 0 0 0
POINTS 829
DATA ascii
-0.051719822 0.68599999 -0.031272452 1.8710162e-38 277 266
-0.050369758 0.68400002 -0.03118128 1.8710162e-38 278 266
-0.049170479 0.68400002 -0.03118128 1.8617967e-38 279 266
-0.048251733 0.68800002 -0.031363625 1.8433931e-38 280 266
-0.046771921 0.68400002 -0.03118128 1.8433931e-38 281 266
-0.045572639 0.68400002 -0.03118128 1.824919e-38 282 266
-0.044827472 0.69099998 -0.031500384 1.824919e-38 283 266
-0.043552797 0.69 -0.031454802 1.7697499e-38 284 266
-0.042342998 0.69 -0.031454802 1.7881891e-38 285 266
-0.083171122 0.708 -0.033516716 1.364454e-38 253 267
-0.081814043 0.70700002 -0.033469379 1.2999116e-38 254 267
-0.080460466 0.70599997 -0.033422034 1.355229e-38 255 267
-0.078998186 0.704 -0.03332736 1.5118871e-38 256 267
-0.077653378 0.70300001 -0.033280019 1.5948991e-38 257 267
-0.076203369 0.70099998 -0.03318534 1.7235758e-38 258 267
-0.07486733 0.69999999 -0.033137999 1.7235758e-38 259 267
-0.073429599 0.69800001 -0.033043321 1.7604539e-38 260 267
-0.071791984 0.69400001 -0.032853961 1.7696735e-38 261 267
-0.07057517 0.69400001 -0.032853961 1.7880774e-38 262 267
-0.069258414 0.69300002 -0.03280662 1.815736e-38 263 267
-0.068043359 0.69300002 -0.03280662 1.8341035e-38 264 267
-0.06663543 0.69099998 -0.032711938 1.8617263e-38 265 267
-0.065329194 0.69 -0.032664597 1.8616546e-38 266 267
-0.064119399 0.69 -0.032664597 1.8800938e-38 267 267
-0.06272725 0.68800002 -0.032569919 1.8800941e-38 268 267
-0.06152096 0.68800002 -0.032569919 1.8984972e-38 269 267
-0.060314666 0.68800002 -0.032569919 1.8893853e-38 270 267
-0.059022456 0.68699998 -0.032522578 1.8893853e-38 271 267
-0.057817914 0.68699998 -0.032522578 1.8986404e-38 272 267
-0.056613375 0.68699998 -0.032522578 1.8986404e-38 273 267
-0.055328183 0.68599999 -0.032475237 1.8894925e-38 274 267
-0.053888701 0.68300003 -0.032333218 1.8894925e-38 275 267
-0.052691177 0.68300003 -0.032333218 1.8894922e-38 276 267
-0.051493648 0.68300003 -0.032333218 1.8802726e-38 277 267
-0.05029612 0.68300003 -0.032333218 1.8436099e-38 278 267
-0.049170479 0.68400002 -0.032380559 1.8343904e-38 279 267
-0.047901068 0.68300003 -0.032333218 1.834355e-38 280 267
-0.04670354 0.68300003 -0.032333218 1.8251355e-38 281 267
-0.045506012 0.68300003 -0.032333218 1.8341754e-38 282 267
-0.044567976 0.68699998 -0.032522578 1.8249558e-38 283 267
-0.043363437 0.68699998 -0.032522578 1.7974063e-38 284 267
-0.042220265 0.68800002 -0.032569919 1.7789673e-38 285 267
-0.041013971 0.68800002 -0.032569919 1.760569e-38 286 267
-0.083171122 0.708 -0.034758076 1.3921855e-38 253 268
-0.081814043 0.70700002 -0.034708988 1.3089163e-38 254 268
-0.080460466 0.70599997 -0.034659892 1.336575e-38 255 268
-0.078998186 0.704 -0.034561705 1.4841927e-38 256 268
-0.077653378 0.70300001 -0.034512613 1.5672048e-38 257 268
-0.076094657 0.69999999 -0.034365334 1.7143212e-38 258 268
-0.074653424 0.69800001 -0.034267146 1.7327603e-38 259 268
-0.073219195 0.69599998 -0.034168959 1.7327606e-38 260 268
-0.071791984 0.69400001 -0.034070771 1.7696029e-38 261 268
-0.070473477 0.69300002 -0.034021679 1.7605635e-38 262 268
-0.069058537 0.69099998 -0.033923492 1.7697831e-38 263 268
-0.067846984 0.69099998 -0.033923492 1.8065537e-38 264 268
-0.066538997 0.69 -0.0338744 1.8157733e-38 265 268
-0.065329194 0.69 -0.0338744 1.8157735e-38 266 268
-0.063933544 0.68800002 -0.033776212 1.8249932e-38 267 268
-0.06272725 0.68800002 -0.033776212 1.8433245e-38 268 268
-0.061431535 0.68699998 -0.033727121 1.852544e-38 269 268
-0.060226995 0.68699998 -0.033727121 1.8434317e-38 270 268
-0.059022456 0.68699998 -0.033727121 1.8526512e-38 271 268
-0.057733759 0.68599999 -0.033678025 1.8526865e-38 272 268
-0.056366164 0.68400002 -0.033579841 1.8619061e-38 273 268
-0.055086225 0.68300003 -0.033530746 1.8619061e-38 274 268
-0.053888701 0.68300003 -0.033530746 1.8711257e-38 275 268
-0.052614026 0.68199998 -0.03348165 1.8802726e-38 276 268
-0.051418249 0.68199998 -0.03348165 1.8894922e-38 277 268
-0.05029612 0.68300003 -0.033530746 1.8895275e-38 278 268
-0.049098592 0.68300003 -0.033530746 1.8895275e-38 279 268
-0.047830928 0.68199998 -0.03348165 1.8895275e-38 280 268
-0.046635158 0.68199998 -0.03348165 1.880308e-38 281 268
-0.045439381 0.68199998 -0.03348165 1.8802361e-38 282 268
-0.044308487 0.68300003 -0.033530746 1.8617969e-38 283 268
-0.043174081 0.68400002 -0.033579841 1.8433598e-38 284 268
-0.042158898 0.68699998 -0.033727121 1.8341401e-38 285 268
-0.040954359 0.68699998 -0.033727121 1.7973006e-38 286 268
-0.039749816 0.68699998 -0.033727121 1.7973006e-38 287 268
-0.083171122 0.708 -0.03599944 1.4291006e-38 253 269
-0.081698313 0.70599997 -0.035897743 1.345687e-38 254 269
-0.080232531 0.704 -0.035796054 1.3549065e-38 255 269
-0.078885972 0.70300001 -0.035745207 1.45657e-38 256 269
-0.077432454 0.70099998 -0.035643511 1.5487296e-38 257 269
-0.075877249 0.69800001 -0.035490975 1.6499287e-38 258 269
-0.074546471 0.69700003 -0.035440128 1.6960266e-38 259 269
-0.073219195 0.69599998 -0.035389278 1.7328322e-38 260 269
-0.071791984 0.69400001 -0.035287585 1.7420518e-38 261 269
-0.070473477 0.69300002 -0.035236739 1.7605269e-38 262 269
-0.069058537 0.69099998 -0.035135046 1.77893e-38 263 269
-0.0677488 0.69 -0.035084199 1.7881146e-38 264 269
-0.066346131 0.68800002 -0.03498251 1.8065537e-38 265 269
-0.065139838 0.68800002 -0.03498251 1.8065184e-38 266 269
-0.06384062 0.68699998 -0.034931656 1.8157738e-38 267 269
-0.062636077 0.68699998 -0.034931656 1.8341048e-38 268 269
-0.061342116 0.68599999 -0.034880809 1.8433245e-38 269 269
-0.060139328 0.68599999 -0.034880809 1.8433954e-38 270 269
-0.05867881 0.68300003 -0.034728274 1.8526149e-38 271 269
-0.057481278 0.68300003 -0.034728274 1.843467e-38 272 269
-0.056283753 0.68300003 -0.034728274 1.8526865e-38 273 269
-0.055005573 0.68199998 -0.034677424 1.880166e-38 274 269
-0.053809796 0.68199998 -0.034677424 1.8893856e-38 275 269
-0.052614026 0.68199998 -0.034677424 1.8711262e-38 276 269
-0.051418249 0.68199998 -0.034677424 1.8803458e-38 277 269
-0.050222475 0.68199998 -0.034677424 1.8803458e-38 278 269
-0.049026705 0.68199998 -0.034677424 1.8895655e-38 279 269
-0.047830928 0.68199998 -0.034677424 1.8895655e-38 280 269
-0.046498399 0.68000001 -0.034575731 1.8711262e-38 281 269
-0.045239504 0.67900002 -0.034524884 1.8435749e-38 282 269
-0.044048995 0.67900002 -0.034524884 1.8343553e-38 283 269
-0.043047838 0.68199998 -0.034677424 1.8526147e-38 284 269
-0.041852064 0.68199998 -0.034677424 1.8433951e-38 285 269
-0.040954359 0.68699998 -0.034931656 1.8157733e-38 286 269
-0.039749816 0.68699998 -0.034931656 1.8065537e-38 287 269
-0.038545277 0.68699998 -0.034931656 1.7697493e-38 288 269
-0.082701221 0.704 -0.037030395 1.5119695e-38 253 270
-0.081466876 0.704 -0.037030395 1.3181009e-38 254 270
-0.079890631 0.70099998 -0.036872596 1.33654e-38 255 270
-0.078549333 0.69999999 -0.036819998 1.4473505e-38 256 270
-0.077101074 0.69800001 -0.0367148 1.5026678e-38 257 270
-0.075768545 0.69700003 -0.036662199 1.5579495e-38 258 270
-0.074439511 0.69599998 -0.036609598 1.6501811e-38 259 270
-0.073008798 0.69400001 -0.036504399 1.7420521e-38 260 270
-0.071481638 0.69099998 -0.036346599 1.7328325e-38 261 270
-0.070168398 0.69 -0.036293998 1.7513072e-38 262 270
-0.068958595 0.69 -0.036293998 1.7605269e-38 263 270
-0.0677488 0.69 -0.036293998 1.7605282e-38 264 270
-0.066346131 0.68800002 -0.0361888 1.7697478e-38 265 270
-0.065045156 0.68699998 -0.036136195 1.7972988e-38 266 270
-0.063747689 0.68599999 -0.036083598 1.7972988e-38 267 270
-0.062544905 0.68599999 -0.036083598 1.806554e-38 268 270
-0.061073858 0.68300003 -0.035925802 1.806554e-38 269 270
-0.059876334 0.68300003 -0.035925802 1.8341401e-38 270 270
-0.058592889 0.68199998 -0.035873197 1.8341401e-38 271 270
-0.05739712 0.68199998 -0.035873197 1.8250639e-38 272 270
-0.056201346 0.68199998 -0.035873197 1.8526865e-38 273 270
-0.055005573 0.68199998 -0.035873197 1.8617989e-38 274 270
-0.053652 0.68000001 -0.035767999 1.8617989e-38 275 270
-0.052459732 0.68000001 -0.035767999 1.8802023e-38 276 270
-0.051267464 0.68000001 -0.035767999 1.8802023e-38 277 270
-0.050001562 0.67900002 -0.035715401 1.8894219e-38 278 270
-0.048811045 0.67900002 -0.035715401 1.8986773e-38 279 270
-0.047620531 0.67900002 -0.035715401 1.9078247e-38 280 270
-0.046361636 0.67799997 -0.0356628 1.9078247e-38 281 270
-0.045172878 0.67799997 -0.0356628 1.8711257e-38 282 270
-0.043984115 0.67799997 -0.0356628 1.8803811e-38 283 270
-0.042669121 0.676 -0.035557602 1.8894925e-38 284 270
-0.041483864 0.676 -0.035557602 1.8618698e-38 285 270
-0.040298611 0.676 -0.035557602 1.8526149e-38 286 270
-0.03888192 0.67199999 -0.035347197 1.8433954e-38 287 270
-0.037703678 0.67199999 -0.035347197 1.7790029e-38 288 270
-0.081466876 0.704 -0.038264744 1.3365768e-38 254 271
-0.079776667 0.69999999 -0.038047329 1.3457965e-38 255 271
-0.078324907 0.69800001 -0.037938625 1.4472798e-38 256 271
-0.077101074 0.69800001 -0.037938625 1.4657548e-38 257 271
-0.075659841 0.69599998 -0.037829921 1.5301836e-38 258 271
-0.074225612 0.69400001 -0.037721213 1.6131597e-38 259 271
-0.072903603 0.69300002 -0.037666857 1.6960263e-38 260 271
-0.071378194 0.69 -0.037503798 1.7052458e-38 261 271
-0.06996502 0.68800002 -0.037395094 1.7696385e-38 262 271
-0.068758719 0.68800002 -0.037395094 1.7696385e-38 263 271
-0.067552425 0.68800002 -0.037395094 1.7513086e-38 264 271
-0.066249698 0.68699998 -0.037340738 1.7513086e-38 265 271
-0.064950474 0.68599999 -0.037286382 1.7604566e-38 266 271
-0.063561834 0.68400002 -0.037177678 1.7880793e-38 267 271
-0.06227139 0.68300003 -0.037123326 1.7880793e-38 268 271
-0.060984433 0.68199998 -0.037068974 1.7972988e-38 269 271
-0.059613332 0.68000001 -0.036960267 1.8066256e-38 270 271
-0.058421064 0.68000001 -0.036960267 1.8066256e-38 271 271
-0.057144642 0.67900002 -0.036905911 1.8066609e-38 272 271
-0.055954125 0.67900002 -0.036905911 1.8158806e-38 273 271
-0.054844268 0.68000001 -0.036960267 1.8250288e-38 274 271
-0.053573098 0.67900002 -0.036905911 1.843432e-38 275 271
-0.052305438 0.67799997 -0.036851559 1.8526162e-38 276 271
-0.051116679 0.67799997 -0.036851559 1.8618358e-38 277 271
-0.049927916 0.67799997 -0.036851559 1.8801676e-38 278 271
-0.048739154 0.67799997 -0.036851559 1.8893871e-38 279 271
-0.047550395 0.67799997 -0.036851559 1.8986064e-38 280 271
-0.046224877 0.676 -0.036742851 1.8986064e-38 281 271
-0.045039624 0.676 -0.036742851 1.8711625e-38 282 271
-0.043724626 0.67400002 -0.036634147 1.8803822e-38 283 271
-0.042542879 0.67400002 -0.036634147 1.8803455e-38 284 271
-0.041361131 0.67400002 -0.036634147 1.871126e-38 285 271
-0.040179387 0.67400002 -0.036634147 1.8802729e-38 286 271
-0.03888192 0.67199999 -0.036525436 1.8618698e-38 287 271
-0.037703678 0.67199999 -0.036525436 1.843467e-38 288 271
-0.036525436 0.67199999 -0.036525436 1.8158442e-38 289 271
-0.035347197 0.67199999 -0.036525436 1.8065893e-38 290 271
-0.034168959 0.67199999 -0.036525436 1.7604916e-38 291 271
-0.081004001 0.69999999 -0.039274666 1.4011152e-38 254 272
-0.079776667 0.69999999 -0.039274666 1.4103706e-38 255 272
-0.078324907 0.69800001 -0.039162453 1.4565e-38 256 272
-0.077101074 0.69800001 -0.039162453 1.4472804e-38 257 272
-0.075659841 0.69599998 -0.039050236 1.5391511e-38 258 272
-0.074225612 0.69400001 -0.038938027 1.5944684e-38 259 272
-0.072903603 0.69300002 -0.03888192 1.6132666e-38 260 272
-0.071378194 0.69 -0.038713597 1.6501808e-38 261 272
-0.06996502 0.68800002 -0.038601387 1.7328325e-38 262 272
-0.068758719 0.68800002 -0.038601387 1.7328325e-38 263 272
-0.067454241 0.68699998 -0.038545277 1.7695666e-38 264 272
-0.066153266 0.68599999 -0.03848917 1.7787861e-38 265 272
-0.064666435 0.68300003 -0.038320854 1.7695663e-38 266 272
-0.063375987 0.68199998 -0.038264744 1.7971891e-38 267 272
-0.062180214 0.68199998 -0.038264744 1.7971894e-38 268 272
-0.0608056 0.68000001 -0.038152531 1.8156285e-38 269 272
-0.059613332 0.68000001 -0.038152531 1.7973694e-38 270 272
-0.058335152 0.67900002 -0.038096428 1.7973694e-38 271 272
-0.057144642 0.67900002 -0.038096428 1.8341401e-38 272 272
-0.055954125 0.67900002 -0.038096428 1.8249205e-38 273 272
-0.054763615 0.67900002 -0.038096428 1.8432878e-38 274 272
-0.053494196 0.67799997 -0.038040318 1.8432878e-38 275 272
-0.052305438 0.67799997 -0.038040318 1.8616913e-38 276 272
-0.051116679 0.67799997 -0.038040318 1.8709109e-38 277 272
-0.049780637 0.676 -0.037928104 1.8709109e-38 278 272
-0.048595384 0.676 -0.037928104 1.8801304e-38 279 272
-0.047410134 0.676 -0.037928104 1.88935e-38 280 272
-0.046224877 0.676 -0.037928104 1.88935e-38 281 272
-0.044972997 0.67500001 -0.037871998 1.8894572e-38 282 272
-0.043724626 0.67400002 -0.037815895 1.8986767e-38 283 272
-0.042416636 0.67199999 -0.037703678 1.8895652e-38 284 272
-0.041238401 0.67199999 -0.037703678 1.9079683e-38 285 272
-0.040060159 0.67199999 -0.037703678 1.8895658e-38 286 272
-0.03888192 0.67199999 -0.037703678 1.8895658e-38 287 272
-0.037703678 0.67199999 -0.037703678 1.8894575e-38 288 272
-0.036525436 0.67199999 -0.037703678 1.8617989e-38 289 272
-0.0352946 0.671 -0.037647571 1.8158806e-38 290 272
-0.034118112 0.671 -0.037647571 1.8066609e-38 291 272
-0.03299072 0.67199999 -0.037703678 1.7605285e-38 292 272
-0.031812478 0.67199999 -0.037703678 1.7789676e-38 293 272
-0.030634239 0.67199999 -0.037703678 1.7606046e-38 294 272
-0.029543666 0.67400002 -0.037815895 1.7606046e-38 295 272
-0.082701221 0.704 -0.040733438 1.5305898e-38 253 273
-0.081351154 0.70300001 -0.040675577 1.474872e-38 254 273
-0.079776667 0.69999999 -0.040502001 1.4472493e-38 255 273
-0.078324907 0.69800001 -0.040386278 1.4747956e-38 256 273
-0.077101074 0.69800001 -0.040386278 1.4747956e-38 257 273
-0.075659841 0.69599998 -0.040270556 1.4932703e-38 258 273
-0.074225612 0.69400001 -0.040154841 1.5301486e-38 259 273
-0.072693199 0.69099998 -0.039981257 1.5486593e-38 260 273
-0.071378194 0.69 -0.0399234 1.6131962e-38 261 273
-0.06996502 0.68800002 -0.039807681 1.6960985e-38 262 273
-0.068658777 0.68699998 -0.039749816 1.705318e-38 263 273
-0.06735605 0.68599999 -0.039691959 1.7145013e-38 264 273
-0.065863967 0.68300003 -0.039518382 1.7145013e-38 265 273
-0.064666435 0.68300003 -0.039518382 1.7327969e-38 266 273
-0.063375987 0.68199998 -0.039460517 1.7420524e-38 267 273
-0.062180214 0.68199998 -0.039460517 1.7512363e-38 268 273
-0.060716182 0.67900002 -0.039286941 1.7604919e-38 269 273
-0.059525665 0.67900002 -0.039286941 1.7605285e-38 270 273
-0.058249239 0.67799997 -0.039229076 1.769748e-38 271 273
-0.057060476 0.67799997 -0.039229076 1.7789676e-38 272 273
-0.055706903 0.676 -0.039113361 1.7973707e-38 273 273
-0.054521654 0.676 -0.039113361 1.7974063e-38 274 273
-0.053336397 0.676 -0.039113361 1.8066259e-38 275 273
-0.052151144 0.676 -0.039113361 1.8066259e-38 276 273
-0.050965894 0.676 -0.039113361 1.8158456e-38 277 273
-0.049706999 0.67500001 -0.039055496 1.8249579e-38 278 273
-0.048523501 0.67500001 -0.039055496 1.8433969e-38 279 273
-0.047269866 0.67400002 -0.038997639 1.8342853e-38 280 273
-0.046088122 0.67400002 -0.038997639 1.8435048e-38 281 273
-0.044906374 0.67400002 -0.038997639 1.8435045e-38 282 273
-0.043594878 0.67199999 -0.03888192 1.8527241e-38 283 273
-0.042416636 0.67199999 -0.03888192 1.8527241e-38 284 273
-0.041177034 0.671 -0.038824059 1.8803828e-38 285 273
-0.040000543 0.671 -0.038824059 1.8711625e-38 286 273
-0.038824059 0.671 -0.038824059 1.8803822e-38 287 273
-0.037647571 0.671 -0.038824059 1.8987123e-38 288 273
-0.036471087 0.671 -0.038824059 1.8802373e-38 289 273
-0.0352946 0.671 -0.038824059 1.8710165e-38 290 273
-0.034118112 0.671 -0.038824059 1.8617969e-38 291 273
-0.032941625 0.671 -0.038824059 1.8433581e-38 292 273
-0.031812478 0.67199999 -0.03888192 1.824919e-38 293 273
-0.030634239 0.67199999 -0.03888192 1.7881499e-38 294 273
-0.029455997 0.67199999 -0.03888192 1.7512716e-38 295 273
-0.02827776 0.67199999 -0.03888192 1.705321e-38 296 273
-0.082701221 0.704 -0.041967787 1.5213348e-38 253 274
-0.081351154 0.70300001 -0.041908171 1.5024959e-38 254 274
-0.079776667 0.69999999 -0.041729331 1.4840568e-38 255 274
-0.078549333 0.69999999 -0.041729331 1.4657564e-38 256 274
-0.077101074 0.69800001 -0.041610107 1.4565009e-38 257 274
-0.075659841 0.69599998 -0.041490879 1.5024157e-38 258 274
-0.074225612 0.69400001 -0.041371655 1.5116353e-38 259 274
-0.072693199 0.69099998 -0.041192811 1.4934479e-38 260 274
-0.071171306 0.68800002 -0.041013971 1.5118871e-38 261 274
-0.069863312 0.68699998 -0.040954359 1.585464e-38 262 274
-0.068558842 0.68599999 -0.040894743 1.6131228e-38 263 274
-0.067159683 0.68400002 -0.040775519 1.6499643e-38 264 274
-0.065767527 0.68199998 -0.040656291 1.6960263e-38 265 274
-0.064571753 0.68199998 -0.040656291 1.7418357e-38 266 274
-0.063190132 0.68000001 -0.040537067 1.7786779e-38 267 274
-0.061906695 0.67900002 -0.040477451 1.751199e-38 268 274
-0.060626756 0.67799997 -0.040417835 1.7604186e-38 269 274
-0.059437994 0.67799997 -0.040417835 1.7512716e-38 270 274
-0.058077414 0.676 -0.040298611 1.7604913e-38 271 274
-0.056892153 0.676 -0.040298611 1.778895e-38 272 274
-0.055706903 0.676 -0.040298611 1.7881146e-38 273 274
-0.054441001 0.67500001 -0.040238999 1.7973339e-38 274 274
-0.053257499 0.67500001 -0.040238999 1.8065893e-38 275 274
-0.052074 0.67500001 -0.040238999 1.8341401e-38 276 274
-0.050890498 0.67500001 -0.040238999 1.8341401e-38 277 274
-0.049706999 0.67500001 -0.040238999 1.8341048e-38 278 274
-0.048523501 0.67500001 -0.040238999 1.8433245e-38 279 274
-0.047269866 0.67400002 -0.040179387 1.8433245e-38 280 274
-0.046088122 0.67400002 -0.040179387 1.852544e-38 281 274
-0.044773117 0.67199999 -0.040060159 1.8525796e-38 282 274
-0.043594878 0.67199999 -0.040060159 1.8617992e-38 283 274
-0.042353518 0.671 -0.040000543 1.8802023e-38 284 274
-0.041177034 0.671 -0.040000543 1.8802023e-38 285 274
-0.040000543 0.671 -0.040000543 1.8711275e-38 286 274
-0.038824059 0.671 -0.040000543 1.8711275e-38 287 274
-0.037591465 0.67000002 -0.039940935 1.8802756e-38 288 274
-0.036416732 0.67000002 -0.039940935 1.8802756e-38 289 274
-0.035136797 0.66799998 -0.039821707 1.8803825e-38 290 274
-0.033965573 0.66799998 -0.039821707 1.8711628e-38 291 274
-0.032794341 0.66799998 -0.039821707 1.8343916e-38 292 274
-0.0317178 0.67000002 -0.039940935 1.8067689e-38 293 274
-0.030543067 0.67000002 -0.039940935 1.8158809e-38 294 274
-0.029368332 0.67000002 -0.039940935 1.8066612e-38 295 274
-0.028193599 0.67000002 -0.039940935 1.7882595e-38 296 274
-0.081351154 0.70300001 -0.043140765 1.4657621e-38 254 275
-0.079548739 0.69800001 -0.042833932 1.4565426e-38 255 275
-0.078324907 0.69800001 -0.042833932 1.4749408e-38 256 275
-0.076990619 0.69700003 -0.042772565 1.4565015e-38 257 275
-0.075659841 0.69599998 -0.042711195 1.4748659e-38 258 275
-0.074225612 0.69400001 -0.042588469 1.4748659e-38 259 275
-0.072693199 0.69099998 -0.042404365 1.4749012e-38 260 275
-0.071171306 0.68800002 -0.042220265 1.4841208e-38 261 275
-0.069863312 0.68699998 -0.042158898 1.5117075e-38 262 275
-0.068558842 0.68599999 -0.042097531 1.5485859e-38 263 275
-0.067159683 0.68400002 -0.041974798 1.5855004e-38 264 275
-0.065767527 0.68199998 -0.041852064 1.613195e-38 265 275
-0.064571753 0.68199998 -0.041852064 1.6775873e-38 266 275
-0.063190132 0.68000001 -0.041729335 1.6960266e-38 267 275
-0.061906695 0.67900002 -0.041667968 1.7143934e-38 268 275
-0.060626756 0.67799997 -0.041606598 1.7236129e-38 269 275
-0.059262663 0.676 -0.041483864 1.7328694e-38 270 275
-0.058077414 0.676 -0.041483864 1.7144304e-38 271 275
-0.056892153 0.676 -0.041483864 1.7420535e-38 272 275
-0.0556245 0.67500001 -0.041422497 1.7513089e-38 273 275
-0.054441001 0.67500001 -0.041422497 1.7605285e-38 274 275
-0.053257499 0.67500001 -0.041422497 1.7605285e-38 275 275
-0.051996857 0.67400002 -0.041361131 1.7788597e-38 276 275
-0.050815105 0.67400002 -0.041361131 1.7880793e-38 277 275
-0.049633358 0.67400002 -0.041361131 1.7972991e-38 278 275
-0.04830784 0.67199999 -0.041238401 1.8065187e-38 279 275
-0.047129598 0.67199999 -0.041238401 1.8065189e-38 280 275
-0.045951359 0.67199999 -0.041238401 1.8157387e-38 281 275
-0.044773117 0.67199999 -0.041238401 1.8249582e-38 282 275
-0.043530006 0.671 -0.041177034 1.8433613e-38 283 275
-0.042353518 0.671 -0.041177034 1.8525809e-38 284 275
-0.040992931 0.66799998 -0.040992931 1.8525809e-38 285 275
-0.039762091 0.667 -0.040931564 1.8434695e-38 286 275
-0.038592618 0.667 -0.040931564 1.8434695e-38 287 275
-0.037479252 0.66799998 -0.040992931 1.8434695e-38 288 275
-0.036253672 0.667 -0.040931564 1.8526891e-38 289 275
-0.035084199 0.667 -0.040931564 1.8803108e-38 290 275
-0.033914726 0.667 -0.040931564 1.8710553e-38 291 275
-0.032745253 0.667 -0.040931564 1.8711976e-38 292 275
-0.031623118 0.66799998 -0.040992931 1.8435749e-38 293 275
-0.030543067 0.67000002 -0.041115668 1.8619417e-38 294 275
-0.029368332 0.67000002 -0.041115668 1.8434667e-38 295 275
-0.028193599 0.67000002 -0.041115668 1.8525796e-38 296 275
-0.079548739 0.69800001 -0.04405776 1.4105896e-38 255 276
-0.078324907 0.69800001 -0.04405776 1.474942e-38 256 276
-0.076990619 0.69700003 -0.043994639 1.4473192e-38 257 276
-0.075442426 0.69400001 -0.043805279 1.4840142e-38 258 276
-0.074225612 0.69400001 -0.043805279 1.4747946e-38 259 276
-0.072587997 0.69 -0.043552797 1.4931606e-38 260 276
-0.071171306 0.68800002 -0.043426562 1.483941e-38 261 276
-0.069761619 0.68599999 -0.043300316 1.474721e-38 262 276
-0.068358958 0.68400002 -0.043174081 1.4931962e-38 263 276
-0.067061491 0.68300003 -0.043110959 1.5025955e-38 264 276
-0.065767527 0.68199998 -0.043047838 1.5579129e-38 265 276
-0.064571753 0.68199998 -0.043047838 1.6315615e-38 266 276
-0.063190132 0.68000001 -0.042921599 1.6500006e-38 267 276
-0.061906695 0.67900002 -0.042858478 1.6867347e-38 268 276
-0.060626756 0.67799997 -0.042795356 1.6959544e-38 269 276
-0.059262663 0.676 -0.042669121 1.7143578e-38 270 276
-0.058077414 0.676 -0.042669121 1.7235774e-38 271 276
-0.056808002 0.67500001 -0.042606 1.7327972e-38 272 276
-0.0556245 0.67500001 -0.042606 1.7327972e-38 273 276
-0.054360349 0.67400002 -0.042542879 1.7419814e-38 274 276
-0.053178601 0.67400002 -0.042542879 1.7419814e-38 275 276
-0.051996857 0.67400002 -0.042542879 1.7512014e-38 276 276
-0.050815105 0.67400002 -0.042542879 1.760421e-38 277 276
-0.049486078 0.67199999 -0.042416636 1.7880074e-38 278 276
-0.04830784 0.67199999 -0.042416636 1.7972269e-38 279 276
-0.047059465 0.671 -0.042353518 1.7880795e-38 280 276
-0.045882981 0.671 -0.042353518 1.7972991e-38 281 276
-0.044706494 0.671 -0.042353518 1.8065187e-38 282 276
-0.043465134 0.67000002 -0.042290401 1.8065187e-38 283 276
-0.042101037 0.667 -0.042101037 1.8249579e-38 284 276
-0.040931564 0.667 -0.042101037 1.8249579e-38 285 276
-0.039762091 0.667 -0.042101037 1.8342497e-38 286 276
-0.038592618 0.667 -0.042101037 1.8250301e-38 287 276
-0.037423145 0.667 -0.042101037 1.8525812e-38 288 276
-0.036253672 0.667 -0.042101037 1.8618007e-38 289 276
-0.035031598 0.66600001 -0.042037919 1.861801e-38 290 276
-0.03386388 0.66600001 -0.042037919 1.8710206e-38 291 276
-0.032745253 0.667 -0.042101037 1.8803122e-38 292 276
-0.03157578 0.667 -0.042101037 1.8710926e-38 293 276
-0.030406304 0.667 -0.042101037 1.8526891e-38 294 276
-0.029236831 0.667 -0.042101037 1.8434695e-38 295 276
-0.028067358 0.667 -0.042101037 1.8435048e-38 296 276
-0.026857559 0.66600001 -0.042037919 1.8342853e-38 297 276
-0.025612691 0.66399997 -0.041911677 1.8433966e-38 298 276
-0.024448479 0.66399997 -0.041911677 1.8433966e-38 299 276
-0.0232492 0.66299999 -0.041848559 1.8066636e-38 300 276
-0.02208674 0.66299999 -0.041848559 1.7789689e-38 301 276
-0.020924279 0.66299999 -0.041848559 1.732838e-38 302 276
-0.018543253 0.66100001 -0.04172232 1.6962866e-38 304 276
-0.079548739 0.69800001 -0.045281585 1.3370494e-38 255 277
-0.078324907 0.69800001 -0.045281585 1.4656877e-38 256 277
-0.076990619 0.69700003 -0.045216713 1.4472845e-38 257 277
-0.075442426 0.69400001 -0.045022093 1.4839435e-38 258 277
-0.073904753 0.69099998 -0.044827472 1.474724e-38 259 277
-0.0723776 0.68800002 -0.044632856 1.4563551e-38 260 277
-0.071067855 0.68699998 -0.044567976 1.4563551e-38 261 277
-0.069761619 0.68599999 -0.044503104 1.4471702e-38 262 277
-0.068358958 0.68400002 -0.04437336 1.4563898e-38 263 277
-0.067061491 0.68300003 -0.044308487 1.4656095e-38 264 277
-0.065767527 0.68199998 -0.044243611 1.5209268e-38 265 277
-0.064571753 0.68199998 -0.044243611 1.5578779e-38 266 277
-0.063190132 0.68000001 -0.044113863 1.5855007e-38 267 277
-0.061906695 0.67900002 -0.044048995 1.6131231e-38 268 277
-0.060626756 0.67799997 -0.043984115 1.6315262e-38 269 277
-0.059262663 0.676 -0.043854371 1.6775517e-38 270 277
-0.058077414 0.676 -0.043854371 1.6775517e-38 271 277
-0.056808002 0.67500001 -0.043789499 1.6867714e-38 272 277
-0.055542093 0.67400002 -0.043724626 1.6867714e-38 273 277
-0.054360349 0.67400002 -0.043724626 1.7143228e-38 274 277
-0.053020798 0.67199999 -0.043594878 1.7143228e-38 275 277
-0.051842555 0.67199999 -0.043594878 1.7144309e-38 276 277
-0.050664317 0.67199999 -0.043594878 1.7328341e-38 277 277
-0.049412437 0.671 -0.043530006 1.7512014e-38 278 277
-0.048235953 0.671 -0.043530006 1.760421e-38 279 277
-0.047059465 0.671 -0.043530006 1.7788244e-38 280 277
-0.045609459 0.667 -0.04327051 1.7880439e-38 281 277
-0.044439986 0.667 -0.04327051 1.7880795e-38 282 277
-0.04327051 0.667 -0.04327051 1.7880795e-38 283 277
-0.042101037 0.667 -0.04327051 1.7972991e-38 284 277
-0.040870197 0.66600001 -0.043205637 1.8065187e-38 285 277
-0.039702479 0.66600001 -0.043205637 1.8157384e-38 286 277
-0.03853476 0.66600001 -0.043205637 1.8065187e-38 287 277
-0.037367038 0.66600001 -0.043205637 1.8157387e-38 288 277
-0.03619932 0.66600001 -0.043205637 1.8249582e-38 289 277
-0.035031598 0.66600001 -0.043205637 1.843326e-38 290 277
-0.03386388 0.66600001 -0.043205637 1.8525814e-38 291 277
-0.032696161 0.66600001 -0.043205637 1.8617657e-38 292 277
-0.031528439 0.66600001 -0.043205637 1.8617657e-38 293 277
-0.030406304 0.667 -0.04327051 1.8617654e-38 294 277
-0.029236831 0.667 -0.04327051 1.8617654e-38 295 277
-0.028025279 0.66600001 -0.043205637 1.8710559e-38 296 277
-0.026776904 0.66399997 -0.043075889 1.8618005e-38 297 277
-0.025612691 0.66399997 -0.043075889 1.8526165e-38 298 277
-0.024448479 0.66399997 -0.043075889 1.8526165e-38 299 277
-0.0232492 0.66299999 -0.043011017 1.8250304e-38 300 277
-0.02208674 0.66299999 -0.043011017 1.8157749e-38 301 277
-0.020892721 0.662 -0.042946145 1.7789338e-38 302 277
-0.019732011 0.662 -0.042946145 1.7789338e-38 303 277
-0.018487146 0.65899998 -0.042751525 1.7237982e-38 304 277
-0.017331699 0.65899998 -0.042751525 1.7330179e-38 305 277
-0.078324907 0.69800001 -0.046505414 1.4105151e-38 256 278
-0.076990619 0.69700003 -0.046438783 1.4105151e-38 257 278
-0.075442426 0.69400001 -0.046238903 1.4564649e-38 258 278
-0.073904753 0.69099998 -0.046039023 1.4472095e-38 259 278
-0.0723776 0.68800002 -0.045839146 1.4563904e-38 260 278
-0.071067855 0.68699998 -0.045772515 1.4563904e-38 261 278
-0.06955824 0.68400002 -0.045572639 1.4380589e-38 262 278
-0.068358958 0.68400002 -0.045572639 1.4380589e-38 263 278
-0.067061491 0.68300003 -0.045506012 1.4380236e-38 264 278
-0.065767527 0.68199998 -0.045439381 1.4748659e-38 265 278
-0.064571753 0.68199998 -0.045439381 1.4841577e-38 266 278
-0.063190132 0.68000001 -0.045306131 1.5118524e-38 267 278
-0.061906695 0.67900002 -0.045239504 1.5486227e-38 268 278
-0.060626756 0.67799997 -0.045172878 1.585501e-38 269 278
-0.059262663 0.676 -0.045039624 1.6407458e-38 270 278
-0.057991501 0.67500001 -0.044972997 1.6407458e-38 271 278
-0.056723841 0.67400002 -0.044906374 1.6500006e-38 272 278
-0.055377278 0.67199999 -0.044773117 1.6407811e-38 273 278
-0.054199036 0.67199999 -0.044773117 1.6683675e-38 274 278
-0.053020798 0.67199999 -0.044773117 1.6683675e-38 275 278
-0.051765412 0.671 -0.044706494 1.6775517e-38 276 278
-0.050588924 0.671 -0.044706494 1.6960268e-38 277 278
-0.049412437 0.671 -0.044706494 1.7143953e-38 278 278
-0.048164066 0.67000002 -0.044639867 1.7327985e-38 279 278
-0.046778932 0.667 -0.044439986 1.7236869e-38 280 278
-0.045609459 0.667 -0.044439986 1.7329424e-38 281 278
-0.04437336 0.66600001 -0.04437336 1.751237e-38 282 278
-0.043205637 0.66600001 -0.04437336 1.7604566e-38 283 278
-0.042037919 0.66600001 -0.04437336 1.7421619e-38 284 278
-0.040870197 0.66600001 -0.04437336 1.760565e-38 285 278
-0.039702479 0.66600001 -0.04437336 1.7605653e-38 286 278
-0.03853476 0.66600001 -0.04437336 1.7605653e-38 287 278
-0.037254825 0.66399997 -0.044240102 1.7789326e-38 288 278
-0.036090612 0.66399997 -0.044240102 1.7973357e-38 289 278
-0.0349264 0.66399997 -0.044240102 1.8065203e-38 290 278
-0.033762183 0.66399997 -0.044240102 1.8065203e-38 291 278
-0.03259797 0.66399997 -0.044240102 1.8156327e-38 292 278
-0.031433757 0.66399997 -0.044240102 1.8432913e-38 293 278
-0.030360719 0.66600001 -0.04437336 1.8249598e-38 294 278
-0.029192999 0.66600001 -0.04437336 1.8341793e-38 295 278
-0.027899038 0.66299999 -0.044173479 1.8341793e-38 296 278
-0.026736578 0.66299999 -0.044173479 1.8341793e-38 297 278
-0.025574118 0.66299999 -0.044173479 1.8249948e-38 298 278
-0.024411658 0.66299999 -0.044173479 1.8249948e-38 299 278
-0.0232492 0.66299999 -0.044173479 1.8249948e-38 300 278
-0.02208674 0.66299999 -0.044173479 1.8249948e-38 301 278
-0.02086116 0.66100001 -0.044040225 1.825067e-38 302 278
-0.019702207 0.66100001 -0.044040225 1.825067e-38 303 278
-0.018487146 0.65899998 -0.043906972 1.7882254e-38 304 278
-0.017331699 0.65899998 -0.043906972 1.751383e-38 305 278
-0.016176252 0.65899998 -0.043906972 1.723689e-38 306 278
-0.075116299 0.69099998 -0.047250576 1.447211e-38 258 279
-0.073904753 0.69099998 -0.047250576 1.447211e-38 259 279
-0.0723776 0.68800002 -0.047045439 1.4563918e-38 260 279
-0.071067855 0.68699998 -0.046977058 1.4379885e-38 261 279
-0.06955824 0.68400002 -0.046771921 1.4471352e-38 262 279
-0.068358958 0.68400002 -0.046771921 1.4471352e-38 263 279
-0.067061491 0.68300003 -0.04670354 1.4470633e-38 264 279
-0.065767527 0.68199998 -0.046635158 1.4562829e-38 265 279
-0.064382397 0.68000001 -0.046498399 1.4288759e-38 266 279
-0.063097201 0.67900002 -0.046430022 1.4288759e-38 267 279
-0.061815511 0.67799997 -0.046361636 1.4380959e-38 268 279
-0.06044792 0.676 -0.046224877 1.5302915e-38 269 279
-0.059262663 0.676 -0.046224877 1.6131953e-38 270 279
-0.057991501 0.67500001 -0.0461565 1.6131953e-38 271 279
-0.056723841 0.67400002 -0.046088122 1.6314896e-38 272 279
-0.055377278 0.67199999 -0.045951359 1.5669527e-38 273 279
-0.054199036 0.67199999 -0.045951359 1.5303265e-38 274 279
-0.052941896 0.671 -0.045882981 1.5672048e-38 275 279
-0.051765412 0.671 -0.045882981 1.631419e-38 276 279
-0.050513536 0.67000002 -0.0458146 1.649894e-38 277 279
-0.049338799 0.67000002 -0.0458146 1.6958846e-38 278 279
-0.047948405 0.667 -0.045609459 1.7235073e-38 279 279
-0.046778932 0.667 -0.045609459 1.723507e-38 280 279
-0.045541082 0.66600001 -0.045541082 1.723507e-38 281 279
-0.04437336 0.66600001 -0.045541082 1.6959196e-38 282 279
-0.043205637 0.66600001 -0.045541082 1.7327619e-38 283 279
-0.042037919 0.66600001 -0.045541082 1.7328694e-38 284 279
-0.040747464 0.66399997 -0.045404319 1.7328694e-38 285 279
-0.039583251 0.66399997 -0.045404319 1.7512366e-38 286 279
-0.038419038 0.66399997 -0.045404319 1.7512366e-38 287 279
-0.037198719 0.66299999 -0.045335937 1.7695327e-38 288 279
-0.036036257 0.66299999 -0.045335937 1.7880077e-38 289 279
-0.034873798 0.66299999 -0.045335937 1.7879721e-38 290 279
-0.033711337 0.66299999 -0.045335937 1.7972275e-38 291 279
-0.032548878 0.66299999 -0.045335937 1.7789328e-38 292 279
-0.031339079 0.662 -0.04526756 1.797336e-38 293 279
-0.030178372 0.662 -0.04526756 1.7789691e-38 294 279
-0.029017664 0.662 -0.04526756 1.7974084e-38 295 279
-0.027856959 0.662 -0.04526756 1.8249232e-38 296 279
-0.026696252 0.662 -0.04526756 1.8433263e-38 297 279
-0.025535546 0.662 -0.04526756 1.8249948e-38 298 279
-0.024374841 0.662 -0.04526756 1.8249948e-38 299 279
-0.023214132 0.662 -0.04526756 1.8157752e-38 300 279
-0.022053426 0.662 -0.04526756 1.8157752e-38 301 279
-0.02086116 0.66100001 -0.045199182 1.8066282e-38 302 279
-0.019702207 0.66100001 -0.045199182 1.8066282e-38 303 279
-0.018487146 0.65899998 -0.045062415 1.7698579e-38 304 279
-0.017331699 0.65899998 -0.045062415 1.7606382e-38 305 279
-0.016176252 0.65899998 -0.045062415 1.7421988e-38 306 279
-0.011642133 0.66399997 -0.045404319 1.6962487e-38 310 279
-0.073904753 0.69099998 -0.04846213 1.4012937e-38 259 280
-0.0723776 0.68800002 -0.048251733 1.4288053e-38 260 280
-0.071171306 0.68800002 -0.048251733 1.4288053e-38 261 280
-0.06955824 0.68400002 -0.0479712 1.4471352e-38 262 280
-0.068259016 0.68300003 -0.047901068 1.4379157e-38 263 280
-0.067061491 0.68300003 -0.047901068 1.4012176e-38 264 280
-0.065574668 0.68000001 -0.047690667 1.4196207e-38 265 280
-0.064287722 0.67900002 -0.047620531 1.4011473e-38 266 280
-0.063097201 0.67900002 -0.047620531 1.4195504e-38 267 280
-0.061815511 0.67799997 -0.047550395 1.4102589e-38 268 280
-0.06044792 0.676 -0.047410134 1.4563567e-38 269 280
-0.059175 0.67500001 -0.047339998 1.5301486e-38 270 280
-0.057905588 0.67400002 -0.047269866 1.5670268e-38 271 280
-0.056555521 0.67199999 -0.047129598 1.6221644e-38 272 280
-0.055377278 0.67199999 -0.047129598 1.5023101e-38 273 280
-0.054118387 0.671 -0.047059465 1.4472448e-38 274 280
-0.052941896 0.671 -0.047059465 1.5302209e-38 275 280
-0.051688269 0.67000002 -0.046989333 1.6037981e-38 276 280
-0.050513536 0.67000002 -0.046989333 1.6406404e-38 277 280
-0.04919152 0.66799998 -0.046849065 1.6315287e-38 278 280
-0.047948405 0.667 -0.046778932 1.649932e-38 279 280
-0.046778932 0.667 -0.046778932 1.6590799e-38 280 280
-0.045541082 0.66600001 -0.046708796 1.6682995e-38 281 280
-0.044240102 0.66399997 -0.046568532 1.6682618e-38 282 280
-0.043075889 0.66399997 -0.046568532 1.6774815e-38 283 280
-0.041911677 0.66399997 -0.046568532 1.6684051e-38 284 280
-0.040686097 0.66299999 -0.046498399 1.6960278e-38 285 280
-0.039523639 0.66299999 -0.046498399 1.6777335e-38 286 280
-0.038361177 0.66299999 -0.046498399 1.6593303e-38 287 280
-0.037198719 0.66299999 -0.046498399 1.696101e-38 288 280
-0.036036257 0.66299999 -0.046498399 1.696101e-38 289 280
-0.034873798 0.66299999 -0.046498399 1.6961013e-38 290 280
-0.033660494 0.662 -0.046428263 1.6961013e-38 291 280
-0.032499783 0.662 -0.046428263 1.7419831e-38 292 280
-0.031291738 0.66100001 -0.046358135 1.7512386e-38 293 280
-0.030132787 0.66100001 -0.046358135 1.7604581e-38 294 280
-0.029017664 0.662 -0.046428263 1.7973004e-38 295 280
-0.027856959 0.662 -0.046428263 1.7881535e-38 296 280
-0.026696252 0.662 -0.046428263 1.7881535e-38 297 280
-0.025496973 0.66100001 -0.046358135 1.7882254e-38 298 280
-0.02433802 0.66100001 -0.046358135 1.7698223e-38 299 280
-0.023214132 0.662 -0.046428263 1.7881538e-38 300 280
-0.022053426 0.662 -0.046428263 1.7789341e-38 301 280
-0.020798039 0.65899998 -0.046217863 1.760568e-38 302 280
-0.019642593 0.65899998 -0.046217863 1.760568e-38 303 280
-0.018487146 0.65899998 -0.046217863 1.7698229e-38 304 280
-0.017331699 0.65899998 -0.046217863 1.7605673e-38 305 280
-0.016176252 0.65899998 -0.046217863 1.7606376e-38 306 280
-0.015066394 0.66100001 -0.046358135 1.7514181e-38 307 280
-0.01390744 0.66100001 -0.046358135 1.7421632e-38 308 280
-0.012806346 0.66399997 -0.046568532 1.7513828e-38 309 280
-0.011642133 0.66399997 -0.046568532 1.7237613e-38 310 280
-0.010477919 0.66399997 -0.046568532 1.7237613e-38 311 280
-0.0723776 0.68800002 -0.049458027 1.4195881e-38 260 281
-0.071067855 0.68699998 -0.049386136 1.4195881e-38 261 281
-0.06955824 0.68400002 -0.049170479 1.4288408e-38 262 281
-0.068259016 0.68300003 -0.049098592 1.4195854e-38 263 281
-0.0669633 0.68199998 -0.049026705 1.4012173e-38 264 281
-0.065574668 0.68000001 -0.048882935 1.3827782e-38 265 281
-0.064287722 0.67900002 -0.048811045 1.401145e-38 266 281
-0.063097201 0.67900002 -0.048811045 1.3919255e-38 267 281
-0.061815511 0.67799997 -0.048739154 1.3734869e-38 268 281
-0.06044792 0.676 -0.048595384 1.4011097e-38 269 281
-0.059175 0.67500001 -0.048523501 1.4195491e-38 270 281
-0.057905588 0.67400002 -0.048451614 1.4287687e-38 271 281
-0.056555521 0.67199999 -0.04830784 1.4562476e-38 272 281
-0.055294871 0.671 -0.048235953 1.3732715e-38 273 281
-0.054118387 0.671 -0.048235953 1.3735249e-38 274 281
-0.052863002 0.67000002 -0.048164066 1.4657564e-38 275 281
-0.051688269 0.67000002 -0.048164066 1.5484452e-38 276 281
-0.050513536 0.67000002 -0.048164066 1.594543e-38 277 281
-0.04919152 0.66799998 -0.048020288 1.6497152e-38 278 281
-0.048020288 0.66799998 -0.048020288 1.6497152e-38 279 281
-0.046778932 0.667 -0.047948405 1.6589701e-38 280 281
-0.045541082 0.66600001 -0.047876518 1.6589701e-38 281 281
-0.044240102 0.66399997 -0.047732744 1.6038685e-38 282 281
-0.043075889 0.66399997 -0.047732744 1.6314912e-38 283 281
-0.041911677 0.66399997 -0.047732744 1.6407463e-38 284 281
-0.040686097 0.66299999 -0.047660857 1.6499659e-38 285 281
-0.039523639 0.66299999 -0.047660857 1.6499656e-38 286 281
-0.038361177 0.66299999 -0.047660857 1.6499656e-38 287 281
-0.037142612 0.662 -0.047588971 1.6774448e-38 288 281
-0.035981905 0.662 -0.047588971 1.6774448e-38 289 281
-0.034821201 0.662 -0.047588971 1.6866295e-38 290 281
-0.033660494 0.662 -0.047588971 1.695849e-38 291 281
-0.032499783 0.662 -0.047588971 1.6591506e-38 292 281
-0.031291738 0.66100001 -0.047517084 1.6683701e-38 293 281
-0.030132787 0.66100001 -0.047517084 1.6959931e-38 294 281
-0.028973831 0.66100001 -0.047517084 1.7236519e-38 295 281
-0.02781488 0.66100001 -0.047517084 1.7328715e-38 296 281
-0.026655925 0.66100001 -0.047517084 1.7421269e-38 297 281
-0.025496973 0.66100001 -0.047517084 1.7880089e-38 298 281
-0.02433802 0.66100001 -0.047517084 1.7880089e-38 299 281
-0.023179067 0.66100001 -0.047517084 1.7696424e-38 300 281
-0.022020113 0.66100001 -0.047517084 1.7604228e-38 301 281
-0.020798039 0.65899998 -0.04737331 1.7328364e-38 302 281
-0.019642593 0.65899998 -0.04737331 1.760495e-38 303 281
-0.018487146 0.65899998 -0.04737331 1.7421279e-38 304 281
-0.017331699 0.65899998 -0.04737331 1.7513833e-38 305 281
-0.016176252 0.65899998 -0.04737331 1.7421635e-38 306 281
-0.015020805 0.65899998 -0.04737331 1.751383e-38 307 281
-0.013865359 0.65899998 -0.04737331 1.7604944e-38 308 281
-0.012709912 0.65899998 -0.04737331 1.7697499e-38 309 281
-0.011589534 0.66100001 -0.047517084 1.7238322e-38 310 281
-0.01043058 0.66100001 -0.047517084 1.7238322e-38 311 281
-0.0092716264 0.66100001 -0.047517084 1.7238338e-38 312 281
-0.0723776 0.68800002 -0.050664321 1.4011861e-38 260 282
-0.071067855 0.68699998 -0.050590675 1.4104056e-38 261 282
-0.069456547 0.68300003 -0.05029612 1.4288053e-38 262 282
-0.068259016 0.68300003 -0.05029612 1.4195857e-38 263 282
-0.0669633 0.68199998 -0.050222475 1.4195841e-38 264 282
-0.065574668 0.68000001 -0.050075196 1.401145e-38 265 282
-0.064287722 0.67900002 -0.050001562 1.3918899e-38 266 282
-0.063097201 0.67900002 -0.050001562 1.3918899e-38 267 282
-0.061815511 0.67799997 -0.049927916 1.373488e-38 268 282
-0.06044792 0.676 -0.049780637 1.373488e-38 269 282
-0.059175 0.67500001 -0.049706999 1.3734164e-38 270 282
-0.057733759 0.67199999 -0.049486078 1.3918195e-38 271 282
-0.056555521 0.67199999 -0.049486078 1.4285904e-38 272 282
-0.055294871 0.671 -0.049412437 1.4009678e-38 273 282
-0.054037735 0.67000002 -0.049338799 1.4010043e-38 274 282
-0.052705199 0.66799998 -0.04919152 1.4194435e-38 275 282
-0.051533967 0.66799998 -0.04919152 1.4840157e-38 276 282
-0.050362743 0.66799998 -0.04919152 1.5485527e-38 277 282
-0.049117878 0.667 -0.049117878 1.5761388e-38 278 282
-0.047948405 0.667 -0.049117878 1.5761388e-38 279 282
-0.046778932 0.667 -0.049117878 1.6129448e-38 280 282
-0.045404319 0.66399997 -0.048896957 1.6129448e-38 281 282
-0.044240102 0.66399997 -0.048896957 1.6129092e-38 282 282
-0.043075889 0.66399997 -0.048896957 1.6221647e-38 283 282
-0.041848559 0.66299999 -0.048823316 1.5946136e-38 284 282
-0.040686097 0.66299999 -0.048823316 1.6130527e-38 285 282
-0.039523639 0.66299999 -0.048823316 1.6130527e-38 286 282
-0.038303319 0.662 -0.048749682 1.6130527e-38 287 282
-0.037142612 0.662 -0.048749682 1.6130174e-38 288 282
-0.035981905 0.662 -0.048749682 1.6130174e-38 289 282
-0.034821201 0.662 -0.048749682 1.6223092e-38 290 282
-0.033609647 0.66100001 -0.04867604 1.6223092e-38 291 282
-0.032450691 0.66100001 -0.04867604 1.6498234e-38 292 282
-0.031197058 0.65899998 -0.048528757 1.6498234e-38 293 282
-0.030041611 0.65899998 -0.048528757 1.6315638e-38 294 282
-0.028973831 0.66100001 -0.04867604 1.6592224e-38 295 282
-0.02781488 0.66100001 -0.04867604 1.67759e-38 296 282
-0.026575271 0.65899998 -0.048528757 1.6959931e-38 297 282
-0.025419824 0.65899998 -0.048528757 1.6959931e-38 298 282
-0.024264378 0.65899998 -0.048528757 1.7052126e-38 299 282
-0.023179067 0.66100001 -0.04867604 1.7143972e-38 300 282
-0.022020113 0.66100001 -0.04867604 1.7051776e-38 301 282
-0.02076648 0.65799999 -0.048455119 1.6960308e-38 302 282
-0.019612785 0.65799999 -0.048455119 1.7236534e-38 303 282
-0.018459093 0.65799999 -0.048455119 1.7052506e-38 304 282
-0.017305398 0.65799999 -0.048455119 1.7236537e-38 305 282
-0.016176252 0.65899998 -0.048528757 1.7052503e-38 306 282
-0.015020805 0.65899998 -0.048528757 1.7052503e-38 307 282
-0.013865359 0.65899998 -0.048528757 1.7236166e-38 308 282
-0.012709912 0.65899998 -0.048528757 1.732872e-38 309 282
-0.011554466 0.65899998 -0.048528757 1.7236885e-38 310 282
-0.010399019 0.65899998 -0.048528757 1.7329439e-38 311 282
-0.0092435731 0.65899998 -0.048528757 1.7145768e-38 312 282
-0.0081126727 0.66100001 -0.04867604 1.6776984e-38 313 282
-0.00695372 0.66100001 -0.04867604 1.6594035e-38 314 282
-0.0057947668 0.66100001 -0.04867604 1.6410004e-38 315 282
-0.071067855 0.68699998 -0.051795214 1.3735291e-38 261 283
-0.069456547 0.68300003 -0.051493648 1.4012559e-38 262 283
-0.068259016 0.68300003 -0.051493648 1.3828526e-38 263 283
-0.0669633 0.68199998 -0.051418249 1.4012173e-38 264 283
-0.065574668 0.68000001 -0.051267464 1.3827782e-38 265 283
-0.064287722 0.67900002 -0.051192071 1.3919252e-38 266 283
-0.063097201 0.67900002 -0.051192071 1.3919252e-38 267 283
-0.061815511 0.67799997 -0.051116679 1.3734866e-38 268 283
-0.06044792 0.676 -0.050965894 1.3642671e-38 269 283
-0.059175 0.67500001 -0.050890498 1.3549769e-38 270 283
-0.057733759 0.67199999 -0.050664317 1.3641964e-38 271 283
-0.056555521 0.67199999 -0.050664317 1.3734167e-38 272 283
-0.055294871 0.671 -0.050588924 1.3641611e-38 273 283
-0.054037735 0.67000002 -0.050513536 1.3825279e-38 274 283
-0.052705199 0.66799998 -0.050362743 1.3825279e-38 275 283
-0.051533967 0.66799998 -0.050362743 1.4378097e-38 276 283
-0.050287351 0.667 -0.050287351 1.5116021e-38 277 283
-0.049117878 0.667 -0.050287351 1.530113e-38 278 283
-0.047948405 0.667 -0.050287351 1.530113e-38 279 283
-0.046708796 0.66600001 -0.050211959 1.585177e-38 280 283
-0.045404319 0.66399997 -0.05006117 1.5943966e-38 281 283
-0.044173479 0.66299999 -0.049985778 1.5760293e-38 282 283
-0.043011017 0.66299999 -0.049985778 1.5944684e-38 283 283
-0.041848559 0.66299999 -0.049985778 1.5761019e-38 284 283
-0.04062473 0.662 -0.049910385 1.5853215e-38 285 283
-0.039464023 0.662 -0.049910385 1.5761738e-38 286 283
-0.038303319 0.662 -0.049910385 1.5669542e-38 287 283
-0.037086505 0.66100001 -0.049834993 1.5853217e-38 288 283
-0.035927553 0.66100001 -0.049834993 1.5853217e-38 289 283
-0.0347686 0.66100001 -0.049834993 1.6037602e-38 290 283
-0.033609647 0.66100001 -0.049834993 1.6037602e-38 291 283
-0.032352503 0.65899998 -0.049684204 1.6129796e-38 292 283
-0.031197058 0.65899998 -0.049684204 1.6037599e-38 293 283
-0.030041611 0.65899998 -0.049684204 1.5854659e-38 294 283
-0.028886165 0.65899998 -0.049684204 1.6039051e-38 295 283
-0.027730718 0.65899998 -0.049684204 1.6314205e-38 296 283
-0.026575271 0.65899998 -0.049684204 1.6314205e-38 297 283
-0.025419824 0.65899998 -0.049684204 1.6131246e-38 298 283
-0.024264378 0.65899998 -0.049684204 1.6223442e-38 299 283
-0.023108931 0.65899998 -0.049684204 1.6591155e-38 300 283
-0.021953486 0.65899998 -0.049684204 1.6775546e-38 301 283
-0.02076648 0.65799999 -0.049608808 1.705142e-38 302 283
-0.019582979 0.65700001 -0.049533416 1.705142e-38 303 283
-0.01843104 0.65700001 -0.049533416 1.6868111e-38 304 283
-0.0172791 0.65700001 -0.049533416 1.6868111e-38 305 283
-0.01612716 0.65700001 -0.049533416 1.6959578e-38 306 283
-0.014998012 0.65799999 -0.049608808 1.6683351e-38 307 283
-0.01384432 0.65799999 -0.049608808 1.6498587e-38 308 283
-0.012690626 0.65799999 -0.049608808 1.6498587e-38 309 283
-0.011536933 0.65799999 -0.049608808 1.6774818e-38 310 283
-0.01038324 0.65799999 -0.049608808 1.6867013e-38 311 283
-0.0092295464 0.65799999 -0.049608808 1.6408556e-38 312 283
-0.0080881258 0.65899998 -0.049684204 1.6408556e-38 313 283
-0.0069326796 0.65899998 -0.049684204 1.6500755e-38 314 283
-0.0057947668 0.66100001 -0.049834993 1.6500755e-38 315 283
-0.0046358132 0.66100001 -0.049834993 1.6224909e-38 316 283
-0.00347686 0.66100001 -0.049834993 1.6132713e-38 317 283
-0.069354847 0.68199998 -0.052614026 1.3643078e-38 262 284
-0.068159081 0.68199998 -0.052614026 1.382747e-38 263 284
-0.0669633 0.68199998 -0.052614026 1.3919993e-38 264 284
-0.065574668 0.68000001 -0.052459732 1.3735602e-38 265 284
-0.064287722 0.67900002 -0.052382588 1.3827785e-38 266 284
-0.063004278 0.67799997 -0.052305438 1.3643033e-38 267 284
-0.061815511 0.67799997 -0.052305438 1.3550838e-38 268 284
-0.06044792 0.676 -0.052151144 1.3366807e-38 269 284
-0.059175 0.67500001 -0.052074 1.3457573e-38 270 284
-0.057733759 0.67199999 -0.051842555 1.3457573e-38 271 284
-0.056555521 0.67199999 -0.051842555 1.345722e-38 272 284
-0.055294871 0.671 -0.051765412 1.345722e-38 273 284
-0.054037735 0.67000002 -0.051688269 1.3733084e-38 274 284
-0.052705199 0.66799998 -0.051533967 1.3733084e-38 275 284
-0.051456824 0.667 -0.051456824 1.4009675e-38 276 284
-0.050287351 0.667 -0.051456824 1.4562849e-38 277 284
-0.049117878 0.667 -0.051456824 1.5023104e-38 278 284
-0.047876518 0.66600001 -0.051379681 1.5023104e-38 279 284
-0.046708796 0.66600001 -0.051379681 1.4653948e-38 280 284
-0.045404319 0.66399997 -0.051225383 1.4930537e-38 281 284
-0.044173479 0.66299999 -0.051148236 1.4748309e-38 282 284
-0.043011017 0.66299999 -0.051148236 1.5025255e-38 283 284
-0.041848559 0.66299999 -0.051148236 1.5485158e-38 284 284
-0.04062473 0.662 -0.051071092 1.5392962e-38 285 284
-0.039464023 0.662 -0.051071092 1.5301483e-38 286 284
-0.038245458 0.66100001 -0.050993945 1.5209287e-38 287 284
-0.037086505 0.66100001 -0.050993945 1.5208567e-38 288 284
-0.035927553 0.66100001 -0.050993945 1.5208567e-38 289 284
-0.0347686 0.66100001 -0.050993945 1.4933772e-38 290 284
-0.033507951 0.65899998 -0.050839648 1.5118524e-38 291 284
-0.032303412 0.65799999 -0.050762504 1.5668821e-38 292 284
-0.031149717 0.65799999 -0.050762504 1.5668821e-38 293 284
-0.029996024 0.65799999 -0.050762504 1.566847e-38 294 284
-0.028842334 0.65799999 -0.050762504 1.585322e-38 295 284
-0.027688639 0.65799999 -0.050762504 1.5486599e-38 296 284
-0.026534945 0.65799999 -0.050762504 1.5578794e-38 297 284
-0.025381252 0.65799999 -0.050762504 1.5946133e-38 298 284
-0.02422756 0.65799999 -0.050762504 1.6038329e-38 299 284
-0.023073865 0.65799999 -0.050762504 1.6314205e-38 300 284
-0.021920172 0.65799999 -0.050762504 1.6498955e-38 301 284
-0.020734919 0.65700001 -0.050685361 1.6682998e-38 302 284
-0.019582979 0.65700001 -0.050685361 1.6775193e-38 303 284
-0.018374931 0.65499997 -0.050531063 1.6683717e-38 304 284
-0.017226499 0.65499997 -0.050531063 1.6591521e-38 305 284
-0.016078066 0.65499997 -0.050531063 1.6591155e-38 306 284
-0.014929632 0.65499997 -0.050531063 1.6037981e-38 307 284
-0.013781199 0.65499997 -0.050531063 1.5484062e-38 308 284
-0.01267134 0.65700001 -0.050685361 1.5114921e-38 309 284
