# .PCD v.7 - Point Cloud Data file format
FIELDS x y z rgb imX imY
SIZE 4 4 4 4 4 4
TYPE F F F F F F
COUNT 1 1 1 1 1 1
WIDTH 844
HEIGHT 1
VIEWPOINT 0 0 0 1 0 0 0
POINTS 844
DATA ascii
0.032612 0.74400002 -0.02087168 1.3824576e-38 345 256
0.033916477 0.74400002 -0.02087168 1.4100085e-38 346 256
0.035220962 0.74400002 -0.02087168 1.4100085e-38 347 256
0.036427252 0.74199998 -0.020815572 1.3916773e-38 348 256
0.037677377 0.741 -0.020787518 1.3916773e-38 349 256
0.038976599 0.741 -0.020787518 1.3916773e-38 350 256
0.040167112 0.73900002 -0.020731414 1.3916773e-38 351 256
0.041462827 0.73900002 -0.020731414 1.4009324e-38 352 256
0.042758539 0.73900002 -0.020731414 1.4009324e-38 353 256
0.043994635 0.73799998 -0.020703359 1.3917848e-38 354 256
0.0452886 0.73799998 -0.020703359 1.3917848e-38 355 256
0.046456318 0.736 -0.020647252 1.4009324e-38 356 256
0.047746774 0.736 -0.020647252 1.410152e-38 357 256
0.048903972 0.73400003 -0.020591147 1.4102226e-38 358 256
0.050190922 0.73400003 -0.020591147 1.4102226e-38 359 256
0.051407732 0.73299998 -0.020563092 1.4102226e-38 360 256
0.052692924 0.73299998 -0.020563092 1.4102226e-38 361 256
0.053978115 0.73299998 -0.020563092 1.4101873e-38 362 256
0.055263311 0.73299998 -0.020563092 1.4101873e-38 363 256
0.056394216 0.73100001 -0.020506985 1.3917842e-38 364 256
0.057597004 0.73000002 -0.020478934 1.3917842e-38 365 256
0.058715623 0.72799999 -0.020422826 1.3917123e-38 366 256
0.059992049 0.72799999 -0.020422826 1.3917123e-38 367 256
0.061268479 0.72799999 -0.020422826 1.3825279e-38 368 256
0.062458992 0.727 -0.020394772 1.3733084e-38 369 256
0.06373366 0.727 -0.020394772 1.3730564e-38 370 256
0.065008335 0.727 -0.020394772 1.3085195e-38 371 256
0.06628301 0.727 -0.020394772 1.2807869e-38 372 256
0.067371838 0.72500002 -0.020338668 1.2531281e-38 373 256
0.068643004 0.72500002 -0.020338668 1.3825614e-38 374 256
0.069914162 0.72500002 -0.020338668 1.4378788e-38 375 256
0.070988953 0.72299999 -0.020282559 1.4562476e-38 376 256
0.072256617 0.72299999 -0.020282559 1.4839063e-38 377 256
0.073422581 0.722 -0.020254506 1.5298952e-38 378 256
0.074688487 0.722 -0.020254506 1.5575179e-38 379 256
0.0759544 0.722 -0.020254506 1.585212e-38 380 256
0.077220306 0.722 -0.020254506 1.603687e-38 381 256
0.078486212 0.722 -0.020254506 1.6404574e-38 382 256
0.079752117 0.722 -0.020254506 1.6404574e-38 383 256
0.081018023 0.722 -0.020254506 1.6588239e-38 384 256
0.082283929 0.722 -0.020254506 1.6680435e-38 385 256
0.083549835 0.722 -0.020254506 1.6588961e-38 386 256
0.084815748 0.722 -0.020254506 1.6588961e-38 387 256
0.086081654 0.722 -0.020254506 1.6405293e-38 388 256
0.08734756 0.722 -0.020254506 1.6405293e-38 389 256
0.088613465 0.722 -0.020254506 1.6221252e-38 390 256
0.089879371 0.722 -0.020254506 1.5945025e-38 391 256
0.094066329 0.72500002 -0.020338668 1.5859411e-38 394 256
0.095337495 0.72500002 -0.020338668 1.7242346e-38 395 256
0.096342154 0.72299999 -0.020282559 1.8162189e-38 396 256
0.097609811 0.72299999 -0.020282559 1.8530971e-38 397 256
-0.079252414 0.741 -0.02208674 1.5486287e-38 259 257
-0.077953197 0.741 -0.02208674 1.686666e-38 260 257
-0.076653972 0.741 -0.02208674 1.686666e-38 261 257
-0.075354755 0.741 -0.02208674 1.6682995e-38 262 257
-0.074055538 0.741 -0.02208674 1.6590799e-38 263 257
-0.072756313 0.741 -0.02208674 1.6591155e-38 264 257
-0.071457103 0.741 -0.02208674 1.6591155e-38 265 257
-0.070157878 0.741 -0.02208674 1.6498602e-38 266 257
-0.068858653 0.741 -0.02208674 1.6406407e-38 267 257
-0.06737709 0.73900002 -0.022027127 1.6220941e-38 268 257
-0.066081382 0.73900002 -0.022027127 1.6128745e-38 269 257
-0.064785667 0.73900002 -0.022027127 1.5853237e-38 270 257
-0.063489959 0.73900002 -0.022027127 1.5760681e-38 271 257
-0.062194239 0.73900002 -0.022027127 1.5484805e-38 272 257
-0.060898528 0.73900002 -0.022027127 1.5208217e-38 273 257
-0.059602812 0.73900002 -0.022027127 1.5023823e-38 274 257
-0.0583071 0.73900002 -0.022027127 1.4655041e-38 275 257
-0.057011388 0.73900002 -0.022027127 1.4104038e-38 276 257
-0.055715673 0.73900002 -0.022027127 1.382745e-38 277 257
-0.054419957 0.73900002 -0.022027127 1.3827094e-38 278 257
-0.053124249 0.73900002 -0.022027127 1.3734898e-38 279 257
-0.051968798 0.741 -0.02208674 1.3734545e-38 280 257
-0.050669577 0.741 -0.02208674 1.3734545e-38 281 257
-0.049436983 0.74199998 -0.022116546 1.3826391e-38 282 257
-0.048136011 0.74199998 -0.022116546 1.3826391e-38 283 257
-0.046961278 0.74400002 -0.022176161 1.3826391e-38 284 257
-0.0456568 0.74400002 -0.022176161 1.3550164e-38 285 257
-0.044471547 0.74599999 -0.022235774 1.3458684e-38 286 257
-0.043221418 0.74699998 -0.022265578 1.3366489e-38 287 257
-0.041911677 0.74699998 -0.022265578 1.3089176e-38 288 257
-0.040601939 0.74699998 -0.022265578 1.2812949e-38 289 257
-0.039292198 0.74699998 -0.022265578 1.2903345e-38 290 257
-0.038084153 0.74900001 -0.022325192 1.2718954e-38 291 257
-0.036770906 0.74900001 -0.022325192 1.1520042e-38 292 257
-0.03545766 0.74900001 -0.022325192 1.0598085e-38 293 257
-0.034144413 0.74900001 -0.022325192 1.1426417e-38 294 257
-0.032874998 0.75 -0.022355 1.1703004e-38 295 257
-0.03156 0.75 -0.022355 1.1794497e-38 296 257
-0.030325651 0.75199997 -0.022414612 1.2439866e-38 297 257
-0.029007144 0.75199997 -0.022414612 1.2167948e-38 298 257
-0.027688639 0.75199997 -0.022414612 1.2352339e-38 299 257
-0.02637013 0.75199997 -0.022414612 1.2537437e-38 300 257
-0.025118252 0.75400001 -0.022474226 1.2537437e-38 301 257
-0.02379624 0.75400001 -0.022474226 1.2721102e-38 302 257
-0.022474226 0.75400001 -0.022474226 1.2721102e-38 303 257
-0.021180267 0.755 -0.022504034 1.2628551e-38 304 257
-0.0198565 0.755 -0.022504034 1.2628551e-38 305 257
-0.018508185 0.75400001 -0.022474226 1.2444885e-38 306 257
-0.017186172 0.75400001 -0.022474226 1.253744e-38 307 257
-0.01586416 0.75400001 -0.022474226 1.2444885e-38 308 257
-0.014542146 0.75400001 -0.022474226 1.253744e-38 309 257
-0.013220133 0.75400001 -0.022474226 1.2720749e-38 310 257
-0.01189812 0.75400001 -0.022474226 1.2628554e-38 311 257
-0.010576107 0.75400001 -0.022474226 1.2811866e-38 312 257
-0.0092540924 0.75400001 -0.022474226 1.2811866e-38 313 257
-0.00793208 0.75400001 -0.022474226 1.2720752e-38 314 257
-0.0066188332 0.755 -0.022504034 1.2628556e-38 315 257
-0.0052880533 0.75400001 -0.022474226 1.2720396e-38 316 257
-0.00396604 0.75400001 -0.022474226 1.26282e-38 317 257
-0.0026440267 0.75400001 -0.022474226 1.2810797e-38 318 257
-0.0013220133 0.75400001 -0.022474226 1.2902992e-38 319 257
0 0.75400001 -0.022474226 1.2810797e-38 320 257
0.0013220133 0.75400001 -0.022474226 1.2810797e-38 321 257
0.0026440267 0.75400001 -0.022474226 1.2627835e-38 322 257
0.00396604 0.75400001 -0.022474226 1.2627835e-38 323 257
0.0052880533 0.75400001 -0.022474226 1.2719304e-38 324 257
0.0066100666 0.75400001 -0.022474226 1.2719304e-38 325 257
0.00793208 0.75400001 -0.022474226 1.2719302e-38 326 257
0.0092540924 0.75400001 -0.022474226 1.2719302e-38 327 257
0.010576107 0.75400001 -0.022474226 1.2628538e-38 328 257
0.011866559 0.75199997 -0.022414612 1.2628538e-38 329 257
0.013185065 0.75199997 -0.022414612 1.2629254e-38 330 257
0.014503572 0.75199997 -0.022414612 1.2629254e-38 331 257
0.015822079 0.75199997 -0.022414612 1.2996598e-38 332 257
0.017095 0.75 -0.022355 1.2996598e-38 333 257
0.018409999 0.75 -0.022355 1.3271754e-38 334 257
0.0196987 0.74900001 -0.022325192 1.3271754e-38 335 257
0.021011947 0.74900001 -0.022325192 1.3363955e-38 336 257
0.022265578 0.74699998 -0.022265578 1.3456151e-38 337 257
0.023575317 0.74699998 -0.022265578 1.3456872e-38 338 257
0.024885058 0.74699998 -0.022265578 1.3456872e-38 339 257
0.026194798 0.74699998 -0.022265578 1.3273557e-38 340 257
0.027504537 0.74699998 -0.022265578 1.3273557e-38 341 257
0.028775707 0.74599999 -0.022235774 1.3273557e-38 342 257
0.03008369 0.74599999 -0.022235774 1.3273557e-38 343 257
0.031391677 0.74599999 -0.022235774 1.3456867e-38 344 257
0.032699663 0.74599999 -0.022235774 1.3456867e-38 345 257
0.033916477 0.74400002 -0.022176161 1.391533e-38 346 257
0.035220962 0.74400002 -0.022176161 1.391533e-38 347 257
0.036525439 0.74400002 -0.022176161 1.363911e-38 348 257
0.037728224 0.74199998 -0.022116546 1.3731664e-38 349 257
0.038976599 0.741 -0.02208674 1.3731664e-38 350 257
0.040167112 0.73900002 -0.022027127 1.363911e-38 351 257
0.041462827 0.73900002 -0.022027127 1.3640182e-38 352 257
0.042758539 0.73900002 -0.022027127 1.3640182e-38 353 257
0.043994635 0.73799998 -0.021997318 1.3732012e-38 354 257
0.0452886 0.73799998 -0.021997318 1.3732012e-38 355 257
0.046456318 0.736 -0.021937706 1.3640532e-38 356 257
0.047746774 0.736 -0.021937706 1.3917479e-38 357 257
0.048903972 0.73400003 -0.021878093 1.4100789e-38 358 257
0.050190922 0.73400003 -0.021878093 1.4100789e-38 359 257
0.051407732 0.73299998 -0.021848286 1.3917476e-38 360 257
0.052692924 0.73299998 -0.021848286 1.3917476e-38 361 257
0.053978115 0.73299998 -0.021848286 1.3733814e-38 362 257
0.055112526 0.73100001 -0.021788673 1.3641617e-38 363 257
0.056394216 0.73100001 -0.021788673 1.3549065e-38 364 257
0.057597004 0.73000002 -0.021758866 1.3549065e-38 365 257
0.058715623 0.72799999 -0.021699252 1.3456867e-38 366 257
0.059992049 0.72799999 -0.021699252 1.3364671e-38 367 257
0.061268479 0.72799999 -0.021699252 1.3365021e-38 368 257
0.062458992 0.727 -0.021669446 1.3272826e-38 369 257
0.06373366 0.727 -0.021669446 1.3270308e-38 370 257
0.065008335 0.727 -0.021669446 1.2901885e-38 371 257
0.066100664 0.72500002 -0.021609833 1.2992279e-38 372 257
0.067371838 0.72500002 -0.021609833 1.2900083e-38 373 257
0.068643004 0.72500002 -0.021609833 1.3640882e-38 374 257
0.069721296 0.72299999 -0.021550218 1.3917828e-38 375 257
0.070988953 0.72299999 -0.021550218 1.4010391e-38 376 257
0.072156675 0.722 -0.021520413 1.4195141e-38 377 257
0.073422581 0.722 -0.021520413 1.4470649e-38 378 257
0.074481606 0.72000003 -0.021460801 1.4562844e-38 379 257
0.075743996 0.72000003 -0.021460801 1.5114205e-38 380 257
0.0770064 0.72000003 -0.021460801 1.5298596e-38 381 257
0.078268804 0.72000003 -0.021460801 1.575992e-38 382 257
0.0795312 0.72000003 -0.021460801 1.5944672e-38 383 257
0.080793604 0.72000003 -0.021460801 1.622018e-38 384 257
0.082056001 0.72000003 -0.021460801 1.622018e-38 385 257
0.083318397 0.72000003 -0.021460801 1.6495688e-38 386 257
0.084580801 0.72000003 -0.021460801 1.6495688e-38 387 257
0.085843205 0.72000003 -0.021460801 1.6036867e-38 388 257
0.087105595 0.72000003 -0.021460801 1.6220899e-38 389 257
0.088613465 0.722 -0.021520413 1.6036865e-38 390 257
0.089879371 0.722 -0.021520413 1.6036865e-38 391 257
0.092795171 0.72500002 -0.021609833 1.5760641e-38 393 257
0.094066329 0.72500002 -0.021609833 1.5120003e-38 394 257
0.095074497 0.72299999 -0.021550218 1.6134155e-38 395 257
0.096342154 0.72299999 -0.021550218 1.6689204e-38 396 257
0.097609811 0.72299999 -0.021550218 1.7703716e-38 397 257
0.098877482 0.72299999 -0.021550218 1.8438778e-38 398 257
-0.081850857 0.741 -0.023385961 1.6043113e-38 257 258
-0.080551639 0.741 -0.023385961 1.5853978e-38 258 258
-0.079252414 0.741 -0.023385961 1.5853978e-38 259 258
-0.077953197 0.741 -0.023385961 1.6774818e-38 260 258
-0.076447085 0.73900002 -0.023322839 1.6774818e-38 261 258
-0.075151369 0.73900002 -0.023322839 1.6591155e-38 262 258
-0.073855661 0.73900002 -0.023322839 1.6498599e-38 263 258
-0.072756313 0.741 -0.023385961 1.6498599e-38 264 258
-0.07126423 0.73900002 -0.023322839 1.6314208e-38 265 258
-0.069873832 0.73799998 -0.023291279 1.6313492e-38 266 258
-0.068579875 0.73799998 -0.023291279 1.6128742e-38 267 258
-0.067285918 0.73799998 -0.023291279 1.5668486e-38 268 258
-0.06599196 0.73799998 -0.023291279 1.5760681e-38 269 258
-0.064697996 0.73799998 -0.023291279 1.5668488e-38 270 258
-0.063404039 0.73799998 -0.023291279 1.5484457e-38 271 258
-0.062110078 0.73799998 -0.023291279 1.5024904e-38 272 258
-0.060816113 0.73799998 -0.023291279 1.4563567e-38 273 258
-0.059522156 0.73799998 -0.023291279 1.4562844e-38 274 258
-0.058228195 0.73799998 -0.023291279 1.4286257e-38 275 258
-0.057011388 0.73900002 -0.023322839 1.4011125e-38 276 258
-0.055715673 0.73900002 -0.023322839 1.3826375e-38 277 258
-0.054419957 0.73900002 -0.023322839 1.3734548e-38 278 258
-0.053124249 0.73900002 -0.023322839 1.3550517e-38 279 258
-0.051968798 0.741 -0.023385961 1.3550164e-38 280 258
-0.050669577 0.741 -0.023385961 1.3550164e-38 281 258
-0.049436983 0.74199998 -0.023417519 1.3550164e-38 282 258
-0.048136011 0.74199998 -0.023417519 1.3734195e-38 283 258
-0.046961278 0.74400002 -0.023480639 1.3458687e-38 284 258
-0.045779534 0.74599999 -0.023543758 1.3366491e-38 285 258
-0.044471547 0.74599999 -0.023543758 1.3272851e-38 286 258
-0.043221418 0.74699998 -0.023575317 1.244309e-38 287 258
-0.041911677 0.74699998 -0.023575317 1.1707676e-38 288 258
-0.040601939 0.74699998 -0.023575317 1.1615122e-38 289 258
-0.039292198 0.74699998 -0.023575317 1.2441291e-38 290 258
-0.038084153 0.74900001 -0.02363844 1.2533487e-38 291 258
-0.036770906 0.74900001 -0.02363844 1.2073582e-38 292 258
-0.03545766 0.74900001 -0.02363844 1.1797355e-38 293 258
-0.034144413 0.74900001 -0.02363844 1.1890267e-38 294 258
-0.032874998 0.75 -0.023669999 1.1890267e-38 295 258
-0.03156 0.75 -0.023669999 1.1615478e-38 296 258
-0.030325651 0.75199997 -0.023733119 1.1892065e-38 297 258
-0.029007144 0.75199997 -0.023733119 1.2168649e-38 298 258
-0.027688639 0.75199997 -0.023733119 1.2260844e-38 299 258
-0.026440267 0.75400001 -0.02379624 1.2536708e-38 300 258
-0.025118252 0.75400001 -0.02379624 1.2536708e-38 301 258
-0.02379624 0.75400001 -0.02379624 1.2535989e-38 302 258
-0.022474226 0.75400001 -0.02379624 1.2535989e-38 303 258
-0.021180267 0.755 -0.023827799 1.2443438e-38 304 258
-0.0198565 0.755 -0.023827799 1.2443438e-38 305 258
-0.018508185 0.75400001 -0.02379624 1.2260128e-38 306 258
-0.017186172 0.75400001 -0.02379624 1.2260128e-38 307 258
-0.015885198 0.755 -0.023827799 1.2443443e-38 308 258
-0.014561433 0.755 -0.023827799 1.2443443e-38 309 258
-0.013237666 0.755 -0.023827799 1.2351245e-38 310 258
-0.011913899 0.755 -0.023827799 1.2443441e-38 311 258
-0.010590133 0.755 -0.023827799 1.2351245e-38 312 258
-0.0092663663 0.755 -0.023827799 1.2351245e-38 313 258
-0.0079425992 0.755 -0.023827799 1.2443088e-38 314 258
-0.0052950666 0.755 -0.023827799 1.244309e-38 316 258
-0.0039712996 0.755 -0.023827799 1.2350895e-38 317 258
-0.0026475333 0.755 -0.023827799 1.2625684e-38 318 258
0 0.755 -0.023827799 1.2809352e-38 320 258
0.0013237667 0.755 -0.023827799 1.2809352e-38 321 258
0.0026475333 0.755 -0.023827799 1.2442725e-38 322 258
0.0039712996 0.755 -0.023827799 1.2442725e-38 323 258
0.0052950666 0.755 -0.023827799 1.2533834e-38 324 258
0.0066188332 0.755 -0.023827799 1.262639e-38 325 258
0.00793208 0.75400001 -0.02379624 1.2350872e-38 326 258
0.0092540924 0.75400001 -0.02379624 1.2627459e-38 327 258
0.010590133 0.755 -0.023827799 1.2627456e-38 328 258
0.01189812 0.75400001 -0.02379624 1.2719652e-38 329 258
0.013220133 0.75400001 -0.02379624 1.2719655e-38 330 258
0.014542146 0.75400001 -0.02379624 1.281185e-38 331 258
0.015822079 0.75199997 -0.023733119 1.2995166e-38 332 258
0.017140586 0.75199997 -0.023733119 1.3087361e-38 333 258
0.018459093 0.75199997 -0.023733119 1.3178841e-38 334 258
0.019724999 0.75 -0.023669999 1.3271036e-38 335 258
0.02104 0.75 -0.023669999 1.3270683e-38 336 258
0.022325192 0.74900001 -0.02363844 1.3270683e-38 337 258
0.023575317 0.74699998 -0.023575317 1.3088091e-38 338 258
0.024885058 0.74699998 -0.023575317 1.3272122e-38 339 258
0.026194798 0.74699998 -0.023575317 1.3272478e-38 340 258
0.027504537 0.74699998 -0.023575317 1.3272478e-38 341 258
0.028814279 0.74699998 -0.023575317 1.3089163e-38 342 258
0.030124018 0.74699998 -0.023575317 1.3089163e-38 343 258
0.031391677 0.74599999 -0.023543758 1.3364308e-38 344 258
0.032699663 0.74599999 -0.023543758 1.3364308e-38 345 258
0.033916477 0.74400002 -0.023480639 1.3639097e-38 346 258
0.035220962 0.74400002 -0.023480639 1.3639097e-38 347 258
0.036525439 0.74400002 -0.023480639 1.3546546e-38 348 258
0.037728224 0.74199998 -0.023417519 1.3546546e-38 349 258
0.038976599 0.741 -0.023385961 1.3454351e-38 350 258
0.04027582 0.741 -0.023385961 1.326996e-38 351 258
0.041462827 0.73900002 -0.023322839 1.3177396e-38 352 258
0.042758539 0.73900002 -0.023322839 1.2716418e-38 353 258
0.044054255 0.73900002 -0.023322839 1.2624935e-38 354 258
0.0452886 0.73799998 -0.023291279 1.271749e-38 355 258
0.046456318 0.736 -0.023228159 1.2351595e-38 356 258
0.047746774 0.736 -0.023228159 1.2812572e-38 357 258
0.048903972 0.73400003 -0.023165042 1.3271759e-38 358 258
0.050190922 0.73400003 -0.023165042 1.3271759e-38 359 258
0.051407732 0.73299998 -0.023133477 1.3729861e-38 360 258
0.052692924 0.73299998 -0.023133477 1.3914611e-38 361 258
0.053978115 0.73299998 -0.023133477 1.3639466e-38 362 258
0.055112526 0.73100001 -0.02307036 1.3731661e-38 363 258
0.056394216 0.73100001 -0.02307036 1.3363599e-38 364 258
0.057597004 0.73000002 -0.023038799 1.3271403e-38 365 258
0.058876935 0.73000002 -0.023038799 1.2996242e-38 366 258
0.059992049 0.72799999 -0.022975679 1.2719655e-38 367 258
0.061268479 0.72799999 -0.022975679 1.3362503e-38 368 258
0.062458992 0.727 -0.022944121 1.3454699e-38 369 258
0.06373366 0.727 -0.022944121 1.2993728e-38 370 258
0.065008335 0.727 -0.022944121 1.2624585e-38 371 258
0.066100664 0.72500002 -0.022880999 1.2623866e-38 372 258
0.067371838 0.72500002 -0.022880999 1.2992647e-38 373 258
0.068643004 0.72500002 -0.022880999 1.3365021e-38 374 258
0.069721296 0.72299999 -0.02281788 1.3641967e-38 375 258
0.070988953 0.72299999 -0.02281788 1.4009672e-38 376 258
0.072156675 0.722 -0.022786319 1.4102226e-38 377 258
0.073422581 0.722 -0.022786319 1.4377731e-38 378 258
0.074481606 0.72000003 -0.022723202 1.4285536e-38 379 258
0.075743996 0.72000003 -0.022723202 1.4653583e-38 380 258
0.0770064 0.72000003 -0.022723202 1.4653583e-38 381 258
0.078268804 0.72000003 -0.022723202 1.4656098e-38 382 258
0.0795312 0.72000003 -0.022723202 1.5117075e-38 383 258
0.080793604 0.72000003 -0.022723202 1.5393663e-38 384 258
0.082056001 0.72000003 -0.022723202 1.5485859e-38 385 258
0.083202675 0.71899998 -0.022691639 1.6403126e-38 386 258
0.084463328 0.71899998 -0.022691639 1.6495322e-38 387 258
0.085843205 0.72000003 -0.022723202 1.6220167e-38 388 258
0.087105595 0.72000003 -0.022723202 1.6404198e-38 389 258
0.088245258 0.71899998 -0.022691639 1.6036136e-38 390 258
0.089505911 0.71899998 -0.022691639 1.6036136e-38 391 258
0.090766557 0.71899998 -0.022691639 1.5760624e-38 392 258
0.092155196 0.72000003 -0.022723202 1.5760624e-38 393 258
0.0934176 0.72000003 -0.022723202 1.5209284e-38 394 258
0.094680004 0.72000003 -0.022723202 1.548623e-38 395 258
0.0959424 0.72000003 -0.022723202 1.5124008e-38 396 258
0.097474813 0.722 -0.022786319 1.6414747e-38 397 258
0.098740719 0.722 -0.022786319 1.7335671e-38 398 258
0.10014514 0.72299999 -0.02281788 1.779629e-38 399 258
-0.081850857 0.741 -0.024685178 1.5766153e-38 257 259
-0.080551639 0.741 -0.024685178 1.585218e-38 258 259
-0.079252414 0.741 -0.024685178 1.6405353e-38 259 259
-0.0777428 0.73900002 -0.024618553 1.6681919e-38 260 259
-0.076447085 0.73900002 -0.024618553 1.6681919e-38 261 259
-0.075151369 0.73900002 -0.024618553 1.6406404e-38 262 259
-0.073855661 0.73900002 -0.024618553 1.6314208e-38 263 259
-0.072559945 0.73900002 -0.024618553 1.6129824e-38 264 259
-0.071167797 0.73799998 -0.024585238 1.5945433e-38 265 259
-0.069684476 0.736 -0.024518613 1.5576666e-38 266 259
-0.06839402 0.736 -0.024518613 1.548447e-38 267 259
-0.067103572 0.736 -0.024518613 1.5208959e-38 268 259
-0.065813117 0.736 -0.024518613 1.5208959e-38 269 259
-0.064697996 0.73799998 -0.024585238 1.5116761e-38 270 259
-0.063404039 0.73799998 -0.024585238 1.493237e-38 271 259
-0.062110078 0.73799998 -0.024585238 1.4656492e-38 272 259
-0.060816113 0.73799998 -0.024585238 1.4195153e-38 273 259
-0.059522156 0.73799998 -0.024585238 1.4011485e-38 274 259
-0.058228195 0.73799998 -0.024585238 1.3827094e-38 275 259
-0.056934237 0.73799998 -0.024585238 1.3826741e-38 276 259
-0.055715673 0.73900002 -0.024618553 1.3734545e-38 277 259
-0.054419957 0.73900002 -0.024618553 1.3458684e-38 278 259
-0.053124249 0.73900002 -0.024618553 1.3458684e-38 279 259
-0.051968798 0.741 -0.024685178 1.3275022e-38 280 259
-0.050669577 0.741 -0.024685178 1.3275022e-38 281 259
-0.049436983 0.74199998 -0.024718491 1.3365782e-38 282 259
-0.048136011 0.74199998 -0.024718491 1.3365782e-38 283 259
-0.046961278 0.74400002 -0.02478512 1.3273222e-38 284 259
-0.045779534 0.74599999 -0.024851745 1.3088472e-38 285 259
-0.044471547 0.74599999 -0.024851745 1.3271422e-38 286 259
-0.043221418 0.74699998 -0.024885058 1.2626052e-38 287 259
-0.041911677 0.74699998 -0.024885058 1.1890282e-38 288 259
-0.040601939 0.74699998 -0.024885058 1.1982478e-38 289 259
-0.039292198 0.74699998 -0.024885058 1.2166143e-38 290 259
-0.038084153 0.74900001 -0.024951685 1.2258698e-38 291 259
-0.036770906 0.74900001 -0.024951685 1.2168646e-38 292 259
-0.03545766 0.74900001 -0.024951685 1.22612e-38 293 259
-0.034189999 0.75 -0.024984999 1.2261904e-38 294 259
-0.032874998 0.75 -0.024984999 1.216935e-38 295 259
-0.031644158 0.75199997 -0.025051624 1.2169352e-38 296 259
-0.030325651 0.75199997 -0.025051624 1.2077157e-38 297 259
-0.029007144 0.75199997 -0.025051624 1.189386e-38 298 259
-0.027762281 0.75400001 -0.025118252 1.1709829e-38 299 259
-0.026440267 0.75400001 -0.025118252 1.1709476e-38 300 259
-0.025118252 0.75400001 -0.025118252 1.1617279e-38 301 259
-0.023827799 0.755 -0.025151566 1.1891714e-38 302 259
-0.022504034 0.755 -0.025151566 1.1799519e-38 303 259
0.018459093 0.75199997 -0.025051624 1.2443088e-38 334 259
0.0197776 0.75199997 -0.025051624 1.2443088e-38 335 259
0.02104 0.75 -0.024984999 1.2442384e-38 336 259
0.022355 0.75 -0.024984999 1.2627134e-38 337 259
0.02363844 0.74900001 -0.024951685 1.262785e-38 338 259
0.024951685 0.74900001 -0.024951685 1.262785e-38 339 259
0.026264934 0.74900001 -0.024951685 1.2628203e-38 340 259
0.027504537 0.74699998 -0.024885058 1.2536008e-38 341 259
0.028814279 0.74699998 -0.024885058 1.253744e-38 342 259
0.030124018 0.74699998 -0.024885058 1.253744e-38 343 259
0.031391677 0.74599999 -0.024851745 1.2811869e-38 344 259
0.032699663 0.74599999 -0.024851745 1.2904064e-38 345 259
0.034007654 0.74599999 -0.024851745 1.3088094e-38 346 259
0.03531564 0.74599999 -0.024851745 1.2995897e-38 347 259
0.036525439 0.74400002 -0.02478512 1.3178844e-38 348 259
0.037829921 0.74400002 -0.02478512 1.3178844e-38 349 259
0.0390292 0.74199998 -0.024718491 1.3269957e-38 350 259
0.04027582 0.741 -0.024685178 1.2993731e-38 351 259
0.041575037 0.741 -0.024685178 1.2900099e-38 352 259
0.042758539 0.73900002 -0.024618553 1.2254729e-38 353 259
0.044054255 0.73900002 -0.024618553 1.2438051e-38 354 259
0.0452886 0.73799998 -0.024585238 1.225366e-38 355 259
0.046456318 0.736 -0.024518613 1.1797002e-38 356 259
0.047746774 0.736 -0.024518613 1.2257979e-38 357 259
0.049037226 0.736 -0.024518613 1.2440935e-38 358 259
0.050190922 0.73400003 -0.024451986 1.234874e-38 359 259
0.051477864 0.73400003 -0.024451986 1.2533491e-38 360 259
0.052692924 0.73299998 -0.024418673 1.2717882e-38 361 259
0.053978115 0.73299998 -0.024418673 1.3178488e-38 362 259
0.055263311 0.73299998 -0.024418673 1.3270683e-38 363 259
0.056394216 0.73100001 -0.024352046 1.3269957e-38 364 259
0.057675898 0.73100001 -0.024352046 1.2808979e-38 365 259
0.058876935 0.73000002 -0.024318734 1.198209e-38 366 259
0.059992049 0.72799999 -0.024252106 1.198209e-38 367 259
0.061268479 0.72799999 -0.024252106 1.1982816e-38 368 259
0.062458992 0.727 -0.024218792 1.2443794e-38 369 259
0.06373366 0.727 -0.024218792 1.2257979e-38 370 259
0.064829499 0.72500002 -0.024152167 1.1981033e-38 371 259
0.066100664 0.72500002 -0.024152167 1.2440935e-38 372 259
0.067185976 0.72299999 -0.024085538 1.2717882e-38 373 259
0.06845364 0.72299999 -0.024085538 1.3088813e-38 374 259
0.069721296 0.72299999 -0.024085538 1.3273204e-38 375 259
0.070988953 0.72299999 -0.024085538 1.3641617e-38 376 259
0.072156675 0.722 -0.024052227 1.3733814e-38 377 259
0.073422581 0.722 -0.024052227 1.3918198e-38 378 259
0.074481606 0.72000003 -0.0239856 1.3734167e-38 379 259
0.075743996 0.72000003 -0.0239856 1.4010028e-38 380 259
0.0770064 0.72000003 -0.0239856 1.4010028e-38 381 259
0.078268804 0.72000003 -0.0239856 1.4102221e-38 382 259
0.0795312 0.72000003 -0.0239856 1.4471002e-38 383 259
0.080793604 0.72000003 -0.0239856 1.4931256e-38 384 259
0.082056001 0.72000003 -0.0239856 1.5208201e-38 385 259
0.083202675 0.71899998 -0.023952285 1.5759202e-38 386 259
0.084463328 0.71899998 -0.023952285 1.6127984e-38 387 259
0.085723966 0.71899998 -0.023952285 1.5852471e-38 388 259
0.086984619 0.71899998 -0.023952285 1.5852471e-38 389 259
0.088245258 0.71899998 -0.023952285 1.5852826e-38 390 259
0.089505911 0.71899998 -0.023952285 1.5668075e-38 391 259
0.090766557 0.71899998 -0.023952285 1.5208899e-38 392 259
0.092027202 0.71899998 -0.023952285 1.5208899e-38 393 259
0.093287848 0.71899998 -0.023952285 1.4842283e-38 394 259
0.094548494 0.71899998 -0.023952285 1.4473502e-38 395 259
0.095809139 0.71899998 -0.023952285 1.3833227e-38 396 259
0.097204804 0.72000003 -0.0239856 1.5123966e-38 397 259
0.098467201 0.72000003 -0.0239856 1.5955605e-38 398 259
0.099729598 0.72000003 -0.0239856 1.6969758e-38 399 259
-0.081850857 0.741 -0.025984399 1.5582115e-38 257 260
-0.080551639 0.741 -0.025984399 1.6313152e-38 258 260
-0.079252414 0.741 -0.025984399 1.6497903e-38 259 260
-0.0777428 0.73900002 -0.025914267 1.6405685e-38 260 260
-0.076447085 0.73900002 -0.025914267 1.6313489e-38 261 260
-0.075151369 0.73900002 -0.025914267 1.6036177e-38 262 260
-0.073755711 0.73799998 -0.025879199 1.5851785e-38 263 260
-0.072461754 0.73799998 -0.025879199 1.5943628e-38 264 260
-0.071167797 0.73799998 -0.025879199 1.5759237e-38 265 260
-0.069684476 0.736 -0.025809066 1.5758886e-38 266 260
-0.06839402 0.736 -0.025809066 1.5482659e-38 267 260
-0.067103572 0.736 -0.025809066 1.5483373e-38 268 260
-0.065813117 0.736 -0.025809066 1.5391177e-38 269 260
-0.064522661 0.736 -0.025809066 1.5024553e-38 270 260
-0.063232213 0.736 -0.025809066 1.465541e-38 271 260
-0.061941758 0.736 -0.025809066 1.3919646e-38 272 260
-0.060816113 0.73799998 -0.025879199 1.3458669e-38 273 260
-0.059522156 0.73799998 -0.025879199 1.3826375e-38 274 260
-0.058228195 0.73799998 -0.025879199 1.3826375e-38 275 260
-0.056934237 0.73799998 -0.025879199 1.3550517e-38 276 260
-0.055715673 0.73900002 -0.025914267 1.3550517e-38 277 260
-0.054419957 0.73900002 -0.025914267 1.3366489e-38 278 260
-0.053124249 0.73900002 -0.025914267 1.3366489e-38 279 260
-0.051968798 0.741 -0.025984399 1.3182456e-38 280 260
-0.050669577 0.741 -0.025984399 1.3182456e-38 281 260
-0.049436983 0.74199998 -0.026019465 1.3366491e-38 282 260
-0.048136011 0.74199998 -0.026019465 1.31821e-38 283 260
-0.046961278 0.74400002 -0.026089599 1.3180305e-38 284 260
-0.045779534 0.74599999 -0.026159734 1.3088109e-38 285 260
-0.044531155 0.74699998 -0.026194798 1.2811518e-38 286 260
-0.043221418 0.74699998 -0.026194798 1.2627128e-38 287 260
-0.041911677 0.74699998 -0.026194798 1.2168296e-38 288 260
-0.040601939 0.74699998 -0.026194798 1.20761e-38 289 260
-0.039292198 0.74699998 -0.026194798 1.2076456e-38 290 260
-0.038084153 0.74900001 -0.026264934 1.2076456e-38 291 260
-0.036770906 0.74900001 -0.026264934 1.2076456e-38 292 260
-0.035505001 0.75 -0.0263 1.2168652e-38 293 260
-0.034189999 0.75 -0.0263 1.2260128e-38 294 260
-0.032962665 0.75199997 -0.02637013 1.2167933e-38 295 260
0.02363844 0.74900001 -0.026264934 1.1798437e-38 338 260
0.030124018 0.74699998 -0.026194798 1.2627109e-38 343 260
0.031433757 0.74699998 -0.026194798 1.2994094e-38 344 260
0.032743499 0.74699998 -0.026194798 1.3086289e-38 345 260
0.034007654 0.74599999 -0.026159734 1.3177406e-38 346 260
0.03531564 0.74599999 -0.026159734 1.326996e-38 347 260
0.036623627 0.74599999 -0.026159734 1.3269955e-38 348 260
0.037829921 0.74400002 -0.026089599 1.3269955e-38 349 260
0.0390292 0.74199998 -0.026019465 1.3086998e-38 350 260
0.040330172 0.74199998 -0.026019465 1.2994444e-38 351 260
0.041575037 0.741 -0.025984399 1.2810055e-38 352 260
0.042874258 0.741 -0.025984399 1.2810055e-38 353 260
0.044173479 0.741 -0.025984399 1.2440923e-38 354 260
0.045349967 0.73900002 -0.025914267 1.2163977e-38 355 260
0.046582557 0.73799998 -0.025879199 1.1887749e-38 356 260
0.047876518 0.73799998 -0.025879199 1.0965792e-38 357 260
0.049037226 0.736 -0.025809066 1.0775991e-38 358 260
0.050190922 0.73400003 -0.025738932 1.0499403e-38 359 260
0.051477864 0.73400003 -0.025738932 1.0224242e-38 360 260
0.052764814 0.73400003 -0.025738932 1.0316438e-38 361 260
0.053978115 0.73299998 -0.025703866 1.0134937e-38 362 260
0.055263311 0.73299998 -0.025703866 1.0319327e-38 363 260
0.056548502 0.73299998 -0.025703866 1.0133858e-38 364 260
0.057675898 0.73100001 -0.025633732 8.8431196e-39 365 260
0.058876935 0.73000002 -0.025598666 7.6478288e-39 366 260
0.059992049 0.72799999 -0.025528532 8.1084482e-39 367 260
0.061268479 0.72799999 -0.025528532 7.8387193e-39 368 260
0.062458992 0.727 -0.025493465 9.1294581e-39 369 260
0.06373366 0.727 -0.025493465 1.1059806e-38 370 260
0.064829499 0.72500002 -0.025423333 1.1612621e-38 371 260
0.066100664 0.72500002 -0.025423333 1.2531686e-38 372 260
0.067185976 0.72299999 -0.025353199 1.3269251e-38 373 260
0.06845364 0.72299999 -0.025353199 1.3363955e-38 374 260
0.069624864 0.722 -0.025318133 1.3732377e-38 375 260
0.070890769 0.722 -0.025318133 1.3732728e-38 376 260
0.072156675 0.722 -0.025318133 1.3825282e-38 377 260
0.073219202 0.72000003 -0.025248 1.3825282e-38 378 260
0.074481606 0.72000003 -0.025248 1.3825282e-38 379 260
0.075743996 0.72000003 -0.025248 1.3917109e-38 380 260
0.0770064 0.72000003 -0.025248 1.3732718e-38 381 260
0.078268804 0.72000003 -0.025248 1.3917109e-38 382 260
0.0795312 0.72000003 -0.025248 1.410114e-38 383 260
0.080793604 0.72000003 -0.025248 1.4008223e-38 384 260
0.082056001 0.72000003 -0.025248 1.4469201e-38 385 260
0.082971238 0.71700001 -0.0251428 1.4839413e-38 386 260
0.084228382 0.71700001 -0.0251428 1.5116e-38 387 260
0.085723966 0.71899998 -0.025212931 1.5853192e-38 388 260
0.086984619 0.71899998 -0.025212931 1.5853192e-38 389 260
0.087999798 0.71700001 -0.0251428 1.5668431e-38 390 260
0.089256942 0.71700001 -0.0251428 1.5576235e-38 391 260
0.090514079 0.71700001 -0.0251428 1.5024864e-38 392 260
0.091771215 0.71700001 -0.0251428 1.5024864e-38 393 260
0.093028352 0.71700001 -0.0251428 1.4564967e-38 394 260
0.094285503 0.71700001 -0.0251428 1.4380936e-38 395 260
0.095542639 0.71700001 -0.0251428 1.3002728e-38 396 260
0.097069785 0.71899998 -0.025212931 1.3463706e-38 397 260
0.098330431 0.71899998 -0.025212931 1.3744686e-38 398 260
0.099591084 0.71899998 -0.025212931 1.5312371e-38 399 260
-0.081850857 0.741 -0.027283618 1.5488478e-38 257 261
-0.080551639 0.741 -0.027283618 1.6404984e-38 258 261
-0.079038516 0.73900002 -0.027209979 1.649718e-38 259 261
-0.0777428 0.73900002 -0.027209979 1.6313492e-38 260 261
-0.076447085 0.73900002 -0.027209979 1.6036547e-38 261 261
-0.075049676 0.73799998 -0.027173158 1.5760671e-38 262 261
-0.073755711 0.73799998 -0.027173158 1.5483726e-38 263 261
-0.072265387 0.736 -0.02709952 1.5391177e-38 264 261
-0.070974931 0.736 -0.02709952 1.5207145e-38 265 261
-0.069684476 0.736 -0.02709952 1.4839456e-38 266 261
-0.06839402 0.736 -0.02709952 1.4839456e-38 267 261
-0.067103572 0.736 -0.02709952 1.4564662e-38 268 261
-0.065813117 0.736 -0.02709952 1.4564662e-38 269 261
-0.064522661 0.736 -0.02709952 1.4380268e-38 270 261
-0.063232213 0.736 -0.02709952 1.4104041e-38 271 261
-0.061941758 0.736 -0.02709952 1.3826744e-38 272 261
-0.060651302 0.736 -0.02709952 1.3550517e-38 273 261
-0.059522156 0.73799998 -0.027173158 1.3457965e-38 274 261
-0.058228195 0.73799998 -0.027173158 1.3457965e-38 275 261
-0.056934237 0.73799998 -0.027173158 1.3183176e-38 276 261
-0.055715673 0.73900002 -0.027209979 1.3183176e-38 277 261
-0.054419957 0.73900002 -0.027209979 1.3183176e-38 278 261
-0.053124249 0.73900002 -0.027209979 1.3090979e-38 279 261
-0.051968798 0.741 -0.027283618 1.3182453e-38 280 261
-0.050669577 0.741 -0.027283618 1.3182453e-38 281 261
-0.049436983 0.74199998 -0.027320439 1.3089905e-38 282 261
-0.048136011 0.74199998 -0.027320439 1.2997709e-38 283 261
-0.046961278 0.74400002 -0.027394081 1.2904797e-38 284 261
-0.045779534 0.74599999 -0.027467718 1.2720047e-38 285 261
-0.044531155 0.74699998 -0.027504537 1.26282e-38 286 261
-0.043221418 0.74699998 -0.027504537 1.2443809e-38 287 261
-0.041911677 0.74699998 -0.027504537 1.2168652e-38 288 261
-0.040710647 0.74900001 -0.027578179 1.2076456e-38 289 261
-0.0393974 0.74900001 -0.027578179 1.1800591e-38 290 261
-0.038084153 0.74900001 -0.027578179 1.1800591e-38 291 261
-0.036819998 0.75 -0.027615 1.1892435e-38 292 261
0.039134398 0.74400002 -0.027394081 1.2626387e-38 350 261
0.040330172 0.74199998 -0.027320439 1.2718583e-38 351 261
0.041631144 0.74199998 -0.027320439 1.2902251e-38 352 261
0.042932119 0.74199998 -0.027320439 1.2994447e-38 353 261
0.044173479 0.741 -0.027283618 1.2810055e-38 354 261
0.045472696 0.741 -0.027283618 1.2625664e-38 355 261
0.046645679 0.73900002 -0.027209979 1.2349443e-38 356 261
0.047941394 0.73900002 -0.027209979 1.1796269e-38 357 261
0.049170475 0.73799998 -0.027173158 1.151824e-38 358 261
0.050327681 0.736 -0.02709952 1.0872871e-38 359 261
0.051477864 0.73400003 -0.02702588 1.0776344e-38 360 261
0.052764814 0.73400003 -0.02702588 9.9465833e-39 361 261
0.053978115 0.73299998 -0.026989058 9.672883e-39 362 261
0.055263311 0.73299998 -0.026989058 8.7509267e-39 363 261
0.056548502 0.73299998 -0.026989058 7.0953907e-39 364 261
0.057675898 0.73100001 -0.026915418 5.6202606e-39 365 261
0.058876935 0.73000002 -0.026878599 4.1466005e-39 366 261
0.060156867 0.73000002 -0.026878599 5.1603937e-39 367 261
0.061268479 0.72799999 -0.026804959 5.3469556e-39 368 261
0.062458992 0.727 -0.026768139 7.0986711e-39 369 261
0.06373366 0.727 -0.026768139 8.7545785e-39 370 261
0.064829499 0.72500002 -0.026694499 9.5846979e-39 371 261
0.066100664 0.72500002 -0.026694499 1.0784308e-38 372 261
0.067185976 0.72299999 -0.026620859 1.1706623e-38 373 261
0.06845364 0.72299999 -0.026620859 1.2627847e-38 374 261
0.069624864 0.722 -0.026584039 1.3181021e-38 375 261
0.070890769 0.722 -0.026584039 1.3456872e-38 376 261
0.072156675 0.722 -0.026584039 1.3549068e-38 377 261
0.073219202 0.72000003 -0.026510401 1.3549418e-38 378 261
0.074481606 0.72000003 -0.026510401 1.3549418e-38 379 261
0.075743996 0.72000003 -0.026510401 1.3733084e-38 380 261
0.0770064 0.72000003 -0.026510401 1.3733084e-38 381 261
0.078268804 0.72000003 -0.026510401 1.3825282e-38 382 261
0.0795312 0.72000003 -0.026510401 1.3825282e-38 383 261
0.080681384 0.71899998 -0.02647358 1.3732365e-38 384 261
0.081942029 0.71899998 -0.02647358 1.3916756e-38 385 261
0.082971238 0.71700001 -0.02639994 1.3918899e-38 386 261
0.084228382 0.71700001 -0.02639994 1.4011094e-38 387 261
0.085485518 0.71700001 -0.02639994 1.4839766e-38 388 261
0.086742654 0.71700001 -0.02639994 1.5208549e-38 389 261
0.087999798 0.71700001 -0.02639994 1.5209621e-38 390 261
0.089256942 0.71700001 -0.02639994 1.5025229e-38 391 261
0.090387844 0.71600002 -0.026363119 1.465717e-38 392 261
0.091643229 0.71600002 -0.026363119 1.4380942e-38 393 261
0.093028352 0.71700001 -0.02639994 1.39214e-38 394 261
0.094154 0.71600002 -0.026363119 1.3552978e-38 395 261
0.095409386 0.71600002 -0.026363119 1.2817945e-38 396 261
0.096799776 0.71700001 -0.02639994 1.2541359e-38 397 261
0.097646631 0.71399999 -0.026289478 1.1899663e-38 398 261
0.098898515 0.71399999 -0.026289478 1.3743575e-38 399 261
-0.081629939 0.73900002 -0.028505694 1.530444e-38 257 262
-0.080334224 0.73900002 -0.028505694 1.6496098e-38 258 262
-0.079038516 0.73900002 -0.028505694 1.6496098e-38 259 262
-0.0777428 0.73900002 -0.028505694 1.5853237e-38 260 262
-0.076447085 0.73900002 -0.028505694 1.5300063e-38 261 262
-0.075049676 0.73799998 -0.028467119 1.539046e-38 262 262
-0.073555835 0.736 -0.028389972 1.5113514e-38 263 262
-0.072265387 0.736 -0.028389972 1.511387e-38 264 262
-0.070974931 0.736 -0.028389972 1.511387e-38 265 262
-0.069684476 0.736 -0.028389972 1.4930202e-38 266 262
-0.06839402 0.736 -0.028389972 1.4930202e-38 267 262
-0.067103572 0.736 -0.028389972 1.4563214e-38 268 262
-0.065813117 0.736 -0.028389972 1.4286986e-38 269 262
-0.064522661 0.736 -0.028389972 1.3643779e-38 270 262
-0.063232213 0.736 -0.028389972 1.3551583e-38 271 262
-0.061941758 0.736 -0.028389972 1.3459037e-38 272 262
-0.060651302 0.736 -0.028389972 1.3366842e-38 273 262
-0.059360851 0.736 -0.028389972 1.3090976e-38 274 262
-0.058228195 0.73799998 -0.028467119 1.3183174e-38 275 262
-0.056934237 0.73799998 -0.028467119 1.3090974e-38 276 262
-0.055640277 0.73799998 -0.028467119 1.3090974e-38 277 262
-0.054346316 0.73799998 -0.028467119 1.3182809e-38 278 262
-0.053268019 0.741 -0.028582839 1.3182809e-38 279 262
-0.051968798 0.741 -0.028582839 1.3182809e-38 280 262
-0.050669577 0.741 -0.028582839 1.3090255e-38 281 262
-0.049436983 0.74199998 -0.028621411 1.2998062e-38 282 262
-0.048136011 0.74199998 -0.028621411 1.2905866e-38 283 262
-0.046961278 0.74400002 -0.02869856 1.2721119e-38 284 262
-0.045779534 0.74599999 -0.028775707 1.2444891e-38 285 262
-0.044531155 0.74699998 -0.028814279 1.226086e-38 286 262
-0.043221418 0.74699998 -0.028814279 1.2076829e-38 287 262
0.044233091 0.74199998 -0.028621411 1.2627109e-38 354 262
0.045534063 0.74199998 -0.028621411 1.2627109e-38 355 262
0.046771921 0.741 -0.028582839 1.2719302e-38 356 262
0.048071139 0.741 -0.028582839 1.2811497e-38 357 262
0.049237106 0.73900002 -0.028505694 1.3087011e-38 358 262
0.050464436 0.73799998 -0.028467119 1.2994815e-38 359 262
0.051618133 0.736 -0.028389972 1.2807184e-38 360 262
0.052764814 0.73400003 -0.028312827 1.2069619e-38 361 262
0.054051761 0.73400003 -0.028312827 1.123913e-38 362 262
0.055263311 0.73299998 -0.028274251 9.3955759e-39 363 262
0.056548502 0.73299998 -0.028274251 5.532374e-39 364 262
0.057675898 0.73100001 -0.028197108 3.0434857e-39 365 262
0.058957584 0.73100001 -0.028197108 3.0359524e-39 366 262
0.060156867 0.73000002 -0.028158534 3.8653417e-39 367 262
0.061268479 0.72799999 -0.028081384 3.1328213e-39 368 262
0.062458992 0.727 -0.028042812 3.5934393e-39 369 262
0.06373366 0.727 -0.028042812 4.9745759e-39 370 262
0.064829499 0.72500002 -0.027965667 6.6344574e-39 371 262
0.065918319 0.72299999 -0.02788852 8.3897603e-39 372 262
0.067185976 0.72299999 -0.02788852 9.5886636e-39 373 262
0.06845364 0.72299999 -0.02788852 1.1153093e-38 374 262
0.069624864 0.722 -0.027849946 1.2075049e-38 375 262
0.070890769 0.722 -0.027849946 1.2996264e-38 376 262
0.072156675 0.722 -0.027849946 1.3180655e-38 377 262
0.073422581 0.722 -0.027849946 1.3640535e-38 378 262
0.074481606 0.72000003 -0.027772799 1.3732731e-38 379 262
0.075743996 0.72000003 -0.027772799 1.3549771e-38 380 262
0.0770064 0.72000003 -0.027772799 1.3549771e-38 381 262
0.078268804 0.72000003 -0.027772799 1.3733081e-38 382 262
0.07942073 0.71899998 -0.027734226 1.3733081e-38 383 262
0.080681384 0.71899998 -0.027734226 1.4099705e-38 384 262
0.081942029 0.71899998 -0.027734226 1.4099705e-38 385 262
0.082971238 0.71700001 -0.027657079 1.3547968e-38 386 262
0.084228382 0.71700001 -0.027657079 1.3640522e-38 387 262
0.085485518 0.71700001 -0.027657079 1.3825983e-38 388 262
0.086742654 0.71700001 -0.027657079 1.4010375e-38 389 262
0.087999798 0.71700001 -0.027657079 1.447134e-38 390 262
0.089132458 0.71600002 -0.027618507 1.447134e-38 391 262
0.090387844 0.71600002 -0.027618507 1.4287659e-38 392 262
0.091643229 0.71600002 -0.027618507 1.4103628e-38 393 262
0.092898615 0.71600002 -0.027618507 1.3460778e-38 394 262
0.094154 0.71600002 -0.027618507 1.3183832e-38 395 262
0.095409386 0.71600002 -0.027618507 1.2633185e-38 396 262
0.096394755 0.71399999 -0.02754136 1.2356598e-38 397 262
0.097646631 0.71399999 -0.02754136 1.0055365e-38 398 262
0.098898515 0.71399999 -0.02754136 1.079293e-38 399 262
-0.081629939 0.73900002 -0.029801406 1.5211524e-38 257 263
-0.080334224 0.73900002 -0.029801406 1.6036196e-38 258 263
-0.079038516 0.73900002 -0.029801406 1.5759968e-38 259 263
-0.077637598 0.73799998 -0.029761078 1.5851432e-38 260 263
-0.076343641 0.73799998 -0.029761078 1.5390813e-38 261 263
-0.075049676 0.73799998 -0.029761078 1.520571e-38 262 263
-0.073555835 0.736 -0.029680425 1.5113514e-38 263 263
-0.072265387 0.736 -0.029680425 1.4745455e-38 264 263
-0.070782073 0.73400003 -0.029599773 1.4838009e-38 265 263
-0.069495119 0.73400003 -0.029599773 1.4654694e-38 266 263
-0.068208173 0.73400003 -0.029599773 1.4654694e-38 267 263
-0.066921227 0.73400003 -0.029599773 1.4195151e-38 268 263
-0.06563428 0.73400003 -0.029599773 1.3734533e-38 269 263
-0.064347334 0.73400003 -0.029599773 1.3182804e-38 270 263
-0.063060381 0.73400003 -0.029599773 1.3182804e-38 271 263
-0.061773442 0.73400003 -0.029599773 1.3090976e-38 272 263
-0.060651302 0.736 -0.029680425 1.3090976e-38 273 263
-0.059360851 0.736 -0.029680425 1.2907661e-38 274 263
-0.058070395 0.736 -0.029680425 1.2907661e-38 275 263
-0.056779943 0.736 -0.029680425 1.3091327e-38 276 263
-0.055640277 0.73799998 -0.029761078 1.2999131e-38 277 263
-0.054346316 0.73799998 -0.029761078 1.3090611e-38 278 263
-0.053268019 0.741 -0.029882059 1.3090611e-38 279 263
-0.051968798 0.741 -0.029882059 1.3273923e-38 280 263
-0.050669577 0.741 -0.029882059 1.3181727e-38 281 263
-0.049436983 0.74199998 -0.029922385 1.263e-38 282 263
-0.048136011 0.74199998 -0.029922385 1.2537804e-38 283 263
-0.046961278 0.74400002 -0.030003037 1.2353056e-38 284 263
-0.045779534 0.74599999 -0.03008369 1.2076829e-38 285 263
0.049237106 0.73900002 -0.029801406 1.2810055e-38 358 263
0.050532822 0.73900002 -0.029801406 1.3086642e-38 359 263
0.051758397 0.73799998 -0.029761078 1.2810778e-38 360 263
0.052908584 0.736 -0.029680425 1.2626387e-38 361 263
0.05419904 0.736 -0.029680425 1.2623866e-38 362 263
0.055338707 0.73400003 -0.029599773 1.2255082e-38 363 263
0.056548502 0.73299998 -0.029559445 1.0597013e-38 364 263
0.057833698 0.73299998 -0.029559445 9.2140783e-39 365 263
0.058957584 0.73100001 -0.029478792 8.4704218e-39 366 263
0.060156867 0.73000002 -0.029438468 7.179683e-39 367 263
0.061268479 0.72799999 -0.029357811 4.8798467e-39 368 263
0.062458992 0.727 -0.029317487 4.0500889e-39 369 263
0.06373366 0.727 -0.029317487 4.1437461e-39 370 263
0.064829499 0.72500002 -0.029236834 4.8813111e-39 371 263
0.065918319 0.72299999 -0.029156178 5.1632874e-39 372 263
0.067185976 0.72299999 -0.029156178 7.0071986e-39 373 263
0.06845364 0.72299999 -0.029156178 8.8499971e-39 374 263
0.069721296 0.72299999 -0.029156178 1.0417683e-38 375 263
0.070988953 0.72299999 -0.029156178 1.2166143e-38 376 263
0.072156675 0.722 -0.029115854 1.2627482e-38 377 263
0.073422581 0.722 -0.029115854 1.3272475e-38 378 263
0.074481606 0.72000003 -0.029035201 1.3272475e-38 379 263
0.075743996 0.72000003 -0.029035201 1.3457573e-38 380 263
0.0770064 0.72000003 -0.029035201 1.3549769e-38 381 263
0.078160092 0.71899998 -0.028994869 1.3825632e-38 382 263
0.07942073 0.71899998 -0.028994869 1.3733437e-38 383 263
0.080681384 0.71899998 -0.028994869 1.3824914e-38 384 263
0.081942029 0.71899998 -0.028994869 1.3732718e-38 385 263
0.082971238 0.71700001 -0.028914221 1.3640166e-38 386 263
0.084228382 0.71700001 -0.028914221 1.3732362e-38 387 263
0.085485518 0.71700001 -0.028914221 1.3732712e-38 388 263
0.086621679 0.71600002 -0.028873893 1.3640517e-38 389 263
0.087877065 0.71600002 -0.028873893 1.3640854e-38 390 263
0.089132458 0.71600002 -0.028873893 1.3640854e-38 391 263
0.090135351 0.71399999 -0.028793238 1.3366414e-38 392 263
0.091387235 0.71399999 -0.028793238 1.3458611e-38 393 263
0.092639111 0.71399999 -0.028793238 1.309092e-38 394 263
0.093890995 0.71399999 -0.028793238 1.2998723e-38 395 263
0.095142879 0.71399999 -0.028793238 1.2538468e-38 396 263
0.096394755 0.71399999 -0.028793238 1.1985295e-38 397 263
0.097646631 0.71399999 -0.028793238 9.4060268e-39 398 263
0.09834446 0.70999998 -0.028631933 9.3138297e-39 399 263
0.099589325 0.70999998 -0.028631933 1.3008216e-38 400 263
-0.081629939 0.73900002 -0.03109712 1.530264e-38 257 264
-0.080334224 0.73900002 -0.03109712 1.5391553e-38 258 264
-0.079038516 0.73900002 -0.03109712 1.5207161e-38 259 264
-0.077427194 0.736 -0.030970879 1.5482657e-38 260 264
-0.076136746 0.736 -0.030970879 1.5113514e-38 261 264
-0.075049676 0.73799998 -0.031055039 1.4929839e-38 262 264
-0.073555835 0.736 -0.030970879 1.4745087e-38 263 264
-0.072069012 0.73400003 -0.030886721 1.4377381e-38 264 264
-0.070782073 0.73400003 -0.030886721 1.4561772e-38 265 264
-0.069495119 0.73400003 -0.030886721 1.428663e-38 266 264
-0.068208173 0.73400003 -0.030886721 1.4378827e-38 267 264
-0.066921227 0.73400003 -0.030886721 1.3826375e-38 268 264
-0.06563428 0.73400003 -0.030886721 1.3549787e-38 269 264
-0.064347334 0.73400003 -0.030886721 1.3090611e-38 270 264
-0.063060381 0.73400003 -0.030886721 1.2998415e-38 271 264
-0.061773442 0.73400003 -0.030886721 1.2815466e-38 272 264
-0.060486492 0.73400003 -0.030886721 1.2815466e-38 273 264
-0.059360851 0.736 -0.030970879 1.2815463e-38 274 264
-0.058070395 0.736 -0.030970879 1.2815463e-38 275 264
-0.056779943 0.736 -0.030970879 1.2723623e-38 276 264
-0.055640277 0.73799998 -0.031055039 1.2723623e-38 277 264
-0.054567236 0.741 -0.03118128 1.2906582e-38 278 264
-0.053268019 0.741 -0.03118128 1.2906582e-38 279 264
-0.051968798 0.741 -0.03118128 1.2722198e-38 280 264
-0.050737958 0.74199998 -0.031223357 1.2537807e-38 281 264
-0.049436983 0.74199998 -0.031223357 1.2077913e-38 282 264
0.056625653 0.73400003 -0.030886721 1.2810778e-38 364 264
0.057912603 0.73400003 -0.030886721 1.253419e-38 365 264
0.059118889 0.73299998 -0.030844638 1.2346209e-38 366 264
0.06023927 0.73100001 -0.03076048 1.0225351e-38 367 264
0.061268479 0.72799999 -0.030634239 8.3818093e-39 368 264
0.062458992 0.727 -0.030592158 6.5378981e-39 369 264
0.06373366 0.727 -0.030592158 4.9734843e-39 370 264
0.064829499 0.72500002 -0.030508002 4.7894518e-39 371 264
0.066100664 0.72500002 -0.030508002 4.3310086e-39 372 264
0.067185976 0.72299999 -0.030423839 5.1607692e-39 373 264
0.06845364 0.72299999 -0.030423839 7.0972012e-39 374 264
0.069721296 0.72299999 -0.030423839 8.8492783e-39 375 264
0.070988953 0.72299999 -0.030423839 1.1151986e-38 376 264
0.072156675 0.722 -0.030381758 1.2073582e-38 377 264
0.073422581 0.722 -0.030381758 1.2535639e-38 378 264
0.074481606 0.72000003 -0.0302976 1.2811866e-38 379 264
0.075743996 0.72000003 -0.0302976 1.2995891e-38 380 264
0.0770064 0.72000003 -0.0302976 1.345687e-38 381 264
0.078160092 0.71899998 -0.030255521 1.3549415e-38 382 264
0.07942073 0.71899998 -0.030255521 1.3549415e-38 383 264
0.080681384 0.71899998 -0.030255521 1.3732718e-38 384 264
0.081942029 0.71899998 -0.030255521 1.3732718e-38 385 264
0.082971238 0.71700001 -0.030171359 1.3732712e-38 386 264
0.084110901 0.71600002 -0.03012928 1.3640517e-38 387 264
0.085366286 0.71600002 -0.03012928 1.3640873e-38 388 264
0.086621679 0.71600002 -0.03012928 1.3548677e-38 389 264
0.087877065 0.71600002 -0.03012928 1.3180248e-38 390 264
0.088883474 0.71399999 -0.030045118 1.2995498e-38 391 264
0.090135351 0.71399999 -0.030045118 1.2444831e-38 392 264
0.091387235 0.71399999 -0.030045118 1.2628863e-38 393 264
0.092639111 0.71399999 -0.030045118 1.2444828e-38 394 264
0.093890995 0.71399999 -0.030045118 1.262886e-38 395 264
0.095142879 0.71399999 -0.030045118 1.1892027e-38 396 264
0.096394755 0.71399999 -0.030045118 1.096971e-38 397 264
0.097646631 0.71399999 -0.030045118 8.2993415e-39 398 264
0.09834446 0.70999998 -0.029876797 7.1933541e-39 399 264
0.099589325 0.70999998 -0.029876797 9.3250822e-39 400 264
-0.081519477 0.73799998 -0.032348998 1.5394484e-38 257 265
-0.080225512 0.73799998 -0.032348998 1.465399e-38 258 265
-0.078931555 0.73799998 -0.032348998 1.465399e-38 259 265
-0.077427194 0.736 -0.032261331 1.4837287e-38 260 265
-0.076136746 0.736 -0.032261331 1.4837287e-38 261 265
