# .PCD v.7 - Point Cloud Data file format
FIELDS x y z rgb imX imY
SIZE 4 4 4 4 4 4
TYPE F F F F F F
COUNT 1 1 1 1 1 1
WIDTH 843
HEIGHT 1
VIEWPOINT 0 0 0 1 0 0 0
POINTS 843
DATA ascii
-0.081926249 0.76599997 -0.042977702 1.6681886e-38 259 272
-0.080583192 0.76599997 -0.042977702 1.6405297e-38 260 272
-0.079240143 0.76599997 -0.042977702 1.6497492e-38 261 272
-0.077693708 0.764 -0.042865492 1.6220899e-38 262 272
-0.076154284 0.76200002 -0.042753279 1.6036867e-38 263 272
-0.074818239 0.76200002 -0.042753279 1.5577331e-38 264 272
-0.073482201 0.76200002 -0.042753279 1.539258e-38 265 272
-0.072146162 0.76200002 -0.042753279 1.456394e-38 266 272
-0.071181826 0.76599997 -0.042977702 1.456394e-38 267 272
-0.11128055 0.77399999 -0.044783637 1.207686e-38 238 273
-0.10992347 0.77399999 -0.044783637 1.1615883e-38 239 273
-0.10842613 0.773 -0.044725779 1.373598e-38 240 273
-0.1070708 0.773 -0.044725779 1.438135e-38 241 273
-0.10571548 0.773 -0.044725779 1.456394e-38 242 273
-0.10382012 0.76899999 -0.044494338 1.4840526e-38 243 273
-0.10220531 0.76700002 -0.04437862 1.5024918e-38 244 273
-0.1008605 0.76700002 -0.04437862 1.5301505e-38 245 273
-0.099515699 0.76700002 -0.04437862 1.5302224e-38 246 273
-0.098170884 0.76700002 -0.04437862 1.5579171e-38 247 273
-0.096826084 0.76700002 -0.04437862 1.60387e-38 248 273
-0.095356777 0.76599997 -0.044320758 1.6130896e-38 249 273
-0.094013728 0.76599997 -0.044320758 1.6406388e-38 250 273
-0.092670672 0.76599997 -0.044320758 1.6314193e-38 251 273
-0.091327623 0.76599997 -0.044320758 1.659076e-38 252 273
-0.089984566 0.76599997 -0.044320758 1.6498564e-38 253 273
-0.088641517 0.76599997 -0.044320758 1.6865915e-38 254 273
-0.08729846 0.76599997 -0.044320758 1.6865915e-38 255 273
-0.085955404 0.76599997 -0.044320758 1.7049237e-38 256 273
-0.084612355 0.76599997 -0.044320758 1.7233628e-38 257 273
-0.083269298 0.76599997 -0.044320758 1.7049943e-38 258 273
-0.081712343 0.764 -0.04420504 1.6957748e-38 259 273
-0.080372795 0.764 -0.04420504 1.7049214e-38 260 273
-0.079033248 0.764 -0.04420504 1.6865183e-38 261 273
-0.077693708 0.764 -0.04420504 1.6681141e-38 262 273
-0.076354161 0.764 -0.04420504 1.6496391e-38 263 273
-0.075014614 0.764 -0.04420504 1.6128687e-38 264 273
-0.073675066 0.764 -0.04420504 1.5944295e-38 265 273
-0.072524875 0.76599997 -0.044320758 1.5667372e-38 266 273
-0.071181826 0.76599997 -0.044320758 1.5391145e-38 267 273
-0.069656424 0.764 -0.04420504 1.4194097e-38 268 273
-0.068316877 0.764 -0.04420504 1.5024218e-38 269 273
-0.11128055 0.77399999 -0.046140719 1.1709883e-38 238 274
-0.10992347 0.77399999 -0.046140719 1.0880121e-38 239 274
-0.10842613 0.773 -0.046081103 1.3182804e-38 240 274
-0.10679378 0.77100003 -0.045961879 1.3735977e-38 241 274
-0.10544196 0.77100003 -0.045961879 1.4562481e-38 242 274
-0.10382012 0.76899999 -0.045842651 1.4930905e-38 243 274
-0.10220531 0.76700002 -0.045723427 1.511565e-38 244 274
-0.1008605 0.76700002 -0.045723427 1.5207845e-38 245 274
-0.09938594 0.76599997 -0.045663811 1.5485511e-38 246 274
-0.09804289 0.76599997 -0.045663811 1.5669542e-38 247 274
-0.096699834 0.76599997 -0.045663811 1.6129446e-38 248 274
-0.095356777 0.76599997 -0.045663811 1.6221641e-38 249 274
-0.094013728 0.76599997 -0.045663811 1.658935e-38 250 274
-0.092670672 0.76599997 -0.045663811 1.6681546e-38 251 274
-0.091327623 0.76599997 -0.045663811 1.6682621e-38 252 274
-0.089984566 0.76599997 -0.045663811 1.6682621e-38 253 274
-0.088641517 0.76599997 -0.045663811 1.6681899e-38 254 274
-0.08729846 0.76599997 -0.045663811 1.6866292e-38 255 274
-0.085955404 0.76599997 -0.045663811 1.6866648e-38 256 274
-0.084612355 0.76599997 -0.045663811 1.6958843e-38 257 274
-0.08305189 0.764 -0.045544583 1.6867001e-38 258 274
-0.081712343 0.764 -0.045544583 1.6867001e-38 259 274
-0.080372795 0.764 -0.045544583 1.6774798e-38 260 274
-0.079033248 0.764 -0.045544583 1.6774798e-38 261 274
-0.077693708 0.764 -0.045544583 1.6681881e-38 262 274
-0.076354161 0.764 -0.045544583 1.649749e-38 263 274
-0.074818239 0.76200002 -0.045425359 1.6038658e-38 264 274
-0.073482201 0.76200002 -0.045425359 1.5762073e-38 265 274
-0.072335519 0.764 -0.045544583 1.5944669e-38 266 274
-0.070995972 0.764 -0.045544583 1.5852473e-38 267 274
-0.069656424 0.764 -0.045544583 1.520857e-38 268 274
-0.068316877 0.764 -0.045544583 1.5116015e-38 269 274
-0.11128055 0.77399999 -0.047497798 1.2080111e-38 238 275
-0.10992347 0.77399999 -0.047497798 1.0512425e-38 239 275
-0.10842613 0.773 -0.047436431 1.2170094e-38 240 275
-0.10679378 0.77100003 -0.047313701 1.3000214e-38 241 275
-0.10544196 0.77100003 -0.047313701 1.3736681e-38 242 275
-0.10382012 0.76899999 -0.047190964 1.3828876e-38 243 275
-0.10220531 0.76700002 -0.047068235 1.4380252e-38 244 275
-0.1008605 0.76700002 -0.047068235 1.4564644e-38 245 275
-0.09938594 0.76599997 -0.047006864 1.4749757e-38 246 275
-0.09804289 0.76599997 -0.047006864 1.5026343e-38 247 275
-0.096699834 0.76599997 -0.047006864 1.5760316e-38 248 275
-0.095356777 0.76599997 -0.047006864 1.5852511e-38 249 275
-0.094013728 0.76599997 -0.047006864 1.6129098e-38 250 275
-0.092670672 0.76599997 -0.047006864 1.6313489e-38 251 275
-0.091327623 0.76599997 -0.047006864 1.6406041e-38 252 275
-0.089984566 0.76599997 -0.047006864 1.6498237e-38 253 275
-0.088641517 0.76599997 -0.047006864 1.67741e-38 254 275
-0.08729846 0.76599997 -0.047006864 1.6866297e-38 255 275
-0.085955404 0.76599997 -0.047006864 1.6867367e-38 256 275
-0.084391437 0.764 -0.046884131 1.6867367e-38 257 275
-0.082834482 0.76200002 -0.046761397 1.6866998e-38 258 275
-0.081498444 0.76200002 -0.046761397 1.6866998e-38 259 275
-0.080162399 0.76200002 -0.046761397 1.6958466e-38 260 275
-0.07882636 0.76200002 -0.046761397 1.6958466e-38 261 275
-0.077490322 0.76200002 -0.046761397 1.6866265e-38 262 275
-0.076154284 0.76200002 -0.046761397 1.6682234e-38 263 275
-0.074818239 0.76200002 -0.046761397 1.6498549e-38 264 275
-0.073482201 0.76200002 -0.046761397 1.6313798e-38 265 275
-0.072146162 0.76200002 -0.046761397 1.6038643e-38 266 275
-0.070810117 0.76200002 -0.046761397 1.5946088e-38 267 275
-0.069474079 0.76200002 -0.046761397 1.5945025e-38 268 275
-0.068138041 0.76200002 -0.046761397 1.5852471e-38 269 275
-0.066714332 0.76099998 -0.046700031 1.4933056e-38 270 275
-0.065380037 0.76099998 -0.046700031 1.5394034e-38 271 275
0.048034318 0.76099998 -0.046700031 1.668415e-38 356 275
0.049368605 0.76099998 -0.046700031 1.6499758e-38 357 275
0.050702889 0.76099998 -0.046700031 1.6315712e-38 358 275
0.052037176 0.76099998 -0.046700031 1.5855092e-38 359 275
0.053371463 0.76099998 -0.046700031 1.557813e-38 360 275
0.054777641 0.76200002 -0.046761397 1.5301543e-38 361 275
-0.10921337 0.76899999 -0.048539277 1.0697175e-38 239 276
-0.10786507 0.76899999 -0.048539277 1.1708392e-38 240 276
-0.10651675 0.76899999 -0.048539277 1.263035e-38 241 276
-0.10516843 0.76899999 -0.048539277 1.3551924e-38 242 276
-0.10382012 0.76899999 -0.048539277 1.3920346e-38 243 276
-0.10220531 0.76700002 -0.048413042 1.4287684e-38 244 276
-0.1008605 0.76700002 -0.048413042 1.4380238e-38 245 276
-0.099515699 0.76700002 -0.048413042 1.4747593e-38 246 276
-0.09804289 0.76599997 -0.048349917 1.5116015e-38 247 276
-0.096699834 0.76599997 -0.048349917 1.5300411e-38 248 276
-0.095356777 0.76599997 -0.048349917 1.5485161e-38 249 276
-0.094013728 0.76599997 -0.048349917 1.5852864e-38 250 276
-0.092428714 0.764 -0.048223678 1.6036895e-38 251 276
-0.091089167 0.764 -0.048223678 1.631277e-38 252 276
-0.089749627 0.764 -0.048223678 1.6588997e-38 253 276
-0.088410079 0.764 -0.048223678 1.6681552e-38 254 276
-0.087070532 0.764 -0.048223678 1.6773747e-38 255 276
-0.085730985 0.764 -0.048223678 1.6774818e-38 256 276
-0.084391437 0.764 -0.048223678 1.6867013e-38 257 276
-0.082834482 0.76200002 -0.048097439 1.6866645e-38 258 276
-0.081498444 0.76200002 -0.048097439 1.6958841e-38 259 276
-0.080162399 0.76200002 -0.048097439 1.6866998e-38 260 276
-0.07882636 0.76200002 -0.048097439 1.6866998e-38 261 276
-0.077490322 0.76200002 -0.048097439 1.6775154e-38 262 276
-0.076154284 0.76200002 -0.048097439 1.66826e-38 263 276
-0.074720047 0.76099998 -0.048034318 1.6407445e-38 264 276
-0.07338576 0.76099998 -0.048034318 1.6130498e-38 265 276
-0.072051473 0.76099998 -0.048034318 1.6130851e-38 266 276
-0.070717193 0.76099998 -0.048034318 1.5854624e-38 267 276
-0.069382899 0.76099998 -0.048034318 1.5854622e-38 268 276
-0.068048611 0.76099998 -0.048034318 1.5762426e-38 269 276
-0.066714332 0.76099998 -0.048034318 1.5854271e-38 270 276
-0.065380037 0.76099998 -0.048034318 1.5854271e-38 271 276
-0.064045757 0.76099998 -0.048034318 1.5578075e-38 272 276
0.042697169 0.76099998 -0.048034318 1.5761783e-38 352 276
0.044031456 0.76099998 -0.048034318 1.5577033e-38 353 276
0.045365743 0.76099998 -0.048034318 1.5484455e-38 354 276
0.046700031 0.76099998 -0.048034318 1.5207868e-38 355 276
0.048034318 0.76099998 -0.048034318 1.5114946e-38 356 276
0.049368605 0.76099998 -0.048034318 1.4930555e-38 357 276
0.050702889 0.76099998 -0.048034318 1.4837989e-38 358 276
0.052037176 0.76099998 -0.048034318 1.4653598e-38 359 276
0.053371463 0.76099998 -0.048034318 1.4469201e-38 360 276
0.054777641 0.76200002 -0.048097439 1.428517e-38 361 276
0.056260962 0.764 -0.048223678 1.4101496e-38 362 276
0.057751291 0.76599997 -0.048349917 1.3917106e-38 363 276
0.059094343 0.76599997 -0.048349917 1.3274964e-38 364 276
0.060516298 0.76700002 -0.048413042 1.2537399e-38 365 276
0.062022414 0.76899999 -0.048539277 1.1801279e-38 366 276
0.063535534 0.77100003 -0.04866552 1.1155909e-38 367 276
-0.10786507 0.76899999 -0.04988759 1.1429661e-38 240 277
-0.10651675 0.76899999 -0.04988759 1.2536008e-38 241 277
-0.10516843 0.76899999 -0.04988759 1.327498e-38 242 277
-0.10382012 0.76899999 -0.04988759 1.3551568e-38 243 277
-0.10220531 0.76700002 -0.049757849 1.4286608e-38 244 277
-0.1008605 0.76700002 -0.049757849 1.4378803e-38 245 277
-0.09938594 0.76599997 -0.04969297 1.4746866e-38 246 277
-0.09804289 0.76599997 -0.04969297 1.4839063e-38 247 277
-0.096699834 0.76599997 -0.04969297 1.5115652e-38 248 277
-0.095356777 0.76599997 -0.04969297 1.5391879e-38 249 277
-0.093768261 0.764 -0.049563225 1.5392962e-38 250 277
-0.092186764 0.76200002 -0.049433477 1.5669189e-38 251 277
-0.090850718 0.76200002 -0.049433477 1.6219492e-38 252 277
-0.08951468 0.76200002 -0.049433477 1.6403884e-38 253 277
-0.088178635 0.76200002 -0.049433477 1.6037981e-38 254 277
-0.086842604 0.76200002 -0.049433477 1.6406404e-38 255 277
-0.085506558 0.76200002 -0.049433477 1.659115e-38 256 277
-0.08417052 0.76200002 -0.049433477 1.659115e-38 257 277
-0.082834482 0.76200002 -0.049433477 1.6866648e-38 258 277
-0.081498444 0.76200002 -0.049433477 1.6866648e-38 259 277
-0.080162399 0.76200002 -0.049433477 1.6775165e-38 260 277
-0.07882636 0.76200002 -0.049433477 1.6775165e-38 261 277
-0.077490322 0.76200002 -0.049433477 1.6866998e-38 262 277
-0.076054335 0.76099998 -0.049368605 1.6774801e-38 263 277
-0.074720047 0.76099998 -0.049368605 1.6499287e-38 264 277
-0.07338576 0.76099998 -0.049368605 1.6314896e-38 265 277
-0.072051473 0.76099998 -0.049368605 1.6315249e-38 266 277
-0.070717193 0.76099998 -0.049368605 1.6223054e-38 267 277
-0.069382899 0.76099998 -0.049368605 1.6222331e-38 268 277
-0.068048611 0.76099998 -0.049368605 1.6222331e-38 269 277
-0.066714332 0.76099998 -0.049368605 1.6222333e-38 270 277
-0.065380037 0.76099998 -0.049368605 1.6222333e-38 271 277
-0.064045757 0.76099998 -0.049368605 1.5853918e-38 272 277
-0.06271147 0.76099998 -0.049368605 1.5669527e-38 273 277
0.041254178 0.759 -0.049238857 1.5668133e-38 351 277
0.042584959 0.759 -0.049238857 1.5759937e-38 352 277
0.044031456 0.76099998 -0.049368605 1.5391513e-38 353 277
0.045365743 0.76099998 -0.049368605 1.5391498e-38 354 277
0.046700031 0.76099998 -0.049368605 1.5207107e-38 355 277
0.048034318 0.76099998 -0.049368605 1.52975e-38 356 277
0.049368605 0.76099998 -0.049368605 1.5205305e-38 357 277
0.050702889 0.76099998 -0.049368605 1.5113103e-38 358 277
0.052037176 0.76099998 -0.049368605 1.4836877e-38 359 277
0.053441599 0.76200002 -0.049433477 1.4653203e-38 360 277
0.054921411 0.764 -0.049563225 1.4376617e-38 361 277
0.056260962 0.764 -0.049563225 1.428479e-38 362 277
0.057751291 0.76599997 -0.04969297 1.4100759e-38 363 277
0.059094343 0.76599997 -0.04969297 1.3365362e-38 364 277
0.060516298 0.76700002 -0.049757849 1.2996219e-38 365 277
0.062022414 0.76899999 -0.04988759 1.207679e-38 366 277
0.063370727 0.76899999 -0.04988759 1.1523617e-38 367 277
0.064887367 0.77100003 -0.050017338 1.0420159e-38 368 277
-0.10758453 0.76700002 -0.051102653 1.0785389e-38 240 278
-0.10623973 0.76700002 -0.051102653 1.1338563e-38 241 278
-0.10516843 0.76899999 -0.051235907 1.2722176e-38 242 278
-0.10382012 0.76899999 -0.051235907 1.3183154e-38 243 278
-0.10220531 0.76700002 -0.051102653 1.4102224e-38 244 278
-0.1008605 0.76700002 -0.051102653 1.4102224e-38 245 278
-0.09938594 0.76599997 -0.051036026 1.4195135e-38 246 278
-0.09804289 0.76599997 -0.051036026 1.428769e-38 247 278
-0.096699834 0.76599997 -0.051036026 1.4838712e-38 248 278
-0.095107809 0.764 -0.050902773 1.5023104e-38 249 278
-0.093768261 0.764 -0.050902773 1.502455e-38 250 278
-0.092186764 0.76200002 -0.050769519 1.5208581e-38 251 278
-0.090850718 0.76200002 -0.050769519 1.5668123e-38 252 278
-0.08951468 0.76200002 -0.050769519 1.5760318e-38 253 278
-0.088178635 0.76200002 -0.050769519 1.5852881e-38 254 278
-0.086842604 0.76200002 -0.050769519 1.6129827e-38 255 278
-0.085506558 0.76200002 -0.050769519 1.6313855e-38 256 278
-0.084060051 0.76099998 -0.050702889 1.6406051e-38 257 278
-0.082725771 0.76099998 -0.050702889 1.6682265e-38 258 278
-0.081391476 0.76099998 -0.050702889 1.6682265e-38 259 278
-0.080057196 0.76099998 -0.050702889 1.6682615e-38 260 278
-0.078722909 0.76099998 -0.050702889 1.6775171e-38 261 278
-0.077490322 0.76200002 -0.050769519 1.6775165e-38 262 278
-0.076054335 0.76099998 -0.050702889 1.686772e-38 263 278
-0.074720047 0.76099998 -0.050702889 1.6683321e-38 264 278
-0.07338576 0.76099998 -0.050702889 1.649929e-38 265 278
-0.072051473 0.76099998 -0.050702889 1.6407092e-38 266 278
-0.070717193 0.76099998 -0.050702889 1.6314896e-38 267 278
-0.069382899 0.76099998 -0.050702889 1.6498562e-38 268 278
-0.068048611 0.76099998 -0.050702889 1.6498562e-38 269 278
-0.066714332 0.76099998 -0.050702889 1.6314528e-38 270 278
-0.065380037 0.76099998 -0.050702889 1.6222331e-38 271 278
-0.064045757 0.76099998 -0.050702889 1.631345e-38 272 278
-0.06271147 0.76099998 -0.050702889 1.631345e-38 273 278
-0.061215881 0.759 -0.050569639 1.5854289e-38 274 278
-0.059885096 0.759 -0.050569639 1.5669539e-38 275 278
-0.058554318 0.759 -0.050569639 1.5484823e-38 276 278
-0.05722354 0.759 -0.050569639 1.5669216e-38 277 278
0.029122867 0.755 -0.050303131 1.649755e-38 342 278
0.030446632 0.755 -0.050303131 1.5759983e-38 343 278
0.031854562 0.75700003 -0.050436385 1.5665955e-38 344 278
0.033269498 0.759 -0.050569639 1.5389009e-38 345 278
0.034600276 0.759 -0.050569639 1.5204248e-38 346 278
0.035931058 0.759 -0.050569639 1.5388641e-38 347 278
0.03726184 0.759 -0.050569639 1.5207851e-38 348 278
0.038592618 0.759 -0.050569639 1.5484079e-38 349 278
0.0399234 0.759 -0.050569639 1.575994e-38 350 278
0.041254178 0.759 -0.050569639 1.5852136e-38 351 278
0.042584959 0.759 -0.050569639 1.576029e-38 352 278
0.043915741 0.759 -0.050569639 1.5484062e-38 353 278
0.045246519 0.759 -0.050569639 1.5575176e-38 354 278
0.046700031 0.76099998 -0.050702889 1.5391145e-38 355 278
0.048034318 0.76099998 -0.050702889 1.5390066e-38 356 278
0.049368605 0.76099998 -0.050702889 1.5113838e-38 357 278
0.050702889 0.76099998 -0.050702889 1.5021992e-38 358 278
0.052105557 0.76200002 -0.050769519 1.4837242e-38 359 278
0.053581864 0.764 -0.050902773 1.4561735e-38 360 278
0.054921411 0.764 -0.050902773 1.4377342e-38 361 278
0.056260962 0.764 -0.050902773 1.4008926e-38 362 278
0.057751291 0.76599997 -0.051036026 1.3916731e-38 363 278
0.059094343 0.76599997 -0.051036026 1.3272796e-38 364 278
0.060516298 0.76700002 -0.051102653 1.2903655e-38 365 278
0.061861109 0.76700002 -0.051102653 1.216861e-38 366 278
0.063370727 0.76899999 -0.051235907 1.1707631e-38 367 278
0.064719036 0.76899999 -0.051235907 1.069637e-38 368 278
0.066239186 0.77100003 -0.05136916 1.0235392e-38 369 278
-0.10758453 0.76700002 -0.052447457 1.0878318e-38 240 279
-0.10623973 0.76700002 -0.052447457 1.0786122e-38 241 279
-0.10516843 0.76899999 -0.052584216 1.1799516e-38 242 279
-0.10382012 0.76899999 -0.052584216 1.2721472e-38 243 279
-0.10220531 0.76700002 -0.052447457 1.33661e-38 244 279
-0.1008605 0.76700002 -0.052447457 1.3642687e-38 245 279
-0.09938594 0.76599997 -0.052379075 1.4193688e-38 246 279
-0.09804289 0.76599997 -0.052379075 1.4378438e-38 247 279
-0.096699834 0.76599997 -0.052379075 1.465323e-38 248 279
-0.095107809 0.764 -0.052242316 1.5021652e-38 249 279
-0.093768261 0.764 -0.052242316 1.5206047e-38 250 279
-0.092186764 0.76200002 -0.052105557 1.5574828e-38 251 279
-0.090850718 0.76200002 -0.052105557 1.5759221e-38 252 279
-0.089397199 0.76099998 -0.052037176 1.5759221e-38 253 279
-0.088062912 0.76099998 -0.052037176 1.6034735e-38 254 279
-0.086842604 0.76200002 -0.052105557 1.6311322e-38 255 279
-0.085506558 0.76200002 -0.052105557 1.6311687e-38 256 279
-0.084060051 0.76099998 -0.052037176 1.6588634e-38 257 279
-0.082725771 0.76099998 -0.052037176 1.658935e-38 258 279
-0.081391476 0.76099998 -0.052037176 1.6681546e-38 259 279
-0.080057196 0.76099998 -0.052037176 1.6774098e-38 260 279
-0.078722909 0.76099998 -0.052037176 1.6866295e-38 261 279
-0.077388622 0.76099998 -0.052037176 1.6867367e-38 262 279
-0.076054335 0.76099998 -0.052037176 1.6867367e-38 263 279
-0.074720047 0.76099998 -0.052037176 1.6682968e-38 264 279
-0.07338576 0.76099998 -0.052037176 1.6498937e-38 265 279
-0.072051473 0.76099998 -0.052037176 1.6499653e-38 266 279
-0.070717193 0.76099998 -0.052037176 1.6407458e-38 267 279
-0.069200553 0.759 -0.051900417 1.6407092e-38 268 279
-0.067869775 0.759 -0.051900417 1.6499287e-38 269 279
-0.066714332 0.76099998 -0.052037176 1.6407092e-38 270 279
-0.065380037 0.76099998 -0.052037176 1.6407092e-38 271 279
-0.063877434 0.759 -0.051900417 1.6222347e-38 272 279
-0.062546656 0.759 -0.051900417 1.6222347e-38 273 279
-0.061215881 0.759 -0.051900417 1.6404944e-38 274 279
-0.059885096 0.759 -0.051900417 1.6312747e-38 275 279
-0.058554318 0.759 -0.051900417 1.603653e-38 276 279
-0.05722354 0.759 -0.051900417 1.603653e-38 277 279
-0.055892758 0.759 -0.051900417 1.5301523e-38 278 279
-0.054418206 0.75700003 -0.051763661 1.5854697e-38 279 279
-0.053090934 0.75700003 -0.051763661 1.5764709e-38 280 279
-0.051626898 0.755 -0.051626898 1.6317881e-38 281 279
-0.050236505 0.75400001 -0.051558517 1.6228229e-38 282 279
-0.048914492 0.75400001 -0.051558517 1.6781403e-38 283 279
0.022504034 0.755 -0.051626898 1.6406838e-38 337 279
0.02379624 0.75400001 -0.051558517 1.6130588e-38 338 279
0.025118252 0.75400001 -0.051558517 1.5945838e-38 339 279
0.027799098 0.755 -0.051626898 1.6221682e-38 341 279
0.029122867 0.755 -0.051626898 1.6587928e-38 342 279
0.030446632 0.755 -0.051626898 1.6219144e-38 343 279
0.031770397 0.755 -0.051626898 1.621876e-38 344 279
0.033094164 0.755 -0.051626898 1.603401e-38 345 279
0.034509107 0.75700003 -0.051763661 1.5575529e-38 346 279
0.03583638 0.75700003 -0.051763661 1.5299302e-38 347 279
0.037163652 0.75700003 -0.051763661 1.5482617e-38 348 279
0.038490929 0.75700003 -0.051763661 1.5482617e-38 349 279
0.039818201 0.75700003 -0.051763661 1.5759204e-38 350 279
0.041145474 0.75700003 -0.051763661 1.5943237e-38 351 279
0.042472746 0.75700003 -0.051763661 1.5576608e-38 352 279
0.043800019 0.75700003 -0.051763661 1.5576608e-38 353 279
0.045246519 0.759 -0.051900417 1.5575529e-38 354 279
0.046577301 0.759 -0.051900417 1.5391498e-38 355 279
0.048034318 0.76099998 -0.052037176 1.5207104e-38 356 279
0.049433477 0.76200002 -0.052105557 1.5022711e-38 357 279
0.050769519 0.76200002 -0.052105557 1.493051e-38 358 279
0.052105557 0.76200002 -0.052105557 1.4562088e-38 359 279
0.053581864 0.764 -0.052242316 1.4469888e-38 360 279
0.054921411 0.764 -0.052242316 1.4101465e-38 361 279
0.056408234 0.76599997 -0.052379075 1.3916362e-38 362 279
0.057751291 0.76599997 -0.052379075 1.3824167e-38 363 279
0.059094343 0.76599997 -0.052379075 1.3088765e-38 364 279
0.060516298 0.76700002 -0.052447457 1.2812538e-38 365 279
0.061861109 0.76700002 -0.052447457 1.1709434e-38 366 279
0.063370727 0.76899999 -0.052584216 1.1524684e-38 367 279
0.064719036 0.76899999 -0.052584216 1.0237192e-38 368 279
0.066067353 0.76899999 -0.052584216 9.8684076e-39 369 279
0.067415662 0.76899999 -0.052584216 8.3886434e-39 370 279
-0.10786507 0.76899999 -0.053932533 1.1155279e-38 240 280
-0.10651675 0.76899999 -0.053932533 1.0602106e-38 241 280
-0.10516843 0.76899999 -0.053932533 1.1338557e-38 242 280
-0.10355011 0.76700002 -0.053792264 1.1891731e-38 243 280
-0.10220531 0.76700002 -0.053792264 1.2814018e-38 244 280
-0.10072899 0.76599997 -0.053722132 1.3090964e-38 245 280
-0.09938594 0.76599997 -0.053722132 1.3917476e-38 246 280
-0.09804289 0.76599997 -0.053722132 1.3917476e-38 247 280
-0.096447356 0.764 -0.053581864 1.4102236e-38 248 280
-0.095107809 0.764 -0.053581864 1.4194432e-38 249 280
-0.093768261 0.764 -0.053581864 1.4378827e-38 250 280
-0.092186764 0.76200002 -0.053441599 1.4747608e-38 251 280
-0.090850718 0.76200002 -0.053441599 1.4932356e-38 252 280
-0.089397199 0.76099998 -0.053371463 1.5024553e-38 253 280
-0.088062912 0.76099998 -0.053371463 1.5483373e-38 254 280
-0.086728632 0.76099998 -0.053371463 1.5760318e-38 255 280
-0.085394338 0.76099998 -0.053371463 1.5577369e-38 256 280
-0.084060051 0.76099998 -0.053371463 1.5946152e-38 257 280
-0.082725771 0.76099998 -0.053371463 1.5947228e-38 258 280
-0.081177577 0.759 -0.053231198 1.6131259e-38 259 280
-0.079846799 0.759 -0.053231198 1.6315643e-38 260 280
-0.078516021 0.759 -0.053231198 1.6315643e-38 261 280
-0.077185236 0.759 -0.053231198 1.649967e-38 262 280
-0.075854458 0.759 -0.053231198 1.6592224e-38 263 280
-0.07452368 0.759 -0.053231198 1.6682971e-38 264 280
-0.073192894 0.759 -0.053231198 1.6682971e-38 265 280
-0.071862116 0.759 -0.053231198 1.649929e-38 266 280
-0.070531338 0.759 -0.053231198 1.649929e-38 267 280
-0.069200553 0.759 -0.053231198 1.659076e-38 268 280
-0.067869775 0.759 -0.053231198 1.6682956e-38 269 280
-0.066538997 0.759 -0.053231198 1.6590757e-38 270 280
-0.065208219 0.759 -0.053231198 1.6590757e-38 271 280
-0.063877434 0.759 -0.053231198 1.6590036e-38 272 280
-0.062546656 0.759 -0.053231198 1.649784e-38 273 280
-0.061215881 0.759 -0.053231198 1.6588958e-38 274 280
-0.059885096 0.759 -0.053231198 1.6404927e-38 275 280
-0.058554318 0.759 -0.053231198 1.6404574e-38 276 280
-0.05722354 0.759 -0.053231198 1.6312378e-38 277 280
-0.055745479 0.75700003 -0.053090934 1.5669176e-38 278 280
-0.054418206 0.75700003 -0.053090934 1.5669176e-38 279 280
-0.052950665 0.755 -0.052950665 1.5300782e-38 280 280
-0.051558517 0.75400001 -0.052880533 1.5669566e-38 281 280
-0.050236505 0.75400001 -0.052880533 1.5947638e-38 282 280
-0.048784744 0.75199997 -0.052740261 1.6593008e-38 283 280
-0.047466237 0.75199997 -0.052740261 1.668632e-38 284 280
0.0198565 0.755 -0.052950665 1.6498997e-38 335 280
0.021180267 0.755 -0.052950665 1.6406035e-38 336 280
0.022504034 0.755 -0.052950665 1.5760666e-38 337 280
0.02379624 0.75400001 -0.052880533 1.6035788e-38 338 280
0.025118252 0.75400001 -0.052880533 1.6312375e-38 339 280
0.026475333 0.755 -0.052950665 1.6404237e-38 340 280
0.027799098 0.755 -0.052950665 1.6496433e-38 341 280
0.029122867 0.755 -0.052950665 1.6220578e-38 342 280
0.030446632 0.755 -0.052950665 1.5943631e-38 343 280
0.031770397 0.755 -0.052950665 1.640207e-38 344 280
0.033094164 0.755 -0.052950665 1.6217678e-38 345 280
0.034509107 0.75700003 -0.053090934 1.5572306e-38 346 280
0.03583638 0.75700003 -0.053090934 1.5572306e-38 347 280
0.037065465 0.755 -0.052950665 1.483834e-38 348 280
0.038389232 0.755 -0.052950665 1.483834e-38 349 280
0.039818201 0.75700003 -0.053090934 1.5116719e-38 350 280
0.041145474 0.75700003 -0.053090934 1.5209273e-38 351 280
0.042472746 0.75700003 -0.053090934 1.5576612e-38 352 280
0.043800019 0.75700003 -0.053090934 1.5576612e-38 353 280
0.045127295 0.75700003 -0.053090934 1.5575879e-38 354 280
0.046454567 0.75700003 -0.053090934 1.5299653e-38 355 280
0.048034318 0.76099998 -0.053371463 1.5390046e-38 356 280
0.049433477 0.76200002 -0.053441599 1.5205655e-38 357 280
0.050769519 0.76200002 -0.053441599 1.465428e-38 358 280
0.052242316 0.764 -0.053581864 1.4469888e-38 359 280
0.053581864 0.764 -0.053581864 1.4009633e-38 360 280
0.055065181 0.76599997 -0.053722132 1.3917437e-38 361 280
0.056408234 0.76599997 -0.053722132 1.3549025e-38 362 280
0.057751291 0.76599997 -0.053722132 1.3272796e-38 363 280
0.059094343 0.76599997 -0.053722132 1.3088049e-38 364 280
0.060437392 0.76599997 -0.053722132 1.2811461e-38 365 280
0.061861109 0.76700002 -0.053792264 1.2167888e-38 366 280
0.063205913 0.76700002 -0.053792264 1.1614714e-38 367 280
0.064719036 0.76899999 -0.053932533 1.0786051e-38 368 280
0.066067353 0.76899999 -0.053932533 9.9559313e-39 369 280
0.067415662 0.76899999 -0.053932533 6.733801e-39 370 280
-0.10623973 0.76700002 -0.055137072 1.097126e-38 241 281
-0.10489491 0.76700002 -0.055137072 1.1430403e-38 242 281
-0.10355011 0.76700002 -0.055137072 1.1430403e-38 243 281
-0.10220531 0.76700002 -0.055137072 1.2168296e-38 244 281
-0.10072899 0.76599997 -0.055065181 1.272147e-38 245 281
-0.09938594 0.76599997 -0.055065181 1.345757e-38 246 281
-0.09804289 0.76599997 -0.055065181 1.3549766e-38 247 281
-0.096447356 0.764 -0.054921411 1.391746e-38 248 281
-0.095107809 0.764 -0.054921411 1.4193688e-38 249 281
-0.093522795 0.76200002 -0.054777641 1.4286605e-38 250 281
-0.092186764 0.76200002 -0.054777641 1.4471355e-38 251 281
-0.090850718 0.76200002 -0.054777641 1.483834e-38 252 281
-0.089397199 0.76099998 -0.05470575 1.5207122e-38 253 281
-0.088062912 0.76099998 -0.05470575 1.5574828e-38 254 281
-0.086728632 0.76099998 -0.05470575 1.5759221e-38 255 281
-0.085394338 0.76099998 -0.05470575 1.5852138e-38 256 281
-0.083839141 0.759 -0.054561976 1.603653e-38 257 281
-0.082508355 0.759 -0.054561976 1.5854303e-38 258 281
-0.081177577 0.759 -0.054561976 1.6038695e-38 259 281
-0.079846799 0.759 -0.054561976 1.6130893e-38 260 281
-0.078516021 0.759 -0.054561976 1.6223089e-38 261 281
-0.077185236 0.759 -0.054561976 1.6499306e-38 262 281
-0.075854458 0.759 -0.054561976 1.6499306e-38 263 281
-0.07452368 0.759 -0.054561976 1.6774445e-38 264 281
-0.073000036 0.75700003 -0.054418206 1.6774445e-38 265 281
-0.07167276 0.75700003 -0.054418206 1.6682605e-38 266 281
-0.070345491 0.75700003 -0.054418206 1.6682605e-38 267 281
-0.069018215 0.75700003 -0.054418206 1.649929e-38 268 281
-0.067690939 0.75700003 -0.054418206 1.6683321e-38 269 281
-0.06636367 0.75700003 -0.054418206 1.649929e-38 270 281
-0.065036394 0.75700003 -0.054418206 1.649929e-38 271 281
-0.063709125 0.75700003 -0.054418206 1.6499287e-38 272 281
-0.062381849 0.75700003 -0.054418206 1.6407092e-38 273 281
-0.061215881 0.759 -0.054561976 1.6590038e-38 274 281
-0.059885096 0.759 -0.054561976 1.6497843e-38 275 281
-0.058400027 0.75700003 -0.054418206 1.6405646e-38 276 281
-0.057072755 0.75700003 -0.054418206 1.631345e-38 277 281
-0.055745479 0.75700003 -0.054418206 1.6037952e-38 278 281
-0.054418206 0.75700003 -0.054418206 1.6037952e-38 279 281
-0.052950665 0.755 -0.054274432 1.6128375e-38 280 281
-0.051558517 0.75400001 -0.054202545 1.6312768e-38 281 281
-0.050236505 0.75400001 -0.054202545 1.5944729e-38 282 281
-0.048784744 0.75199997 -0.054058768 1.5852534e-38 283 281
-0.047466237 0.75199997 -0.054058768 1.557848e-38 284 281
0.017208965 0.755 -0.054274432 1.6404982e-38 333 281
0.018532733 0.755 -0.054274432 1.6680477e-38 334 281
0.0198565 0.755 -0.054274432 1.6864508e-38 335 281
0.021180267 0.755 -0.054274432 1.658935e-38 336 281
0.022504034 0.755 -0.054274432 1.6497155e-38 337 281
0.023827799 0.755 -0.054274432 1.6680452e-38 338 281
0.025151566 0.755 -0.054274432 1.6588256e-38 339 281
0.026475333 0.755 -0.054274432 1.6587533e-38 340 281
0.027799098 0.755 -0.054274432 1.6495337e-38 341 281
0.029122867 0.755 -0.054274432 1.6126915e-38 342 281
0.030446632 0.755 -0.054274432 1.5849968e-38 343 281
0.03172832 0.75400001 -0.054202545 1.5296781e-38 344 281
0.033050332 0.75400001 -0.054202545 1.4651412e-38 345 281
0.034417931 0.755 -0.054274432 1.4096812e-38 346 281
0.035741698 0.755 -0.054274432 1.4834377e-38 347 281
0.037065465 0.755 -0.054274432 1.5109185e-38 348 281
0.038389232 0.755 -0.054274432 1.5662358e-38 349 281
0.039712999 0.755 -0.054274432 1.5023457e-38 350 281
0.041145474 0.75700003 -0.054418206 1.5207848e-38 351 281
0.042472746 0.75700003 -0.054418206 1.5483706e-38 352 281
0.043800019 0.75700003 -0.054418206 1.5576262e-38 353 281
0.045127295 0.75700003 -0.054418206 1.5575529e-38 354 281
0.046454567 0.75700003 -0.054418206 1.5299302e-38 355 281
0.047908079 0.759 -0.054561976 1.5297853e-38 356 281
0.049368605 0.76099998 -0.05470575 1.4929072e-38 357 281
0.050769519 0.76200002 -0.054777641 1.4652847e-38 358 281
0.052105557 0.76200002 -0.054777641 1.4284425e-38 359 281
0.053441599 0.76200002 -0.054777641 1.3916012e-38 360 281
0.054921411 0.764 -0.054921411 1.3823816e-38 361 281
0.056260962 0.764 -0.054921411 1.3639071e-38 362 281
0.057600506 0.764 -0.054921411 1.3362844e-38 363 281
0.058940053 0.764 -0.054921411 1.2903305e-38 364 281
0.0602796 0.764 -0.054921411 1.2627077e-38 365 281
0.061780453 0.76599997 -0.055065181 1.1616166e-38 366 281
0.063123502 0.76599997 -0.055065181 1.1247023e-38 367 281
0.06455072 0.76700002 -0.055137072 1.0141777e-38 368 281
0.065895528 0.76700002 -0.055137072 9.2194607e-39 369 281
0.067240335 0.76700002 -0.055137072 7.7400595e-39 370 281
-0.10623973 0.76700002 -0.056481879 1.0972706e-38 241 282
-0.10489491 0.76700002 -0.056481879 1.1246024e-38 242 282
-0.10355011 0.76700002 -0.056481879 1.1061993e-38 243 282
-0.10220531 0.76700002 -0.056481879 1.1890638e-38 244 282
-0.10072899 0.76599997 -0.056408234 1.2167227e-38 245 282
-0.09938594 0.76599997 -0.056408234 1.3089514e-38 246 282
-0.09804289 0.76599997 -0.056408234 1.3181709e-38 247 282
-0.096699834 0.76599997 -0.056408234 1.3457926e-38 248 282
-0.095107809 0.764 -0.056260962 1.3642317e-38 249 282
-0.093522795 0.76200002 -0.056113683 1.4101143e-38 250 282
-0.092186764 0.76200002 -0.056113683 1.4285536e-38 251 282
-0.090731487 0.76099998 -0.056040037 1.437845e-38 252 282
-0.089397199 0.76099998 -0.056040037 1.45632e-38 253 282
-0.088062912 0.76099998 -0.056040037 1.511422e-38 254 282
-0.086500697 0.759 -0.055892758 1.5390807e-38 255 282
-0.085169919 0.759 -0.055892758 1.5483006e-38 256 282
-0.083839141 0.759 -0.055892758 1.5759234e-38 257 282
-0.082290947 0.75700003 -0.055745479 1.5485158e-38 258 282
-0.080963671 0.75700003 -0.055745479 1.5761385e-38 259 282
-0.079636402 0.75700003 -0.055745479 1.5854659e-38 260 282
-0.078309126 0.75700003 -0.055745479 1.6039051e-38 261 282
-0.076981857 0.75700003 -0.055745479 1.6314559e-38 262 282
-0.075654581 0.75700003 -0.055745479 1.6406754e-38 263 282
-0.074327305 0.75700003 -0.055745479 1.6498584e-38 264 282
-0.073000036 0.75700003 -0.055745479 1.6498584e-38 265 282
-0.07167276 0.75700003 -0.055745479 1.6682252e-38 266 282
-0.070345491 0.75700003 -0.055745479 1.6682252e-38 267 282
-0.069018215 0.75700003 -0.055745479 1.6682252e-38 268 282
-0.067690939 0.75700003 -0.055745479 1.6682252e-38 269 282
-0.066188328 0.755 -0.055598196 1.6682252e-38 270 282
-0.064864561 0.755 -0.055598196 1.6682252e-38 271 282
-0.063709125 0.75700003 -0.055745479 1.66826e-38 272 282
-0.062381849 0.75700003 -0.055745479 1.66826e-38 273 282
-0.061054576 0.75700003 -0.055745479 1.6866618e-38 274 282
-0.059727304 0.75700003 -0.055745479 1.6682587e-38 275 282
-0.058400027 0.75700003 -0.055745479 1.6590392e-38 276 282
-0.057072755 0.75700003 -0.055745479 1.6498196e-38 277 282
-0.055745479 0.75700003 -0.055745479 1.6314528e-38 278 282
-0.054418206 0.75700003 -0.055745479 1.6314528e-38 279 282
-0.052950665 0.755 -0.055598196 1.6221631e-38 280 282
-0.051626898 0.755 -0.055598196 1.6497858e-38 281 282
-0.050236505 0.75400001 -0.055524562 1.6129448e-38 282 282
-0.048914492 0.75400001 -0.055524562 1.6037251e-38 283 282
-0.04759248 0.75400001 -0.055524562 1.5670624e-38 284 282
-0.046270464 0.75400001 -0.055524562 1.5485874e-38 285 282
-0.044948451 0.75400001 -0.055524562 1.5669569e-38 286 282
-0.043626439 0.75400001 -0.055524562 1.6222741e-38 287 282
-0.042304426 0.75400001 -0.055524562 1.6223131e-38 288 282
-0.040873703 0.75199997 -0.055377278 1.6591912e-38 289 282
-0.039555199 0.75199997 -0.055377278 1.6683771e-38 290 282
-0.038236689 0.75199997 -0.055377278 1.7052914e-38 291 282
-0.036918186 0.75199997 -0.055377278 1.7329519e-38 292 282
-0.035599679 0.75199997 -0.055377278 1.7605747e-38 293 282
-0.034281172 0.75199997 -0.055377278 1.7422453e-38 294 282
-0.032962665 0.75199997 -0.055377278 1.7422453e-38 295 282
0.015885198 0.755 -0.055598196 1.6589688e-38 332 282
0.017208965 0.755 -0.055598196 1.6589688e-38 333 282
0.018532733 0.755 -0.055598196 1.6773003e-38 334 282
0.0198565 0.755 -0.055598196 1.6865199e-38 335 282
0.021180267 0.755 -0.055598196 1.6590057e-38 336 282
0.022504034 0.755 -0.055598196 1.6313471e-38 337 282
0.023827799 0.755 -0.055598196 1.6588256e-38 338 282
0.025151566 0.755 -0.055598196 1.6035082e-38 339 282
0.026475333 0.755 -0.055598196 1.6217308e-38 340 282
0.027799098 0.755 -0.055598196 1.5940722e-38 341 282
0.029122867 0.755 -0.055598196 1.520423e-38 342 282
0.030446632 0.755 -0.055598196 1.4835446e-38 343 282
0.03172832 0.75400001 -0.055524562 1.4557787e-38 344 282
0.033050332 0.75400001 -0.055524562 1.42812e-38 345 282
0.034417931 0.755 -0.055598196 1.4093952e-38 346 282
0.035741698 0.755 -0.055598196 1.455529e-38 347 282
0.037065465 0.755 -0.055598196 1.465217e-38 348 282
0.038389232 0.755 -0.055598196 1.4928756e-38 349 282
0.039712999 0.755 -0.055598196 1.4930905e-38 350 282
0.041036766 0.755 -0.055598196 1.5115296e-38 351 282
0.042360533 0.755 -0.055598196 1.5391867e-38 352 282
0.043800019 0.75700003 -0.055745479 1.5391867e-38 353 282
0.045127295 0.75700003 -0.055745479 1.5482615e-38 354 282
0.046454567 0.75700003 -0.055745479 1.5298223e-38 355 282
0.04778184 0.75700003 -0.055745479 1.5113109e-38 356 282
0.049238857 0.759 -0.055892758 1.4744328e-38 357 282
0.050702889 0.76099998 -0.056040037 1.4376267e-38 358 282
0.052037176 0.76099998 -0.056040037 1.409968e-38 359 282
0.053441599 0.76200002 -0.056113683 1.3731266e-38 360 282
0.054777641 0.76200002 -0.056113683 1.3455039e-38 361 282
0.056113683 0.76200002 -0.056113683 1.317846e-38 362 282
0.057600506 0.764 -0.056260962 1.2902231e-38 363 282
0.058940053 0.764 -0.056260962 1.2810033e-38 364 282
0.0602796 0.764 -0.056260962 1.2533446e-38 365 282
0.061619148 0.764 -0.056260962 1.1981354e-38 366 282
0.063123502 0.76599997 -0.056408234 1.1151593e-38 367 282
0.064466551 0.76599997 -0.056408234 9.7715653e-39 368 282
0.065895528 0.76700002 -0.056481879 8.5730221e-39 369 282
0.067240335 0.76700002 -0.056481879 8.3883197e-39 370 282
-0.10489491 0.76700002 -0.057826683 1.1338223e-38 242 283
-0.10355011 0.76700002 -0.057826683 1.09698e-38 243 283
-0.10207205 0.76599997 -0.057751291 1.1521507e-38 244 283
-0.10072899 0.76599997 -0.057751291 1.1797734e-38 245 283
-0.09938594 0.76599997 -0.057751291 1.2443441e-38 246 283
-0.09804289 0.76599997 -0.057751291 1.2904417e-38 247 283
-0.096699834 0.76599997 -0.057751291 1.3456851e-38 248 283
-0.095107809 0.764 -0.057600506 1.3456851e-38 249 283
-0.093522795 0.76200002 -0.057449725 1.3824911e-38 250 283
-0.092065774 0.76099998 -0.057374325 1.3917106e-38 251 283
-0.090731487 0.76099998 -0.057374325 1.4102226e-38 252 283
-0.089397199 0.76099998 -0.057374325 1.4286257e-38 253 283
-0.088062912 0.76099998 -0.057374325 1.4928756e-38 254 283
-0.086500697 0.759 -0.05722354 1.5113148e-38 255 283
-0.085169919 0.759 -0.05722354 1.5206416e-38 256 283
-0.083839141 0.759 -0.05722354 1.5390807e-38 257 283
-0.082290947 0.75700003 -0.057072755 1.5391882e-38 258 283
-0.080963671 0.75700003 -0.057072755 1.5576275e-38 259 283
-0.079636402 0.75700003 -0.057072755 1.5760666e-38 260 283
-0.078102231 0.755 -0.056921966 1.585322e-38 261 283
-0.076778464 0.755 -0.056921966 1.5946136e-38 262 283
-0.075454697 0.755 -0.056921966 1.6130527e-38 263 283
-0.07413093 0.755 -0.056921966 1.631384e-38 264 283
-0.07280717 0.755 -0.056921966 1.6406035e-38 265 283
-0.071483396 0.755 -0.056921966 1.6497152e-38 266 283
-0.070159629 0.755 -0.056921966 1.6589706e-38 267 283
-0.068835862 0.755 -0.056921966 1.6589706e-38 268 283
-0.067512102 0.755 -0.056921966 1.6589706e-38 269 283
-0.066188328 0.755 -0.056921966 1.6865211e-38 270 283
-0.064864561 0.755 -0.056921966 1.6957407e-38 271 283
-0.063540794 0.755 -0.056921966 1.6774445e-38 272 283
-0.062217031 0.755 -0.056921966 1.6867001e-38 273 283
-0.060893264 0.755 -0.056921966 1.6775151e-38 274 283
-0.059727304 0.75700003 -0.057072755 1.6682956e-38 275 283
-0.058245733 0.755 -0.056921966 1.6682587e-38 276 283
-0.056921966 0.755 -0.056921966 1.6590392e-38 277 283
-0.055598196 0.755 -0.056921966 1.6498909e-38 278 283
-0.054274432 0.755 -0.056921966 1.6498909e-38 279 283
-0.052950665 0.755 -0.056921966 1.6590389e-38 280 283
-0.051558517 0.75400001 -0.056846574 1.6590389e-38 281 283
-0.050236505 0.75400001 -0.056846574 1.6314175e-38 282 283
-0.048914492 0.75400001 -0.056846574 1.6314175e-38 283 283
-0.04759248 0.75400001 -0.056846574 1.622235e-38 284 283
-0.046270464 0.75400001 -0.056846574 1.622235e-38 285 283
-0.044948451 0.75400001 -0.056846574 1.6497508e-38 286 283
-0.043626439 0.75400001 -0.056846574 1.6497508e-38 287 283
-0.042304426 0.75400001 -0.056846574 1.6036898e-38 288 283
-0.040873703 0.75199997 -0.056695782 1.6129095e-38 289 283
-0.039555199 0.75199997 -0.056695782 1.6220575e-38 290 283
-0.038135 0.75 -0.056544997 1.631277e-38 291 283
-0.036819998 0.75 -0.056544997 1.6312786e-38 292 283
-0.035599679 0.75199997 -0.056695782 1.6404982e-38 293 283
-0.034281172 0.75199997 -0.056695782 1.631425e-38 294 283
-0.032962665 0.75199997 -0.056695782 1.6498641e-38 295 283
-0.031644158 0.75199997 -0.056695782 1.6407542e-38 296 283
-0.027688639 0.75199997 -0.056695782 1.8349802e-38 299 283
-0.02637013 0.75199997 -0.056695782 1.9270354e-38 300 283
-0.025051624 0.75199997 -0.056695782 1.724205e-38 301 283
0.0039555198 0.75199997 -0.056695782 1.649753e-38 323 283
0.0052740262 0.75199997 -0.056695782 1.6681196e-38 324 283
0.0065925326 0.75199997 -0.056695782 1.6681196e-38 325 283
0.0079425992 0.755 -0.056921966 1.6957062e-38 326 283
0.0092663663 0.755 -0.056921966 1.6957062e-38 327 283
0.010590133 0.755 -0.056921966 1.6957413e-38 328 283
0.01189812 0.75400001 -0.056846574 1.6957413e-38 329 283
0.013220133 0.75400001 -0.056846574 1.6957044e-38 330 283
0.014542146 0.75400001 -0.056846574 1.6957044e-38 331 283
0.01586416 0.75400001 -0.056846574 1.6957394e-38 332 283
0.017208965 0.755 -0.056921966 1.6865199e-38 333 283
0.018532733 0.755 -0.056921966 1.6589685e-38 334 283
0.0198565 0.755 -0.056921966 1.6589685e-38 335 283
0.021180267 0.755 -0.056921966 1.6497136e-38 336 283
0.022504034 0.755 -0.056921966 1.6312744e-38 337 283
0.023827799 0.755 -0.056921966 1.6403144e-38 338 283
0.025151566 0.755 -0.056921966 1.5296797e-38 339 283
0.026475333 0.755 -0.056921966 1.5294283e-38 340 283
0.027799098 0.755 -0.056921966 1.4833305e-38 341 283
0.029084291 0.75400001 -0.056846574 1.4188654e-38 342 283
0.030406307 0.75400001 -0.056846574 1.3911709e-38 343 283
0.03172832 0.75400001 -0.056846574 1.3727324e-38 344 283
0.033050332 0.75400001 -0.056846574 1.400391e-38 345 283
0.034372345 0.75400001 -0.056846574 1.4095387e-38 346 283
0.035694357 0.75400001 -0.056846574 1.464856e-38 347 283
0.037016369 0.75400001 -0.056846574 1.5021652e-38 348 283
0.038338386 0.75400001 -0.056846574 1.5206403e-38 349 283
0.039660402 0.75400001 -0.056846574 1.4931611e-38 350 283
0.041036766 0.755 -0.056921966 1.5023807e-38 351 283
0.042360533 0.755 -0.056921966 1.5298949e-38 352 283
0.043684296 0.755 -0.056921966 1.5206754e-38 353 283
0.045008067 0.755 -0.056921966 1.5389344e-38 354 283
0.04633183 0.755 -0.056921966 1.5112756e-38 355 283
0.047655597 0.755 -0.056921966 1.4836526e-38 356 283
0.049109112 0.75700003 -0.057072755 1.4559579e-38 357 283
0.050569639 0.759 -0.05722354 1.4007485e-38 358 283
0.052037176 0.76099998 -0.057374325 1.3638702e-38 359 283
0.053371463 0.76099998 -0.057374325 1.3546153e-38 360 283
0.054777641 0.76200002 -0.057449725 1.3453958e-38 361 283
0.056113683 0.76200002 -0.057449725 1.2902234e-38 362 283
0.057449725 0.76200002 -0.057449725 1.2810039e-38 363 283
0.058785759 0.76200002 -0.057449725 1.2533093e-38 364 283
0.060121801 0.76200002 -0.057449725 1.2164669e-38 365 283
0.061457843 0.76200002 -0.057449725 1.1703339e-38 366 283
0.062958695 0.764 -0.057600506 1.0781382e-38 367 283
0.064298242 0.764 -0.057600506 9.7676122e-39 368 283
0.065809615 0.76599997 -0.057751291 8.5694278e-39 369 283
0.067240335 0.76700002 -0.057826683 9.954935e-39 370 283
-0.10355011 0.76700002 -0.059171494 1.1061292e-38 243 284
-0.10207205 0.76599997 -0.059094343 1.10609e-38 244 284
-0.10072899 0.76599997 -0.059094343 1.10609e-38 245 284
-0.09938594 0.76599997 -0.059094343 1.1981036e-38 246 284
-0.09804289 0.76599997 -0.059094343 1.2626405e-38 247 284
-0.096699834 0.76599997 -0.059094343 1.3087358e-38 248 284
-0.09485884 0.76200002 -0.058785759 1.3087358e-38 249 284
-0.093522795 0.76200002 -0.058785759 1.3456127e-38 250 284
-0.092065774 0.76099998 -0.058708608 1.364052e-38 251 284
-0.090731487 0.76099998 -0.058708608 1.4008229e-38 252 284
-0.089397199 0.76099998 -0.058708608 1.419262e-38 253 284
-0.088062912 0.76099998 -0.058708608 1.4560681e-38 254 284
-0.086500697 0.759 -0.058554318 1.4745072e-38 255 284
-0.085169919 0.759 -0.058554318 1.4746147e-38 256 284
-0.083618224 0.75700003 -0.058400027 1.4930539e-38 257 284
-0.082290947 0.75700003 -0.058400027 1.5023457e-38 258 284
-0.080963671 0.75700003 -0.058400027 1.5207848e-38 259 284
-0.079425998 0.755 -0.058245733 1.5483356e-38 260 284
-0.078102231 0.755 -0.058245733 1.5759943e-38 261 284
-0.076778464 0.755 -0.058245733 1.5853215e-38 262 284
-0.075454697 0.755 -0.058245733 1.5853215e-38 263 284
-0.074032739 0.75400001 -0.058168583 1.6129446e-38 264 284
-0.07271073 0.75400001 -0.058168583 1.6221641e-38 265 284
-0.071388714 0.75400001 -0.058168583 1.6313477e-38 266 284
-0.070066705 0.75400001 -0.058168583 1.6313477e-38 267 284
-0.068744689 0.75400001 -0.058168583 1.6496433e-38 268 284
-0.067422673 0.75400001 -0.058168583 1.6588987e-38 269 284
-0.066100664 0.75400001 -0.058168583 1.668118e-38 270 284
-0.064778648 0.75400001 -0.058168583 1.6957407e-38 271 284
-0.06345664 0.75400001 -0.058168583 1.6867001e-38 272 284
-0.062134624 0.75400001 -0.058168583 1.6867001e-38 273 284
-0.060893264 0.755 -0.058245733 1.686735e-38 274 284
-0.059569497 0.755 -0.058245733 1.686735e-38 275 284
-0.058168583 0.75400001 -0.058168583 1.7051012e-38 276 284
-0.056846574 0.75400001 -0.058168583 1.6958817e-38 277 284
-0.055524562 0.75400001 -0.058168583 1.6683306e-38 278 284
-0.054202545 0.75400001 -0.058168583 1.6683306e-38 279 284
-0.052880533 0.75400001 -0.058168583 1.6682953e-38 280 284
-0.051558517 0.75400001 -0.058168583 1.6682953e-38 281 284
-0.050236505 0.75400001 -0.058168583 1.649929e-38 282 284
-0.048914492 0.75400001 -0.058168583 1.6407095e-38 283 284
-0.04759248 0.75400001 -0.058168583 1.6406742e-38 284 284
-0.046270464 0.75400001 -0.058168583 1.6406742e-38 285 284
-0.044948451 0.75400001 -0.058168583 1.6497861e-38 286 284
-0.04351072 0.75199997 -0.058014289 1.6590057e-38 287 284
-0.04219221 0.75199997 -0.058014289 1.6313827e-38 288 284
-0.040764999 0.75 -0.057859998 1.6313827e-38 289 284
-0.039449997 0.75 -0.057859998 1.6497492e-38 290 284
-0.038135 0.75 -0.057859998 1.6497492e-38 291 284
-0.036819998 0.75 -0.057859998 1.6680452e-38 292 284
-0.035505001 0.75 -0.057859998 1.6680452e-38 293 284
-0.034189999 0.75 -0.057859998 1.6496083e-38 294 284
-0.032962665 0.75199997 -0.058014289 1.6588278e-38 295 284
-0.031644158 0.75199997 -0.058014289 1.649718e-38 296 284
-0.030325651 0.75199997 -0.058014289 1.6404984e-38 297 284
-0.029007144 0.75199997 -0.058014289 1.594549e-38 298 284
-0.027688639 0.75199997 -0.058014289 1.6775251e-38 299 284
-0.02637013 0.75199997 -0.058014289 1.6497958e-38 300 284
-0.025051624 0.75199997 -0.058014289 1.4654045e-38 301 284
-0.023733119 0.75199997 -0.058014289 1.4295692e-38 302 284
-0.022414612 0.75199997 -0.058014289 1.7154116e-38 303 284
-0.021096105 0.75199997 -0.058014289 1.7878727e-38 304 284
-0.019830201 0.75400001 -0.058168583 1.6495793e-38 305 284
-0.018508185 0.75400001 -0.058168583 1.695782e-38 306 284
-0.017186172 0.75400001 -0.058168583 1.695782e-38 307 284
-0.01586416 0.75400001 -0.058168583 1.668231e-38 308 284
-0.014542146 0.75400001 -0.058168583 1.6590114e-38 309 284
-0.0013132467 0.74900001 -0.057782855 1.6773761e-38 319 284
0 0.74900001 -0.057782855 1.67741e-38 320 284
0.0013132467 0.74900001 -0.057782855 1.658935e-38 321 284
0.0026264933 0.74900001 -0.057782855 1.6589335e-38 322 284
0.0039397399 0.74900001 -0.057782855 1.6681531e-38 323 284
0.00526 0.75 -0.057859998 1.6590057e-38 324 284
0.006575 0.75 -0.057859998 1.6682252e-38 325 284
0.0079110395 0.75199997 -0.058014289 1.6957763e-38 326 284
0.0092540924 0.75400001 -0.058168583 1.6957763e-38 327 284
0.010576107 0.75400001 -0.058168583 1.695776e-38 328 284
0.01189812 0.75400001 -0.058168583 1.695776e-38 329 284
0.013220133 0.75400001 -0.058168583 1.6958116e-38 330 284
0.014503572 0.75199997 -0.058014289 1.6958116e-38 331 284
0.015822079 0.75199997 -0.058014289 1.695811e-38 332 284
0.017186172 0.75400001 -0.058168583 1.6681884e-38 333 284
0.018508185 0.75400001 -0.058168583 1.6681881e-38 334 284
0.019830201 0.75400001 -0.058168583 1.649749e-38 335 284
0.021152213 0.75400001 -0.058168583 1.6404941e-38 336 284
0.022474226 0.75400001 -0.058168583 1.6036517e-38 337 284
0.02379624 0.75400001 -0.058168583 1.594324e-38 338 284
0.025118252 0.75400001 -0.058168583 1.4468468e-38 339 284
0.026440267 0.75400001 -0.058168583 1.4281217e-38 340 284
0.027762281 0.75400001 -0.058168583 1.4281217e-38 341 284
0.029084291 0.75400001 -0.058168583 1.4094683e-38 342 284
0.030406307 0.75400001 -0.058168583 1.4002488e-38 343 284
0.03172832 0.75400001 -0.058168583 1.3727696e-38 344 284
0.033050332 0.75400001 -0.058168583 1.4004283e-38 345 284
0.034372345 0.75400001 -0.058168583 1.456033e-38 346 284
0.035694357 0.75400001 -0.058168583 1.4744722e-38 347 284
0.037016369 0.75400001 -0.058168583 1.5574828e-38 348 284
0.038338386 0.75400001 -0.058168583 1.5298243e-38 349 284
0.039660402 0.75400001 -0.058168583 1.5206398e-38 350 284
0.040982414 0.75400001 -0.058168583 1.5206398e-38 351 284
0.042360533 0.755 -0.058245733 1.5297514e-38 352 284
0.043684296 0.755 -0.058245733 1.5113482e-38 353 284
0.045008067 0.755 -0.058245733 1.4836529e-38 354 284
0.04633183 0.755 -0.058245733 1.4559582e-38 355 284
0.047655597 0.755 -0.058245733 1.4284427e-38 356 284
0.049109112 0.75700003 -0.058400027 1.4007482e-38 357 284
0.050436385 0.75700003 -0.058400027 1.3638702e-38 358 284
0.051900417 0.759 -0.058554318 1.3177724e-38 359 284
0.053371463 0.76099998 -0.058708608 1.3177727e-38 360 284
0.05470575 0.76099998 -0.058708608 1.2993335e-38 361 284
0.056040037 0.76099998 -0.058708608 1.2717118e-38 362 284
0.057449725 0.76200002 -0.058785759 1.2532727e-38 363 284
0.058785759 0.76200002 -0.058785759 1.2347981e-38 364 284
0.060121801 0.76200002 -0.058785759 1.1887005e-38 365 284
0.061457843 0.76200002 -0.058785759 1.1424247e-38 366 284
0.062958695 0.764 -0.058940053 1.0594846e-38 367 284
0.064298242 0.764 -0.058940053 9.1226226e-39 368 284
0.065809615 0.76599997 -0.059094343 8.6612843e-39 369 284
0.067240335 0.76700002 -0.059171494 9.9581846e-39 370 284
-0.10207205 0.76599997 -0.060437392 1.1243859e-38 244 285
-0.10072899 0.76599997 -0.060437392 1.0875437e-38 245 285
-0.099126451 0.764 -0.0602796 1.1152364e-38 246 285
