# .PCD v.7 - Point Cloud Data file format
FIELDS x y z rgb imX imY
SIZE 4 4 4 4 4 4
TYPE F F F F F F
COUNT 1 1 1 1 1 1
WIDTH 828
HEIGHT 1
VIEWPOINT 0 0 0 1 0 0 0
POINTS 828
DATA ascii
-0.088872954 0.704 -0.027155625 1.8524682e-38 248 262
-0.087638609 0.704 -0.027155625 1.8524682e-38 249 262
-0.086404264 0.704 -0.027155625 1.8433208e-38 250 262
-0.085169919 0.704 -0.027155625 1.8433208e-38 251 262
-0.083816342 0.70300001 -0.027117053 1.8525401e-38 252 262
-0.082583755 0.70300001 -0.027117053 1.8433205e-38 253 262
-0.081351154 0.70300001 -0.027117053 1.834101e-38 254 262
-0.079890631 0.70099998 -0.027039904 1.834101e-38 255 262
-0.078549333 0.69999999 -0.027001332 1.8340306e-38 256 262
-0.077321991 0.69999999 -0.027001332 1.8156275e-38 257 262
-0.075877249 0.69800001 -0.026924185 1.8063389e-38 258 262
-0.074546471 0.69700003 -0.026885614 1.7787162e-38 259 262
-0.073324397 0.69700003 -0.026885614 1.7603522e-38 260 262
-0.11567616 0.72500002 -0.029236834 1.2723325e-38 229 263
-0.114405 0.72500002 -0.029236834 1.2533834e-38 230 263
-0.11282174 0.72299999 -0.029156178 1.3179204e-38 231 263
-0.11139978 0.722 -0.029115854 1.3456474e-38 232 263
-0.11013387 0.722 -0.029115854 1.3548671e-38 233 263
-0.1085664 0.72000003 -0.029035201 1.4284787e-38 234 263
-0.10715496 0.71899998 -0.028994869 1.4561735e-38 235 263
-0.10545248 0.71600002 -0.028873893 1.474721e-38 236 263
-0.10390604 0.71399999 -0.028793238 1.5116353e-38 237 263
-0.10222284 0.71100003 -0.028672259 1.5669527e-38 238 263
-0.10055015 0.708 -0.02855128 1.6130504e-38 239 263
-0.099308796 0.708 -0.02855128 1.6682234e-38 240 263
-0.097928926 0.70700002 -0.028510952 1.6958819e-38 241 263
-0.096552551 0.70599997 -0.028470624 1.7418354e-38 242 263
-0.095314704 0.70599997 -0.028470624 1.7694581e-38 243 263
-0.093810342 0.704 -0.028389972 1.7694934e-38 244 263
-0.092575997 0.704 -0.028389972 1.7879684e-38 245 263
-0.0912119 0.70300001 -0.028349647 1.7971874e-38 246 263
-0.089979313 0.70300001 -0.028349647 1.806443e-38 247 263
-0.088746719 0.70300001 -0.028349647 1.8339938e-38 248 263
-0.087514125 0.70300001 -0.028349647 1.8432133e-38 249 263
-0.086036064 0.70099998 -0.028268991 1.8432133e-38 250 263
-0.084806979 0.70099998 -0.028268991 1.8339938e-38 251 263
-0.083458662 0.69999999 -0.028228667 1.8339941e-38 252 263
-0.082231328 0.69999999 -0.028228667 1.8432136e-38 253 263
-0.081004001 0.69999999 -0.028228667 1.8707641e-38 254 263
-0.079434767 0.69700003 -0.028107686 1.8800196e-38 255 263
-0.078212693 0.69700003 -0.028107686 1.8707644e-38 256 263
-0.077101074 0.69800001 -0.028148014 1.8615449e-38 257 263
-0.075768545 0.69700003 -0.028107686 1.8156275e-38 258 263
-0.074546471 0.69700003 -0.028107686 1.8063721e-38 259 263
-0.073324397 0.69700003 -0.028107686 1.7971894e-38 260 263
-0.072102323 0.69700003 -0.028107686 1.7787861e-38 261 263
-0.07057517 0.69400001 -0.027986705 1.787902e-38 262 263
0.060763516 0.722 -0.029115854 1.1892842e-38 368 263
0.062029421 0.722 -0.029115854 1.3183581e-38 369 263
0.06312 0.72000003 -0.029035201 1.4572317e-38 370 263
-0.11535706 0.72299999 -0.030423839 1.3368697e-38 229 264
-0.11408939 0.72299999 -0.030423839 1.2166134e-38 230 264
-0.1126657 0.722 -0.030381758 1.2811503e-38 231 264
-0.11139978 0.722 -0.030381758 1.3363563e-38 232 264
-0.1098288 0.72000003 -0.0302976 1.3363563e-38 233 264
-0.10841561 0.71899998 -0.030255521 1.3549025e-38 234 264
-0.1068569 0.71700001 -0.030171359 1.3733416e-38 235 264
-0.10545248 0.71600002 -0.03012928 1.4103277e-38 236 264
-0.10390604 0.71399999 -0.030045118 1.4564254e-38 237 264
-0.10222284 0.71100003 -0.029918881 1.5392214e-38 238 264
-0.10055015 0.708 -0.02979264 1.5853192e-38 239 264
-0.09902826 0.70599997 -0.029708479 1.6589308e-38 240 264
-0.097790405 0.70599997 -0.029708479 1.6866255e-38 241 264
-0.096552551 0.70599997 -0.029708479 1.7050649e-38 242 264
-0.095044687 0.704 -0.029624319 1.7326878e-38 243 264
-0.093810342 0.704 -0.029624319 1.7694581e-38 244 264
-0.092444502 0.70300001 -0.029582238 1.7787135e-38 245 264
-0.090952404 0.70099998 -0.029498078 1.7879684e-38 246 264
-0.089723319 0.70099998 -0.029498078 1.797188e-38 247 264
-0.088494234 0.70099998 -0.029498078 1.8247386e-38 248 264
-0.087265149 0.70099998 -0.029498078 1.8247386e-38 249 264
-0.08591333 0.69999999 -0.029455997 1.8247386e-38 250 264
-0.084685996 0.69999999 -0.029455997 1.8339941e-38 251 264
-0.083458662 0.69999999 -0.029455997 1.8247392e-38 252 264
-0.081996389 0.69800001 -0.029371841 1.8431783e-38 253 264
-0.080656841 0.69700003 -0.02932976 1.8523979e-38 254 264
-0.079320796 0.69599998 -0.029287677 1.870801e-38 255 264
-0.078100473 0.69599998 -0.029287677 1.8892391e-38 256 264
-0.076880157 0.69599998 -0.029287677 1.8800196e-38 257 264
-0.075659841 0.69599998 -0.029287677 1.8800193e-38 258 264
-0.074439511 0.69599998 -0.029287677 1.8707997e-38 259 264
-0.073008798 0.69400001 -0.029203519 1.8525048e-38 260 264
-0.071791984 0.69400001 -0.029203519 1.8432852e-38 261 264
-0.07057517 0.69400001 -0.029203519 1.843143e-38 262 264
-0.069258414 0.69300002 -0.029161438 1.8247039e-38 263 264
0.059497613 0.722 -0.030381758 1.0688171e-38 367 264
0.060763516 0.722 -0.030381758 9.9556637e-39 368 264
0.062029421 0.722 -0.030381758 1.1154207e-38 369 264
0.06312 0.72000003 -0.0302976 1.3281581e-38 370 264
0.064292975 0.71899998 -0.030255521 1.604745e-38 371 264
-0.11535706 0.72299999 -0.031691495 1.3461612e-38 229 265
-0.11408939 0.72299999 -0.031691495 1.1796999e-38 230 265
-0.1126657 0.722 -0.031647664 1.2718954e-38 231 265
-0.1110912 0.72000003 -0.03156 1.3271008e-38 232 265
-0.1098288 0.72000003 -0.03156 1.3363563e-38 233 265
-0.10841561 0.71899998 -0.031516165 1.3180595e-38 234 265
-0.1068569 0.71700001 -0.031428497 1.3180595e-38 235 265
-0.10545248 0.71600002 -0.031384666 1.4009636e-38 236 265
-0.10376051 0.713 -0.031253166 1.4562451e-38 237 265
-0.10207906 0.70999998 -0.031121666 1.52993e-38 238 265
-0.10040814 0.70700002 -0.030990168 1.5760276e-38 239 265
-0.09902826 0.70599997 -0.030946331 1.6312726e-38 240 265
-0.097513385 0.704 -0.030858666 1.6773704e-38 241 265
-0.096279033 0.704 -0.030858666 1.714176e-38 242 265
-0.095044687 0.704 -0.030858666 1.732651e-38 243 265
-0.093677096 0.70300001 -0.030814834 1.7511256e-38 244 265
-0.092181489 0.70099998 -0.030727165 1.7511256e-38 245 265
-0.090822659 0.69999999 -0.030683333 1.7787117e-38 246 265
-0.089595325 0.69999999 -0.030683333 1.7879313e-38 247 265
-0.087989278 0.69700003 -0.030551834 1.8063344e-38 248 265
-0.086767212 0.69700003 -0.030551834 1.8063344e-38 249 265
-0.085667863 0.69800001 -0.030595668 1.8247375e-38 250 265
-0.084444039 0.69800001 -0.030595668 1.8247375e-38 251 265
-0.083220214 0.69800001 -0.030595668 1.8155545e-38 252 265
-0.081761435 0.69599998 -0.030507999 1.8432133e-38 253 265
-0.080541112 0.69599998 -0.030507999 1.8707644e-38 254 265
-0.079092868 0.69400001 -0.030420333 1.8892035e-38 255 265
-0.077876054 0.69400001 -0.030420333 1.8892391e-38 256 265
-0.07665924 0.69400001 -0.030420333 1.8892391e-38 257 265
-0.075442426 0.69400001 -0.030420333 1.8800915e-38 258 265
-0.074225612 0.69400001 -0.030420333 1.870836e-38 259 265
-0.073008798 0.69400001 -0.030420333 1.8800912e-38 260 265
-0.07168854 0.69300002 -0.0303765 1.8708716e-38 261 265
-0.070473477 0.69300002 -0.0303765 1.8432852e-38 262 265
-0.069258414 0.69300002 -0.0303765 1.8340657e-38 263 265
-0.067454241 0.68699998 -0.030113498 1.8064443e-38 264 265
-0.066249698 0.68699998 -0.030113498 1.8064443e-38 265 265
-0.064950474 0.68599999 -0.030069664 1.7604213e-38 266 265
-0.063747689 0.68599999 -0.030069664 1.7788244e-38 267 265
-0.06227139 0.68300003 -0.029938167 1.7971601e-38 268 265
-0.061073858 0.68300003 -0.029938167 1.8155992e-38 269 265
-0.059876334 0.68300003 -0.029938167 1.8064908e-38 270 265
-0.05867881 0.68300003 -0.029938167 1.8710277e-38 271 265
-0.057481278 0.68300003 -0.029938167 1.8253273e-38 272 265
-0.056201346 0.68199998 -0.029894331 1.8345469e-38 273 265
-0.055005573 0.68199998 -0.029894331 1.8531678e-38 274 265
0.058231708 0.722 -0.031647664 1.216221e-38 366 265
0.059332799 0.72000003 -0.03156 9.6729279e-39 367 265
0.060595199 0.72000003 -0.03156 9.0362255e-39 368 265
0.062029421 0.722 -0.031647664 1.0050736e-38 369 265
0.06312 0.72000003 -0.03156 1.208124e-38 370 265
0.064292975 0.71899998 -0.031516165 1.4939305e-38 371 265
0.065553628 0.71899998 -0.031516165 1.7244565e-38 372 265
-0.11535706 0.72299999 -0.032959159 1.3646004e-38 229 266
-0.11408939 0.72299999 -0.032959159 1.1704074e-38 230 266
-0.1126657 0.722 -0.032913569 1.262639e-38 231 266
-0.1110912 0.72000003 -0.0328224 1.3088046e-38 232 266
-0.1098288 0.72000003 -0.0328224 1.3180601e-38 233 266
-0.10811404 0.71700001 -0.032685637 1.3180598e-38 234 266
-0.10670786 0.71600002 -0.032640055 1.3272794e-38 235 266
-0.10515791 0.71399999 -0.032548878 1.3548671e-38 236 266
-0.10346945 0.71100003 -0.032412119 1.4101844e-38 237 266
-0.10179152 0.708 -0.03227536 1.483869e-38 238 266
-0.10026611 0.70599997 -0.032184184 1.5299668e-38 239 266
-0.09902826 0.70599997 -0.032184184 1.6127984e-38 240 266
-0.097513385 0.704 -0.032093015 1.6773353e-38 241 266
-0.096142277 0.70300001 -0.032047424 1.6958095e-38 242 266
-0.094909683 0.70300001 -0.032047424 1.7050649e-38 243 266
-0.093277335 0.69999999 -0.031910665 1.7051363e-38 244 266
-0.091787003 0.69800001 -0.031819493 1.714356e-38 245 266
-0.090433426 0.69700003 -0.03177391 1.7511619e-38 246 266
-0.089211352 0.69700003 -0.03177391 1.7604173e-38 247 266
-0.087863036 0.69599998 -0.031728316 1.7696366e-38 248 266
-0.08664272 0.69599998 -0.031728316 1.7696366e-38 249 266
-0.085176937 0.69400001 -0.031637147 1.7971874e-38 250 266
-0.083960123 0.69400001 -0.031637147 1.7971874e-38 251 266
-0.082981758 0.69599998 -0.031728316 1.8064074e-38 252 266
-0.081526496 0.69400001 -0.031637147 1.815627e-38 253 266
-0.080309682 0.69400001 -0.031637147 1.8523979e-38 254 266
-0.079092868 0.69400001 -0.031637147 1.870801e-38 255 266
-0.077876054 0.69400001 -0.031637147 1.870801e-38 256 266
-0.076548778 0.69300002 -0.031591557 1.8892761e-38 257 266
-0.075333714 0.69300002 -0.031591557 1.8800912e-38 258 266
-0.074118659 0.69300002 -0.031591557 1.8800912e-38 259 266
-0.072903603 0.69300002 -0.031591557 1.8892742e-38 260 266
-0.07168854 0.69300002 -0.031591557 1.8892742e-38 261 266
-0.070473477 0.69300002 -0.031591557 1.8801265e-38 262 266
-0.068658777 0.68699998 -0.031318039 1.8801265e-38 263 266
-0.067454241 0.68699998 -0.031318039 1.8708716e-38 264 266
-0.066153266 0.68599999 -0.031272452 1.8708716e-38 265 266
-0.064950474 0.68599999 -0.031272452 1.8708013e-38 266 266
-0.063747689 0.68599999 -0.031272452 1.8154839e-38 267 266
-0.06227139 0.68300003 -0.031135695 1.8154489e-38 268 266
-0.061073858 0.68300003 -0.031135695 1.8062293e-38 269 266
-0.059876334 0.68300003 -0.031135695 1.7602413e-38 270 266
-0.05867881 0.68300003 -0.031135695 1.7970837e-38 271 266
-0.05739712 0.68199998 -0.031090107 1.7604974e-38 272 266
-0.056201346 0.68199998 -0.031090107 1.8158146e-38 273 266
-0.055005573 0.68199998 -0.031090107 1.8344021e-38 274 266
-0.053809796 0.68199998 -0.031090107 1.8897195e-38 275 266
-0.052614026 0.68199998 -0.031090107 1.9080895e-38 276 266
0.056808002 0.72000003 -0.0328224 1.1609402e-38 365 266
0.058070403 0.72000003 -0.0328224 9.0311738e-39 366 266
0.059332799 0.72000003 -0.0328224 7.4634894e-39 367 266
0.060595199 0.72000003 -0.0328224 6.6398608e-39 368 266
0.062029421 0.722 -0.032913569 8.2071879e-39 369 266
0.06312 0.72000003 -0.0328224 1.005221e-38 370 266
0.064292975 0.71899998 -0.032776814 1.3279057e-38 371 266
0.065553628 0.71899998 -0.032776814 1.7243119e-38 372 266
0.066907197 0.72000003 -0.0328224 1.8072881e-38 373 266
-0.11535706 0.72299999 -0.03422682 1.4383219e-38 229 267
-0.11408939 0.72299999 -0.03422682 1.234874e-38 230 267
-0.1126657 0.722 -0.034179479 1.2994109e-38 231 267
-0.1110912 0.72000003 -0.034084801 1.3455402e-38 232 267
-0.10937118 0.71700001 -0.033942781 1.3271011e-38 233 267
-0.10796325 0.71600002 -0.03389544 1.3272794e-38 234 267
-0.1064098 0.71399999 -0.033800758 1.3272794e-38 235 267
-0.10501064 0.713 -0.033753417 1.3731967e-38 236 267
-0.10303288 0.708 -0.033516716 1.3916718e-38 237 267
-0.10150397 0.70599997 -0.033422034 1.4194743e-38 238 267
-0.10026611 0.70599997 -0.033422034 1.4747917e-38 239 267
-0.09874773 0.704 -0.03332736 1.5760276e-38 240 267
-0.097374871 0.70300001 -0.033280019 1.5944669e-38 241 267
-0.095868751 0.70099998 -0.03318534 1.6589664e-38 242 267
-0.094504662 0.69999999 -0.033137999 1.6866253e-38 243 267
-0.093010828 0.69800001 -0.033043321 1.7142469e-38 244 267
-0.0916555 0.69700003 -0.03299598 1.7234665e-38 245 267
-0.090303674 0.69599998 -0.032948639 1.7602725e-38 246 267
-0.089083351 0.69599998 -0.032948639 1.7602725e-38 247 267
-0.087610558 0.69400001 -0.032853961 1.7970429e-38 248 267
-0.086393744 0.69400001 -0.032853961 1.8062625e-38 249 267
-0.085176937 0.69400001 -0.032853961 1.8154826e-38 250 267
-0.083960123 0.69400001 -0.032853961 1.8247022e-38 251 267
-0.082743309 0.69400001 -0.032853961 1.8247022e-38 252 267
-0.081526496 0.69400001 -0.032853961 1.8339219e-38 253 267
-0.080193959 0.69300002 -0.03280662 1.8522883e-38 254 267
-0.078978904 0.69300002 -0.03280662 1.8707276e-38 255 267
-0.077539407 0.69099998 -0.032711938 1.8707278e-38 256 267
-0.076327853 0.69099998 -0.032711938 1.8983505e-38 257 267
-0.075116299 0.69099998 -0.032711938 1.8892389e-38 258 267
-0.073904753 0.69099998 -0.032711938 1.8892389e-38 259 267
-0.07227239 0.68699998 -0.032522578 1.8800559e-38 260 267
-0.071067855 0.68699998 -0.032522578 1.8800559e-38 261 267
-0.069863312 0.68699998 -0.032522578 1.870909e-38 262 267
-0.068658777 0.68699998 -0.032522578 1.870909e-38 263 267
-0.067454241 0.68699998 -0.032522578 1.8617614e-38 264 267
-0.066153266 0.68599999 -0.032475237 1.8617614e-38 265 267
-0.064950474 0.68599999 -0.032475237 1.8617969e-38 266 267
-0.063747689 0.68599999 -0.032475237 1.8433578e-38 267 267
-0.06227139 0.68300003 -0.032333218 1.8433578e-38 268 267
-0.061073858 0.68300003 -0.032333218 1.8341383e-38 269 267
-0.059876334 0.68300003 -0.032333218 1.8708016e-38 270 267
-0.05867881 0.68300003 -0.032333218 1.8523626e-38 271 267
-0.05739712 0.68199998 -0.032285877 1.834105e-38 272 267
-0.056201346 0.68199998 -0.032285877 1.8156301e-38 273 267
-0.055005573 0.68199998 -0.032285877 1.7879742e-38 274 267
-0.053652 0.68000001 -0.032191198 1.7971937e-38 275 267
-0.052459732 0.68000001 -0.032191198 1.7787568e-38 276 267
-0.051267464 0.68000001 -0.032191198 1.8248188e-38 277 267
0.053981625 0.71600002 -0.03389544 1.3270365e-38 363 267
0.055237014 0.71600002 -0.03389544 1.2991944e-38 364 267
0.056571297 0.71700001 -0.033942781 9.2119245e-39 365 267
0.057989739 0.71899998 -0.03403746 4.153785e-39 366 267
0.059250388 0.71899998 -0.03403746 5.1679355e-39 367 267
0.060511041 0.71899998 -0.03403746 6.5404751e-39 368 267
0.061857603 0.72000003 -0.034084801 6.7248678e-39 369 267
0.063032329 0.71899998 -0.03403746 7.5632815e-39 370 267
0.064292975 0.71899998 -0.03403746 1.1067076e-38 371 267
0.065553628 0.71899998 -0.03403746 1.6506284e-38 372 267
0.066907197 0.72000003 -0.034084801 1.807325e-38 373 267
-0.11535706 0.72299999 -0.035494477 1.4844923e-38 229 268
-0.11408939 0.72299999 -0.035494477 1.2626405e-38 230 268
-0.11188546 0.71700001 -0.035199918 1.2718601e-38 231 268
-0.11062831 0.71700001 -0.035199918 1.3271011e-38 232 268
-0.10921864 0.71600002 -0.035150826 1.3363207e-38 233 268
-0.10766167 0.71399999 -0.035052639 1.3089121e-38 234 268
-0.10626076 0.713 -0.035003547 1.3181317e-38 235 268
-0.10471608 0.71100003 -0.034905359 1.3549022e-38 236 268
-0.10288735 0.70700002 -0.034708988 1.3641576e-38 237 268
-0.10150397 0.70599997 -0.034659892 1.3825967e-38 238 268
-0.10026611 0.70599997 -0.034659892 1.4194391e-38 239 268
-0.09874773 0.704 -0.034561705 1.4839749e-38 240 268
-0.09695933 0.69999999 -0.034365334 1.5300369e-38 241 268
-0.095731996 0.69999999 -0.034365334 1.6036492e-38 242 268
-0.094504662 0.69999999 -0.034365334 1.6405274e-38 243 268
-0.093010828 0.69800001 -0.034267146 1.7049921e-38 244 268
-0.09152399 0.69599998 -0.034168959 1.7049921e-38 245 268
-0.090044186 0.69400001 -0.034070771 1.7234315e-38 246 268
-0.088827372 0.69400001 -0.034070771 1.732651e-38 247 268
-0.087610558 0.69400001 -0.034070771 1.7234678e-38 248 268
-0.086393744 0.69400001 -0.034070771 1.741907e-38 249 268
-0.085054204 0.69300002 -0.034021679 1.7786414e-38 250 268
-0.083839141 0.69300002 -0.034021679 1.8062641e-38 251 268
-0.082624078 0.69300002 -0.034021679 1.8062641e-38 252 268
-0.081174068 0.69099998 -0.033923492 1.8154836e-38 253 268
-0.079962514 0.69099998 -0.033923492 1.8155189e-38 254 268
-0.078750968 0.69099998 -0.033923492 1.8339941e-38 255 268
-0.077539407 0.69099998 -0.033923492 1.8339941e-38 256 268
-0.075996481 0.68800002 -0.033776212 1.8432136e-38 257 268
-0.074681476 0.68699998 -0.033727121 1.8524335e-38 258 268
-0.073476933 0.68699998 -0.033727121 1.8708366e-38 259 268
-0.072167195 0.68599999 -0.033678025 1.8433584e-38 260 268
-0.070964411 0.68599999 -0.033678025 1.8433584e-38 261 268
-0.069761619 0.68599999 -0.033678025 1.861726e-38 262 268
-0.068558842 0.68599999 -0.033678025 1.861726e-38 263 268
-0.06735605 0.68599999 -0.033678025 1.8801642e-38 264 268
-0.0659604 0.68400002 -0.033579841 1.8709446e-38 265 268
-0.064761117 0.68400002 -0.033579841 1.8801995e-38 266 268
-0.063468911 0.68300003 -0.033530746 1.8709798e-38 267 268
-0.06227139 0.68300003 -0.033530746 1.8984584e-38 268 268
-0.061073858 0.68300003 -0.033530746 1.8984584e-38 269 268
-0.059876334 0.68300003 -0.033530746 1.8983508e-38 270 268
-0.058592889 0.68199998 -0.03348165 1.8983508e-38 271 268
-0.05739712 0.68199998 -0.03348165 1.8524329e-38 272 268
-0.056201346 0.68199998 -0.03348165 1.8432133e-38 273 268
-0.055005573 0.68199998 -0.03348165 1.8248094e-38 274 268
-0.053652 0.68000001 -0.033383466 1.815554e-38 275 268
-0.052382588 0.67900002 -0.033334374 1.8155192e-38 276 268
-0.051116679 0.67799997 -0.033285279 1.8247389e-38 277 268
-0.049927916 0.67799997 -0.033285279 1.7972641e-38 278 268
-0.048739154 0.67799997 -0.033285279 1.8249229e-38 279 268
-0.045951359 0.67199999 -0.03299072 1.8342186e-38 281 268
-0.044773117 0.67199999 -0.03299072 1.8710266e-38 282 268
0.052726239 0.71600002 -0.035150826 1.2625349e-38 362 268
0.053981625 0.71600002 -0.035150826 1.2717544e-38 363 268
0.055237014 0.71600002 -0.035150826 1.2807181e-38 364 268
0.056492399 0.71600002 -0.035150826 1.0225704e-38 365 268
0.057828441 0.71700001 -0.035199918 5.9901418e-39 366 268
0.059085581 0.71700001 -0.035199918 7.2808806e-39 367 268
0.060511041 0.71899998 -0.035298105 6.6366238e-39 368 268
0.061857603 0.72000003 -0.035347197 7.0972432e-39 369 268
0.063032329 0.71899998 -0.035298105 6.913596e-39 370 268
0.064292975 0.71899998 -0.035298105 8.665313e-39 371 268
0.065553628 0.71899998 -0.035298105 1.3467434e-38 372 268
0.066907197 0.72000003 -0.035347197 1.6694281e-38 373 268
-0.11408939 0.72299999 -0.036762137 1.2996261e-38 230 269
-0.11188546 0.71700001 -0.036457058 1.2535283e-38 231 269
-0.11062831 0.71700001 -0.036457058 1.3362488e-38 232 269
-0.10891356 0.71399999 -0.036304519 1.3362488e-38 233 269
-0.10720932 0.71100003 -0.036151983 1.3180248e-38 234 269
-0.1059627 0.71100003 -0.036151983 1.3272443e-38 235 269
-0.10456879 0.70999998 -0.036101133 1.3548655e-38 236 269
-0.10274182 0.70599997 -0.035897743 1.364085e-38 237 269
-0.10150397 0.70599997 -0.035897743 1.3641206e-38 238 269
-0.099982075 0.704 -0.035796054 1.3825239e-38 239 269
-0.098607466 0.70300001 -0.035745207 1.4102181e-38 240 269
-0.09695933 0.69999999 -0.035592664 1.4286573e-38 241 269
-0.095458478 0.69800001 -0.035490975 1.5391122e-38 242 269
-0.094099648 0.69700003 -0.035440128 1.5944295e-38 243 269
-0.092744313 0.69599998 -0.035389278 1.6496391e-38 244 269
-0.09152399 0.69599998 -0.035389278 1.6681141e-38 245 269
-0.090044186 0.69400001 -0.035287585 1.7233593e-38 246 269
-0.088827372 0.69400001 -0.035287585 1.7141397e-38 247 269
-0.087610558 0.69400001 -0.035287585 1.7234312e-38 248 269
-0.086269259 0.69300002 -0.035236739 1.7326508e-38 249 269
-0.085054204 0.69300002 -0.035236739 1.7419061e-38 250 269
-0.083839141 0.69300002 -0.035236739 1.7511256e-38 251 269
-0.082624078 0.69300002 -0.035236739 1.7787483e-38 252 269
-0.081174068 0.69099998 -0.035135046 1.7879679e-38 253 269
-0.079962514 0.69099998 -0.035135046 1.8154824e-38 254 269
-0.078295097 0.68699998 -0.034931656 1.8154824e-38 255 269
-0.077090554 0.68699998 -0.034931656 1.8155177e-38 256 269
-0.075996481 0.68800002 -0.03498251 1.8339568e-38 257 269
-0.074681476 0.68699998 -0.034931656 1.8339935e-38 258 269
-0.073156074 0.68400002 -0.03477912 1.8339935e-38 259 269
-0.071851604 0.68300003 -0.034728274 1.8341383e-38 260 269
-0.070654072 0.68300003 -0.034728274 1.8341383e-38 261 269
-0.069456547 0.68300003 -0.034728274 1.8433584e-38 262 269
-0.068259016 0.68300003 -0.034728274 1.8617616e-38 263 269
-0.067061491 0.68300003 -0.034728274 1.8801292e-38 264 269
-0.065863967 0.68300003 -0.034728274 1.8801292e-38 265 269
-0.064666435 0.68300003 -0.034728274 1.8709815e-38 266 269
-0.063468911 0.68300003 -0.034728274 1.880201e-38 267 269
-0.06227139 0.68300003 -0.034728274 1.8709812e-38 268 269
-0.060984433 0.68199998 -0.034677424 1.8709812e-38 269 269
-0.059788663 0.68199998 -0.034677424 1.8617246e-38 270 269
-0.058421064 0.68000001 -0.034575731 1.8617246e-38 271 269
-0.057228796 0.68000001 -0.034575731 1.86176e-38 272 269
-0.056036532 0.68000001 -0.034575731 1.8525404e-38 273 269
-0.054844268 0.68000001 -0.034575731 1.8525048e-38 274 269
-0.053652 0.68000001 -0.034575731 1.8432852e-38 275 269
-0.052305438 0.67799997 -0.034474038 1.8524335e-38 276 269
-0.051116679 0.67799997 -0.034474038 1.8800561e-38 277 269
-0.049927916 0.67799997 -0.034474038 1.8433234e-38 278 269
-0.048595384 0.676 -0.034372345 1.8340679e-38 279 269
-0.047269866 0.67400002 -0.034270655 1.8431445e-38 280 269
-0.045951359 0.67199999 -0.034168959 1.8155219e-38 281 269
-0.044773117 0.67199999 -0.034168959 1.806267e-38 282 269
-0.043530006 0.671 -0.034118112 1.806267e-38 283 269
-0.042353518 0.671 -0.034118112 1.8063392e-38 284 269
0.051470853 0.71600002 -0.036406212 1.373965e-38 361 269
0.052726239 0.71600002 -0.036406212 1.2257996e-38 362 269
0.053981625 0.71600002 -0.036406212 1.2626778e-38 363 269
0.055237014 0.71600002 -0.036406212 1.3084491e-38 364 269
0.056492399 0.71600002 -0.036406212 1.1885948e-38 365 269
0.057828441 0.71700001 -0.036457058 1.0782142e-38 366 269
0.059085581 0.71700001 -0.036457058 1.1150926e-38 367 269
0.060342718 0.71700001 -0.036457058 1.0692134e-38 368 269
0.061771683 0.71899998 -0.036558751 1.078433e-38 369 269
0.063032329 0.71899998 -0.036558751 8.0177758e-39 370 269
0.064292975 0.71899998 -0.036558751 5.3441025e-39 371 269
0.065553628 0.71899998 -0.036558751 9.1381854e-39 372 269
0.066907197 0.72000003 -0.036609601 1.4024555e-38 373 269
-0.10970256 0.71100003 -0.037398599 1.3638364e-38 232 270
-0.10845594 0.71100003 -0.037398599 1.3454333e-38 233 270
-0.10720932 0.71100003 -0.037398599 1.3363207e-38 234 270
-0.1059627 0.71100003 -0.037398599 1.3363207e-38 235 270
-0.10456879 0.70999998 -0.037345998 1.3456462e-38 236 270
-0.10274182 0.70599997 -0.037135597 1.3548657e-38 237 270
-0.10150397 0.70599997 -0.037135597 1.3640854e-38 238 270
-0.099982075 0.704 -0.037030395 1.3824886e-38 239 270
-0.098607466 0.70300001 -0.036977798 1.3916718e-38 240 270
-0.09695933 0.69999999 -0.036819998 1.3824521e-38 241 270
-0.095458478 0.69800001 -0.0367148 1.4101463e-38 242 270
-0.094099648 0.69700003 -0.036662199 1.4930863e-38 243 270
-0.092744313 0.69599998 -0.036609598 1.5759908e-38 244 270
-0.09152399 0.69599998 -0.036609598 1.6220886e-38 245 270
-0.090044186 0.69400001 -0.036504399 1.6681141e-38 246 270
-0.088827372 0.69400001 -0.036504399 1.6681141e-38 247 270
-0.087484315 0.69300002 -0.036451802 1.686625e-38 248 270
-0.086020276 0.69099998 -0.036346599 1.7051e-38 249 270
-0.084685996 0.69 -0.036293998 1.7050997e-38 250 270
-0.083476201 0.69 -0.036293998 1.7327225e-38 251 270
-0.082266398 0.69 -0.036293998 1.7511256e-38 252 270
-0.080821648 0.68800002 -0.0361888 1.7695287e-38 253 270
-0.079499632 0.68699998 -0.036136195 1.7970432e-38 254 270
-0.078295097 0.68699998 -0.036136195 1.8062628e-38 255 270
-0.076978341 0.68599999 -0.036083598 1.8062625e-38 256 270
-0.075775556 0.68599999 -0.036083598 1.8154821e-38 257 270
-0.074355356 0.68400002 -0.035978399 1.8155542e-38 258 270
-0.073049128 0.68300003 -0.035925802 1.8155542e-38 259 270
-0.071851604 0.68300003 -0.035925802 1.8157344e-38 260 270
-0.070654072 0.68300003 -0.035925802 1.824954e-38 261 270
-0.069456547 0.68300003 -0.035925802 1.8432499e-38 262 270
-0.068259016 0.68300003 -0.035925802 1.8525054e-38 263 270
-0.0669633 0.68199998 -0.035873197 1.870801e-38 264 270
-0.065767527 0.68199998 -0.035873197 1.8800206e-38 265 270
-0.064571753 0.68199998 -0.035873197 1.8616893e-38 266 270
-0.063375987 0.68199998 -0.035873197 1.870909e-38 267 270
-0.062180214 0.68199998 -0.035873197 1.8617969e-38 268 270
-0.0608056 0.68000001 -0.035767999 1.8617969e-38 269 270
-0.059613332 0.68000001 -0.035767999 1.8709795e-38 270 270
-0.058335152 0.67900002 -0.035715401 1.8709795e-38 271 270
-0.057060476 0.67799997 -0.0356628 1.8709795e-38 272 270
-0.055871718 0.67799997 -0.0356628 1.8709795e-38 273 270
-0.054763615 0.67900002 -0.035715401 1.86176e-38 274 270
-0.053573098 0.67900002 -0.035715401 1.86176e-38 275 270
-0.052305438 0.67799997 -0.0356628 1.8800915e-38 276 270
-0.051116679 0.67799997 -0.0356628 1.8800915e-38 277 270
-0.049780637 0.676 -0.035557602 1.8617244e-38 278 270
-0.048595384 0.676 -0.035557602 1.8617244e-38 279 270
-0.047269866 0.67400002 -0.035452399 1.8525048e-38 280 270
-0.045951359 0.67199999 -0.035347197 1.8525048e-38 281 270
-0.044773117 0.67199999 -0.035347197 1.8340654e-38 282 270
-0.043530006 0.671 -0.0352946 1.8156623e-38 283 270
-0.042353518 0.671 -0.0352946 1.8156976e-38 284 270
-0.041177034 0.671 -0.0352946 1.8064779e-38 285 270
0.010477919 0.66399997 -0.0349264 1.8344765e-38 329 270
0.011642133 0.66399997 -0.0349264 1.8253289e-38 330 270
0.012806346 0.66399997 -0.0349264 1.8068899e-38 331 270
0.014012639 0.66600001 -0.035031598 1.8160368e-38 332 270
0.01518036 0.66600001 -0.035031598 1.8160368e-38 333 270
0.016348081 0.66600001 -0.035031598 1.8252198e-38 334 270
0.051470853 0.71600002 -0.037661601 1.4381054e-38 361 270
0.052726239 0.71600002 -0.037661601 1.373168e-38 362 270
0.053981625 0.71600002 -0.037661601 1.3639125e-38 363 270
0.055237014 0.71600002 -0.037661601 1.3913902e-38 364 270
0.056492399 0.71600002 -0.037661601 1.3361087e-38 365 270
0.057747785 0.71600002 -0.037661601 1.2349116e-38 366 270
0.059003171 0.71600002 -0.037661601 1.2902289e-38 367 270
0.060342718 0.71700001 -0.037714198 1.2534245e-38 368 270
0.061599858 0.71700001 -0.037714198 1.2073627e-38 369 270
0.06312 0.72000003 -0.037871998 9.4014109e-39 370 270
0.064382397 0.72000003 -0.037871998 6.0823682e-39 371 270
0.065644801 0.72000003 -0.037871998 4.625256e-39 372 270
-0.10970256 0.71100003 -0.038645219 1.327174e-38 232 271
-0.10845594 0.71100003 -0.038645219 1.3087349e-38 233 271
-0.10705853 0.70999998 -0.038590867 1.3271014e-38 234 271
-0.10581366 0.70999998 -0.038590867 1.3271014e-38 235 271
-0.10456879 0.70999998 -0.038590867 1.3180245e-38 236 271
-0.10274182 0.70599997 -0.038373452 1.327244e-38 237 271
-0.10150397 0.70599997 -0.038373452 1.3548301e-38 238 271
-0.099982075 0.704 -0.038264744 1.3640857e-38 239 271
-0.098607466 0.70300001 -0.038210396 1.3548307e-38 240 271
-0.09695933 0.69999999 -0.038047329 1.3548307e-38 241 271
-0.095731996 0.69999999 -0.038047329 1.3456462e-38 242 271
-0.094234653 0.69800001 -0.037938625 1.3824886e-38 243 271
-0.092744313 0.69599998 -0.037829921 1.4654634e-38 244 271
-0.09152399 0.69599998 -0.037829921 1.5392199e-38 245 271
-0.090044186 0.69400001 -0.037721213 1.6128685e-38 246 271
-0.088699378 0.69300002 -0.037666857 1.622088e-38 247 271
-0.087231837 0.69099998 -0.03755815 1.6314151e-38 248 271
-0.085895799 0.69 -0.037503798 1.6498543e-38 249 271
-0.084440529 0.68800002 -0.037395094 1.6866606e-38 250 271
-0.083234236 0.68800002 -0.037395094 1.7050997e-38 251 271
-0.081908718 0.68699998 -0.037340738 1.7235034e-38 252 271
-0.080704175 0.68699998 -0.037340738 1.7327231e-38 253 271
-0.079383917 0.68599999 -0.037286382 1.7418352e-38 254 271
-0.077953197 0.68400002 -0.037177678 1.7510906e-38 255 271
-0.076753922 0.68400002 -0.037177678 1.75109e-38 256 271
-0.075554639 0.68400002 -0.037177678 1.769529e-38 257 271
-0.074246652 0.68300003 -0.037123326 1.7604524e-38 258 271
-0.073049128 0.68300003 -0.037123326 1.7696719e-38 259 271
-0.071746394 0.68199998 -0.037068974 1.8156626e-38 260 271
-0.070550621 0.68199998 -0.037068974 1.806443e-38 261 271
-0.069354847 0.68199998 -0.037068974 1.8156272e-38 262 271
-0.068159081 0.68199998 -0.037068974 1.8340304e-38 263 271
-0.0669633 0.68199998 -0.037068974 1.8340306e-38 264 271
-0.065574668 0.68000001 -0.036960267 1.8432502e-38 265 271
-0.064382397 0.68000001 -0.036960267 1.8432499e-38 266 271
-0.063097201 0.67900002 -0.036905911 1.8432499e-38 267 271
-0.061906695 0.67900002 -0.036905911 1.8341739e-38 268 271
-0.060716182 0.67900002 -0.036905911 1.8433934e-38 269 271
-0.059437994 0.67799997 -0.036851559 1.8617969e-38 270 271
-0.058077414 0.676 -0.036742851 1.8617969e-38 271 271
-0.056892153 0.676 -0.036742851 1.8434298e-38 272 271
-0.055706903 0.676 -0.036742851 1.8434298e-38 273 271
-0.054682959 0.67799997 -0.036851559 1.8617969e-38 274 271
-0.053494196 0.67799997 -0.036851559 1.8433578e-38 275 271
-0.052151144 0.676 -0.036742851 1.8617249e-38 276 271
-0.050965894 0.676 -0.036742851 1.8525054e-38 277 271
-0.049780637 0.676 -0.036742851 1.8525054e-38 278 271
-0.048523501 0.67500001 -0.036688499 1.8617249e-38 279 271
-0.047269866 0.67400002 -0.036634147 1.8433578e-38 280 271
-0.045951359 0.67199999 -0.036525436 1.8433578e-38 281 271
-0.044773117 0.67199999 -0.036525436 1.8709798e-38 282 271
-0.043530006 0.671 -0.036471087 1.8709798e-38 283 271
-0.042290401 0.67000002 -0.036416732 1.8893463e-38 284 271
-0.041115668 0.67000002 -0.036416732 1.8893463e-38 285 271
-0.039940935 0.67000002 -0.036416732 1.8801642e-38 286 271
-0.038766202 0.67000002 -0.036416732 1.8709446e-38 287 271
-0.037647571 0.671 -0.036471087 1.8617263e-38 288 271
-0.036416732 0.67000002 -0.036416732 1.8341035e-38 289 271
-0.035241999 0.67000002 -0.036416732 1.8339237e-38 290 271
-0.034067266 0.67000002 -0.036416732 1.8339237e-38 291 271
-0.032794341 0.66799998 -0.036308024 1.806302e-38 292 271
-0.031623118 0.66799998 -0.036308024 1.7970823e-38 293 271
-0.030406304 0.667 -0.036253672 1.7971193e-38 294 271
-0.029192999 0.66600001 -0.03619932 1.7971193e-38 295 271
-0.027941117 0.66399997 -0.036090612 1.7695327e-38 296 271
-0.026776904 0.66399997 -0.036090612 1.7787881e-38 297 271
-0.01050948 0.66600001 -0.03619932 1.8344374e-38 311 271
-0.0093417596 0.66600001 -0.03619932 1.7978113e-38 312 271
-0.0081740404 0.66600001 -0.03619932 1.7885917e-38 313 271
-0.0070063197 0.66600001 -0.03619932 1.7793368e-38 314 271
0.0093137063 0.66399997 -0.036090612 1.8066696e-38 328 271
0.010477919 0.66399997 -0.036090612 1.8066696e-38 329 271
0.011642133 0.66399997 -0.036090612 1.7790102e-38 330 271
0.012806346 0.66399997 -0.036090612 1.7697906e-38 331 271
0.014012639 0.66600001 -0.03619932 1.8065597e-38 332 271
0.01518036 0.66600001 -0.03619932 1.7881206e-38 333 271
0.016348081 0.66600001 -0.03619932 1.7605327e-38 334 271
0.017515799 0.66600001 -0.03619932 1.751313e-38 335 271
0.018711573 0.667 -0.036253672 1.769679e-38 336 271
0.044632856 0.68800002 -0.037395094 1.7608617e-38 357 271
0.045839146 0.68800002 -0.037395094 1.8437678e-38 358 271
0.051470853 0.71600002 -0.038916986 1.4471436e-38 361 271
0.052578956 0.71399999 -0.038808275 1.4285927e-38 362 271
0.053830836 0.71399999 -0.038808275 1.4101535e-38 363 271
0.05508272 0.71399999 -0.038808275 1.4284495e-38 364 271
0.056492399 0.71600002 -0.038916986 1.308631e-38 365 271
0.057747785 0.71600002 -0.038916986 1.198178e-38 366 271
0.059003171 0.71600002 -0.038916986 1.2534954e-38 367 271
0.060342718 0.71700001 -0.038971342 1.2716122e-38 368 271
0.061599858 0.71700001 -0.038971342 1.1978557e-38 369 271
0.063032329 0.71899998 -0.039080046 9.4946659e-39 370 271
0.064292975 0.71899998 -0.039080046 7.6507547e-39 371 271
-0.10923968 0.708 -0.039723519 1.3089163e-38 232 272
-0.10799832 0.708 -0.039723519 1.2996968e-38 233 272
-0.10675696 0.708 -0.039723519 1.3087346e-38 234 272
-0.10536657 0.70700002 -0.039667413 1.3179541e-38 235 272
-0.10412696 0.70700002 -0.039667413 1.3271364e-38 236 272
-0.10274182 0.70599997 -0.039611302 1.336356e-38 237 272
-0.10121643 0.704 -0.039499093 1.3638705e-38 238 272
-0.099982075 0.704 -0.039499093 1.3823096e-38 239 272
-0.098607466 0.70300001 -0.039442986 1.3548304e-38 240 272
-0.09695933 0.69999999 -0.039274666 1.3548304e-38 241 272
-0.095731996 0.69999999 -0.039274666 1.3731248e-38 242 272
-0.094234653 0.69800001 -0.039162453 1.3731248e-38 243 272
-0.092877567 0.69700003 -0.039106347 1.3549005e-38 244 272
-0.09152399 0.69599998 -0.039050236 1.4102179e-38 245 272
-0.090044186 0.69400001 -0.038938027 1.5022693e-38 246 272
-0.088443391 0.69099998 -0.038769703 1.5391476e-38 247 272
-0.087105595 0.69 -0.038713597 1.5668784e-38 248 272
-0.08564683 0.68800002 -0.038601387 1.6221599e-38 249 272
-0.084317796 0.68699998 -0.038545277 1.6498549e-38 250 272
-0.083113261 0.68699998 -0.038545277 1.6590745e-38 251 272
-0.081789486 0.68599999 -0.03848917 1.6866253e-38 252 272
-0.080586702 0.68599999 -0.03848917 1.7050644e-38 253 272
-0.07915248 0.68400002 -0.038376961 1.7417624e-38 254 272
-0.077839233 0.68300003 -0.038320854 1.750982e-38 255 272
-0.076641709 0.68300003 -0.038320854 1.750982e-38 256 272
-0.075444184 0.68300003 -0.038320854 1.7602017e-38 257 272
-0.074246652 0.68300003 -0.038320854 1.7511607e-38 258 272
-0.073049128 0.68300003 -0.038320854 1.7234659e-38 259 272
-0.071746394 0.68199998 -0.038264744 1.7787114e-38 260 272
-0.070550621 0.68199998 -0.038264744 1.7787114e-38 261 272
-0.069354847 0.68199998 -0.038264744 1.8062994e-38 262 272
-0.067959204 0.68000001 -0.038152531 1.8155189e-38 263 272
-0.066766933 0.68000001 -0.038152531 1.8155189e-38 264 272
-0.065478235 0.67900002 -0.038096428 1.8339941e-38 265 272
-0.064287722 0.67900002 -0.038096428 1.8339219e-38 266 272
-0.063004278 0.67799997 -0.038040318 1.8339219e-38 267 272
-0.061815511 0.67799997 -0.038040318 1.8615802e-38 268 272
-0.060626756 0.67799997 -0.038040318 1.8707997e-38 269 272
-0.059262663 0.676 -0.037928104 1.8525048e-38 270 272
-0.057991501 0.67500001 -0.037871998 1.8525048e-38 271 272
-0.056808002 0.67500001 -0.037871998 1.8617246e-38 272 272
-0.0556245 0.67500001 -0.037871998 1.8617246e-38 273 272
-0.054441001 0.67500001 -0.037871998 1.8524698e-38 274 272
-0.053257499 0.67500001 -0.037871998 1.8524698e-38 275 272
-0.052074 0.67500001 -0.037871998 1.8432505e-38 276 272
-0.050890498 0.67500001 -0.037871998 1.833995e-38 277 272
-0.049633358 0.67400002 -0.037815895 1.8338516e-38 278 272
-0.048451614 0.67400002 -0.037815895 1.8522547e-38 279 272
-0.047269866 0.67400002 -0.037815895 1.8523628e-38 280 272
-0.045951359 0.67199999 -0.037703678 1.8799855e-38 281 272
-0.044773117 0.67199999 -0.037703678 1.8709093e-38 282 272
-0.043530006 0.671 -0.037647571 1.898532e-38 283 272
-0.042290401 0.67000002 -0.037591465 1.9077869e-38 284 272
-0.041115668 0.67000002 -0.037591465 1.9170064e-38 285 272
-0.039940935 0.67000002 -0.037591465 1.8986758e-38 286 272
-0.038766202 0.67000002 -0.037591465 1.8986758e-38 287 272
-0.037591465 0.67000002 -0.037591465 1.8894203e-38 288 272
-0.036416732 0.67000002 -0.037591465 1.8894203e-38 289 272
-0.035241999 0.67000002 -0.037591465 1.8985323e-38 290 272
-0.033965573 0.66799998 -0.037479252 1.9077518e-38 291 272
-0.032794341 0.66799998 -0.037479252 1.898497e-38 292 272
-0.031623118 0.66799998 -0.037479252 1.898497e-38 293 272
-0.030406304 0.667 -0.037423145 1.8984616e-38 294 272
-0.029192999 0.66600001 -0.037367038 1.8984616e-38 295 272
-0.027941117 0.66399997 -0.037254825 1.8985325e-38 296 272
-0.026776904 0.66399997 -0.037254825 1.870874e-38 297 272
-0.025844134 0.67000002 -0.037591465 1.8434304e-38 298 272
-0.024669399 0.67000002 -0.037591465 1.8434304e-38 299 272
-0.023529733 0.671 -0.037647571 1.8250286e-38 300 272
-0.01284492 0.66600001 -0.037367038 1.8156343e-38 309 272
-0.011677199 0.66600001 -0.037367038 1.8524405e-38 310 272
-0.01050948 0.66600001 -0.037367038 1.8524405e-38 311 272
-0.0093417596 0.66600001 -0.037367038 1.8249263e-38 312 272
-0.0081740404 0.66600001 -0.037367038 1.8249263e-38 313 272
-0.0070063197 0.66600001 -0.037367038 1.8064876e-38 314 272
-0.0058385995 0.66600001 -0.037367038 1.8248907e-38 315 272
0.0034873798 0.66299999 -0.037198719 1.8250346e-38 323 272
0.0046498398 0.66299999 -0.037198719 1.8342541e-38 324 272
0.0070063197 0.66600001 -0.037367038 1.8250346e-38 326 272
0.0081494926 0.66399997 -0.037254825 1.8250346e-38 327 272
0.0093137063 0.66399997 -0.037254825 1.8526207e-38 328 272
0.010477919 0.66399997 -0.037254825 1.8434011e-38 329 272
0.011642133 0.66399997 -0.037254825 1.8158496e-38 330 272
0.012806346 0.66399997 -0.037254825 1.8066301e-38 331 272
0.014012639 0.66600001 -0.037367038 1.8341796e-38 332 272
0.01518036 0.66600001 -0.037367038 1.82496e-38 333 272
0.016348081 0.66600001 -0.037367038 1.8250304e-38 334 272
0.017515799 0.66600001 -0.037367038 1.8157749e-38 335 272
0.018711573 0.667 -0.037423145 1.8158459e-38 336 272
0.019910853 0.66799998 -0.037479252 1.8065903e-38 337 272
0.0211452 0.67000002 -0.037591465 1.8249579e-38 338 272
0.023529733 0.671 -0.037647571 1.8065907e-38 340 272
0.024669399 0.67000002 -0.037591465 1.8065907e-38 341 272
0.025844134 0.67000002 -0.037591465 1.806591e-38 342 272
0.027018867 0.67000002 -0.037591465 1.8158105e-38 343 272
0.028193599 0.67000002 -0.037591465 1.7882963e-38 344 272
0.029368332 0.67000002 -0.037591465 1.7698573e-38 345 272
0.030543067 0.67000002 -0.037591465 1.7606379e-38 346 272
0.0317178 0.67000002 -0.037591465 1.7606379e-38 347 272
0.032892533 0.67000002 -0.037591465 1.7421269e-38 348 272
0.034067266 0.67000002 -0.037591465 1.7328715e-38 349 272
0.043363437 0.68699998 -0.038545277 1.5577038e-38 356 272
0.04437336 0.68400002 -0.038376961 1.5853625e-38 357 272
0.045572639 0.68400002 -0.038376961 1.594836e-38 358 272
0.051470853 0.71600002 -0.040172372 1.483912e-38 361 272
0.052578956 0.71399999 -0.040060159 1.4564665e-38 362 272
0.053830836 0.71399999 -0.040060159 1.447211e-38 363 272
0.05508272 0.71399999 -0.040060159 1.4380271e-38 364 272
0.056492399 0.71600002 -0.040172372 1.0324023e-38 365 272
0.057747785 0.71600002 -0.040172372 8.207499e-39 366 272
0.059003171 0.71600002 -0.040172372 1.0327998e-38 367 272
0.060342718 0.71700001 -0.040228479 1.1794516e-38 368 272
0.061599858 0.71700001 -0.040228479 1.1333538e-38 369 272
-0.10799832 0.708 -0.040964879 1.327105e-38 233 273
-0.10675696 0.708 -0.040964879 1.3179897e-38 234 273
-0.10536657 0.70700002 -0.040907022 1.3087343e-38 235 273
-0.10412696 0.70700002 -0.040907022 1.2995503e-38 236 273
-0.10274182 0.70599997 -0.040849157 1.3087699e-38 237 273
-0.10121643 0.704 -0.040733438 1.3179897e-38 238 273
-0.099982075 0.704 -0.040733438 1.3179897e-38 239 273
-0.098326929 0.70099998 -0.040559858 1.3272446e-38 240 273
-0.09695933 0.69999999 -0.040502001 1.3272446e-38 241 273
-0.095731996 0.69999999 -0.040502001 1.3455756e-38 242 273
-0.094099648 0.69700003 -0.040328421 1.3640148e-38 243 273
-0.092744313 0.69599998 -0.040270556 1.327244e-38 244 273
-0.091260992 0.69400001 -0.040154841 1.3733419e-38 245 273
-0.090044186 0.69400001 -0.040154841 1.4469522e-38 246 273
-0.088443391 0.69099998 -0.039981257 1.4653553e-38 247 273
-0.087105595 0.69 -0.0399234 1.4747901e-38 248 273
-0.08564683 0.68800002 -0.039807681 1.5301075e-38 249 273
-0.084195063 0.68599999 -0.039691959 1.5578035e-38 250 273
-0.082992278 0.68599999 -0.039691959 1.5854622e-38 251 273
-0.081789486 0.68599999 -0.039691959 1.6222328e-38 252 273
-0.080586702 0.68599999 -0.039691959 1.6314884e-38 253 273
-0.079036765 0.68300003 -0.039518382 1.6682587e-38 254 273
-0.077839233 0.68300003 -0.039518382 1.6682587e-38 255 273
-0.076641709 0.68300003 -0.039518382 1.6866974e-38 256 273
-0.075444184 0.68300003 -0.039518382 1.695917e-38 257 273
-0.074246652 0.68300003 -0.039518382 1.6958814e-38 258 273
-0.072942168 0.68199998 -0.039460517 1.6958814e-38 259 273
-0.071746394 0.68199998 -0.039460517 1.7143212e-38 260 273
-0.070550621 0.68199998 -0.039460517 1.7143212e-38 261 273
-0.069151461 0.68000001 -0.039344799 1.7236114e-38 262 273
-0.067959204 0.68000001 -0.039344799 1.7236114e-38 263 273
-0.066668749 0.67900002 -0.039286941 1.7511975e-38 264 273
-0.065478235 0.67900002 -0.039286941 1.7788562e-38 265 273
-0.06419304 0.67799997 -0.039229076 1.7696366e-38 266 273
-0.062818423 0.676 -0.039113361 1.7604171e-38 267 273
-0.061633173 0.676 -0.039113361 1.8155545e-38 268 273
-0.060358498 0.67500001 -0.039055496 1.8247742e-38 269 273
-0.059087332 0.67400002 -0.038997639 1.7973326e-38 270 273
-0.057905588 0.67400002 -0.038997639 1.8157357e-38 271 273
-0.056723841 0.67400002 -0.038997639 1.8249558e-38 272 273
-0.055542093 0.67400002 -0.038997639 1.8157004e-38 273 273
-0.054199036 0.67199999 -0.03888192 1.8249556e-38 274 273
-0.053020798 0.67199999 -0.03888192 1.815736e-38 275 273
-0.051842555 0.67199999 -0.03888192 1.8156285e-38 276 273
-0.050664317 0.67199999 -0.03888192 1.8064089e-38 277 273
-0.049486078 0.67199999 -0.03888192 1.7971541e-38 278 273
-0.04830784 0.67199999 -0.03888192 1.8063736e-38 279 273
-0.047059465 0.671 -0.038824059 1.824813e-38 280 273
-0.045882981 0.671 -0.038824059 1.8340685e-38 281 273
-0.044706494 0.671 -0.038824059 1.8617266e-38 282 273
-0.043465134 0.67000002 -0.038766202 1.8801657e-38 283 273
-0.042164158 0.66799998 -0.038650475 1.8802373e-38 284 273
-0.040992931 0.66799998 -0.038650475 1.8987123e-38 285 273
-0.039821707 0.66799998 -0.038650475 1.8894928e-38 286 273
-0.038650475 0.66799998 -0.038650475 1.8987123e-38 287 273
-0.037479252 0.66799998 -0.038650475 1.9078953e-38 288 273
-0.036308024 0.66799998 -0.038650475 1.9078953e-38 289 273
-0.035136797 0.66799998 -0.038650475 1.9078948e-38 290 273
-0.033914726 0.667 -0.038592618 1.8986752e-38 291 273
-0.032745253 0.667 -0.038592618 1.8987105e-38 292 273
-0.031623118 0.66799998 -0.038650475 1.8987105e-38 293 273
-0.030451892 0.66799998 -0.038650475 1.9170417e-38 294 273
-0.029236831 0.667 -0.038592618 1.8986026e-38 295 273
-0.028067358 0.667 -0.038592618 1.9078222e-38 296 273
-0.026938211 0.66799998 -0.038650475 1.8986026e-38 297 273
-0.025766984 0.66799998 -0.038650475 1.8802358e-38 298 273
-0.02459576 0.66799998 -0.038650475 1.8802358e-38 299 273
-0.023424532 0.66799998 -0.038650475 1.8802008e-38 300 273
-0.022120051 0.66399997 -0.038419038 1.8802008e-38 301 273
-0.020955838 0.66399997 -0.038419038 1.8617992e-38 302 273
-0.015134773 0.66399997 -0.038419038 1.8250288e-38 307 273
-0.013970559 0.66399997 -0.038419038 1.8250288e-38 308 273
-0.012806346 0.66399997 -0.038419038 1.8157733e-38 309 273
-0.011642133 0.66399997 -0.038419038 1.8341401e-38 310 273
-0.010477919 0.66399997 -0.038419038 1.8249205e-38 311 273
-0.0093137063 0.66399997 -0.038419038 1.8341398e-38 312 273
-0.0081494926 0.66399997 -0.038419038 1.8341398e-38 313 273
-0.0069852793 0.66399997 -0.038419038 1.8249202e-38 314 273
-0.0058210664 0.66399997 -0.038419038 1.8249202e-38 315 273
-0.0046568532 0.66399997 -0.038419038 1.8341035e-38 316 273
-0.0035031599 0.66600001 -0.03853476 1.8341035e-38 317 273
-0.0023354399 0.66600001 -0.03853476 1.8341035e-38 318 273
0.0023389466 0.667 -0.038592618 1.8342144e-38 322 273
0.0034873798 0.66299999 -0.038361177 1.8342144e-38 323 273
0.0046498398 0.66299999 -0.038361177 1.8343592e-38 324 273
0.0058385995 0.66600001 -0.03853476 1.8251395e-38 325 273
0.0069852793 0.66399997 -0.038419038 1.8526908e-38 326 273
0.0081494926 0.66399997 -0.038419038 1.843471e-38 327 273
0.0093137063 0.66399997 -0.038419038 1.8526908e-38 328 273
0.010477919 0.66399997 -0.038419038 1.843471e-38 329 273
0.011642133 0.66399997 -0.038419038 1.8433989e-38 330 273
0.012806346 0.66399997 -0.038419038 1.8526184e-38 331 273
0.014012639 0.66600001 -0.03853476 1.8617654e-38 332 273
0.01518036 0.66600001 -0.03853476 1.8525459e-38 333 273
0.016348081 0.66600001 -0.03853476 1.8525809e-38 334 273
0.017515799 0.66600001 -0.03853476 1.8433613e-38 335 273
0.018711573 0.667 -0.038592618 1.8342853e-38 336 273
0.019910853 0.66799998 -0.038650475 1.8250298e-38 337 273
0.021082079 0.66799998 -0.038650475 1.8250301e-38 338 273
0.022253305 0.66799998 -0.038650475 1.8250301e-38 339 273
0.023494666 0.67000002 -0.038766202 1.8158105e-38 340 273
0.024669399 0.67000002 -0.038766202 1.8158105e-38 341 273
0.025844134 0.67000002 -0.038766202 1.797444e-38 342 273
0.027018867 0.67000002 -0.038766202 1.797444e-38 343 273
0.028193599 0.67000002 -0.038766202 1.7606743e-38 344 273
0.029368332 0.67000002 -0.038766202 1.7514546e-38 345 273
0.030543067 0.67000002 -0.038766202 1.751383e-38 346 273
0.0317178 0.67000002 -0.038766202 1.751383e-38 347 273
0.032892533 0.67000002 -0.038766202 1.7329439e-38 348 273
0.034067266 0.67000002 -0.038766202 1.7236885e-38 349 273
0.035241999 0.67000002 -0.038766202 1.7236169e-38 350 273
0.036416732 0.67000002 -0.038766202 1.7143972e-38 351 273
0.037703678 0.67199999 -0.03888192 1.7052129e-38 352 273
0.03888192 0.67199999 -0.03888192 1.6683348e-38 353 273
0.040238999 0.67500001 -0.039055496 1.5947578e-38 354 273
0.041422497 0.67500001 -0.039055496 1.4933425e-38 355 273
0.043110959 0.68300003 -0.039518382 1.4379885e-38 356 273
0.044243611 0.68199998 -0.039460517 1.428769e-38 357 273
0.045306131 0.68000001 -0.039344799 1.4380255e-38 358 273
0.046498399 0.68000001 -0.039344799 1.4656842e-38 359 273
0.047690667 0.68000001 -0.039344799 1.4841603e-38 360 273
0.052578956 0.71399999 -0.041312039 1.4840873e-38 362 273
0.053830836 0.71399999 -0.041312039 1.4933069e-38 363 273
0.05508272 0.71399999 -0.041312039 1.4474249e-38 364 273
-0.10675696 0.708 -0.042206239 1.2996595e-38 234 274
-0.10536657 0.70700002 -0.042146627 1.2904399e-38 235 274
-0.10397967 0.70599997 -0.042087011 1.2995869e-38 236 274
-0.10274182 0.70599997 -0.042087011 1.2995869e-38 237 274
-0.10121643 0.704 -0.041967787 1.3362488e-38 238 274
-0.09984006 0.70300001 -0.041908171 1.3454684e-38 239 274
-0.098326929 0.70099998 -0.041788943 1.336356e-38 240 274
-0.09695933 0.69999999 -0.041729331 1.336356e-38 241 274
-0.095458478 0.69800001 -0.041610107 1.3363913e-38 242 274
-0.094099648 0.69700003 -0.041550495 1.3456109e-38 243 274
-0.092744313 0.69599998 -0.041490879 1.3548655e-38 244 274
-0.091260992 0.69400001 -0.041371655 1.364085e-38 245 274
-0.090044186 0.69400001 -0.041371655 1.3825942e-38 246 274
-0.088443391 0.69099998 -0.041192811 1.3272768e-38 247 274
-0.086853124 0.68800002 -0.041013971 1.3458232e-38 248 274
-0.085522331 0.68699998 -0.040954359 1.3827374e-38 249 274
-0.084195063 0.68599999 -0.040894743 1.4379845e-38 250 274
-0.082992278 0.68599999 -0.040894743 1.4840463e-38 251 274
-0.081551038 0.68400002 -0.040775519 1.5209252e-38 252 274
-0.080351762 0.68400002 -0.040775519 1.567023e-38 253 274
-0.079036765 0.68300003 -0.040715907 1.5945738e-38 254 274
-0.077839233 0.68300003 -0.040715907 1.6222684e-38 255 274
-0.076641709 0.68300003 -0.040715907 1.6498543e-38 256 274
-0.075444184 0.68300003 -0.040715907 1.6406346e-38 257 274
-0.074137948 0.68199998 -0.040656291 1.6956633e-38 258 274
-0.072942168 0.68199998 -0.040656291 1.6956633e-38 259 274
-0.071746394 0.68199998 -0.040656291 1.6866603e-38 260 274
-0.070343733 0.68000001 -0.040537067 1.6866603e-38 261 274
-0.069151461 0.68000001 -0.040537067 1.6958798e-38 262 274
-0.067859262 0.67900002 -0.040477451 1.7051353e-38 263 274
-0.066668749 0.67900002 -0.040477451 1.7235028e-38 264 274
-0.065381795 0.67799997 -0.040417835 1.7235028e-38 265 274
-0.064003684 0.676 -0.040298611 1.7877528e-38 266 274
-0.062725499 0.67500001 -0.040238999 1.7877528e-38 267 274
