# .PCD v.7 - Point Cloud Data file format
FIELDS x y z rgb imX imY
SIZE 4 4 4 4 4 4
TYPE F F F F F F
COUNT 1 1 1 1 1 1
WIDTH 847
HEIGHT 1
VIEWPOINT 0 0 0 1 0 0 0
POINTS 847
DATA ascii
0.044815198 0.70999998 -0.022407599 1.8064077e-38 356 258
0.046060063 0.70999998 -0.022407599 1.8156272e-38 357 258
0.047171678 0.708 -0.022344479 1.8340304e-38 358 258
0.048344657 0.70700002 -0.022312919 1.8340304e-38 359 258
0.049584266 0.70700002 -0.022312919 1.8523979e-38 360 258
0.050751984 0.70599997 -0.022281358 1.870801e-38 361 258
0.051842559 0.704 -0.022218239 1.8800208e-38 362 258
0.053076904 0.704 -0.022218239 1.8800208e-38 363 258
0.054234106 0.70300001 -0.02218668 1.8892761e-38 364 258
0.0554667 0.70300001 -0.02218668 1.8800206e-38 365 258
0.056699295 0.70300001 -0.02218668 1.8617246e-38 366 258
0.057767071 0.70099998 -0.022123558 1.8525051e-38 367 258
0.058743682 0.69800001 -0.02202888 1.8432489e-38 368 258
0.05988159 0.69700003 -0.02199732 1.8247738e-38 369 258
0.061103668 0.69700003 -0.02199732 1.8063344e-38 370 258
0.062236317 0.69599998 -0.021965759 1.7694922e-38 371 258
0.063274294 0.69400001 -0.021902639 1.705135e-38 372 258
0.064491108 0.69400001 -0.021902639 1.6866959e-38 373 258
0.065707922 0.69400001 -0.021902639 1.6221626e-38 374 258
0.066924736 0.69400001 -0.021902639 1.631418e-38 375 258
0.006575 0.75 -0.024984999 1.244561e-38 325 259
0.0078794798 0.74900001 -0.024951685 1.2355195e-38 326 259
0.0091927266 0.74900001 -0.024951685 1.2539226e-38 327 259
0.010477919 0.74699998 -0.024885058 1.3182075e-38 328 259
0.011787659 0.74699998 -0.024885058 1.3274629e-38 329 259
0.013079867 0.74599999 -0.024851745 1.3183157e-38 330 259
0.01434928 0.74400002 -0.02478512 1.3459385e-38 331 259
0.015653761 0.74400002 -0.02478512 1.4010394e-38 332 259
0.016889861 0.741 -0.024685178 1.4286981e-38 333 259
0.018139986 0.73900002 -0.024618553 1.4287353e-38 334 259
0.0194357 0.73900002 -0.024618553 1.4287353e-38 335 259
0.020647252 0.736 -0.024518613 1.4287353e-38 336 259
0.021878093 0.73400003 -0.024451986 1.4471745e-38 337 259
0.023165042 0.73400003 -0.024451986 1.4840154e-38 338 259
0.024418673 0.73299998 -0.024418673 1.4840154e-38 339 259
0.025633732 0.73100001 -0.024352046 1.5116015e-38 340 259
0.026878599 0.73000002 -0.024318734 1.520857e-38 341 259
0.028081384 0.72799999 -0.024252106 1.5209287e-38 342 259
0.029317487 0.727 -0.024218792 1.5393678e-38 343 259
0.030592158 0.727 -0.024218792 1.5669542e-38 344 259
0.031779166 0.72500002 -0.024152167 1.5761738e-38 345 259
0.032913569 0.722 -0.024052227 1.6037955e-38 346 259
0.034179479 0.722 -0.024052227 1.6037955e-38 347 259
0.035347197 0.72000003 -0.0239856 1.6130149e-38 348 259
0.036558751 0.71899998 -0.023952285 1.6130149e-38 349 259
0.037714198 0.71700001 -0.02388566 1.622235e-38 350 259
0.038808275 0.71399999 -0.02378572 1.622235e-38 351 259
0.040004052 0.713 -0.023752406 1.61323e-38 352 259
0.041254178 0.713 -0.023752406 1.6224496e-38 353 259
0.042325463 0.70999998 -0.023652466 1.7144284e-38 354 259
0.043570329 0.70999998 -0.023652466 1.7420871e-38 355 259
0.044815198 0.70999998 -0.023652466 1.7972247e-38 356 259
0.045930319 0.708 -0.023585839 1.8064443e-38 357 259
0.047105055 0.70700002 -0.023552528 1.806444e-38 358 259
0.048276275 0.70599997 -0.023519212 1.8156994e-38 359 259
0.049373865 0.704 -0.023452586 1.833995e-38 360 259
0.050536323 0.70300001 -0.023419274 1.8432505e-38 361 259
0.051768921 0.70300001 -0.023419274 1.8432152e-38 362 259
0.053001512 0.70300001 -0.023419274 1.8616543e-38 363 259
0.054002665 0.69999999 -0.023319334 1.8433584e-38 364 259
0.055229999 0.69999999 -0.023319334 1.8433584e-38 365 259
0.056296028 0.69800001 -0.023252707 1.8708713e-38 366 259
0.057519849 0.69800001 -0.023252707 1.8708713e-38 367 259
0.058743682 0.69800001 -0.023252707 1.8616149e-38 368 259
0.05988159 0.69700003 -0.023219392 1.8523954e-38 369 259
0.061015997 0.69599998 -0.023186078 1.8339195e-38 370 259
0.06205748 0.69400001 -0.023119451 1.7693826e-38 371 259
0.063183114 0.69300002 -0.02308614 1.7050256e-38 372 259
0.064398177 0.69300002 -0.02308614 1.7418678e-38 373 259
0.06561324 0.69300002 -0.02308614 1.6866953e-38 374 259
0.066828303 0.69300002 -0.02308614 1.6221584e-38 375 259
0.068043359 0.69300002 -0.02308614 1.4933076e-38 376 259
0.0078794798 0.74900001 -0.026264934 1.2261198e-38 326 260
0.0091927266 0.74900001 -0.026264934 1.2445589e-38 327 260
0.010477919 0.74699998 -0.026194798 1.2904768e-38 328 260
0.011787659 0.74699998 -0.026194798 1.2996965e-38 329 260
0.013097399 0.74699998 -0.026194798 1.2906567e-38 330 260
0.014387853 0.74599999 -0.026159734 1.2998763e-38 331 260
0.015653761 0.74400002 -0.026089599 1.3090964e-38 332 260
0.016912652 0.74199998 -0.026019465 1.3367192e-38 333 260
0.018189078 0.741 -0.025984399 1.4192634e-38 334 260
0.0194357 0.73900002 -0.025914267 1.4285188e-38 335 260
0.020647252 0.736 -0.025809066 1.4285188e-38 336 260
0.021937706 0.736 -0.025809066 1.4285188e-38 337 260
0.023165042 0.73400003 -0.025738932 1.3827081e-38 338 260
0.024418673 0.73299998 -0.025703866 1.4195504e-38 339 260
0.025633732 0.73100001 -0.025633732 1.483871e-38 340 260
0.026804959 0.72799999 -0.025528532 1.4930905e-38 341 260
0.028081384 0.72799999 -0.025528532 1.5300767e-38 342 260
0.029317487 0.727 -0.025493465 1.5485158e-38 343 260
0.030508002 0.72500002 -0.025423333 1.5761022e-38 344 260
0.031691495 0.72299999 -0.025353199 1.5853217e-38 345 260
0.032913569 0.722 -0.025318133 1.603688e-38 346 260
0.034084801 0.72000003 -0.025248 1.6221631e-38 347 260
0.035298105 0.71899998 -0.025212931 1.6129429e-38 348 260
0.036457058 0.71700001 -0.0251428 1.6221626e-38 349 260
0.037661601 0.71600002 -0.025107734 1.6222345e-38 350 260
0.038808275 0.71399999 -0.025037598 1.6222345e-38 351 260
0.040004052 0.713 -0.025002534 1.6498564e-38 352 260
0.041138459 0.71100003 -0.024932399 1.6498564e-38 353 260
0.042325463 0.70999998 -0.024897331 1.7050662e-38 354 260
0.043570329 0.70999998 -0.024897331 1.732725e-38 355 260
0.044688959 0.708 -0.024827199 1.7879331e-38 356 260
0.045865446 0.70700002 -0.024792133 1.8063724e-38 357 260
0.047038425 0.70599997 -0.024757065 1.806443e-38 358 260
0.048139516 0.704 -0.024686933 1.8156626e-38 359 260
0.049373865 0.704 -0.024686933 1.8339935e-38 360 260
0.050536323 0.70300001 -0.024651866 1.8339935e-38 361 260
0.051621638 0.70099998 -0.024581732 1.8432489e-38 362 260
0.052850723 0.70099998 -0.024581732 1.8524685e-38 363 260
0.054002665 0.69999999 -0.024546666 1.8525048e-38 364 260
0.0550722 0.69800001 -0.024476532 1.8617244e-38 365 260
0.056296028 0.69800001 -0.024476532 1.8617244e-38 366 260
0.05743745 0.69700003 -0.024441468 1.8525048e-38 367 260
0.05865952 0.69700003 -0.024441468 1.8342089e-38 368 260
0.059623852 0.69400001 -0.024336265 1.8157698e-38 369 260
0.060840666 0.69400001 -0.024336265 1.8248088e-38 370 260
0.061968062 0.69300002 -0.024301201 1.8155893e-38 371 260
0.063183114 0.69300002 -0.024301201 1.778747e-38 372 260
0.064398177 0.69300002 -0.024301201 1.7602719e-38 373 260
0.065423876 0.69099998 -0.024231065 1.6776558e-38 374 260
0.06663543 0.69099998 -0.024231065 1.6499613e-38 375 260
0.068043359 0.69300002 -0.024301201 1.649749e-38 376 260
0.069258414 0.69300002 -0.024301201 1.603687e-38 377 260
0.010477919 0.74699998 -0.027504537 1.1617279e-38 328 261
0.011787659 0.74699998 -0.027504537 1.1985702e-38 329 261
0.013097399 0.74699998 -0.027504537 1.2077548e-38 330 261
0.014387853 0.74599999 -0.027467718 1.2261939e-38 331 261
0.015695838 0.74599999 -0.027467718 1.2721116e-38 332 261
0.016912652 0.74199998 -0.027320439 1.2998062e-38 333 261
0.018189078 0.741 -0.027283618 1.3273926e-38 334 261
0.0194357 0.73900002 -0.027209979 1.3366121e-38 335 261
0.020647252 0.736 -0.02709952 1.3365766e-38 336 261
0.021937706 0.736 -0.02709952 1.3365766e-38 337 261
0.023165042 0.73400003 -0.02702588 1.3641634e-38 338 261
0.024418673 0.73299998 -0.026989058 1.3641634e-38 339 261
0.025598666 0.73000002 -0.026878599 1.3458318e-38 340 261
0.026804959 0.72799999 -0.026804959 1.4011491e-38 341 261
0.028042812 0.727 -0.026768139 1.5208587e-38 342 261
0.029317487 0.727 -0.026768139 1.5392978e-38 343 261
0.030508002 0.72500002 -0.026694499 1.5484808e-38 344 261
0.031647664 0.722 -0.026584039 1.5761034e-38 345 261
0.032913569 0.722 -0.026584039 1.5761385e-38 346 261
0.034084801 0.72000003 -0.026510401 1.5853939e-38 347 261
0.035298105 0.71899998 -0.02647358 1.6129799e-38 348 261
0.036457058 0.71700001 -0.02639994 1.6129799e-38 349 261
0.037661601 0.71600002 -0.026363119 1.6130152e-38 350 261
0.038753927 0.713 -0.026252659 1.6222347e-38 351 261
0.039891839 0.71100003 -0.026179021 1.6131234e-38 352 261
0.041080594 0.70999998 -0.026142199 1.6131234e-38 353 261
0.042325463 0.70999998 -0.026142199 1.6406742e-38 354 261
0.043447599 0.708 -0.026068559 1.6682968e-38 355 261
0.044688959 0.708 -0.026068559 1.69599e-38 356 261
0.045865446 0.70700002 -0.02603174 1.7420518e-38 357 261
0.046905171 0.704 -0.02592128 1.7788565e-38 358 261
0.048139516 0.704 -0.02592128 1.7972597e-38 359 261
0.049303733 0.70300001 -0.025884461 1.8156623e-38 360 261
0.050392549 0.70099998 -0.025810819 1.8156623e-38 361 261
0.051547997 0.69999999 -0.025773998 1.8157342e-38 362 261
0.052775331 0.69999999 -0.025773998 1.8249537e-38 363 261
0.053848371 0.69800001 -0.025700359 1.8250262e-38 364 261
0.054993302 0.69700003 -0.025663542 1.8250262e-38 365 261
0.056215372 0.69700003 -0.025663542 1.8617244e-38 366 261
0.05743745 0.69700003 -0.025663542 1.8525048e-38 367 261
0.05865952 0.69700003 -0.025663542 1.8525398e-38 368 261
0.05953794 0.69300002 -0.02551626 1.8341007e-38 369 261
0.060752999 0.69300002 -0.02551626 1.8157682e-38 370 261
0.061968062 0.69300002 -0.02551626 1.7972931e-38 371 261
0.063000768 0.69099998 -0.025442619 1.7788887e-38 372 261
0.06421233 0.69099998 -0.025442619 1.751266e-38 373 261
0.065423876 0.69099998 -0.025442619 1.7420113e-38 374 261
0.06663543 0.69099998 -0.025442619 1.7235363e-38 375 261
0.067846984 0.69099998 -0.025442619 1.6591092e-38 376 261
0.068958595 0.69 -0.025405798 1.5945723e-38 377 261
0.070168398 0.69 -0.025405798 1.4842322e-38 378 261
0.07168854 0.69300002 -0.02551626 1.6317452e-38 379 261
0.016958239 0.74400002 -0.02869856 1.2814021e-38 333 262
0.018213626 0.74199998 -0.028621411 1.3272122e-38 334 262
0.0194357 0.73900002 -0.028505694 1.3272122e-38 335 262
0.020703359 0.73799998 -0.028467119 1.3273554e-38 336 262
0.021937706 0.736 -0.028389972 1.336575e-38 337 262
0.023165042 0.73400003 -0.028312827 1.3457223e-38 338 262
0.024418673 0.73299998 -0.028274251 1.3272473e-38 339 262
0.025598666 0.73000002 -0.028158534 1.2627456e-38 340 262
0.026804959 0.72799999 -0.028081384 1.3272826e-38 341 262
0.028042812 0.727 -0.028042812 1.4011475e-38 342 262
0.029317487 0.727 -0.028042812 1.4933073e-38 343 262
0.030508002 0.72500002 -0.027965667 1.5300416e-38 344 262
0.031647664 0.722 -0.027849946 1.5484808e-38 345 262
0.032913569 0.722 -0.027849946 1.5761022e-38 346 262
0.034084801 0.72000003 -0.027772799 1.5853217e-38 347 262
0.035298105 0.71899998 -0.027734226 1.6037604e-38 348 262
0.036457058 0.71700001 -0.027657079 1.6129802e-38 349 262
0.037556399 0.71399999 -0.02754136 1.622235e-38 350 262
0.038753927 0.713 -0.027502786 1.622235e-38 351 262
0.039835732 0.70999998 -0.027387066 1.631418e-38 352 262
0.041080594 0.70999998 -0.027387066 1.6221626e-38 353 262
0.042206239 0.708 -0.027309919 1.6497855e-38 354 262
0.043386232 0.70700002 -0.027271347 1.6497855e-38 355 262
0.044625837 0.70700002 -0.027271347 1.6958464e-38 356 262
0.04580057 0.70599997 -0.027232772 1.7235411e-38 357 262
0.046905171 0.704 -0.027155625 1.778713e-38 358 262
0.048071139 0.70300001 -0.027117053 1.797188e-38 359 262
0.049163464 0.70099998 -0.027039904 1.8064426e-38 360 262
0.050320663 0.69999999 -0.027001332 1.8064426e-38 361 262
0.051400717 0.69800001 -0.026924185 1.8156623e-38 362 262
0.052624546 0.69800001 -0.026924185 1.8156623e-38 363 262
0.053771228 0.69700003 -0.026885614 1.8340654e-38 364 262
0.054914396 0.69599998 -0.026847038 1.8340654e-38 365 262
0.055973411 0.69400001 -0.026769891 1.8433208e-38 366 262
0.056942999 0.69099998 -0.026654173 1.8433208e-38 367 262
0.058070395 0.69 -0.026615599 1.8341736e-38 368 262
0.059280202 0.69 -0.026615599 1.824954e-38 369 262
0.060489997 0.69 -0.026615599 1.8249537e-38 370 262
0.061789215 0.69099998 -0.026654173 1.8065146e-38 371 262
0.062909603 0.69 -0.026615599 1.7973299e-38 372 262
0.064119399 0.69 -0.026615599 1.7604877e-38 373 262
0.065329194 0.69 -0.026615599 1.7695275e-38 374 262
0.066538997 0.69 -0.026615599 1.7510523e-38 375 262
0.0677488 0.69 -0.026615599 1.6683293e-38 376 262
0.068958595 0.69 -0.026615599 1.6406346e-38 377 262
0.070168398 0.69 -0.026615599 1.6037955e-38 378 262
0.071067855 0.68699998 -0.026499879 1.5392585e-38 379 262
0.07227239 0.68699998 -0.026499879 1.4941402e-38 380 262
0.019488299 0.741 -0.029882059 1.2076826e-38 335 263
0.020731414 0.73900002 -0.029801406 1.2721105e-38 336 263
0.021997318 0.73799998 -0.029761078 1.2905498e-38 337 263
0.023228159 0.736 -0.029680425 1.3181362e-38 338 263
0.024418673 0.73299998 -0.029559445 1.3088807e-38 339 263
0.025528532 0.72799999 -0.029357811 1.2995519e-38 340 263
0.026768139 0.727 -0.029317487 1.317991e-38 341 263
0.028042812 0.727 -0.029317487 1.2905845e-38 342 263
0.029236834 0.72500002 -0.029236834 1.38278e-38 343 263
0.030508002 0.72500002 -0.029236834 1.4657208e-38 344 263
0.031647664 0.722 -0.029115854 1.5118186e-38 345 263
0.0328224 0.72000003 -0.029035201 1.5668473e-38 346 263
0.034084801 0.72000003 -0.029035201 1.5760669e-38 347 263
0.035298105 0.71899998 -0.028994869 1.5853215e-38 348 263
0.036406212 0.71600002 -0.028873893 1.6037604e-38 349 263
0.037556399 0.71399999 -0.028793238 1.6129796e-38 350 263
0.038645219 0.71100003 -0.028672259 1.6129796e-38 351 263
0.039835732 0.70999998 -0.028631933 1.622235e-38 352 263
0.040964879 0.708 -0.02855128 1.6129796e-38 353 263
0.042206239 0.708 -0.02855128 1.6221994e-38 354 263
0.043386232 0.70700002 -0.028510952 1.631419e-38 355 263
0.044562716 0.70599997 -0.028470624 1.6589688e-38 356 263
0.045670826 0.704 -0.028389972 1.695811e-38 357 263
0.046905171 0.704 -0.028389972 1.741907e-38 358 263
0.048071139 0.70300001 -0.028349647 1.7788212e-38 359 263
0.049093332 0.69999999 -0.028228667 1.8062994e-38 360 263
0.050176892 0.69800001 -0.028148014 1.8247386e-38 361 263
0.051327083 0.69700003 -0.028107686 1.806443e-38 362 263
0.052549154 0.69700003 -0.028107686 1.8156626e-38 363 263
0.053694077 0.69599998 -0.028067358 1.8156989e-38 364 263
0.054756597 0.69400001 -0.027986705 1.8156989e-38 365 263
0.055892758 0.69300002 -0.027946379 1.8156989e-38 366 263
0.056942999 0.69099998 -0.027865725 1.8156989e-38 367 263
0.057902083 0.68800002 -0.027744746 1.8249187e-38 368 263
0.059108373 0.68800002 -0.027744746 1.8156991e-38 369 263
0.060314666 0.68800002 -0.027744746 1.834066e-38 370 263
0.061789215 0.69099998 -0.027865725 1.8064074e-38 371 263
0.062909603 0.69 -0.027825398 1.7972583e-38 372 263
0.063933544 0.68800002 -0.027744746 1.7880029e-38 373 263
0.065139838 0.68800002 -0.027744746 1.751196e-38 374 263
0.066538997 0.69 -0.027825398 1.7327208e-38 375 263
0.0677488 0.69 -0.027825398 1.7141748e-38 376 263
0.068958595 0.69 -0.027825398 1.6957357e-38 377 263
0.070168398 0.69 -0.027825398 1.6223037e-38 378 263
0.071067855 0.68699998 -0.027704418 1.5485113e-38 379 263
0.07227239 0.68699998 -0.027704418 1.4661543e-38 380 263
0.073476933 0.68699998 -0.027704418 1.6689847e-38 381 263
0.023291279 0.73799998 -0.031055039 1.27211e-38 338 264
0.024518613 0.736 -0.030970879 1.2813297e-38 339 264
0.025528532 0.72799999 -0.030634239 1.3272829e-38 340 264
0.026768139 0.727 -0.030592158 1.3088797e-38 341 264
0.028042812 0.727 -0.030592158 1.2905121e-38 342 264
0.029236834 0.72500002 -0.030508002 1.3181709e-38 343 264
0.030381758 0.722 -0.030381758 1.3919996e-38 344 264
0.031647664 0.722 -0.030381758 1.4657561e-38 345 264
0.0328224 0.72000003 -0.0302976 1.5207865e-38 346 264
0.03403746 0.71899998 -0.030255521 1.5392256e-38 347 264
0.035199918 0.71700001 -0.030171359 1.5668473e-38 348 264
0.036406212 0.71600002 -0.03012928 1.5760669e-38 349 264
0.037556399 0.71399999 -0.030045118 1.5853933e-38 350 264
0.038645219 0.71100003 -0.029918881 1.5946131e-38 351 264
0.039835732 0.70999998 -0.029876797 1.5946131e-38 352 264
0.040964879 0.708 -0.02979264 1.6038685e-38 353 264
0.042146627 0.70700002 -0.029750559 1.6221994e-38 354 264
0.043324865 0.70599997 -0.029708479 1.6221994e-38 355 264
0.044436477 0.704 -0.029624319 1.6497861e-38 356 264
0.04560595 0.70300001 -0.029582238 1.6682252e-38 357 264
0.046705291 0.70099998 -0.029498078 1.6867347e-38 358 264
0.047865998 0.69999999 -0.029455997 1.7328325e-38 359 264
0.048953064 0.69800001 -0.029371841 1.7971874e-38 360 264
0.050105009 0.69700003 -0.02932976 1.7971874e-38 361 264
0.051253434 0.69599998 -0.029287677 1.7972949e-38 362 264
0.052473757 0.69599998 -0.029287677 1.7972949e-38 363 264
0.053539783 0.69400001 -0.029203519 1.8064796e-38 364 264
0.054677699 0.69300002 -0.029161438 1.8156991e-38 365 264
0.055892758 0.69300002 -0.029161438 1.806444e-38 366 264
0.056942999 0.69099998 -0.029077278 1.806444e-38 367 264
0.057817914 0.68699998 -0.028908957 1.7881128e-38 368 264
0.059022456 0.68699998 -0.028908957 1.7881128e-38 369 264
0.060226995 0.68699998 -0.028908957 1.806444e-38 370 264
0.061699796 0.69 -0.029035198 1.7972244e-38 371 264
0.062909603 0.69 -0.029035198 1.797223e-38 372 264
0.06384062 0.68699998 -0.028908957 1.7787839e-38 373 264
0.065045156 0.68699998 -0.028908957 1.7511607e-38 374 264
0.066249698 0.68699998 -0.028908957 1.7327214e-38 375 264
0.067552425 0.68800002 -0.028951041 1.7142467e-38 376 264
0.068758719 0.68800002 -0.028951041 1.686624e-38 377 264
0.06996502 0.68800002 -0.028951041 1.6589311e-38 378 264
0.071171306 0.68800002 -0.028951041 1.6312726e-38 379 264
0.072587997 0.69 -0.029035198 1.4842678e-38 380 264
0.0737978 0.69 -0.029035198 1.5488047e-38 381 264
0.026804959 0.72799999 -0.031910665 1.2812219e-38 341 265
0.028042812 0.727 -0.03186683 1.327211e-38 342 265
0.029236834 0.72500002 -0.031779166 1.3456501e-38 343 265
0.030381758 0.722 -0.031647664 1.3734167e-38 344 265
0.03156 0.72000003 -0.03156 1.4379536e-38 345 265
0.0328224 0.72000003 -0.03156 1.4656489e-38 346 265
0.03403746 0.71899998 -0.031516165 1.4933076e-38 347 265
0.035150826 0.71600002 -0.031384666 1.5575556e-38 348 265
0.036304519 0.71399999 -0.031296998 1.5759587e-38 349 265
0.037556399 0.71399999 -0.031296998 1.5944687e-38 350 265
0.038645219 0.71100003 -0.031165501 1.6036883e-38 351 265
0.039835732 0.70999998 -0.031121666 1.5946486e-38 352 265
0.040964879 0.708 -0.031034 1.6038682e-38 353 265
0.042087011 0.70599997 -0.030946331 1.622235e-38 354 265
0.043202132 0.704 -0.030858666 1.6314546e-38 355 265
0.04437336 0.70300001 -0.030814834 1.6314546e-38 356 265
0.045476202 0.70099998 -0.030727165 1.6406742e-38 357 265
0.046638668 0.69999999 -0.030683333 1.6683319e-38 358 265
0.047729239 0.69800001 -0.030595668 1.6960266e-38 359 265
0.048882935 0.69700003 -0.030551834 1.760562e-38 360 265
0.050033119 0.69599998 -0.030507999 1.760562e-38 361 265
0.051106159 0.69400001 -0.030420333 1.7971874e-38 362 265
0.052322973 0.69400001 -0.030420333 1.806443e-38 363 265
0.053462639 0.69300002 -0.0303765 1.8064074e-38 364 265
0.054519895 0.69099998 -0.030288832 1.8064074e-38 365 265
0.055489492 0.68800002 -0.030157333 1.8064074e-38 366 265
0.056613375 0.68699998 -0.030113498 1.8064074e-38 367 265
0.057733759 0.68599999 -0.030069664 1.79726e-38 368 265
0.058936544 0.68599999 -0.030069664 1.79726e-38 369 265
0.060139328 0.68599999 -0.030069664 1.8064077e-38 370 265
0.061342116 0.68599999 -0.030069664 1.8064077e-38 371 265
0.062544905 0.68599999 -0.030069664 1.7971877e-38 372 265
0.063747689 0.68599999 -0.030069664 1.7879681e-38 373 265
0.064950474 0.68599999 -0.030069664 1.7328307e-38 374 265
0.066153266 0.68599999 -0.030069664 1.7143916e-38 375 265
0.067454241 0.68699998 -0.030113498 1.6959523e-38 376 265
0.068658777 0.68699998 -0.030113498 1.6682937e-38 377 265
0.069863312 0.68699998 -0.030113498 1.6498196e-38 378 265
0.071067855 0.68699998 -0.030113498 1.6313444e-38 379 265
0.07227239 0.68699998 -0.030113498 1.5485511e-38 380 265
0.073476933 0.68699998 -0.030113498 1.5024173e-38 381 265
0.074681476 0.68699998 -0.030113498 1.5309106e-38 382 265
0.030381758 0.722 -0.032913569 1.336575e-38 344 266
0.03156 0.72000003 -0.0328224 1.3734533e-38 345 266
0.0328224 0.72000003 -0.0328224 1.4195153e-38 346 266
0.033942781 0.71700001 -0.032685637 1.44721e-38 347 266
0.035150826 0.71600002 -0.032640055 1.5024197e-38 348 266
0.036304519 0.71399999 -0.032548878 1.5300782e-38 349 266
0.037503798 0.713 -0.032503292 1.5485524e-38 350 266
0.038645219 0.71100003 -0.032412119 1.5577719e-38 351 266
0.039835732 0.70999998 -0.032366529 1.5854654e-38 352 266
0.040964879 0.708 -0.03227536 1.5854654e-38 353 266
0.042087011 0.70599997 -0.032184184 1.6038682e-38 354 266
0.043202132 0.704 -0.032093015 1.6038682e-38 355 266
0.04437336 0.70300001 -0.032047424 1.6221994e-38 356 266
0.04541133 0.69999999 -0.031910665 1.631419e-38 357 266
0.046505414 0.69800001 -0.031819493 1.6406742e-38 358 266
0.047729239 0.69800001 -0.031819493 1.6498937e-38 359 266
0.048882935 0.69700003 -0.03177391 1.7328678e-38 360 266
0.050033119 0.69599998 -0.031728316 1.7420874e-38 361 266
0.051106159 0.69400001 -0.031637147 1.7696369e-38 362 266
0.05224758 0.69300002 -0.031591557 1.7788565e-38 363 266
0.053308345 0.69099998 -0.031500384 1.806443e-38 364 266
0.054440998 0.69 -0.031454802 1.806443e-38 365 266
0.055408835 0.68699998 -0.031318039 1.7972597e-38 366 266
0.056530971 0.68599999 -0.031272452 1.7788565e-38 367 266
0.057733759 0.68599999 -0.031272452 1.79726e-38 368 266
0.058764715 0.68400002 -0.03118128 1.79726e-38 369 266
0.059964001 0.68400002 -0.03118128 1.806443e-38 370 266
0.061163284 0.68400002 -0.03118128 1.806443e-38 371 266
0.062544905 0.68599999 -0.031272452 1.7972227e-38 372 266
0.063747689 0.68599999 -0.031272452 1.7880032e-38 373 266
0.064950474 0.68599999 -0.031272452 1.7695638e-38 374 266
0.066153266 0.68599999 -0.031272452 1.7419409e-38 375 266
0.06735605 0.68599999 -0.031272452 1.741833e-38 376 266
0.068558842 0.68599999 -0.031272452 1.7141745e-38 377 266
0.069761619 0.68599999 -0.031272452 1.704848e-38 378 266
0.070964411 0.68599999 -0.031272452 1.6771892e-38 379 266
0.071956798 0.68400002 -0.03118128 1.6220899e-38 380 266
0.073049128 0.68300003 -0.031135695 1.5114552e-38 381 266
0.074246652 0.68300003 -0.031135695 1.4384976e-38 382 266
0.075444184 0.68300003 -0.031135695 1.6966454e-38 383 266
0.030381758 0.722 -0.034179479 1.2813302e-38 344 267
0.03156 0.72000003 -0.034084801 1.327392e-38 345 267
0.0328224 0.72000003 -0.034084801 1.3826725e-38 346 267
0.03389544 0.71600002 -0.03389544 1.4011475e-38 347 267
0.035052639 0.71399999 -0.033800758 1.474759e-38 348 267
0.036253672 0.713 -0.033753417 1.5024176e-38 349 267
0.037398599 0.71100003 -0.033658739 1.5575906e-38 350 267
0.038590867 0.70999998 -0.033611398 1.5944687e-38 351 267
0.039723519 0.708 -0.033516716 1.6037602e-38 352 267
0.040907022 0.70700002 -0.033469379 1.6037602e-38 353 267
0.042087011 0.70599997 -0.033422034 1.6129802e-38 354 267
0.043202132 0.704 -0.03332736 1.6221997e-38 355 267
0.044247117 0.70099998 -0.03318534 1.6313471e-38 356 267
0.04541133 0.69999999 -0.033137999 1.6221275e-38 357 267
0.046505414 0.69800001 -0.033043321 1.6405297e-38 358 267
0.047660861 0.69700003 -0.03299598 1.6497492e-38 359 267
0.048882935 0.69700003 -0.03299598 1.6960616e-38 360 267
0.049889345 0.69400001 -0.032853961 1.7052812e-38 361 267
0.051032521 0.69300002 -0.03280662 1.8062994e-38 362 267
0.052096792 0.69099998 -0.032711938 1.8155189e-38 363 267
0.052999757 0.68699998 -0.032522578 1.8063344e-38 364 267
0.054125395 0.68599999 -0.032475237 1.815554e-38 365 267
0.055328183 0.68599999 -0.032475237 1.8063344e-38 366 267
0.056366164 0.68400002 -0.032380559 1.8063344e-38 367 267
0.057481278 0.68300003 -0.032333218 1.7972946e-38 368 267
0.05867881 0.68300003 -0.032333218 1.7972946e-38 369 267
0.059876334 0.68300003 -0.032333218 1.8064426e-38 370 267
0.060984433 0.68199998 -0.032285877 1.8064426e-38 371 267
0.062180214 0.68199998 -0.032285877 1.7972594e-38 372 267
0.063468911 0.68300003 -0.032333218 1.7788562e-38 373 267
0.064666435 0.68300003 -0.032333218 1.760489e-38 374 267
0.065863967 0.68300003 -0.032333218 1.7328663e-38 375 267
0.067061491 0.68300003 -0.032333218 1.7144265e-38 376 267
0.068259016 0.68300003 -0.032333218 1.6683288e-38 377 267
0.069354847 0.68199998 -0.032285877 1.6773691e-38 378 267
0.070550621 0.68199998 -0.032285877 1.6773691e-38 379 267
0.071851604 0.68300003 -0.032333218 1.5852839e-38 380 267
0.072942168 0.68199998 -0.032285877 1.5576612e-38 381 267
0.074137948 0.68199998 -0.032285877 1.3922186e-38 382 267
0.075554639 0.68400002 -0.032380559 1.5120729e-38 383 267
0.076753922 0.68400002 -0.032380559 1.6876469e-38 384 267
0.03156 0.72000003 -0.035347197 1.2261939e-38 345 268
0.0328224 0.72000003 -0.035347197 1.3181725e-38 346 268
0.03389544 0.71600002 -0.035150826 1.3550867e-38 347 268
0.035052639 0.71399999 -0.035052639 1.4194788e-38 348 268
0.036253672 0.713 -0.035003547 1.4655766e-38 349 268
0.037398599 0.71100003 -0.034905359 1.502455e-38 350 268
0.038590867 0.70999998 -0.034856264 1.5301135e-38 351 268
0.039723519 0.708 -0.034758076 1.5668839e-38 352 268
0.040907022 0.70700002 -0.034708988 1.5761034e-38 353 268
0.041967787 0.704 -0.034561705 1.594578e-38 354 268
0.043140765 0.70300001 -0.034512613 1.6037976e-38 355 268
0.044183996 0.69999999 -0.034365334 1.6129802e-38 356 268
0.04541133 0.69999999 -0.034365334 1.6129802e-38 357 268
0.046438783 0.69700003 -0.034218054 1.6313824e-38 358 268
0.047592476 0.69599998 -0.034168959 1.6221629e-38 359 268
0.048672531 0.69400001 -0.034070771 1.6500006e-38 360 268
0.049817458 0.69300002 -0.034021679 1.6776953e-38 361 268
0.050885238 0.69099998 -0.033923492 1.7420871e-38 362 268
0.051795214 0.68699998 -0.033727121 1.7420871e-38 363 268
0.05292261 0.68599999 -0.033678025 1.7788562e-38 364 268
0.053967599 0.68400002 -0.033579841 1.7696366e-38 365 268
0.055086225 0.68300003 -0.033530746 1.7880035e-38 366 268
0.056283753 0.68300003 -0.033530746 1.797223e-38 367 268
0.05739712 0.68199998 -0.03348165 1.7972227e-38 368 268
0.058421064 0.68000001 -0.033383466 1.8064423e-38 369 268
0.059613332 0.68000001 -0.033383466 1.8065146e-38 370 268
0.060716182 0.67900002 -0.033334374 1.8065146e-38 371 268
0.061906695 0.67900002 -0.033334374 1.7972949e-38 372 268
0.063097201 0.67900002 -0.033334374 1.7788918e-38 373 268
0.064287722 0.67900002 -0.033334374 1.7880032e-38 374 268
0.065478235 0.67900002 -0.033334374 1.7787836e-38 375 268
0.066668749 0.67900002 -0.033334374 1.7511607e-38 376 268
0.067959204 0.68000001 -0.033383466 1.7234659e-38 377 268
0.069049768 0.67900002 -0.033334374 1.6866603e-38 378 268
0.070240289 0.67900002 -0.033334374 1.6682212e-38 379 268
0.071430802 0.67900002 -0.033334374 1.6220901e-38 380 268
0.072621316 0.67900002 -0.033334374 1.5759925e-38 381 268
0.073811822 0.67900002 -0.033334374 1.3828176e-38 382 268
0.075554639 0.68400002 -0.033579841 1.41966e-38 383 268
0.076753922 0.68400002 -0.033579841 1.604597e-38 384 268
0.077953197 0.68400002 -0.033579841 1.7889883e-38 385 268
0.035052639 0.71399999 -0.036304519 1.3459037e-38 348 269
0.036151983 0.71100003 -0.036151983 1.3735624e-38 349 269
0.037398599 0.71100003 -0.036151983 1.44721e-38 350 269
0.038590867 0.70999998 -0.036101133 1.4840523e-38 351 269
0.039723519 0.708 -0.03599944 1.5392609e-38 352 269
0.040849157 0.70599997 -0.035897743 1.5484805e-38 353 269
0.041967787 0.704 -0.035796054 1.6036895e-38 354 269
0.043018032 0.70099998 -0.035643511 1.6129092e-38 355 269
0.044183996 0.69999999 -0.035592664 1.6129802e-38 356 269
0.045281585 0.69800001 -0.035490975 1.6037604e-38 357 269
0.046438783 0.69700003 -0.035440128 1.6221631e-38 358 269
0.047592476 0.69599998 -0.035389278 1.6313827e-38 359 269
0.048672531 0.69400001 -0.035287585 1.6131947e-38 360 269
0.049817458 0.69300002 -0.035236739 1.6316697e-38 361 269
0.050811596 0.69 -0.035084199 1.6960613e-38 362 269
0.051795214 0.68699998 -0.034931656 1.7145363e-38 363 269
0.05292261 0.68599999 -0.034880809 1.7696366e-38 364 269
0.053967599 0.68400002 -0.03477912 1.7696366e-38 365 269
0.055086225 0.68300003 -0.034728274 1.7879679e-38 366 269
0.056201346 0.68199998 -0.034677424 1.7879679e-38 367 269
0.057228796 0.68000001 -0.034575731 1.7971874e-38 368 269
0.058421064 0.68000001 -0.034575731 1.7971874e-38 369 269
0.059525665 0.67900002 -0.034524884 1.8064074e-38 370 269
0.060626756 0.67799997 -0.034474038 1.815627e-38 371 269
0.061815511 0.67799997 -0.034474038 1.8064077e-38 372 269
0.063004278 0.67799997 -0.034474038 1.797188e-38 373 269
0.06419304 0.67799997 -0.034474038 1.7788565e-38 374 269
0.065381795 0.67799997 -0.034474038 1.7696369e-38 375 269
0.066570558 0.67799997 -0.034474038 1.7511972e-38 376 269
0.06775932 0.67799997 -0.034474038 1.7327581e-38 377 269
0.068948075 0.67799997 -0.034474038 1.7050997e-38 378 269
0.070136838 0.67799997 -0.034474038 1.677441e-38 379 269
0.0713256 0.67799997 -0.034474038 1.5854268e-38 380 269
0.072514355 0.67799997 -0.034474038 1.5577682e-38 381 269
0.073703118 0.67799997 -0.034474038 1.437845e-38 382 269
0.075112797 0.68000001 -0.034575731 1.3733081e-38 383 269
0.076305062 0.68000001 -0.034575731 1.5031443e-38 384 269
0.077725261 0.68199998 -0.034677424 1.7705116e-38 385 269
0.036151983 0.71100003 -0.037398599 1.2999511e-38 349 270
0.037345998 0.70999998 -0.037345998 1.4011125e-38 350 270
0.038482159 0.708 -0.0372408 1.4379549e-38 351 270
0.039667413 0.70700002 -0.037188202 1.5023472e-38 352 270
0.040849157 0.70599997 -0.037135597 1.530006e-38 353 270
0.041908171 0.70300001 -0.036977798 1.5852511e-38 354 270
0.042956665 0.69999999 -0.036819998 1.5852511e-38 355 270
0.04405776 0.69800001 -0.0367148 1.6037251e-38 356 270
0.045281585 0.69800001 -0.0367148 1.6037251e-38 357 270
0.046438783 0.69700003 -0.036662199 1.6129081e-38 358 270
0.047455717 0.69400001 -0.036504399 1.6221278e-38 359 270
0.048602402 0.69300002 -0.036451802 1.6221629e-38 360 270
0.049673684 0.69099998 -0.036346599 1.6313824e-38 361 270
0.050811596 0.69 -0.036293998 1.6959897e-38 362 270
0.051719822 0.68599999 -0.036083598 1.7328678e-38 363 270
0.05292261 0.68599999 -0.036083598 1.7604173e-38 364 270
0.053809796 0.68199998 -0.035873197 1.7604173e-38 365 270
0.054763615 0.67900002 -0.035715401 1.7696366e-38 366 270
0.055954125 0.67900002 -0.035715401 1.7696366e-38 367 270
0.057060476 0.67799997 -0.0356628 1.7696366e-38 368 270
0.058249239 0.67799997 -0.0356628 1.7788562e-38 369 270
0.059437994 0.67799997 -0.0356628 1.7971877e-38 370 270
0.060626756 0.67799997 -0.0356628 1.7971877e-38 371 270
0.061815511 0.67799997 -0.0356628 1.7971877e-38 372 270
0.062818423 0.676 -0.035557602 1.7971877e-38 373 270
0.064003684 0.676 -0.035557602 1.7788562e-38 374 270
0.065188929 0.676 -0.035557602 1.7696366e-38 375 270
0.066374183 0.676 -0.035557602 1.7604168e-38 376 270
0.067559443 0.676 -0.035557602 1.7327581e-38 377 270
0.068744689 0.676 -0.035557602 1.7234662e-38 378 270
0.069826499 0.67500001 -0.035505001 1.686624e-38 379 270
0.071010001 0.67500001 -0.035505001 1.6130485e-38 380 270
0.072300449 0.676 -0.035557602 1.5577312e-38 381 270
0.073485702 0.676 -0.035557602 1.483834e-38 382 270
0.074891873 0.67799997 -0.0356628 1.3823829e-38 383 270
0.076080635 0.67799997 -0.0356628 1.4200236e-38 384 270
0.077725261 0.68199998 -0.035873197 1.6873911e-38 385 270
0.037345998 0.70999998 -0.038590867 1.3182806e-38 350 271
0.038482159 0.708 -0.038482159 1.355123e-38 351 271
0.039667413 0.70700002 -0.038427804 1.4469942e-38 352 271
0.040849157 0.70599997 -0.038373452 1.4839085e-38 353 271
0.041908171 0.70300001 -0.038210396 1.5392262e-38 354 271
0.042956665 0.69999999 -0.038047329 1.5484457e-38 355 271
0.04405776 0.69800001 -0.037938625 1.5760316e-38 356 271
0.045281585 0.69800001 -0.037938625 1.5852511e-38 357 271
0.046438783 0.69700003 -0.037884273 1.585322e-38 358 271
0.047387339 0.69300002 -0.037666857 1.585322e-38 359 271
0.04846213 0.69099998 -0.03755815 1.6128725e-38 360 271
0.049601797 0.69 -0.037503798 1.6313477e-38 361 271
0.050590675 0.68699998 -0.037340738 1.6406739e-38 362 271
0.051569041 0.68400002 -0.037177678 1.6775521e-38 363 271
0.052459732 0.68000001 -0.036960267 1.7419073e-38 364 271
0.053573098 0.67900002 -0.036905911 1.7419073e-38 365 271
0.054682959 0.67799997 -0.036851559 1.7327954e-38 366 271
0.055871718 0.67799997 -0.036851559 1.7327954e-38 367 271
0.056892153 0.676 -0.036742851 1.760382e-38 368 271
0.058077414 0.676 -0.036742851 1.7696016e-38 369 271
0.059262663 0.676 -0.036742851 1.7879328e-38 370 271
0.06044792 0.676 -0.036742851 1.7971524e-38 371 271
0.061633173 0.676 -0.036742851 1.7879681e-38 372 271
0.062725499 0.67500001 -0.036688499 1.7971877e-38 373 271
0.063909002 0.67500001 -0.036688499 1.7879681e-38 374 271
0.065092497 0.67500001 -0.036688499 1.7879681e-38 375 271
0.066275999 0.67500001 -0.036688499 1.7604171e-38 376 271
0.067459501 0.67500001 -0.036688499 1.7419779e-38 377 271
0.068643004 0.67500001 -0.036688499 1.7510523e-38 378 271
0.069723055 0.67400002 -0.036634147 1.7142101e-38 379 271
0.070904799 0.67400002 -0.036634147 1.6406349e-38 380 271
0.072193496 0.67500001 -0.036688499 1.5853177e-38 381 271
0.073485702 0.676 -0.036742851 1.4839063e-38 382 271
0.074891873 0.67799997 -0.036851559 1.4101496e-38 383 271
0.076080635 0.67799997 -0.036851559 1.3645262e-38 384 271
0.077269398 0.67799997 -0.036851559 1.5673565e-38 385 271
0.078573883 0.67900002 -0.036905911 1.6875763e-38 386 271
0.038482159 0.708 -0.039723519 1.2539605e-38 351 272
0.039667413 0.70700002 -0.039667413 1.3917139e-38 352 272
0.040849157 0.70599997 -0.039611302 1.4194084e-38 353 272
0.041908171 0.70300001 -0.039442986 1.465506e-38 354 272
0.042956665 0.69999999 -0.039274666 1.4931646e-38 355 272
0.04405776 0.69800001 -0.039162453 1.5484455e-38 356 272
0.045216713 0.69700003 -0.039106347 1.5668486e-38 357 272
0.046238903 0.69400001 -0.038938027 1.5760666e-38 358 272
0.047250576 0.69099998 -0.038769703 1.5760666e-38 359 272
0.048391998 0.69 -0.038713597 1.6036167e-38 360 272
0.049386136 0.68699998 -0.038545277 1.6312394e-38 361 272
0.050369758 0.68400002 -0.038376961 1.5946484e-38 362 272
0.051493648 0.68300003 -0.038320854 1.6038679e-38 363 272
0.052459732 0.68000001 -0.038152531 1.6775151e-38 364 272
0.053573098 0.67900002 -0.038096428 1.6959544e-38 365 272
0.054682959 0.67799997 -0.038040318 1.7327231e-38 366 272
0.055706903 0.676 -0.037928104 1.7327231e-38 367 272
0.056892153 0.676 -0.037928104 1.7511256e-38 368 272
0.058077414 0.676 -0.037928104 1.7695287e-38 369 272
0.059262663 0.676 -0.037928104 1.7878963e-38 370 272
0.060358498 0.67500001 -0.037871998 1.7878963e-38 371 272
0.061542001 0.67500001 -0.037871998 1.7878963e-38 372 272
0.062632568 0.67400002 -0.037815895 1.8062994e-38 373 272
0.06381432 0.67400002 -0.037815895 1.8062641e-38 374 272
0.064803198 0.67199999 -0.037703678 1.7878609e-38 375 272
0.06598144 0.67199999 -0.037703678 1.7604173e-38 376 272
0.067359567 0.67400002 -0.037815895 1.7419424e-38 377 272
0.068337917 0.67199999 -0.037703678 1.7419058e-38 378 272
0.069516152 0.67199999 -0.037703678 1.7142469e-38 379 272
0.070694394 0.67199999 -0.037703678 1.6314881e-38 380 272
0.07208655 0.67400002 -0.037815895 1.5853543e-38 381 272
0.073376998 0.67500001 -0.037871998 1.4840139e-38 382 272
0.074670963 0.676 -0.037928104 1.4286605e-38 383 272
0.075856209 0.676 -0.037928104 1.2815129e-38 384 272
0.077041462 0.676 -0.037928104 1.4382814e-38 385 272
0.078573883 0.67900002 -0.038096428 1.6874314e-38 386 272
0.079764389 0.67900002 -0.038096428 1.7335652e-38 387 272
0.041908171 0.70300001 -0.040675577 1.3734182e-38 354 273
0.042772565 0.69700003 -0.040328421 1.4286997e-38 355 273
0.043931518 0.69599998 -0.040270556 1.4931646e-38 356 273
0.045022093 0.69400001 -0.040154841 1.5577016e-38 357 273
0.04617228 0.69300002 -0.04009698 1.5577725e-38 358 273
0.047250576 0.69099998 -0.039981257 1.5485171e-38 359 273
0.048181597 0.68699998 -0.039749816 1.5669192e-38 360 273
0.049314249 0.68599999 -0.039691959 1.5669192e-38 361 273
0.05029612 0.68300003 -0.039518382 1.5761385e-38 362 273
0.051267464 0.68000001 -0.039344799 1.5761385e-38 363 273
0.052459732 0.68000001 -0.039344799 1.5762091e-38 364 273
0.053494196 0.67799997 -0.039229076 1.6315265e-38 365 273
0.054521654 0.676 -0.039113361 1.7050293e-38 366 273
0.055706903 0.676 -0.039113361 1.7234325e-38 367 273
0.056808002 0.67500001 -0.039055496 1.7236111e-38 368 273
0.057991501 0.67500001 -0.039055496 1.7236111e-38 369 273
0.059175 0.67500001 -0.039055496 1.7511622e-38 370 273
0.06026908 0.67400002 -0.038997639 1.7603818e-38 371 273
0.061450824 0.67400002 -0.038997639 1.7786779e-38 372 273
0.062446721 0.67199999 -0.03888192 1.7878975e-38 373 273
0.063624956 0.67199999 -0.03888192 1.7879331e-38 374 273
0.064706765 0.671 -0.038824059 1.7787135e-38 375 273
0.065883249 0.671 -0.038824059 1.769529e-38 376 273
0.06705974 0.671 -0.038824059 1.75109e-38 377 273
0.068236224 0.671 -0.038824059 1.7510173e-38 378 273
0.069412716 0.671 -0.038824059 1.7141751e-38 379 273
0.0705892 0.671 -0.038824059 1.686445e-38 380 273
0.071872637 0.67199999 -0.03888192 1.6403832e-38 381 273
0.073268294 0.67400002 -0.038997639 1.5117428e-38 382 273
0.074560501 0.67500001 -0.039055496 1.4287308e-38 383 273
0.075856209 0.676 -0.039113361 1.2812949e-38 384 273
0.077041462 0.676 -0.039113361 1.3919295e-38 385 273
0.078226723 0.676 -0.039113361 1.6229651e-38 386 273
0.042772565 0.69700003 -0.041550495 1.3182107e-38 355 274
0.043931518 0.69599998 -0.041490879 1.4195533e-38 356 274
0.044957221 0.69300002 -0.041312039 1.4840903e-38 357 274
0.04617228 0.69300002 -0.041312039 1.5483378e-38 358 274
0.047250576 0.69099998 -0.041192811 1.5575574e-38 359 274
0.048181597 0.68699998 -0.040954359 1.5759587e-38 360 274
0.049170479 0.68400002 -0.040775519 1.5851783e-38 361 274
0.05029612 0.68300003 -0.040715907 1.585177e-38 362 274
0.051267464 0.68000001 -0.040537067 1.52064e-38 363 274
0.052459732 0.68000001 -0.040537067 1.4287308e-38 364 274
0.053336397 0.676 -0.040298611 1.5394016e-38 365 274
0.054521654 0.676 -0.040298611 1.6958448e-38 366 274
0.0556245 0.67500001 -0.040238999 1.6958448e-38 367 274
0.056723841 0.67400002 -0.040179387 1.7326858e-38 368 274
0.057905588 0.67400002 -0.040179387 1.7419054e-38 369 274
0.059087332 0.67400002 -0.040179387 1.7694568e-38 370 274
0.06026908 0.67400002 -0.040179387 1.7786764e-38 371 274
0.061268479 0.67199999 -0.040060159 1.7786417e-38 372 274
0.06235379 0.671 -0.040000543 1.7878612e-38 373 274
0.063530281 0.671 -0.040000543 1.7878259e-38 374 274
0.064706765 0.671 -0.040000543 1.7878259e-38 375 274
0.065883249 0.671 -0.040000543 1.7694937e-38 376 274
0.06705974 0.671 -0.040000543 1.7510906e-38 377 274
0.068134531 0.67000002 -0.039940935 1.732651e-38 378 274
0.069309272 0.67000002 -0.039940935 1.7234315e-38 379 274
0.070483997 0.67000002 -0.039940935 1.6773704e-38 380 274
0.071765684 0.671 -0.040000543 1.622053e-38 381 274
0.073050871 0.67199999 -0.040060159 1.5025958e-38 382 274
0.074450038 0.67400002 -0.040179387 1.4380589e-38 383 274
0.07563179 0.67400002 -0.040179387 1.3549068e-38 384 274
0.076813534 0.67400002 -0.040179387 1.3549068e-38 385 274
0.077995278 0.67400002 -0.040179387 1.5491717e-38 386 274
0.043805279 0.69400001 -0.042588469 1.2997356e-38 356 275
0.044957221 0.69300002 -0.042527102 1.3827477e-38 357 275
0.046039023 0.69099998 -0.042404365 1.4839819e-38 358 275
0.046977058 0.68699998 -0.042158898 1.5024212e-38 359 275
0.048111461 0.68599999 -0.042097531 1.5207147e-38 360 275
0.049170479 0.68400002 -0.041974798 1.539118e-38 361 275
0.050222475 0.68199998 -0.041852064 1.5483359e-38 362 275
0.051116679 0.67799997 -0.041606598 1.4561044e-38 363 275
0.052151144 0.676 -0.041483864 1.3546141e-38 364 275
0.053336397 0.676 -0.041483864 1.5390052e-38 365 275
0.054441001 0.67500001 -0.041422497 1.6681861e-38 366 275
0.0556245 0.67500001 -0.041422497 1.7235034e-38 367 275
0.056555521 0.67199999 -0.041238401 1.7418352e-38 368 275
0.057733759 0.67199999 -0.041238401 1.7326154e-38 369 275
0.058911994 0.67199999 -0.041238401 1.741907e-38 370 275
0.060000818 0.671 -0.041177034 1.741907e-38 371 275
0.061177302 0.671 -0.041177034 1.7510553e-38 372 275
0.06226087 0.67000002 -0.041115668 1.7694584e-38 373 275
0.063435599 0.67000002 -0.041115668 1.7694584e-38 374 275
0.064610332 0.67000002 -0.041115668 1.7694584e-38 375 275
0.065785065 0.67000002 -0.041115668 1.7511625e-38 376 275
0.066959806 0.67000002 -0.041115668 1.7326875e-38 377 275
0.068134531 0.67000002 -0.041115668 1.7234315e-38 378 275
0.069309272 0.67000002 -0.041115668 1.7049565e-38 379 275
0.070483997 0.67000002 -0.041115668 1.6772985e-38 380 275
0.071658738 0.67000002 -0.041115668 1.6496397e-38 381 275
0.072942175 0.671 -0.041177034 1.5301465e-38 382 275
0.074118659 0.671 -0.041177034 1.4656095e-38 383 275
0.075295143 0.671 -0.041177034 1.3365753e-38 384 275
0.076471634 0.671 -0.041177034 1.2812219e-38 385 275
0.043615919 0.69099998 -0.043615919 1.1891012e-38 356 276
0.044827472 0.69099998 -0.043615919 1.2536382e-38 357 276
0.046039023 0.69099998 -0.043615919 1.4103338e-38 358 276
0.046977058 0.68699998 -0.043363437 1.465651e-38 359 276
0.0479712 0.68400002 -0.043174081 1.511352e-38 360 276
0.049098592 0.68300003 -0.043110959 1.511352e-38 361 276
0.050075196 0.68000001 -0.042921599 1.5297893e-38 362 276
0.051116679 0.67799997 -0.042795356 1.4468132e-38 363 276
0.052151144 0.676 -0.042669121 1.3729103e-38 364 276
0.053257499 0.67500001 -0.042606 1.5480459e-38 365 276
0.054441001 0.67500001 -0.042606 1.6220164e-38 366 276
0.055542093 0.67400002 -0.042542879 1.7049565e-38 367 276
0.056555521 0.67199999 -0.042416636 1.7234315e-38 368 276
0.057647847 0.671 -0.042353518 1.7234315e-38 369 276
0.058824331 0.671 -0.042353518 1.7418707e-38 370 276
0.060000818 0.671 -0.042353518 1.7418707e-38 371 276
0.061086133 0.67000002 -0.042290401 1.7418352e-38 372 276
0.06226087 0.67000002 -0.042290401 1.7510906e-38 373 276
0.063435599 0.67000002 -0.042290401 1.751055e-38 374 276
0.064417459 0.66799998 -0.042164158 1.751055e-38 375 276
0.065588683 0.66799998 -0.042164158 1.751055e-38 376 276
0.066759922 0.66799998 -0.042164158 1.7233962e-38 377 276
0.067931145 0.66799998 -0.042164158 1.723324e-38 378 276
0.069102369 0.66799998 -0.042164158 1.7048849e-38 379 276
0.070273593 0.66799998 -0.042164158 1.6498549e-38 380 276
0.071444817 0.66799998 -0.042164158 1.6221602e-38 381 276
0.072616048 0.66799998 -0.042164158 1.5760997e-38 382 276
0.074008204 0.67000002 -0.042290401 1.5115627e-38 383 276
0.07518293 0.67000002 -0.042290401 1.3551218e-38 384 276
0.076357663 0.67000002 -0.042290401 1.2721455e-38 385 276
0.077069521 0.66600001 -0.042037919 1.4015499e-38 386 276
0.043552797 0.69 -0.0447626 1.1794143e-38 356 277
0.0447626 0.69 -0.0447626 1.1517557e-38 357 277
0.045972396 0.69 -0.0447626 1.2167948e-38 358 277
0.046977058 0.68699998 -0.044567976 1.3089905e-38 359 277
0.0479712 0.68400002 -0.04437336 1.3640913e-38 360 277
0.049026705 0.68199998 -0.044243611 1.4009337e-38 361 277
0.050075196 0.68000001 -0.044113863 1.4377384e-38 362 277
0.050965894 0.676 -0.043854371 1.3916406e-38 363 277
0.052151144 0.676 -0.043854371 1.428157e-38 364 277
0.053257499 0.67500001 -0.043789499 1.57567e-38 365 277
0.054441001 0.67500001 -0.043789499 1.5943942e-38 366 277
0.055542093 0.67400002 -0.043724626 1.6589311e-38 367 277
0.056555521 0.67199999 -0.043594878 1.7049565e-38 368 277
0.057647847 0.671 -0.043530006 1.7049565e-38 369 277
0.058824331 0.671 -0.043530006 1.714176e-38 370 277
0.0599114 0.67000002 -0.043465134 1.7234315e-38 371 277
0.061086133 0.67000002 -0.043465134 1.7417627e-38 372 277
0.062075011 0.66799998 -0.043335386 1.7509823e-38 373 277
0.063246235 0.66799998 -0.043335386 1.732651e-38 374 277
0.064321034 0.667 -0.04327051 1.732651e-38 375 277
0.065490507 0.667 -0.04327051 1.7234315e-38 376 277
0.06665998 0.667 -0.04327051 1.714176e-38 377 277
0.067727759 0.66600001 -0.043205637 1.7049565e-38 378 277
0.068895474 0.66600001 -0.043205637 1.6773338e-38 379 277
0.070063196 0.66600001 -0.043205637 1.6405993e-38 380 277
0.071337871 0.667 -0.04327051 1.6313798e-38 381 277
0.072507344 0.667 -0.04327051 1.5760997e-38 382 277
0.073676817 0.667 -0.04327051 1.5392214e-38 383 277
0.074734077 0.66600001 -0.043205637 1.4102589e-38 384 277
0.075901799 0.66600001 -0.043205637 1.3088797e-38 385 277
0.077069521 0.66600001 -0.043205637 1.3185732e-38 386 277
0.078002289 0.66399997 -0.043075889 1.5490622e-38 387 277
0.043426562 0.68800002 -0.045839146 1.1794143e-38 356 278
0.044632856 0.68800002 -0.045839146 1.0503405e-38 357 278
0.045972396 0.69 -0.045972396 1.013857e-38 358 278
0.046977058 0.68699998 -0.045772515 1.0876135e-38 359 278
0.0479712 0.68400002 -0.045572639 1.2167948e-38 360 278
0.049026705 0.68199998 -0.045439381 1.2997709e-38 361 278
0.049927916 0.67799997 -0.045172878 1.3641614e-38 362 278
0.050965894 0.676 -0.045039624 1.3457223e-38 363 278
0.052074 0.67500001 -0.044972997 1.4467033e-38 364 278
0.053257499 0.67500001 -0.044972997 1.5942163e-38 365 278
0.054360349 0.67400002 -0.044906374 1.585212e-38 366 278
0.055377278 0.67199999 -0.044773117 1.6220901e-38 367 278
0.056471359 0.671 -0.044706494 1.6314528e-38 368 278
0.057561934 0.67000002 -0.044639867 1.6498559e-38 369 278
0.058736663 0.67000002 -0.044639867 1.6866253e-38 370 278
0.0599114 0.67000002 -0.044639867 1.6958448e-38 371 278
0.060903784 0.66799998 -0.044506609 1.7049565e-38 372 278
0.062075011 0.66799998 -0.044506609 1.714176e-38 373 278
0.063151561 0.667 -0.044439986 1.6958451e-38 374 278
0.064224601 0.66600001 -0.04437336 1.6958451e-38 375 278
0.065392323 0.66600001 -0.04437336 1.6958451e-38 376 278
0.066560037 0.66600001 -0.04437336 1.6773701e-38 377 278
0.067727759 0.66600001 -0.04437336 1.6681508e-38 378 278
0.068895474 0.66600001 -0.04437336 1.6589311e-38 379 278
0.070063196 0.66600001 -0.04437336 1.6404924e-38 380 278
0.071230918 0.66600001 -0.04437336 1.6312728e-38 381 278
0.07239864 0.66600001 -0.04437336 1.5760997e-38 382 278
0.073566355 0.66600001 -0.04437336 1.5576964e-38 383 278
0.07450965 0.66399997 -0.044240102 1.4287684e-38 384 278
0.075673863 0.66399997 -0.044240102 1.30895e-38 385 278
0.076838076 0.66399997 -0.044240102 1.2355958e-38 386 278
0.078002289 0.66399997 -0.044240102 1.4937077e-38 387 278
0.043363437 0.68699998 -0.046977058 1.1889579e-38 356 279
0.044567976 0.68699998 -0.046977058 1.0875787e-38 357 279
0.045839146 0.68800002 -0.047045439 7.740393e-39 358 279
0.046977058 0.68699998 -0.046977058 7.3712517e-39 359 279
0.047901068 0.68300003 -0.04670354 8.4851593e-39 360 279
0.048739154 0.67799997 -0.046361636 1.1066637e-38 361 279
0.049780637 0.676 -0.046224877 1.3458316e-38 362 279
0.050890498 0.67500001 -0.0461565 1.3550511e-38 363 279
0.052074 0.67500001 -0.0461565 1.4930539e-38 364 279
0.053178601 0.67400002 -0.046088122 1.575994e-38 365 279
0.054360349 0.67400002 -0.046088122 1.5669527e-38 366 279
0.055377278 0.67199999 -0.045951359 1.5669527e-38 367 279
0.056387197 0.67000002 -0.0458146 1.6405277e-38 368 279
0.057561934 0.67000002 -0.0458146 1.6589308e-38 369 279
0.058561329 0.66799998 -0.045677837 1.6773688e-38 370 279
0.059643134 0.667 -0.045609459 1.6865884e-38 371 279
0.060812607 0.667 -0.045609459 1.6865884e-38 372 279
0.06198208 0.667 -0.045609459 1.6865884e-38 373 279
0.063056879 0.66600001 -0.045541082 1.7049202e-38 374 279
0.064224601 0.66600001 -0.045541082 1.7049202e-38 375 279
0.06519594 0.66399997 -0.045404319 1.6865534e-38 376 279
0.066360161 0.66399997 -0.045404319 1.6773338e-38 377 279
0.067524366 0.66399997 -0.045404319 1.6589308e-38 378 279
0.068688579 0.66399997 -0.045404319 1.6589308e-38 379 279
0.069852799 0.66399997 -0.045404319 1.6221249e-38 380 279
0.071017005 0.66399997 -0.045404319 1.6037218e-38 381 279
0.072181225 0.66399997 -0.045404319 1.5577328e-38 382 279
0.07334543 0.66399997 -0.045404319 1.5669524e-38 383 279
0.07450965 0.66399997 -0.045404319 1.4747946e-38 384 279
