# .PCD v.7 - Point Cloud Data file format
FIELDS x y z rgb imX imY
SIZE 4 4 4 4 4 4
TYPE F F F F F F
COUNT 1 1 1 1 1 1
WIDTH 841
HEIGHT 1
VIEWPOINT 0 0 0 1 0 0 0
POINTS 841
DATA ascii
0.063635476 0.78899997 -0.0083002793 1.520892e-38 366 246
0.065018855 0.78899997 -0.0083002793 1.5393313e-38 367 246
0.066233918 0.787 -0.0082792398 1.585464e-38 368 246
0.067441963 0.78500003 -0.0082582003 1.5946837e-38 369 246
0.068818331 0.78500003 -0.0082582003 1.6497136e-38 370 246
0.070015855 0.78299999 -0.0082371598 1.6589691e-38 371 246
0.071388714 0.78299999 -0.0082371598 1.6865562e-38 372 246
0.07276158 0.78299999 -0.0082371598 1.7050313e-38 373 246
0.074134432 0.78299999 -0.0082371598 1.7142158e-38 374 246
0.075507298 0.78299999 -0.0082371598 1.732655e-38 375 246
0.076880157 0.78299999 -0.0082371598 1.7142874e-38 376 246
0.078253016 0.78299999 -0.0082371598 1.6866648e-38 377 246
0.079625882 0.78299999 -0.0082371598 1.6589335e-38 378 246
0.080998734 0.78299999 -0.0082371598 1.6497139e-38 379 246
0.0823716 0.78299999 -0.0082371598 1.6034719e-38 380 246
0.083744459 0.78299999 -0.0082371598 1.5849968e-38 381 246
0.08511731 0.78299999 -0.0082371598 1.5297497e-38 382 246
0.086490177 0.78299999 -0.0082371598 1.5113106e-38 383 246
0.087863036 0.78299999 -0.0082371598 1.4378045e-38 384 246
0.089235894 0.78299999 -0.0082371598 1.3917069e-38 385 246
0.090840198 0.78500003 -0.0082582003 1.3273147e-38 386 246
0.092216566 0.78500003 -0.0082582003 1.2904005e-38 387 246
0.093592934 0.78500003 -0.0082582003 1.2349095e-38 388 246
0.058322877 0.792 -0.0097204801 1.4377384e-38 362 247
0.059711516 0.792 -0.0097204801 1.4561775e-38 363 247
0.060945868 0.79000002 -0.0096959332 1.4563211e-38 364 247
0.062330995 0.79000002 -0.0096959332 1.4747961e-38 365 247
0.063635476 0.78899997 -0.0096836593 1.4657558e-38 366 247
0.065018855 0.78899997 -0.0096836593 1.5118536e-38 367 247
0.066233918 0.787 -0.0096591124 1.5578423e-38 368 247
0.067441963 0.78500003 -0.0096345674 1.5670977e-38 369 247
0.068818331 0.78500003 -0.0096345674 1.6221997e-38 370 247
0.070015855 0.78299999 -0.0096100196 1.6314193e-38 371 247
0.071388714 0.78299999 -0.0096100196 1.6498587e-38 372 247
0.07276158 0.78299999 -0.0096100196 1.6774815e-38 373 247
0.074134432 0.78299999 -0.0096100196 1.6959209e-38 374 247
0.075507298 0.78299999 -0.0096100196 1.6959209e-38 375 247
0.076880157 0.78299999 -0.0096100196 1.7143228e-38 376 247
0.078253016 0.78299999 -0.0096100196 1.6867001e-38 377 247
0.079625882 0.78299999 -0.0096100196 1.6865546e-38 378 247
0.080791846 0.78100002 -0.0095854728 1.6588958e-38 379 247
0.082161196 0.78100002 -0.0095854728 1.6219811e-38 380 247
0.083744459 0.78299999 -0.0096100196 1.5574442e-38 381 247
0.08511731 0.78299999 -0.0096100196 1.5756661e-38 382 247
0.086490177 0.78299999 -0.0096100196 1.538788e-38 383 247
0.087863036 0.78299999 -0.0096100196 1.4652819e-38 384 247
0.089235894 0.78299999 -0.0096100196 1.4375873e-38 385 247
0.090608761 0.78299999 -0.0096100196 1.3456797e-38 386 247
0.092216566 0.78500003 -0.0096345674 1.317985e-38 387 247
0.058322877 0.792 -0.011109119 1.4285551e-38 362 248
0.059711516 0.792 -0.011109119 1.4469942e-38 363 248
0.060945868 0.79000002 -0.011081067 1.45632e-38 364 248
0.062330995 0.79000002 -0.011081067 1.4747593e-38 365 248
0.063635476 0.78899997 -0.011067039 1.5025252e-38 366 248
0.064854041 0.787 -0.011038986 1.530148e-38 367 248
0.066233918 0.787 -0.011038986 1.5762091e-38 368 248
0.067441963 0.78500003 -0.011010934 1.5854287e-38 369 248
0.068643004 0.78299999 -0.010982879 1.6221994e-38 370 248
0.070015855 0.78299999 -0.010982879 1.631419e-38 371 248
0.071206369 0.78100002 -0.010954826 1.6590057e-38 372 248
0.072575726 0.78100002 -0.010954826 1.6866645e-38 373 248
0.073945075 0.78100002 -0.010954826 1.6866292e-38 374 248
0.075314432 0.78100002 -0.010954826 1.7142877e-38 375 248
0.076683782 0.78100002 -0.010954826 1.723507e-38 376 248
0.078053139 0.78100002 -0.010954826 1.7142874e-38 377 248
0.079422489 0.78100002 -0.010954826 1.6957394e-38 378 248
0.080791846 0.78100002 -0.010954826 1.6773003e-38 379 248
0.082161196 0.78100002 -0.010954826 1.6310933e-38 380 248
0.083530553 0.78100002 -0.010954826 1.5942151e-38 381 248
0.084899902 0.78100002 -0.010954826 1.5573714e-38 382 248
0.086269259 0.78100002 -0.010954826 1.5204933e-38 383 248
0.087863036 0.78299999 -0.010982879 1.4469872e-38 384 248
0.089235894 0.78299999 -0.010982879 1.4100731e-38 385 248
0.090608761 0.78299999 -0.010982879 1.3456809e-38 386 248
0.058175597 0.79000002 -0.0124662 1.4377397e-38 362 249
0.059560735 0.79000002 -0.0124662 1.4561789e-38 363 249
0.060945868 0.79000002 -0.0124662 1.4563214e-38 364 249
0.062252093 0.78899997 -0.012450419 1.4747606e-38 365 249
0.063474171 0.787 -0.01241886 1.4657558e-38 366 249
0.064854041 0.787 -0.01241886 1.5026341e-38 367 249
0.066065602 0.78500003 -0.0123873 1.5578426e-38 368 249
0.067270137 0.78299999 -0.012355739 1.5670621e-38 369 249
0.068643004 0.78299999 -0.012355739 1.6313477e-38 370 249
0.069837019 0.78100002 -0.01232418 1.6497508e-38 371 249
0.071206369 0.78100002 -0.01232418 1.6498587e-38 372 249
0.072575726 0.78100002 -0.01232418 1.6682618e-38 373 249
0.073945075 0.78100002 -0.01232418 1.6867011e-38 374 249
0.075314432 0.78100002 -0.01232418 1.6959565e-38 375 249
0.076683782 0.78100002 -0.01232418 1.7052111e-38 376 249
0.078053139 0.78100002 -0.01232418 1.686772e-38 377 249
0.079422489 0.78100002 -0.01232418 1.7050649e-38 378 249
0.080791846 0.78100002 -0.01232418 1.6681508e-38 379 249
0.082161196 0.78100002 -0.01232418 1.6678621e-38 380 249
0.083530553 0.78100002 -0.01232418 1.6309479e-38 381 249
0.084899902 0.78100002 -0.01232418 1.5665544e-38 382 249
0.086269259 0.78100002 -0.01232418 1.5388599e-38 383 249
0.087638609 0.78100002 -0.01232418 1.4836853e-38 384 249
0.089007966 0.78100002 -0.01232418 1.4375876e-38 385 249
0.090377316 0.78100002 -0.01232418 1.3731951e-38 386 249
0.091746673 0.78100002 -0.01232418 1.3363168e-38 387 249
0.058175597 0.79000002 -0.013851333 1.4194097e-38 362 250
0.059560735 0.79000002 -0.013851333 1.4471044e-38 363 250
0.060868718 0.78899997 -0.013833799 1.4471391e-38 364 250
0.062252093 0.78899997 -0.013833799 1.4563946e-38 365 250
0.063474171 0.787 -0.013798732 1.4657558e-38 366 250
0.064854041 0.787 -0.013798732 1.5026341e-38 367 250
0.066065602 0.78500003 -0.013763667 1.5486227e-38 368 250
0.067270137 0.78299999 -0.013728599 1.5670977e-38 369 250
0.068467662 0.78100002 -0.013693534 1.6313474e-38 370 250
0.069837019 0.78100002 -0.013693534 1.6497505e-38 371 250
0.071206369 0.78100002 -0.013693534 1.6681899e-38 372 250
0.072575726 0.78100002 -0.013693534 1.6866292e-38 373 250
0.073850393 0.77999997 -0.013675999 1.6867011e-38 374 250
0.075217992 0.77999997 -0.013675999 1.7051761e-38 375 250
0.076683782 0.78100002 -0.013693534 1.7144309e-38 376 250
0.078053139 0.78100002 -0.013693534 1.6959559e-38 377 250
0.079422489 0.78100002 -0.013693534 1.7051012e-38 378 250
0.080688395 0.77999997 -0.013675999 1.6590036e-38 379 250
0.082055993 0.77999997 -0.013675999 1.6403832e-38 380 250
0.083423592 0.77999997 -0.013675999 1.6219081e-38 381 250
0.084791191 0.77999997 -0.013675999 1.584958e-38 382 250
0.086158797 0.77999997 -0.013675999 1.5480797e-38 383 250
0.087526396 0.77999997 -0.013675999 1.4929048e-38 384 250
0.088893995 0.77999997 -0.013675999 1.4468072e-38 385 250
0.090377316 0.78100002 -0.013693534 1.3732307e-38 386 250
0.091746673 0.78100002 -0.013693534 1.3455362e-38 387 250
0.058175597 0.79000002 -0.015236467 1.3734926e-38 362 251
0.059560735 0.79000002 -0.015236467 1.410335e-38 363 251
0.060868718 0.78899997 -0.015217179 1.4654706e-38 364 251
0.062252093 0.78899997 -0.015217179 1.4839456e-38 365 251
0.063474171 0.787 -0.015178605 1.4933069e-38 366 251
0.064854041 0.787 -0.015178605 1.5025625e-38 367 251
0.066065602 0.78500003 -0.015140033 1.5669895e-38 368 251
0.067270137 0.78299999 -0.01510146 1.5762091e-38 369 251
0.068467662 0.78100002 -0.015062887 1.6313471e-38 370 251
0.069837019 0.78100002 -0.015062887 1.6497861e-38 371 251
0.071206369 0.78100002 -0.015062887 1.6681899e-38 372 251
0.072482795 0.77999997 -0.0150436 1.6866292e-38 373 251
0.073850393 0.77999997 -0.0150436 1.6958843e-38 374 251
0.075217992 0.77999997 -0.0150436 1.723507e-38 375 251
0.076585598 0.77999997 -0.0150436 1.7052111e-38 376 251
0.077953197 0.77999997 -0.0150436 1.6959915e-38 377 251
0.07911741 0.778 -0.015005025 1.7050662e-38 378 251
0.080481507 0.778 -0.015005025 1.6681881e-38 379 251
0.081845596 0.778 -0.015005025 1.6495688e-38 380 251
0.083209693 0.778 -0.015005025 1.6035068e-38 381 251
0.084573783 0.778 -0.015005025 1.5757754e-38 382 251
0.08593788 0.778 -0.015005025 1.5481166e-38 383 251
0.08730197 0.778 -0.015005025 1.4837227e-38 384 251
0.088666067 0.778 -0.015005025 1.4468443e-38 385 251
0.090261593 0.77999997 -0.0150436 1.3824516e-38 386 251
0.091629192 0.77999997 -0.0150436 1.3179146e-38 387 251
0.09311603 0.78100002 -0.015062887 1.2810389e-38 388 251
0.058175597 0.79000002 -0.016621601 1.336723e-38 362 252
0.059560735 0.79000002 -0.016621601 1.3644177e-38 363 252
0.060868718 0.78899997 -0.016600559 1.4379917e-38 364 252
0.062252093 0.78899997 -0.016600559 1.4564309e-38 365 252
0.063635476 0.78899997 -0.016600559 1.4749757e-38 366 252
0.064854041 0.787 -0.01655848 1.5026343e-38 367 252
0.066065602 0.78500003 -0.016516401 1.5486583e-38 368 252
0.067270137 0.78299999 -0.01647432 1.5670974e-38 369 252
0.068467662 0.78100002 -0.016432239 1.6038685e-38 370 252
0.069837019 0.78100002 -0.016432239 1.6314912e-38 371 252
0.071115196 0.77999997 -0.016411198 1.6682265e-38 372 252
0.072482795 0.77999997 -0.016411198 1.6682265e-38 373 252
0.073850393 0.77999997 -0.016411198 1.6683698e-38 374 252
0.075025134 0.778 -0.016369121 1.6775894e-38 375 252
0.076389223 0.778 -0.016369121 1.6776603e-38 376 252
0.07775332 0.778 -0.016369121 1.6684049e-38 377 252
0.07911741 0.778 -0.016369121 1.6958466e-38 378 252
0.080481507 0.778 -0.016369121 1.6589685e-38 379 252
0.081635199 0.77600002 -0.01632704 1.6863384e-38 380 252
0.082995787 0.77600002 -0.01632704 1.631021e-38 381 252
0.084356368 0.77600002 -0.01632704 1.575811e-38 382 252
0.085716955 0.77600002 -0.01632704 1.5481163e-38 383 252
0.087077543 0.77600002 -0.01632704 1.4837227e-38 384 252
0.088438138 0.77600002 -0.01632704 1.4560639e-38 385 252
0.089798726 0.77600002 -0.01632704 1.4008181e-38 386 252
0.091629192 0.77999997 -0.016411198 1.3455367e-38 387 252
0.092996791 0.77999997 -0.016411198 1.2994051e-38 388 252
0.058175597 0.79000002 -0.018006733 1.3366511e-38 362 253
0.059485335 0.78899997 -0.017983939 1.3827489e-38 363 253
0.060868718 0.78899997 -0.017983939 1.4471394e-38 364 253
0.062252093 0.78899997 -0.017983939 1.4655785e-38 365 253
0.063474171 0.787 -0.017938353 1.5208214e-38 366 253
0.064689234 0.78500003 -0.017892767 1.5300411e-38 367 253
0.065897278 0.78299999 -0.017847179 1.5670248e-38 368 253
0.067098312 0.78100002 -0.017801592 1.585464e-38 369 253
0.068467662 0.78100002 -0.017801592 1.6130149e-38 370 253
0.069837019 0.78100002 -0.017801592 1.6222345e-38 371 253
0.071115196 0.77999997 -0.017778799 1.6681531e-38 372 253
0.072482795 0.77999997 -0.017778799 1.6958116e-38 373 253
0.073661037 0.778 -0.017733213 1.6867001e-38 374 253
0.075025134 0.778 -0.017733213 1.6959196e-38 375 253
0.076389223 0.778 -0.017733213 1.6959915e-38 376 253
0.07775332 0.778 -0.017733213 1.686772e-38 377 253
0.078914031 0.77600002 -0.017687626 1.6866645e-38 378 253
0.080274612 0.77600002 -0.017687626 1.6682252e-38 379 253
0.081635199 0.77600002 -0.017687626 1.6312028e-38 380 253
0.082995787 0.77600002 -0.017687626 1.6127278e-38 381 253
0.084356368 0.77600002 -0.017687626 1.5391501e-38 382 253
0.085716955 0.77600002 -0.017687626 1.5022358e-38 383 253
0.087077543 0.77600002 -0.017687626 1.4562451e-38 384 253
0.088438138 0.77600002 -0.017687626 1.4009636e-38 385 253
0.089798726 0.77600002 -0.017687626 1.3641573e-38 386 253
0.091629192 0.77999997 -0.017778799 1.2904008e-38 387 253
0.092996791 0.77999997 -0.017778799 1.2627427e-38 388 253
0.05810196 0.78899997 -0.019367319 1.3275037e-38 362 254
0.059485335 0.78899997 -0.019367319 1.3643821e-38 363 254
0.06071442 0.787 -0.019318225 1.4012934e-38 364 254
0.062094301 0.787 -0.019318225 1.428952e-38 365 254
0.063474171 0.787 -0.019318225 1.4749757e-38 366 254
0.064689234 0.78500003 -0.019269135 1.5026343e-38 367 254
0.065897278 0.78299999 -0.019220039 1.5486583e-38 368 254
0.067098312 0.78100002 -0.019170946 1.5670974e-38 369 254
0.068379998 0.77999997 -0.0191464 1.622235e-38 370 254
0.069747597 0.77999997 -0.0191464 1.6314546e-38 371 254
0.071115196 0.77999997 -0.0191464 1.6406744e-38 372 254
0.072296947 0.778 -0.019097306 1.6682971e-38 373 254
0.073661037 0.778 -0.019097306 1.6775168e-38 374 254
0.074832268 0.77600002 -0.019048214 1.6867364e-38 375 254
0.076192856 0.77600002 -0.019048214 1.6867364e-38 376 254
0.077553444 0.77600002 -0.019048214 1.6775168e-38 377 254
0.078914031 0.77600002 -0.019048214 1.6682249e-38 378 254
0.080274612 0.77600002 -0.019048214 1.6313827e-38 379 254
0.081635199 0.77600002 -0.019048214 1.6588242e-38 380 254
0.082995787 0.77600002 -0.019048214 1.5942873e-38 381 254
0.084356368 0.77600002 -0.019048214 1.5574442e-38 382 254
0.085716955 0.77600002 -0.019048214 1.5205658e-38 383 254
0.087077543 0.77600002 -0.019048214 1.4745397e-38 384 254
0.088438138 0.77600002 -0.019048214 1.4284778e-38 385 254
0.089798726 0.77600002 -0.019048214 1.373232e-38 386 254
0.091629192 0.77999997 -0.0191464 1.3271702e-38 387 254
0.092996791 0.77999997 -0.0191464 1.3177001e-38 388 254
0.09448538 0.78100002 -0.019170946 1.216285e-38 389 254
0.05810196 0.78899997 -0.0207507 1.3550192e-38 362 255
0.059485335 0.78899997 -0.0207507 1.3827139e-38 363 255
0.06071442 0.787 -0.0206981 1.4288445e-38 364 255
0.062094301 0.787 -0.0206981 1.4473195e-38 365 255
0.063312866 0.78500003 -0.020645501 1.5025269e-38 366 255
0.064524412 0.78299999 -0.0205929 1.5117464e-38 367 255
0.065897278 0.78299999 -0.0205929 1.5761738e-38 368 255
0.067098312 0.78100002 -0.020540299 1.5853933e-38 369 255
0.068379998 0.77999997 -0.020513998 1.6313827e-38 370 255
0.069747597 0.77999997 -0.020513998 1.6497858e-38 371 255
0.071115196 0.77999997 -0.020513998 1.6590054e-38 372 255
0.072296947 0.778 -0.020461399 1.6867001e-38 373 255
0.073471673 0.77600002 -0.0204088 1.6775168e-38 374 255
0.074832268 0.77600002 -0.0204088 1.6775168e-38 375 255
0.076192856 0.77600002 -0.0204088 1.6774815e-38 376 255
0.077553444 0.77600002 -0.0204088 1.6682618e-38 377 255
0.078914031 0.77600002 -0.0204088 1.6589701e-38 378 255
0.080067717 0.77399999 -0.020356199 1.6313474e-38 379 255
0.081424795 0.77399999 -0.020356199 1.6219827e-38 380 255
0.082781881 0.77399999 -0.020356199 1.5759207e-38 381 255
0.084138952 0.77399999 -0.020356199 1.5482612e-38 382 255
0.085496038 0.77399999 -0.020356199 1.5021992e-38 383 255
0.086853117 0.77399999 -0.020356199 1.4469535e-38 384 255
0.088210195 0.77399999 -0.020356199 1.4008917e-38 385 255
0.089567274 0.77399999 -0.020356199 1.3640854e-38 386 255
0.091629192 0.77999997 -0.020513998 1.2995485e-38 387 255
0.092996791 0.77999997 -0.020513998 1.2992979e-38 388 255
0.09448538 0.78100002 -0.020540299 1.1886991e-38 389 255
0.095854737 0.78100002 -0.020540299 1.0228253e-38 390 255
0.05810196 0.78899997 -0.022134079 1.3641674e-38 362 256
0.059485335 0.78899997 -0.022134079 1.4010098e-38 363 256
0.06071442 0.787 -0.022077972 1.4289167e-38 364 256
0.062094301 0.787 -0.022077972 1.4381362e-38 365 256
0.063312866 0.78500003 -0.022021867 1.4841603e-38 366 256
0.064524412 0.78299999 -0.021965759 1.5025634e-38 367 256
0.065897278 0.78299999 -0.021965759 1.5669192e-38 368 256
0.067098312 0.78100002 -0.021909652 1.5853583e-38 369 256
0.068379998 0.77999997 -0.021881599 1.6497505e-38 370 256
0.069568761 0.778 -0.021825492 1.6589701e-38 371 256
0.07093285 0.778 -0.021825492 1.6682252e-38 372 256
0.072111093 0.77600002 -0.021769386 1.6774448e-38 373 256
0.073471673 0.77600002 -0.021769386 1.6866648e-38 374 256
0.074639395 0.77399999 -0.021713279 1.6866648e-38 375 256
0.075996473 0.77399999 -0.021713279 1.6498584e-38 376 256
0.077353559 0.77399999 -0.021713279 1.6498584e-38 377 256
0.078710638 0.77399999 -0.021713279 1.6313471e-38 378 256
0.080067717 0.77399999 -0.021713279 1.6036883e-38 379 256
0.081424795 0.77399999 -0.021713279 1.6127631e-38 380 256
0.082781881 0.77399999 -0.021713279 1.5666653e-38 381 256
0.084138952 0.77399999 -0.021713279 1.5481893e-38 382 256
0.085496038 0.77399999 -0.021713279 1.5205305e-38 383 256
0.086853117 0.77399999 -0.021713279 1.4652484e-38 384 256
0.088210195 0.77399999 -0.021713279 1.4375538e-38 385 256
0.089567274 0.77399999 -0.021713279 1.3639777e-38 386 256
0.091394253 0.778 -0.021825492 1.31788e-38 387 256
0.092996791 0.77999997 -0.021881599 1.2900787e-38 388 256
0.094364397 0.77999997 -0.021881599 1.1886635e-38 389 256
0.095854737 0.78100002 -0.021909652 1.013642e-38 390 256
0.097224087 0.78100002 -0.021909652 1.3547658e-38 391 256
0.05810196 0.78899997 -0.023517458 1.3458726e-38 362 257
0.059485335 0.78899997 -0.023517458 1.3827507e-38 363 257
0.06071442 0.787 -0.023457846 1.4381365e-38 364 257
0.062094301 0.787 -0.023457846 1.4473562e-38 365 257
0.063312866 0.78500003 -0.023398234 1.5025637e-38 366 257
0.064524412 0.78299999 -0.02333862 1.5117833e-38 367 257
0.065728955 0.78100002 -0.023279008 1.5761388e-38 368 257
0.067012392 0.77999997 -0.023249198 1.594578e-38 369 257
0.067854002 0.77399999 -0.02307036 1.6314193e-38 370 257
0.069211073 0.77399999 -0.02307036 1.6406388e-38 371 257
0.070568159 0.77399999 -0.02307036 1.649894e-38 372 257
0.072111093 0.77600002 -0.023129974 1.6775168e-38 373 257
0.073471673 0.77600002 -0.023129974 1.6775168e-38 374 257
0.074639395 0.77399999 -0.02307036 1.6775168e-38 375 257
0.075996473 0.77399999 -0.02307036 1.6682252e-38 376 257
0.077353559 0.77399999 -0.02307036 1.6497861e-38 377 257
0.078710638 0.77399999 -0.02307036 1.6312391e-38 378 257
0.080067717 0.77399999 -0.02307036 1.6036164e-38 379 257
0.081424795 0.77399999 -0.02307036 1.6126559e-38 380 257
0.082781881 0.77399999 -0.02307036 1.5849971e-38 381 257
0.084138952 0.77399999 -0.02307036 1.5298223e-38 382 257
0.085496038 0.77399999 -0.02307036 1.4929441e-38 383 257
0.086853117 0.77399999 -0.02307036 1.4469172e-38 384 257
0.088438138 0.77600002 -0.023129974 1.4100031e-38 385 257
0.089798726 0.77600002 -0.023129974 1.3639421e-38 386 257
0.091159306 0.77600002 -0.023129974 1.3178444e-38 387 257
0.092758343 0.778 -0.023189586 1.290115e-38 388 257
0.094122432 0.778 -0.023189586 1.1795161e-38 389 257
0.095854737 0.78100002 -0.023279008 1.0228616e-38 390 257
0.097224087 0.78100002 -0.023279008 1.3363267e-38 391 257
0.058175597 0.79000002 -0.024932399 1.3276855e-38 362 258
0.059485335 0.78899997 -0.024900839 1.336905e-38 363 258
0.060868718 0.78899997 -0.024900839 1.438029e-38 364 258
0.062094301 0.787 -0.024837719 1.4472845e-38 365 258
0.063151553 0.78299999 -0.024711479 1.5024916e-38 366 258
0.064359605 0.78100002 -0.024648361 1.5209666e-38 367 258
0.065476485 0.778 -0.024553679 1.5670268e-38 368 258
0.066668749 0.77600002 -0.024490559 1.5946855e-38 369 258
0.067854002 0.77399999 -0.02442744 1.6314546e-38 370 258
0.069211073 0.77399999 -0.02442744 1.6406742e-38 371 258
0.070568159 0.77399999 -0.02442744 1.6682249e-38 372 258
0.071925238 0.77399999 -0.02442744 1.6774445e-38 373 258
0.073282316 0.77399999 -0.02442744 1.6682971e-38 374 258
0.074639395 0.77399999 -0.02442744 1.6775168e-38 375 258
0.075996473 0.77399999 -0.02442744 1.6682255e-38 376 258
0.077353559 0.77399999 -0.02442744 1.6497505e-38 377 258
0.078710638 0.77399999 -0.02442744 1.6312394e-38 378 258
0.079964265 0.773 -0.024395877 1.6036167e-38 379 258
0.0813196 0.773 -0.024395877 1.5942169e-38 380 258
0.082781881 0.77399999 -0.02442744 1.5757419e-38 381 258
0.084138952 0.77399999 -0.02442744 1.529787e-38 382 258
0.085496038 0.77399999 -0.02442744 1.4929088e-38 383 258
0.086853117 0.77399999 -0.02442744 1.4376986e-38 384 258
0.088438138 0.77600002 -0.024490559 1.3823814e-38 385 258
0.089798726 0.77600002 -0.024490559 1.3455756e-38 386 258
0.091159306 0.77600002 -0.024490559 1.2902582e-38 387 258
0.092519894 0.77600002 -0.024490559 1.2534528e-38 388 258
0.093880482 0.77600002 -0.024490559 1.1612213e-38 389 258
0.095241062 0.77600002 -0.024490559 1.0229332e-38 390 258
0.09660165 0.77600002 -0.024490559 1.2995561e-38 391 258
0.059560735 0.79000002 -0.026317533 1.3644561e-38 363 259
0.060868718 0.78899997 -0.026284218 1.4380293e-38 364 259
0.061778698 0.78299999 -0.026084339 1.4656521e-38 365 259
0.062748291 0.778 -0.025917772 1.4750126e-38 366 259
0.063947573 0.77600002 -0.025851147 1.5027072e-38 367 259
0.065308161 0.77600002 -0.025851147 1.5671344e-38 368 259
0.066496916 0.77399999 -0.025784519 1.576354e-38 369 259
0.067766331 0.773 -0.025751207 1.6406744e-38 370 259
0.069121659 0.773 -0.025751207 1.6406744e-38 371 259
0.070476986 0.773 -0.025751207 1.6498937e-38 372 259
0.071832314 0.773 -0.025751207 1.6682968e-38 373 259
0.073187642 0.773 -0.025751207 1.6591853e-38 374 259
0.074350104 0.77100003 -0.02568458 1.6591853e-38 375 259
0.075701922 0.77100003 -0.02568458 1.6498934e-38 376 259
0.077253617 0.773 -0.025751207 1.6314543e-38 377 259
0.078608945 0.773 -0.025751207 1.6588609e-38 378 259
0.079964265 0.773 -0.025751207 1.6127631e-38 379 259
0.0813196 0.773 -0.025751207 1.6034716e-38 380 259
0.082674921 0.773 -0.025751207 1.5573738e-38 381 259
0.084138952 0.77399999 -0.025784519 1.5297147e-38 382 259
0.085496038 0.77399999 -0.025784519 1.4928725e-38 383 259
0.086853117 0.77399999 -0.025784519 1.4559932e-38 384 259
0.088210195 0.77399999 -0.025784519 1.4099314e-38 385 259
0.089798726 0.77600002 -0.025851147 1.3363547e-38 386 259
0.091159306 0.77600002 -0.025851147 1.30866e-38 387 259
0.092519894 0.77600002 -0.025851147 1.2625273e-38 388 259
0.093880482 0.77600002 -0.025851147 1.1887708e-38 389 259
0.095241062 0.77600002 -0.025851147 1.0504111e-38 390 259
0.09660165 0.77600002 -0.025851147 1.3454012e-38 391 259
0.061620899 0.78100002 -0.027387068 1.4656157e-38 365 260
0.062748291 0.778 -0.027281865 1.5117464e-38 366 260
0.063947573 0.77600002 -0.027211733 1.520966e-38 367 260
0.065139838 0.77399999 -0.027141599 1.5946486e-38 368 260
0.066411003 0.773 -0.027106533 1.6038682e-38 369 260
0.067591004 0.77100003 -0.027036399 1.6497855e-38 370 260
0.068942823 0.77100003 -0.027036399 1.659041e-38 371 260
0.070476986 0.773 -0.027106533 1.6682605e-38 372 260
0.071646459 0.77100003 -0.027036399 1.6774801e-38 373 260
0.072998285 0.77100003 -0.027036399 1.6591853e-38 374 260
0.074350104 0.77100003 -0.027036399 1.6591853e-38 375 260
0.075701922 0.77100003 -0.027036399 1.6316344e-38 376 260
0.077053741 0.77100003 -0.027036399 1.6131953e-38 377 260
0.078608945 0.773 -0.027106533 1.6129799e-38 378 260
0.079964265 0.773 -0.027106533 1.5853571e-38 379 260
0.0813196 0.773 -0.027106533 1.5208554e-38 380 260
0.082674921 0.773 -0.027106533 1.5116e-38 381 260
0.084030248 0.773 -0.027106533 1.5022358e-38 382 260
0.085385576 0.773 -0.027106533 1.4653577e-38 383 260
0.086853117 0.77399999 -0.027141599 1.4101475e-38 384 260
0.088210195 0.77399999 -0.027141599 1.3548301e-38 385 260
0.089567274 0.77399999 -0.027141599 1.3180601e-38 386 260
0.091159306 0.77600002 -0.027211733 1.2627427e-38 387 260
0.092519894 0.77600002 -0.027211733 1.2442329e-38 388 260
0.093880482 0.77600002 -0.027211733 1.179696e-38 389 260
0.094995596 0.77399999 -0.027141599 1.105765e-38 390 260
0.096352674 0.77399999 -0.027141599 1.3455097e-38 391 260
0.061620899 0.78100002 -0.028756421 1.4748707e-38 365 261
0.062748291 0.778 -0.028645959 1.4749405e-38 366 261
0.063947573 0.77600002 -0.028572321 1.5302577e-38 367 261
0.065139838 0.77399999 -0.028498679 1.5854654e-38 368 261
0.066411003 0.773 -0.028461859 1.5946849e-38 369 261
0.067591004 0.77100003 -0.028388219 1.6406739e-38 370 261
0.068942823 0.77100003 -0.028388219 1.6498934e-38 371 261
0.070294641 0.77100003 -0.028388219 1.6682968e-38 372 261
0.071646459 0.77100003 -0.028388219 1.6682968e-38 373 261
0.072998285 0.77100003 -0.028388219 1.6591856e-38 374 261
0.074157231 0.76899999 -0.028314579 1.6591856e-38 375 261
0.07550554 0.76899999 -0.028314579 1.6682968e-38 376 261
0.076853856 0.76899999 -0.028314579 1.6314546e-38 377 261
0.078202173 0.76899999 -0.028314579 1.6221626e-38 378 261
0.079757385 0.77100003 -0.028388219 1.5945038e-38 379 261
0.081109203 0.77100003 -0.028388219 1.5759204e-38 380 261
0.082461022 0.77100003 -0.028388219 1.5482617e-38 381 261
0.084030248 0.773 -0.028461859 1.5022711e-38 382 261
0.085385576 0.773 -0.028461859 1.4561735e-38 383 261
0.086740904 0.773 -0.028461859 1.4284775e-38 384 261
0.088210195 0.77399999 -0.028498679 1.4008187e-38 385 261
0.089567274 0.77399999 -0.028498679 1.3271346e-38 386 261
0.090924352 0.77399999 -0.028498679 1.3086953e-38 387 261
0.092519894 0.77600002 -0.028572321 1.2533799e-38 388 261
0.093880482 0.77600002 -0.028572321 1.1980625e-38 389 261
0.094995596 0.77399999 -0.028498679 1.0875057e-38 390 261
0.096352674 0.77399999 -0.028498679 1.3179949e-38 391 261
0.09770976 0.77399999 -0.028498679 1.3922259e-38 392 261
0.061384194 0.778 -0.03001005 1.4931299e-38 365 262
0.062586986 0.77600002 -0.029932907 1.5025269e-38 366 262
0.063947573 0.77600002 -0.029932907 1.520966e-38 367 262
0.065055676 0.773 -0.029817186 1.5853933e-38 368 262
0.066411003 0.773 -0.029817186 1.6038685e-38 369 262
0.067591004 0.77100003 -0.029740039 1.6406742e-38 370 262
0.068942823 0.77100003 -0.029740039 1.6498937e-38 371 262
0.070294641 0.77100003 -0.029740039 1.6498937e-38 372 262
0.071460605 0.76899999 -0.02966289 1.6682968e-38 373 262
0.072808921 0.76899999 -0.02966289 1.6591853e-38 374 262
0.074157231 0.76899999 -0.02966289 1.6499656e-38 375 262
0.07550554 0.76899999 -0.02966289 1.6499656e-38 376 262
0.076853856 0.76899999 -0.02966289 1.6315265e-38 377 262
0.078202173 0.76899999 -0.02966289 1.6221275e-38 378 262
0.079550482 0.76899999 -0.02966289 1.6036883e-38 379 262
0.080898799 0.76899999 -0.02966289 1.5667021e-38 380 262
0.082461022 0.77100003 -0.029740039 1.5390795e-38 381 262
0.08381284 0.77100003 -0.029740039 1.5022008e-38 382 262
0.085164659 0.77100003 -0.029740039 1.4561031e-38 383 262
0.086740904 0.773 -0.029817186 1.4100756e-38 384 262
0.088096231 0.773 -0.029817186 1.3731972e-38 385 262
0.089567274 0.77399999 -0.029855758 1.3270996e-38 386 262
0.090924352 0.77399999 -0.029855758 1.2901853e-38 387 262
0.092281438 0.77399999 -0.029855758 1.2533443e-38 388 262
0.093638517 0.77399999 -0.029855758 1.1980269e-38 389 262
0.094995596 0.77399999 -0.029855758 1.0874704e-38 390 262
0.09622819 0.773 -0.029817186 1.3087759e-38 391 262
0.09758351 0.773 -0.029817186 1.3738951e-38 392 262
0.061068594 0.77399999 -0.031212838 1.4932019e-38 365 263
0.062425677 0.77399999 -0.031212838 1.5025271e-38 366 263
0.063782752 0.77399999 -0.031212838 1.5209663e-38 367 263
0.065055676 0.773 -0.03117251 1.5853939e-38 368 263
0.066239186 0.77100003 -0.031091858 1.6038332e-38 369 263
0.067591004 0.77100003 -0.031091858 1.6406744e-38 370 263
0.068942823 0.77100003 -0.031091858 1.649894e-38 371 263
0.070112288 0.76899999 -0.031011207 1.6682971e-38 372 263
0.071460605 0.76899999 -0.031011207 1.6682971e-38 373 263
0.072808921 0.76899999 -0.031011207 1.6682968e-38 374 263
0.074157231 0.76899999 -0.031011207 1.6775165e-38 375 263
0.07550554 0.76899999 -0.031011207 1.6682968e-38 376 263
0.07665398 0.76700002 -0.030930554 1.6498937e-38 377 263
0.077998787 0.76700002 -0.030930554 1.6313827e-38 378 263
0.079550482 0.76899999 -0.031011207 1.603688e-38 379 263
0.080898799 0.76899999 -0.031011207 1.5759574e-38 380 263
0.082247108 0.76899999 -0.031011207 1.52064e-38 381 263
0.08381284 0.77100003 -0.031091858 1.5113482e-38 382 263
0.085164659 0.77100003 -0.031091858 1.4652145e-38 383 263
0.086516477 0.77100003 -0.031091858 1.4191876e-38 384 263
0.088096231 0.773 -0.03117251 1.3730898e-38 385 263
0.089451559 0.773 -0.03117251 1.3270996e-38 386 263
0.090924352 0.77399999 -0.031212838 1.2901853e-38 387 263
0.092281438 0.77399999 -0.031212838 1.2533446e-38 388 263
0.093638517 0.77399999 -0.031212838 1.1888077e-38 389 263
0.094872862 0.773 -0.03117251 1.0873988e-38 390 263
0.09622819 0.773 -0.03117251 1.3086684e-38 391 263
0.09758351 0.773 -0.03117251 1.35542e-38 392 263
0.061068594 0.77399999 -0.032569919 1.4932019e-38 365 264
0.062425677 0.77399999 -0.032569919 1.4749408e-38 366 264
0.063782752 0.77399999 -0.032569919 1.5025634e-38 367 264
0.064887367 0.77100003 -0.032443684 1.5578075e-38 368 264
0.066239186 0.77100003 -0.032443684 1.5854303e-38 369 264
0.067591004 0.77100003 -0.032443684 1.6130525e-38 370 264
0.068942823 0.77100003 -0.032443684 1.6314914e-38 371 264
0.070112288 0.76899999 -0.032359518 1.6682615e-38 372 264
0.071460605 0.76899999 -0.032359518 1.6682615e-38 373 264
0.072808921 0.76899999 -0.032359518 1.6682971e-38 374 264
0.074157231 0.76899999 -0.032359518 1.6682971e-38 375 264
0.07550554 0.76899999 -0.032359518 1.6682971e-38 376 264
0.07665398 0.76700002 -0.03227536 1.6406744e-38 377 264
0.077998787 0.76700002 -0.03227536 1.6588259e-38 378 264
0.079343595 0.76700002 -0.03227536 1.6219476e-38 379 264
0.080688395 0.76700002 -0.03227536 1.5484062e-38 380 264
0.082247108 0.76899999 -0.032359518 1.493089e-38 381 264
0.083595425 0.76899999 -0.032359518 1.4929444e-38 382 264
0.084943734 0.76899999 -0.032359518 1.4468465e-38 383 264
0.086516477 0.77100003 -0.032443684 1.4191873e-38 384 264
0.087868303 0.77100003 -0.032443684 1.3731254e-38 385 264
0.089451559 0.773 -0.032527838 1.3178444e-38 386 264
0.090924352 0.77399999 -0.032569919 1.2901856e-38 387 264
0.092281438 0.77399999 -0.032569919 1.2349062e-38 388 264
0.093517542 0.773 -0.032527838 1.1611497e-38 389 264
0.094872862 0.773 -0.032527838 1.0505928e-38 390 264
0.09622819 0.773 -0.032527838 1.2902656e-38 391 264
0.09758351 0.773 -0.032527838 1.3185774e-38 392 264
0.061068594 0.77399999 -0.033927001 1.4839466e-38 365 265
0.062425677 0.77399999 -0.033927001 1.4932723e-38 366 265
0.063782752 0.77399999 -0.033927001 1.5117114e-38 367 265
0.064887367 0.77100003 -0.033795502 1.5486599e-38 368 265
0.066239186 0.77100003 -0.033795502 1.5670991e-38 369 265
0.067415662 0.76899999 -0.033707831 1.6314912e-38 370 265
0.068763971 0.76899999 -0.033707831 1.6407107e-38 371 265
0.070112288 0.76899999 -0.033707831 1.649894e-38 372 265
0.071460605 0.76899999 -0.033707831 1.6682971e-38 373 265
0.072619557 0.76700002 -0.033620168 1.6682615e-38 374 265
0.073964365 0.76700002 -0.033620168 1.6775171e-38 375 265
0.075309172 0.76700002 -0.033620168 1.6774095e-38 376 265
0.07665398 0.76700002 -0.033620168 1.6589703e-38 377 265
0.077998787 0.76700002 -0.033620168 1.6312038e-38 378 265
0.079343595 0.76700002 -0.033620168 1.6035811e-38 379 265
0.080688395 0.76700002 -0.033620168 1.5390792e-38 380 265
0.08203321 0.76700002 -0.033620168 1.52064e-38 381 265
0.083378009 0.76700002 -0.033620168 1.4653933e-38 382 265
0.084943734 0.76899999 -0.033707831 1.4376986e-38 383 265
0.086292051 0.76899999 -0.033707831 1.3824888e-38 384 265
0.087868303 0.77100003 -0.033795502 1.3271715e-38 385 265
0.089451559 0.773 -0.033883166 1.29955e-38 386 265
0.090806887 0.773 -0.033883166 1.2442327e-38 387 265
0.092162207 0.773 -0.033883166 1.216468e-38 388 265
0.093517542 0.773 -0.033883166 1.1611865e-38 389 265
0.094872862 0.773 -0.033883166 1.0506291e-38 390 265
0.09622819 0.773 -0.033883166 1.2719347e-38 391 265
0.059480079 0.77100003 -0.03514732 1.520753e-38 364 266
0.060831897 0.77100003 -0.03514732 1.5023499e-38 365 266
0.06234502 0.773 -0.035238493 1.4749761e-38 366 266
0.063700356 0.773 -0.035238493 1.5210379e-38 367 266
0.064719036 0.76899999 -0.035056144 1.5761738e-38 368 266
0.066067353 0.76899999 -0.035056144 1.6038685e-38 369 266
0.067415662 0.76899999 -0.035056144 1.6314914e-38 370 266
0.068763971 0.76899999 -0.035056144 1.640711e-38 371 266
0.06992995 0.76700002 -0.034964975 1.6682615e-38 372 266
0.07127475 0.76700002 -0.034964975 1.6682615e-38 373 266
0.072619557 0.76700002 -0.034964975 1.6682615e-38 374 266
0.073964365 0.76700002 -0.034964975 1.6775171e-38 375 266
0.075309172 0.76700002 -0.034964975 1.6682615e-38 376 266
0.07665398 0.76700002 -0.034964975 1.6314193e-38 377 266
0.077998787 0.76700002 -0.034964975 1.6587536e-38 378 266
0.079343595 0.76700002 -0.034964975 1.6126559e-38 379 266
0.080688395 0.76700002 -0.034964975 1.603327e-38 380 266
0.08203321 0.76700002 -0.034964975 1.5572292e-38 381 266
0.083378009 0.76700002 -0.034964975 1.5112387e-38 382 266
0.084722824 0.76700002 -0.034964975 1.4651409e-38 383 266
0.086292051 0.76899999 -0.035056144 1.4007482e-38 384 266
0.087640367 0.76899999 -0.035056144 1.3639058e-38 385 266
0.089220122 0.77100003 -0.03514732 1.2810386e-38 386 266
0.09057194 0.77100003 -0.03514732 1.2533799e-38 387 266
0.091923758 0.77100003 -0.03514732 1.2164313e-38 388 266
0.093275577 0.77100003 -0.03514732 1.1611141e-38 389 266
0.094627403 0.77100003 -0.03514732 9.9552727e-39 390 266
0.096352674 0.77399999 -0.03528408 1.2260162e-38 391 266
0.059480079 0.77100003 -0.036499143 1.5207161e-38 364 267
0.060831897 0.77100003 -0.036499143 1.5114964e-38 365 267
0.062183715 0.77100003 -0.036499143 1.530113e-38 366 267
0.063700356 0.773 -0.036593821 1.5578075e-38 367 267
0.064719036 0.76899999 -0.036404461 1.5854289e-38 368 267
0.066067353 0.76899999 -0.036404461 1.6038682e-38 369 267
0.067415662 0.76899999 -0.036404461 1.6314912e-38 370 267
0.068585135 0.76700002 -0.036309779 1.6407107e-38 371 267
0.06992995 0.76700002 -0.036309779 1.6682971e-38 372 267
0.071181826 0.76599997 -0.036262438 1.6775168e-38 373 267
0.072524875 0.76599997 -0.036262438 1.6775168e-38 374 267
0.073964365 0.76700002 -0.036309779 1.6682971e-38 375 267
0.075309172 0.76700002 -0.036309779 1.6682255e-38 376 267
0.076554038 0.76599997 -0.036262438 1.6497505e-38 377 267
0.077897087 0.76599997 -0.036262438 1.6311675e-38 378 267
0.079240143 0.76599997 -0.036262438 1.6034729e-38 379 267
0.080583192 0.76599997 -0.036262438 1.5298599e-38 380 267
0.08203321 0.76700002 -0.036309779 1.5021652e-38 381 267
0.083378009 0.76700002 -0.036309779 1.4652145e-38 382 267
0.084722824 0.76700002 -0.036309779 1.4283721e-38 383 267
0.086067624 0.76700002 -0.036309779 1.3731622e-38 384 267
0.087640367 0.76899999 -0.036404461 1.3270645e-38 385 267
0.089220122 0.77100003 -0.036499143 1.262744e-38 386 267
0.09057194 0.77100003 -0.036499143 1.2074267e-38 387 267
0.091685303 0.76899999 -0.036404461 1.1889171e-38 388 267
0.093033619 0.76899999 -0.036404461 1.1151606e-38 389 267
0.094381928 0.76899999 -0.036404461 9.8627239e-39 390 267
0.095730245 0.76899999 -0.036404461 1.2075778e-38 391 267
0.059480079 0.77100003 -0.037850961 1.484017e-38 364 268
0.060831897 0.77100003 -0.037850961 1.5024921e-38 365 268
0.062022414 0.76899999 -0.03775277 1.5117817e-38 366 268
0.063370727 0.76899999 -0.03775277 1.5486599e-38 367 268
0.064719036 0.76899999 -0.03775277 1.6038682e-38 368 268
0.065895528 0.76700002 -0.037654586 1.6130878e-38 369 268
0.067240335 0.76700002 -0.037654586 1.6407463e-38 370 268
0.068585135 0.76700002 -0.037654586 1.6499659e-38 371 268
0.069838762 0.76599997 -0.037605491 1.6775168e-38 372 268
0.071181826 0.76599997 -0.037605491 1.6775168e-38 373 268
0.072524875 0.76599997 -0.037605491 1.6775168e-38 374 268
0.073964365 0.76700002 -0.037654586 1.6682971e-38 375 268
0.075309172 0.76700002 -0.037654586 1.6590057e-38 376 268
0.076554038 0.76599997 -0.037605491 1.6221275e-38 377 268
0.077897087 0.76599997 -0.037605491 1.6036161e-38 378 268
0.079240143 0.76599997 -0.037605491 1.5667377e-38 379 268
0.080583192 0.76599997 -0.037605491 1.5207117e-38 380 268
0.081926249 0.76599997 -0.037605491 1.4654301e-38 381 268
0.083378009 0.76700002 -0.037654586 1.4743978e-38 382 268
0.084722824 0.76700002 -0.037654586 1.4374835e-38 383 268
0.086067624 0.76700002 -0.037654586 1.3639421e-38 384 268
0.087412432 0.76700002 -0.037654586 1.3178444e-38 385 268
0.088988677 0.76899999 -0.03775277 1.2442683e-38 386 268
0.090336986 0.76899999 -0.03775277 1.2165736e-38 387 268
0.091685303 0.76899999 -0.03775277 1.1796257e-38 388 268
0.093033619 0.76899999 -0.03775277 1.1150887e-38 389 268
0.094136469 0.76700002 -0.037654586 9.5868601e-39 390 268
0.095481269 0.76700002 -0.037654586 1.1983945e-38 391 268
0.057826683 0.76700002 -0.038999394 1.3829656e-38 363 269
0.059171494 0.76700002 -0.038999394 1.484017e-38 364 269
0.060674097 0.76899999 -0.039101087 1.4932367e-38 365 269
0.062022414 0.76899999 -0.039101087 1.5210369e-38 366 269
0.063205913 0.76700002 -0.038999394 1.5578791e-38 367 269
0.06455072 0.76700002 -0.038999394 1.6039404e-38 368 269
0.065895528 0.76700002 -0.038999394 1.6131599e-38 369 269
0.067240335 0.76700002 -0.038999394 1.6315991e-38 370 269
0.068495713 0.76599997 -0.038948543 1.6500023e-38 371 269
0.069656424 0.764 -0.038846854 1.6775171e-38 372 269
0.070995972 0.764 -0.038846854 1.6775171e-38 373 269
0.072335519 0.764 -0.038846854 1.6774815e-38 374 269
0.073675066 0.764 -0.038846854 1.6682618e-38 375 269
0.075210981 0.76599997 -0.038948543 1.6589701e-38 376 269
0.076554038 0.76599997 -0.038948543 1.6221278e-38 377 269
0.077897087 0.76599997 -0.038948543 1.5852492e-38 378 269
0.079240143 0.76599997 -0.038948543 1.5391513e-38 379 269
0.080583192 0.76599997 -0.038948543 1.529752e-38 380 269
0.081926249 0.76599997 -0.038948543 1.4928737e-38 381 269
0.083269298 0.76599997 -0.038948543 1.4468112e-38 382 269
0.084612355 0.76599997 -0.038948543 1.409933e-38 383 269
0.085955404 0.76599997 -0.038948543 1.345539e-38 384 269
0.087412432 0.76700002 -0.038999394 1.3086247e-38 385 269
0.088757239 0.76700002 -0.038999394 1.2442683e-38 386 269
0.090102047 0.76700002 -0.038999394 1.1889509e-38 387 269
0.091446854 0.76700002 -0.038999394 1.1520393e-38 388 269
0.092791654 0.76700002 -0.038999394 1.1059054e-38 389 269
0.094136469 0.76700002 -0.038999394 9.6790586e-39 390 269
0.095481269 0.76700002 -0.038999394 1.2076144e-38 391 269
0.057826683 0.76700002 -0.040344197 1.4196998e-38 363 270
0.059171494 0.76700002 -0.040344197 1.4840526e-38 364 270
0.060516298 0.76700002 -0.040344197 1.5024918e-38 365 270
0.061861109 0.76700002 -0.040344197 1.5486599e-38 366 270
0.063205913 0.76700002 -0.040344197 1.5670991e-38 367 270
0.06455072 0.76700002 -0.040344197 1.6039048e-38 368 270
0.065809615 0.76599997 -0.040291596 1.6223798e-38 369 270
0.067152664 0.76599997 -0.040291596 1.6682618e-38 370 270
0.068316877 0.764 -0.040186398 1.6774815e-38 371 270
0.069656424 0.764 -0.040186398 1.6774815e-38 372 270
0.070810117 0.76200002 -0.040081199 1.6774815e-38 373 270
0.072146162 0.76200002 -0.040081199 1.6866292e-38 374 270
0.073482201 0.76200002 -0.040081199 1.6681899e-38 375 270
0.075014614 0.764 -0.040186398 1.6497508e-38 376 270
0.076154284 0.76200002 -0.040081199 1.6128725e-38 377 270
0.077490322 0.76200002 -0.040081199 1.5760293e-38 378 270
0.079033248 0.764 -0.040186398 1.5207119e-38 379 270
0.080372795 0.764 -0.040186398 1.5204601e-38 380 270
0.081712343 0.764 -0.040186398 1.483582e-38 381 270
0.083269298 0.76599997 -0.040291596 1.4283721e-38 382 270
0.084612355 0.76599997 -0.040291596 1.3822743e-38 383 270
0.085955404 0.76599997 -0.040291596 1.3363194e-38 384 270
0.08729846 0.76599997 -0.040291596 1.2994051e-38 385 270
0.088757239 0.76700002 -0.040344197 1.2533799e-38 386 270
0.090102047 0.76700002 -0.040344197 1.1980625e-38 387 270
0.091446854 0.76700002 -0.040344197 1.1519317e-38 388 270
0.092791654 0.76700002 -0.040344197 1.1058338e-38 389 270
0.094136469 0.76700002 -0.040344197 9.8630953e-39 390 270
0.095481269 0.76700002 -0.040344197 1.1983595e-38 391 270
0.057826683 0.76700002 -0.041689005 1.4380307e-38 363 271
0.059171494 0.76700002 -0.041689005 1.5024197e-38 364 271
0.060516298 0.76700002 -0.041689005 1.5300782e-38 365 271
0.061780453 0.76599997 -0.041634649 1.5486596e-38 366 271
0.063123502 0.76599997 -0.041634649 1.5670988e-38 367 271
0.064466551 0.76599997 -0.041634649 1.6130527e-38 368 271
0.06563779 0.764 -0.041525945 1.6314559e-38 369 271
0.06697733 0.764 -0.041525945 1.6498234e-38 370 271
0.068316877 0.764 -0.041525945 1.6682265e-38 371 271
0.069474079 0.76200002 -0.041417241 1.6774815e-38 372 271
0.070810117 0.76200002 -0.041417241 1.6774815e-38 373 271
0.072146162 0.76200002 -0.041417241 1.6682621e-38 374 271
0.073482201 0.76200002 -0.041417241 1.649859e-38 375 271
0.074818239 0.76200002 -0.041417241 1.6313477e-38 376 271
0.076154284 0.76200002 -0.041417241 1.603653e-38 377 271
0.077490322 0.76200002 -0.041417241 1.5484782e-38 378 271
0.07882636 0.76200002 -0.041417241 1.4470631e-38 379 271
0.080162399 0.76200002 -0.041417241 1.4652501e-38 380 271
0.081712343 0.764 -0.041525945 1.4376273e-38 381 271
0.08305189 0.764 -0.041525945 1.4190804e-38 382 271
0.084391437 0.764 -0.041525945 1.3914216e-38 383 271
0.085730985 0.764 -0.041525945 1.31788e-38 384 271
0.08729846 0.76599997 -0.041634649 1.2901853e-38 385 271
0.088757239 0.76700002 -0.041689005 1.2257212e-38 386 271
0.090102047 0.76700002 -0.041689005 1.188843e-38 387 271
0.091446854 0.76700002 -0.041689005 1.1058707e-38 388 271
0.092791654 0.76700002 -0.041689005 1.0782121e-38 389 271
0.094013728 0.76599997 -0.041634649 9.9549406e-39 390 271
0.095356777 0.76599997 -0.041634649 1.207544e-38 391 271
0.056481879 0.76700002 -0.043033812 1.4563252e-38 362 272
0.057826683 0.76700002 -0.043033812 1.4748004e-38 363 272
0.059171494 0.76700002 -0.043033812 1.5484452e-38 364 272
0.060516298 0.76700002 -0.043033812 1.5484452e-38 365 272
0.061780453 0.76599997 -0.042977702 1.5854654e-38 366 272
0.063123502 0.76599997 -0.042977702 1.5946849e-38 367 272
0.064298242 0.764 -0.042865492 1.6130881e-38 368 272
0.06563779 0.764 -0.042865492 1.6314912e-38 369 272
0.06697733 0.764 -0.042865492 1.6499306e-38 370 272
0.068138041 0.76200002 -0.042753279 1.6499306e-38 371 272
0.069474079 0.76200002 -0.042753279 1.7049963e-38 372 272
0.070810117 0.76200002 -0.042753279 1.6957407e-38 373 272
0.072146162 0.76200002 -0.042753279 1.6774098e-38 374 272
0.073482201 0.76200002 -0.042753279 1.6681902e-38 375 272
0.074818239 0.76200002 -0.042753279 1.6220922e-38 376 272
0.076154284 0.76200002 -0.042753279 1.5852138e-38 377 272
0.077693708 0.764 -0.042865492 1.5208198e-38 378 272
0.07882636 0.76200002 -0.042753279 1.4286242e-38 379 272
0.080162399 0.76200002 -0.042753279 1.4834742e-38 380 272
0.081712343 0.764 -0.042865492 1.4558516e-38 381 272
0.08305189 0.764 -0.042865492 1.3823466e-38 382 272
0.084391437 0.764 -0.042865492 1.3454684e-38 383 272
0.085730985 0.764 -0.042865492 1.2902585e-38 384 272
0.08729846 0.76599997 -0.042977702 1.2625639e-38 385 272
0.088641517 0.76599997 -0.042977702 1.2165389e-38 386 272
0.089984566 0.76599997 -0.042977702 1.1427464e-38 387 272
0.091446854 0.76700002 -0.043033812 1.0506979e-38 388 272
0.092791654 0.76700002 -0.043033812 1.0322588e-38 389 272
0.094013728 0.76599997 -0.042977702 1.0138613e-38 390 272
0.095356777 0.76599997 -0.042977702 1.2443145e-38 391 272
0.056481879 0.76700002 -0.04437862 1.4655788e-38 362 273
0.057826683 0.76700002 -0.04437862 1.5024212e-38 363 273
0.059171494 0.76700002 -0.04437862 1.5485511e-38 364 273
0.060516298 0.76700002 -0.04437862 1.5761738e-38 365 273
0.061780453 0.76599997 -0.044320758 1.5946486e-38 366 273
0.062958695 0.764 -0.04420504 1.6130878e-38 367 273
0.064129919 0.76200002 -0.044089317 1.6406744e-38 368 273
0.065465957 0.76200002 -0.044089317 1.649894e-38 369 273
0.066802002 0.76200002 -0.044089317 1.6315993e-38 370 273
0.068138041 0.76200002 -0.044089317 1.6315993e-38 371 273
0.069474079 0.76200002 -0.044089317 1.6498237e-38 372 273
0.070810117 0.76200002 -0.044089317 1.6498237e-38 373 273
0.072051473 0.76099998 -0.044031456 1.6589353e-38 374 273
0.07338576 0.76099998 -0.044031456 1.6497158e-38 375 273
0.074720047 0.76099998 -0.044031456 1.6220198e-38 376 273
0.076154284 0.76200002 -0.044089317 1.5667024e-38 377 273
0.077490322 0.76200002 -0.044089317 1.5116006e-38 378 273
0.07882636 0.76200002 -0.044089317 1.4285886e-38 379 273
0.080162399 0.76200002 -0.044089317 1.4283734e-38 380 273
0.081498444 0.76200002 -0.044089317 1.4007507e-38 381 273
0.082834482 0.76200002 -0.044089317 1.3822749e-38 382 273
0.084391437 0.764 -0.04420504 1.3545803e-38 383 273
0.085730985 0.764 -0.04420504 1.2993704e-38 384 273
0.08729846 0.76599997 -0.044320758 1.2532727e-38 385 273
0.088641517 0.76599997 -0.044320758 1.179661e-38 386 273
0.089984566 0.76599997 -0.044320758 1.1519664e-38 387 273
0.091327623 0.76599997 -0.044320758 1.0965089e-38 388 273
0.092791654 0.76700002 -0.04437862 1.0780339e-38 389 273
0.094136469 0.76700002 -0.04437862 9.9563867e-39 390 273
0.054921411 0.764 -0.045544583 1.4199534e-38 361 274
0.056260962 0.764 -0.045544583 1.5300429e-38 362 274
0.057751291 0.76599997 -0.045663811 1.5392625e-38 363 274
0.059094343 0.76599997 -0.045663811 1.5761375e-38 364 274
0.060121801 0.76200002 -0.045425359 1.6037602e-38 365 274
0.061457843 0.76200002 -0.045425359 1.6131234e-38 366 274
0.062958695 0.764 -0.045544583 1.6131234e-38 367 274
0.064129919 0.76200002 -0.045425359 1.6314909e-38 368 274
0.065465957 0.76200002 -0.045425359 1.6314909e-38 369 274
0.066802002 0.76200002 -0.045425359 1.6498587e-38 370 274
0.068138041 0.76200002 -0.045425359 1.6406391e-38 371 274
0.069382899 0.76099998 -0.045365743 1.6588631e-38 372 274
0.070717193 0.76099998 -0.045365743 1.6496436e-38 373 274
0.072051473 0.76099998 -0.045365743 1.6496083e-38 374 274
0.07338576 0.76099998 -0.045365743 1.6403887e-38 375 274
0.074720047 0.76099998 -0.045365743 1.6035811e-38 376 274
0.076154284 0.76200002 -0.045425359 1.5390441e-38 377 274
0.077490322 0.76200002 -0.045425359 1.5204598e-38 378 274
0.07882636 0.76200002 -0.045425359 1.4559229e-38 379 274
0.080162399 0.76200002 -0.045425359 1.4283724e-38 380 274
0.081498444 0.76200002 -0.045425359 1.4098974e-38 381 274
0.082834482 0.76200002 -0.045425359 1.363872e-38 382 274
0.084391437 0.764 -0.045544583 1.3269939e-38 383 274
0.085730985 0.764 -0.045544583 1.2900802e-38 384 274
0.087070532 0.764 -0.045544583 1.2347628e-38 385 274
0.088410079 0.764 -0.045544583 1.1703705e-38 386 274
0.089749627 0.764 -0.045544583 1.115089e-38 387 274
0.091327623 0.76599997 -0.045663811 1.087254e-38 388 274
0.092791654 0.76700002 -0.045723427 1.0780345e-38 389 274
0.094136469 0.76700002 -0.045723427 1.0599601e-38 390 274
0.050702889 0.76099998 -0.046700031 1.6873242e-38 358 275
0.052037176 0.76099998 -0.046700031 1.6412624e-38 359 275
0.053441599 0.76200002 -0.046761397 1.4750181e-38 360 275
0.054921411 0.764 -0.046884131 1.4289562e-38 361 275
0.056260962 0.764 -0.046884131 1.5668486e-38 362 275
0.057600506 0.764 -0.046884131 1.5484455e-38 363 275
0.058940053 0.764 -0.046884131 1.5853215e-38 364 275
0.060121801 0.76200002 -0.046761397 1.6129802e-38 365 275
0.061457843 0.76200002 -0.046761397 1.6130878e-38 366 275
0.062793881 0.76200002 -0.046761397 1.6314909e-38 367 275
0.064129919 0.76200002 -0.046761397 1.6406388e-38 368 275
0.065465957 0.76200002 -0.046761397 1.6314193e-38 369 275
0.066802002 0.76200002 -0.046761397 1.6220572e-38 370 275
0.068138041 0.76200002 -0.046761397 1.6036179e-38 371 275
0.069382899 0.76099998 -0.046700031 1.6218069e-38 372 275
0.070717193 0.76099998 -0.046700031 1.6310265e-38 373 275
0.072051473 0.76099998 -0.046700031 1.6035473e-38 374 275
0.07338576 0.76099998 -0.046700031 1.6035473e-38 375 275
0.074720047 0.76099998 -0.046700031 1.5851064e-38 376 275
0.076054335 0.76099998 -0.046700031 1.5298249e-38 377 275
0.077388622 0.76099998 -0.046700031 1.5203885e-38 378 275
0.07882636 0.76200002 -0.046761397 1.492694e-38 379 275
0.080162399 0.76200002 -0.046761397 1.4466317e-38 380 275
0.081498444 0.76200002 -0.046761397 1.418937e-38 381 275
0.082834482 0.76200002 -0.046761397 1.3545806e-38 382 275
0.08417052 0.76200002 -0.046761397 1.3177023e-38 383 275
0.085730985 0.764 -0.046884131 1.2807888e-38 384 275
0.087070532 0.764 -0.046884131 1.2346909e-38 385 275
0.088410079 0.764 -0.046884131 1.1519314e-38 386 275
0.089749627 0.764 -0.046884131 1.1058336e-38 387 275
0.091089167 0.764 -0.046884131 1.0411928e-38 388 275
0.092670672 0.76599997 -0.047006864 1.0688875e-38 389 275
