# .PCD v.7 - Point Cloud Data file format
FIELDS x y z rgb imX imY
SIZE 4 4 4 4 4 4
TYPE F F F F F F
COUNT 1 1 1 1 1 1
WIDTH 845
HEIGHT 1
VIEWPOINT 0 0 0 1 0 0 0
POINTS 845
DATA ascii
0.061541997 0.77999997 -0.016411198 1.6775165e-38 365 252
0.062909596 0.77999997 -0.016411198 1.6867717e-38 366 252
0.06411238 0.778 -0.016369121 1.6867717e-38 367 252
0.065476485 0.778 -0.016369121 1.7142862e-38 368 252
0.066840574 0.778 -0.016369121 1.7142862e-38 369 252
0.068204664 0.778 -0.016369121 1.7049943e-38 370 252
0.069568761 0.778 -0.016369121 1.6957748e-38 371 252
0.071115196 0.77999997 -0.016411198 1.6588958e-38 372 252
0.072482795 0.77999997 -0.016411198 1.6127981e-38 373 252
0.073850393 0.77999997 -0.016411198 1.5759179e-38 374 252
0.075217992 0.77999997 -0.016411198 1.5298201e-38 375 252
0.076585598 0.77999997 -0.016411198 1.5021243e-38 376 252
0.077953197 0.77999997 -0.016411198 1.4468428e-38 377 252
0.079422489 0.78100002 -0.016432239 1.4465925e-38 378 252
0.080791846 0.78100002 -0.016432239 1.4004948e-38 379 252
0.082161196 0.78100002 -0.016432239 1.3726597e-38 380 252
0.083530553 0.78100002 -0.016432239 1.3542566e-38 381 252
0.084791191 0.77999997 -0.016411198 1.225727e-38 382 252
0.086158797 0.77999997 -0.016411198 1.2718248e-38 383 252
0.0536783 0.78500003 -0.017892767 1.5301874e-38 359 253
0.054914396 0.78299999 -0.017847179 1.5853586e-38 360 253
0.056143485 0.78100002 -0.017801592 1.6130174e-38 361 253
0.057439197 0.77999997 -0.017778799 1.6406744e-38 362 253
0.058656007 0.778 -0.017733213 1.649894e-38 363 253
0.0600201 0.778 -0.017733213 1.7050313e-38 364 253
0.061384194 0.778 -0.017733213 1.7050313e-38 365 253
0.062748291 0.778 -0.017733213 1.6959196e-38 366 253
0.06411238 0.778 -0.017733213 1.7143228e-38 367 253
0.065476485 0.778 -0.017733213 1.723506e-38 368 253
0.066840574 0.778 -0.017733213 1.7142506e-38 369 253
0.068204664 0.778 -0.017733213 1.705031e-38 370 253
0.069568761 0.778 -0.017733213 1.6865918e-38 371 253
0.07093285 0.778 -0.017733213 1.6312728e-38 372 253
0.072296947 0.778 -0.017733213 1.5943586e-38 373 253
0.073661037 0.778 -0.017733213 1.5576583e-38 374 253
0.075217992 0.77999997 -0.017778799 1.5023409e-38 375 253
0.076585598 0.77999997 -0.017778799 1.483758e-38 376 253
0.077953197 0.77999997 -0.017778799 1.4468437e-38 377 253
0.079320796 0.77999997 -0.017778799 1.4190427e-38 378 253
0.080688395 0.77999997 -0.017778799 1.3822004e-38 379 253
0.082055993 0.77999997 -0.017778799 1.3175941e-38 380 253
0.083423592 0.77999997 -0.017778799 1.3083746e-38 381 253
0.084791191 0.77999997 -0.017778799 1.2531686e-38 382 253
0.086158797 0.77999997 -0.017778799 1.3177055e-38 383 253
0.0536783 0.78500003 -0.019269135 1.5577019e-38 359 254
0.054914396 0.78299999 -0.019220039 1.6037976e-38 360 254
0.056071598 0.77999997 -0.0191464 1.613053e-38 361 254
0.057291918 0.778 -0.019097306 1.6406391e-38 362 254
0.058656007 0.778 -0.019097306 1.6498587e-38 363 254
0.059865814 0.77600002 -0.019048214 1.6682615e-38 364 254
0.061226401 0.77600002 -0.019048214 1.6775171e-38 365 254
0.062586986 0.77600002 -0.019048214 1.6867001e-38 366 254
0.063947573 0.77600002 -0.019048214 1.7143228e-38 367 254
0.065308161 0.77600002 -0.019048214 1.7143225e-38 368 254
0.066668749 0.77600002 -0.019048214 1.6959194e-38 369 254
0.068029337 0.77600002 -0.019048214 1.7049946e-38 370 254
0.069389917 0.77600002 -0.019048214 1.6865196e-38 371 254
0.070750505 0.77600002 -0.019048214 1.6588943e-38 372 254
0.072111093 0.77600002 -0.019048214 1.6127966e-38 373 254
0.073471673 0.77600002 -0.019048214 1.5942832e-38 374 254
0.075025134 0.778 -0.019097306 1.5481854e-38 375 254
0.076389223 0.778 -0.019097306 1.5020878e-38 376 254
0.07775332 0.778 -0.019097306 1.4743933e-38 377 254
0.07911741 0.778 -0.019097306 1.4465925e-38 378 254
0.080688395 0.77999997 -0.0191464 1.4004948e-38 379 254
0.082055993 0.77999997 -0.0191464 1.3543288e-38 380 254
0.083423592 0.77999997 -0.0191464 1.3450733e-38 381 254
0.084791191 0.77999997 -0.0191464 1.2072528e-38 382 254
0.086158797 0.77999997 -0.0191464 1.2625702e-38 383 254
0.052168678 0.78299999 -0.0205929 1.5577739e-38 358 255
0.053541537 0.78299999 -0.0205929 1.5577739e-38 359 255
0.054774135 0.78100002 -0.020540299 1.6220925e-38 360 255
0.055927824 0.778 -0.020461399 1.6497152e-38 361 255
0.057291918 0.778 -0.020461399 1.6590057e-38 362 255
0.058505226 0.77600002 -0.0204088 1.6682252e-38 363 255
0.059865814 0.77600002 -0.0204088 1.6774445e-38 364 255
0.061226401 0.77600002 -0.0204088 1.6867001e-38 365 255
0.062586986 0.77600002 -0.0204088 1.6959194e-38 366 255
0.063947573 0.77600002 -0.0204088 1.7143225e-38 367 255
0.065308161 0.77600002 -0.0204088 1.7142509e-38 368 255
0.066668749 0.77600002 -0.0204088 1.7050313e-38 369 255
0.068029337 0.77600002 -0.0204088 1.6958113e-38 370 255
0.069389917 0.77600002 -0.0204088 1.6589691e-38 371 255
0.070750505 0.77600002 -0.0204088 1.6313444e-38 372 255
0.072111093 0.77600002 -0.0204088 1.5760629e-38 373 255
0.073471673 0.77600002 -0.0204088 1.5759176e-38 374 255
0.074832268 0.77600002 -0.0204088 1.5206361e-38 375 255
0.076192856 0.77600002 -0.0204088 1.483758e-38 376 255
0.077553444 0.77600002 -0.0204088 1.4468437e-38 377 255
0.078914031 0.77600002 -0.0204088 1.4190424e-38 378 255
0.080481507 0.778 -0.020461399 1.3822002e-38 379 255
0.082055993 0.77999997 -0.020513998 1.3267771e-38 380 255
0.083423592 0.77999997 -0.020513998 1.308338e-38 381 255
0.084899902 0.78100002 -0.020540299 1.16119e-38 382 255
0.086269259 0.78100002 -0.020540299 1.225727e-38 383 255
0.050666075 0.78100002 -0.021909652 1.4749461e-38 357 256
0.051968798 0.77999997 -0.021881599 1.5669572e-38 358 256
0.053336397 0.77999997 -0.021881599 1.5669572e-38 359 256
0.054703996 0.77999997 -0.021881599 1.6313124e-38 360 256
0.055927824 0.778 -0.021825492 1.6497155e-38 361 256
0.057144642 0.77600002 -0.021769386 1.6590054e-38 362 256
0.058505226 0.77600002 -0.021769386 1.6682249e-38 363 256
0.059711516 0.77399999 -0.021713279 1.6774801e-38 364 256
0.061068594 0.77399999 -0.021713279 1.6959194e-38 365 256
0.062425677 0.77399999 -0.021713279 1.6959194e-38 366 256
0.063782752 0.77399999 -0.021713279 1.6959194e-38 367 256
0.065139838 0.77399999 -0.021713279 1.6959196e-38 368 256
0.066496916 0.77399999 -0.021713279 1.6867001e-38 369 256
0.067854002 0.77399999 -0.021713279 1.6865918e-38 370 256
0.069211073 0.77399999 -0.021713279 1.6589691e-38 371 256
0.070750505 0.77600002 -0.021769386 1.6221249e-38 372 256
0.072111093 0.77600002 -0.021769386 1.5760629e-38 373 256
0.073471673 0.77600002 -0.021769386 1.5759179e-38 374 256
0.074832268 0.77600002 -0.021769386 1.5206005e-38 375 256
0.076192856 0.77600002 -0.021769386 1.5020895e-38 376 256
0.077553444 0.77600002 -0.021769386 1.4559917e-38 377 256
0.078914031 0.77600002 -0.021769386 1.4282978e-38 378 256
0.080481507 0.778 -0.021825492 1.3822002e-38 379 256
0.082055993 0.77999997 -0.021881599 1.3451442e-38 380 256
0.083423592 0.77999997 -0.021881599 1.3082661e-38 381 256
0.084899902 0.78100002 -0.021909652 1.1794847e-38 382 256
0.086269259 0.78100002 -0.021909652 1.2348021e-38 383 256
0.050666075 0.78100002 -0.023279008 1.5024962e-38 357 257
0.051968798 0.77999997 -0.023249198 1.58536e-38 358 257
0.053199638 0.778 -0.023189586 1.58536e-38 359 257
0.054563731 0.778 -0.023189586 1.6313487e-38 360 257
0.055784054 0.77600002 -0.023129974 1.6313487e-38 361 257
0.057144642 0.77600002 -0.023129974 1.6681533e-38 362 257
0.058354434 0.77399999 -0.02307036 1.6865564e-38 363 257
0.059711516 0.77399999 -0.02307036 1.6774801e-38 364 257
0.061068594 0.77399999 -0.02307036 1.6866998e-38 365 257
0.062425677 0.77399999 -0.02307036 1.6866998e-38 366 257
0.063782752 0.77399999 -0.02307036 1.6959194e-38 367 257
0.065139838 0.77399999 -0.02307036 1.7142506e-38 368 257
0.066496916 0.77399999 -0.02307036 1.705031e-38 369 257
0.067854002 0.77399999 -0.02307036 1.6866271e-38 370 257
0.069211073 0.77399999 -0.02307036 1.649749e-38 371 257
0.070568159 0.77399999 -0.02307036 1.6221252e-38 372 257
0.071925238 0.77399999 -0.02307036 1.5760274e-38 373 257
0.073282316 0.77399999 -0.02307036 1.5482599e-38 374 257
0.074639395 0.77399999 -0.02307036 1.5113457e-38 375 257
0.075996473 0.77399999 -0.02307036 1.474503e-38 376 257
0.077353559 0.77399999 -0.02307036 1.4468443e-38 377 257
0.078710638 0.77399999 -0.02307036 1.4007115e-38 378 257
0.080274612 0.77600002 -0.023129974 1.3546138e-38 379 257
0.081845596 0.778 -0.023189586 1.3358894e-38 380 257
0.083423592 0.77999997 -0.023249198 1.3082308e-38 381 257
0.084899902 0.78100002 -0.023279008 1.1979245e-38 382 257
0.086269259 0.78100002 -0.023279008 1.2255472e-38 383 257
0.087638609 0.78100002 -0.023279008 1.3460905e-38 384 257
0.050666075 0.78100002 -0.024648361 1.4933482e-38 357 258
0.051968798 0.77999997 -0.024616797 1.5945077e-38 358 258
0.053199638 0.778 -0.024553679 1.5945077e-38 359 258
0.054423466 0.77600002 -0.024490559 1.6312768e-38 360 258
0.055784054 0.77600002 -0.024490559 1.6589353e-38 361 258
0.056997359 0.77399999 -0.02442744 1.6865564e-38 362 258
0.058354434 0.77399999 -0.02442744 1.695776e-38 363 258
0.059711516 0.77399999 -0.02442744 1.6866998e-38 364 258
0.061068594 0.77399999 -0.02442744 1.6866998e-38 365 258
0.062425677 0.77399999 -0.02442744 1.6959194e-38 366 258
0.063782752 0.77399999 -0.02442744 1.6959194e-38 367 258
0.065139838 0.77399999 -0.02442744 1.6959194e-38 368 258
0.066411003 0.773 -0.024395877 1.6774801e-38 369 258
0.067766331 0.773 -0.024395877 1.6865918e-38 370 258
0.069121659 0.773 -0.024395877 1.6497136e-38 371 258
0.070476986 0.773 -0.024395877 1.6129779e-38 372 258
0.071832314 0.773 -0.024395877 1.548441e-38 373 258
0.073187642 0.773 -0.024395877 1.5483318e-38 374 258
0.074542962 0.773 -0.024395877 1.502234e-38 375 258
0.075898297 0.773 -0.024395877 1.4745397e-38 376 258
0.077353559 0.77399999 -0.02442744 1.4284778e-38 377 258
0.078710638 0.77399999 -0.02442744 1.3914566e-38 378 258
0.080067717 0.77399999 -0.02442744 1.3545785e-38 379 258
0.081635199 0.77600002 -0.024490559 1.3083027e-38 380 258
0.082995787 0.77600002 -0.024490559 1.2898634e-38 381 258
0.084791191 0.77999997 -0.024616797 1.1978162e-38 382 258
0.086269259 0.78100002 -0.024648361 1.2347305e-38 383 258
0.087638609 0.78100002 -0.024648361 1.3277593e-38 384 258
0.050601196 0.77999997 -0.025984399 1.4566502e-38 357 259
0.051835544 0.778 -0.025917772 1.5852884e-38 358 259
0.053199638 0.778 -0.025917772 1.594508e-38 359 259
0.054423466 0.77600002 -0.025851147 1.6497158e-38 360 259
0.055640277 0.77399999 -0.025784519 1.6589353e-38 361 259
0.056997359 0.77399999 -0.025784519 1.6865567e-38 362 259
0.058354434 0.77399999 -0.025784519 1.6957763e-38 363 259
0.059634373 0.773 -0.025751207 1.6775521e-38 364 259
0.060989697 0.773 -0.025751207 1.6867717e-38 365 259
0.06234502 0.773 -0.025751207 1.6959547e-38 366 259
0.063700356 0.773 -0.025751207 1.6959547e-38 367 259
0.065055676 0.773 -0.025751207 1.695955e-38 368 259
0.066411003 0.773 -0.025751207 1.6774798e-38 369 259
0.067766331 0.773 -0.025751207 1.6865196e-38 370 259
0.068942823 0.77100003 -0.02568458 1.6680805e-38 371 259
0.070294641 0.77100003 -0.02568458 1.6220886e-38 372 259
0.071646459 0.77100003 -0.02568458 1.5759908e-38 373 259
0.072998285 0.77100003 -0.02568458 1.539147e-38 374 259
0.074542962 0.773 -0.025751207 1.4930851e-38 375 259
0.075898297 0.773 -0.025751207 1.474538e-38 376 259
0.077253617 0.773 -0.025751207 1.4376598e-38 377 259
0.078710638 0.77399999 -0.025784519 1.4190061e-38 378 259
0.080067717 0.77399999 -0.025784519 1.3544692e-38 379 259
0.081635199 0.77600002 -0.025851147 1.3082674e-38 380 259
0.082995787 0.77600002 -0.025851147 1.271425e-38 381 259
0.084356368 0.77600002 -0.025851147 1.1702669e-38 382 259
0.086158797 0.77999997 -0.025984399 1.2164008e-38 383 259
0.087638609 0.78100002 -0.026017714 1.3460911e-38 384 259
0.050601196 0.77999997 -0.027351998 1.5026032e-38 357 260
0.051835544 0.778 -0.027281865 1.6129098e-38 358 260
0.053062879 0.77600002 -0.027211733 1.6221294e-38 359 260
0.054423466 0.77600002 -0.027211733 1.6313471e-38 360 260
0.055640277 0.77399999 -0.027141599 1.6590057e-38 361 260
0.056923717 0.773 -0.027106533 1.6865562e-38 362 260
0.058279041 0.773 -0.027106533 1.7050313e-38 363 260
0.059480079 0.77100003 -0.027036399 1.6866998e-38 364 260
0.060831897 0.77100003 -0.027036399 1.6866998e-38 365 260
0.062183715 0.77100003 -0.027036399 1.686807e-38 366 260
0.063535534 0.77100003 -0.027036399 1.686807e-38 367 260
0.064887367 0.77100003 -0.027036399 1.7050665e-38 368 260
0.066239186 0.77100003 -0.027036399 1.6865915e-38 369 260
0.067591004 0.77100003 -0.027036399 1.6681886e-38 370 260
0.068763971 0.76899999 -0.026966266 1.6404941e-38 371 260
0.070112288 0.76899999 -0.026966266 1.6036514e-38 372 260
0.071646459 0.77100003 -0.027036399 1.5667372e-38 373 260
0.072998285 0.77100003 -0.027036399 1.5300018e-38 374 260
0.074350104 0.77100003 -0.027036399 1.4746845e-38 375 260
0.075701922 0.77100003 -0.027036399 1.4286222e-38 376 260
0.077253617 0.773 -0.027106533 1.3917081e-38 377 260
0.078608945 0.773 -0.027106533 1.3729821e-38 378 260
0.080067717 0.77399999 -0.027141599 1.3453236e-38 379 260
0.081424795 0.77399999 -0.027141599 1.2714973e-38 380 260
0.082781881 0.77399999 -0.027141599 1.2530222e-38 381 260
0.084356368 0.77600002 -0.027211733 1.1885613e-38 382 260
0.086158797 0.77999997 -0.027351998 1.2530983e-38 383 260
0.050471451 0.778 -0.028645959 1.5118578e-38 357 261
0.051702294 0.77600002 -0.028572321 1.6038332e-38 358 261
0.053062879 0.77600002 -0.028572321 1.6038332e-38 359 261
0.054283198 0.77399999 -0.028498679 1.6590054e-38 360 261
0.055568393 0.773 -0.028461859 1.6590054e-38 361 261
0.056923717 0.773 -0.028461859 1.6682249e-38 362 261
0.058279041 0.773 -0.028461859 1.6774445e-38 363 261
0.059480079 0.77100003 -0.028388219 1.6775165e-38 364 261
0.060831897 0.77100003 -0.028388219 1.6775165e-38 365 261
0.062022414 0.76899999 -0.028314579 1.6775517e-38 366 261
0.063370727 0.76899999 -0.028314579 1.6775517e-38 367 261
0.064719036 0.76899999 -0.028314579 1.6958466e-38 368 261
0.066067353 0.76899999 -0.028314579 1.6866271e-38 369 261
0.067415662 0.76899999 -0.028314579 1.6680805e-38 370 261
0.068763971 0.76899999 -0.028314579 1.6404577e-38 371 261
0.070112288 0.76899999 -0.028314579 1.6127631e-38 372 261
0.071460605 0.76899999 -0.028314579 1.5666653e-38 373 261
0.072808921 0.76899999 -0.028314579 1.5298216e-38 374 261
0.074350104 0.77100003 -0.028388219 1.4929794e-38 375 261
0.075701922 0.77100003 -0.028388219 1.4652128e-38 376 261
0.077253617 0.773 -0.028461859 1.4006759e-38 377 261
0.078608945 0.773 -0.028461859 1.3361759e-38 378 261
0.079964265 0.773 -0.028461859 1.2993335e-38 379 261
0.081424795 0.77399999 -0.028498679 1.2897932e-38 380 261
0.082781881 0.77399999 -0.028498679 1.2436954e-38 381 261
0.084138952 0.77399999 -0.028498679 1.1243862e-38 382 261
0.085496038 0.77399999 -0.028498679 1.1981428e-38 383 261
0.049107358 0.778 -0.03001005 1.5394089e-38 356 262
0.050341707 0.77600002 -0.029932907 1.5394089e-38 357 262
0.051702294 0.77600002 -0.029932907 1.6037979e-38 358 262
0.052926116 0.77399999 -0.029855758 1.6037979e-38 359 262
0.054283198 0.77399999 -0.029855758 1.6589335e-38 360 262
0.055568393 0.773 -0.029817186 1.6865562e-38 361 262
0.056776438 0.77100003 -0.029740039 1.6865567e-38 362 262
0.058128256 0.77100003 -0.029740039 1.6957763e-38 363 262
0.059325781 0.76899999 -0.02966289 1.6866648e-38 364 262
0.060674097 0.76899999 -0.02966289 1.6866648e-38 365 262
0.062022414 0.76899999 -0.02966289 1.6959196e-38 366 262
0.063370727 0.76899999 -0.02966289 1.6867001e-38 367 262
0.064719036 0.76899999 -0.02966289 1.6774798e-38 368 262
0.066067353 0.76899999 -0.02966289 1.6590407e-38 369 262
0.067415662 0.76899999 -0.02966289 1.6588605e-38 370 262
0.068763971 0.76899999 -0.02966289 1.6220182e-38 371 262
0.070112288 0.76899999 -0.02966289 1.5943591e-38 372 262
0.071460605 0.76899999 -0.02966289 1.5482615e-38 373 262
0.072808921 0.76899999 -0.02966289 1.5114907e-38 374 262
0.074157231 0.76899999 -0.02966289 1.465393e-38 375 262
0.075701922 0.77100003 -0.029740039 1.4376623e-38 376 262
0.077253617 0.773 -0.029817186 1.3731254e-38 377 262
0.078608945 0.773 -0.029817186 1.3361042e-38 378 262
0.079964265 0.773 -0.029817186 1.317665e-38 379 262
0.081424795 0.77399999 -0.029855758 1.2346909e-38 380 262
0.082781881 0.77399999 -0.029855758 1.1793736e-38 381 262
0.084138952 0.77399999 -0.029855758 1.0876153e-38 382 262
0.048981119 0.77600002 -0.031293493 1.5577038e-38 356 263
0.050341707 0.77600002 -0.031293493 1.5669234e-38 357 263
0.051569037 0.77399999 -0.031212838 1.6221294e-38 358 263
0.052926116 0.77399999 -0.031212838 1.6221294e-38 359 263
0.054213066 0.773 -0.03117251 1.668118e-38 360 263
0.055424623 0.77100003 -0.031091858 1.668118e-38 361 263
0.056776438 0.77100003 -0.031091858 1.6865211e-38 362 263
0.057977475 0.76899999 -0.031011207 1.6957407e-38 363 263
0.059325781 0.76899999 -0.031011207 1.6866648e-38 364 263
0.060674097 0.76899999 -0.031011207 1.6866648e-38 365 263
0.062022414 0.76899999 -0.031011207 1.6775165e-38 366 263
0.063370727 0.76899999 -0.031011207 1.6775165e-38 367 263
0.064719036 0.76899999 -0.031011207 1.6865562e-38 368 263
0.066067353 0.76899999 -0.031011207 1.6589335e-38 369 263
0.067415662 0.76899999 -0.031011207 1.6404574e-38 370 263
0.068763971 0.76899999 -0.031011207 1.6127987e-38 371 263
0.070112288 0.76899999 -0.031011207 1.5667362e-38 372 263
0.071460605 0.76899999 -0.031011207 1.5390416e-38 373 263
0.072808921 0.76899999 -0.031011207 1.502199e-38 374 263
0.074157231 0.76899999 -0.031011207 1.4652847e-38 375 263
0.075701922 0.77100003 -0.031091858 1.446774e-38 376 263
0.077253617 0.773 -0.03117251 1.4006761e-38 377 263
0.078608945 0.773 -0.03117251 1.3453239e-38 378 263
0.079964265 0.773 -0.03117251 1.3084096e-38 379 263
0.081424795 0.77399999 -0.031212838 1.2438023e-38 380 263
0.082781881 0.77399999 -0.031212838 1.1885208e-38 381 263
0.084138952 0.77399999 -0.031212838 1.0692841e-38 382 263
0.04885488 0.77399999 -0.032569919 1.5577022e-38 356 264
0.050211959 0.77399999 -0.032569919 1.5669219e-38 357 264
0.051569037 0.77399999 -0.032569919 1.6128742e-38 358 264
0.052857738 0.773 -0.032527838 1.6220938e-38 359 264
0.054072797 0.77100003 -0.032443684 1.6588631e-38 360 264
0.055280842 0.76899999 -0.032359518 1.6680827e-38 361 264
0.056629159 0.76899999 -0.032359518 1.6681902e-38 362 264
0.057826683 0.76700002 -0.03227536 1.6681902e-38 363 264
0.059171494 0.76700002 -0.03227536 1.6775171e-38 364 264
0.060516298 0.76700002 -0.03227536 1.6775171e-38 365 264
0.061861109 0.76700002 -0.03227536 1.6775168e-38 366 264
0.063205913 0.76700002 -0.03227536 1.6682971e-38 367 264
0.06455072 0.76700002 -0.03227536 1.6681533e-38 368 264
0.065895528 0.76700002 -0.03227536 1.6497142e-38 369 264
0.067415662 0.76899999 -0.032359518 1.6219827e-38 370 264
0.068763971 0.76899999 -0.032359518 1.594324e-38 371 264
0.070112288 0.76899999 -0.032359518 1.5575161e-38 372 264
0.071460605 0.76899999 -0.032359518 1.5114541e-38 373 264
0.072808921 0.76899999 -0.032359518 1.4837951e-38 374 264
0.074157231 0.76899999 -0.032359518 1.4376973e-38 375 264
0.07550554 0.76899999 -0.032359518 1.4191154e-38 376 264
0.077053741 0.77100003 -0.032443684 1.382237e-38 377 264
0.078405559 0.77100003 -0.032443684 1.3268843e-38 378 264
0.079964265 0.773 -0.032527838 1.2900421e-38 379 264
0.0813196 0.773 -0.032527838 1.2254348e-38 380 264
0.082674921 0.773 -0.032527838 1.1885205e-38 381 264
0.084030248 0.773 -0.032527838 1.0601361e-38 382 264
0.04885488 0.77399999 -0.033927001 1.5577372e-38 356 265
0.050211959 0.77399999 -0.033927001 1.5669569e-38 357 265
0.051502414 0.773 -0.033883166 1.6128731e-38 358 265
0.052720979 0.77100003 -0.033795502 1.6497155e-38 359 265
0.053932533 0.76899999 -0.033707831 1.6588987e-38 360 265
0.055280842 0.76899999 -0.033707831 1.6865214e-38 361 265
0.056481879 0.76700002 -0.033620168 1.6681902e-38 362 265
0.057826683 0.76700002 -0.033620168 1.6774098e-38 363 265
0.059171494 0.76700002 -0.033620168 1.6774448e-38 364 265
0.060516298 0.76700002 -0.033620168 1.6866645e-38 365 265
0.061780453 0.76599997 -0.033576332 1.6867367e-38 366 265
0.063123502 0.76599997 -0.033576332 1.6775171e-38 367 265
0.06455072 0.76700002 -0.033620168 1.6681899e-38 368 265
0.065895528 0.76700002 -0.033620168 1.6313477e-38 369 265
0.067240335 0.76700002 -0.033620168 1.6036517e-38 370 265
0.068585135 0.76700002 -0.033620168 1.5759571e-38 371 265
0.06992995 0.76700002 -0.033620168 1.5391851e-38 372 265
0.071460605 0.76899999 -0.033707831 1.4930513e-38 373 265
0.072808921 0.76899999 -0.033707831 1.4837596e-38 374 265
0.074157231 0.76899999 -0.033707831 1.4284422e-38 375 265
0.07550554 0.76899999 -0.033707831 1.3823449e-38 376 265
0.077053741 0.77100003 -0.033795502 1.3454308e-38 377 265
0.078405559 0.77100003 -0.033795502 1.2992982e-38 378 265
0.079964265 0.773 -0.033883166 1.2808591e-38 379 265
0.0813196 0.773 -0.033883166 1.1886652e-38 380 265
0.082674921 0.773 -0.033883166 1.1610063e-38 381 265
0.084030248 0.773 -0.033883166 1.0417693e-38 382 265
0.047497798 0.77399999 -0.03528408 1.4749814e-38 355 266
0.04885488 0.77399999 -0.03528408 1.6035826e-38 356 266
0.050147086 0.773 -0.035238493 1.6128023e-38 357 266
0.05136916 0.77100003 -0.03514732 1.6404593e-38 358 266
0.052584216 0.76899999 -0.035056144 1.6588985e-38 359 266
0.053932533 0.76899999 -0.035056144 1.6681902e-38 360 266
0.055137072 0.76700002 -0.034964975 1.6681902e-38 361 266
0.056481879 0.76700002 -0.034964975 1.6957407e-38 362 266
0.057751291 0.76599997 -0.034919381 1.6957407e-38 363 266
0.059094343 0.76599997 -0.034919381 1.6866645e-38 364 266
0.060437392 0.76599997 -0.034919381 1.6958841e-38 365 266
0.061780453 0.76599997 -0.034919381 1.6958841e-38 366 266
0.063123502 0.76599997 -0.034919381 1.6866645e-38 367 266
0.064466551 0.76599997 -0.034919381 1.6865199e-38 368 266
0.065895528 0.76700002 -0.034964975 1.6588253e-38 369 266
0.067240335 0.76700002 -0.034964975 1.6402773e-38 370 266
0.068585135 0.76700002 -0.034964975 1.6126185e-38 371 266
0.06992995 0.76700002 -0.034964975 1.5482602e-38 372 266
0.07127475 0.76700002 -0.034964975 1.5205655e-38 373 266
0.072619557 0.76700002 -0.034964975 1.4377336e-38 374 266
0.074157231 0.76899999 -0.035056144 1.4008914e-38 375 266
0.07550554 0.76899999 -0.035056144 1.3914566e-38 376 266
0.076853856 0.76899999 -0.035056144 1.3453589e-38 377 266
0.078202173 0.76899999 -0.035056144 1.326848e-38 378 266
0.079757385 0.77100003 -0.03514732 1.2715307e-38 379 266
0.0813196 0.773 -0.035238493 1.2345465e-38 380 266
0.082674921 0.773 -0.035238493 1.16079e-38 381 266
0.047497798 0.77399999 -0.036641158 1.5118231e-38 355 267
0.048539277 0.76899999 -0.036404461 1.6220575e-38 356 267
0.04988759 0.76899999 -0.036404461 1.631277e-38 357 267
0.051235907 0.76899999 -0.036404461 1.6313474e-38 358 267
0.052447457 0.76700002 -0.036309779 1.6589701e-38 359 267
0.053792264 0.76700002 -0.036309779 1.6681536e-38 360 267
0.055065181 0.76599997 -0.036262438 1.6957763e-38 361 267
0.056408234 0.76599997 -0.036262438 1.6774815e-38 362 267
0.057751291 0.76599997 -0.036262438 1.6774815e-38 363 267
0.058940053 0.764 -0.036167759 1.704996e-38 364 267
0.0602796 0.764 -0.036167759 1.704996e-38 365 267
0.061780453 0.76599997 -0.036262438 1.6958841e-38 366 267
0.063123502 0.76599997 -0.036262438 1.6866645e-38 367 267
0.064466551 0.76599997 -0.036262438 1.6681531e-38 368 267
0.065809615 0.76599997 -0.036262438 1.6404944e-38 369 267
0.067152664 0.76599997 -0.036262438 1.6127987e-38 370 267
0.068495713 0.76599997 -0.036262438 1.5667009e-38 371 267
0.06992995 0.76700002 -0.036309779 1.5390772e-38 372 267
0.07127475 0.76700002 -0.036309779 1.4837598e-38 373 267
0.072619557 0.76700002 -0.036309779 1.4101112e-38 374 267
0.073964365 0.76700002 -0.036309779 1.3916362e-38 375 267
0.07550554 0.76899999 -0.036404461 1.345539e-38 376 267
0.076853856 0.76899999 -0.036404461 1.3086247e-38 377 267
0.078202173 0.76899999 -0.036404461 1.2808238e-38 378 267
0.079757385 0.77100003 -0.036499143 1.2439455e-38 379 267
0.081109203 0.77100003 -0.036499143 1.1793385e-38 380 267
0.082461022 0.77100003 -0.036499143 1.1148016e-38 381 267
0.048539277 0.76899999 -0.03775277 1.6313124e-38 356 268
0.049757849 0.76700002 -0.037654586 1.6497155e-38 357 268
0.051102653 0.76700002 -0.037654586 1.6681533e-38 358 268
0.052447457 0.76700002 -0.037654586 1.6865564e-38 359 268
0.053722132 0.76599997 -0.037605491 1.6957407e-38 360 268
0.055065181 0.76599997 -0.037605491 1.7049963e-38 361 268
0.056260962 0.764 -0.037507307 1.6866292e-38 362 268
0.057449725 0.76200002 -0.037409119 1.6866292e-38 363 268
0.058785759 0.76200002 -0.037409119 1.7049963e-38 364 268
0.0602796 0.764 -0.037507307 1.7049963e-38 365 268
0.061457843 0.76200002 -0.037409119 1.7233628e-38 366 268
0.062793881 0.76200002 -0.037409119 1.7049237e-38 367 268
0.064129919 0.76200002 -0.037409119 1.7048508e-38 368 268
0.06563779 0.764 -0.037507307 1.6495693e-38 369 268
0.06697733 0.764 -0.037507307 1.6035065e-38 370 268
0.068495713 0.76599997 -0.037605491 1.5758478e-38 371 268
0.069838762 0.76599997 -0.037605491 1.5297497e-38 372 268
0.07127475 0.76700002 -0.037654586 1.4836879e-38 373 268
0.072619557 0.76700002 -0.037654586 1.4284425e-38 374 268
0.073964365 0.76700002 -0.037654586 1.3823446e-38 375 268
0.075309172 0.76700002 -0.037654586 1.3454311e-38 376 268
0.076853856 0.76899999 -0.03775277 1.2993333e-38 377 268
0.078202173 0.76899999 -0.03775277 1.2716042e-38 378 268
0.079550482 0.76899999 -0.03775277 1.2255064e-38 379 268
0.081109203 0.77100003 -0.037850961 1.1884505e-38 380 268
0.082461022 0.77100003 -0.037850961 1.096255e-38 381 268
0.047190964 0.76899999 -0.039101087 1.6037647e-38 355 269
0.048539277 0.76899999 -0.039101087 1.6314196e-38 356 269
0.049757849 0.76700002 -0.038999394 1.6406391e-38 357 269
0.051102653 0.76700002 -0.038999394 1.6865202e-38 358 269
0.052379075 0.76599997 -0.038948543 1.7049593e-38 359 269
0.053581864 0.764 -0.038846854 1.6774095e-38 360 269
0.054921411 0.764 -0.038846854 1.6958846e-38 361 269
0.056113683 0.76200002 -0.038745161 1.6866295e-38 362 269
0.057449725 0.76200002 -0.038745161 1.695849e-38 363 269
0.058785759 0.76200002 -0.038745161 1.7142158e-38 364 269
0.060121801 0.76200002 -0.038745161 1.7142158e-38 365 269
0.061457843 0.76200002 -0.038745161 1.704996e-38 366 269
0.062793881 0.76200002 -0.038745161 1.6957763e-38 367 269
0.064129919 0.76200002 -0.038745161 1.6680807e-38 368 269
0.065465957 0.76200002 -0.038745161 1.6219829e-38 369 269
0.066802002 0.76200002 -0.038745161 1.5759202e-38 370 269
0.068316877 0.764 -0.038846854 1.5482615e-38 371 269
0.069656424 0.764 -0.038846854 1.5021992e-38 372 269
0.071181826 0.76599997 -0.038948543 1.4468819e-38 373 269
0.072524875 0.76599997 -0.038948543 1.4008564e-38 374 269
0.073867925 0.76599997 -0.038948543 1.3639421e-38 375 269
0.075309172 0.76700002 -0.038999394 1.317845e-38 376 269
0.07665398 0.76700002 -0.038999394 1.2717472e-38 377 269
0.078202173 0.76899999 -0.039101087 1.2256866e-38 378 269
0.079550482 0.76899999 -0.039101087 1.1887724e-38 379 269
0.080898799 0.76899999 -0.039101087 1.1608288e-38 380 269
0.082247108 0.76899999 -0.039101087 1.0870723e-38 381 269
0.045842651 0.76899999 -0.0404494 1.6128392e-38 354 270
0.047190964 0.76899999 -0.0404494 1.6312783e-38 355 270
0.048413042 0.76700002 -0.040344197 1.6406391e-38 356 270
0.04969297 0.76599997 -0.040291596 1.6498587e-38 357 270
0.051036026 0.76599997 -0.040291596 1.6865562e-38 358 270
0.052105557 0.76200002 -0.040081199 1.6958116e-38 359 270
0.053441599 0.76200002 -0.040081199 1.6957407e-38 360 270
0.054777641 0.76200002 -0.040081199 1.7049963e-38 361 270
0.056113683 0.76200002 -0.040081199 1.6866295e-38 362 270
0.057449725 0.76200002 -0.040081199 1.695849e-38 363 270
0.058785759 0.76200002 -0.040081199 1.7142158e-38 364 270
0.060121801 0.76200002 -0.040081199 1.7142158e-38 365 270
0.061457843 0.76200002 -0.040081199 1.7049963e-38 366 270
0.062793881 0.76200002 -0.040081199 1.6957407e-38 367 270
0.064129919 0.76200002 -0.040081199 1.6404944e-38 368 270
0.065465957 0.76200002 -0.040081199 1.585177e-38 369 270
0.066802002 0.76200002 -0.040081199 1.5391498e-38 370 270
0.068138041 0.76200002 -0.040081199 1.5022355e-38 371 270
0.069474079 0.76200002 -0.040081199 1.4837242e-38 372 270
0.070995972 0.764 -0.040186398 1.4376623e-38 373 270
0.072335519 0.764 -0.040186398 1.3916368e-38 374 270
0.073867925 0.76599997 -0.040291596 1.3363194e-38 375 270
0.075210981 0.76599997 -0.040291596 1.2993698e-38 376 270
0.07665398 0.76700002 -0.040344197 1.253308e-38 377 270
0.077998787 0.76700002 -0.040344197 1.225543e-38 378 270
0.079343595 0.76700002 -0.040344197 1.1794812e-38 379 270
0.080898799 0.76899999 -0.0404494 1.1240584e-38 380 270
0.082247108 0.76899999 -0.0404494 1.0595215e-38 381 270
0.045723427 0.76700002 -0.041689005 1.6129827e-38 354 271
0.047068235 0.76700002 -0.041689005 1.6313858e-38 355 271
0.048349917 0.76599997 -0.041634649 1.6406391e-38 356 271
0.04969297 0.76599997 -0.041634649 1.6498587e-38 357 271
0.050769519 0.76200002 -0.041417241 1.695776e-38 358 271
0.052105557 0.76200002 -0.041417241 1.695776e-38 359 271
0.053441599 0.76200002 -0.041417241 1.7233628e-38 360 271
0.054777641 0.76200002 -0.041417241 1.7325824e-38 361 271
0.056113683 0.76200002 -0.041417241 1.6958843e-38 362 271
0.057449725 0.76200002 -0.041417241 1.6958843e-38 363 271
0.058785759 0.76200002 -0.041417241 1.6958846e-38 364 271
0.060121801 0.76200002 -0.041417241 1.6866292e-38 365 271
0.061457843 0.76200002 -0.041417241 1.704961e-38 366 271
0.062793881 0.76200002 -0.041417241 1.6680827e-38 367 271
0.064129919 0.76200002 -0.041417241 1.6128725e-38 368 271
0.065465957 0.76200002 -0.041417241 1.5575553e-38 369 271
0.066802002 0.76200002 -0.041417241 1.5299302e-38 370 271
0.068138041 0.76200002 -0.041417241 1.5022355e-38 371 271
0.069474079 0.76200002 -0.041417241 1.4836877e-38 372 271
0.070810117 0.76200002 -0.041417241 1.4467734e-38 373 271
0.072146162 0.76200002 -0.041417241 1.3639421e-38 374 271
0.073675066 0.764 -0.041525945 1.3178444e-38 375 271
0.075210981 0.76599997 -0.041634649 1.2992985e-38 376 271
0.07665398 0.76700002 -0.041689005 1.2532007e-38 377 271
0.077998787 0.76700002 -0.041689005 1.1979206e-38 378 271
0.079343595 0.76700002 -0.041689005 1.1610063e-38 379 271
0.080688395 0.76700002 -0.041689005 1.0965086e-38 380 271
0.08203321 0.76700002 -0.041689005 1.0504108e-38 381 271
0.04437862 0.76700002 -0.043033812 1.5486287e-38 353 272
0.045663811 0.76599997 -0.042977702 1.6314211e-38 354 272
0.047006864 0.76599997 -0.042977702 1.6314211e-38 355 272
0.048097439 0.76200002 -0.042753279 1.6865214e-38 356 272
0.049433477 0.76200002 -0.042753279 1.695741e-38 357 272
0.050769519 0.76200002 -0.042753279 1.695776e-38 358 272
0.052037176 0.76099998 -0.042697169 1.7049957e-38 359 272
0.053371463 0.76099998 -0.042697169 1.6959196e-38 360 272
0.05470575 0.76099998 -0.042697169 1.6959196e-38 361 272
0.056040037 0.76099998 -0.042697169 1.6958841e-38 362 272
0.057374325 0.76099998 -0.042697169 1.714323e-38 363 272
0.058708608 0.76099998 -0.042697169 1.6867367e-38 364 272
0.060121801 0.76200002 -0.042753279 1.6867367e-38 365 272
0.061457843 0.76200002 -0.042753279 1.6682615e-38 366 272
0.062793881 0.76200002 -0.042753279 1.6129802e-38 367 272
0.064129919 0.76200002 -0.042753279 1.6219476e-38 368 272
0.065465957 0.76200002 -0.042753279 1.5942889e-38 369 272
0.066802002 0.76200002 -0.042753279 1.5206751e-38 370 272
0.068138041 0.76200002 -0.042753279 1.4746131e-38 371 272
0.069474079 0.76200002 -0.042753279 1.4653203e-38 372 272
0.070810117 0.76200002 -0.042753279 1.4100031e-38 373 272
0.072146162 0.76200002 -0.042753279 1.3270993e-38 374 272
0.073675066 0.764 -0.042865492 1.2994405e-38 375 272
0.075210981 0.76599997 -0.042977702 1.2533443e-38 376 272
0.076554038 0.76599997 -0.042977702 1.2072824e-38 377 272
0.077998787 0.76700002 -0.043033812 1.1519667e-38 378 272
0.079343595 0.76700002 -0.043033812 1.1058689e-38 379 272
0.080688395 0.76700002 -0.043033812 1.1055484e-38 380 272
0.08203321 0.76700002 -0.043033812 1.0779256e-38 381 272
0.041689005 0.76700002 -0.04437862 1.4936027e-38 351 273
0.043033812 0.76700002 -0.04437862 1.5852531e-38 352 273
0.04437862 0.76700002 -0.04437862 1.6313508e-38 353 273
0.045663811 0.76599997 -0.044320758 1.6314561e-38 354 273
0.047006864 0.76599997 -0.044320758 1.6314561e-38 355 273
0.048097439 0.76200002 -0.044089317 1.6682255e-38 356 273
0.049433477 0.76200002 -0.044089317 1.6866648e-38 357 273
0.050702889 0.76099998 -0.044031456 1.6959196e-38 358 273
0.052037176 0.76099998 -0.044031456 1.6959196e-38 359 273
0.053371463 0.76099998 -0.044031456 1.695955e-38 360 273
0.05470575 0.76099998 -0.044031456 1.7143581e-38 361 273
0.056040037 0.76099998 -0.044031456 1.6959915e-38 362 273
0.057374325 0.76099998 -0.044031456 1.6959915e-38 363 273
0.058708608 0.76099998 -0.044031456 1.6867364e-38 364 273
0.060042895 0.76099998 -0.044031456 1.6775168e-38 365 273
0.061457843 0.76200002 -0.044089317 1.6865562e-38 366 273
0.062793881 0.76200002 -0.044089317 1.6312747e-38 367 273
0.064129919 0.76200002 -0.044089317 1.6127631e-38 368 273
0.065465957 0.76200002 -0.044089317 1.5574457e-38 369 273
0.066802002 0.76200002 -0.044089317 1.52975e-38 370 273
0.068138041 0.76200002 -0.044089317 1.4929078e-38 371 273
0.069474079 0.76200002 -0.044089317 1.4467734e-38 372 273
0.070810117 0.76200002 -0.044089317 1.4007115e-38 373 273
0.072146162 0.76200002 -0.044089317 1.336211e-38 374 273
0.073675066 0.764 -0.04420504 1.2993686e-38 375 273
0.075014614 0.764 -0.04420504 1.253236e-38 376 273
0.076554038 0.76599997 -0.044320758 1.2163219e-38 377 273
0.077897087 0.76599997 -0.044320758 1.1701187e-38 378 273
0.079343595 0.76700002 -0.04437862 1.1240569e-38 379 273
0.080583192 0.76599997 -0.044320758 1.0504126e-38 380 273
0.081926249 0.76599997 -0.044320758 1.0504126e-38 381 273
0.040291596 0.76599997 -0.045663811 1.6501181e-38 350 274
0.041634649 0.76599997 -0.045663811 1.5302637e-38 351 274
0.042977702 0.76599997 -0.045663811 1.6312783e-38 352 274
0.044320758 0.76599997 -0.045663811 1.6405337e-38 353 274
0.045544583 0.764 -0.045544583 1.6406391e-38 354 274
0.046761397 0.76200002 -0.045425359 1.6498587e-38 355 274
0.048097439 0.76200002 -0.045425359 1.6682249e-38 356 274
0.049433477 0.76200002 -0.045425359 1.6774445e-38 357 274
0.050702889 0.76099998 -0.045365743 1.6959196e-38 358 274
0.052037176 0.76099998 -0.045365743 1.6959196e-38 359 274
0.053371463 0.76099998 -0.045365743 1.7234707e-38 360 274
0.05470575 0.76099998 -0.045365743 1.7234707e-38 361 274
0.056040037 0.76099998 -0.045365743 1.6959562e-38 362 274
0.057374325 0.76099998 -0.045365743 1.6867367e-38 363 274
0.058708608 0.76099998 -0.045365743 1.6774451e-38 364 274
0.060042895 0.76099998 -0.045365743 1.6682255e-38 365 274
0.061377186 0.76099998 -0.045365743 1.6221629e-38 366 274
0.06271147 0.76099998 -0.045365743 1.5852486e-38 367 274
0.064045757 0.76099998 -0.045365743 1.5667728e-38 368 274
0.065380037 0.76099998 -0.045365743 1.5298946e-38 369 274
0.066802002 0.76200002 -0.045425359 1.4929807e-38 370 274
0.068138041 0.76200002 -0.045425359 1.4469189e-38 371 274
0.069474079 0.76200002 -0.045425359 1.4008929e-38 372 274
0.070810117 0.76200002 -0.045425359 1.336356e-38 373 274
0.072146162 0.76200002 -0.045425359 1.3178094e-38 374 274
0.073675066 0.764 -0.045544583 1.262492e-38 375 274
0.075014614 0.764 -0.045544583 1.2255786e-38 376 274
0.076554038 0.76599997 -0.045663811 1.1794809e-38 377 274
0.077897087 0.76599997 -0.045663811 1.133313e-38 378 274
0.079240143 0.76599997 -0.045663811 1.0963988e-38 379 274
0.080583192 0.76599997 -0.045663811 1.02279e-38 380 274
0.081926249 0.76599997 -0.045663811 1.02279e-38 381 274
0.040291596 0.76599997 -0.047006864 1.6039105e-38 350 275
0.041634649 0.76599997 -0.047006864 1.5578486e-38 351 275
0.042753279 0.76200002 -0.046761397 1.6405688e-38 352 275
0.044089317 0.76200002 -0.046761397 1.6405688e-38 353 275
0.045425359 0.76200002 -0.046761397 1.6406744e-38 354 275
0.046761397 0.76200002 -0.046761397 1.649894e-38 355 275
0.048097439 0.76200002 -0.046761397 1.6682968e-38 356 275
0.049368605 0.76099998 -0.046700031 1.686772e-38 357 275
0.050702889 0.76099998 -0.046700031 1.686772e-38 358 275
0.052037176 0.76099998 -0.046700031 1.6959915e-38 359 275
0.053231198 0.759 -0.046577301 1.7142874e-38 360 275
0.054561976 0.759 -0.046577301 1.7142874e-38 361 275
0.055892758 0.759 -0.046577301 1.6958846e-38 362 275
0.05722354 0.759 -0.046577301 1.6866292e-38 363 275
0.058708608 0.76099998 -0.046700031 1.6865567e-38 364 275
0.060042895 0.76099998 -0.046700031 1.6496786e-38 365 275
0.061377186 0.76099998 -0.046700031 1.6219832e-38 366 275
0.06271147 0.76099998 -0.046700031 1.6035082e-38 367 275
0.064045757 0.76099998 -0.046700031 1.5666653e-38 368 275
0.065380037 0.76099998 -0.046700031 1.5113838e-38 369 275
0.066714332 0.76099998 -0.046700031 1.4836892e-38 370 275
0.068048611 0.76099998 -0.046700031 1.4376273e-38 371 275
0.069474079 0.76200002 -0.046761397 1.3731266e-38 372 275
0.070810117 0.76200002 -0.046761397 1.3270289e-38 373 275
0.072146162 0.76200002 -0.046761397 1.2992629e-38 374 275
0.073482201 0.76200002 -0.046761397 1.2439455e-38 375 275
0.075014614 0.764 -0.046884131 1.2254348e-38 376 275
0.076354161 0.764 -0.046884131 1.1885205e-38 377 275
0.077693708 0.764 -0.046884131 1.1239865e-38 378 275
0.07882636 0.76200002 -0.046761397 1.0962918e-38 379 275
0.080162399 0.76200002 -0.046761397 9.9527728e-39 380 275
0.081926249 0.76599997 -0.047006864 9.9527728e-39 381 275
0.040081199 0.76200002 -0.048097439 1.5762148e-38 350 276
0.041417241 0.76200002 -0.048097439 1.5854344e-38 351 276
0.042697169 0.76099998 -0.048034318 1.6314205e-38 352 276
0.044031456 0.76099998 -0.048034318 1.6314205e-38 353 276
0.045365743 0.76099998 -0.048034318 1.6406388e-38 354 276
0.046700031 0.76099998 -0.048034318 1.6498584e-38 355 276
0.048034318 0.76099998 -0.048034318 1.6774445e-38 356 276
0.049368605 0.76099998 -0.048034318 1.6959196e-38 357 276
0.050702889 0.76099998 -0.048034318 1.6959562e-38 358 276
0.051900417 0.759 -0.047908079 1.6959562e-38 359 276
0.053231198 0.759 -0.047908079 1.7142877e-38 360 276
0.054561976 0.759 -0.047908079 1.7142877e-38 361 276
0.055892758 0.759 -0.047908079 1.7049963e-38 362 276
0.05722354 0.759 -0.047908079 1.6865211e-38 363 276
0.058554318 0.759 -0.047908079 1.6588982e-38 364 276
0.059885096 0.759 -0.047908079 1.6312394e-38 365 276
0.061377186 0.76099998 -0.048034318 1.640207e-38 366 276
0.06271147 0.76099998 -0.048034318 1.6125481e-38 367 276
0.064045757 0.76099998 -0.048034318 1.5390069e-38 368 276
0.065380037 0.76099998 -0.048034318 1.4929091e-38 369 276
0.066714332 0.76099998 -0.048034318 1.4469189e-38 370 276
0.068048611 0.76099998 -0.048034318 1.4100406e-38 371 276
0.069382899 0.76099998 -0.048034318 1.336356e-38 372 276
0.070810117 0.76200002 -0.048097439 1.2810386e-38 373 276
0.072146162 0.76200002 -0.048097439 1.2808591e-38 374 276
0.073482201 0.76200002 -0.048097439 1.2255417e-38 375 276
0.075014614 0.764 -0.048223678 1.1886286e-38 376 276
0.076354161 0.764 -0.048223678 1.1517502e-38 377 276
0.077693708 0.764 -0.048223678 1.105584e-38 378 276
0.07882636 0.76200002 -0.048097439 1.0594862e-38 379 276
0.080162399 0.76200002 -0.048097439 9.7694577e-39 380 276
0.038694311 0.76099998 -0.049368605 1.5579947e-38 349 277
0.040028598 0.76099998 -0.049368605 1.6037997e-38 350 277
0.041362885 0.76099998 -0.049368605 1.6130192e-38 351 277
0.042697169 0.76099998 -0.049368605 1.6406757e-38 352 277
0.044031456 0.76099998 -0.049368605 1.6314561e-38 353 277
0.045365743 0.76099998 -0.049368605 1.6499303e-38 354 277
0.046700031 0.76099998 -0.049368605 1.6499303e-38 355 277
0.048034318 0.76099998 -0.049368605 1.6775168e-38 356 277
0.049368605 0.76099998 -0.049368605 1.6867364e-38 357 277
0.050702889 0.76099998 -0.049368605 1.6959562e-38 358 277
0.051763661 0.75700003 -0.049109112 1.6959562e-38 359 277
0.053090934 0.75700003 -0.049109112 1.7142874e-38 360 277
0.054418206 0.75700003 -0.049109112 1.6958843e-38 361 277
0.055745479 0.75700003 -0.049109112 1.7049963e-38 362 277
0.05722354 0.759 -0.049238857 1.668118e-38 363 277
0.058554318 0.759 -0.049238857 1.6679382e-38 364 277
0.059885096 0.759 -0.049238857 1.6402794e-38 365 277
0.061215881 0.759 -0.049238857 1.6125481e-38 366 277
0.06271147 0.76099998 -0.049368605 1.57567e-38 367 277
0.064045757 0.76099998 -0.049368605 1.5021286e-38 368 277
0.065380037 0.76099998 -0.049368605 1.4652145e-38 369 277
0.066714332 0.76099998 -0.049368605 1.4100406e-38 370 277
0.068048611 0.76099998 -0.049368605 1.3823819e-38 371 277
0.069382899 0.76099998 -0.049368605 1.3362841e-38 372 277
0.070810117 0.76200002 -0.049433477 1.2901503e-38 373 277
0.072146162 0.76200002 -0.049433477 1.2439809e-38 374 277
0.073482201 0.76200002 -0.049433477 1.2071026e-38 375 277
0.074818239 0.76200002 -0.049433477 1.170154e-38 376 277
0.076154284 0.76200002 -0.049433477 1.1240563e-38 377 277
0.077490322 0.76200002 -0.049433477 1.0595225e-38 378 277
0.07882636 0.76200002 -0.049433477 1.0318998e-38 379 277
0.080162399 0.76200002 -0.049433477 9.5847105e-39 380 277
0.038592618 0.759 -0.050569639 1.5578852e-38 349 278
0.0399234 0.759 -0.050569639 1.6313855e-38 350 278
0.041254178 0.759 -0.050569639 1.6313855e-38 351 278
0.042584959 0.759 -0.050569639 1.6314914e-38 352 278
0.043915741 0.759 -0.050569639 1.640711e-38 353 278
0.045246519 0.759 -0.050569639 1.6499659e-38 354 278
0.046577301 0.759 -0.050569639 1.6591856e-38 355 278
0.047908079 0.759 -0.050569639 1.6775168e-38 356 278
0.049238857 0.759 -0.050569639 1.6867364e-38 357 278
0.050436385 0.75700003 -0.050436385 1.7142874e-38 358 278
0.051763661 0.75700003 -0.050436385 1.7142874e-38 359 278
0.053090934 0.75700003 -0.050436385 1.6958841e-38 360 278
0.054418206 0.75700003 -0.050436385 1.6866645e-38 361 278
0.055745479 0.75700003 -0.050436385 1.6865564e-38 362 278
0.057072755 0.75700003 -0.050436385 1.6589338e-38 363 278
0.058400027 0.75700003 -0.050436385 1.6495337e-38 364 278
0.059727304 0.75700003 -0.050436385 1.6034719e-38 365 278
0.061215881 0.759 -0.050569639 1.5481899e-38 366 278
0.062546656 0.759 -0.050569639 1.5389344e-38 367 278
0.063877434 0.759 -0.050569639 1.4929091e-38 368 278
0.065208219 0.759 -0.050569639 1.4375917e-38 369 278
0.066714332 0.76099998 -0.050702889 1.4099327e-38 370 278
0.068048611 0.76099998 -0.050702889 1.3638349e-38 371 278
0.069382899 0.76099998 -0.050702889 1.3177727e-38 372 278
0.070810117 0.76200002 -0.050769519 1.2808585e-38 373 278
0.072146162 0.76200002 -0.050769519 1.2255417e-38 374 278
0.073482201 0.76200002 -0.050769519 1.1794439e-38 375 278
0.074818239 0.76200002 -0.050769519 1.1516796e-38 376 278
0.076154284 0.76200002 -0.050769519 1.1055817e-38 377 278
0.077490322 0.76200002 -0.050769519 1.004315e-38 378 278
0.07882636 0.76200002 -0.050769519 9.8587583e-39 379 278
0.037163652 0.75700003 -0.051763661 1.6129136e-38 348 279
0.038490929 0.75700003 -0.051763661 1.6221332e-38 349 279
0.039818201 0.75700003 -0.051763661 1.6314211e-38 350 279
0.041145474 0.75700003 -0.051763661 1.6314211e-38 351 279
0.042472746 0.75700003 -0.051763661 1.649894e-38 352 279
0.043800019 0.75700003 -0.051763661 1.649894e-38 353 279
0.045127295 0.75700003 -0.051763661 1.6591853e-38 354 279
0.046454567 0.75700003 -0.051763661 1.6591853e-38 355 279
0.04778184 0.75700003 -0.051763661 1.6867367e-38 356 279
0.049109112 0.75700003 -0.051763661 1.6959562e-38 357 279
0.050303131 0.755 -0.051626898 1.6959562e-38 358 279
0.051626898 0.755 -0.051626898 1.6867367e-38 359 279
0.052950665 0.755 -0.051626898 1.714323e-38 360 279
0.054274432 0.755 -0.051626898 1.6774448e-38 361 279
0.055745479 0.75700003 -0.051763661 1.6589338e-38 362 279
0.057072755 0.75700003 -0.051763661 1.6312391e-38 363 279
0.058245733 0.755 -0.051626898 1.5852842e-38 364 279
0.059569497 0.755 -0.051626898 1.5207472e-38 365 279
0.061054576 0.75700003 -0.051763661 1.5389344e-38 366 279
0.062381849 0.75700003 -0.051763661 1.5204952e-38 367 279
0.063877434 0.759 -0.051900417 1.4652145e-38 368 279
0.065208219 0.759 -0.051900417 1.4283721e-38 369 279
0.066538997 0.759 -0.051900417 1.3639073e-38 370 279
0.067869775 0.759 -0.051900417 1.3270292e-38 371 279
0.069382899 0.76099998 -0.052037176 1.2993704e-38 372 279
0.070717193 0.76099998 -0.052037176 1.2348335e-38 373 279
0.072146162 0.76200002 -0.052105557 1.2070323e-38 374 279
0.073482201 0.76200002 -0.052105557 1.1517149e-38 375 279
0.074720047 0.76099998 -0.052037176 1.1056186e-38 376 279
0.076054335 0.76099998 -0.052037176 1.0595209e-38 377 279
0.077388622 0.76099998 -0.052037176 9.85911e-39 378 279
0.078722909 0.76099998 -0.052037176 9.3981333e-39 379 279
0.03583638 0.75700003 -0.053090934 1.5578496e-38 347 280
0.037163652 0.75700003 -0.053090934 1.6313502e-38 348 280
0.038490929 0.75700003 -0.053090934 1.6406056e-38 349 280
0.039818201 0.75700003 -0.053090934 1.6314561e-38 350 280
0.041036766 0.755 -0.052950665 1.6406757e-38 351 280
0.042360533 0.755 -0.052950665 1.640746e-38 352 280
0.043684296 0.755 -0.052950665 1.6591853e-38 353 280
0.045008067 0.755 -0.052950665 1.6592209e-38 354 280
0.04633183 0.755 -0.052950665 1.6684405e-38 355 280
0.047655597 0.755 -0.052950665 1.6959559e-38 356 280
0.048979364 0.755 -0.052950665 1.6959559e-38 357 280
0.050303131 0.755 -0.052950665 1.6959562e-38 358 280
0.051626898 0.755 -0.052950665 1.6867367e-38 359 280
0.052950665 0.755 -0.052950665 1.6866645e-38 360 280
0.054274432 0.755 -0.052950665 1.6682252e-38 361 280
0.055598196 0.755 -0.052950665 1.6497139e-38 362 280
0.056921966 0.755 -0.052950665 1.6220192e-38 363 280
0.058245733 0.755 -0.052950665 1.5758851e-38 364 280
0.059569497 0.755 -0.052950665 1.5390069e-38 365 280
0.060893264 0.755 -0.052950665 1.538935e-38 366 280
0.062381849 0.75700003 -0.053090934 1.4836176e-38 367 280
0.063709125 0.75700003 -0.053090934 1.4468115e-38 368 280
0.065036394 0.75700003 -0.053090934 1.4006778e-38 369 280
0.066538997 0.759 -0.053231198 1.3546156e-38 370 280
0.067869775 0.759 -0.053231198 1.3177374e-38 371 280
0.069200553 0.759 -0.053231198 1.2716042e-38 372 280
0.070717193 0.76099998 -0.053371463 1.2255064e-38 373 280
0.072051473 0.76099998 -0.053371463 1.1884499e-38 374 280
0.07338576 0.76099998 -0.053371463 1.1423881e-38 375 280
0.074720047 0.76099998 -0.053371463 1.0595578e-38 376 280
0.076054335 0.76099998 -0.053371463 1.0227155e-38 377 280
0.077388622 0.76099998 -0.053371463 9.5828959e-39 378 280
0.078722909 0.76099998 -0.053371463 8.9375264e-39 379 280
0.033181835 0.75700003 -0.054418206 1.5583563e-38 345 281
0.034509107 0.75700003 -0.054418206 1.5578833e-38 346 281
0.03583638 0.75700003 -0.054418206 1.5578833e-38 347 281
0.037065465 0.755 -0.054274432 1.6130893e-38 348 281
0.038389232 0.755 -0.054274432 1.6130893e-38 349 281
0.039712999 0.755 -0.054274432 1.6406388e-38 350 281
0.041036766 0.755 -0.054274432 1.6406388e-38 351 281
0.042360533 0.755 -0.054274432 1.6500009e-38 352 281
0.043684296 0.755 -0.054274432 1.6500009e-38 353 281
0.045008067 0.755 -0.054274432 1.6684758e-38 354 281
0.04633183 0.755 -0.054274432 1.6684758e-38 355 281
0.047655597 0.755 -0.054274432 1.6867717e-38 356 281
0.048979364 0.755 -0.054274432 1.6867717e-38 357 281
0.050303131 0.755 -0.054274432 1.6959194e-38 358 281
0.051626898 0.755 -0.054274432 1.6866998e-38 359 281
0.052950665 0.755 -0.054274432 1.6774798e-38 360 281
0.054274432 0.755 -0.054274432 1.6498211e-38 361 281
0.055598196 0.755 -0.054274432 1.6220545e-38 362 281
0.056921966 0.755 -0.054274432 1.5852123e-38 363 281
0.058245733 0.755 -0.054274432 1.5573738e-38 364 281
0.059569497 0.755 -0.054274432 1.529715e-38 365 281
0.060893264 0.755 -0.054274432 1.4836895e-38 366 281
0.062217031 0.755 -0.054274432 1.4468112e-38 367 281
0.063709125 0.75700003 -0.054418206 1.4007857e-38 368 281
0.065036394 0.75700003 -0.054418206 1.3639073e-38 369 281
0.066538997 0.759 -0.054561976 1.3361409e-38 370 281
0.067869775 0.759 -0.054561976 1.2992985e-38 371 281
0.069200553 0.759 -0.054561976 1.2439458e-38 372 281
0.070717193 0.76099998 -0.05470575 1.1794089e-38 373 281
0.072051473 0.76099998 -0.05470575 1.1517149e-38 374 281
0.07338576 0.76099998 -0.05470575 1.1056171e-38 375 281
