# .PCD v.7 - Point Cloud Data file format
FIELDS x y z rgb imX imY
SIZE 4 4 4 4 4 4
TYPE F F F F F F
COUNT 1 1 1 1 1 1
WIDTH 844
HEIGHT 1
VIEWPOINT 0 0 0 1 0 0 0
POINTS 844
DATA ascii
0.036558751 0.71899998 -0.01512776 1.8893152e-38 349 252
0.037714198 0.71700001 -0.015085679 1.8985701e-38 350 252
0.038971342 0.71700001 -0.015085679 1.8985701e-38 351 252
0.040228479 0.71700001 -0.015085679 1.9077171e-38 352 252
0.041485619 0.71700001 -0.015085679 1.9169366e-38 353 252
0.042563915 0.71399999 -0.015022559 1.9077168e-38 354 252
0.043815799 0.71399999 -0.015022559 1.8984972e-38 355 252
0.045067675 0.71399999 -0.015022559 1.8709459e-38 356 252
0.046319555 0.71399999 -0.015022559 1.8433231e-38 357 252
0.04777132 0.71700001 -0.015085679 1.8249556e-38 358 252
0.048960082 0.71600002 -0.01506464 1.7973329e-38 359 252
0.050215468 0.71600002 -0.01506464 1.7788584e-38 360 252
0.051470853 0.71600002 -0.01506464 1.7511637e-38 361 252
0.052726239 0.71600002 -0.01506464 1.5855029e-38 362 252
0.053981625 0.71600002 -0.01506464 1.6131615e-38 363 252
-0.0040554604 0.77100003 -0.01757366 1.2632154e-38 317 253
-0.0026966266 0.76899999 -0.017528072 1.3183524e-38 318 253
-0.0013448066 0.76700002 -0.017482487 1.3644501e-38 319 253
0 0.76599997 -0.017459691 1.4194081e-38 320 253
0.0013430532 0.76599997 -0.017459691 1.4562864e-38 321 253
0.0026790933 0.764 -0.017414106 1.4747258e-38 322 253
0.0039923396 0.759 -0.017300138 1.4747258e-38 323 253
0.0053090933 0.75700003 -0.017254554 1.4746183e-38 324 253
0.0066188332 0.755 -0.017208965 1.4746183e-38 325 253
0.00793208 0.75400001 -0.017186172 1.4746536e-38 326 253
0.0092295464 0.75199997 -0.017140586 1.4838732e-38 327 253
0.010548052 0.75199997 -0.017140586 1.5297908e-38 328 253
0.01181922 0.74900001 -0.017072206 1.5297908e-38 329 253
0.013132467 0.74900001 -0.017072206 1.5482654e-38 330 253
0.014407139 0.74699998 -0.017026618 1.5759239e-38 331 253
0.015695838 0.74599999 -0.017003827 1.5759234e-38 332 253
0.016958239 0.74400002 -0.016958239 1.5943984e-38 333 253
0.018213626 0.74199998 -0.016912652 1.6036179e-38 334 253
0.019488299 0.741 -0.016889861 1.6220572e-38 335 253
0.020703359 0.73799998 -0.016821479 1.6221291e-38 336 253
0.021937706 0.736 -0.016775893 1.6313487e-38 337 253
0.023133477 0.73299998 -0.016707512 1.6314559e-38 338 253
0.024352046 0.73100001 -0.016661927 1.6130527e-38 339 253
0.025633732 0.73100001 -0.016661927 1.6500379e-38 340 253
0.026804959 0.72799999 -0.016593546 1.7053913e-38 341 253
0.028042812 0.727 -0.016570752 1.7880074e-38 342 253
0.029317487 0.727 -0.016570752 1.8156301e-38 343 253
0.030423839 0.72299999 -0.01647958 1.8432878e-38 344 253
0.031647664 0.722 -0.016456785 1.8709106e-38 345 253
0.032913569 0.722 -0.016456785 1.8800585e-38 346 253
0.03403746 0.71899998 -0.016388407 1.8984616e-38 347 253
0.035199918 0.71700001 -0.016342819 1.8893503e-38 348 253
0.036457058 0.71700001 -0.016342819 1.8893503e-38 349 253
0.037503798 0.713 -0.016251646 1.916901e-38 350 253
0.038753927 0.713 -0.016251646 1.916901e-38 351 253
0.040172372 0.71600002 -0.016320027 1.8985698e-38 352 253
0.041138459 0.71100003 -0.01620606 1.8985698e-38 353 253
0.042385083 0.71100003 -0.01620606 1.880166e-38 354 253
0.043754432 0.713 -0.016251646 1.880166e-38 355 253
0.044878319 0.71100003 -0.01620606 1.8709462e-38 356 253
0.046124939 0.71100003 -0.01620606 1.8617266e-38 357 253
0.047504812 0.713 -0.016251646 1.8158089e-38 358 253
0.048754938 0.713 -0.016251646 1.8065893e-38 359 253
0.050005067 0.713 -0.016251646 1.7698552e-38 360 253
0.051255193 0.713 -0.016251646 1.7237574e-38 361 253
0.052578956 0.71399999 -0.016274439 1.6959928e-38 362 253
0.053830836 0.71399999 -0.016274439 1.6406754e-38 363 253
0.05508272 0.71399999 -0.016274439 1.5397339e-38 364 253
-0.0026966266 0.76899999 -0.018876385 1.2815469e-38 318 254
-0.0013483133 0.76899999 -0.018876385 1.2999861e-38 319 254
0 0.76599997 -0.018802745 1.3458687e-38 320 254
0.0013430532 0.76599997 -0.018802745 1.3735274e-38 321 254
0.0026790933 0.764 -0.018753653 1.3735996e-38 322 254
0.0040028598 0.76099998 -0.018680012 1.3735996e-38 323 254
0.0053231199 0.759 -0.01863092 1.4010789e-38 324 254
0.0066188332 0.755 -0.018532733 1.4010789e-38 325 254
0.00793208 0.75400001 -0.018508185 1.4011135e-38 326 254
0.0092295464 0.75199997 -0.018459093 1.3826744e-38 327 254
0.010548052 0.75199997 -0.018459093 1.4101167e-38 328 254
0.01181922 0.74900001 -0.018385453 1.4469948e-38 329 254
0.013132467 0.74900001 -0.018385453 1.4840173e-38 330 254
0.014407139 0.74699998 -0.018336359 1.5209315e-38 331 254
0.015695838 0.74599999 -0.018311813 1.5483378e-38 332 254
0.016958239 0.74400002 -0.01826272 1.566777e-38 333 254
0.018213626 0.74199998 -0.018213626 1.5668842e-38 334 254
0.019488299 0.741 -0.018189078 1.5853234e-38 335 254
0.020703359 0.73799998 -0.018115439 1.5945433e-38 336 254
0.021878093 0.73400003 -0.018017253 1.6129824e-38 337 254
0.023133477 0.73299998 -0.017992707 1.640676e-38 338 254
0.024318734 0.73000002 -0.017919067 1.6498955e-38 339 254
0.025528532 0.72799999 -0.017869972 1.640711e-38 340 254
0.026768139 0.727 -0.017845426 1.6960284e-38 341 254
0.028042812 0.727 -0.017845426 1.7420538e-38 342 254
0.029236834 0.72500002 -0.017796334 1.7697483e-38 343 254
0.030381758 0.722 -0.017722692 1.8065187e-38 344 254
0.031516165 0.71899998 -0.017649053 1.8249579e-38 345 254
0.032640055 0.71600002 -0.017575413 1.8708755e-38 346 254
0.033800758 0.71399999 -0.017526319 1.8800951e-38 347 254
0.035052639 0.71399999 -0.017526319 1.8618358e-38 348 254
0.036253672 0.713 -0.017501773 1.8618358e-38 349 254
0.037345998 0.70999998 -0.017428132 1.8894221e-38 350 254
0.038590867 0.70999998 -0.017428132 1.8894221e-38 351 254
0.039723519 0.708 -0.017379038 1.8893856e-38 352 254
0.040964879 0.708 -0.017379038 1.8893856e-38 353 254
0.042206239 0.708 -0.017379038 1.9077521e-38 354 254
0.043570329 0.70999998 -0.017428132 1.8800936e-38 355 254
0.044688959 0.708 -0.017379038 1.8800936e-38 356 254
0.045930319 0.708 -0.017379038 1.870874e-38 357 254
0.047304932 0.70999998 -0.017428132 1.8341398e-38 358 254
0.048549797 0.70999998 -0.017428132 1.8249202e-38 359 254
0.049864799 0.71100003 -0.01745268 1.7881499e-38 360 254
0.051111419 0.71100003 -0.01745268 1.7604913e-38 361 254
0.052284397 0.70999998 -0.017428132 1.7328694e-38 362 254
0.053529263 0.70999998 -0.017428132 1.6775521e-38 363 254
0.054774132 0.70999998 -0.017428132 1.5578818e-38 364 254
0.0013430532 0.76599997 -0.020145798 1.3366842e-38 321 255
0.0026861064 0.76599997 -0.020145798 1.3550161e-38 322 255
0.0040028598 0.76099998 -0.020014299 1.3734192e-38 323 255
0.0053231199 0.759 -0.0199617 1.3918223e-38 324 255
0.0066363667 0.75700003 -0.019909101 1.3826028e-38 325 255
0.0079425992 0.755 -0.0198565 1.3734177e-38 326 255
0.0092295464 0.75199997 -0.0197776 1.2904415e-38 327 255
0.010548052 0.75199997 -0.0197776 1.2901885e-38 328 255
0.01181922 0.74900001 -0.0196987 1.3178112e-38 329 255
0.013132467 0.74900001 -0.0196987 1.3734179e-38 330 255
0.014407139 0.74699998 -0.019646099 1.4471745e-38 331 255
0.015695838 0.74599999 -0.019619798 1.4839454e-38 332 255
0.016958239 0.74400002 -0.019567199 1.5207877e-38 333 255
0.018213626 0.74199998 -0.0195146 1.5667767e-38 334 255
0.0194357 0.73900002 -0.0194357 1.5852517e-38 335 255
0.020647252 0.736 -0.019356798 1.6128742e-38 336 255
0.021878093 0.73400003 -0.019304199 1.6313492e-38 337 255
0.02307036 0.73100001 -0.019225299 1.6314561e-38 338 255
0.024252106 0.72799999 -0.0191464 1.6406757e-38 339 255
0.025528532 0.72799999 -0.0191464 1.6775171e-38 340 255
0.026768139 0.727 -0.019120099 1.6867367e-38 341 255
0.027965667 0.72500002 -0.0190675 1.7144309e-38 342 255
0.029035201 0.72000003 -0.018935999 1.7697483e-38 343 255
0.030255521 0.71899998 -0.018909698 1.8156656e-38 344 255
0.031384666 0.71600002 -0.0188308 1.8341048e-38 345 255
0.032503292 0.713 -0.018751899 1.8433245e-38 346 255
0.033658739 0.71100003 -0.0186993 1.8617995e-38 347 255
0.034905359 0.71100003 -0.0186993 1.8801304e-38 348 255
0.036101133 0.70999998 -0.018672999 1.8801304e-38 349 255
0.0372408 0.708 -0.0186204 1.8984972e-38 350 255
0.038482159 0.708 -0.0186204 1.8984972e-38 351 255
0.039667413 0.70700002 -0.018594101 1.9077165e-38 352 255
0.040849157 0.70599997 -0.018567799 1.9077165e-38 353 255
0.042087011 0.70599997 -0.018567799 1.8985325e-38 354 255
0.043386232 0.70700002 -0.018594101 1.8985325e-38 355 255
0.044625837 0.70700002 -0.018594101 1.8709462e-38 356 255
0.045865446 0.70700002 -0.018594101 1.8617266e-38 357 255
0.047105055 0.70700002 -0.018594101 1.8341404e-38 358 255
0.048413038 0.708 -0.0186204 1.8156654e-38 359 255
0.049654398 0.708 -0.0186204 1.7789673e-38 360 255
0.051039528 0.70999998 -0.018672999 1.7513086e-38 361 255
0.052284397 0.70999998 -0.018672999 1.7144309e-38 362 255
0.053529263 0.70999998 -0.018672999 1.6959559e-38 363 255
0.054774132 0.70999998 -0.018672999 1.6315638e-38 364 255
0.0053371461 0.76099998 -0.021348584 1.3366489e-38 324 256
0.0066538998 0.759 -0.02129248 1.3182456e-38 325 256
0.0079425992 0.755 -0.021180267 1.3366472e-38 326 256
0.0092540924 0.75400001 -0.021152213 1.2905495e-38 327 256
0.010548052 0.75199997 -0.021096105 1.3087361e-38 328 256
0.011835 0.75 -0.02104 1.3087361e-38 329 256
0.013132467 0.74900001 -0.021011947 1.2995894e-38 330 256
0.014407139 0.74699998 -0.020955838 1.3364318e-38 331 256
0.015695838 0.74599999 -0.020927785 1.3734182e-38 332 256
0.016958239 0.74400002 -0.02087168 1.4563943e-38 333 256
0.018189078 0.741 -0.020787518 1.5301505e-38 334 256
0.0194357 0.73900002 -0.020731414 1.5485895e-38 335 256
0.020591147 0.73400003 -0.020591147 1.6128742e-38 336 256
0.021848286 0.73299998 -0.020563092 1.6313492e-38 337 256
0.02307036 0.73100001 -0.020506985 1.6406038e-38 338 256
0.024252106 0.72799999 -0.020422826 1.6498234e-38 339 256
0.025493465 0.727 -0.020394772 1.6682618e-38 340 256
0.026694499 0.72500002 -0.020338668 1.6682618e-38 341 256
0.027772799 0.72000003 -0.020198401 1.6867364e-38 342 256
0.029035201 0.72000003 -0.020198401 1.7604929e-38 343 256
0.029918881 0.71100003 -0.01994592 1.7972988e-38 344 256
0.031121666 0.70999998 -0.019917866 1.8157738e-38 345 256
0.032366529 0.70999998 -0.019917866 1.8525796e-38 346 256
0.033516716 0.708 -0.01986176 1.8525796e-38 347 256
0.034758076 0.708 -0.01986176 1.880166e-38 348 256
0.035948593 0.70700002 -0.019833706 1.8709106e-38 349 256
0.037188202 0.70700002 -0.019833706 1.898497e-38 350 256
0.038373452 0.70599997 -0.019805651 1.898497e-38 351 256
0.039611302 0.70599997 -0.019805651 1.8894209e-38 352 256
0.040849157 0.70599997 -0.019805651 1.8894209e-38 353 256
0.042087011 0.70599997 -0.019805651 1.9076802e-38 354 256
0.043324865 0.70599997 -0.019805651 1.9076802e-38 355 256
0.044562716 0.70599997 -0.019805651 1.8800938e-38 356 256
0.04580057 0.70599997 -0.019805651 1.8708743e-38 357 256
0.047038425 0.70599997 -0.019805651 1.8340682e-38 358 256
0.048276275 0.70599997 -0.019805651 1.8248486e-38 359 256
0.04951413 0.70599997 -0.019805651 1.7881146e-38 360 256
0.050823875 0.70700002 -0.019833706 1.778895e-38 361 256
0.05206348 0.70700002 -0.019833706 1.7328691e-38 362 256
0.053378478 0.708 -0.01986176 1.7052464e-38 363 256
0.054619838 0.708 -0.01986176 1.6592205e-38 364 256
0.055545598 0.704 -0.019749546 1.5946837e-38 365 256
0.0066538998 0.759 -0.02262326 1.3181725e-38 325 257
0.0079636406 0.75700003 -0.022563647 1.3273557e-38 326 257
0.0092540924 0.75400001 -0.022474226 1.3273557e-38 327 257
0.010576107 0.75400001 -0.022474226 1.3181362e-38 328 257
0.011835 0.75 -0.022355 1.3181362e-38 329 257
0.013132467 0.74900001 -0.022325192 1.2904765e-38 330 257
0.014407139 0.74699998 -0.022265578 1.2444147e-38 331 257
0.015695838 0.74599999 -0.022235774 1.2812206e-38 332 257
0.016889861 0.741 -0.02208674 1.3918195e-38 333 257
0.018139986 0.73900002 -0.022027127 1.5485527e-38 334 257
0.0194357 0.73900002 -0.022027127 1.5577722e-38 335 257
0.020591147 0.73400003 -0.021878093 1.5853234e-38 336 257
0.021848286 0.73299998 -0.021848286 1.6037626e-38 337 257
0.02307036 0.73100001 -0.021788673 1.6314561e-38 338 257
0.024252106 0.72799999 -0.021699252 1.6406757e-38 339 257
0.025493465 0.727 -0.021669446 1.6498584e-38 340 257
0.026584039 0.722 -0.021520413 1.6682615e-38 341 257
0.027772799 0.72000003 -0.021460801 1.6775165e-38 342 257
0.029035201 0.72000003 -0.021460801 1.7513089e-38 343 257
0.029876797 0.70999998 -0.021162732 1.8065537e-38 344 257
0.031034 0.708 -0.021103119 1.8065537e-38 345 257
0.03227536 0.708 -0.021103119 1.8432878e-38 346 257
0.033469379 0.70700002 -0.021073313 1.861691e-38 347 257
0.034659892 0.70599997 -0.021043506 1.8800938e-38 348 257
0.035897743 0.70599997 -0.021043506 1.8708743e-38 349 257
0.037135597 0.70599997 -0.021043506 1.8801292e-38 350 257
0.038264744 0.704 -0.020983893 1.8985323e-38 351 257
0.039499093 0.704 -0.020983893 1.8985323e-38 352 257
0.040733438 0.704 -0.020983893 1.9077518e-38 353 257
0.041967787 0.704 -0.020983893 1.9076802e-38 354 257
0.043202132 0.704 -0.020983893 1.8984607e-38 355 257
0.044436477 0.704 -0.020983893 1.8800938e-38 356 257
0.045670826 0.704 -0.020983893 1.8616546e-38 357 257
0.046905171 0.704 -0.020983893 1.852435e-38 358 257
0.048139516 0.704 -0.020983893 1.83396e-38 359 257
0.049373865 0.704 -0.020983893 1.7880424e-38 360 257
0.050608214 0.704 -0.020983893 1.7788228e-38 361 257
0.051842559 0.704 -0.020983893 1.7328691e-38 362 257
0.053227689 0.70599997 -0.021043506 1.7052464e-38 363 257
0.054311249 0.704 -0.020983893 1.6867717e-38 364 257
0.055545598 0.704 -0.020983893 1.6683324e-38 365 257
0.056779943 0.704 -0.020983893 1.5395499e-38 366 257
0.0092663663 0.755 -0.023827799 1.308881e-38 327 258
0.010576107 0.75400001 -0.02379624 1.3182078e-38 328 258
0.011835 0.75 -0.023669999 1.3089882e-38 329 258
0.01315 0.75 -0.023669999 1.2905851e-38 330 258
0.014407139 0.74699998 -0.023575317 1.2813297e-38 331 258
0.015695838 0.74599999 -0.023543758 1.3088442e-38 332 258
0.016889861 0.741 -0.023385961 1.3641614e-38 333 258
0.018139986 0.73900002 -0.023322839 1.5117467e-38 334 258
0.0194357 0.73900002 -0.023322839 1.5301858e-38 335 258
0.020591147 0.73400003 -0.023165042 1.5852514e-38 336 258
0.021848286 0.73299998 -0.023133477 1.6128742e-38 337 258
0.022975679 0.72799999 -0.022975679 1.6406038e-38 338 258
0.024218792 0.727 -0.022944121 1.6498234e-38 339 258
0.025318133 0.722 -0.022786319 1.6498584e-38 340 258
0.02647358 0.71899998 -0.022691639 1.6682615e-38 341 258
0.027734226 0.71899998 -0.022691639 1.6959559e-38 342 258
0.028994869 0.71899998 -0.022691639 1.7144309e-38 343 258
0.029876797 0.70999998 -0.022407599 1.7972988e-38 344 258
0.030990168 0.70700002 -0.022312919 1.8065184e-38 345 258
0.032184184 0.70599997 -0.022281358 1.8523994e-38 346 258
0.03332736 0.704 -0.022218239 1.861619e-38 347 258
0.034561705 0.704 -0.022218239 1.8616543e-38 348 258
0.035796054 0.704 -0.022218239 1.870874e-38 349 258
0.036977798 0.70300001 -0.02218668 1.8984604e-38 350 258
0.038210396 0.70300001 -0.02218668 1.8984604e-38 351 258
0.039330769 0.70099998 -0.022123558 1.8985323e-38 352 258
0.040559858 0.70099998 -0.022123558 1.8985323e-38 353 258
0.041788943 0.70099998 -0.022123558 1.8985325e-38 354 258
0.043018032 0.70099998 -0.022123558 1.8800936e-38 355 258
0.04437336 0.70300001 -0.02218668 1.8617263e-38 356 258
0.04560595 0.70300001 -0.02218668 1.8433231e-38 357 258
0.046838548 0.70300001 -0.02218668 1.8248484e-38 358 258
0.048071139 0.70300001 -0.02218668 1.8064092e-38 359 258
0.049303733 0.70300001 -0.02218668 1.7788231e-38 360 258
0.050536323 0.70300001 -0.02218668 1.7696034e-38 361 258
0.051768921 0.70300001 -0.02218668 1.714466e-38 362 258
0.052850723 0.70099998 -0.022123558 1.7052464e-38 363 258
0.054079808 0.70099998 -0.022123558 1.686772e-38 364 258
0.055308893 0.70099998 -0.022123558 1.6775165e-38 365 258
0.056537982 0.70099998 -0.022123558 1.6038695e-38 366 258
0.057767071 0.70099998 -0.022123558 1.530113e-38 367 258
0.010576107 0.75400001 -0.025118252 1.2630356e-38 328 259
0.011866559 0.75199997 -0.025051624 1.2630356e-38 329 259
0.01315 0.75 -0.024984999 1.272327e-38 330 259
0.014407139 0.74699998 -0.024885058 1.272327e-38 331 259
0.015695838 0.74599999 -0.024851745 1.3182809e-38 332 259
0.016912652 0.74199998 -0.024718491 1.3366842e-38 333 259
0.018213626 0.74199998 -0.024718491 1.4564662e-38 334 259
0.019488299 0.741 -0.024685178 1.502564e-38 335 259
0.020647252 0.736 -0.024518613 1.5668842e-38 336 259
0.021699252 0.72799999 -0.024252106 1.594543e-38 337 259
0.022944121 0.727 -0.024218792 1.6038697e-38 338 259
0.024152167 0.72500002 -0.024152167 1.6223089e-38 339 259
0.025318133 0.722 -0.024052227 1.6406757e-38 340 259
0.02647358 0.71899998 -0.023952285 1.6498953e-38 341 259
0.027734226 0.71899998 -0.023952285 1.6591868e-38 342 259
0.028994869 0.71899998 -0.023952285 1.6868814e-38 343 259
0.029876797 0.70999998 -0.023652466 1.7328715e-38 344 259
0.030858666 0.704 -0.023452586 1.7697496e-38 345 259
0.032047424 0.70300001 -0.023419274 1.8339976e-38 346 259
0.03318534 0.70099998 -0.023352645 1.8432531e-38 347 259
0.034414422 0.70099998 -0.023352645 1.870839e-38 348 259
0.035643511 0.70099998 -0.023352645 1.870839e-38 349 259
0.036819998 0.69999999 -0.023319334 1.8800938e-38 350 259
0.038047329 0.69999999 -0.023319334 1.898497e-38 351 259
0.039274666 0.69999999 -0.023319334 1.8985323e-38 352 259
0.040386278 0.69800001 -0.023252707 1.8985323e-38 353 259
0.041610107 0.69800001 -0.023252707 1.8985323e-38 354 259
0.042956665 0.69999999 -0.023319334 1.8801292e-38 355 259
0.044183996 0.69999999 -0.023319334 1.8617263e-38 356 259
0.045476202 0.70099998 -0.023352645 1.8341035e-38 357 259
0.046638668 0.69999999 -0.023319334 1.7880424e-38 358 259
0.047865998 0.69999999 -0.023319334 1.7696031e-38 359 259
0.049093332 0.69999999 -0.023319334 1.7512366e-38 360 259
0.050320663 0.69999999 -0.023319334 1.742017e-38 361 259
0.051400717 0.69800001 -0.023252707 1.7511284e-38 362 259
0.052624546 0.69800001 -0.023252707 1.7327253e-38 363 259
0.054002665 0.69999999 -0.023319334 1.695955e-38 364 259
0.0550722 0.69800001 -0.023252707 1.6682603e-38 365 259
0.056296028 0.69800001 -0.023252707 1.6498937e-38 366 259
0.057767071 0.70099998 -0.023352645 1.5392229e-38 367 259
0.058996156 0.70099998 -0.023352645 1.5579202e-38 368 259
0.01559064 0.741 -0.025984399 1.3088107e-38 332 260
0.016889861 0.741 -0.025984399 1.3549083e-38 333 260
0.018189078 0.741 -0.025984399 1.3827825e-38 334 260
0.019488299 0.741 -0.025984399 1.4473195e-38 335 260
0.020422826 0.72799999 -0.025528532 1.5577016e-38 336 260
0.021699252 0.72799999 -0.025528532 1.5853603e-38 337 260
0.022880999 0.72500002 -0.025423333 1.6221294e-38 338 260
0.024152167 0.72500002 -0.025423333 1.6405685e-38 339 260
0.025318133 0.722 -0.025318133 1.6498234e-38 340 260
0.026510401 0.72000003 -0.025248 1.6498234e-38 341 260
0.027772799 0.72000003 -0.025248 1.6866292e-38 342 260
0.029035201 0.72000003 -0.025248 1.7235073e-38 343 260
0.029498078 0.70099998 -0.024581732 1.7787159e-38 344 260
0.030727165 0.70099998 -0.024581732 1.8155582e-38 345 260
0.031910665 0.69999999 -0.024546666 1.8431445e-38 346 260
0.033137999 0.69999999 -0.024546666 1.8616195e-38 347 260
0.034365334 0.69999999 -0.024546666 1.8616195e-38 348 260
0.035592664 0.69999999 -0.024546666 1.8708392e-38 349 260
0.0367148 0.69800001 -0.024476532 1.8892058e-38 350 260
0.037938625 0.69800001 -0.024476532 1.8984253e-38 351 260
0.039106347 0.69700003 -0.024441468 1.8801654e-38 352 260
0.040270556 0.69599998 -0.0244064 1.8801654e-38 353 260
0.041490879 0.69599998 -0.0244064 1.880166e-38 354 260
0.042772565 0.69700003 -0.024441468 1.8709106e-38 355 260
0.043994639 0.69700003 -0.024441468 1.8616195e-38 356 260
0.045281585 0.69800001 -0.024476532 1.8523641e-38 357 260
0.046438783 0.69700003 -0.024441468 1.7052108e-38 358 260
0.047660861 0.69700003 -0.024441468 1.6867717e-38 359 260
0.048882935 0.69700003 -0.024441468 1.760348e-38 360 260
0.050176892 0.69800001 -0.024476532 1.760348e-38 361 260
0.051400717 0.69800001 -0.024476532 1.751164e-38 362 260
0.052624546 0.69800001 -0.024476532 1.732725e-38 363 260
0.053848371 0.69800001 -0.024476532 1.6867717e-38 364 260
0.0550722 0.69800001 -0.024476532 1.6775521e-38 365 260
0.056296028 0.69800001 -0.024476532 1.6314909e-38 366 260
0.05768466 0.69999999 -0.024546666 1.5854289e-38 367 260
0.058911994 0.69999999 -0.024546666 1.5395168e-38 368 260
0.060139328 0.69999999 -0.024546666 1.6869938e-38 369 260
0.016889861 0.741 -0.027283618 1.2722211e-38 333 261
0.018189078 0.741 -0.027283618 1.3458334e-38 334 261
0.019488299 0.741 -0.027283618 1.4011508e-38 335 261
0.020787518 0.741 -0.027283618 1.5024568e-38 336 261
0.021609833 0.72500002 -0.026694499 1.5577742e-38 337 261
0.022880999 0.72500002 -0.026694499 1.5579168e-38 338 261
0.024152167 0.72500002 -0.026694499 1.5763558e-38 339 261
0.025353199 0.72299999 -0.026620859 1.6314561e-38 340 261
0.026620859 0.72299999 -0.026620859 1.6498953e-38 341 261
0.02788852 0.72299999 -0.026620859 1.6592224e-38 342 261
0.028268991 0.70099998 -0.025810819 1.6776616e-38 343 261
0.029498078 0.70099998 -0.025810819 1.7420187e-38 344 261
0.030683333 0.69999999 -0.025773998 1.7604578e-38 345 261
0.031910665 0.69999999 -0.025773998 1.8248499e-38 346 261
0.033043321 0.69800001 -0.025700359 1.8248499e-38 347 261
0.034267146 0.69800001 -0.025700359 1.8432524e-38 348 261
0.035440128 0.69700003 -0.025663542 1.8432524e-38 349 261
0.036662199 0.69700003 -0.025663542 1.8708387e-38 350 261
0.037829921 0.69599998 -0.025626717 1.8800941e-38 351 261
0.038938027 0.69400001 -0.025553079 1.8800938e-38 352 261
0.04009698 0.69300002 -0.02551626 1.898497e-38 353 261
0.041312039 0.69300002 -0.02551626 1.898497e-38 354 261
0.042588469 0.69400001 -0.025553079 1.8708743e-38 355 261
0.043742158 0.69300002 -0.02551626 1.8523994e-38 356 261
0.044957221 0.69300002 -0.02551626 1.8431799e-38 357 261
0.046372157 0.69599998 -0.025626717 1.7235411e-38 358 261
0.047592476 0.69599998 -0.025626717 1.6958464e-38 359 261
0.048812799 0.69599998 -0.025626717 1.7144657e-38 360 261
0.050033119 0.69599998 -0.025626717 1.7144657e-38 361 261
0.051327083 0.69700003 -0.025663542 1.732725e-38 362 261
0.052549154 0.69700003 -0.025663542 1.7235055e-38 363 261
0.053771228 0.69700003 -0.025663542 1.6959547e-38 364 261
0.054993302 0.69700003 -0.025663542 1.6775154e-38 365 261
0.056215372 0.69700003 -0.025663542 1.6406739e-38 366 261
0.057519849 0.69800001 -0.025700359 1.6130152e-38 367 261
0.058743682 0.69800001 -0.025700359 1.5486272e-38 368 261
0.05988159 0.69700003 -0.025663542 1.6223837e-38 369 261
0.061103668 0.69700003 -0.025663542 1.7334208e-38 370 261
0.024090799 0.68699998 -0.026499879 1.6223442e-38 340 262
0.025810819 0.70099998 -0.027039904 1.6223442e-38 341 262
0.027039904 0.70099998 -0.027039904 1.6775171e-38 342 262
0.029498078 0.70099998 -0.027039904 1.7603485e-38 344 262
0.030595668 0.69800001 -0.026924185 1.7880074e-38 345 262
0.031819493 0.69800001 -0.026924185 1.8339247e-38 346 262
0.03299598 0.69700003 -0.026885614 1.8523997e-38 347 262
0.034168959 0.69599998 -0.026847038 1.861619e-38 348 262
0.035287585 0.69400001 -0.026769891 1.8708387e-38 349 262
0.036504399 0.69400001 -0.026769891 1.8800938e-38 350 262
0.037666857 0.69300002 -0.02673132 1.8800938e-38 351 262
0.038769703 0.69099998 -0.026654173 1.880166e-38 352 262
0.0399234 0.69 -0.026615599 1.880166e-38 353 262
0.041133199 0.69 -0.026615599 1.8984616e-38 354 262
0.042342998 0.69 -0.026615599 1.870839e-38 355 262
0.043426562 0.68800002 -0.026538454 1.843288e-38 356 262
0.044632856 0.68800002 -0.026538454 1.824813e-38 357 262
0.046039023 0.69099998 -0.026654173 1.7510197e-38 358 262
0.047250576 0.69099998 -0.026654173 1.7233609e-38 359 262
0.048602402 0.69300002 -0.02673132 1.7236124e-38 360 262
0.049889345 0.69400001 -0.026769891 1.7236124e-38 361 262
0.051106159 0.69400001 -0.026769891 1.7236127e-38 362 262
0.052322973 0.69400001 -0.026769891 1.7143931e-38 363 262
0.053694077 0.69599998 -0.026847038 1.6775873e-38 364 262
0.054914396 0.69599998 -0.026847038 1.6683319e-38 365 262
0.056215372 0.69700003 -0.026885614 1.6314909e-38 366 262
0.05743745 0.69700003 -0.026885614 1.6130878e-38 367 262
0.05865952 0.69700003 -0.026885614 1.548662e-38 368 262
0.05988159 0.69700003 -0.026885614 1.548662e-38 369 262
0.061103668 0.69700003 -0.026885614 1.7057245e-38 370 262
0.028107686 0.69700003 -0.028107686 1.6959559e-38 343 263
0.02932976 0.69700003 -0.028107686 1.7696034e-38 344 263
0.030551834 0.69700003 -0.028107686 1.7972623e-38 345 263
0.031728316 0.69599998 -0.028067358 1.8248484e-38 346 263
0.032948639 0.69599998 -0.028067358 1.8340679e-38 347 263
0.034070771 0.69400001 -0.027986705 1.852435e-38 348 263
0.035135046 0.69099998 -0.027865725 1.8616546e-38 349 263
0.036346599 0.69099998 -0.027865725 1.8708387e-38 350 263
0.03755815 0.69099998 -0.027865725 1.8800941e-38 351 263
0.038713597 0.69 -0.027825398 1.8984972e-38 352 263
0.0399234 0.69 -0.027825398 1.8984972e-38 353 263
0.041013971 0.68800002 -0.027744746 1.8984253e-38 354 263
0.042220265 0.68800002 -0.027744746 1.8892058e-38 355 263
0.043363437 0.68699998 -0.027704418 1.8616546e-38 356 263
0.044567976 0.68699998 -0.027704418 1.83396e-38 357 263
0.045772515 0.68699998 -0.027704418 1.8246316e-38 358 263
0.047045439 0.68800002 -0.027744746 1.7969729e-38 359 263
0.04846213 0.69099998 -0.027865725 1.7328673e-38 360 263
0.049673684 0.69099998 -0.027865725 1.7328673e-38 361 263
0.051032521 0.69300002 -0.027946379 1.7236124e-38 362 263
0.05224758 0.69300002 -0.027946379 1.7143928e-38 363 263
0.053539783 0.69400001 -0.027986705 1.6775517e-38 364 263
0.054756597 0.69400001 -0.027986705 1.649929e-38 365 263
0.055973411 0.69400001 -0.027986705 1.6406388e-38 366 263
0.057190225 0.69400001 -0.027986705 1.6314193e-38 367 263
0.058575355 0.69599998 -0.028067358 1.5577722e-38 368 263
0.059795678 0.69599998 -0.028067358 1.5301135e-38 369 263
0.061015997 0.69599998 -0.028067358 1.6320387e-38 370 263
0.025295338 0.68699998 -0.028908957 1.6497881e-38 341 264
0.026499879 0.68699998 -0.028908957 1.6774815e-38 342 264
0.027704418 0.68699998 -0.028908957 1.6959565e-38 343 264
0.029077278 0.69099998 -0.029077278 1.7695678e-38 344 264
0.030288832 0.69099998 -0.029077278 1.7972625e-38 345 264
0.031500384 0.69099998 -0.029077278 1.8340679e-38 346 264
0.032711938 0.69099998 -0.029077278 1.8340679e-38 347 264
0.033923492 0.69099998 -0.029077278 1.852435e-38 348 264
0.035084199 0.69 -0.029035198 1.8616546e-38 349 264
0.036293998 0.69 -0.029035198 1.870839e-38 350 264
0.037503798 0.69 -0.029035198 1.8800585e-38 351 264
0.038601387 0.68800002 -0.028951041 1.8984616e-38 352 264
0.039749816 0.68699998 -0.028908957 1.8984616e-38 353 264
0.040954359 0.68699998 -0.028908957 1.8984253e-38 354 264
0.042097531 0.68599999 -0.02886688 1.8892058e-38 355 264
0.043300316 0.68599999 -0.02886688 1.8616546e-38 356 264
0.044567976 0.68699998 -0.028908957 1.8431796e-38 357 264
0.045772515 0.68699998 -0.028908957 1.8339585e-38 358 264
0.046977058 0.68699998 -0.028908957 1.8155192e-38 359 264
0.048251733 0.68800002 -0.028951041 1.7604892e-38 360 264
0.049458027 0.68800002 -0.028951041 1.7512338e-38 361 264
0.050664321 0.68800002 -0.028951041 1.7236124e-38 362 264
0.052021399 0.69 -0.029035198 1.6959897e-38 363 264
0.053308345 0.69099998 -0.029077278 1.6683321e-38 364 264
0.054677699 0.69300002 -0.029161438 1.649929e-38 365 264
0.055892758 0.69300002 -0.029161438 1.6314193e-38 366 264
0.057107817 0.69300002 -0.029161438 1.6221997e-38 367 264
0.058407038 0.69400001 -0.029203519 1.5485527e-38 368 264
0.059623852 0.69400001 -0.029203519 1.4747961e-38 369 264
0.060840666 0.69400001 -0.029203519 1.5582098e-38 370 264
0.06205748 0.69400001 -0.029203519 1.788663e-38 371 264
0.024090799 0.68699998 -0.030113498 1.6681196e-38 340 265
0.025295338 0.68699998 -0.030113498 1.6589e-38 341 265
0.026499879 0.68699998 -0.030113498 1.6774451e-38 342 265
0.027704418 0.68699998 -0.030113498 1.7142874e-38 343 265
0.028908957 0.68699998 -0.030113498 1.7787875e-38 344 265
0.030157333 0.68800002 -0.030157333 1.7972625e-38 345 265
0.031454802 0.69 -0.030244999 1.8339603e-38 346 265
0.032664597 0.69 -0.030244999 1.8431799e-38 347 265
0.0338744 0.69 -0.030244999 1.8707662e-38 348 265
0.034931656 0.68699998 -0.030113498 1.8799858e-38 349 265
0.036136195 0.68699998 -0.030113498 1.8708387e-38 350 265
0.037340738 0.68699998 -0.030113498 1.8800941e-38 351 265
0.03848917 0.68599999 -0.030069664 1.880166e-38 352 265
0.03957624 0.68400002 -0.029982001 1.8709106e-38 353 265
0.040775519 0.68400002 -0.029982001 1.8708743e-38 354 265
0.041974798 0.68400002 -0.029982001 1.8708743e-38 355 265
0.043174081 0.68400002 -0.029982001 1.8433231e-38 356 265
0.04437336 0.68400002 -0.029982001 1.8248839e-38 357 265
0.045705888 0.68599999 -0.030069664 1.8156641e-38 358 265
0.046977058 0.68699998 -0.030113498 1.7787858e-38 359 265
0.048111461 0.68599999 -0.030069664 1.7696738e-38 360 265
0.049314249 0.68599999 -0.030069664 1.7327957e-38 361 265
0.050590675 0.68699998 -0.030113498 1.7143934e-38 362 265
0.051870614 0.68800002 -0.030157333 1.6867347e-38 363 265
0.053231198 0.69 -0.030244999 1.6683324e-38 364 265
0.054519895 0.69099998 -0.030288832 1.6406739e-38 365 265
0.055731449 0.69099998 -0.030288832 1.5946849e-38 366 265
0.056942999 0.69099998 -0.030288832 1.5946849e-38 367 265
0.058154557 0.69099998 -0.030288832 1.5117464e-38 368 265
0.059366114 0.69099998 -0.030288832 1.4287704e-38 369 265
0.060577665 0.69099998 -0.030288832 1.5029645e-38 370 265
0.061789215 0.69099998 -0.030288832 1.7150144e-38 371 265
0.025295338 0.68699998 -0.031318039 1.6497883e-38 341 266
0.026499879 0.68699998 -0.031318039 1.6775165e-38 342 266
0.027704418 0.68699998 -0.031318039 1.7144307e-38 343 266
0.028908957 0.68699998 -0.031318039 1.7787511e-38 344 266
0.030113498 0.68699998 -0.031318039 1.8063739e-38 345 266
0.031318039 0.68699998 -0.031318039 1.8339253e-38 346 266
0.032475237 0.68599999 -0.031272452 1.8431448e-38 347 266
0.033678025 0.68599999 -0.031272452 1.8523641e-38 348 266
0.034728274 0.68300003 -0.031135695 1.8616195e-38 349 266
0.035925802 0.68300003 -0.031135695 1.8525793e-38 350 266
0.037123326 0.68300003 -0.031135695 1.8617989e-38 351 266
0.038264744 0.68199998 -0.031090107 1.8800938e-38 352 266
0.039460517 0.68199998 -0.031090107 1.8800938e-38 353 266
0.040656291 0.68199998 -0.031090107 1.8800936e-38 354 266
0.041852064 0.68199998 -0.031090107 1.8616543e-38 355 266
0.043110959 0.68300003 -0.031135695 1.8524347e-38 356 266
0.044308487 0.68300003 -0.031135695 1.8432152e-38 357 266
0.045506012 0.68300003 -0.031135695 1.8064089e-38 358 266
0.046771921 0.68400002 -0.03118128 1.7971894e-38 359 266
0.0479712 0.68400002 -0.03118128 1.7604189e-38 360 266
0.049314249 0.68599999 -0.031272452 1.7327603e-38 361 266
0.050517038 0.68599999 -0.031272452 1.7143931e-38 362 266
0.051719822 0.68599999 -0.031272452 1.6867703e-38 363 266
0.052999757 0.68699998 -0.031318039 1.6499287e-38 364 266
0.054283202 0.68800002 -0.031363625 1.6314896e-38 365 266
0.055489492 0.68800002 -0.031363625 1.6039035e-38 366 266
0.056695789 0.68800002 -0.031363625 1.5762088e-38 367 266
0.057902083 0.68800002 -0.031363625 1.520929e-38 368 266
0.059280202 0.69 -0.031454802 1.4287334e-38 369 266
0.060489997 0.69 -0.031454802 1.4844884e-38 370 266
0.061699796 0.69 -0.031454802 1.6873188e-38 371 266
0.025258519 0.68599999 -0.032475237 1.6497158e-38 341 267
0.026461305 0.68599999 -0.032475237 1.6958116e-38 342 267
0.027664091 0.68599999 -0.032475237 1.7603485e-38 343 267
0.02886688 0.68599999 -0.032475237 1.7971176e-38 344 267
0.030069664 0.68599999 -0.032475237 1.8155569e-38 345 267
0.031272452 0.68599999 -0.032475237 1.8338881e-38 346 267
0.032380559 0.68400002 -0.032380559 1.8431077e-38 347 267
0.033530746 0.68300003 -0.032333218 1.852435e-38 348 267
0.034677424 0.68199998 -0.032285877 1.8708743e-38 349 267
0.035873197 0.68199998 -0.032285877 1.8709106e-38 350 267
0.037068974 0.68199998 -0.032285877 1.8709106e-38 351 267
0.038152531 0.68000001 -0.032191198 1.8800941e-38 352 267
0.039344799 0.68000001 -0.032191198 1.8800941e-38 353 267
0.040477451 0.67900002 -0.032143861 1.8708387e-38 354 267
0.041667968 0.67900002 -0.032143861 1.861619e-38 355 267
0.042921599 0.68000001 -0.032191198 1.8523994e-38 356 267
0.044113863 0.68000001 -0.032191198 1.8339603e-38 357 267
0.045306131 0.68000001 -0.032191198 1.8063742e-38 358 267
0.046498399 0.68000001 -0.032191198 1.7787155e-38 359 267
0.047690667 0.68000001 -0.032191198 1.7420168e-38 360 267
0.049026705 0.68199998 -0.032285877 1.7235776e-38 361 267
0.050222475 0.68199998 -0.032285877 1.6868067e-38 362 267
0.051418249 0.68199998 -0.032285877 1.6683675e-38 363 267
0.05276832 0.68400002 -0.032380559 1.6315612e-38 364 267
0.054125395 0.68599999 -0.032475237 1.6131581e-38 365 267
0.055408835 0.68699998 -0.032522578 1.5855007e-38 366 267
0.056613375 0.68699998 -0.032522578 1.5578779e-38 367 267
0.057817914 0.68699998 -0.032522578 1.4840876e-38 368 267
0.059022456 0.68699998 -0.032522578 1.4195507e-38 369 267
0.060314666 0.68800002 -0.032569919 1.4752332e-38 370 267
0.06152096 0.68800002 -0.032569919 1.6780636e-38 371 267
0.025258519 0.68599999 -0.033678025 1.6681549e-38 341 268
0.026461305 0.68599999 -0.033678025 1.6959562e-38 342 268
0.027664091 0.68599999 -0.033678025 1.742054e-38 343 268
0.02886688 0.68599999 -0.033678025 1.8063376e-38 344 268
0.030069664 0.68599999 -0.033678025 1.8339603e-38 345 268
0.031272452 0.68599999 -0.033678025 1.8338881e-38 346 268
0.032380559 0.68400002 -0.033579841 1.8431077e-38 347 268
0.033530746 0.68300003 -0.033530746 1.8340682e-38 348 268
0.034677424 0.68199998 -0.03348165 1.8432878e-38 349 268
0.035767999 0.68000001 -0.033383466 1.8709106e-38 350 268
0.036905911 0.67900002 -0.033334374 1.8709106e-38 351 268
0.038040318 0.67799997 -0.033285279 1.8709109e-38 352 268
0.039229076 0.67799997 -0.033285279 1.8616913e-38 353 268
0.040417835 0.67799997 -0.033285279 1.8799505e-38 354 268
0.041606598 0.67799997 -0.033285279 1.8707309e-38 355 268
0.042795356 0.67799997 -0.033285279 1.8431801e-38 356 268
0.043984115 0.67799997 -0.033285279 1.8155216e-38 357 268
0.045239504 0.67900002 -0.033334374 1.7971546e-38 358 268
0.046430022 0.67900002 -0.033334374 1.7694959e-38 359 268
0.047690667 0.68000001 -0.033383466 1.7235776e-38 360 268
0.048882935 0.68000001 -0.033383466 1.695955e-38 361 268
0.050075196 0.68000001 -0.033383466 1.6867347e-38 362 268
0.051418249 0.68199998 -0.03348165 1.6682956e-38 363 268
0.052691177 0.68300003 -0.033530746 1.6498208e-38 364 268
0.053888701 0.68300003 -0.033530746 1.6314177e-38 365 268
0.055328183 0.68599999 -0.033678025 1.6037599e-38 366 268
0.056530971 0.68599999 -0.033678025 1.5853568e-38 367 268
0.057817914 0.68699998 -0.033727121 1.5116021e-38 368 268
0.059022456 0.68699998 -0.033727121 1.4285902e-38 369 268
0.060226995 0.68699998 -0.033727121 1.4660137e-38 370 268
0.061431535 0.68699998 -0.033727121 1.668844e-38 371 268
0.025295338 0.68699998 -0.034931656 1.67741e-38 341 269
0.026499879 0.68699998 -0.034931656 1.723507e-38 342 269
0.027583439 0.68400002 -0.03477912 1.7604213e-38 343 269
0.02878272 0.68400002 -0.03477912 1.806302e-38 344 269
0.029982001 0.68400002 -0.03477912 1.8155216e-38 345 269
0.03118128 0.68400002 -0.03477912 1.8338881e-38 346 269
0.032285877 0.68199998 -0.034677424 1.8431077e-38 347 269
0.033383466 0.68000001 -0.034575731 1.8524347e-38 348 269
0.034575731 0.68000001 -0.034575731 1.8616543e-38 349 269
0.035767999 0.68000001 -0.034575731 1.861691e-38 350 269
0.036742851 0.676 -0.034372345 1.861691e-38 351 269
0.037928104 0.676 -0.034372345 1.8708392e-38 352 269
0.039113361 0.676 -0.034372345 1.8523641e-38 353 269
0.040298611 0.676 -0.034372345 1.8523644e-38 354 269
0.041483864 0.676 -0.034372345 1.8523644e-38 355 269
0.042795356 0.67799997 -0.034474038 1.824813e-38 356 269
0.043984115 0.67799997 -0.034474038 1.8063739e-38 357 269
0.045172878 0.67799997 -0.034474038 1.7695313e-38 358 269
0.046430022 0.67900002 -0.034524884 1.7603117e-38 359 269
0.047620531 0.67900002 -0.034524884 1.7143578e-38 360 269
0.048811045 0.67900002 -0.034524884 1.686735e-38 361 269
0.050075196 0.68000001 -0.034575731 1.6775154e-38 362 269
0.051267464 0.68000001 -0.034575731 1.66826e-38 363 269
0.052614026 0.68199998 -0.034677424 1.6314543e-38 364 269
0.053809796 0.68199998 -0.034677424 1.6130152e-38 365 269
0.055328183 0.68599999 -0.034880809 1.5761738e-38 366 269
0.056530971 0.68599999 -0.034880809 1.5485511e-38 367 269
0.057817914 0.68699998 -0.034931656 1.4656842e-38 368 269
0.059022456 0.68699998 -0.034931656 1.4011473e-38 369 269
0.060226995 0.68699998 -0.034931656 1.4567941e-38 370 269
0.061342116 0.68599999 -0.034880809 1.6504049e-38 371 269
0.062544905 0.68599999 -0.034880809 1.7333867e-38 372 269
0.02638416 0.68400002 -0.035978399 1.7510934e-38 342 270
0.027583439 0.68400002 -0.035978399 1.7787881e-38 343 270
0.02878272 0.68400002 -0.035978399 1.8155219e-38 344 270
0.029938167 0.68300003 -0.035925802 1.8155219e-38 345 270
0.031135695 0.68300003 -0.035925802 1.8338884e-38 346 270
0.032285877 0.68199998 -0.035873197 1.8523275e-38 347 270
0.033383466 0.68000001 -0.035767999 1.8432878e-38 348 270
0.034524884 0.67900002 -0.035715401 1.8432878e-38 349 270
0.035715401 0.67900002 -0.035715401 1.8616913e-38 350 270
0.036688499 0.67500001 -0.035505001 1.8616913e-38 351 270
0.037815895 0.67400002 -0.035452399 1.861584e-38 352 270
0.038997639 0.67400002 -0.035452399 1.8523644e-38 353 270
0.040179387 0.67400002 -0.035452399 1.8523291e-38 354 270
0.041422497 0.67500001 -0.035505001 1.83389e-38 355 270
0.042606 0.67500001 -0.035505001 1.8063742e-38 356 270
0.043789499 0.67500001 -0.035505001 1.7787155e-38 357 270
0.044972997 0.67500001 -0.035505001 1.769531e-38 358 270
0.046224877 0.676 -0.035557602 1.7510918e-38 359 270
0.047550395 0.67799997 -0.0356628 1.7143215e-38 360 270
0.048739154 0.67799997 -0.0356628 1.6958464e-38 361 270
0.050001562 0.67900002 -0.035715401 1.6500009e-38 362 270
0.051192071 0.67900002 -0.035715401 1.6131228e-38 363 270
0.052459732 0.68000001 -0.035767999 1.5946484e-38 364 270
0.053809796 0.68199998 -0.035873197 1.5946484e-38 365 270
0.055005573 0.68199998 -0.035873197 1.5394032e-38 366 270
0.056201346 0.68199998 -0.035873197 1.5025608e-38 367 270
0.057565439 0.68400002 -0.035978399 1.4564649e-38 368 270
0.058936544 0.68599999 -0.036083598 1.3826725e-38 369 270
0.060139328 0.68599999 -0.036083598 1.4475028e-38 370 270
0.061342116 0.68599999 -0.036083598 1.6687724e-38 371 270
0.062544905 0.68599999 -0.036083598 1.7242028e-38 372 270
0.023529733 0.671 -0.036471087 1.7049963e-38 340 271
0.025921278 0.67199999 -0.036525436 1.7695678e-38 342 271
0.027059194 0.671 -0.036471087 1.7787875e-38 343 271
0.028193599 0.67000002 -0.036416732 1.8063739e-38 344 271
0.029368332 0.67000002 -0.036416732 1.8063739e-38 345 271
0.030406304 0.667 -0.036253672 1.8339603e-38 346 271
0.031528439 0.66600001 -0.03619932 1.8431799e-38 347 271
0.032696161 0.66600001 -0.03619932 1.8432878e-38 348 271
0.034524884 0.67900002 -0.036905911 1.861691e-38 349 271
0.035715401 0.67900002 -0.036905911 1.8708392e-38 350 271
0.036471087 0.671 -0.036471087 1.8616195e-38 351 271
0.037647571 0.671 -0.036471087 1.8706956e-38 352 271
0.038824059 0.671 -0.036471087 1.8522925e-38 353 271
0.040000543 0.671 -0.036471087 1.8338897e-38 354 271
0.041238401 0.67199999 -0.036525436 1.8154866e-38 355 271
0.042542879 0.67400002 -0.036634147 1.7787155e-38 356 271
0.043594878 0.67199999 -0.036525436 1.7602764e-38 357 271
0.044773117 0.67199999 -0.036525436 1.732725e-38 358 271
0.045951359 0.67199999 -0.036525436 1.7142859e-38 359 271
0.047410134 0.676 -0.036742851 1.6866994e-38 360 271
0.048595384 0.676 -0.036742851 1.6682603e-38 361 271
0.049780637 0.676 -0.036742851 1.6131597e-38 362 271
0.050965894 0.676 -0.036742851 1.5947205e-38 363 271
0.052305438 0.67799997 -0.036851559 1.5670977e-38 364 271
0.053573098 0.67900002 -0.036905911 1.5486227e-38 365 271
0.054763615 0.67900002 -0.036905911 1.5301836e-38 366 271
0.056201346 0.68199998 -0.037068974 1.4840858e-38 367 271
0.057481278 0.68300003 -0.037123326 1.410511e-38 368 271
0.058764715 0.68400002 -0.037177678 1.3459741e-38 369 271
0.059964001 0.68400002 -0.037177678 1.4475028e-38 370 271
0.061163284 0.68400002 -0.037177678 1.677992e-38 371 271
0.062362559 0.68400002 -0.037177678 1.7241309e-38 372 271
0.063561834 0.68400002 -0.037177678 1.7148753e-38 373 271
0.024706218 0.671 -0.037647571 1.7695332e-38 341 272
0.025882706 0.671 -0.037647571 1.7512716e-38 342 272
0.027018867 0.67000002 -0.037591465 1.7604913e-38 343 272
0.028109439 0.66799998 -0.037479252 1.8063373e-38 344 272
0.029236831 0.667 -0.037423145 1.83396e-38 345 272
0.030360719 0.66600001 -0.037367038 1.8248486e-38 346 272
0.031433757 0.66399997 -0.037254825 1.8340682e-38 347 272
0.03259797 0.66399997 -0.037254825 1.861619e-38 348 272
0.033711337 0.66299999 -0.037198719 1.861619e-38 349 272
0.034873798 0.66299999 -0.037198719 1.8707312e-38 350 272
0.036471087 0.671 -0.037647571 1.8707312e-38 351 272
0.037647571 0.671 -0.037647571 1.8431445e-38 352 272
0.038824059 0.671 -0.037647571 1.8431445e-38 353 272
0.040000543 0.671 -0.037647571 1.8063742e-38 354 272
0.041238401 0.67199999 -0.037703678 1.7787155e-38 355 272
0.042416636 0.67199999 -0.037703678 1.7602761e-38 356 272
0.043530006 0.671 -0.037647571 1.741837e-38 357 272
0.044706494 0.671 -0.037647571 1.7326527e-38 358 272
0.045882981 0.671 -0.037647571 1.723433e-38 359 272
0.047269866 0.67400002 -0.037815895 1.6407092e-38 360 272
0.048523501 0.67500001 -0.037871998 1.6314896e-38 361 272
0.049706999 0.67500001 -0.037871998 1.6038679e-38 362 272
0.050890498 0.67500001 -0.037871998 1.5946484e-38 363 272
0.052151144 0.676 -0.037928104 1.5762091e-38 364 272
0.053336397 0.676 -0.037928104 1.5485864e-38 365 272
0.054682959 0.67799997 -0.038040318 1.4842657e-38 366 272
0.055871718 0.67799997 -0.038040318 1.3920699e-38 367 272
0.057481278 0.68300003 -0.038320854 1.3368624e-38 368 272
0.05867881 0.68300003 -0.038320854 1.3183874e-38 369 272
0.059876334 0.68300003 -0.038320854 1.4566869e-38 370 272
0.061163284 0.68400002 -0.038376961 1.6779923e-38 371 272
0.062362559 0.68400002 -0.038376961 1.7333504e-38 372 272
0.063561834 0.68400002 -0.038376961 1.7241309e-38 373 272
0.023494666 0.67000002 -0.038766202 1.7787162e-38 340 273
0.024669399 0.67000002 -0.038766202 1.7694606e-38 341 273
0.025844134 0.67000002 -0.038766202 1.7787861e-38 342 273
0.026938211 0.66799998 -0.038650475 1.7971894e-38 343 273
0.028067358 0.667 -0.038592618 1.8063736e-38 344 273
0.029192999 0.66600001 -0.03853476 1.8156291e-38 345 273
0.030360719 0.66600001 -0.03853476 1.8431445e-38 346 273
0.031433757 0.66399997 -0.038419038 1.8523641e-38 347 273
0.032548878 0.66299999 -0.038361177 1.8523641e-38 348 273
0.033660494 0.662 -0.038303319 1.8616195e-38 349 273
0.034821201 0.662 -0.038303319 1.8523641e-38 350 273
0.035981905 0.662 -0.038303319 1.8431445e-38 351 273
0.037198719 0.66299999 -0.038361177 1.8431799e-38 352 273
0.038650475 0.66799998 -0.038650475 1.8155572e-38 353 273
0.039821707 0.66799998 -0.038650475 1.7696031e-38 354 273
0.041115668 0.67000002 -0.038766202 1.751164e-38 355 273
0.042353518 0.671 -0.038824059 1.7510565e-38 356 273
0.043530006 0.671 -0.038824059 1.7326174e-38 357 273
0.044639867 0.67000002 -0.038766202 1.686735e-38 358 273
0.0458146 0.67000002 -0.038766202 1.6775154e-38 359 273
0.047059465 0.671 -0.038824059 1.6407092e-38 360 273
0.04830784 0.67199999 -0.03888192 1.6314896e-38 361 273
0.049633358 0.67400002 -0.038997639 1.5946837e-38 362 273
0.050815105 0.67400002 -0.038997639 1.585464e-38 363 273
0.052074 0.67500001 -0.039055496 1.5485861e-38 364 273
0.053257499 0.67500001 -0.039055496 1.5209273e-38 365 273
0.054521654 0.676 -0.039113361 1.5116003e-38 366 273
0.055706903 0.676 -0.039113361 1.4286242e-38 367 273
0.05739712 0.68199998 -0.039460517 1.3091677e-38 368 273
0.05867881 0.68300003 -0.039518382 1.3183874e-38 369 273
0.059876334 0.68300003 -0.039518382 1.493565e-38 370 273
0.061163284 0.68400002 -0.03957624 1.7056149e-38 371 273
0.062362559 0.68400002 -0.03957624 1.7241309e-38 372 273
0.063561834 0.68400002 -0.03957624 1.7056557e-38 373 273
0.022319933 0.67000002 -0.039940935 1.7326938e-38 339 274
0.023494666 0.67000002 -0.039940935 1.7788231e-38 340 274
0.024669399 0.67000002 -0.039940935 1.760348e-38 341 274
0.025844134 0.67000002 -0.039940935 1.7787858e-38 342 274
0.026938211 0.66799998 -0.039821707 1.7971891e-38 343 274
0.028067358 0.667 -0.039762091 1.8064092e-38 344 274
0.029192999 0.66600001 -0.039702479 1.8248484e-38 345 274
0.030360719 0.66600001 -0.039702479 1.8431799e-38 346 274
0.031433757 0.66399997 -0.039583251 1.8523994e-38 347 274
0.032499783 0.662 -0.039464023 1.8523994e-38 348 274
0.033660494 0.662 -0.039464023 1.8523994e-38 349 274
0.034821201 0.662 -0.039464023 1.8340685e-38 350 274
0.035981905 0.662 -0.039464023 1.824813e-38 351 274
0.037142612 0.662 -0.039464023 1.8155216e-38 352 274
0.038361177 0.66299999 -0.039523639 1.7970823e-38 353 274
0.039583251 0.66399997 -0.039583251 1.7327606e-38 354 274
0.040870197 0.66600001 -0.039702479 1.7235411e-38 355 274
0.042164158 0.66799998 -0.039821707 1.7326527e-38 356 274
0.043335386 0.66799998 -0.039821707 1.704994e-38 357 274
0.044506609 0.66799998 -0.039821707 1.6866268e-38 358 274
0.045677837 0.66799998 -0.039821707 1.6590041e-38 359 274
0.047059465 0.671 -0.040000543 1.6498564e-38 360 274
0.04830784 0.67199999 -0.040060159 1.6314175e-38 361 274
0.049486078 0.67199999 -0.040060159 1.585464e-38 362 274
0.050664317 0.67199999 -0.040060159 1.5670248e-38 363 274
0.051996857 0.67400002 -0.040179387 1.5301114e-38 364 274
0.053178601 0.67400002 -0.040179387 1.5024526e-38 365 274
0.054441001 0.67500001 -0.040238999 1.4379529e-38 366 274
0.0556245 0.67500001 -0.040238999 1.373416e-38 367 274
0.056808002 0.67500001 -0.040238999 1.3458316e-38 368 274
0.057991501 0.67500001 -0.040238999 1.3550511e-38 369 274
0.059876334 0.68300003 -0.040715907 1.4844533e-38 370 274
0.061163284 0.68400002 -0.040775519 1.7241261e-38 371 274
0.062362559 0.68400002 -0.040775519 1.7057994e-38 372 274
0.063561834 0.68400002 -0.040775519 1.6965797e-38 373 274
0.023494666 0.67000002 -0.041115668 1.7971174e-38 340 275
0.024669399 0.67000002 -0.041115668 1.7971174e-38 341 275
0.025844134 0.67000002 -0.041115668 1.8063727e-38 342 275
0.026938211 0.66799998 -0.040992931 1.8155922e-38 343 275
0.028109439 0.66799998 -0.040992931 1.8156285e-38 344 275
0.029061496 0.66299999 -0.040686097 1.8248839e-38 345 275
0.030223956 0.66299999 -0.040686097 1.8523994e-38 346 275
0.031339079 0.662 -0.04062473 1.8431799e-38 347 275
0.032450691 0.66100001 -0.040563367 1.8156291e-38 348 275
0.033609647 0.66100001 -0.040563367 1.7971541e-38 349 275
0.0347686 0.66100001 -0.040563367 1.8246688e-38 350 275
0.035927553 0.66100001 -0.040563367 1.8154491e-38 351 275
0.037086505 0.66100001 -0.040563367 1.7878628e-38 352 275
0.038245458 0.66100001 -0.040563367 1.7693878e-38 353 275
0.039464023 0.662 -0.04062473 1.7326174e-38 354 275
0.040686097 0.66299999 -0.040686097 1.7233977e-38 355 275
0.041911677 0.66399997 -0.040747464 1.695811e-38 356 275
0.043205637 0.66600001 -0.040870197 1.6865915e-38 357 275
0.044439986 0.667 -0.040931564 1.6407095e-38 358 275
0.045609459 0.667 -0.040931564 1.6314899e-38 359 275
0.046849065 0.66799998 -0.040992931 1.6222701e-38 360 275
0.048235953 0.671 -0.041177034 1.6130504e-38 361 275
0.049412437 0.671 -0.041177034 1.5853921e-38 362 275
0.050664317 0.67199999 -0.041238401 1.548478e-38 363 275
0.051842555 0.67199999 -0.041238401 1.4840858e-38 364 275
0.053020798 0.67199999 -0.041238401 1.4380238e-38 365 275
0.054360349 0.67400002 -0.041361131 1.401112e-38 366 275
0.055542093 0.67400002 -0.041361131 1.3826728e-38 367 275
0.056471359 0.671 -0.041177034 1.336757e-38 368 275
0.057647847 0.671 -0.041177034 1.3551602e-38 369 275
0.059964001 0.68400002 -0.041974798 1.5212241e-38 370 275
0.061163284 0.68400002 -0.041974798 1.7424936e-38 371 275
0.062544905 0.68599999 -0.042097531 1.7057994e-38 372 275
0.063747689 0.68599999 -0.042097531 1.6873242e-38 373 275
0.022863466 0.65200001 -0.041154239 1.7787861e-38 340 276
0.024669399 0.67000002 -0.042290401 1.7787861e-38 341 276
