# .PCD v.7 - Point Cloud Data file format
FIELDS x y z rgb imX imY
SIZE 4 4 4 4 4 4
TYPE F F F F F F
COUNT 1 1 1 1 1 1
WIDTH 841
HEIGHT 1
VIEWPOINT 0 0 0 1 0 0 0
POINTS 841
DATA ascii
0.10421111 0.76200002 -0.0267208 1.5852543e-38 398 260
0.10554716 0.76200002 -0.0267208 1.6221685e-38 399 260
0.1068832 0.76200002 -0.0267208 1.6321851e-38 400 260
0.10850327 0.764 -0.026790932 1.7336003e-38 401 260
0.10984282 0.764 -0.026790932 1.8254738e-38 402 260
-0.063782752 0.77399999 -0.028498679 1.5857213e-38 273 261
-0.06234502 0.773 -0.028461859 1.7786426e-38 274 261
-0.060989697 0.773 -0.028461859 1.8431796e-38 275 261
-0.059634373 0.773 -0.028461859 1.852435e-38 276 261
-0.058279041 0.773 -0.028461859 1.8708743e-38 277 261
-0.056923717 0.773 -0.028461859 1.8892058e-38 278 261
-0.055424623 0.77100003 -0.028388219 1.8892058e-38 279 261
-0.054072797 0.77100003 -0.028388219 1.8983179e-38 280 261
-0.052584216 0.76899999 -0.028314579 1.8983179e-38 281 261
-0.051235907 0.76899999 -0.028314579 1.8616193e-38 282 261
-0.04988759 0.76899999 -0.028314579 1.8523997e-38 283 261
-0.048539277 0.76899999 -0.028314579 1.843108e-38 284 261
-0.047190964 0.76899999 -0.028314579 1.8061937e-38 285 261
-0.045842651 0.76899999 -0.028314579 1.6685474e-38 286 261
-0.044494338 0.76899999 -0.028314579 1.5486931e-38 287 261
-0.043146025 0.76899999 -0.028314579 1.6126538e-38 288 261
-0.041797712 0.76899999 -0.028314579 1.5757757e-38 289 261
-0.0404494 0.76899999 -0.028314579 1.5573008e-38 290 261
-0.03920278 0.77100003 -0.028388219 1.5573008e-38 291 261
-0.037850961 0.77100003 -0.028388219 1.5204598e-38 292 261
-0.036499143 0.77100003 -0.028388219 1.4928372e-38 293 261
-0.035238493 0.773 -0.028461859 1.4652876e-38 294 261
-0.033883166 0.773 -0.028461859 1.4468485e-38 295 261
-0.032527838 0.773 -0.028461859 1.4192268e-38 296 261
-0.03117251 0.773 -0.028461859 1.4192268e-38 297 261
-0.029817186 0.773 -0.028461859 1.4100071e-38 298 261
-0.028461859 0.773 -0.028461859 1.4192268e-38 299 261
-0.027141599 0.77399999 -0.028498679 1.4192268e-38 300 261
-0.025784519 0.77399999 -0.028498679 1.4192268e-38 301 261
-0.02442744 0.77399999 -0.028498679 1.3917479e-38 302 261
-0.02307036 0.77399999 -0.028498679 1.3917479e-38 303 261
-0.021769386 0.77600002 -0.028572321 1.3917126e-38 304 261
-0.020461399 0.778 -0.028645959 1.3824929e-38 305 261
-0.019097306 0.778 -0.028645959 1.3641261e-38 306 261
-0.017778799 0.77999997 -0.028719598 1.3641261e-38 307 261
-0.016411198 0.77999997 -0.028719598 1.3732014e-38 308 261
-0.015062887 0.78100002 -0.028756421 1.3732014e-38 309 261
-0.013693534 0.78100002 -0.028756421 1.3640535e-38 310 261
-0.01232418 0.78100002 -0.028756421 1.3640535e-38 311 261
-0.010954826 0.78100002 -0.028756421 1.3457223e-38 312 261
-0.0095854728 0.78100002 -0.028756421 1.3365027e-38 313 261
-0.0082161194 0.78100002 -0.028756421 1.3365024e-38 314 261
-0.0068467669 0.78100002 -0.028756421 1.3365024e-38 315 261
-0.0054914397 0.78299999 -0.028830061 1.3272829e-38 316 261
-0.0041185799 0.78299999 -0.028830061 1.3365024e-38 317 261
-0.0027457199 0.78299999 -0.028830061 1.3272473e-38 318 261
-0.0013728599 0.78299999 -0.028830061 1.3272473e-38 319 261
0 0.78299999 -0.028830061 1.3455072e-38 320 261
0.0013728599 0.78299999 -0.028830061 1.3455072e-38 321 261
0.0027457199 0.78299999 -0.028830061 1.3271403e-38 322 261
0.0041291001 0.78500003 -0.0289037 1.3271403e-38 323 261
0.005519493 0.787 -0.02897734 1.3087011e-38 324 261
0.0068993662 0.787 -0.02897734 1.3087011e-38 325 261
0.0082792398 0.787 -0.02897734 1.3269604e-38 326 261
0.0096591124 0.787 -0.02897734 1.3177409e-38 327 261
0.011038986 0.787 -0.02897734 1.3084138e-38 328 261
0.012450419 0.78899997 -0.02905098 1.2991941e-38 329 261
0.013798732 0.787 -0.02897734 1.3082342e-38 330 261
0.015178605 0.787 -0.02897734 1.2713561e-38 331 261
0.01655848 0.787 -0.02897734 1.2529898e-38 332 261
0.017938353 0.787 -0.02897734 1.2529898e-38 333 261
0.019318225 0.787 -0.02897734 1.2438424e-38 334 261
0.0206981 0.787 -0.02897734 1.2438424e-38 335 261
0.022077972 0.787 -0.02897734 1.2347305e-38 336 261
0.023457846 0.787 -0.02897734 1.2623531e-38 337 261
0.024837719 0.787 -0.02897734 1.2440935e-38 338 261
0.026217593 0.787 -0.02897734 1.2533491e-38 339 261
0.027667599 0.78899997 -0.02905098 1.2625681e-38 340 261
0.02905098 0.78899997 -0.02905098 1.2718235e-38 341 261
0.030434359 0.78899997 -0.02905098 1.2810784e-38 342 261
0.031817738 0.78899997 -0.02905098 1.2994815e-38 343 261
0.033201117 0.78899997 -0.02905098 1.2994459e-38 344 261
0.034584496 0.78899997 -0.02905098 1.2994459e-38 345 261
0.035967879 0.78899997 -0.02905098 1.2994462e-38 346 261
0.03725658 0.787 -0.02897734 1.3086658e-38 347 261
0.03863645 0.787 -0.02897734 1.2994459e-38 348 261
0.040016327 0.787 -0.02897734 1.2994459e-38 349 261
0.041396201 0.787 -0.02897734 1.2994459e-38 350 261
0.042776071 0.787 -0.02897734 1.2994459e-38 351 261
0.044043735 0.78500003 -0.0289037 1.2811503e-38 352 261
0.045420099 0.78500003 -0.0289037 1.2903699e-38 353 261
0.046796467 0.78500003 -0.0289037 1.2627832e-38 354 261
0.048172832 0.78500003 -0.0289037 1.2627832e-38 355 261
0.049422957 0.78299999 -0.028830061 1.2811503e-38 356 261
0.05079582 0.78299999 -0.028830061 1.2718949e-38 357 261
0.052168678 0.78299999 -0.028830061 1.2719304e-38 358 261
0.053404782 0.78100002 -0.028756421 1.2719304e-38 359 261
0.054774135 0.78100002 -0.028756421 1.28115e-38 360 261
0.056143485 0.78100002 -0.028756421 1.28115e-38 361 261
0.057439197 0.77999997 -0.028719598 1.2628188e-38 362 261
0.058806792 0.77999997 -0.028719598 1.2628188e-38 363 261
0.060174398 0.77999997 -0.028719598 1.2536355e-38 364 261
0.061384194 0.778 -0.028645959 1.2536355e-38 365 261
0.062748291 0.778 -0.028645959 1.2721102e-38 366 261
0.063947573 0.77600002 -0.028572321 1.2813299e-38 367 261
0.065308161 0.77600002 -0.028572321 1.3088807e-38 368 261
0.066668749 0.77600002 -0.028572321 1.3088807e-38 369 261
0.067854002 0.77399999 -0.028498679 1.3181009e-38 370 261
0.069211073 0.77399999 -0.028498679 1.3273204e-38 371 261
0.070476986 0.773 -0.028461859 1.3365047e-38 372 261
0.071832314 0.773 -0.028461859 1.3641634e-38 373 261
0.072808921 0.76899999 -0.028314579 1.3640913e-38 374 261
0.074157231 0.76899999 -0.028314579 1.3640913e-38 375 261
0.07550554 0.76899999 -0.028314579 1.3735624e-38 376 261
0.076853856 0.76899999 -0.028314579 1.4104407e-38 377 261
0.077998787 0.76700002 -0.02824094 1.493237e-38 378 261
0.079343595 0.76700002 -0.02824094 1.5577739e-38 379 261
0.080583192 0.76599997 -0.028204117 1.6129471e-38 380 261
0.081926249 0.76599997 -0.028204117 1.6313502e-38 381 261
0.08305189 0.764 -0.028130481 1.6314585e-38 382 261
0.084391437 0.764 -0.028130481 1.6498616e-38 383 261
0.085506558 0.76200002 -0.028056841 1.6958155e-38 384 261
0.086842604 0.76200002 -0.028056841 1.7511329e-38 385 261
0.088178635 0.76200002 -0.028056841 1.8153809e-38 386 261
0.08951468 0.76200002 -0.028056841 1.7692829e-38 387 261
0.091089167 0.764 -0.028130481 1.6402075e-38 388 261
0.092186764 0.76200002 -0.028056841 1.5479759e-38 389 261
0.093522795 0.76200002 -0.028056841 1.4102224e-38 390 261
0.09485884 0.76200002 -0.028056841 1.5392962e-38 391 261
0.096194878 0.76200002 -0.028056841 1.6498234e-38 392 261
0.097530924 0.76200002 -0.028056841 1.6682265e-38 393 261
0.098866954 0.76200002 -0.028056841 1.6589703e-38 394 261
0.10007149 0.76099998 -0.028020019 1.6128725e-38 395 261
0.10140578 0.76099998 -0.028020019 1.5670271e-38 396 261
0.10287508 0.76200002 -0.028056841 1.5946499e-38 397 261
0.10421111 0.76200002 -0.028056841 1.5485186e-38 398 261
0.10554716 0.76200002 -0.028056841 1.5577742e-38 399 261
0.1068832 0.76200002 -0.028056841 1.5123291e-38 400 261
0.10850327 0.764 -0.028130481 1.6782453e-38 401 261
0.10984282 0.764 -0.028130481 1.8439495e-38 402 261
-0.065055676 0.773 -0.029817186 1.6685514e-38 272 262
-0.063700356 0.773 -0.029817186 1.6777711e-38 273 262
-0.06234502 0.773 -0.029817186 1.8155216e-38 274 262
-0.060989697 0.773 -0.029817186 1.8339247e-38 275 262
-0.059480079 0.77100003 -0.029740039 1.8523631e-38 276 262
-0.058128256 0.77100003 -0.029740039 1.8799858e-38 277 262
-0.056776438 0.77100003 -0.029740039 1.8707306e-38 278 262
-0.055280842 0.76899999 -0.02966289 1.8707306e-38 279 262
-0.053932533 0.76899999 -0.02966289 1.8706944e-38 280 262
-0.052447457 0.76700002 -0.029585747 1.8706944e-38 281 262
-0.051102653 0.76700002 -0.029585747 1.8338513e-38 282 262
-0.049757849 0.76700002 -0.029585747 1.8246316e-38 283 262
-0.048413042 0.76700002 -0.029585747 1.7694568e-38 284 262
-0.047068235 0.76700002 -0.029585747 1.6864806e-38 285 262
-0.045723427 0.76700002 -0.029585747 1.5946798e-38 286 262
-0.04437862 0.76700002 -0.029585747 1.4748254e-38 287 262
-0.043146025 0.76899999 -0.02966289 1.4837951e-38 288 262
-0.041797712 0.76899999 -0.02966289 1.4745397e-38 289 262
-0.0404494 0.76899999 -0.02966289 1.4561031e-38 290 262
-0.039101087 0.76899999 -0.02966289 1.4561031e-38 291 262
-0.037850961 0.77100003 -0.029740039 1.474399e-38 292 262
-0.036499143 0.77100003 -0.029740039 1.4651795e-38 293 262
-0.035238493 0.773 -0.029817186 1.4467765e-38 294 262
-0.033883166 0.773 -0.029817186 1.4375569e-38 295 262
-0.032527838 0.773 -0.029817186 1.4283734e-38 296 262
-0.03117251 0.773 -0.029817186 1.4283734e-38 297 262
-0.029855758 0.77399999 -0.029855758 1.4008229e-38 298 262
-0.028498679 0.77399999 -0.029855758 1.4100424e-38 299 262
-0.027141599 0.77399999 -0.029855758 1.3916756e-38 300 262
-0.025784519 0.77399999 -0.029855758 1.3916756e-38 301 262
-0.02442744 0.77399999 -0.029855758 1.3825282e-38 302 262
-0.02307036 0.77399999 -0.029855758 1.3825282e-38 303 262
-0.021769386 0.77600002 -0.029932907 1.3916403e-38 304 262
-0.020461399 0.778 -0.03001005 1.3824207e-38 305 262
-0.019097306 0.778 -0.03001005 1.3732733e-38 306 262
-0.017778799 0.77999997 -0.030087199 1.3732733e-38 307 262
-0.016411198 0.77999997 -0.030087199 1.3640535e-38 308 262
-0.0150436 0.77999997 -0.030087199 1.3456504e-38 309 262
-0.013693534 0.78100002 -0.030125774 1.3364671e-38 310 262
-0.01232418 0.78100002 -0.030125774 1.3272475e-38 311 262
-0.010954826 0.78100002 -0.030125774 1.308916e-38 312 262
-0.0095854728 0.78100002 -0.030125774 1.308916e-38 313 262
-0.0082371598 0.78299999 -0.03020292 1.3272107e-38 314 262
-0.0068642995 0.78299999 -0.03020292 1.3272107e-38 315 262
-0.0054914397 0.78299999 -0.03020292 1.3455422e-38 316 262
-0.0041185799 0.78299999 -0.03020292 1.3455422e-38 317 262
-0.0027457199 0.78299999 -0.03020292 1.3455425e-38 318 262
-0.0013728599 0.78299999 -0.03020292 1.3455425e-38 319 262
0 0.78299999 -0.03020292 1.3179204e-38 320 262
0.0013763667 0.78500003 -0.030280067 1.3179204e-38 321 262
0.0027527334 0.78500003 -0.030280067 1.3087011e-38 322 262
0.0041291001 0.78500003 -0.030280067 1.3087011e-38 323 262
0.005519493 0.787 -0.03035721 1.2994462e-38 324 262
0.0068993662 0.787 -0.03035721 1.2810431e-38 325 262
0.0082792398 0.787 -0.03035721 1.2901197e-38 326 262
0.0096591124 0.787 -0.03035721 1.2809002e-38 327 262
0.011067039 0.78899997 -0.030434359 1.2624968e-38 328 262
0.012450419 0.78899997 -0.030434359 1.2532771e-38 329 262
0.013833799 0.78899997 -0.030434359 1.2348371e-38 330 262
0.015217179 0.78899997 -0.030434359 1.2256175e-38 331 262
0.016600559 0.78899997 -0.030434359 1.2348724e-38 332 262
0.017938353 0.787 -0.03035721 1.2348724e-38 333 262
0.019318225 0.787 -0.03035721 1.1798068e-38 334 262
0.0207507 0.78899997 -0.030434359 1.1798068e-38 335 262
0.022134079 0.78899997 -0.030434359 1.2348724e-38 336 262
0.023517458 0.78899997 -0.030434359 1.2256528e-38 337 262
0.024837719 0.787 -0.03035721 1.234908e-38 338 262
0.026217593 0.787 -0.03035721 1.234908e-38 339 262
0.027667599 0.78899997 -0.030434359 1.2441273e-38 340 262
0.029087799 0.79000002 -0.030472934 1.2441273e-38 341 262
0.030472934 0.79000002 -0.030472934 1.2626387e-38 342 262
0.031858064 0.79000002 -0.030472934 1.2626387e-38 343 262
0.033243202 0.79000002 -0.030472934 1.2626034e-38 344 262
0.034628332 0.79000002 -0.030472934 1.2533837e-38 345 262
0.036013465 0.79000002 -0.030472934 1.2533484e-38 346 262
0.037351258 0.78899997 -0.030434359 1.2533484e-38 347 262
0.03863645 0.787 -0.03035721 1.234982e-38 348 262
0.040016327 0.787 -0.03035721 1.2442374e-38 349 262
0.041396201 0.787 -0.03035721 1.2625684e-38 350 262
0.042776071 0.787 -0.03035721 1.2625684e-38 351 262
0.044043735 0.78500003 -0.030280067 1.2443088e-38 352 262
0.045420099 0.78500003 -0.030280067 1.2535283e-38 353 262
0.046796467 0.78500003 -0.030280067 1.2443088e-38 354 262
0.048050098 0.78299999 -0.03020292 1.2443088e-38 355 262
0.049422957 0.78299999 -0.03020292 1.26264e-38 356 262
0.05079582 0.78299999 -0.03020292 1.26264e-38 357 262
0.052168678 0.78299999 -0.03020292 1.271823e-38 358 262
0.053541537 0.78299999 -0.03020292 1.2810784e-38 359 262
0.054774135 0.78100002 -0.030125774 1.2810781e-38 360 262
0.056143485 0.78100002 -0.030125774 1.2810781e-38 361 262
0.057512842 0.78100002 -0.030125774 1.2626753e-38 362 262
0.058882192 0.78100002 -0.030125774 1.2626753e-38 363 262
0.060174398 0.77999997 -0.030087199 1.2260128e-38 364 262
0.061541997 0.77999997 -0.030087199 1.244416e-38 365 262
0.062748291 0.778 -0.03001005 1.2445594e-38 366 262
0.06411238 0.778 -0.03001005 1.253779e-38 367 262
0.065308161 0.77600002 -0.029932907 1.2996968e-38 368 262
0.066668749 0.77600002 -0.029932907 1.2996968e-38 369 262
0.067854002 0.77399999 -0.029855758 1.3088091e-38 370 262
0.069211073 0.77399999 -0.029855758 1.3272122e-38 371 262
0.070476986 0.773 -0.029817186 1.3273204e-38 372 262
0.071832314 0.773 -0.029817186 1.33654e-38 373 262
0.072808921 0.76899999 -0.02966289 1.3824579e-38 374 262
0.074157231 0.76899999 -0.02966289 1.3916776e-38 375 262
0.07550554 0.76899999 -0.02966289 1.3458318e-38 376 262
0.07665398 0.76700002 -0.029585747 1.3550514e-38 377 262
0.077998787 0.76700002 -0.029585747 1.4011138e-38 378 262
0.079240143 0.76599997 -0.029547172 1.5024931e-38 379 262
0.080583192 0.76599997 -0.029547172 1.58536e-38 380 262
0.081712343 0.764 -0.029470026 1.58536e-38 381 262
0.08305189 0.764 -0.029470026 1.6496804e-38 382 262
0.08417052 0.76200002 -0.029392879 1.6589e-38 383 262
0.085506558 0.76200002 -0.029392879 1.6773398e-38 384 262
0.086842604 0.76200002 -0.029392879 1.695779e-38 385 262
0.088178635 0.76200002 -0.029392879 1.7234016e-38 386 262
0.08951468 0.76200002 -0.029392879 1.7603159e-38 387 262
0.090850718 0.76200002 -0.029392879 1.7602803e-38 388 262
0.092065774 0.76099998 -0.029354304 1.7418412e-38 389 262
0.093400061 0.76099998 -0.029354304 1.6500048e-38 390 262
0.094734348 0.76099998 -0.029354304 1.6592244e-38 391 262
0.096068636 0.76099998 -0.029354304 1.6591871e-38 392 262
0.097402923 0.76099998 -0.029354304 1.6315643e-38 393 262
0.09873721 0.76099998 -0.029354304 1.631384e-38 394 262
0.10007149 0.76099998 -0.029354304 1.6129448e-38 395 262
0.10140578 0.76099998 -0.029354304 1.5946136e-38 396 262
0.10274007 0.76099998 -0.029354304 1.5946136e-38 397 262
0.10407435 0.76099998 -0.029354304 1.5853956e-38 398 262
0.10540864 0.76099998 -0.029354304 1.5669566e-38 399 262
0.10674293 0.76099998 -0.029354304 1.3830749e-38 400 262
0.10821924 0.76200002 -0.029392879 1.5951607e-38 401 262
0.10955528 0.76200002 -0.029392879 1.8622444e-38 402 262
-0.066239186 0.77100003 -0.031091858 1.6409686e-38 271 263
-0.064887367 0.77100003 -0.031091858 1.6959562e-38 272 263
-0.063535534 0.77100003 -0.031091858 1.742054e-38 273 263
-0.06234502 0.773 -0.03117251 1.7971541e-38 274 263
-0.060831897 0.77100003 -0.031091858 1.7971541e-38 275 263
-0.059480079 0.77100003 -0.031091858 1.8155566e-38 276 263
-0.058128256 0.77100003 -0.031091858 1.8339956e-38 277 263
-0.056629159 0.76899999 -0.031011207 1.8431077e-38 278 263
-0.055280842 0.76899999 -0.031011207 1.8338881e-38 279 263
-0.053792264 0.76700002 -0.030930554 1.8062646e-38 280 263
-0.052447457 0.76700002 -0.030930554 1.7878256e-38 281 263
-0.051102653 0.76700002 -0.030930554 1.7509457e-38 282 263
-0.049757849 0.76700002 -0.030930554 1.704848e-38 283 263
-0.048413042 0.76700002 -0.030930554 1.6405255e-38 284 263
-0.047068235 0.76700002 -0.030930554 1.5759885e-38 285 263
-0.045723427 0.76700002 -0.030930554 1.5298201e-38 286 263
-0.04437862 0.76700002 -0.030930554 1.4745386e-38 287 263
-0.043033812 0.76700002 -0.030930554 1.4929444e-38 288 263
-0.041797712 0.76899999 -0.031011207 1.4837248e-38 289 263
-0.0404494 0.76899999 -0.031011207 1.4560681e-38 290 263
-0.039101087 0.76899999 -0.031011207 1.4468485e-38 291 263
-0.03775277 0.76899999 -0.031011207 1.4192617e-38 292 263
-0.036404461 0.76899999 -0.031011207 1.4192617e-38 293 263
-0.03514732 0.77100003 -0.031091858 1.4100424e-38 294 263
-0.033883166 0.773 -0.03117251 1.4100424e-38 295 263
-0.032527838 0.773 -0.03117251 1.4007873e-38 296 263
-0.03117251 0.773 -0.03117251 1.4007873e-38 297 263
-0.029855758 0.77399999 -0.031212838 1.3824563e-38 298 263
-0.028498679 0.77399999 -0.031212838 1.3824563e-38 299 263
-0.027141599 0.77399999 -0.031212838 1.3824207e-38 300 263
-0.025784519 0.77399999 -0.031212838 1.3824207e-38 301 263
-0.02442744 0.77399999 -0.031212838 1.3732731e-38 302 263
-0.02307036 0.77399999 -0.031212838 1.3732731e-38 303 263
-0.021769386 0.77600002 -0.031293493 1.3732731e-38 304 263
-0.020461399 0.778 -0.031374145 1.3640535e-38 305 263
-0.019097306 0.778 -0.031374145 1.3640538e-38 306 263
-0.017778799 0.77999997 -0.031454798 1.3640538e-38 307 263
-0.016411198 0.77999997 -0.031454798 1.3363952e-38 308 263
-0.0150436 0.77999997 -0.031454798 1.3271757e-38 309 263
-0.013693534 0.78100002 -0.031495128 1.3271039e-38 310 263
-0.01232418 0.78100002 -0.031495128 1.3178844e-38 311 263
-0.010954826 0.78100002 -0.031495128 1.3087011e-38 312 263
-0.0096100196 0.78299999 -0.031575777 1.3087011e-38 313 263
-0.0082371598 0.78299999 -0.031575777 1.3178844e-38 314 263
-0.0068642995 0.78299999 -0.031575777 1.3178844e-38 315 263
-0.0054914397 0.78299999 -0.031575777 1.3178844e-38 316 263
-0.0041185799 0.78299999 -0.031575777 1.3178844e-38 317 263
-0.0027457199 0.78299999 -0.031575777 1.33618e-38 318 263
-0.0013728599 0.78299999 -0.031575777 1.3269604e-38 319 263
0 0.78500003 -0.031656433 1.3086295e-38 320 263
0.0013763667 0.78500003 -0.031656433 1.299374e-38 321 263
0.0027597465 0.787 -0.031737085 1.2810428e-38 322 263
0.0041396199 0.787 -0.031737085 1.2718233e-38 323 263
0.005519493 0.787 -0.031737085 1.2625684e-38 324 263
0.0068993662 0.787 -0.031737085 1.2533487e-38 325 263
0.0082792398 0.787 -0.031737085 1.2440222e-38 326 263
0.0096591124 0.787 -0.031737085 1.2347668e-38 327 263
0.011067039 0.78899997 -0.031817738 1.207216e-38 328 263
0.012450419 0.78899997 -0.031817738 1.1979964e-38 329 263
0.013833799 0.78899997 -0.031817738 1.1244547e-38 330 263
0.015217179 0.78899997 -0.031817738 1.1152352e-38 331 263
0.016600559 0.78899997 -0.031817738 1.1518608e-38 332 263
0.017983939 0.78899997 -0.031817738 1.1611162e-38 333 263
0.019367319 0.78899997 -0.031817738 1.0602415e-38 334 263
0.0207507 0.78899997 -0.031817738 1.0602415e-38 335 263
0.022162134 0.79000002 -0.031858064 1.1977799e-38 336 263
0.023547266 0.79000002 -0.031858064 1.1700853e-38 337 263
0.024900839 0.78899997 -0.031817738 1.1242026e-38 338 263
0.026284218 0.78899997 -0.031817738 1.1242026e-38 339 263
0.027702667 0.79000002 -0.031858064 1.0967234e-38 340 263
0.029087799 0.79000002 -0.031858064 1.0875039e-38 341 263
0.036013465 0.79000002 -0.031858064 1.0876853e-38 346 263
0.037398599 0.79000002 -0.031858064 1.0969408e-38 347 263
0.038734637 0.78899997 -0.031817738 1.115237e-38 348 263
0.040118016 0.78899997 -0.031817738 1.1336761e-38 349 263
0.041396201 0.787 -0.031737085 1.1612623e-38 350 263
0.042776071 0.787 -0.031737085 1.1704819e-38 351 263
0.044043735 0.78500003 -0.031656433 1.1797368e-38 352 263
0.045420099 0.78500003 -0.031656433 1.1889563e-38 353 263
0.046796467 0.78500003 -0.031656433 1.2165424e-38 354 263
0.048050098 0.78299999 -0.031575777 1.2257979e-38 355 263
0.049422957 0.78299999 -0.031575777 1.2350172e-38 356 263
0.050666075 0.78100002 -0.031495128 1.2442369e-38 357 263
0.052035429 0.78100002 -0.031495128 1.2809346e-38 358 263
0.053541537 0.78299999 -0.031575777 1.2901901e-38 359 263
0.054914396 0.78299999 -0.031575777 1.2901901e-38 360 263
0.056287259 0.78299999 -0.031575777 1.2809346e-38 361 263
0.057512842 0.78100002 -0.031495128 1.2350172e-38 362 263
0.058882192 0.78100002 -0.031495128 1.2257976e-38 363 263
0.060251549 0.78100002 -0.031495128 1.1889917e-38 364 263
0.061541997 0.77999997 -0.031454798 1.2166143e-38 365 263
0.062748291 0.778 -0.031374145 1.2168296e-38 366 263
0.06411238 0.778 -0.031374145 1.2537437e-38 367 263
0.065308161 0.77600002 -0.031293493 1.2904417e-38 368 263
0.066668749 0.77600002 -0.031293493 1.2812222e-38 369 263
0.067854002 0.77399999 -0.031212838 1.2903345e-38 370 263
0.069211073 0.77399999 -0.031212838 1.2995541e-38 371 263
0.070568159 0.77399999 -0.031212838 1.308846e-38 372 263
0.071832314 0.773 -0.03117251 1.3272851e-38 373 263
0.072808921 0.76899999 -0.031011207 1.3365756e-38 374 263
0.074157231 0.76899999 -0.031011207 1.3549787e-38 375 263
0.07550554 0.76899999 -0.031011207 1.3641264e-38 376 263
0.07665398 0.76700002 -0.030930554 1.3917492e-38 377 263
0.077998787 0.76700002 -0.030930554 1.4285201e-38 378 263
0.079240143 0.76599997 -0.030890226 1.4654344e-38 379 263
0.080583192 0.76599997 -0.030890226 1.4750129e-38 380 263
0.081712343 0.764 -0.030809574 1.5118912e-38 381 263
0.08305189 0.764 -0.030809574 1.6128745e-38 382 263
0.08417052 0.76200002 -0.030728921 1.6220941e-38 383 263
0.085506558 0.76200002 -0.030728921 1.6037994e-38 384 263
0.086842604 0.76200002 -0.030728921 1.6222385e-38 385 263
0.088062912 0.76099998 -0.030688593 1.6498253e-38 386 263
0.089397199 0.76099998 -0.030688593 1.677484e-38 387 263
0.090731487 0.76099998 -0.030688593 1.7234016e-38 388 263
0.092065774 0.76099998 -0.030688593 1.7234016e-38 389 263
0.093400061 0.76099998 -0.030688593 1.6775909e-38 390 263
0.094734348 0.76099998 -0.030688593 1.6683714e-38 391 263
0.096068636 0.76099998 -0.030688593 1.6774467e-38 392 263
0.097402923 0.76099998 -0.030688593 1.668227e-38 393 263
0.09873721 0.76099998 -0.030688593 1.6589353e-38 394 263
0.099808492 0.759 -0.030607941 1.6312768e-38 395 263
0.10113928 0.759 -0.030607941 1.6037976e-38 396 263
0.10247006 0.759 -0.030607941 1.594578e-38 397 263
0.10380083 0.759 -0.030607941 1.5670274e-38 398 263
0.10513161 0.759 -0.030607941 1.5393328e-38 399 263
0.10618187 0.75700003 -0.030527288 1.3736741e-38 400 263
0.10750914 0.75700003 -0.030527288 1.484273e-38 401 263
0.1094115 0.76099998 -0.030688593 1.8246453e-38 402 263
-0.068495713 0.76599997 -0.032233275 1.7792662e-38 269 264
-0.067152664 0.76599997 -0.032233275 1.6224559e-38 270 264
-0.065895528 0.76700002 -0.03227536 1.6224559e-38 271 264
-0.064887367 0.77100003 -0.032443684 1.7328338e-38 272 264
-0.063535534 0.77100003 -0.032443684 1.7328338e-38 273 264
-0.06234502 0.773 -0.032527838 1.7604189e-38 274 264
-0.060831897 0.77100003 -0.032443684 1.7604189e-38 275 264
-0.059480079 0.77100003 -0.032443684 1.7787861e-38 276 264
-0.058128256 0.77100003 -0.032443684 1.7971894e-38 277 264
-0.056629159 0.76899999 -0.032359518 1.8154839e-38 278 264
-0.055280842 0.76899999 -0.032359518 1.8062643e-38 279 264
-0.053792264 0.76700002 -0.03227536 1.7693122e-38 280 264
-0.052447457 0.76700002 -0.03227536 1.7324341e-38 281 264
-0.051102653 0.76700002 -0.03227536 1.6404536e-38 282 264
-0.049757849 0.76700002 -0.03227536 1.5943558e-38 283 264
-0.048413042 0.76700002 -0.03227536 1.5114536e-38 284 264
-0.047068235 0.76700002 -0.03227536 1.4837949e-38 285 264
-0.045723427 0.76700002 -0.03227536 1.4561384e-38 286 264
-0.04437862 0.76700002 -0.03227536 1.4376633e-38 287 264
-0.043033812 0.76700002 -0.03227536 1.4285167e-38 288 264
-0.041797712 0.76899999 -0.032359518 1.419297e-38 289 264
-0.0404494 0.76899999 -0.032359518 1.4100775e-38 290 264
-0.039101087 0.76899999 -0.032359518 1.4100775e-38 291 264
-0.03775277 0.76899999 -0.032359518 1.4008226e-38 292 264
-0.036404461 0.76899999 -0.032359518 1.4100421e-38 293 264
-0.03514732 0.77100003 -0.032443684 1.382456e-38 294 264
-0.033883166 0.773 -0.032527838 1.382456e-38 295 264
-0.032527838 0.773 -0.032527838 1.3824563e-38 296 264
-0.03117251 0.773 -0.032527838 1.3732009e-38 297 264
-0.029855758 0.77399999 -0.032569919 1.3640535e-38 298 264
-0.028498679 0.77399999 -0.032569919 1.3640535e-38 299 264
-0.027141599 0.77399999 -0.032569919 1.3640185e-38 300 264
-0.025784519 0.77399999 -0.032569919 1.3640185e-38 301 264
-0.02442744 0.77399999 -0.032569919 1.3456519e-38 302 264
-0.02307036 0.77399999 -0.032569919 1.3456519e-38 303 264
-0.021769386 0.77600002 -0.032654081 1.3364324e-38 304 264
-0.020461399 0.778 -0.032738242 1.3271769e-38 305 264
-0.019097306 0.778 -0.032738242 1.3455798e-38 306 264
-0.017778799 0.77999997 -0.032822397 1.3271406e-38 307 264
-0.016411198 0.77999997 -0.032822397 1.3086289e-38 308 264
-0.015062887 0.78100002 -0.032864477 1.2901898e-38 309 264
-0.013693534 0.78100002 -0.032864477 1.2808996e-38 310 264
-0.01232418 0.78100002 -0.032864477 1.2808996e-38 311 264
-0.010954826 0.78100002 -0.032864477 1.2808996e-38 312 264
-0.0096100196 0.78299999 -0.032948639 1.2808996e-38 313 264
-0.0082371598 0.78299999 -0.032948639 1.2901192e-38 314 264
-0.0068642995 0.78299999 -0.032948639 1.2808996e-38 315 264
-0.0054914397 0.78299999 -0.032948639 1.2626049e-38 316 264
-0.0041185799 0.78299999 -0.032948639 1.2626049e-38 317 264
-0.0027457199 0.78299999 -0.032948639 1.2441668e-38 318 264
-0.0013728599 0.78299999 -0.032948639 1.2349472e-38 319 264
0 0.78500003 -0.033032801 1.280828e-38 320 264
0.0013763667 0.78500003 -0.033032801 1.2623887e-38 321 264
0.0027597465 0.787 -0.033116959 1.2165412e-38 322 264
0.0041396199 0.787 -0.033116959 1.1981021e-38 323 264
0.005519493 0.787 -0.033116959 1.1795919e-38 324 264
0.0068993662 0.787 -0.033116959 1.1703723e-38 325 264
0.0082792398 0.787 -0.033116959 1.1610108e-38 326 264
0.0096591124 0.787 -0.033116959 1.1241326e-38 327 264
0.013833799 0.78899997 -0.033201117 1.0321515e-38 330 264
0.015217179 0.78899997 -0.033201117 1.0229319e-38 331 264
0.016600559 0.78899997 -0.033201117 1.0228247e-38 332 264
0.017983939 0.78899997 -0.033201117 1.0136051e-38 333 264
0.019367319 0.78899997 -0.033201117 9.5850609e-39 334 264
0.041396201 0.787 -0.033116959 1.0230768e-38 350 264
0.042776071 0.787 -0.033116959 1.0322964e-38 351 264
0.044043735 0.78500003 -0.033032801 1.0691376e-38 352 264
0.045420099 0.78500003 -0.033032801 1.0875407e-38 353 264
0.046796467 0.78500003 -0.033032801 1.1427494e-38 354 264
0.048050098 0.78299999 -0.032948639 1.170372e-38 355 264
0.049422957 0.78299999 -0.032948639 1.1797352e-38 356 264
0.050666075 0.78100002 -0.032864477 1.1981384e-38 357 264
0.052035429 0.78100002 -0.032864477 1.2166134e-38 358 264
0.0536783 0.78500003 -0.033032801 1.2350525e-38 359 264
0.055054668 0.78500003 -0.033032801 1.1706967e-38 360 264
0.056287259 0.78299999 -0.032948639 1.1706967e-38 361 264
0.057660121 0.78299999 -0.032948639 1.1889566e-38 362 264
0.059032977 0.78299999 -0.032948639 1.1705175e-38 363 264
0.060251549 0.78100002 -0.032864477 1.16119e-38 364 264
0.061620899 0.78100002 -0.032864477 1.1704456e-38 365 264
0.062909596 0.77999997 -0.032822397 1.1798089e-38 366 264
0.06411238 0.778 -0.032738242 1.2259428e-38 367 264
0.065308161 0.77600002 -0.032654081 1.2167945e-38 368 264
0.066668749 0.77600002 -0.032654081 1.2167945e-38 369 264
0.067854002 0.77399999 -0.032569919 1.2535289e-38 370 264
0.069211073 0.77399999 -0.032569919 1.2627484e-38 371 264
0.070568159 0.77399999 -0.032569919 1.2903711e-38 372 264
0.071832314 0.773 -0.032527838 1.3088104e-38 373 264
0.072998285 0.77100003 -0.032443684 1.3273204e-38 374 264
0.074157231 0.76899999 -0.032359518 1.3273204e-38 375 264
0.07550554 0.76899999 -0.032359518 1.345687e-38 376 264
0.07665398 0.76700002 -0.03227536 1.3641261e-38 377 264
0.077998787 0.76700002 -0.03227536 1.3733826e-38 378 264
0.079240143 0.76599997 -0.032233275 1.3918576e-38 379 264
0.080372795 0.764 -0.032149121 1.3736346e-38 380 264
0.081712343 0.764 -0.032149121 1.4381715e-38 381 264
0.082834482 0.76200002 -0.032064959 1.5209315e-38 382 264
0.08417052 0.76200002 -0.032064959 1.5301511e-38 383 264
0.085506558 0.76200002 -0.032064959 1.5577389e-38 384 264
0.086728632 0.76099998 -0.032022879 1.576178e-38 385 264
0.088062912 0.76099998 -0.032022879 1.6037291e-38 386 264
0.089397199 0.76099998 -0.032022879 1.6129486e-38 387 264
0.090731487 0.76099998 -0.032022879 1.640535e-38 388 264
0.091823816 0.759 -0.031938717 1.6589743e-38 389 264
0.093154602 0.759 -0.031938717 1.6774487e-38 390 264
0.09448538 0.759 -0.031938717 1.6682291e-38 391 264
0.095816158 0.759 -0.031938717 1.6498253e-38 392 264
0.097146936 0.759 -0.031938717 1.6406056e-38 393 264
0.098477714 0.759 -0.031938717 1.6129821e-38 394 264
0.099808492 0.759 -0.031938717 1.594543e-38 395 264
0.10113928 0.759 -0.031938717 1.5670274e-38 396 264
0.10247006 0.759 -0.031938717 1.5577719e-38 397 264
0.10380083 0.759 -0.031938717 1.5118536e-38 398 264
0.10485459 0.75700003 -0.031854562 1.484231e-38 399 264
0.10618187 0.75700003 -0.031854562 1.3184268e-38 400 264
0.10750914 0.75700003 -0.031854562 1.3460855e-38 401 264
0.10883641 0.75700003 -0.031854562 1.6951013e-38 402 264
-0.069838762 0.76599997 -0.033576332 1.7425292e-38 268 265
-0.068495713 0.76599997 -0.033576332 1.5857608e-38 269 265
-0.067152664 0.76599997 -0.033576332 1.5855385e-38 270 265
-0.065895528 0.76700002 -0.033620168 1.6316363e-38 271 265
-0.064719036 0.76899999 -0.033707831 1.7236124e-38 272 265
-0.063370727 0.76899999 -0.033707831 1.7236124e-38 273 265
-0.062183715 0.77100003 -0.033795502 1.7328307e-38 274 265
-0.060674097 0.76899999 -0.033707831 1.7328307e-38 275 265
-0.059325781 0.76899999 -0.033707831 1.7787133e-38 276 265
-0.057826683 0.76700002 -0.033620168 1.7787133e-38 277 265
-0.056481879 0.76700002 -0.033620168 1.7509823e-38 278 265
-0.055137072 0.76700002 -0.033620168 1.6864453e-38 279 265
-0.053792264 0.76700002 -0.033620168 1.5851359e-38 280 265
-0.052447457 0.76700002 -0.033620168 1.5574771e-38 281 265
-0.051102653 0.76700002 -0.033620168 1.4930126e-38 282 265
-0.049757849 0.76700002 -0.033620168 1.483793e-38 283 265
-0.048413042 0.76700002 -0.033620168 1.4837242e-38 284 265
-0.047068235 0.76700002 -0.033620168 1.4468819e-38 285 265
-0.045723427 0.76700002 -0.033620168 1.446848e-38 286 265
-0.04437862 0.76700002 -0.033620168 1.4376282e-38 287 265
-0.043033812 0.76700002 -0.033620168 1.4100775e-38 288 265
-0.041797712 0.76899999 -0.033707831 1.4100775e-38 289 265
-0.0404494 0.76899999 -0.033707831 1.4100775e-38 290 265
-0.039101087 0.76899999 -0.033707831 1.4008579e-38 291 265
-0.03775277 0.76899999 -0.033707831 1.3825632e-38 292 265
-0.036404461 0.76899999 -0.033707831 1.3733437e-38 293 265
-0.03514732 0.77100003 -0.033795502 1.3733084e-38 294 265
-0.033883166 0.773 -0.033883166 1.3456857e-38 295 265
-0.032527838 0.773 -0.033883166 1.3640888e-38 296 265
-0.03117251 0.773 -0.033883166 1.3456857e-38 297 265
-0.029855758 0.77399999 -0.033927001 1.3456504e-38 298 265
-0.028498679 0.77399999 -0.033927001 1.3456504e-38 299 265
-0.027141599 0.77399999 -0.033927001 1.3455069e-38 300 265
-0.025784519 0.77399999 -0.033927001 1.3455069e-38 301 265
-0.02442744 0.77399999 -0.033927001 1.3455069e-38 302 265
-0.02307036 0.77399999 -0.033927001 1.3271036e-38 303 265
-0.021769386 0.77600002 -0.034014668 1.3361437e-38 304 265
-0.0204088 0.77600002 -0.034014668 1.2992294e-38 305 265
-0.019097306 0.778 -0.034102332 1.2348361e-38 306 265
-0.017778799 0.77999997 -0.034189999 1.2071414e-38 307 265
-0.016411198 0.77999997 -0.034189999 1.1520764e-38 308 265
-0.015062887 0.78100002 -0.034233831 1.1705155e-38 309 265
-0.013693534 0.78100002 -0.034233831 1.253097e-38 310 265
-0.01232418 0.78100002 -0.034233831 1.2715361e-38 311 265
-0.010954826 0.78100002 -0.034233831 1.2533121e-38 312 265
-0.0096100196 0.78299999 -0.034321502 1.2809349e-38 313 265
-0.0082371598 0.78299999 -0.034321502 1.2625314e-38 314 265
-0.0068642995 0.78299999 -0.034321502 1.2440923e-38 315 265
-0.0054914397 0.78299999 -0.034321502 1.2347658e-38 316 265
-0.0041185799 0.78299999 -0.034321502 1.2070711e-38 317 265
-0.0027457199 0.78299999 -0.034321502 1.1426064e-38 318 265
-0.0013728599 0.78299999 -0.034321502 1.1057282e-38 319 265
0 0.78500003 -0.034409165 1.0964718e-38 320 265
0.0013763667 0.78500003 -0.034409165 1.0411544e-38 321 265
0.056431033 0.78500003 -0.034409165 1.0970127e-38 361 265
0.057807401 0.78500003 -0.034409165 1.1979598e-38 362 265
0.059032977 0.78299999 -0.034321502 1.2163629e-38 363 265
0.060405839 0.78299999 -0.034321502 1.1703726e-38 364 265
0.061620899 0.78100002 -0.034233831 1.1703726e-38 365 265
0.062909596 0.77999997 -0.034189999 1.1519336e-38 366 265
0.06411238 0.778 -0.034102332 1.1980314e-38 367 265
0.065308161 0.77600002 -0.034014668 1.1981033e-38 368 265
0.066668749 0.77600002 -0.034014668 1.2165424e-38 369 265
0.068029337 0.77600002 -0.034014668 1.2716083e-38 370 265
0.069211073 0.77399999 -0.033927001 1.2992671e-38 371 265
0.070568159 0.77399999 -0.033927001 1.281115e-38 372 265
0.071925238 0.77399999 -0.033927001 1.3271769e-38 373 265
0.073187642 0.773 -0.033883166 1.3181006e-38 374 265
0.074157231 0.76899999 -0.033707831 1.3181006e-38 375 265
0.07550554 0.76899999 -0.033707831 1.3456148e-38 376 265
0.07665398 0.76700002 -0.033620168 1.3640538e-38 377 265
0.077998787 0.76700002 -0.033620168 1.3549421e-38 378 265
0.079240143 0.76599997 -0.033576332 1.3733814e-38 379 265
0.080372795 0.764 -0.033488665 1.3917129e-38 380 265
0.081712343 0.764 -0.033488665 1.410152e-38 381 265
0.082834482 0.76200002 -0.033401001 1.4380271e-38 382 265
0.08417052 0.76200002 -0.033401001 1.4749054e-38 383 265
0.085506558 0.76200002 -0.033401001 1.5667416e-38 384 265
0.086728632 0.76099998 -0.033357166 1.5851808e-38 385 265
0.088062912 0.76099998 -0.033357166 1.612732e-38 386 265
0.08916226 0.759 -0.033269498 1.612732e-38 387 265
0.090493038 0.759 -0.033269498 1.6495385e-38 388 265
0.091823816 0.759 -0.033269498 1.6679776e-38 389 265
0.093154602 0.759 -0.033269498 1.64057e-38 390 265
0.094236404 0.75700003 -0.033181835 1.64057e-38 391 265
0.09556368 0.75700003 -0.033181835 1.6313136e-38 392 265
0.096890956 0.75700003 -0.033181835 1.6313136e-38 393 265
0.098218225 0.75700003 -0.033181835 1.5945786e-38 394 265
0.099545501 0.75700003 -0.033181835 1.5761034e-38 395 265
0.10087277 0.75700003 -0.033181835 1.5485524e-38 396 265
0.10220005 0.75700003 -0.033181835 1.5393328e-38 397 265
0.10352732 0.75700003 -0.033181835 1.4750827e-38 398 265
0.10485459 0.75700003 -0.033181835 1.4382403e-38 399 265
0.10618187 0.75700003 -0.033181835 1.3092773e-38 400 265
0.10750914 0.75700003 -0.033181835 1.2632154e-38 401 265
0.10883641 0.75700003 -0.033181835 1.6209479e-38 402 265
-0.069838762 0.76599997 -0.034919381 1.4938136e-38 268 266
-0.068495713 0.76599997 -0.034919381 1.4200571e-38 269 266
-0.067240335 0.76700002 -0.034964975 1.5580201e-38 270 266
-0.065895528 0.76700002 -0.034964975 1.6133016e-38 271 266
-0.06455072 0.76700002 -0.034964975 1.6593626e-38 272 266
-0.063205913 0.76700002 -0.034964975 1.668618e-38 273 266
-0.062022414 0.76899999 -0.035056144 1.7328307e-38 274 266
-0.060516298 0.76700002 -0.034964975 1.7236111e-38 275 266
-0.059171494 0.76700002 -0.034964975 1.7695285e-38 276 266
-0.057826683 0.76700002 -0.034964975 1.7511253e-38 277 266
-0.056481879 0.76700002 -0.034964975 1.6956636e-38 278 266
-0.055137072 0.76700002 -0.034964975 1.6219071e-38 279 266
-0.053792264 0.76700002 -0.034964975 1.5206008e-38 280 266
-0.052447457 0.76700002 -0.034964975 1.4929423e-38 281 266
-0.051102653 0.76700002 -0.034964975 1.4378791e-38 282 266
-0.049757849 0.76700002 -0.034964975 1.4378791e-38 283 266
-0.048413042 0.76700002 -0.034964975 1.4284817e-38 284 266
-0.047068235 0.76700002 -0.034964975 1.419262e-38 285 266
-0.045723427 0.76700002 -0.034964975 1.428409e-38 286 266
-0.04437862 0.76700002 -0.034964975 1.428409e-38 287 266
-0.043033812 0.76700002 -0.034964975 1.3825986e-38 288 266
-0.041797712 0.76899999 -0.035056144 1.3733431e-38 289 266
-0.0404494 0.76899999 -0.035056144 1.3549766e-38 290 266
-0.039101087 0.76899999 -0.035056144 1.3549766e-38 291 266
-0.03775277 0.76899999 -0.035056144 1.3273908e-38 292 266
-0.036499143 0.77100003 -0.03514732 1.3273908e-38 293 266
-0.03514732 0.77100003 -0.03514732 1.3089882e-38 294 266
-0.033883166 0.773 -0.035238493 1.2905851e-38 295 266
-0.032527838 0.773 -0.035238493 1.2996614e-38 296 266
-0.031212838 0.77399999 -0.03528408 1.2996614e-38 297 266
-0.029855758 0.77399999 -0.03528408 1.2813297e-38 298 266
-0.028498679 0.77399999 -0.03528408 1.27211e-38 299 266
-0.027141599 0.77399999 -0.03528408 1.3362856e-38 300 266
-0.025784519 0.77399999 -0.03528408 1.2994434e-38 301 266
-0.02442744 0.77399999 -0.03528408 1.2994078e-38 302 266
-0.023129974 0.77600002 -0.035375252 1.271749e-38 303 266
-0.021769386 0.77600002 -0.035375252 1.234908e-38 304 266
-0.0204088 0.77600002 -0.035375252 1.1888102e-38 305 266
-0.019097306 0.778 -0.035466425 1.1611162e-38 306 266
-0.017778799 0.77999997 -0.035557598 1.1242379e-38 307 266
-0.016411198 0.77999997 -0.035557598 1.1703373e-38 308 266
-0.015062887 0.78100002 -0.035603184 1.1795569e-38 309 266
-0.013693534 0.78100002 -0.035603184 1.1428955e-38 310 266
-0.012355739 0.78299999 -0.035694357 1.1613705e-38 311 266
-0.010982879 0.78299999 -0.035694357 1.1615125e-38 312 266
-0.0096100196 0.78299999 -0.035694357 1.1430733e-38 313 266
-0.0082582003 0.78500003 -0.035785533 1.1704074e-38 314 266
-0.0055054668 0.78500003 -0.035785533 1.1058354e-38 316 266
-0.0041291001 0.78500003 -0.035785533 1.0597377e-38 317 266
-0.0027527334 0.78500003 -0.035785533 9.9523762e-39 318 266
-0.0013763667 0.78500003 -0.035785533 9.5839524e-39 319 266
0.061778698 0.78299999 -0.035694357 1.0325847e-38 365 266
0.062990256 0.78100002 -0.035603184 1.0142901e-38 366 266
0.064277194 0.77999997 -0.035557598 1.0327651e-38 367 266
0.065476485 0.778 -0.035466425 1.1153093e-38 368 266
0.066840574 0.778 -0.035466425 1.1153093e-38 369 266
0.068029337 0.77600002 -0.035375252 1.1980333e-38 370 266
0.069389917 0.77600002 -0.035375252 1.2349116e-38 371 266
0.070568159 0.77399999 -0.03528408 1.2627128e-38 372 266
0.071925238 0.77399999 -0.03528408 1.3272498e-38 373 266
0.073187642 0.773 -0.035238493 1.2905142e-38 374 266
0.074350104 0.77100003 -0.03514732 1.2905142e-38 375 266
0.07550554 0.76899999 -0.035056144 1.3181006e-38 376 266
0.07665398 0.76700002 -0.034964975 1.3273201e-38 377 266
0.077998787 0.76700002 -0.034964975 1.3365756e-38 378 266
0.079240143 0.76599997 -0.034919381 1.3365756e-38 379 266
0.080372795 0.764 -0.034828212 1.3458321e-38 380 266
0.081712343 0.764 -0.034828212 1.3550517e-38 381 266
0.082834482 0.76200002 -0.034737039 1.3734192e-38 382 266
0.08417052 0.76200002 -0.034737039 1.419553e-38 383 266
0.085394338 0.76099998 -0.034691449 1.4655785e-38 384 266
0.086728632 0.76099998 -0.034691449 1.5024568e-38 385 266
0.088062912 0.76099998 -0.034691449 1.511641e-38 386 266
0.08916226 0.759 -0.034600276 1.5208606e-38 387 266
0.090493038 0.759 -0.034600276 1.5483754e-38 388 266
0.091823816 0.759 -0.034600276 1.5667785e-38 389 266
0.092909135 0.75700003 -0.034509107 1.5760331e-38 390 266
0.094236404 0.75700003 -0.034509107 1.5852528e-38 391 266
0.09556368 0.75700003 -0.034509107 1.5669566e-38 392 266
0.096634962 0.755 -0.034417931 1.5485173e-38 393 266
0.097958729 0.755 -0.034417931 1.5209663e-38 394 266
0.099282496 0.755 -0.034417931 1.5117467e-38 395 266
0.10060626 0.755 -0.034417931 1.4658657e-38 396 266
0.10193003 0.755 -0.034417931 1.4474265e-38 397 266
0.1032538 0.755 -0.034417931 1.4382063e-38 398 266
0.10457756 0.755 -0.034417931 1.401364e-38 399 266
0.10590133 0.755 -0.034417931 1.2449207e-38 400 266
0.1072251 0.755 -0.034417931 1.2080066e-38 401 266
0.10854886 0.755 -0.034417931 1.5288598e-38 402 266
-0.06992995 0.76700002 -0.036309779 1.3462985e-38 268 267
-0.068585135 0.76700002 -0.036309779 1.4292385e-38 269 267
-0.067240335 0.76700002 -0.036309779 1.567275e-38 270 267
-0.065895528 0.76700002 -0.036309779 1.5857142e-38 271 267
-0.06455072 0.76700002 -0.036309779 1.6684728e-38 272 267
-0.063205913 0.76700002 -0.036309779 1.6961317e-38 273 267
-0.061861109 0.76700002 -0.036309779 1.7602722e-38 274 267
-0.060516298 0.76700002 -0.036309779 1.6957352e-38 275 267
-0.059171494 0.76700002 -0.036309779 1.6403464e-38 276 267
-0.057826683 0.76700002 -0.036309779 1.584993e-38 277 267
-0.056481879 0.76700002 -0.036309779 1.520421e-38 278 267
-0.055137072 0.76700002 -0.036309779 1.4835428e-38 279 267
-0.053792264 0.76700002 -0.036309779 1.4469186e-38 280 267
-0.052379075 0.76599997 -0.036262438 1.4469186e-38 281 267
-0.051036026 0.76599997 -0.036262438 1.4651795e-38 282 267
-0.04969297 0.76599997 -0.036262438 1.4375566e-38 283 267
-0.048413042 0.76700002 -0.036309779 1.4375566e-38 284 267
-0.047068235 0.76700002 -0.036309779 1.4283371e-38 285 267
-0.045723427 0.76700002 -0.036309779 1.4008579e-38 286 267
-0.04437862 0.76700002 -0.036309779 1.4008579e-38 287 267
-0.043033812 0.76700002 -0.036309779 1.3733434e-38 288 267
-0.041797712 0.76899999 -0.036404461 1.3733434e-38 289 267
-0.0404494 0.76899999 -0.036404461 1.3733081e-38 290 267
-0.039101087 0.76899999 -0.036404461 1.3456854e-38 291 267
-0.03775277 0.76899999 -0.036404461 1.3547974e-38 292 267
-0.036499143 0.77100003 -0.036499143 1.3271387e-38 293 267
-0.035238493 0.773 -0.036593821 1.354762e-38 294 267
-0.033883166 0.773 -0.036593821 1.3271034e-38 295 267
-0.032527838 0.773 -0.036593821 1.3178841e-38 296 267
-0.031212838 0.77399999 -0.036641158 1.2901895e-38 297 267
-0.029855758 0.77399999 -0.036641158 1.2165762e-38 298 267
-0.028498679 0.77399999 -0.036641158 1.1704424e-38 299 267
-0.027211733 0.77600002 -0.036735836 1.1517146e-38 300 267
-0.025851147 0.77600002 -0.036735836 1.0871777e-38 301 267
-0.024490559 0.77600002 -0.036735836 1.013818e-38 302 267
-0.023129974 0.77600002 -0.036735836 1.0506964e-38 303 267
-0.021769386 0.77600002 -0.036735836 1.1882727e-38 304 267
-0.020513998 0.77999997 -0.036925197 1.2251509e-38 305 267
-0.0191464 0.77999997 -0.036925197 1.2068916e-38 306 267
-0.017801592 0.78100002 -0.036972538 1.24377e-38 307 267
-0.016432239 0.78100002 -0.036972538 1.1795919e-38 308 267
-0.01510146 0.78299999 -0.037067216 1.1703723e-38 309 267
-0.013728599 0.78299999 -0.037067216 1.1244544e-38 310 267
0.064359605 0.78100002 -0.036972538 1.0783589e-38 367 267
0.065644793 0.77999997 -0.036925197 1.1336392e-38 368 267
0.067012392 0.77999997 -0.036925197 1.1336392e-38 369 267
0.068204664 0.778 -0.036830518 1.1794499e-38 370 267
0.069389917 0.77600002 -0.036735836 1.1978892e-38 371 267
0.070750505 0.77600002 -0.036735836 1.2074678e-38 372 267
0.071925238 0.77399999 -0.036641158 1.2443459e-38 373 267
0.073187642 0.773 -0.036593821 1.3179209e-38 374 267
0.074350104 0.77100003 -0.036499143 1.3363602e-38 375 267
0.07550554 0.76899999 -0.036404461 1.3272122e-38 376 267
0.07665398 0.76700002 -0.036309779 1.3456872e-38 377 267
0.077998787 0.76700002 -0.036309779 1.3456516e-38 378 267
0.079240143 0.76599997 -0.036262438 1.3548712e-38 379 267
0.080372795 0.764 -0.036167759 1.3273204e-38 380 267
0.081712343 0.764 -0.036167759 1.33654e-38 381 267
0.082834482 0.76200002 -0.036073081 1.3549437e-38 382 267
0.08417052 0.76200002 -0.036073081 1.3641634e-38 383 267
0.085394338 0.76099998 -0.036025736 1.373563e-38 384 267
0.086728632 0.76099998 -0.036025736 1.4104054e-38 385 267
0.087831482 0.759 -0.035931058 1.5297911e-38 386 267
0.08916226 0.759 -0.035931058 1.5390107e-38 387 267
0.09025459 0.75700003 -0.03583638 1.5390824e-38 388 267
0.091581859 0.75700003 -0.03583638 1.5390824e-38 389 267
0.092909135 0.75700003 -0.03583638 1.5207515e-38 390 267
0.093987428 0.755 -0.035741698 1.529971e-38 391 267
0.095311195 0.755 -0.035741698 1.5483373e-38 392 267
0.096634962 0.755 -0.035741698 1.5114949e-38 393 267
0.097958729 0.755 -0.035741698 1.5024553e-38 394 267
0.099282496 0.755 -0.035741698 1.4932356e-38 395 267
0.10060626 0.755 -0.035741698 1.4565012e-38 396 267
0.10193003 0.755 -0.035741698 1.4472817e-38 397 267
0.1032538 0.755 -0.035741698 1.3553381e-38 398 267
0.10457756 0.755 -0.035741698 1.3276794e-38 399 267
0.10590133 0.755 -0.035741698 1.1619809e-38 400 267
0.1072251 0.755 -0.035741698 1.1619809e-38 401 267
0.10854886 0.755 -0.035741698 1.4830138e-38 402 267
-0.07127475 0.76700002 -0.037654586 1.3187157e-38 267 268
-0.06992995 0.76700002 -0.037654586 1.3462605e-38 268 268
-0.068585135 0.76700002 -0.037654586 1.4200529e-38 269 268
-0.067240335 0.76700002 -0.037654586 1.5305059e-38 270 268
-0.065895528 0.76700002 -0.037654586 1.5673843e-38 271 268
-0.06455072 0.76700002 -0.037654586 1.6959167e-38 272 268
-0.063205913 0.76700002 -0.037654586 1.6866971e-38 273 268
-0.061861109 0.76700002 -0.037654586 1.6865157e-38 274 268
-0.060516298 0.76700002 -0.037654586 1.6127592e-38 275 268
-0.059171494 0.76700002 -0.037654586 1.5208158e-38 276 268
-0.057826683 0.76700002 -0.037654586 1.4654984e-38 277 268
-0.056408234 0.76599997 -0.037605491 1.428479e-38 278 268
-0.055065181 0.76599997 -0.037605491 1.428479e-38 279 268
-0.053722132 0.76599997 -0.037605491 1.4192617e-38 280 268
-0.052379075 0.76599997 -0.037605491 1.4192617e-38 281 268
-0.051036026 0.76599997 -0.037605491 1.4192624e-38 282 268
-0.04969297 0.76599997 -0.037605491 1.4100068e-38 283 268
-0.048413042 0.76700002 -0.037654586 1.4100777e-38 284 268
-0.047068235 0.76700002 -0.037654586 1.4008223e-38 285 268
-0.045723427 0.76700002 -0.037654586 1.4100056e-38 286 268
-0.04437862 0.76700002 -0.037654586 1.400786e-38 287 268
-0.043033812 0.76700002 -0.037654586 1.3640885e-38 288 268
-0.041689005 0.76700002 -0.037654586 1.3456854e-38 289 268
-0.0404494 0.76899999 -0.03775277 1.3272473e-38 290 268
-0.039101087 0.76899999 -0.03775277 1.2996245e-38 291 268
-0.03775277 0.76899999 -0.03775277 1.3177759e-38 292 268
-0.036404461 0.76899999 -0.03775277 1.2624585e-38 293 268
-0.03514732 0.77100003 -0.037850961 1.2624941e-38 294 268
-0.033795502 0.77100003 -0.037850961 1.1979572e-38 295 268
-0.032527838 0.773 -0.037949149 1.0874673e-38 296 268
-0.031212838 0.77399999 -0.037998237 1.050553e-38 297 268
-0.029855758 0.77399999 -0.037998237 9.7712122e-39 298 268
-0.028498679 0.77399999 -0.037998237 9.7712122e-39 299 268
-0.027211733 0.77600002 -0.038096428 1.0136773e-38 300 268
-0.025851147 0.77600002 -0.038096428 1.0413361e-38 301 268
-0.024490559 0.77600002 -0.038096428 1.0781071e-38 302 268
-0.023189586 0.778 -0.038194612 1.1057297e-38 303 268
-0.021825492 0.778 -0.038194612 1.1425714e-38 304 268
-0.020513998 0.77999997 -0.038292799 1.151791e-38 305 268
-0.019170946 0.78100002 -0.038341891 1.1151645e-38 306 268
0.069568761 0.778 -0.038194612 1.096872e-38 371 268
0.070750505 0.77600002 -0.038096428 1.1614086e-38 372 268
0.072111093 0.77600002 -0.038096428 1.1798479e-38 373 268
0.073282316 0.77399999 -0.037998237 1.2534583e-38 374 268
0.074350104 0.77100003 -0.037850961 1.2995561e-38 375 268
0.07550554 0.76899999 -0.03775277 1.308846e-38 376 268
0.07665398 0.76700002 -0.037654586 1.3180655e-38 377 268
0.077998787 0.76700002 -0.037654586 1.3181371e-38 378 268
0.079240143 0.76599997 -0.037605491 1.3181371e-38 379 268
0.080372795 0.764 -0.037507307 1.2998059e-38 380 268
0.081712343 0.764 -0.037507307 1.2998059e-38 381 268
0.082834482 0.76200002 -0.037409119 1.3088828e-38 382 268
0.08417052 0.76200002 -0.037409119 1.327322e-38 383 268
0.085394338 0.76099998 -0.037360024 1.3549458e-38 384 268
0.086728632 0.76099998 -0.037360024 1.3826043e-38 385 268
0.087831482 0.759 -0.03726184 1.4378843e-38 386 268
0.088927314 0.75700003 -0.037163652 1.4563593e-38 387 268
0.09025459 0.75700003 -0.037163652 1.4747255e-38 388 268
0.091581859 0.75700003 -0.037163652 1.4747255e-38 389 268
0.092663661 0.755 -0.037065465 1.4655785e-38 390 268
0.093987428 0.755 -0.037065465 1.456359e-38 391 268
0.095311195 0.755 -0.037065465 1.4564662e-38 392 268
0.096634962 0.755 -0.037065465 1.4472466e-38 393 268
0.097958729 0.755 -0.037065465 1.4472466e-38 394 268
0.099282496 0.755 -0.037065465 1.4380271e-38 395 268
0.10047301 0.75400001 -0.037016369 1.4196956e-38 396 268
