# .PCD v.7 - Point Cloud Data file format
FIELDS x y z rgb imX imY
SIZE 4 4 4 4 4 4
TYPE F F F F F F
COUNT 1 1 1 1 1 1
WIDTH 846
HEIGHT 1
VIEWPOINT 0 0 0 1 0 0 0
POINTS 846
DATA ascii
0.023228159 0.736 -0.015485439 1.613053e-38 338 252
0.024418673 0.73299998 -0.015422319 1.67759e-38 339 252
0.025703866 0.73299998 -0.015422319 1.742054e-38 340 252
0.026804959 0.72799999 -0.01531712 1.7697127e-38 341 252
0.028042812 0.727 -0.015296079 1.806554e-38 342 252
0.029317487 0.727 -0.015296079 1.8249932e-38 343 252
0.030381758 0.722 -0.015190879 1.8433966e-38 344 252
0.031647664 0.722 -0.015190879 1.8433966e-38 345 252
0.032913569 0.722 -0.015190879 1.8800954e-38 346 252
0.034084801 0.72000003 -0.0151488 1.8800954e-38 347 252
0.035298105 0.71899998 -0.01512776 1.8893503e-38 348 252
0.036457058 0.71700001 -0.015085679 1.8893503e-38 349 252
0.037661601 0.71600002 -0.01506464 1.8802379e-38 350 252
0.038916986 0.71600002 -0.01506464 1.8894575e-38 351 252
0.040172372 0.71600002 -0.01506464 1.8986758e-38 352 252
0.041312039 0.71399999 -0.015022559 1.8894203e-38 353 252
0.042563915 0.71399999 -0.015022559 1.8894559e-38 354 252
0.043815799 0.71399999 -0.015022559 1.8709809e-38 355 252
0.045067675 0.71399999 -0.015022559 1.8709093e-38 356 252
0.046319555 0.71399999 -0.015022559 1.8616896e-38 357 252
0.047571439 0.71399999 -0.015022559 1.8157713e-38 358 252
0.048823316 0.71399999 -0.015022559 1.7881128e-38 359 252
0.050075196 0.71399999 -0.015022559 1.7788582e-38 360 252
0.05132708 0.71399999 -0.015022559 1.7511635e-38 361 252
0.052578956 0.71399999 -0.015022559 1.6223442e-38 362 252
0.053830836 0.71399999 -0.015022559 1.6039051e-38 363 252
0.05508272 0.71399999 -0.015022559 1.5399153e-38 364 252
-0.0094872871 0.773 -0.017619247 1.2722904e-38 313 253
-0.0081319595 0.773 -0.017619247 1.3549787e-38 314 253
-0.0067590997 0.77100003 -0.01757366 1.3641984e-38 315 253
-0.0053932532 0.76899999 -0.017528072 1.3826375e-38 316 253
-0.00403442 0.76700002 -0.017482487 1.3918571e-38 317 253
-0.0026896133 0.76700002 -0.017482487 1.4011485e-38 318 253
-0.0013430532 0.76599997 -0.017459691 1.4104041e-38 319 253
0 0.764 -0.017414106 1.4562145e-38 320 253
0.0013342865 0.76099998 -0.017345725 1.4562145e-38 321 253
0.0026685731 0.76099998 -0.017345725 1.4561792e-38 322 253
0.0039923396 0.759 -0.017300138 1.4469595e-38 323 253
0.0052950666 0.755 -0.017208965 1.4469229e-38 324 253
0.0066100666 0.75400001 -0.017186172 1.4377034e-38 325 253
0.0079110395 0.75199997 -0.017140586 1.4103688e-38 326 253
0.0092049995 0.75 -0.017095 1.4564665e-38 327 253
0.010505973 0.74900001 -0.017072206 1.4931296e-38 328 253
0.011787659 0.74699998 -0.017026618 1.5023493e-38 329 253
0.013097399 0.74699998 -0.017026618 1.5207865e-38 330 253
0.014387853 0.74599999 -0.017003827 1.530006e-38 331 253
0.015653761 0.74400002 -0.016958239 1.5759587e-38 332 253
0.016912652 0.74199998 -0.016912652 1.5944337e-38 333 253
0.018189078 0.741 -0.016889861 1.603653e-38 334 253
0.019488299 0.741 -0.016889861 1.6220922e-38 335 253
0.020731414 0.73900002 -0.016844273 1.6130527e-38 336 253
0.021937706 0.736 -0.016775893 1.6406754e-38 337 253
0.023165042 0.73400003 -0.016730307 1.649894e-38 338 253
0.024318734 0.73000002 -0.016639132 1.6682971e-38 339 253
0.025598666 0.73000002 -0.016639132 1.6960268e-38 340 253
0.026804959 0.72799999 -0.016593546 1.7420886e-38 341 253
0.028042812 0.727 -0.016570752 1.797262e-38 342 253
0.029317487 0.727 -0.016570752 1.815701e-38 343 253
0.030381758 0.722 -0.016456785 1.8432878e-38 344 253
0.031516165 0.71899998 -0.016388407 1.8709106e-38 345 253
0.032776814 0.71899998 -0.016388407 1.8801304e-38 346 253
0.033942781 0.71700001 -0.016342819 1.8801304e-38 347 253
0.035199918 0.71700001 -0.016342819 1.8893853e-38 348 253
0.036406212 0.71600002 -0.016320027 1.8801657e-38 349 253
0.037556399 0.71399999 -0.016274439 1.9077165e-38 350 253
0.038808275 0.71399999 -0.016274439 1.9077165e-38 351 253
0.040004052 0.713 -0.016251646 1.8986049e-38 352 253
0.041138459 0.71100003 -0.01620606 1.8986049e-38 353 253
0.042385083 0.71100003 -0.01620606 1.8894209e-38 354 253
0.043754432 0.713 -0.016251646 1.8801654e-38 355 253
0.045004558 0.713 -0.016251646 1.8800936e-38 356 253
0.046254687 0.713 -0.016251646 1.8616543e-38 357 253
0.047504812 0.713 -0.016251646 1.8341035e-38 358 253
0.048754938 0.713 -0.016251646 1.8156285e-38 359 253
0.050005067 0.713 -0.016251646 1.7881499e-38 360 253
0.051255193 0.713 -0.016251646 1.7604913e-38 361 253
0.052505318 0.713 -0.016251646 1.7510931e-38 362 253
0.053830836 0.71399999 -0.016274439 1.6958116e-38 363 253
0.05508272 0.71399999 -0.016274439 1.5488438e-38 364 253
-0.0053932532 0.76899999 -0.018876385 1.2998425e-38 316 254
-0.00403442 0.76700002 -0.018827293 1.3183176e-38 317 254
-0.0026896133 0.76700002 -0.018827293 1.3275372e-38 318 254
-0.0013430532 0.76599997 -0.018802745 1.3551599e-38 319 254
0 0.76599997 -0.018802745 1.3826746e-38 320 254
0.0013342865 0.76099998 -0.018680012 1.3918942e-38 321 254
0.0026685731 0.76099998 -0.018680012 1.3826393e-38 322 254
0.0039923396 0.759 -0.01863092 1.3734198e-38 323 254
0.0053090933 0.75700003 -0.018581826 1.400969e-38 324 254
0.0066100666 0.75400001 -0.018508185 1.3364321e-38 325 254
0.0079110395 0.75199997 -0.018459093 1.354727e-38 326 254
0.0091927266 0.74900001 -0.018385453 1.4284835e-38 327 254
0.010477919 0.74699998 -0.018336359 1.437848e-38 328 254
0.011787659 0.74699998 -0.018336359 1.4746902e-38 329 254
0.013097399 0.74699998 -0.018336359 1.4932e-38 330 254
0.014387853 0.74599999 -0.018311813 1.5024197e-38 331 254
0.015653761 0.74400002 -0.01826272 1.5301135e-38 332 254
0.016912652 0.74199998 -0.018213626 1.5393331e-38 333 254
0.018189078 0.741 -0.018189078 1.5761034e-38 334 254
0.019488299 0.741 -0.018189078 1.5945786e-38 335 254
0.020703359 0.73799998 -0.018115439 1.6130174e-38 336 254
0.021937706 0.736 -0.018066347 1.6314205e-38 337 254
0.023133477 0.73299998 -0.017992707 1.6406757e-38 338 254
0.024318734 0.73000002 -0.017919067 1.6498953e-38 339 254
0.025528532 0.72799999 -0.017869972 1.6682615e-38 340 254
0.026768139 0.727 -0.017845426 1.7051758e-38 341 254
0.028042812 0.727 -0.017845426 1.7420889e-38 342 254
0.029115854 0.722 -0.017722692 1.7697478e-38 343 254
0.0302976 0.72000003 -0.017673599 1.8248855e-38 344 254
0.031428497 0.71700001 -0.017599959 1.8525443e-38 345 254
0.032640055 0.71600002 -0.017575413 1.8525443e-38 346 254
0.03389544 0.71600002 -0.017575413 1.8617639e-38 347 254
0.035150826 0.71600002 -0.017575413 1.8617989e-38 348 254
0.036253672 0.713 -0.017501773 1.8617989e-38 349 254
0.037398599 0.71100003 -0.01745268 1.8893856e-38 350 254
0.038590867 0.70999998 -0.017428132 1.8893856e-38 351 254
0.039723519 0.708 -0.017379038 1.8893856e-38 352 254
0.040964879 0.708 -0.017379038 1.8893856e-38 353 254
0.042206239 0.708 -0.017379038 1.9077521e-38 354 254
0.043570329 0.70999998 -0.017428132 1.8985325e-38 355 254
0.044815198 0.70999998 -0.017428132 1.8801292e-38 356 254
0.046060063 0.70999998 -0.017428132 1.861654e-38 357 254
0.047371563 0.71100003 -0.01745268 1.8341032e-38 358 254
0.048618179 0.71100003 -0.01745268 1.8156641e-38 359 254
0.049864799 0.71100003 -0.01745268 1.7788579e-38 360 254
0.051111419 0.71100003 -0.01745268 1.7696382e-38 361 254
0.052358042 0.71100003 -0.01745268 1.7145013e-38 362 254
0.053604662 0.71100003 -0.01745268 1.6683675e-38 363 254
0.054619838 0.708 -0.017379038 1.5669918e-38 364 254
0.055861197 0.708 -0.017379038 1.5669918e-38 365 254
0.057102561 0.708 -0.017379038 1.5676109e-38 366 254
-0.0026896133 0.76700002 -0.020172099 1.2999134e-38 318 255
0 0.76599997 -0.020145798 1.3458318e-38 320 255
0.0013430532 0.76599997 -0.020145798 1.3458318e-38 321 255
0.00267208 0.76200002 -0.0200406 1.3641631e-38 322 255
0.0040028598 0.76099998 -0.020014299 1.3641631e-38 323 255
0.0053231199 0.759 -0.0199617 1.3732733e-38 324 255
0.0066188332 0.755 -0.0198565 1.2995168e-38 325 255
0.0079110395 0.75199997 -0.0197776 1.2901532e-38 326 255
0.0091927266 0.74900001 -0.0196987 1.2993728e-38 327 255
0.010477919 0.74699998 -0.019646099 1.2995168e-38 328 255
0.011787659 0.74699998 -0.019646099 1.3456148e-38 329 255
0.013097399 0.74699998 -0.019646099 1.3918574e-38 330 255
0.014387853 0.74599999 -0.019619798 1.4563943e-38 331 255
0.015653761 0.74400002 -0.019567199 1.5208233e-38 332 255
0.016912652 0.74199998 -0.0195146 1.5392625e-38 333 255
0.018189078 0.741 -0.019488299 1.5852514e-38 334 255
0.0194357 0.73900002 -0.0194357 1.6128742e-38 335 255
0.020703359 0.73799998 -0.019409399 1.6313489e-38 336 255
0.021878093 0.73400003 -0.019304199 1.6405685e-38 337 255
0.02307036 0.73100001 -0.019225299 1.6406757e-38 338 255
0.024252106 0.72799999 -0.0191464 1.6406757e-38 339 255
0.025528532 0.72799999 -0.0191464 1.6682615e-38 340 255
0.026768139 0.727 -0.019120099 1.6867367e-38 341 255
0.027965667 0.72500002 -0.0190675 1.7052833e-38 342 255
0.029035201 0.72000003 -0.018935999 1.7421617e-38 343 255
0.030171359 0.71700001 -0.018857099 1.824813e-38 344 255
0.031384666 0.71600002 -0.0188308 1.843288e-38 345 255
0.032548878 0.71399999 -0.018778199 1.861691e-38 346 255
0.033753417 0.713 -0.018751899 1.8709106e-38 347 255
0.035003547 0.713 -0.018751899 1.8800938e-38 348 255
0.036151983 0.71100003 -0.0186993 1.898497e-38 349 255
0.037345998 0.70999998 -0.018672999 1.8801654e-38 350 255
0.038482159 0.708 -0.0186204 1.8801654e-38 351 255
0.039667413 0.70700002 -0.018594101 1.8894209e-38 352 255
0.040907022 0.70700002 -0.018594101 1.8894209e-38 353 255
0.042146627 0.70700002 -0.018594101 1.8893853e-38 354 255
0.043447599 0.708 -0.0186204 1.8801657e-38 355 255
0.044688959 0.708 -0.0186204 1.8800938e-38 356 255
0.045930319 0.708 -0.0186204 1.8616546e-38 357 255
0.047304932 0.70999998 -0.018672999 1.8249558e-38 358 255
0.048549797 0.70999998 -0.018672999 1.7972973e-38 359 255
0.049794663 0.70999998 -0.018672999 1.7789298e-38 360 255
0.051039528 0.70999998 -0.018672999 1.7513069e-38 361 255
0.052137118 0.708 -0.0186204 1.7328678e-38 362 255
0.053378478 0.708 -0.0186204 1.6959897e-38 363 255
0.054619838 0.708 -0.0186204 1.6867364e-38 364 255
0.055861197 0.708 -0.0186204 1.6037602e-38 365 255
0.057102561 0.708 -0.0186204 1.4661571e-38 366 255
0.058179103 0.70599997 -0.018567799 1.6966103e-38 367 255
0.0040028598 0.76099998 -0.021348584 1.3273573e-38 323 256
0.0053231199 0.759 -0.02129248 1.3273201e-38 324 256
0.0066363667 0.75700003 -0.021236373 1.3181006e-38 325 256
0.00793208 0.75400001 -0.021152213 1.2904052e-38 326 256
0.0092295464 0.75199997 -0.021096105 1.2904052e-38 327 256
0.010477919 0.74699998 -0.020955838 1.2994447e-38 328 256
0.011787659 0.74699998 -0.020955838 1.2902251e-38 329 256
0.013097399 0.74699998 -0.020955838 1.3087014e-38 330 256
0.014387853 0.74599999 -0.020927785 1.4008971e-38 331 256
0.015653761 0.74400002 -0.02087168 1.4840173e-38 332 256
0.016889861 0.741 -0.020787518 1.5209315e-38 333 256
0.018139986 0.73900002 -0.020731414 1.5668488e-38 334 256
0.019409399 0.73799998 -0.020703359 1.5852881e-38 335 256
0.020591147 0.73400003 -0.020591147 1.6220941e-38 336 256
0.021848286 0.73299998 -0.020563092 1.6405332e-38 337 256
0.023038799 0.73000002 -0.020478934 1.6589353e-38 338 256
0.024252106 0.72799999 -0.020422826 1.6681549e-38 339 256
0.025493465 0.727 -0.020394772 1.649859e-38 340 256
0.026694499 0.72500002 -0.020338668 1.6682621e-38 341 256
0.027772799 0.72000003 -0.020198401 1.7142874e-38 342 256
0.028914221 0.71700001 -0.020114239 1.7512017e-38 343 256
0.030045118 0.71399999 -0.020030079 1.8156654e-38 344 256
0.031253166 0.713 -0.020002026 1.8248849e-38 345 256
0.032503292 0.713 -0.020002026 1.8433234e-38 346 256
0.033611398 0.70999998 -0.019917866 1.8617266e-38 347 256
0.034856264 0.70999998 -0.019917866 1.8709106e-38 348 256
0.03599944 0.708 -0.01986176 1.8709106e-38 349 256
0.0372408 0.708 -0.01986176 1.898497e-38 350 256
0.038427804 0.70700002 -0.019833706 1.898497e-38 351 256
0.039611302 0.70599997 -0.019805651 1.8893853e-38 352 256
0.040849157 0.70599997 -0.019805651 1.8801657e-38 353 256
0.042087011 0.70599997 -0.019805651 1.9077521e-38 354 256
0.043324865 0.70599997 -0.019805651 1.8985325e-38 355 256
0.044562716 0.70599997 -0.019805651 1.8984604e-38 356 256
0.04580057 0.70599997 -0.019805651 1.8800211e-38 357 256
0.047038425 0.70599997 -0.019805651 1.8524345e-38 358 256
0.048276275 0.70599997 -0.019805651 1.8155922e-38 359 256
0.049584266 0.70700002 -0.019833706 1.788113e-38 360 256
0.050751984 0.70599997 -0.019805651 1.7604183e-38 361 256
0.051989835 0.70599997 -0.019805651 1.7512344e-38 362 256
0.053227689 0.70599997 -0.019805651 1.7327954e-38 363 256
0.054465543 0.70599997 -0.019805651 1.6960263e-38 364 256
0.055703394 0.70599997 -0.019805651 1.6314893e-38 365 256
0.056941248 0.70599997 -0.019805651 1.5118561e-38 366 256
0.058179103 0.70599997 -0.019805651 1.6040159e-38 367 256
0.059416957 0.70599997 -0.019805651 1.6691708e-38 368 256
0.0066538998 0.759 -0.02262326 1.3182081e-38 325 257
0.0079636406 0.75700003 -0.022563647 1.2906564e-38 326 257
0.0092540924 0.75400001 -0.022474226 1.2722173e-38 327 257
0.010505973 0.74900001 -0.022325192 1.2996245e-38 328 257
0.011787659 0.74699998 -0.022265578 1.2904049e-38 329 257
0.013097399 0.74699998 -0.022265578 1.2810778e-38 330 257
0.014387853 0.74599999 -0.022235774 1.2995168e-38 331 257
0.015653761 0.74400002 -0.022176161 1.437918e-38 332 257
0.016889861 0.741 -0.02208674 1.5301135e-38 333 257
0.018115439 0.73799998 -0.021997318 1.5484457e-38 334 257
0.019356798 0.736 -0.021937706 1.5760684e-38 335 257
0.020591147 0.73400003 -0.021878093 1.6128748e-38 336 257
0.021788673 0.73100001 -0.021788673 1.6313139e-38 337 257
0.023038799 0.73000002 -0.021758866 1.6405685e-38 338 257
0.024252106 0.72799999 -0.021699252 1.6497881e-38 339 257
0.025493465 0.727 -0.021669446 1.649859e-38 340 257
0.026584039 0.722 -0.021520413 1.6682621e-38 341 257
0.027772799 0.72000003 -0.021460801 1.6684054e-38 342 257
0.028873893 0.71600002 -0.021341572 1.7052477e-38 343 257
0.030045118 0.71399999 -0.021281958 1.778895e-38 344 257
0.031165501 0.71100003 -0.021192541 1.8065537e-38 345 257
0.032366529 0.70999998 -0.021162732 1.8341035e-38 346 257
0.033516716 0.708 -0.021103119 1.8433231e-38 347 257
0.034758076 0.708 -0.021103119 1.861691e-38 348 257
0.035948593 0.70700002 -0.021073313 1.8709106e-38 349 257
0.037135597 0.70599997 -0.021043506 1.8800938e-38 350 257
0.038373452 0.70599997 -0.021043506 1.8800938e-38 351 257
0.039499093 0.704 -0.020983893 1.880201e-38 352 257
0.040733438 0.704 -0.020983893 1.880201e-38 353 257
0.041967787 0.704 -0.020983893 1.898532e-38 354 257
0.043202132 0.704 -0.020983893 1.8801289e-38 355 257
0.044436477 0.704 -0.020983893 1.8984604e-38 356 257
0.045670826 0.704 -0.020983893 1.8800211e-38 357 257
0.046905171 0.704 -0.020983893 1.8524345e-38 358 257
0.048139516 0.704 -0.020983893 1.8155922e-38 359 257
0.049373865 0.704 -0.020983893 1.7788214e-38 360 257
0.050608214 0.704 -0.020983893 1.7696019e-38 361 257
0.051842559 0.704 -0.020983893 1.7511988e-38 362 257
0.053076904 0.704 -0.020983893 1.7327957e-38 363 257
0.054465543 0.70599997 -0.021043506 1.6867347e-38 364 257
0.055703394 0.70599997 -0.021043506 1.6775151e-38 365 257
0.056941248 0.70599997 -0.021043506 1.5946133e-38 366 257
0.058179103 0.70599997 -0.021043506 1.5208567e-38 367 257
0.059416957 0.70599997 -0.021043506 1.5677168e-38 368 257
0.060654808 0.70599997 -0.021043506 1.8258287e-38 369 257
0.0092909131 0.75700003 -0.02389092 1.253779e-38 327 258
0.01052 0.75 -0.023669999 1.2905851e-38 328 258
0.011787659 0.74699998 -0.023575317 1.2905851e-38 329 258
0.013097399 0.74699998 -0.023575317 1.3090235e-38 330 258
0.014387853 0.74599999 -0.023543758 1.2905845e-38 331 258
0.015653761 0.74400002 -0.023480639 1.4102589e-38 332 258
0.016889861 0.741 -0.023385961 1.5024904e-38 333 258
0.018115439 0.73799998 -0.023291279 1.5668486e-38 334 258
0.019304199 0.73400003 -0.023165042 1.5760681e-38 335 258
0.020563092 0.73299998 -0.023133477 1.6036547e-38 336 258
0.021758866 0.73000002 -0.023038799 1.6220938e-38 337 258
0.022975679 0.72799999 -0.022975679 1.6313487e-38 338 258
0.024218792 0.727 -0.022944121 1.6406041e-38 339 258
0.025423333 0.72500002 -0.022880999 1.649859e-38 340 258
0.026510401 0.72000003 -0.022723202 1.649859e-38 341 258
0.027657079 0.71700001 -0.02262852 1.6775168e-38 342 258
0.028793238 0.71399999 -0.022533838 1.6867364e-38 343 258
0.030003037 0.713 -0.022502279 1.7604916e-38 344 258
0.031121666 0.70999998 -0.022407599 1.7973339e-38 345 258
0.03227536 0.708 -0.022344479 1.8432152e-38 346 258
0.033469379 0.70700002 -0.022312919 1.8524347e-38 347 258
0.034561705 0.704 -0.022218239 1.8616543e-38 348 258
0.035796054 0.704 -0.022218239 1.870874e-38 349 258
0.036977798 0.70300001 -0.02218668 1.8800938e-38 350 258
0.038210396 0.70300001 -0.02218668 1.8800938e-38 351 258
0.039330769 0.70099998 -0.022123558 1.8985323e-38 352 258
0.040559858 0.70099998 -0.022123558 1.8985323e-38 353 258
0.041788943 0.70099998 -0.022123558 1.880201e-38 354 258
0.042956665 0.69999999 -0.022091998 1.8709815e-38 355 258
0.044183996 0.69999999 -0.022091998 1.8709096e-38 356 258
0.045476202 0.70099998 -0.022123558 1.861654e-38 357 258
0.046705291 0.70099998 -0.022123558 1.8248837e-38 358 258
0.047865998 0.69999999 -0.022091998 1.7971891e-38 359 258
0.049093332 0.69999999 -0.022091998 1.7234327e-38 360 258
0.050392549 0.70099998 -0.022123558 1.7510916e-38 361 258
0.051621638 0.70099998 -0.022123558 1.7327606e-38 362 258
0.053001512 0.70300001 -0.02218668 1.7327606e-38 363 258
0.054311249 0.704 -0.022218239 1.6959913e-38 364 258
0.055545598 0.704 -0.022218239 1.6775521e-38 365 258
0.056779943 0.704 -0.022218239 1.6131953e-38 366 258
0.058014292 0.704 -0.022218239 1.5301833e-38 367 258
0.059416957 0.70599997 -0.022281358 1.5397689e-38 368 258
0.060654808 0.70599997 -0.022281358 1.770222e-38 369 258
0.016730307 0.73400003 -0.024451986 1.4104404e-38 333 259
0.018017253 0.73400003 -0.024451986 1.474941e-38 334 259
0.019304199 0.73400003 -0.024451986 1.5117833e-38 335 259
0.020478934 0.73000002 -0.024318734 1.5761037e-38 336 259
0.021699252 0.72799999 -0.024252106 1.594543e-38 337 259
0.022944121 0.727 -0.024218792 1.60387e-38 338 259
0.024152167 0.72500002 -0.024152167 1.6130896e-38 339 259
0.025318133 0.722 -0.024052227 1.6314561e-38 340 259
0.02647358 0.71899998 -0.023952285 1.6406757e-38 341 259
0.027657079 0.71700001 -0.02388566 1.6499303e-38 342 259
0.028793238 0.71399999 -0.02378572 1.6499303e-38 343 259
0.030003037 0.713 -0.023752406 1.7511287e-38 344 259
0.031121666 0.70999998 -0.023652466 1.788043e-38 345 259
0.032184184 0.70599997 -0.023519212 1.8155935e-38 346 259
0.033280019 0.70300001 -0.023419274 1.824813e-38 347 259
0.034414422 0.70099998 -0.023352645 1.843288e-38 348 259
0.035643511 0.70099998 -0.023352645 1.8616913e-38 349 259
0.036872596 0.70099998 -0.023352645 1.8709106e-38 350 259
0.038047329 0.69999999 -0.023319334 1.8709106e-38 351 259
0.039162453 0.69800001 -0.023252707 1.898497e-38 352 259
0.040386278 0.69800001 -0.023252707 1.898497e-38 353 259
0.041610107 0.69800001 -0.023252707 1.8985323e-38 354 259
0.042772565 0.69700003 -0.023219392 1.8801292e-38 355 259
0.043994639 0.69700003 -0.023219392 1.8892405e-38 356 259
0.045281585 0.69800001 -0.023252707 1.8708013e-38 357 259
0.046505414 0.69800001 -0.023252707 1.8432149e-38 358 259
0.047729239 0.69800001 -0.023252707 1.7971529e-38 359 259
0.048953064 0.69800001 -0.023252707 1.7693868e-38 360 259
0.050320663 0.69999999 -0.023319334 1.7786063e-38 361 259
0.051547997 0.69999999 -0.023319334 1.7236127e-38 362 259
0.052775331 0.69999999 -0.023319334 1.7236127e-38 363 259
0.054079808 0.70099998 -0.023352645 1.7235055e-38 364 259
0.055308893 0.70099998 -0.023352645 1.7050662e-38 365 259
0.056699295 0.70300001 -0.023419274 1.649929e-38 366 259
0.057931885 0.70300001 -0.023419274 1.5853921e-38 367 259
0.059248637 0.704 -0.023452586 1.5395521e-38 368 259
0.060482983 0.704 -0.023452586 1.6870291e-38 369 259
0.017919067 0.73000002 -0.025598666 1.3921813e-38 334 260
0.019199001 0.73000002 -0.025598666 1.4290597e-38 335 260
0.020478934 0.73000002 -0.025598666 1.5301505e-38 336 260
0.021699252 0.72799999 -0.025528532 1.5578092e-38 337 260
0.022944121 0.727 -0.025493465 1.6129095e-38 338 260
0.024152167 0.72500002 -0.025423333 1.6313487e-38 339 260
0.025318133 0.722 -0.025318133 1.6314559e-38 340 260
0.02647358 0.71899998 -0.025212931 1.6406754e-38 341 260
0.027657079 0.71700001 -0.0251428 1.6682615e-38 342 260
0.028914221 0.71700001 -0.0251428 1.6498584e-38 343 260
0.030171359 0.71700001 -0.0251428 1.723506e-38 344 260
0.030858666 0.704 -0.024686933 1.7695678e-38 345 260
0.032047424 0.70300001 -0.024651866 1.8246686e-38 346 260
0.033137999 0.69999999 -0.024546666 1.8523631e-38 347 260
0.034365334 0.69999999 -0.024546666 1.8708016e-38 348 260
0.035592664 0.69999999 -0.024546666 1.8800211e-38 349 260
0.0367148 0.69800001 -0.024476532 1.8709096e-38 350 260
0.037884273 0.69700003 -0.024441468 1.8801292e-38 351 260
0.039106347 0.69700003 -0.024441468 1.8800938e-38 352 260
0.040270556 0.69599998 -0.0244064 1.8800938e-38 353 260
0.041490879 0.69599998 -0.0244064 1.898497e-38 354 260
0.042711195 0.69599998 -0.0244064 1.898497e-38 355 260
0.043994639 0.69700003 -0.024441468 1.8800936e-38 356 260
0.045216713 0.69700003 -0.024441468 1.8616543e-38 357 260
0.046438783 0.69700003 -0.024441468 1.8523628e-38 358 260
0.047660861 0.69700003 -0.024441468 1.8246683e-38 359 260
0.048953064 0.69800001 -0.024476532 1.7509472e-38 360 260
0.050176892 0.69800001 -0.024476532 1.7601669e-38 361 260
0.051400717 0.69800001 -0.024476532 1.7327957e-38 362 260
0.052624546 0.69800001 -0.024476532 1.7327957e-38 363 260
0.054002665 0.69999999 -0.024546666 1.6960263e-38 364 260
0.055229999 0.69999999 -0.024546666 1.6868067e-38 365 260
0.056537982 0.70099998 -0.024581732 1.6406744e-38 366 260
0.057931885 0.70300001 -0.024651866 1.6406744e-38 367 260
0.059248637 0.704 -0.024686933 1.5302594e-38 368 260
0.060482983 0.704 -0.024686933 1.5487344e-38 369 260
0.061717331 0.704 -0.024686933 1.6966497e-38 370 260
0.019120099 0.727 -0.026768139 1.3921457e-38 335 261
0.020394772 0.727 -0.026768139 1.4841253e-38 336 261
0.021669446 0.727 -0.026768139 1.530223e-38 337 261
0.022880999 0.72500002 -0.026694499 1.5486973e-38 338 261
0.024052227 0.722 -0.026584039 1.5763558e-38 339 261
0.025318133 0.722 -0.026584039 1.6131249e-38 340 261
0.026510401 0.72000003 -0.026510401 1.6223445e-38 341 261
0.027772799 0.72000003 -0.026510401 1.6682621e-38 342 261
0.029035201 0.72000003 -0.026510401 1.6774818e-38 343 261
0.029708479 0.70599997 -0.025994917 1.714323e-38 344 261
0.030814834 0.70300001 -0.025884461 1.7419817e-38 345 261
0.031956252 0.70099998 -0.025810819 1.8063736e-38 346 261
0.033137999 0.69999999 -0.025773998 1.8156291e-38 347 261
0.034365334 0.69999999 -0.025773998 1.852435e-38 348 261
0.035490975 0.69800001 -0.025700359 1.8616546e-38 349 261
0.036662199 0.69700003 -0.025663542 1.8800936e-38 350 261
0.037721213 0.69400001 -0.025553079 1.8800936e-38 351 261
0.038938027 0.69400001 -0.025553079 1.8709459e-38 352 261
0.040154841 0.69400001 -0.025553079 1.8801654e-38 353 261
0.041371655 0.69400001 -0.025553079 1.8801654e-38 354 261
0.042588469 0.69400001 -0.025553079 1.8801654e-38 355 261
0.043805279 0.69400001 -0.025553079 1.8984604e-38 356 261
0.045022093 0.69400001 -0.025553079 1.8800211e-38 357 261
0.046372157 0.69599998 -0.025626717 1.8432149e-38 358 261
0.047592476 0.69599998 -0.025626717 1.8339953e-38 359 261
0.048882935 0.69700003 -0.025663542 1.7788209e-38 360 261
0.050105009 0.69700003 -0.025663542 1.7511622e-38 361 261
0.051327083 0.69700003 -0.025663542 1.7329379e-38 362 261
0.052549154 0.69700003 -0.025663542 1.7237183e-38 363 261
0.053848371 0.69800001 -0.025700359 1.7144284e-38 364 261
0.0550722 0.69800001 -0.025700359 1.6867697e-38 365 261
0.056296028 0.69800001 -0.025700359 1.6682603e-38 366 261
0.057931885 0.70300001 -0.025884461 1.6498211e-38 367 261
0.059248637 0.704 -0.02592128 1.5486599e-38 368 261
0.060482983 0.704 -0.02592128 1.5025622e-38 369 261
0.020394772 0.727 -0.028042812 1.4196249e-38 336 262
0.021669446 0.727 -0.028042812 1.4933814e-38 337 262
0.022786319 0.722 -0.027849946 1.5669566e-38 338 262
0.0239856 0.72000003 -0.027772799 1.5853956e-38 339 262
0.025248 0.72000003 -0.027772799 1.631384e-38 340 262
0.02647358 0.71899998 -0.027734226 1.6406035e-38 341 262
0.027618507 0.71600002 -0.027618507 1.6498587e-38 342 262
0.028793238 0.71399999 -0.02754136 1.6774815e-38 343 262
0.029708479 0.70599997 -0.027232772 1.6958846e-38 344 262
0.030683333 0.69999999 -0.027001332 1.7419464e-38 345 262
0.031819493 0.69800001 -0.026924185 1.806302e-38 346 262
0.03299598 0.69700003 -0.026885614 1.8431801e-38 347 262
0.034168959 0.69599998 -0.026847038 1.8523628e-38 348 262
0.035287585 0.69400001 -0.026769891 1.870766e-38 349 262
0.036504399 0.69400001 -0.026769891 1.8709096e-38 350 262
0.037666857 0.69300002 -0.02673132 1.8709096e-38 351 262
0.03888192 0.69300002 -0.02673132 1.8800936e-38 352 262
0.039981257 0.69099998 -0.026654173 1.8985325e-38 353 262
0.041192811 0.69099998 -0.026654173 1.898497e-38 354 262
0.042404365 0.69099998 -0.026654173 1.898497e-38 355 262
0.043615919 0.69099998 -0.026654173 1.8800936e-38 356 262
0.044827472 0.69099998 -0.026654173 1.870874e-38 357 262
0.046039023 0.69099998 -0.026654173 1.8341388e-38 358 262
0.047387339 0.69300002 -0.02673132 1.8156638e-38 359 262
0.048672531 0.69400001 -0.026769891 1.7881483e-38 360 262
0.049889345 0.69400001 -0.026769891 1.7604536e-38 361 262
0.051253434 0.69599998 -0.026847038 1.7329747e-38 362 262
0.052473757 0.69599998 -0.026847038 1.7145716e-38 363 262
0.053771228 0.69700003 -0.026885614 1.6960616e-38 364 262
0.054914396 0.69599998 -0.026847038 1.686842e-38 365 262
0.056134716 0.69599998 -0.026847038 1.6590407e-38 366 262
0.05768466 0.69999999 -0.027001332 1.6498211e-38 367 262
0.059248637 0.704 -0.027155625 1.5670268e-38 368 262
0.060482983 0.704 -0.027155625 1.520929e-38 369 262
0.061103668 0.69700003 -0.026885614 1.5857961e-38 370 262
0.021520413 0.722 -0.029115854 1.4105498e-38 337 263
0.022723202 0.72000003 -0.029035201 1.5668135e-38 338 263
0.0239856 0.72000003 -0.029035201 1.6037278e-38 339 263
0.025248 0.72000003 -0.029035201 1.6312768e-38 340 263
0.02647358 0.71899998 -0.028994869 1.6589353e-38 341 263
0.027618507 0.71600002 -0.028873893 1.6498587e-38 342 263
0.028793238 0.71399999 -0.028793238 1.6682618e-38 343 263
0.030045118 0.71399999 -0.028793238 1.6958843e-38 344 263
0.030595668 0.69800001 -0.028148014 1.7327266e-38 345 263
0.03177391 0.69700003 -0.028107686 1.7971546e-38 346 263
0.032948639 0.69599998 -0.028067358 1.8155938e-38 347 263
0.034070771 0.69400001 -0.027986705 1.8523628e-38 348 263
0.035236739 0.69300002 -0.027946379 1.8523628e-38 349 263
0.036451802 0.69300002 -0.027946379 1.8616543e-38 350 263
0.037666857 0.69300002 -0.027946379 1.8616543e-38 351 263
0.038769703 0.69099998 -0.027865725 1.870874e-38 352 263
0.039981257 0.69099998 -0.027865725 1.8800936e-38 353 263
0.041133199 0.69 -0.027825398 1.8985325e-38 354 263
0.042342998 0.69 -0.027825398 1.8800936e-38 355 263
0.043426562 0.68800002 -0.027744746 1.8892052e-38 356 263
0.044632856 0.68800002 -0.027744746 1.8799855e-38 357 263
0.045972396 0.69 -0.027825398 1.85247e-38 358 263
0.047182199 0.69 -0.027825398 1.833995e-38 359 263
0.04846213 0.69099998 -0.027865725 1.8065149e-38 360 263
0.049673684 0.69099998 -0.027865725 1.7788562e-38 361 263
0.050885238 0.69099998 -0.027865725 1.7421221e-38 362 263
0.052096792 0.69099998 -0.027865725 1.723683e-38 363 263
0.053462639 0.69300002 -0.027946379 1.6959897e-38 364 263
0.054677699 0.69300002 -0.027946379 1.68677e-38 365 263
0.055892758 0.69300002 -0.027946379 1.6590407e-38 366 263
0.057190225 0.69400001 -0.027986705 1.6498211e-38 367 263
0.058575355 0.69599998 -0.028067358 1.5853939e-38 368 263
0.05988159 0.69700003 -0.028107686 1.5300767e-38 369 263
0.061103668 0.69700003 -0.028107686 1.5304787e-38 370 263
0.021460801 0.72000003 -0.0302976 1.318499e-38 337 264
0.022723202 0.72000003 -0.0302976 1.5024215e-38 338 264
0.0239856 0.72000003 -0.0302976 1.5669584e-38 339 264
0.025248 0.72000003 -0.0302976 1.6313492e-38 340 264
0.02647358 0.71899998 -0.030255521 1.6313492e-38 341 264
0.027618507 0.71600002 -0.03012928 1.6498587e-38 342 264
0.028873893 0.71600002 -0.03012928 1.6774815e-38 343 264
0.03012928 0.71600002 -0.03012928 1.6959562e-38 344 264
0.030551834 0.69700003 -0.02932976 1.7327985e-38 345 264
0.031728316 0.69599998 -0.029287677 1.8063742e-38 346 264
0.032853961 0.69400001 -0.029203519 1.8155938e-38 347 264
0.034021679 0.69300002 -0.029161438 1.8431077e-38 348 264
0.035135046 0.69099998 -0.029077278 1.8523631e-38 349 264
0.036346599 0.69099998 -0.029077278 1.8341035e-38 350 264
0.03755815 0.69099998 -0.029077278 1.8433231e-38 351 264
0.038713597 0.69 -0.029035198 1.8617263e-38 352 264
0.039807681 0.68800002 -0.028951041 1.8709459e-38 353 264
0.041013971 0.68800002 -0.028951041 1.8800936e-38 354 264
0.042220265 0.68800002 -0.028951041 1.8800936e-38 355 264
0.043300316 0.68599999 -0.02886688 1.8892052e-38 356 264
0.044503104 0.68599999 -0.02886688 1.870766e-38 357 264
0.045772515 0.68699998 -0.028908957 1.8523979e-38 358 264
0.046977058 0.68699998 -0.028908957 1.8431783e-38 359 264
0.048251733 0.68800002 -0.028951041 1.8065149e-38 360 264
0.049458027 0.68800002 -0.028951041 1.7788562e-38 361 264
0.050664321 0.68800002 -0.028951041 1.7329026e-38 362 264
0.051870614 0.68800002 -0.028951041 1.7144634e-38 363 264
0.053076908 0.68800002 -0.028951041 1.69599e-38 364 264
0.054519895 0.69099998 -0.029077278 1.6775149e-38 365 264
0.055731449 0.69099998 -0.029077278 1.6407095e-38 366 264
0.056942999 0.69099998 -0.029077278 1.6222345e-38 367 264
0.058322877 0.69300002 -0.029161438 1.5761741e-38 368 264
0.059623852 0.69400001 -0.029203519 1.5300764e-38 369 264
0.060840666 0.69400001 -0.029203519 1.5028193e-38 370 264
0.022723202 0.72000003 -0.03156 1.3828195e-38 338 265
0.025248 0.72000003 -0.03156 1.6497883e-38 340 265
0.026510401 0.72000003 -0.03156 1.6128742e-38 341 265
0.027772799 0.72000003 -0.03156 1.6406388e-38 342 265
0.030507999 0.69599998 -0.030507999 1.7510934e-38 345 265
0.031637147 0.69400001 -0.030420333 1.7787155e-38 346 265
0.03280662 0.69300002 -0.0303765 1.8063742e-38 347 265
0.033923492 0.69099998 -0.030288832 1.8431077e-38 348 265
0.035084199 0.69 -0.030244999 1.8431077e-38 349 265
0.036293998 0.69 -0.030244999 1.8432152e-38 350 265
0.037503798 0.69 -0.030244999 1.8616543e-38 351 265
0.038545277 0.68699998 -0.030113498 1.861726e-38 352 265
0.039691959 0.68599999 -0.030069664 1.861726e-38 353 265
0.040894743 0.68599999 -0.030069664 1.8801289e-38 354 265
0.041974798 0.68400002 -0.029982001 1.8709093e-38 355 265
0.043110959 0.68300003 -0.029938167 1.8800208e-38 356 265
0.044308487 0.68300003 -0.029938167 1.8708013e-38 357 265
0.045572639 0.68400002 -0.029982001 1.8523979e-38 358 265
0.046908677 0.68599999 -0.030069664 1.8431783e-38 359 265
0.048111461 0.68599999 -0.030069664 1.7881481e-38 360 265
0.049314249 0.68599999 -0.030069664 1.7604892e-38 361 265
0.050517038 0.68599999 -0.030069664 1.7329029e-38 362 265
0.051719822 0.68599999 -0.030069664 1.7144279e-38 363 265
0.052999757 0.68699998 -0.030113498 1.6867703e-38 364 265
0.054283202 0.68800002 -0.030157333 1.6775149e-38 365 265
0.055650797 0.69 -0.030244999 1.6314543e-38 366 265
0.0568606 0.69 -0.030244999 1.6314543e-38 367 265
0.058070395 0.69 -0.030244999 1.5578428e-38 368 265
0.059366114 0.69099998 -0.030288832 1.5393678e-38 369 265
0.060577665 0.69099998 -0.030288832 1.4567572e-38 370 265
0.030507999 0.69599998 -0.031728316 1.7327619e-38 345 266
0.031591557 0.69300002 -0.031591557 1.7971544e-38 346 266
0.032711938 0.69099998 -0.031500384 1.7971544e-38 347 266
0.0338744 0.69 -0.031454802 1.8339247e-38 348 266
0.03498251 0.68800002 -0.031363625 1.8431801e-38 349 266
0.036083598 0.68599999 -0.031272452 1.8340682e-38 350 266
0.037177678 0.68400002 -0.03118128 1.8432878e-38 351 266
0.038376961 0.68400002 -0.03118128 1.8526144e-38 352 266
0.03957624 0.68400002 -0.03118128 1.8526144e-38 353 266
0.040715907 0.68300003 -0.031135695 1.8801645e-38 354 266
0.041913435 0.68300003 -0.031135695 1.870909e-38 355 266
0.043047838 0.68199998 -0.031090107 1.8800208e-38 356 266
0.044243611 0.68199998 -0.031090107 1.8523982e-38 357 266
0.045506012 0.68300003 -0.031135695 1.833995e-38 358 266
0.046771921 0.68400002 -0.03118128 1.833995e-38 359 266
0.0479712 0.68400002 -0.03118128 1.79726e-38 360 266
0.049170479 0.68400002 -0.03118128 1.7696013e-38 361 266
0.050369758 0.68400002 -0.03118128 1.7511622e-38 362 266
0.051569041 0.68400002 -0.03118128 1.7419426e-38 363 266
0.05276832 0.68400002 -0.03118128 1.7051012e-38 364 266
0.054125395 0.68599999 -0.031272452 1.6866621e-38 365 266
0.055408835 0.68699998 -0.031318039 1.6407092e-38 366 266
0.056613375 0.68699998 -0.031318039 1.6130504e-38 367 266
0.057817914 0.68699998 -0.031318039 1.5761738e-38 368 266
0.059022456 0.68699998 -0.031318039 1.5393315e-38 369 266
0.060226995 0.68699998 -0.031318039 1.4382811e-38 370 266
0.061431535 0.68699998 -0.031318039 1.5396962e-38 371 266
0.031591557 0.69300002 -0.03280662 1.7971176e-38 346 267
0.032711938 0.69099998 -0.032711938 1.8155569e-38 347 267
0.033678025 0.68599999 -0.032475237 1.83396e-38 348 267
0.034728274 0.68300003 -0.032333218 1.8431796e-38 349 267
0.035925802 0.68300003 -0.032333218 1.8341032e-38 350 267
0.037068974 0.68199998 -0.032285877 1.8433228e-38 351 267
0.038264744 0.68199998 -0.032285877 1.8709093e-38 352 267
0.039460517 0.68199998 -0.032285877 1.8709093e-38 353 267
0.040537067 0.68000001 -0.032191198 1.8709096e-38 354 267
0.041729335 0.68000001 -0.032191198 1.8709096e-38 355 267
0.042921599 0.68000001 -0.032191198 1.870766e-38 356 267
0.044113863 0.68000001 -0.032191198 1.870766e-38 357 267
0.045306131 0.68000001 -0.032191198 1.8248839e-38 358 267
0.046498399 0.68000001 -0.032191198 1.8064089e-38 359 267
0.047830928 0.68199998 -0.032285877 1.7788582e-38 360 267
0.049026705 0.68199998 -0.032285877 1.7604189e-38 361 267
0.05029612 0.68300003 -0.032333218 1.7327603e-38 362 267
0.051493648 0.68300003 -0.032333218 1.7235408e-38 363 267
0.052691177 0.68300003 -0.032333218 1.6775151e-38 364 267
0.053888701 0.68300003 -0.032333218 1.6775151e-38 365 267
0.055166878 0.68400002 -0.032380559 1.6222345e-38 366 267
0.056366164 0.68400002 -0.032380559 1.6222345e-38 367 267
0.057733759 0.68599999 -0.032475237 1.5578426e-38 368 267
0.058936544 0.68599999 -0.032475237 1.530148e-38 369 267
0.059964001 0.68400002 -0.032380559 1.4013306e-38 370 267
0.061163284 0.68400002 -0.032380559 1.4935263e-38 371 267
0.033579841 0.68400002 -0.033579841 1.8155572e-38 348 268
0.034575731 0.68000001 -0.033383466 1.8431799e-38 349 268
0.035767999 0.68000001 -0.033383466 1.8341398e-38 350 268
0.036960267 0.68000001 -0.033383466 1.8433954e-38 351 268
0.038096428 0.67900002 -0.033334374 1.8617263e-38 352 268
0.039286941 0.67900002 -0.033334374 1.8617263e-38 353 268
0.040417835 0.67799997 -0.033285279 1.870874e-38 354 268
0.041606598 0.67799997 -0.033285279 1.870874e-38 355 268
0.042921599 0.68000001 -0.033383466 1.8616546e-38 356 268
0.044113863 0.68000001 -0.033383466 1.8431796e-38 357 268
0.045239504 0.67900002 -0.033334374 1.8156285e-38 358 268
0.046430022 0.67900002 -0.033334374 1.7971894e-38 359 268
0.047830928 0.68199998 -0.03348165 1.7696385e-38 360 268
0.049026705 0.68199998 -0.03348165 1.7604189e-38 361 268
0.050222475 0.68199998 -0.03348165 1.7235405e-38 362 268
0.051418249 0.68199998 -0.03348165 1.7143209e-38 363 268
0.052614026 0.68199998 -0.03348165 1.6775149e-38 364 268
0.053809796 0.68199998 -0.03348165 1.6590757e-38 365 268
0.055086225 0.68300003 -0.033530746 1.6221626e-38 366 268
0.056283753 0.68300003 -0.033530746 1.6129429e-38 367 268
0.057565439 0.68400002 -0.033579841 1.5761375e-38 368 268
0.058936544 0.68599999 -0.033678025 1.5392232e-38 369 268
0.059964001 0.68400002 -0.033579841 1.3920385e-38 370 268
0.061163284 0.68400002 -0.033579841 1.4658309e-38 371 268
0.062362559 0.68400002 -0.033579841 1.6689554e-38 372 268
0.033530746 0.68300003 -0.034728274 1.8339956e-38 348 269
0.034524884 0.67900002 -0.034524884 1.8432152e-38 349 269
0.035715401 0.67900002 -0.034524884 1.8341035e-38 350 269
0.036851559 0.67799997 -0.034474038 1.8433231e-38 351 269
0.037928104 0.676 -0.034372345 1.8433231e-38 352 269
0.039113361 0.676 -0.034372345 1.8433231e-38 353 269
0.040298611 0.676 -0.034372345 1.8708743e-38 354 269
0.041483864 0.676 -0.034372345 1.852435e-38 355 269
0.042669121 0.676 -0.034372345 1.8340679e-38 356 269
0.043854371 0.676 -0.034372345 1.8064092e-38 357 269
0.045239504 0.67900002 -0.034524884 1.8064089e-38 358 269
0.046430022 0.67900002 -0.034524884 1.7787861e-38 359 269
0.047620531 0.67900002 -0.034524884 1.7695666e-38 360 269
0.048811045 0.67900002 -0.034524884 1.7510916e-38 361 269
0.050075196 0.68000001 -0.034575731 1.7143931e-38 362 269
0.051267464 0.68000001 -0.034575731 1.6867703e-38 363 269
0.052459732 0.68000001 -0.034575731 1.66826e-38 364 269
0.053652 0.68000001 -0.034575731 1.6498208e-38 365 269
0.055005573 0.68199998 -0.034677424 1.6129076e-38 366 269
0.056201346 0.68199998 -0.034677424 1.603688e-38 367 269
0.057481278 0.68300003 -0.034728274 1.5393313e-38 368 269
0.058936544 0.68599999 -0.034880809 1.502417e-38 369 269
0.059964001 0.68400002 -0.03477912 1.3736349e-38 370 269
0.061073858 0.68300003 -0.034728274 1.4381718e-38 371 269
0.06227139 0.68300003 -0.034728274 1.6597356e-38 372 269
0.033530746 0.68300003 -0.035925802 1.8156285e-38 348 270
0.034372345 0.676 -0.035557602 1.8248839e-38 349 270
0.035557602 0.676 -0.035557602 1.8340682e-38 350 270
0.036525436 0.67199999 -0.035347197 1.8340682e-38 351 270
0.037703678 0.67199999 -0.035347197 1.8523994e-38 352 270
0.03888192 0.67199999 -0.035347197 1.8523994e-38 353 270
0.040179387 0.67400002 -0.035452399 1.8523994e-38 354 270
0.041361131 0.67400002 -0.035452399 1.8523994e-38 355 270
0.042606 0.67500001 -0.035505001 1.8431799e-38 356 270
0.043789499 0.67500001 -0.035505001 1.8155572e-38 357 270
0.044972997 0.67500001 -0.035505001 1.7787864e-38 358 270
0.0461565 0.67500001 -0.035505001 1.7603114e-38 359 270
0.047410134 0.676 -0.035557602 1.7510918e-38 360 270
0.048595384 0.676 -0.035557602 1.7326527e-38 361 270
0.049927916 0.67799997 -0.0356628 1.7050662e-38 362 270
0.051116679 0.67799997 -0.0356628 1.6958466e-38 363 270
0.052382588 0.67900002 -0.035715401 1.6498211e-38 364 270
0.053573098 0.67900002 -0.035715401 1.631418e-38 365 270
0.054763615 0.67900002 -0.035715401 1.6129076e-38 366 270
0.055954125 0.67900002 -0.035715401 1.5852489e-38 367 270
0.057481278 0.68300003 -0.035925802 1.5208564e-38 368 270
0.05867881 0.68300003 -0.035925802 1.4747946e-38 369 270
0.059876334 0.68300003 -0.035925802 1.3643075e-38 370 270
0.061073858 0.68300003 -0.035925802 1.4288445e-38 371 270
0.06227139 0.68300003 -0.035925802 1.6872501e-38 372 270
0.034067266 0.67000002 -0.036416732 1.8248839e-38 349 271
0.035136797 0.66799998 -0.036308024 1.8340679e-38 350 271
0.036308024 0.66799998 -0.036308024 1.8340679e-38 351 271
0.037479252 0.66799998 -0.036308024 1.8707662e-38 352 271
0.038824059 0.671 -0.036471087 1.8707662e-38 353 271
0.040000543 0.671 -0.036471087 1.8707306e-38 354 271
0.041238401 0.67199999 -0.036525436 1.8523275e-38 355 271
0.042416636 0.67199999 -0.036525436 1.8155216e-38 356 271
0.043530006 0.671 -0.036471087 1.806302e-38 357 271
0.044706494 0.671 -0.036471087 1.7695313e-38 358 271
0.045882981 0.671 -0.036471087 1.7510921e-38 359 271
0.047339998 0.67500001 -0.036688499 1.7326171e-38 360 271
0.048523501 0.67500001 -0.036688499 1.7326171e-38 361 271
0.049706999 0.67500001 -0.036688499 1.6775154e-38 362 271
0.050890498 0.67500001 -0.036688499 1.66826e-38 363 271
0.052074 0.67500001 -0.036688499 1.6314896e-38 364 271
0.053336397 0.676 -0.036742851 1.6130504e-38 365 271
0.054682959 0.67799997 -0.036851559 1.594504e-38 366 271
0.055871718 0.67799997 -0.036851559 1.576029e-38 367 271
0.05739712 0.68199998 -0.037068974 1.502417e-38 368 271
0.058592889 0.68199998 -0.037068974 1.4471355e-38 369 271
0.059788663 0.68199998 -0.037068974 1.3275372e-38 370 271
0.061073858 0.68300003 -0.037123326 1.4012937e-38 371 271
0.06227139 0.68300003 -0.037123326 1.6780305e-38 372 271
0.063468911 0.68300003 -0.037123326 1.7702262e-38 373 271
0.026075572 0.676 -0.037928104 1.6775171e-38 342 272
0.027260827 0.676 -0.037928104 1.7051758e-38 343 272
0.031433757 0.66399997 -0.037254825 1.8339237e-38 347 272
0.03259797 0.66399997 -0.037254825 1.8339956e-38 348 272
0.033762183 0.66399997 -0.037254825 1.8432152e-38 349 272
0.035031598 0.66600001 -0.037367038 1.8524345e-38 350 272
0.036253672 0.667 -0.037423145 1.8524345e-38 351 272
0.037479252 0.66799998 -0.037479252 1.8523626e-38 352 272
0.038766202 0.67000002 -0.037591465 1.8523626e-38 353 272
0.040000543 0.671 -0.037647571 1.8523628e-38 354 272
0.041177034 0.671 -0.037647571 1.8431433e-38 355 272
0.042353518 0.671 -0.037647571 1.8246686e-38 356 272
0.043465134 0.67000002 -0.037591465 1.8062293e-38 357 272
0.044639867 0.67000002 -0.037591465 1.7693865e-38 358 272
0.0458146 0.67000002 -0.037591465 1.7601669e-38 359 272
0.047059465 0.671 -0.037647571 1.7234681e-38 360 272
0.048235953 0.671 -0.037647571 1.7234681e-38 361 272
0.049633358 0.67400002 -0.037815895 1.6866265e-38 362 272
0.050664317 0.67199999 -0.037703678 1.6682234e-38 363 272
0.051842555 0.67199999 -0.037703678 1.6223054e-38 364 272
0.053178601 0.67400002 -0.037815895 1.6038302e-38 365 272
0.054441001 0.67500001 -0.037871998 1.5485859e-38 366 272
0.055706903 0.676 -0.037928104 1.5393663e-38 367 272
0.057144642 0.67900002 -0.038096428 1.4564997e-38 368 272
0.058421064 0.68000001 -0.038152531 1.3827432e-38 369 272
0.059613332 0.68000001 -0.038152531 1.2908034e-38 370 272
0.060984433 0.68199998 -0.038264744 1.3737795e-38 371 272
0.062180214 0.68199998 -0.038264744 1.6321128e-38 372 272
0.063468911 0.68300003 -0.038320854 1.7334921e-38 373 272
0.026075572 0.676 -0.039113361 1.7235057e-38 342 273
0.027260827 0.676 -0.039113361 1.7511284e-38 343 273
0.028446076 0.676 -0.039113361 1.7695666e-38 344 273
0.031386416 0.66299999 -0.038361177 1.8155569e-38 347 273
0.032548878 0.66299999 -0.038361177 1.8339956e-38 348 273
0.033711337 0.66299999 -0.038361177 1.8432152e-38 349 273
0.034873798 0.66299999 -0.038361177 1.8524345e-38 350 273
0.036036257 0.66299999 -0.038361177 1.8432149e-38 351 273
0.037254825 0.66399997 -0.038419038 1.8523979e-38 352 273
0.038419038 0.66399997 -0.038419038 1.8339588e-38 353 273
0.039583251 0.66399997 -0.038419038 1.8064443e-38 354 273
0.040870197 0.66600001 -0.03853476 1.7788214e-38 355 273
0.042101037 0.667 -0.038592618 1.7696019e-38 356 273
0.04327051 0.667 -0.038592618 1.7419073e-38 357 273
0.044439986 0.667 -0.038592618 1.7418352e-38 358 273
0.045609459 0.667 -0.038592618 1.7326154e-38 359 273
0.046849065 0.66799998 -0.038650475 1.6958101e-38 360 273
0.048164066 0.67000002 -0.038766202 1.7050296e-38 361 273
0.049412437 0.671 -0.038824059 1.6407448e-38 362 273
0.050588924 0.671 -0.038824059 1.6314893e-38 363 273
0.051765412 0.671 -0.038824059 1.6130498e-38 364 273
0.053020798 0.67199999 -0.03888192 1.5854271e-38 365 273
0.054360349 0.67400002 -0.038997639 1.5853195e-38 366 273
0.055542093 0.67400002 -0.038997639 1.5392217e-38 367 273
0.056723841 0.67400002 -0.038997639 1.4288408e-38 368 273
0.058335152 0.67900002 -0.039286941 1.3735236e-38 369 273
0.059613332 0.68000001 -0.039344799 1.2999158e-38 370 273
0.0608056 0.68000001 -0.039344799 1.4105504e-38 371 273
0.062180214 0.68199998 -0.039460517 1.6964343e-38 372 273
0.063468911 0.68300003 -0.039518382 1.7609713e-38 373 273
0.031386416 0.66299999 -0.039523639 1.8064089e-38 347 274
0.032548878 0.66299999 -0.039523639 1.8339956e-38 348 274
0.033711337 0.66299999 -0.039523639 1.8432152e-38 349 274
0.034873798 0.66299999 -0.039523639 1.8523982e-38 350 274
0.036036257 0.66299999 -0.039523639 1.8708013e-38 351 274
0.037198719 0.66299999 -0.039523639 1.8707641e-38 352 274
0.038419038 0.66399997 -0.039583251 1.769385e-38 353 274
0.039583251 0.66399997 -0.039583251 1.7142114e-38 354 274
0.040747464 0.66399997 -0.039583251 1.7419061e-38 355 274
0.041911677 0.66399997 -0.039583251 1.7509467e-38 356 274
0.043205637 0.66600001 -0.039702479 1.7417271e-38 357 274
0.04437336 0.66600001 -0.039702479 1.7417271e-38 358 274
0.045541082 0.66600001 -0.039702479 1.7141044e-38 359 274
0.046778932 0.667 -0.039762091 1.6865902e-38 360 274
0.048020288 0.66799998 -0.039821707 1.6865902e-38 361 274
0.049338799 0.67000002 -0.039940935 1.6498564e-38 362 274
0.050513536 0.67000002 -0.039940935 1.6314175e-38 363 274
0.051688269 0.67000002 -0.039940935 1.6038302e-38 364 274
0.052941896 0.671 -0.040000543 1.5854271e-38 365 274
0.054199036 0.67199999 -0.040060159 1.5301467e-38 366 274
0.055377278 0.67199999 -0.040060159 1.5117075e-38 367 274
0.056471359 0.671 -0.040000543 1.4379532e-38 368 274
0.057647847 0.671 -0.040000543 1.3918195e-38 369 274
0.059613332 0.68000001 -0.040537067 1.336722e-38 370 274
0.0608056 0.68000001 -0.040537067 1.46576e-38 371 274
0.062180214 0.68199998 -0.040656291 1.7149091e-38 372 274
0.030178372 0.662 -0.04062473 1.8155566e-38 346 275
0.031339079 0.662 -0.04062473 1.8155566e-38 347 275
0.032499783 0.662 -0.04062473 1.8339956e-38 348 275
0.033660494 0.662 -0.04062473 1.8432152e-38 349 275
0.034821201 0.662 -0.04062473 1.8432502e-38 350 275
0.035981905 0.662 -0.04062473 1.8432502e-38 351 275
0.037142612 0.662 -0.04062473 1.861473e-38 352 275
0.038303319 0.662 -0.04062473 1.7877165e-38 353 275
0.039523639 0.66299999 -0.040686097 1.7233243e-38 354 275
0.040686097 0.66299999 -0.040686097 1.750947e-38 355 275
0.041848559 0.66299999 -0.040686097 1.7325804e-38 356 275
0.043075889 0.66399997 -0.040747464 1.7233609e-38 357 275
0.044240102 0.66399997 -0.040747464 1.6958098e-38 358 275
0.045404319 0.66399997 -0.040747464 1.6773707e-38 359 275
0.046708796 0.66600001 -0.040870197 1.6590041e-38 360 275
0.047948405 0.667 -0.040931564 1.6590041e-38 361 275
0.04919152 0.66799998 -0.040992931 1.6222701e-38 362 275
0.050362743 0.66799998 -0.040992931 1.6130504e-38 363 275
0.051688269 0.67000002 -0.041115668 1.6037586e-38 364 275
0.052863002 0.67000002 -0.041115668 1.5853195e-38 365 275
0.054118387 0.671 -0.041177034 1.5485136e-38 366 275
0.055294871 0.671 -0.041177034 1.5024157e-38 367 275
0.056471359 0.671 -0.041177034 1.45632e-38 368 275
0.057647847 0.671 -0.041177034 1.4010028e-38 369 275
0.059613332 0.68000001 -0.041729335 1.3643091e-38 370 275
0.0608056 0.68000001 -0.041729335 1.5026385e-38 371 275
0.062180214 0.68199998 -0.041852064 1.6964343e-38 372 275
0.028973831 0.66100001 -0.04172232 1.8155566e-38 345 276
0.030132787 0.66100001 -0.04172232 1.83396e-38 346 276
0.031291738 0.66100001 -0.04172232 1.83396e-38 347 276
0.032450691 0.66100001 -0.04172232 1.8339956e-38 348 276
0.033609647 0.66100001 -0.04172232 1.8432152e-38 349 276
0.034663398 0.65899998 -0.041596077 1.843143e-38 350 276
0.035818845 0.65899998 -0.041596077 1.843143e-38 351 276
0.037086505 0.66100001 -0.04172232 1.8338513e-38 352 276
0.038245458 0.66100001 -0.04172232 1.7969729e-38 353 276
0.039404415 0.66100001 -0.04172232 1.7877533e-38 354 276
0.040563367 0.66100001 -0.04172232 1.7508751e-38 355 276
0.041785441 0.662 -0.041785441 1.7233243e-38 356 276
0.042946145 0.662 -0.041785441 1.7233243e-38 357 276
0.044240102 0.66399997 -0.041911677 1.6590036e-38 358 276
0.045404319 0.66399997 -0.041911677 1.649784e-38 359 276
0.046708796 0.66600001 -0.042037919 1.6497846e-38 360 276
0.047876518 0.66600001 -0.042037919 1.6497846e-38 361 276
0.049117878 0.667 -0.042101037 1.6130149e-38 362 276
0.050362743 0.66799998 -0.042164158 1.6037952e-38 363 276
0.051533967 0.66799998 -0.042164158 1.5761725e-38 364 276
0.052705199 0.66799998 -0.042164158 1.5576975e-38 365 276
0.054037735 0.67000002 -0.042290401 1.5116719e-38 366 276
0.055294871 0.671 -0.042353518 1.4656101e-38 367 276
0.056471359 0.671 -0.042353518 1.4011473e-38 368 276
0.057647847 0.671 -0.042353518 1.3827081e-38 369 276
0.059788663 0.68199998 -0.043047838 1.3644177e-38 370 276
