# .PCD v.7 - Point Cloud Data file format
FIELDS x y z rgb imX imY
SIZE 4 4 4 4 4 4
TYPE F F F F F F
COUNT 1 1 1 1 1 1
WIDTH 850
HEIGHT 1
VIEWPOINT 0 0 0 1 0 0 0
POINTS 850
DATA ascii
0.061780453 0.76599997 -0.052379075 1.2810755e-38 366 279
0.063205913 0.76700002 -0.052447457 1.2534528e-38 367 279
0.064719036 0.76899999 -0.052584216 1.1339938e-38 368 279
0.066067353 0.76899999 -0.052584216 1.087932e-38 369 279
0.067415662 0.76899999 -0.052584216 9.8644798e-39 370 279
0.068763971 0.76899999 -0.052584216 8.850688e-39 371 279
0.070112288 0.76899999 -0.052584216 7.5564067e-39 372 279
-0.10786507 0.76899999 -0.053932533 1.1524422e-38 240 280
-0.10623973 0.76700002 -0.053792264 1.0694302e-38 241 280
-0.10489491 0.76700002 -0.053792264 1.1707336e-38 242 280
-0.10355011 0.76700002 -0.053792264 1.226051e-38 243 280
-0.10220531 0.76700002 -0.053792264 1.3089882e-38 244 280
-0.10072899 0.76599997 -0.053722132 1.3458666e-38 245 280
-0.09938594 0.76599997 -0.053722132 1.3735602e-38 246 280
-0.09804289 0.76599997 -0.053722132 1.3827797e-38 247 280
-0.096447356 0.764 -0.053581864 1.4011473e-38 248 280
-0.095107809 0.764 -0.053581864 1.4195504e-38 249 280
-0.093768261 0.764 -0.053581864 1.4746887e-38 250 280
-0.092186764 0.76200002 -0.053441599 1.5023472e-38 251 280
-0.090850718 0.76200002 -0.053441599 1.5207515e-38 252 280
-0.089397199 0.76099998 -0.053371463 1.5391906e-38 253 280
-0.088062912 0.76099998 -0.053371463 1.5484101e-38 254 280
-0.086728632 0.76099998 -0.053371463 1.5668133e-38 255 280
-0.085394338 0.76099998 -0.053371463 1.5945077e-38 256 280
-0.084060051 0.76099998 -0.053371463 1.6129827e-38 257 280
-0.082725771 0.76099998 -0.053371463 1.6222738e-38 258 280
-0.081391476 0.76099998 -0.053371463 1.6314935e-38 259 280
-0.079846799 0.759 -0.053231198 1.6498599e-38 260 280
-0.078516021 0.759 -0.053231198 1.6498599e-38 261 280
-0.077185236 0.759 -0.053231198 1.6774462e-38 262 280
-0.075654581 0.75700003 -0.053090934 1.6867016e-38 263 280
-0.074327305 0.75700003 -0.053090934 1.6775171e-38 264 280
-0.073000036 0.75700003 -0.053090934 1.6775171e-38 265 280
-0.07167276 0.75700003 -0.053090934 1.6683319e-38 266 280
-0.070345491 0.75700003 -0.053090934 1.6499287e-38 267 280
-0.069018215 0.75700003 -0.053090934 1.659111e-38 268 280
-0.067690939 0.75700003 -0.053090934 1.659111e-38 269 280
-0.06636367 0.75700003 -0.053090934 1.6590392e-38 270 280
-0.065036394 0.75700003 -0.053090934 1.6590392e-38 271 280
-0.063709125 0.75700003 -0.053090934 1.6590038e-38 272 280
-0.062381849 0.75700003 -0.053090934 1.6590038e-38 273 280
-0.061215881 0.759 -0.053231198 1.6680807e-38 274 280
-0.059885096 0.759 -0.053231198 1.6588253e-38 275 280
-0.058245733 0.755 -0.052950665 1.6313477e-38 276 280
-0.056921966 0.755 -0.052950665 1.603653e-38 277 280
-0.052880533 0.75400001 -0.052880533 1.5762148e-38 280 280
-0.051558517 0.75400001 -0.052880533 1.6499713e-38 281 280
-0.050236505 0.75400001 -0.052880533 1.6501204e-38 282 280
-0.048914492 0.75400001 -0.052880533 1.7330605e-38 283 280
-0.04759248 0.75400001 -0.052880533 1.7240586e-38 284 280
0.018581826 0.75700003 -0.053090934 1.6591168e-38 334 280
0.019909101 0.75700003 -0.053090934 1.6037994e-38 335 280
0.021236373 0.75700003 -0.053090934 1.6403867e-38 336 280
0.022504034 0.755 -0.052950665 1.6403867e-38 337 280
0.023827799 0.755 -0.052950665 1.6497855e-38 338 280
0.025151566 0.755 -0.052950665 1.6497855e-38 339 280
0.026475333 0.755 -0.052950665 1.6772284e-38 340 280
0.027799098 0.755 -0.052950665 1.6680089e-38 341 280
0.029122867 0.755 -0.052950665 1.6771198e-38 342 280
0.030446632 0.755 -0.052950665 1.6771198e-38 343 280
0.031770397 0.755 -0.052950665 1.6403126e-38 344 280
0.033094164 0.755 -0.052950665 1.6218734e-38 345 280
0.034509107 0.75700003 -0.053090934 1.5847787e-38 346 280
0.035931058 0.759 -0.053231198 1.5386449e-38 347 280
0.037163652 0.75700003 -0.053090934 1.4375188e-38 348 280
0.038490929 0.75700003 -0.053090934 1.4467384e-38 349 280
0.039818201 0.75700003 -0.053090934 1.4561044e-38 350 280
0.041145474 0.75700003 -0.053090934 1.4837989e-38 351 280
0.042472746 0.75700003 -0.053090934 1.4840139e-38 352 280
0.043800019 0.75700003 -0.053090934 1.5116724e-38 353 280
0.045127295 0.75700003 -0.053090934 1.5484763e-38 354 280
0.046454567 0.75700003 -0.053090934 1.5392567e-38 355 280
0.047908079 0.759 -0.053231198 1.5758829e-38 356 280
0.049368605 0.76099998 -0.053371463 1.5482602e-38 357 280
0.050702889 0.76099998 -0.053371463 1.502199e-38 358 280
0.052105557 0.76200002 -0.053441599 1.4837598e-38 359 280
0.053441599 0.76200002 -0.053441599 1.4193676e-38 360 280
0.054777641 0.76200002 -0.053441599 1.3916731e-38 361 280
0.056113683 0.76200002 -0.053441599 1.3640151e-38 362 280
0.057600506 0.764 -0.053581864 1.3455758e-38 363 280
0.058940053 0.764 -0.053581864 1.3362488e-38 364 280
0.0602796 0.764 -0.053581864 1.3178097e-38 365 280
0.061619148 0.764 -0.053581864 1.3085897e-38 366 280
0.063205913 0.76700002 -0.053792264 1.2532724e-38 367 280
0.06455072 0.76700002 -0.053792264 1.1521815e-38 368 280
0.065895528 0.76700002 -0.053792264 1.0876446e-38 369 280
0.067240335 0.76700002 -0.053792264 8.9447011e-39 370 280
0.068763971 0.76899999 -0.053932533 8.0223847e-39 371 280
0.070112288 0.76899999 -0.053932533 9.865633e-39 372 280
-0.10623973 0.76700002 -0.055137072 1.0971258e-38 241 281
-0.10489491 0.76700002 -0.055137072 1.0418402e-38 242 281
-0.10355011 0.76700002 -0.055137072 1.1248163e-38 243 281
-0.10220531 0.76700002 -0.055137072 1.2353046e-38 244 281
-0.10072899 0.76599997 -0.055065181 1.2905861e-38 245 281
-0.09938594 0.76599997 -0.055065181 1.33661e-38 246 281
-0.09804289 0.76599997 -0.055065181 1.3642687e-38 247 281
-0.096447356 0.764 -0.054921411 1.4010028e-38 248 281
-0.095107809 0.764 -0.054921411 1.4286255e-38 249 281
-0.093522795 0.76200002 -0.054777641 1.4745791e-38 250 281
-0.092186764 0.76200002 -0.054777641 1.4837987e-38 251 281
-0.090850718 0.76200002 -0.054777641 1.5389716e-38 252 281
-0.089397199 0.76099998 -0.05470575 1.5574107e-38 253 281
-0.088062912 0.76099998 -0.05470575 1.5667027e-38 254 281
-0.086728632 0.76099998 -0.05470575 1.5759224e-38 255 281
-0.085169919 0.759 -0.054561976 1.6034735e-38 256 281
-0.083839141 0.759 -0.054561976 1.6219126e-38 257 281
-0.082508355 0.759 -0.054561976 1.6220572e-38 258 281
-0.081177577 0.759 -0.054561976 1.6681549e-38 259 281
-0.079846799 0.759 -0.054561976 1.6681549e-38 260 281
-0.078516021 0.759 -0.054561976 1.6681549e-38 261 281
-0.076981857 0.75700003 -0.054418206 1.6499309e-38 262 281
-0.075454697 0.755 -0.054274432 1.6591506e-38 263 281
-0.07413093 0.755 -0.054274432 1.6774818e-38 264 281
-0.073000036 0.75700003 -0.054418206 1.6774818e-38 265 281
-0.071483396 0.755 -0.054274432 1.6775171e-38 266 281
-0.070159629 0.755 -0.054274432 1.6682615e-38 267 281
-0.068835862 0.755 -0.054274432 1.649929e-38 268 281
-0.067512102 0.755 -0.054274432 1.6407095e-38 269 281
-0.066188328 0.755 -0.054274432 1.6682956e-38 270 281
-0.064864561 0.755 -0.054274432 1.659076e-38 271 281
-0.063540794 0.755 -0.054274432 1.659076e-38 272 281
-0.062217031 0.755 -0.054274432 1.659076e-38 273 281
-0.060893264 0.755 -0.054274432 1.6773351e-38 274 281
-0.059569497 0.755 -0.054274432 1.6681155e-38 275 281
-0.058245733 0.755 -0.054274432 1.622198e-38 276 281
-0.056921966 0.755 -0.054274432 1.622198e-38 277 281
-0.055598196 0.755 -0.054274432 1.6128725e-38 278 281
-0.054274432 0.755 -0.054274432 1.6220922e-38 279 281
-0.052880533 0.75400001 -0.054202545 1.6219869e-38 280 281
-0.051558517 0.75400001 -0.054202545 1.6035476e-38 281 281
-0.050236505 0.75400001 -0.054202545 1.539337e-38 282 281
-0.048914492 0.75400001 -0.054202545 1.5946543e-38 283 281
-0.04759248 0.75400001 -0.054202545 1.5765058e-38 284 281
-0.046270464 0.75400001 -0.054202545 1.61342e-38 285 281
-0.044948451 0.75400001 -0.054202545 1.6594838e-38 286 281
-0.043626439 0.75400001 -0.054202545 1.6871785e-38 287 281
-0.042304426 0.75400001 -0.054202545 1.67814e-38 288 281
0.017254554 0.75700003 -0.054418206 1.6406051e-38 333 281
0.018581826 0.75700003 -0.054418206 1.67741e-38 334 281
0.0198565 0.755 -0.054274432 1.67741e-38 335 281
0.021180267 0.755 -0.054274432 1.6865564e-38 336 281
0.022504034 0.755 -0.054274432 1.6681533e-38 337 281
0.023827799 0.755 -0.054274432 1.6589688e-38 338 281
0.025151566 0.755 -0.054274432 1.6497492e-38 339 281
0.026475333 0.755 -0.054274432 1.6771554e-38 340 281
0.027799098 0.755 -0.054274432 1.6402773e-38 341 281
0.029122867 0.755 -0.054274432 1.6032899e-38 342 281
0.030446632 0.755 -0.054274432 1.5664115e-38 343 281
0.03172832 0.75400001 -0.054202545 1.5203134e-38 344 281
0.033050332 0.75400001 -0.054202545 1.4557765e-38 345 281
0.034417931 0.755 -0.054274432 1.4096794e-38 346 281
0.035741698 0.755 -0.054274432 1.3819846e-38 347 281
0.037065465 0.755 -0.054274432 1.3543285e-38 348 281
0.038389232 0.755 -0.054274432 1.4373047e-38 349 281
0.039712999 0.755 -0.054274432 1.4835826e-38 350 281
0.041036766 0.755 -0.054274432 1.5204248e-38 351 281
0.042360533 0.755 -0.054274432 1.5115271e-38 352 281
0.043684296 0.755 -0.054274432 1.5300021e-38 353 281
0.045008067 0.755 -0.054274432 1.5391851e-38 354 281
0.046454567 0.75700003 -0.054418206 1.5299655e-38 355 281
0.04778184 0.75700003 -0.054418206 1.5481896e-38 356 281
0.049238857 0.759 -0.054561976 1.5204949e-38 357 281
0.050702889 0.76099998 -0.05470575 1.4928369e-38 358 281
0.052037176 0.76099998 -0.05470575 1.4651781e-38 359 281
0.053371463 0.76099998 -0.05470575 1.4375191e-38 360 281
0.054777641 0.76200002 -0.054777641 1.3914213e-38 361 281
0.056113683 0.76200002 -0.054777641 1.3638705e-38 362 281
0.057449725 0.76200002 -0.054777641 1.3453955e-38 363 281
0.058940053 0.764 -0.054921411 1.3177729e-38 364 281
0.0602796 0.764 -0.054921411 1.3085534e-38 365 281
0.061619148 0.764 -0.054921411 1.2533446e-38 366 281
0.062958695 0.764 -0.054921411 1.2164664e-38 367 281
0.064466551 0.76599997 -0.055065181 1.1151606e-38 368 281
0.065895528 0.76700002 -0.055137072 1.023001e-38 369 281
0.067240335 0.76700002 -0.055137072 8.7560008e-39 370 281
0.068585135 0.76700002 -0.055137072 8.1106314e-39 371 281
0.070750505 0.77600002 -0.055784054 1.1618076e-38 372 281
-0.10489491 0.76700002 -0.056481879 1.0693559e-38 242 282
-0.10355011 0.76700002 -0.056481879 1.0970148e-38 243 282
-0.10220531 0.76700002 -0.056481879 1.1524727e-38 244 282
-0.10072899 0.76599997 -0.056408234 1.2170096e-38 245 282
-0.09938594 0.76599997 -0.056408234 1.2907286e-38 246 282
-0.09804289 0.76599997 -0.056408234 1.2999482e-38 247 282
-0.096447356 0.764 -0.056260962 1.3641964e-38 248 282
-0.09485884 0.76200002 -0.056113683 1.3918551e-38 249 282
-0.093522795 0.76200002 -0.056113683 1.4285539e-38 250 282
-0.092186764 0.76200002 -0.056113683 1.446993e-38 251 282
-0.090850718 0.76200002 -0.056113683 1.4838342e-38 252 282
-0.089397199 0.76099998 -0.056040037 1.5114571e-38 253 282
-0.088062912 0.76099998 -0.056040037 1.5298243e-38 254 282
-0.086500697 0.759 -0.055892758 1.5574828e-38 255 282
-0.085169919 0.759 -0.055892758 1.5574122e-38 256 282
-0.083618224 0.75700003 -0.055745479 1.5851069e-38 257 282
-0.082290947 0.75700003 -0.055745479 1.5943981e-38 258 282
-0.080963671 0.75700003 -0.055745479 1.6220928e-38 259 282
-0.079636402 0.75700003 -0.055745479 1.6038329e-38 260 282
-0.078309126 0.75700003 -0.055745479 1.6314914e-38 261 282
-0.076778464 0.755 -0.055598196 1.640711e-38 262 282
-0.075454697 0.755 -0.055598196 1.6499306e-38 263 282
-0.07413093 0.755 -0.055598196 1.6591503e-38 264 282
-0.07280717 0.755 -0.055598196 1.6591503e-38 265 282
-0.071483396 0.755 -0.055598196 1.6682615e-38 266 282
-0.070159629 0.755 -0.055598196 1.6682615e-38 267 282
-0.068835862 0.755 -0.055598196 1.6498934e-38 268 282
-0.067512102 0.755 -0.055598196 1.6406739e-38 269 282
-0.066188328 0.755 -0.055598196 1.659076e-38 270 282
-0.064864561 0.755 -0.055598196 1.6682956e-38 271 282
-0.063540794 0.755 -0.055598196 1.668259e-38 272 282
-0.062217031 0.755 -0.055598196 1.668259e-38 273 282
-0.060893264 0.755 -0.055598196 1.6773701e-38 274 282
-0.059569497 0.755 -0.055598196 1.6773701e-38 275 282
-0.058245733 0.755 -0.055598196 1.649784e-38 276 282
-0.056921966 0.755 -0.055598196 1.649784e-38 277 282
-0.055598196 0.755 -0.055598196 1.6404941e-38 278 282
-0.054274432 0.755 -0.055598196 1.6404941e-38 279 282
-0.052950665 0.755 -0.055598196 1.6129078e-38 280 282
-0.051558517 0.75400001 -0.055524562 1.5944687e-38 281 282
-0.050236505 0.75400001 -0.055524562 1.5668826e-38 282 282
-0.048914492 0.75400001 -0.055524562 1.5761022e-38 283 282
-0.04759248 0.75400001 -0.055524562 1.5577742e-38 284 282
-0.046270464 0.75400001 -0.055524562 1.5854329e-38 285 282
-0.044948451 0.75400001 -0.055524562 1.5947989e-38 286 282
-0.043626439 0.75400001 -0.055524562 1.6316771e-38 287 282
-0.04219221 0.75199997 -0.055377278 1.6500828e-38 288 282
-0.040873703 0.75199997 -0.055377278 1.686997e-38 289 282
-0.039555199 0.75199997 -0.055377278 1.705438e-38 290 282
-0.038135 0.75 -0.055229999 1.7422803e-38 291 282
-0.036819998 0.75 -0.055229999 1.7332408e-38 292 282
-0.035505001 0.75 -0.055229999 1.7332408e-38 293 282
-0.034189999 0.75 -0.055229999 1.7424251e-38 294 282
0.0092663663 0.755 -0.055598196 1.6682663e-38 327 282
0.010590133 0.755 -0.055598196 1.6865944e-38 328 282
0.017208965 0.755 -0.055598196 1.6590041e-38 333 282
0.018532733 0.755 -0.055598196 1.66826e-38 334 282
0.0198565 0.755 -0.055598196 1.66826e-38 335 282
0.021180267 0.755 -0.055598196 1.6865199e-38 336 282
0.022504034 0.755 -0.055598196 1.6773003e-38 337 282
0.023827799 0.755 -0.055598196 1.6680802e-38 338 282
0.025151566 0.755 -0.055598196 1.6404574e-38 339 282
0.026475333 0.755 -0.055598196 1.6586438e-38 340 282
0.027799098 0.755 -0.055598196 1.5664841e-38 341 282
0.029084291 0.75400001 -0.055524562 1.5020192e-38 342 282
0.030406307 0.75400001 -0.055524562 1.4651409e-38 343 282
0.03172832 0.75400001 -0.055524562 1.4649983e-38 344 282
0.033050332 0.75400001 -0.055524562 1.4096809e-38 345 282
0.034417931 0.755 -0.055598196 1.4095033e-38 346 282
0.035741698 0.755 -0.055598196 1.4095033e-38 347 282
0.037016369 0.75400001 -0.055524562 1.4004283e-38 348 282
0.038338386 0.75400001 -0.055524562 1.4834043e-38 349 282
0.039660402 0.75400001 -0.055524562 1.5022008e-38 350 282
0.040982414 0.75400001 -0.055524562 1.5114205e-38 351 282
0.042304426 0.75400001 -0.055524562 1.5207826e-38 352 282
0.043684296 0.755 -0.055598196 1.5207826e-38 353 282
0.045008067 0.755 -0.055598196 1.5206751e-38 354 282
0.04633183 0.755 -0.055598196 1.5114555e-38 355 282
0.04778184 0.75700003 -0.055745479 1.5204598e-38 356 282
0.049238857 0.759 -0.055892758 1.4928372e-38 357 282
0.050569639 0.759 -0.055892758 1.4651427e-38 358 282
0.052037176 0.76099998 -0.056040037 1.4374841e-38 359 282
0.053371463 0.76099998 -0.056040037 1.3638352e-38 360 282
0.05470575 0.76099998 -0.056040037 1.345396e-38 361 282
0.056113683 0.76200002 -0.056113683 1.3178097e-38 362 282
0.057449725 0.76200002 -0.056113683 1.30859e-38 363 282
0.058785759 0.76200002 -0.056113683 1.2717121e-38 364 282
0.060121801 0.76200002 -0.056113683 1.2624926e-38 365 282
0.061619148 0.764 -0.056260962 1.2347981e-38 366 282
0.062958695 0.764 -0.056260962 1.1887005e-38 367 282
0.064298242 0.764 -0.056260962 1.1057269e-38 368 282
0.065895528 0.76700002 -0.056481879 1.0319704e-38 369 282
0.067240335 0.76700002 -0.056481879 8.4790692e-39 370 282
0.068585135 0.76700002 -0.056481879 8.5712663e-39 371 282
-0.10489491 0.76700002 -0.057826683 1.0786125e-38 242 283
-0.1034151 0.76599997 -0.057751291 1.0602092e-38 243 283
-0.10207205 0.76599997 -0.057751291 1.0971201e-38 244 283
-0.10072899 0.76599997 -0.057751291 1.1616571e-38 245 283
-0.09938594 0.76599997 -0.057751291 1.2996965e-38 246 283
-0.09804289 0.76599997 -0.057751291 1.2996965e-38 247 283
-0.096447356 0.764 -0.057600506 1.3641238e-38 248 283
-0.09485884 0.76200002 -0.057449725 1.3733434e-38 249 283
-0.093522795 0.76200002 -0.057449725 1.4192973e-38 250 283
-0.092186764 0.76200002 -0.057449725 1.428517e-38 251 283
-0.090731487 0.76099998 -0.057374325 1.4652876e-38 252 283
-0.089397199 0.76099998 -0.057374325 1.4929103e-38 253 283
-0.087831482 0.759 -0.05722354 1.5021657e-38 254 283
-0.086500697 0.759 -0.05722354 1.520605e-38 255 283
-0.085169919 0.759 -0.05722354 1.5298243e-38 256 283
-0.083618224 0.75700003 -0.057072755 1.5574828e-38 257 283
-0.082290947 0.75700003 -0.057072755 1.5575553e-38 258 283
-0.080963671 0.75700003 -0.057072755 1.5944334e-38 259 283
-0.079636402 0.75700003 -0.057072755 1.5670268e-38 260 283
-0.078102231 0.755 -0.056921966 1.5854659e-38 261 283
-0.076778464 0.755 -0.056921966 1.6130525e-38 262 283
-0.075454697 0.755 -0.056921966 1.6314914e-38 263 283
-0.07413093 0.755 -0.056921966 1.6406754e-38 264 283
-0.07280717 0.755 -0.056921966 1.6406754e-38 265 283
-0.071388714 0.75400001 -0.056846574 1.6499306e-38 266 283
-0.070066705 0.75400001 -0.056846574 1.6499306e-38 267 283
-0.068835862 0.755 -0.056921966 1.6682971e-38 268 283
-0.067512102 0.755 -0.056921966 1.649894e-38 269 283
-0.066100664 0.75400001 -0.056846574 1.6682605e-38 270 283
-0.064778648 0.75400001 -0.056846574 1.6682605e-38 271 283
-0.06345664 0.75400001 -0.056846574 1.6590404e-38 272 283
-0.062217031 0.755 -0.056921966 1.6590404e-38 273 283
-0.060893264 0.755 -0.056921966 1.6682587e-38 274 283
-0.059490599 0.75400001 -0.056846574 1.6682587e-38 275 283
-0.058168583 0.75400001 -0.056846574 1.6865899e-38 276 283
-0.056921966 0.755 -0.056921966 1.6773704e-38 277 283
-0.055598196 0.755 -0.056921966 1.6497843e-38 278 283
-0.054274432 0.755 -0.056921966 1.6405646e-38 279 283
-0.052880533 0.75400001 -0.056846574 1.6405646e-38 280 283
-0.051558517 0.75400001 -0.056846574 1.6405646e-38 281 283
-0.050236505 0.75400001 -0.056846574 1.6221629e-38 282 283
-0.048914492 0.75400001 -0.056846574 1.6313824e-38 283 283
-0.04759248 0.75400001 -0.056846574 1.6312768e-38 284 283
-0.046270464 0.75400001 -0.056846574 1.6220572e-38 285 283
-0.044948451 0.75400001 -0.056846574 1.585323e-38 286 283
-0.043626439 0.75400001 -0.056846574 1.5761034e-38 287 283
-0.04219221 0.75199997 -0.056695782 1.5945433e-38 288 283
-0.040873703 0.75199997 -0.056695782 1.6037628e-38 289 283
-0.039555199 0.75199997 -0.056695782 1.5853976e-38 290 283
-0.038135 0.75 -0.056544997 1.6222758e-38 291 283
-0.036819998 0.75 -0.056544997 1.6223855e-38 292 283
-0.035505001 0.75 -0.056544997 1.6408248e-38 293 283
-0.034189999 0.75 -0.056544997 1.6868884e-38 294 283
-0.032874998 0.75 -0.056544997 1.6961081e-38 295 283
-0.026440267 0.75400001 -0.056846574 1.6873248e-38 300 283
-0.025118252 0.75400001 -0.056846574 2.2036203e-38 301 283
-0.022414612 0.75199997 -0.056695782 2.3229357e-38 303 283
-0.021096105 0.75199997 -0.056695782 2.3509886e-38 304 283
-0.019830201 0.75400001 -0.056846574 2.3326212e-38 305 283
-0.018508185 0.75400001 -0.056846574 2.1283498e-38 306 283
-0.017186172 0.75400001 -0.056846574 1.9255193e-38 307 283
-0.01586416 0.75400001 -0.056846574 1.7239491e-38 308 283
0.0039555198 0.75199997 -0.056695782 1.6404984e-38 323 283
0.0052740262 0.75199997 -0.056695782 1.6588647e-38 324 283
0.0066100666 0.75400001 -0.056846574 1.6773398e-38 325 283
0.0079425992 0.755 -0.056921966 1.704961e-38 326 283
0.0092663663 0.755 -0.056921966 1.6865217e-38 327 283
0.010590133 0.755 -0.056921966 1.695776e-38 328 283
0.011913899 0.755 -0.056921966 1.695776e-38 329 283
0.013237666 0.755 -0.056921966 1.704959e-38 330 283
0.014542146 0.75400001 -0.056846574 1.6957394e-38 331 283
0.01586416 0.75400001 -0.056846574 1.6957745e-38 332 283
0.017208965 0.755 -0.056921966 1.6865549e-38 333 283
0.018532733 0.755 -0.056921966 1.6865902e-38 334 283
0.0198565 0.755 -0.056921966 1.6865902e-38 335 283
0.021180267 0.755 -0.056921966 1.6773353e-38 336 283
0.022504034 0.755 -0.056921966 1.6681158e-38 337 283
0.023827799 0.755 -0.056921966 1.686375e-38 338 283
0.025151566 0.755 -0.056921966 1.6587523e-38 339 283
0.026475333 0.755 -0.056921966 1.6035065e-38 340 283
0.027762281 0.75400001 -0.056846574 1.4744328e-38 341 283
0.029084291 0.75400001 -0.056846574 1.4373397e-38 342 283
0.030406307 0.75400001 -0.056846574 1.4189005e-38 343 283
0.03172832 0.75400001 -0.056846574 1.4555995e-38 344 283
0.033050332 0.75400001 -0.056846574 1.4371604e-38 345 283
0.034372345 0.75400001 -0.056846574 1.4187209e-38 346 283
0.035694357 0.75400001 -0.056846574 1.4371601e-38 347 283
0.037016369 0.75400001 -0.056846574 1.483474e-38 348 283
0.038338386 0.75400001 -0.056846574 1.5572306e-38 349 283
0.039660402 0.75400001 -0.056846574 1.5207117e-38 350 283
0.040982414 0.75400001 -0.056846574 1.493089e-38 351 283
0.042304426 0.75400001 -0.056846574 1.5114558e-38 352 283
0.043684296 0.755 -0.056921966 1.5114558e-38 353 283
0.045008067 0.755 -0.056921966 1.5022008e-38 354 283
0.04633183 0.755 -0.056921966 1.4745422e-38 355 283
0.047655597 0.755 -0.056921966 1.4744343e-38 356 283
0.049109112 0.75700003 -0.057072755 1.437592e-38 357 283
0.050436385 0.75700003 -0.057072755 1.4190804e-38 358 283
0.051900417 0.759 -0.05722354 1.382202e-38 359 283
0.053231198 0.759 -0.05722354 1.317845e-38 360 283
0.05470575 0.76099998 -0.057374325 1.3086253e-38 361 283
0.056040037 0.76099998 -0.057374325 1.2993351e-38 362 283
0.057374325 0.76099998 -0.057374325 1.262457e-38 363 283
0.058785759 0.76200002 -0.057449725 1.2531655e-38 364 283
0.060121801 0.76200002 -0.057449725 1.2347263e-38 365 283
0.061457843 0.76200002 -0.057449725 1.207032e-38 366 283
0.062793881 0.76200002 -0.057449725 1.142495e-38 367 283
0.064298242 0.764 -0.057600506 1.0136758e-38 368 283
0.066067353 0.76899999 -0.057977475 9.767615e-39 369 283
0.067591004 0.77100003 -0.058128256 9.1237324e-39 370 283
0.069211073 0.77399999 -0.058354434 9.7691018e-39 371 283
-0.1034151 0.76599997 -0.059094343 1.0602104e-38 243 284
-0.10207205 0.76599997 -0.059094343 1.1061603e-38 244 284
-0.10072899 0.76599997 -0.059094343 1.1061603e-38 245 284
-0.099126451 0.764 -0.058940053 1.1892418e-38 246 284
-0.097786903 0.764 -0.058940053 1.2353396e-38 247 284
-0.096447356 0.764 -0.058940053 1.3272459e-38 248 284
-0.09485884 0.76200002 -0.058785759 1.3272459e-38 249 284
-0.093522795 0.76200002 -0.058785759 1.3916027e-38 250 284
-0.092065774 0.76099998 -0.058708608 1.4008223e-38 251 284
-0.090731487 0.76099998 -0.058708608 1.4376285e-38 252 284
-0.089397199 0.76099998 -0.058708608 1.4652874e-38 253 284
-0.087831482 0.759 -0.058554318 1.4745428e-38 254 284
-0.086500697 0.759 -0.058554318 1.5021655e-38 255 284
-0.085169919 0.759 -0.058554318 1.5113849e-38 256 284
-0.083618224 0.75700003 -0.058400027 1.5298599e-38 257 284
-0.082290947 0.75700003 -0.058400027 1.5208201e-38 258 284
-0.080963671 0.75700003 -0.058400027 1.5484429e-38 259 284
-0.079425998 0.755 -0.058245733 1.5485155e-38 260 284
-0.078102231 0.755 -0.058245733 1.5669545e-38 261 284
-0.076778464 0.755 -0.058245733 1.6037249e-38 262 284
-0.075354755 0.75400001 -0.058168583 1.6129446e-38 263 284
-0.074032739 0.75400001 -0.058168583 1.6314196e-38 264 284
-0.07271073 0.75400001 -0.058168583 1.6406391e-38 265 284
-0.071388714 0.75400001 -0.058168583 1.6406391e-38 266 284
-0.070066705 0.75400001 -0.058168583 1.6498587e-38 267 284
-0.068744689 0.75400001 -0.058168583 1.6682255e-38 268 284
-0.067422673 0.75400001 -0.058168583 1.6589701e-38 269 284
-0.066100664 0.75400001 -0.058168583 1.6590057e-38 270 284
-0.064778648 0.75400001 -0.058168583 1.6590057e-38 271 284
-0.06345664 0.75400001 -0.058168583 1.6590407e-38 272 284
-0.062134624 0.75400001 -0.058168583 1.6590407e-38 273 284
-0.060893264 0.755 -0.058245733 1.6866265e-38 274 284
-0.059490599 0.75400001 -0.058168583 1.6958819e-38 275 284
-0.058168583 0.75400001 -0.058168583 1.6958817e-38 276 284
-0.056846574 0.75400001 -0.058168583 1.6866621e-38 277 284
-0.055598196 0.755 -0.058245733 1.6682234e-38 278 284
-0.054274432 0.755 -0.058245733 1.6590038e-38 279 284
-0.052880533 0.75400001 -0.058168583 1.6498562e-38 280 284
-0.051558517 0.75400001 -0.058168583 1.6498562e-38 281 284
-0.050236505 0.75400001 -0.058168583 1.6498211e-38 282 284
-0.048914492 0.75400001 -0.058168583 1.6590407e-38 283 284
-0.04759248 0.75400001 -0.058168583 1.6314193e-38 284 284
-0.046270464 0.75400001 -0.058168583 1.6314193e-38 285 284
-0.044948451 0.75400001 -0.058168583 1.6037955e-38 286 284
-0.04351072 0.75199997 -0.058014289 1.6037955e-38 287 284
-0.04219221 0.75199997 -0.058014289 1.6130149e-38 288 284
-0.040764999 0.75 -0.057859998 1.6037952e-38 289 284
-0.039449997 0.75 -0.057859998 1.6221278e-38 290 284
-0.038135 0.75 -0.057859998 1.6313474e-38 291 284
-0.036770906 0.74900001 -0.057782855 1.6589e-38 292 284
-0.03545766 0.74900001 -0.057782855 1.6681196e-38 293 284
-0.034144413 0.74900001 -0.057782855 1.6498622e-38 294 284
-0.032874998 0.75 -0.057859998 1.6498622e-38 295 284
-0.031644158 0.75199997 -0.058014289 1.6497913e-38 296 284
-0.030325651 0.75199997 -0.058014289 1.6590467e-38 297 284
-0.029007144 0.75199997 -0.058014289 1.6406449e-38 298 284
-0.027688639 0.75199997 -0.058014289 1.6129503e-38 299 284
-0.026440267 0.75400001 -0.058168583 1.6037348e-38 300 284
-0.025118252 0.75400001 -0.058168583 1.8065652e-38 301 284
-0.02379624 0.75400001 -0.058168583 1.8523055e-38 302 284
-0.022414612 0.75199997 -0.058014289 1.7048285e-38 303 284
-0.021096105 0.75199997 -0.058014289 1.7607551e-38 304 284
-0.019830201 0.75400001 -0.058168583 1.8713539e-38 305 284
-0.018508185 0.75400001 -0.058168583 1.8335019e-38 306 284
-0.017186172 0.75400001 -0.058168583 1.7597096e-38 307 284
-0.01586416 0.75400001 -0.058168583 1.6866708e-38 308 284
-0.014542146 0.75400001 -0.058168583 1.6774152e-38 309 284
-0.0013132467 0.74900001 -0.057782855 1.6590452e-38 319 284
0 0.74900001 -0.057782855 1.6681919e-38 320 284
0.0013132467 0.74900001 -0.057782855 1.6497886e-38 321 284
0.00263 0.75 -0.057859998 1.668118e-38 322 284
0.003945 0.75 -0.057859998 1.668118e-38 323 284
0.0052740262 0.75199997 -0.058014289 1.6681533e-38 324 284
0.0065925326 0.75199997 -0.058014289 1.695776e-38 325 284
0.0079110395 0.75199997 -0.058014289 1.6774448e-38 326 284
0.0092540924 0.75400001 -0.058168583 1.6774448e-38 327 284
0.010576107 0.75400001 -0.058168583 1.6958113e-38 328 284
0.01189812 0.75400001 -0.058168583 1.6958113e-38 329 284
0.013220133 0.75400001 -0.058168583 1.695811e-38 330 284
0.014503572 0.75199997 -0.058014289 1.695811e-38 331 284
0.015822079 0.75199997 -0.058014289 1.6958819e-38 332 284
0.017186172 0.75400001 -0.058168583 1.6866265e-38 333 284
0.018508185 0.75400001 -0.058168583 1.6866621e-38 334 284
0.019830201 0.75400001 -0.058168583 1.668259e-38 335 284
0.021152213 0.75400001 -0.058168583 1.6773356e-38 336 284
0.022474226 0.75400001 -0.058168583 1.6680802e-38 337 284
0.02379624 0.75400001 -0.058168583 1.6587533e-38 338 284
0.025118252 0.75400001 -0.058168583 1.6403142e-38 339 284
0.026440267 0.75400001 -0.058168583 1.5666653e-38 340 284
0.027762281 0.75400001 -0.058168583 1.4376273e-38 341 284
0.029084291 0.75400001 -0.058168583 1.4648914e-38 342 284
0.030406307 0.75400001 -0.058168583 1.4556359e-38 343 284
0.03172832 0.75400001 -0.058168583 1.4281217e-38 344 284
0.033050332 0.75400001 -0.058168583 1.4465967e-38 345 284
0.034372345 0.75400001 -0.058168583 1.4558516e-38 346 284
0.035599679 0.75199997 -0.058014289 1.492694e-38 347 284
0.036918186 0.75199997 -0.058014289 1.5114558e-38 348 284
0.038236689 0.75199997 -0.058014289 1.5114558e-38 349 284
0.039660402 0.75400001 -0.058168583 1.4839043e-38 350 284
0.040982414 0.75400001 -0.058168583 1.4839043e-38 351 284
0.042304426 0.75400001 -0.058168583 1.4929091e-38 352 284
0.043684296 0.755 -0.058245733 1.4929091e-38 353 284
0.045008067 0.755 -0.058245733 1.4652145e-38 354 284
0.04633183 0.755 -0.058245733 1.4375917e-38 355 284
0.047655597 0.755 -0.058245733 1.4283718e-38 356 284
0.048979364 0.755 -0.058245733 1.3823099e-38 357 284
0.050436385 0.75700003 -0.058400027 1.3729821e-38 358 284
0.051763661 0.75700003 -0.058400027 1.3361039e-38 359 284
0.053231198 0.759 -0.058554318 1.3177729e-38 360 284
0.054561976 0.759 -0.058554318 1.2900784e-38 361 284
0.056040037 0.76099998 -0.058708608 1.2715686e-38 362 284
0.057374325 0.76099998 -0.058708608 1.2439458e-38 363 284
0.058708608 0.76099998 -0.058708608 1.2070323e-38 364 284
0.060042895 0.76099998 -0.058708608 1.1793736e-38 365 284
0.061457843 0.76200002 -0.058785759 1.1516077e-38 366 284
0.062793881 0.76200002 -0.058785759 1.0594119e-38 367 284
0.064298242 0.764 -0.058940053 9.6757949e-39 368 284
0.065895528 0.76700002 -0.059171494 9.5835993e-39 369 284
0.067766331 0.773 -0.059634373 9.2180986e-39 370 284
-0.1034151 0.76599997 -0.060437392 1.0786866e-38 243 285
-0.10180555 0.764 -0.0602796 1.1152744e-38 244 285
-0.100203 0.76200002 -0.060121801 1.0876156e-38 245 285
-0.098866954 0.76200002 -0.060121801 1.10634e-38 246 285
-0.097786903 0.764 -0.0602796 1.1616574e-38 247 285
-0.096447356 0.764 -0.0602796 1.2811497e-38 248 285
-0.09485884 0.76200002 -0.060121801 1.2904052e-38 249 285
-0.093522795 0.76200002 -0.060121801 1.3088797e-38 250 285
-0.092065774 0.76099998 -0.060042895 1.3365024e-38 251 285
-0.090731487 0.76099998 -0.060042895 1.3732728e-38 252 285
-0.089397199 0.76099998 -0.060042895 1.3917479e-38 253 285
-0.087831482 0.759 -0.059885096 1.4192987e-38 254 285
-0.086500697 0.759 -0.059885096 1.4469933e-38 255 285
-0.085169919 0.759 -0.059885096 1.4470652e-38 256 285
-0.083618224 0.75700003 -0.059727304 1.4562849e-38 257 285
-0.082290947 0.75700003 -0.059727304 1.4930552e-38 258 285
-0.080963671 0.75700003 -0.059727304 1.5115302e-38 259 285
-0.079320803 0.75400001 -0.059490599 1.5024904e-38 260 285
-0.077998787 0.75400001 -0.059490599 1.5208937e-38 261 285
-0.076676771 0.75400001 -0.059490599 1.5851788e-38 262 285
-0.075354755 0.75400001 -0.059490599 1.6036179e-38 263 285
-0.074032739 0.75400001 -0.059490599 1.6036898e-38 264 285
-0.072517857 0.75199997 -0.059332799 1.6221291e-38 265 285
-0.071199358 0.75199997 -0.059332799 1.6221291e-38 266 285
-0.069880851 0.75199997 -0.059332799 1.6313487e-38 267 285
-0.068744689 0.75400001 -0.059490599 1.6313487e-38 268 285
-0.067422673 0.75400001 -0.059490599 1.6313487e-38 269 285
-0.066100664 0.75400001 -0.059490599 1.6497152e-38 270 285
-0.064778648 0.75400001 -0.059490599 1.6497152e-38 271 285
-0.06345664 0.75400001 -0.059490599 1.6590057e-38 272 285
-0.062134624 0.75400001 -0.059490599 1.6682252e-38 273 285
-0.060812615 0.75400001 -0.059490599 1.6865915e-38 274 285
-0.059490599 0.75400001 -0.059490599 1.7050665e-38 275 285
-0.058168583 0.75400001 -0.059490599 1.6867347e-38 276 285
-0.056846574 0.75400001 -0.059490599 1.6775151e-38 277 285
-0.055524562 0.75400001 -0.059490599 1.6958814e-38 278 285
-0.054202545 0.75400001 -0.059490599 1.6866618e-38 279 285
-0.052880533 0.75400001 -0.059490599 1.6866618e-38 280 285
-0.051558517 0.75400001 -0.059490599 1.6866618e-38 281 285
-0.050236505 0.75400001 -0.059490599 1.6958819e-38 282 285
-0.048914492 0.75400001 -0.059490599 1.6866265e-38 283 285
-0.04759248 0.75400001 -0.059490599 1.6682234e-38 284 285
-0.04614773 0.75199997 -0.059332799 1.6682234e-38 285 285
-0.044829223 0.75199997 -0.059332799 1.6773707e-38 286 285
-0.04351072 0.75199997 -0.059332799 1.6773707e-38 287 285
-0.04219221 0.75199997 -0.059332799 1.6590038e-38 288 285
-0.040764999 0.75 -0.059175 1.6590038e-38 289 285
-0.039449997 0.75 -0.059175 1.6773003e-38 290 285
-0.038135 0.75 -0.059175 1.6865199e-38 291 285
-0.036770906 0.74900001 -0.059096102 1.6681886e-38 292 285
-0.03545766 0.74900001 -0.059096102 1.6589691e-38 293 285
-0.034144413 0.74900001 -0.059096102 1.6313094e-38 294 285
-0.032831166 0.74900001 -0.059096102 1.6036867e-38 295 285
-0.03156 0.75 -0.059175 1.6220545e-38 296 285
-0.030325651 0.75199997 -0.059332799 1.6312741e-38 297 285
-0.029007144 0.75199997 -0.059332799 1.6220195e-38 298 285
-0.027688639 0.75199997 -0.059332799 1.6036164e-38 299 285
-0.02637013 0.75199997 -0.059332799 1.6034732e-38 300 285
-0.025051624 0.75199997 -0.059332799 1.5481558e-38 301 285
-0.023733119 0.75199997 -0.059332799 1.4928384e-38 302 285
-0.022414612 0.75199997 -0.059332799 1.4928384e-38 303 285
-0.021096105 0.75199997 -0.059332799 1.483906e-38 304 285
-0.019830201 0.75400001 -0.059490599 1.5116006e-38 305 285
-0.018508185 0.75400001 -0.059490599 1.5942163e-38 306 285
-0.017186172 0.75400001 -0.059490599 1.6495337e-38 307 285
-0.015822079 0.75199997 -0.059332799 1.6220548e-38 308 285
-0.014503572 0.75199997 -0.059332799 1.6404941e-38 309 285
-0.013185065 0.75199997 -0.059332799 1.6497139e-38 310 285
-0.011866559 0.75199997 -0.059332799 1.6497139e-38 311 285
-0.003945 0.75 -0.059175 1.6588982e-38 317 285
-0.0026264933 0.74900001 -0.059096102 1.6681546e-38 318 285
-0.0013132467 0.74900001 -0.059096102 1.6866297e-38 319 285
0 0.74900001 -0.059096102 1.6773747e-38 320 285
0.0013132467 0.74900001 -0.059096102 1.6773747e-38 321 285
0.00263 0.75 -0.059175 1.6865211e-38 322 285
0.003945 0.75 -0.059175 1.6957407e-38 323 285
0.0052740262 0.75199997 -0.059332799 1.6957763e-38 324 285
0.0065925326 0.75199997 -0.059332799 1.6957763e-38 325 285
0.0079110395 0.75199997 -0.059332799 1.695776e-38 326 285
0.0092295464 0.75199997 -0.059332799 1.695776e-38 327 285
0.010576107 0.75400001 -0.059490599 1.6958466e-38 328 285
0.011866559 0.75199997 -0.059332799 1.6958466e-38 329 285
0.013185065 0.75199997 -0.059332799 1.6957745e-38 330 285
0.014503572 0.75199997 -0.059332799 1.6957745e-38 331 285
0.015822079 0.75199997 -0.059332799 1.6866268e-38 332 285
0.017140586 0.75199997 -0.059332799 1.6866268e-38 333 285
0.018508185 0.75400001 -0.059490599 1.6590404e-38 334 285
0.019830201 0.75400001 -0.059490599 1.6590404e-38 335 285
0.021096105 0.75199997 -0.059332799 1.6589335e-38 336 285
0.022414612 0.75199997 -0.059332799 1.6404944e-38 337 285
0.023733119 0.75199997 -0.059332799 1.649534e-38 338 285
0.025051624 0.75199997 -0.059332799 1.6126559e-38 339 285
0.026440267 0.75400001 -0.059490599 1.5481893e-38 340 285
0.027688639 0.75199997 -0.059332799 1.4836524e-38 341 285
0.029007144 0.75199997 -0.059332799 1.5109519e-38 342 285
0.030325651 0.75199997 -0.059332799 1.5017323e-38 343 285
0.031644158 0.75199997 -0.059332799 1.4558863e-38 344 285
0.032962665 0.75199997 -0.059332799 1.4651059e-38 345 285
0.034281172 0.75199997 -0.059332799 1.4837951e-38 346 285
0.035599679 0.75199997 -0.059332799 1.5022343e-38 347 285
0.036918186 0.75199997 -0.059332799 1.4840115e-38 348 285
0.038236689 0.75199997 -0.059332799 1.456353e-38 349 285
0.039555199 0.75199997 -0.059332799 1.4654299e-38 350 285
0.040873703 0.75199997 -0.059332799 1.4562103e-38 351 285
0.042304426 0.75400001 -0.059490599 1.4560678e-38 352 285
0.043626439 0.75400001 -0.059490599 1.428409e-38 353 285
0.044948451 0.75400001 -0.059490599 1.4374116e-38 354 285
0.04633183 0.755 -0.059569497 1.4189723e-38 355 285
0.047655597 0.755 -0.059569497 1.3639068e-38 356 285
0.048979364 0.755 -0.059569497 1.3362841e-38 357 285
0.050303131 0.755 -0.059569497 1.3085546e-38 358 285
0.051763661 0.75700003 -0.059727304 1.2901155e-38 359 285
0.053231198 0.759 -0.059885096 1.2624573e-38 360 285
0.054561976 0.759 -0.059885096 1.2440181e-38 361 285
0.056040037 0.76099998 -0.060042895 1.2071048e-38 362 285
0.057374325 0.76099998 -0.060042895 1.1886657e-38 363 285
0.058708608 0.76099998 -0.060042895 1.1609713e-38 364 285
0.060042895 0.76099998 -0.060042895 1.1056539e-38 365 285
0.061457843 0.76200002 -0.060121801 1.0961846e-38 366 285
0.062793881 0.76200002 -0.060121801 1.0500867e-38 367 285
0.064129919 0.76200002 -0.060121801 9.3073978e-39 368 285
0.065895528 0.76700002 -0.060516298 9.3073978e-39 369 285
-0.10180555 0.764 -0.061619148 1.0787204e-38 244 286
-0.100203 0.76200002 -0.061457843 9.8648876e-39 245 286
-0.098866954 0.76200002 -0.061457843 1.1426062e-38 246 286
-0.097786903 0.764 -0.061619148 1.1610453e-38 247 286
-0.096447356 0.764 -0.061619148 1.2441995e-38 248 286
-0.09485884 0.76200002 -0.061457843 1.2626387e-38 249 286
-0.093522795 0.76200002 -0.061457843 1.3270305e-38 250 286
-0.092065774 0.76099998 -0.061377186 1.3455055e-38 251 286
-0.090731487 0.76099998 -0.061377186 1.3639803e-38 252 286
-0.089397199 0.76099998 -0.061377186 1.3823835e-38 253 286
-0.087831482 0.759 -0.061215881 1.4098977e-38 254 286
-0.086500697 0.759 -0.061215881 1.4283368e-38 255 286
-0.085169919 0.759 -0.061215881 1.4468112e-38 256 286
-0.083618224 0.75700003 -0.061054576 1.4744699e-38 257 286
-0.082073532 0.755 -0.060893264 1.4745428e-38 258 286
-0.080642812 0.75400001 -0.060812615 1.5113852e-38 259 286
-0.079320803 0.75400001 -0.060812615 1.5206413e-38 260 286
-0.077998787 0.75400001 -0.060812615 1.5298967e-38 261 286
-0.076676771 0.75400001 -0.060812615 1.5666658e-38 262 286
-0.075354755 0.75400001 -0.060812615 1.5942887e-38 263 286
-0.073836371 0.75199997 -0.060651302 1.6127281e-38 264 286
-0.072517857 0.75199997 -0.060651302 1.6219476e-38 265 286
-0.071199358 0.75199997 -0.060651302 1.6220198e-38 266 286
-0.069880851 0.75199997 -0.060651302 1.6312394e-38 267 286
-0.068562344 0.75199997 -0.060651302 1.6403873e-38 268 286
-0.067243837 0.75199997 -0.060651302 1.6403873e-38 269 286
-0.06592533 0.75199997 -0.060651302 1.6496789e-38 270 286
-0.064606823 0.75199997 -0.060651302 1.6496789e-38 271 286
-0.06345664 0.75400001 -0.060812615 1.6681531e-38 272 286
-0.062134624 0.75400001 -0.060812615 1.6681531e-38 273 286
-0.060812615 0.75400001 -0.060812615 1.7050665e-38 274 286
-0.059332799 0.75199997 -0.060651302 1.7050665e-38 275 286
-0.058014289 0.75199997 -0.060651302 1.6867714e-38 276 286
-0.056695782 0.75199997 -0.060651302 1.6867714e-38 277 286
-0.055377278 0.75199997 -0.060651302 1.695955e-38 278 286
-0.054058768 0.75199997 -0.060651302 1.6774798e-38 279 286
-0.052740261 0.75199997 -0.060651302 1.7050659e-38 280 286
-0.051421758 0.75199997 -0.060651302 1.7050659e-38 281 286
-0.050103247 0.75199997 -0.060651302 1.6867347e-38 282 286
-0.048784744 0.75199997 -0.060651302 1.6867347e-38 283 286
-0.047466237 0.75199997 -0.060651302 1.686735e-38 284 286
-0.04614773 0.75199997 -0.060651302 1.6775154e-38 285 286
-0.044829223 0.75199997 -0.060651302 1.6866268e-38 286 286
-0.04351072 0.75199997 -0.060651302 1.6958464e-38 287 286
-0.04208 0.75 -0.060489997 1.6682953e-38 288 286
-0.040764999 0.75 -0.060489997 1.6682953e-38 289 286
-0.039449997 0.75 -0.060489997 1.659076e-38 290 286
-0.038135 0.75 -0.060489997 1.6682956e-38 291 286
-0.036770906 0.74900001 -0.060409348 1.6499643e-38 292 286
-0.03545766 0.74900001 -0.060409348 1.6314893e-38 293 286
-0.034144413 0.74900001 -0.060409348 1.631453e-38 294 286
-0.032831166 0.74900001 -0.060409348 1.6222333e-38 295 286
-0.03156 0.75 -0.060489997 1.6314175e-38 296 286
-0.030325651 0.75199997 -0.060651302 1.6314175e-38 297 286
-0.029007144 0.75199997 -0.060651302 1.649749e-38 298 286
-0.027688639 0.75199997 -0.060651302 1.649749e-38 299 286
-0.02637013 0.75199997 -0.060651302 1.6588253e-38 300 286
-0.025051624 0.75199997 -0.060651302 1.6588253e-38 301 286
-0.023733119 0.75199997 -0.060651302 1.6404944e-38 302 286
-0.022414612 0.75199997 -0.060651302 1.6404944e-38 303 286
-0.021096105 0.75199997 -0.060651302 1.6497136e-38 304 286
-0.019830201 0.75400001 -0.060812615 1.6497136e-38 305 286
-0.018508185 0.75400001 -0.060812615 1.6681158e-38 306 286
-0.017186172 0.75400001 -0.060812615 1.6681158e-38 307 286
-0.015822079 0.75199997 -0.060651302 1.6497846e-38 308 286
-0.014503572 0.75199997 -0.060651302 1.6682237e-38 309 286
-0.013185065 0.75199997 -0.060651302 1.6681881e-38 310 286
-0.011866559 0.75199997 -0.060651302 1.6681881e-38 311 286
-0.010548052 0.75199997 -0.060651302 1.6681886e-38 312 286
-0.0092295464 0.75199997 -0.060651302 1.6681886e-38 313 286
-0.0079110395 0.75199997 -0.060651302 1.6590054e-38 314 286
-0.006575 0.75 -0.060489997 1.6590054e-38 315 286
-0.00526 0.75 -0.060489997 1.6865918e-38 316 286
-0.003945 0.75 -0.060489997 1.6681886e-38 317 286
-0.0026264933 0.74900001 -0.060409348 1.6682603e-38 318 286
-0.0013132467 0.74900001 -0.060409348 1.6682603e-38 319 286
0 0.74900001 -0.060409348 1.6865562e-38 320 286
0.0013132467 0.74900001 -0.060409348 1.6865562e-38 321 286
0.00263 0.75 -0.060489997 1.6958116e-38 322 286
0.0039555198 0.75199997 -0.060651302 1.6958116e-38 323 286
0.0052740262 0.75199997 -0.060651302 1.6957392e-38 324 286
0.0065925326 0.75199997 -0.060651302 1.6957392e-38 325 286
0.0079110395 0.75199997 -0.060651302 1.6865918e-38 326 286
0.0092295464 0.75199997 -0.060651302 1.6865918e-38 327 286
0.010548052 0.75199997 -0.060651302 1.6958466e-38 328 286
0.011835 0.75 -0.060489997 1.6958466e-38 329 286
0.01315 0.75 -0.060489997 1.6866271e-38 330 286
0.014465 0.75 -0.060489997 1.6866271e-38 331 286
0.01578 0.75 -0.060489997 1.6865918e-38 332 286
0.017140586 0.75199997 -0.060651302 1.6681886e-38 333 286
0.018459093 0.75199997 -0.060651302 1.6681531e-38 334 286
0.0197776 0.75199997 -0.060651302 1.6497139e-38 335 286
0.021096105 0.75199997 -0.060651302 1.6587906e-38 336 286
0.022414612 0.75199997 -0.060651302 1.6311677e-38 337 286
0.023733119 0.75199997 -0.060651302 1.6402794e-38 338 286
0.025051624 0.75199997 -0.060651302 1.6126209e-38 339 286
0.02637013 0.75199997 -0.060651302 1.5757772e-38 340 286
0.027688639 0.75199997 -0.060651302 1.538935e-38 341 286
0.029007144 0.75199997 -0.060651302 1.5571942e-38 342 286
0.030325651 0.75199997 -0.060651302 1.584817e-38 343 286
0.031644158 0.75199997 -0.060651302 1.5022005e-38 344 286
0.032874998 0.75 -0.060489997 1.4929809e-38 345 286
0.034189999 0.75 -0.060489997 1.4747566e-38 346 286
0.035599679 0.75199997 -0.060651302 1.4563535e-38 347 286
0.036819998 0.75 -0.060489997 1.4929797e-38 348 286
0.038135 0.75 -0.060489997 1.4745047e-38 349 286
0.039449997 0.75 -0.060489997 1.4652134e-38 350 286
0.040873703 0.75199997 -0.060651302 1.4467384e-38 351 286
0.042304426 0.75400001 -0.060812615 1.4557787e-38 352 286
0.043626439 0.75400001 -0.060812615 1.42812e-38 353 286
0.044948451 0.75400001 -0.060812615 1.3912415e-38 354 286
0.04633183 0.755 -0.060893264 1.3636187e-38 355 286
0.047655597 0.755 -0.060893264 1.3361039e-38 356 286
0.048979364 0.755 -0.060893264 1.3176648e-38 357 286
0.050303131 0.755 -0.060893264 1.3175576e-38 358 286
0.051763661 0.75700003 -0.061054576 1.2714956e-38 359 286
0.053231198 0.759 -0.061215881 1.2622758e-38 360 286
0.054561976 0.759 -0.061215881 1.2345812e-38 361 286
0.056040037 0.76099998 -0.061377186 1.2069231e-38 362 286
0.057374325 0.76099998 -0.061377186 1.1792644e-38 363 286
0.058708608 0.76099998 -0.061377186 1.1239486e-38 364 286
0.060042895 0.76099998 -0.061377186 1.0963259e-38 365 286
0.061377186 0.76099998 -0.061377186 1.0317918e-38 366 286
0.062793881 0.76200002 -0.061457843 1.0041691e-38 367 286
0.064129919 0.76200002 -0.061457843 8.6641836e-39 368 286
-0.100203 0.76200002 -0.062793881 1.0324797e-38 245 287
-0.098866954 0.76200002 -0.062793881 1.0691394e-38 246 287
-0.097786903 0.764 -0.062958695 1.0783591e-38 247 287
-0.096447356 0.764 -0.062958695 1.1061598e-38 248 287
-0.09485884 0.76200002 -0.062793881 1.1706967e-38 249 287
-0.093522795 0.76200002 -0.062793881 1.2902251e-38 250 287
-0.092065774 0.76099998 -0.06271147 1.3086642e-38 251 287
-0.090731487 0.76099998 -0.06271147 1.3087361e-38 252 287
-0.089397199 0.76099998 -0.06271147 1.3271754e-38 253 287
-0.087831482 0.759 -0.062546656 1.3271754e-38 254 287
-0.086500697 0.759 -0.062546656 1.3456504e-38 255 287
-0.084945492 0.75700003 -0.062381849 1.3732728e-38 256 287
-0.083618224 0.75700003 -0.062381849 1.3825282e-38 257 287
-0.081964828 0.75400001 -0.062134624 1.4009675e-38 258 287
-0.080642812 0.75400001 -0.062134624 1.4285902e-38 259 287
-0.079320803 0.75400001 -0.062134624 1.4286981e-38 260 287
-0.077998787 0.75400001 -0.062134624 1.4563567e-38 261 287
-0.076676771 0.75400001 -0.062134624 1.4839438e-38 262 287
-0.075354755 0.75400001 -0.062134624 1.5115665e-38 263 287
-0.073836371 0.75199997 -0.061969809 1.5207868e-38 264 287
-0.072517857 0.75199997 -0.061969809 1.5300063e-38 265 287
-0.071199358 0.75199997 -0.061969809 1.5759965e-38 266 287
-0.069880851 0.75199997 -0.061969809 1.5759965e-38 267 287
-0.068562344 0.75199997 -0.061969809 1.6036182e-38 268 287
-0.067243837 0.75199997 -0.061969809 1.6128378e-38 269 287
-0.06592533 0.75199997 -0.061969809 1.6129448e-38 270 287
-0.064606823 0.75199997 -0.061969809 1.6221644e-38 271 287
-0.063288316 0.75199997 -0.061969809 1.6590054e-38 272 287
-0.061969809 0.75199997 -0.061969809 1.6774445e-38 273 287
-0.060651302 0.75199997 -0.061969809 1.6592209e-38 274 287
-0.059175 0.75 -0.061804999 1.6684405e-38 275 287
-0.057859998 0.75 -0.061804999 1.6867714e-38 276 287
-0.056544997 0.75 -0.061804999 1.6867714e-38 277 287
-0.055229999 0.75 -0.061804999 1.7142859e-38 278 287
-0.053914998 0.75 -0.061804999 1.7050662e-38 279 287
-0.0526 0.75 -0.061804999 1.7051015e-38 280 287
-0.051421758 0.75199997 -0.061969809 1.7051015e-38 281 287
-0.050103247 0.75199997 -0.061969809 1.7051012e-38 282 287
-0.048784744 0.75199997 -0.061969809 1.7143209e-38 283 287
-0.047466237 0.75199997 -0.061969809 1.7234325e-38 284 287
-0.04614773 0.75199997 -0.061969809 1.7234325e-38 285 287
-0.044829223 0.75199997 -0.061969809 1.7326157e-38 286 287
-0.043394998 0.75 -0.061804999 1.7326157e-38 287 287
-0.04208 0.75 -0.061804999 1.7233962e-38 288 287
-0.040764999 0.75 -0.061804999 1.7233962e-38 289 287
-0.039449997 0.75 -0.061804999 1.7050293e-38 290 287
-0.038135 0.75 -0.061804999 1.6958098e-38 291 287
-0.036770906 0.74900001 -0.061722592 1.6866618e-38 292 287
-0.03545766 0.74900001 -0.061722592 1.6682587e-38 293 287
-0.034144413 0.74900001 -0.061722592 1.7049568e-38 294 287
-0.032831166 0.74900001 -0.061722592 1.6772982e-38 295 287
-0.03156 0.75 -0.061804999 1.6773707e-38 296 287
-0.030244999 0.75 -0.061804999 1.6773707e-38 297 287
-0.029007144 0.75199997 -0.061969809 1.6773353e-38 298 287
-0.027688639 0.75199997 -0.061969809 1.6681158e-38 299 287
-0.02637013 0.75199997 -0.061969809 1.6773e-38 300 287
-0.025051624 0.75199997 -0.061969809 1.6773e-38 301 287
-0.023669999 0.75 -0.061804999 1.6773e-38 302 287
-0.022355 0.75 -0.061804999 1.6865196e-38 303 287
-0.02104 0.75 -0.061804999 1.6681881e-38 304 287
-0.0197776 0.75199997 -0.061969809 1.6589685e-38 305 287
-0.018459093 0.75199997 -0.061969809 1.6865552e-38 306 287
-0.017140586 0.75199997 -0.061969809 1.6865552e-38 307 287
-0.015822079 0.75199997 -0.061969809 1.6865549e-38 308 287
-0.014465 0.75 -0.061804999 1.6865549e-38 309 287
-0.01315 0.75 -0.061804999 1.6865549e-38 310 287
-0.011866559 0.75199997 -0.061969809 1.6865549e-38 311 287
-0.010548052 0.75199997 -0.061969809 1.6681886e-38 312 287
-0.0092295464 0.75199997 -0.061969809 1.6865918e-38 313 287
-0.0079110395 0.75199997 -0.061969809 1.6865562e-38 314 287
-0.006575 0.75 -0.061804999 1.6681531e-38 315 287
-0.00526 0.75 -0.061804999 1.6681881e-38 316 287
-0.003945 0.75 -0.061804999 1.6866271e-38 317 287
-0.00263 0.75 -0.061804999 1.6866271e-38 318 287
-0.001315 0.75 -0.061804999 1.6866271e-38 319 287
0 0.75 -0.061804999 1.6957394e-38 320 287
0.001315 0.75 -0.061804999 1.6957394e-38 321 287
0.00263 0.75 -0.061804999 1.6957394e-38 322 287
0.003945 0.75 -0.061804999 1.6957394e-38 323 287
0.00526 0.75 -0.061804999 1.6865918e-38 324 287
0.006575 0.75 -0.061804999 1.6865918e-38 325 287
0.00789 0.75 -0.061804999 1.6958113e-38 326 287
0.0092049995 0.75 -0.061804999 1.6865918e-38 327 287
0.01052 0.75 -0.061804999 1.7049943e-38 328 287
0.011835 0.75 -0.061804999 1.6957748e-38 329 287
0.01315 0.75 -0.061804999 1.6957748e-38 330 287
0.014465 0.75 -0.061804999 1.6957748e-38 331 287
0.01578 0.75 -0.061804999 1.6681531e-38 332 287
0.017095 0.75 -0.061804999 1.6681531e-38 333 287
0.018409999 0.75 -0.061804999 1.6497142e-38 334 287
0.0197776 0.75199997 -0.061969809 1.6404588e-38 335 287
0.02104 0.75 -0.061804999 1.6403873e-38 336 287
0.022355 0.75 -0.061804999 1.6219123e-38 337 287
0.023669999 0.75 -0.061804999 1.6127283e-38 338 287
0.024984999 0.75 -0.061804999 1.5758501e-38 339 287
0.02637013 0.75199997 -0.061969809 1.5941801e-38 340 287
0.027615 0.75 -0.061804999 1.5757409e-38 341 287
0.028929999 0.75 -0.061804999 1.5389696e-38 342 287
0.030244999 0.75 -0.061804999 1.5389696e-38 343 287
0.03156 0.75 -0.061804999 1.5021639e-38 344 287
0.032874998 0.75 -0.061804999 1.4929444e-38 345 287
0.034189999 0.75 -0.061804999 1.465323e-38 346 287
