# .PCD v.7 - Point Cloud Data file format
FIELDS x y z rgb imX imY
SIZE 4 4 4 4 4 4
TYPE F F F F F F
COUNT 1 1 1 1 1 1
WIDTH 833
HEIGHT 1
VIEWPOINT 0 0 0 1 0 0 0
POINTS 833
DATA ascii
0.0568606 0.69 -0.0447626 1.207721e-38 367 277
0.058154557 0.69099998 -0.044827472 1.0792984e-38 368 277
-0.0045867199 0.65399998 -0.043573838 1.7971193e-38 316 278
-0.0034400397 0.65399998 -0.043573838 1.8063389e-38 317 278
-0.00229336 0.65399998 -0.043573838 1.8523631e-38 318 278
-0.0011449266 0.653 -0.043507211 1.8707662e-38 319 278
0 0.65200001 -0.043440588 1.85247e-38 320 278
0.0011431733 0.65200001 -0.043440588 1.85247e-38 321 278
0.0022898533 0.653 -0.043507211 1.8341383e-38 322 278
0.0034347798 0.653 -0.043507211 1.8433578e-38 323 278
0.0045797066 0.653 -0.043507211 1.8433578e-38 324 278
0.0057333997 0.65399998 -0.043573838 1.8433578e-38 325 278
0.0068800794 0.65399998 -0.043573838 1.8433228e-38 326 278
0.0080267601 0.65399998 -0.043573838 1.8433228e-38 327 278
0.0092155198 0.65700001 -0.043773718 1.8340682e-38 328 278
0.010335899 0.65499997 -0.043640465 1.8340682e-38 329 278
0.011484332 0.65499997 -0.043640465 1.8248486e-38 330 278
0.012632766 0.65499997 -0.043640465 1.8156291e-38 331 278
0.013781199 0.65499997 -0.043640465 1.8063736e-38 332 278
0.014929632 0.65499997 -0.043640465 1.7787508e-38 333 278
0.016176252 0.65899998 -0.043906972 1.7511272e-38 334 278
0.017305398 0.65799999 -0.043840345 1.7419076e-38 335 278
0.018459093 0.65799999 -0.043840345 1.7143913e-38 336 278
0.019642593 0.65899998 -0.043906972 1.6867325e-38 337 278
0.020798039 0.65899998 -0.043906972 1.668294e-38 338 278
0.021953486 0.65899998 -0.043906972 1.668294e-38 339 278
0.023108931 0.65899998 -0.043906972 1.631453e-38 340 278
0.02433802 0.66100001 -0.044040225 1.6129779e-38 341 278
0.025496973 0.66100001 -0.044040225 1.6037952e-38 342 278
0.026655925 0.66100001 -0.044040225 1.6037952e-38 343 278
0.027856959 0.662 -0.044106852 1.5669893e-38 344 278
0.029061496 0.66299999 -0.044173479 1.5485861e-38 345 278
0.030269546 0.66399997 -0.044240102 1.5393666e-38 346 278
0.031433757 0.66399997 -0.044240102 1.5393666e-38 347 278
0.03259797 0.66399997 -0.044240102 1.5209637e-38 348 278
0.033762183 0.66399997 -0.044240102 1.5025605e-38 349 278
0.035031598 0.66600001 -0.04437336 1.4933409e-38 350 278
0.03619932 0.66600001 -0.04437336 1.4841214e-38 351 278
0.037423145 0.667 -0.044439986 1.4748659e-38 352 278
0.038592618 0.667 -0.044439986 1.4564268e-38 353 278
0.039940935 0.67000002 -0.044639867 1.4195857e-38 354 278
0.041115668 0.67000002 -0.044639867 1.391963e-38 355 278
0.042290401 0.67000002 -0.044639867 1.3550867e-38 356 278
0.043594878 0.67199999 -0.044773117 1.3181725e-38 357 278
0.044906374 0.67400002 -0.044906374 1.2721116e-38 358 278
0.0461565 0.67500001 -0.044972997 1.2352693e-38 359 278
0.047410134 0.676 -0.045039624 1.2353061e-38 360 278
0.048739154 0.67799997 -0.045172878 1.2905876e-38 361 278
0.049927916 0.67799997 -0.045172878 1.3183539e-38 362 278
0.051418249 0.68199998 -0.045439381 1.3368289e-38 363 278
0.052614026 0.68199998 -0.045439381 1.3552681e-38 364 278
0.054283202 0.68800002 -0.045839146 1.3460485e-38 365 278
0.055489492 0.68800002 -0.045839146 1.2448523e-38 366 278
0.0568606 0.69 -0.045972396 1.1157784e-38 367 278
-0.0045867199 0.65399998 -0.044720516 1.8156638e-38 316 279
-0.0034347798 0.653 -0.044652138 1.8248834e-38 317 279
-0.0022898533 0.653 -0.044652138 1.8341385e-38 318 279
-0.0011449266 0.653 -0.044652138 1.8433581e-38 319 279
0 0.65200001 -0.044583756 1.8341032e-38 320 279
0.0011431733 0.65200001 -0.044583756 1.8341032e-38 321 279
0.0022863466 0.65200001 -0.044583756 1.8433584e-38 322 279
0.0034347798 0.653 -0.044652138 1.8341388e-38 323 279
0.0045797066 0.653 -0.044652138 1.8432502e-38 324 279
0.0057246331 0.653 -0.044652138 1.8524698e-38 325 279
0.0068695596 0.653 -0.044652138 1.8431783e-38 326 279
0.0080267601 0.65399998 -0.044720516 1.8431783e-38 327 279
0.0091734398 0.65399998 -0.044720516 1.8155919e-38 328 279
0.01032012 0.65399998 -0.044720516 1.8155919e-38 329 279
0.011466799 0.65399998 -0.044720516 1.7787858e-38 330 279
0.012613479 0.65399998 -0.044720516 1.7695663e-38 331 279
0.013760159 0.65399998 -0.044720516 1.7511272e-38 332 279
0.014906839 0.65399998 -0.044720516 1.7419076e-38 333 279
0.016078066 0.65499997 -0.044788897 1.7142116e-38 334 279
0.017226499 0.65499997 -0.044788897 1.6773335e-38 335 279
0.01843104 0.65700001 -0.04492566 1.6405981e-38 336 279
0.019612785 0.65799999 -0.044994038 1.6405981e-38 337 279
0.02076648 0.65799999 -0.044994038 1.6313798e-38 338 279
0.021920172 0.65799999 -0.044994038 1.6313798e-38 339 279
0.023073865 0.65799999 -0.044994038 1.6220899e-38 340 279
0.024264378 0.65899998 -0.045062415 1.6036867e-38 341 279
0.025419824 0.65899998 -0.045062415 1.5944316e-38 342 279
0.026575271 0.65899998 -0.045062415 1.585212e-38 343 279
0.02781488 0.66100001 -0.045199182 1.5485131e-38 344 279
0.028973831 0.66100001 -0.045199182 1.5485131e-38 345 279
0.030223956 0.66299999 -0.045335937 1.5485129e-38 346 279
0.031386416 0.66299999 -0.045335937 1.5208902e-38 347 279
0.03259797 0.66399997 -0.045404319 1.5024873e-38 348 279
0.033762183 0.66399997 -0.045404319 1.4840842e-38 349 279
0.0349264 0.66399997 -0.045404319 1.4656098e-38 350 279
0.03619932 0.66600001 -0.045541082 1.437951e-38 351 279
0.037367038 0.66600001 -0.045541082 1.3827782e-38 352 279
0.038592618 0.667 -0.045609459 1.3735586e-38 353 279
0.039821707 0.66799998 -0.045677837 1.4010747e-38 354 279
0.041115668 0.67000002 -0.0458146 1.373416e-38 355 279
0.042290401 0.67000002 -0.0458146 1.3365756e-38 356 279
0.043530006 0.671 -0.045882981 1.308881e-38 357 279
0.044906374 0.67400002 -0.046088122 1.2262295e-38 358 279
0.046088122 0.67400002 -0.046088122 1.1985349e-38 359 279
0.047410134 0.676 -0.046224877 1.2537087e-38 360 279
0.048739154 0.67799997 -0.046361636 1.309026e-38 361 279
0.049927916 0.67799997 -0.046361636 1.3275725e-38 362 279
0.051418249 0.68199998 -0.046635158 1.3736343e-38 363 279
0.052614026 0.68199998 -0.046635158 1.3552683e-38 364 279
-0.0079776663 0.64999998 -0.045586664 1.8249187e-38 313 280
-0.0068379994 0.64999998 -0.045586664 1.8339588e-38 314 280
-0.005698333 0.64999998 -0.045586664 1.8431783e-38 315 280
-0.0045586661 0.64999998 -0.045586664 1.8524335e-38 316 280
-0.0034189997 0.64999998 -0.045586664 1.8708366e-38 317 280
-0.0022863466 0.65200001 -0.045726933 1.8616893e-38 318 280
-0.0011396665 0.64999998 -0.045586664 1.8616893e-38 319 280
0 0.64999998 -0.045586664 1.8524345e-38 320 280
0.0011396665 0.64999998 -0.045586664 1.8524345e-38 321 280
0.0022863466 0.65200001 -0.045726933 1.8248839e-38 322 280
0.0034295199 0.65200001 -0.045726933 1.8248839e-38 323 280
0.0045726933 0.65200001 -0.045726933 1.7973692e-38 324 280
0.0057158666 0.65200001 -0.045726933 1.77893e-38 325 280
0.0068590399 0.65200001 -0.045726933 1.7880777e-38 326 280
0.0080022132 0.65200001 -0.045726933 1.7696385e-38 327 280
0.0091453865 0.65200001 -0.045726933 1.7788209e-38 328 280
0.010304339 0.653 -0.045797065 1.7511622e-38 329 280
0.011449266 0.653 -0.045797065 1.732831e-38 330 280
0.012594193 0.653 -0.045797065 1.7236114e-38 331 280
0.013739119 0.653 -0.045797065 1.7235034e-38 332 280
0.014906839 0.65399998 -0.045867197 1.6866253e-38 333 280
0.01605352 0.65399998 -0.045867197 1.6681861e-38 334 280
0.017226499 0.65499997 -0.04593733 1.6681861e-38 335 280
0.018374931 0.65499997 -0.04593733 1.6129779e-38 336 280
0.019582979 0.65700001 -0.046077598 1.6037583e-38 337 280
0.020734919 0.65700001 -0.046077598 1.603723e-38 338 280
0.021886859 0.65700001 -0.046077598 1.5945035e-38 339 280
0.023038799 0.65700001 -0.046077598 1.5945038e-38 340 280
0.02422756 0.65799999 -0.04614773 1.5760646e-38 341 280
0.025381252 0.65799999 -0.04614773 1.5485131e-38 342 280
0.026534945 0.65799999 -0.04614773 1.5392936e-38 343 280
0.027730718 0.65899998 -0.046217863 1.5026308e-38 344 280
0.028886165 0.65899998 -0.046217863 1.5026308e-38 345 280
0.030178372 0.662 -0.046428263 1.4657896e-38 346 280
0.031386416 0.66299999 -0.046498399 1.45657e-38 347 280
0.032548878 0.66299999 -0.046498399 1.4564265e-38 348 280
0.033711337 0.66299999 -0.046498399 1.4288037e-38 349 280
0.0349264 0.66399997 -0.046568532 1.3737031e-38 350 280
0.03619932 0.66600001 -0.046708796 1.3644836e-38 351 280
0.037367038 0.66600001 -0.046708796 1.3551218e-38 352 280
0.038592618 0.667 -0.046778932 1.3366825e-38 353 280
0.039821707 0.66799998 -0.046849065 1.3182804e-38 354 280
0.041115668 0.67000002 -0.046989333 1.2998412e-38 355 280
0.042290401 0.67000002 -0.046989333 1.2998412e-38 356 280
0.043530006 0.671 -0.047059465 1.2814021e-38 357 280
0.044773117 0.67199999 -0.047129598 1.2813302e-38 358 280
0.046088122 0.67400002 -0.047269866 1.2628551e-38 359 280
0.047339998 0.67500001 -0.047339998 1.2722902e-38 360 280
0.048595384 0.676 -0.047410134 1.3091683e-38 361 280
0.049927916 0.67799997 -0.047550395 1.3276444e-38 362 280
0.051192071 0.67900002 -0.047620531 1.336864e-38 363 280
0.052382588 0.67900002 -0.047620531 1.2723663e-38 364 280
-0.018066347 0.64399999 -0.04629501 1.7604246e-38 304 281
-0.0169372 0.64399999 -0.04629501 1.7419857e-38 305 281
-0.015783506 0.64300001 -0.046223126 1.7971216e-38 306 281
-0.014656113 0.64300001 -0.046223126 1.8247442e-38 307 281
-0.01359184 0.64600003 -0.046438787 1.8248136e-38 308 281
-0.012459187 0.64600003 -0.046438787 1.8155582e-38 309 281
-0.011291467 0.64399999 -0.04629501 1.824919e-38 310 281
-0.01019388 0.64600003 -0.046438787 1.824919e-38 311 281
-0.0091033066 0.64899999 -0.046654444 1.8525048e-38 312 281
-0.0079653924 0.64899999 -0.046654444 1.8432852e-38 313 281
-0.0068274797 0.64899999 -0.046654444 1.8524329e-38 314 281
-0.0056895665 0.64899999 -0.046654444 1.8524329e-38 315 281
-0.0045516533 0.64899999 -0.046654444 1.8707641e-38 316 281
-0.0034189997 0.64999998 -0.046726331 1.8800196e-38 317 281
-0.0022793331 0.64999998 -0.046726331 1.8525054e-38 318 281
-0.0011379133 0.64899999 -0.046654444 1.8432499e-38 319 281
0 0.64899999 -0.046654444 1.8524332e-38 320 281
0.0011396665 0.64999998 -0.046726331 1.8339941e-38 321 281
0.0022793331 0.64999998 -0.046726331 1.8247386e-38 322 281
0.0034189997 0.64999998 -0.046726331 1.8155189e-38 323 281
0.0045586661 0.64999998 -0.046726331 1.7879684e-38 324 281
0.005698333 0.64999998 -0.046726331 1.778713e-38 325 281
0.0068379994 0.64999998 -0.046726331 1.7511619e-38 326 281
0.0079776663 0.64999998 -0.046726331 1.7419424e-38 327 281
0.0091173323 0.64999998 -0.046726331 1.7235028e-38 328 281
0.01028856 0.65200001 -0.046870105 1.7050997e-38 329 281
0.011431733 0.65200001 -0.046870105 1.7142116e-38 330 281
0.012574906 0.65200001 -0.046870105 1.6865531e-38 331 281
0.01371808 0.65200001 -0.046870105 1.6589659e-38 332 281
0.014884046 0.653 -0.046941992 1.6313432e-38 333 281
0.01605352 0.65399998 -0.047013879 1.5945375e-38 334 281
0.017200198 0.65399998 -0.047013879 1.6037571e-38 335 281
0.018374931 0.65499997 -0.047085766 1.5945022e-38 336 281
0.019523365 0.65499997 -0.047085766 1.5945022e-38 337 281
0.020671798 0.65499997 -0.047085766 1.576135e-38 338 281
0.021886859 0.65700001 -0.04722954 1.576135e-38 339 281
0.023038799 0.65700001 -0.04722954 1.5576961e-38 340 281
0.024190739 0.65700001 -0.04722954 1.5484766e-38 341 281
0.025342681 0.65700001 -0.04722954 1.5025583e-38 342 281
0.026534945 0.65799999 -0.047301427 1.4841193e-38 343 281
0.027730718 0.65899998 -0.04737331 1.4749e-38 344 281
0.028886165 0.65899998 -0.04737331 1.4749e-38 345 281
0.030132787 0.66100001 -0.047517084 1.4656095e-38 346 281
0.031339079 0.662 -0.047588971 1.4379507e-38 347 281
0.032548878 0.66299999 -0.047660857 1.3460074e-38 348 281
0.033711337 0.66299999 -0.047660857 1.3367879e-38 349 281
0.0349264 0.66399997 -0.047732744 1.3367526e-38 350 281
0.036090612 0.66399997 -0.047732744 1.327533e-38 351 281
0.037367038 0.66600001 -0.047876518 1.2999116e-38 352 281
0.03853476 0.66600001 -0.047876518 1.2999116e-38 353 281
0.039762091 0.667 -0.047948405 1.2906567e-38 354 281
0.040992931 0.66799998 -0.048020288 1.2906567e-38 355 281
0.042290401 0.67000002 -0.048164066 1.2906214e-38 356 281
0.043530006 0.671 -0.048235953 1.2906214e-38 357 281
0.044773117 0.67199999 -0.04830784 1.2630353e-38 358 281
0.046088122 0.67400002 -0.048451614 1.290658e-38 359 281
0.047339998 0.67500001 -0.048523501 1.3183527e-38 360 281
0.048595384 0.676 -0.048595384 1.3275722e-38 361 281
0.049927916 0.67799997 -0.048739154 1.3275735e-38 362 281
0.051192071 0.67900002 -0.048811045 1.2907311e-38 363 281
-0.019195493 0.64399999 -0.04742416 1.7511667e-38 303 282
-0.018066347 0.64399999 -0.04742416 1.7696029e-38 304 282
-0.0169372 0.64399999 -0.04742416 1.7696029e-38 305 282
-0.015783506 0.64300001 -0.047350518 1.8156291e-38 306 282
-0.014656113 0.64300001 -0.047350518 1.8248486e-38 307 282
-0.013549759 0.64399999 -0.04742416 1.8431796e-38 308 282
-0.012420613 0.64399999 -0.04742416 1.83396e-38 309 282
-0.011291467 0.64399999 -0.04742416 1.8156275e-38 310 282
-0.01019388 0.64600003 -0.047571443 1.8063721e-38 311 282
-0.0090612266 0.64600003 -0.047571443 1.7788209e-38 312 282
-0.0079285735 0.64600003 -0.047571443 1.8156991e-38 313 282
-0.0068064397 0.64700001 -0.047645077 1.8707644e-38 314 282
-0.0056720334 0.64700001 -0.047645077 1.8523253e-38 315 282
-0.0045376266 0.64700001 -0.047645077 1.815627e-38 316 282
-0.00340848 0.648 -0.047718719 1.815627e-38 317 282
-0.00227232 0.648 -0.047718719 1.8065149e-38 318 282
-0.00113616 0.648 -0.047718719 1.7972594e-38 319 282
0 0.648 -0.047718719 1.7879681e-38 320 282
0.0011379133 0.64899999 -0.047792356 1.7971877e-38 321 282
0.0022758266 0.64899999 -0.047792356 1.7878965e-38 322 282
0.0034137398 0.64899999 -0.047792356 1.7694215e-38 323 282
0.0045516533 0.64899999 -0.047792356 1.7326154e-38 324 282
0.0056895665 0.64899999 -0.047792356 1.7418352e-38 325 282
0.0068379994 0.64999998 -0.047865998 1.695952e-38 326 282
0.0079776663 0.64999998 -0.047865998 1.6590739e-38 327 282
0.0091173323 0.64999998 -0.047865998 1.6774407e-38 328 282
0.010256999 0.64999998 -0.047865998 1.6682212e-38 329 282
0.011396666 0.64999998 -0.047865998 1.6405993e-38 330 282
0.012536332 0.64999998 -0.047865998 1.6037571e-38 331 282
0.013675999 0.64999998 -0.047865998 1.5945372e-38 332 282
0.014861252 0.65200001 -0.048013281 1.5945372e-38 333 282
0.016028972 0.653 -0.048086919 1.5945025e-38 334 282
0.017200198 0.65399998 -0.048160557 1.5852471e-38 335 282
0.01834688 0.65399998 -0.048160557 1.5485131e-38 336 282
0.019493559 0.65399998 -0.048160557 1.5392936e-38 337 282
0.020671798 0.65499997 -0.048234195 1.5393286e-38 338 282
0.021820232 0.65499997 -0.048234195 1.5117059e-38 339 282
0.022968665 0.65499997 -0.048234195 1.5117059e-38 340 282
0.024190739 0.65700001 -0.048381478 1.5024864e-38 341 282
0.025342681 0.65700001 -0.048381478 1.4657523e-38 342 282
0.026494619 0.65700001 -0.048381478 1.4380936e-38 343 282
0.027688639 0.65799999 -0.048455119 1.428839e-38 344 282
0.028886165 0.65899998 -0.048528757 1.4196195e-38 345 282
0.030132787 0.66100001 -0.04867604 1.3735952e-38 346 282
0.031339079 0.662 -0.048749682 1.3551921e-38 347 282
0.032548878 0.66299999 -0.048823316 1.3366809e-38 348 282
0.033711337 0.66299999 -0.048823316 1.3274255e-38 349 282
0.0349264 0.66399997 -0.048896957 1.2999113e-38 350 282
0.036090612 0.66399997 -0.048896957 1.2906917e-38 351 282
0.037367038 0.66600001 -0.04904424 1.2723255e-38 352 282
0.03853476 0.66600001 -0.04904424 1.2631059e-38 353 282
0.039762091 0.667 -0.049117878 1.2630703e-38 354 282
0.040992931 0.66799998 -0.04919152 1.2722899e-38 355 282
0.042290401 0.67000002 -0.049338799 1.2722899e-38 356 282
0.043530006 0.671 -0.049412437 1.2722899e-38 357 282
0.044773117 0.67199999 -0.049486078 1.2906933e-38 358 282
0.046088122 0.67400002 -0.049633358 1.2999128e-38 359 282
0.047339998 0.67500001 -0.049706999 1.2999858e-38 360 282
0.048595384 0.676 -0.049780637 1.318389e-38 361 282
0.049780637 0.676 -0.049780637 1.2815129e-38 362 282
0.051116679 0.67799997 -0.049927916 1.2261956e-38 363 282
-0.02032464 0.64399999 -0.048553303 1.8248486e-38 302 283
-0.019135879 0.64200002 -0.048402522 1.8248486e-38 303 283
-0.01801024 0.64200002 -0.048402522 1.8248839e-38 304 283
-0.016910899 0.64300001 -0.04847791 1.8248839e-38 305 283
-0.01575896 0.64200002 -0.048402522 1.8432502e-38 306 283
-0.01463332 0.64200002 -0.048402522 1.8432502e-38 307 283
-0.013549759 0.64399999 -0.048553303 1.8340306e-38 308 283
-0.012420613 0.64399999 -0.048553303 1.8156275e-38 309 283
-0.011291467 0.64399999 -0.048553303 1.8246672e-38 310 283
-0.01019388 0.64600003 -0.048704095 1.8061922e-38 311 283
-0.0090612266 0.64600003 -0.048704095 1.7694218e-38 312 283
-0.0079285735 0.64600003 -0.048704095 1.8062641e-38 313 283
-0.00679592 0.64600003 -0.048704095 1.7971527e-38 314 283
-0.0056720334 0.64700001 -0.048779488 1.7971527e-38 315 283
-0.0045376266 0.64700001 -0.048779488 1.7878975e-38 316 283
-0.0034032199 0.64700001 -0.048779488 1.7786779e-38 317 283
-0.0022688133 0.64700001 -0.048779488 1.7512341e-38 318 283
-0.0011344067 0.64700001 -0.048779488 1.7236114e-38 319 283
0 0.64700001 -0.048779488 1.7326875e-38 320 283
0.0011344067 0.64700001 -0.048779488 1.741907e-38 321 283
0.0022688133 0.64700001 -0.048779488 1.750947e-38 322 283
0.00340848 0.648 -0.04885488 1.7233243e-38 323 283
0.00454464 0.648 -0.04885488 1.7141042e-38 324 283
0.0056807999 0.648 -0.04885488 1.7141042e-38 325 283
0.0068274797 0.64899999 -0.048930272 1.6773338e-38 326 283
0.0079653924 0.64899999 -0.048930272 1.6496391e-38 327 283
0.0091033066 0.64899999 -0.048930272 1.6496744e-38 328 283
0.010256999 0.64999998 -0.049005665 1.6220517e-38 329 283
0.011396666 0.64999998 -0.049005665 1.5853177e-38 330 283
0.012536332 0.64999998 -0.049005665 1.5668784e-38 331 283
0.013675999 0.64999998 -0.049005665 1.5391848e-38 332 283
0.014815666 0.64999998 -0.049005665 1.5575879e-38 333 283
0.016004426 0.65200001 -0.049156453 1.5391495e-38 334 283
0.017173899 0.653 -0.049231846 1.5391495e-38 335 283
0.01834688 0.65399998 -0.049307238 1.5207823e-38 336 283
0.019493559 0.65399998 -0.049307238 1.5207823e-38 337 283
0.020640239 0.65399998 -0.049307238 1.4932315e-38 338 283
0.021786919 0.65399998 -0.049307238 1.4747564e-38 339 283
0.022968665 0.65499997 -0.049382631 1.4747566e-38 340 283
0.024117097 0.65499997 -0.049382631 1.4747566e-38 341 283
0.025342681 0.65700001 -0.049533416 1.4196192e-38 342 283
0.026494619 0.65700001 -0.049533416 1.4103996e-38 343 283
0.027646558 0.65700001 -0.049533416 1.401145e-38 344 283
0.028842334 0.65799999 -0.049608808 1.3734863e-38 345 283
0.030041611 0.65899998 -0.049684204 1.3550485e-38 346 283
0.031291738 0.66100001 -0.049834993 1.3366454e-38 347 283
0.032499783 0.662 -0.049910385 1.2906201e-38 348 283
0.033711337 0.66299999 -0.049985778 1.2906201e-38 349 283
0.0349264 0.66399997 -0.05006117 1.2906201e-38 350 283
0.036090612 0.66399997 -0.05006117 1.2814006e-38 351 283
0.037367038 0.66600001 -0.050211959 1.2814722e-38 352 283
0.03853476 0.66600001 -0.050211959 1.2722526e-38 353 283
0.039762091 0.667 -0.050287351 1.2814369e-38 354 283
0.040992931 0.66799998 -0.050362743 1.2814369e-38 355 283
0.042290401 0.67000002 -0.050513536 1.2722899e-38 356 283
0.043530006 0.671 -0.050588924 1.2999484e-38 357 283
0.044773117 0.67199999 -0.050664317 1.2999131e-38 358 283
0.045951359 0.67199999 -0.050664317 1.3091327e-38 359 283
0.047339998 0.67500001 -0.050890498 1.3183542e-38 360 283
0.048523501 0.67500001 -0.050890498 1.3183542e-38 361 283
0.049780637 0.676 -0.050965894 1.1802435e-38 362 283
-0.021420473 0.64300001 -0.049605306 1.8156623e-38 301 284
-0.020293079 0.64300001 -0.049605306 1.8432855e-38 302 284
-0.019135879 0.64200002 -0.049528159 1.8432855e-38 303 284
-0.01801024 0.64200002 -0.049528159 1.8432499e-38 304 284
-0.016910899 0.64300001 -0.049605306 1.8340304e-38 305 284
-0.01575896 0.64200002 -0.049528159 1.8524335e-38 306 284
-0.01463332 0.64200002 -0.049528159 1.8524335e-38 307 284
-0.013549759 0.64399999 -0.049682453 1.85229e-38 308 284
-0.012420613 0.64399999 -0.049682453 1.8246672e-38 309 284
-0.011291467 0.64399999 -0.049682453 1.8337788e-38 310 284
-0.01016232 0.64399999 -0.049682453 1.8061203e-38 311 284
-0.0090612266 0.64600003 -0.049836747 1.7877528e-38 312 284
-0.0079285735 0.64600003 -0.049836747 1.7970082e-38 313 284
-0.00679592 0.64600003 -0.049836747 1.7694934e-38 314 284
-0.0056632664 0.64600003 -0.049836747 1.7694934e-38 315 284
-0.0045306133 0.64600003 -0.049836747 1.7694581e-38 316 284
-0.00339796 0.64600003 -0.049836747 1.7418354e-38 317 284
-0.0022653067 0.64600003 -0.049836747 1.7418352e-38 318 284
-0.0011326533 0.64600003 -0.049836747 1.7233959e-38 319 284
0 0.64600003 -0.049836747 1.7233959e-38 320 284
0.0011344067 0.64700001 -0.049913891 1.7049568e-38 321 284
0.0022688133 0.64700001 -0.049913891 1.7049568e-38 322 284
0.0034032199 0.64700001 -0.049913891 1.6865536e-38 323 284
0.0045376266 0.64700001 -0.049913891 1.6864456e-38 324 284
0.0056807999 0.648 -0.049991041 1.6864456e-38 325 284
0.0068274797 0.64899999 -0.050068185 1.6496041e-38 326 284
0.0079653924 0.64899999 -0.050068185 1.6496041e-38 327 284
0.0091033066 0.64899999 -0.050068185 1.6128687e-38 328 284
0.01024122 0.64899999 -0.050068185 1.5944295e-38 329 284
0.011379133 0.64899999 -0.050068185 1.5668784e-38 330 284
0.012517046 0.64899999 -0.050068185 1.557623e-38 331 284
0.013675999 0.64999998 -0.050145328 1.5299653e-38 332 284
0.014815666 0.64999998 -0.050145328 1.5207457e-38 333 284
0.015955333 0.64999998 -0.050145328 1.511526e-38 334 284
0.017147599 0.65200001 -0.050299626 1.511526e-38 335 284
0.018318826 0.653 -0.050376773 1.493051e-38 336 284
0.019463753 0.653 -0.050376773 1.493051e-38 337 284
0.020640239 0.65399998 -0.050453916 1.456353e-38 338 284
0.021786919 0.65399998 -0.050453916 1.4286943e-38 339 284
0.022933599 0.65399998 -0.050453916 1.4285518e-38 340 284
0.024117097 0.65499997 -0.050531063 1.4285518e-38 341 284
0.025265532 0.65499997 -0.050531063 1.382598e-38 342 284
0.026494619 0.65700001 -0.050685361 1.3641589e-38 343 284
0.027646558 0.65700001 -0.050685361 1.3457923e-38 344 284
0.028842334 0.65799999 -0.050762504 1.3365728e-38 345 284
0.030041611 0.65899998 -0.050839648 1.3273182e-38 346 284
0.031197058 0.65899998 -0.050839648 1.3088792e-38 347 284
0.032450691 0.66100001 -0.050993945 1.299767e-38 348 284
0.033711337 0.66299999 -0.051148236 1.2905115e-38 349 284
0.0349264 0.66399997 -0.051225383 1.2721806e-38 350 284
0.03619932 0.66600001 -0.051379681 1.2721806e-38 351 284
0.037367038 0.66600001 -0.051379681 1.2814003e-38 352 284
0.038592618 0.667 -0.051456824 1.2814003e-38 353 284
0.039762091 0.667 -0.051456824 1.2906201e-38 354 284
0.040992931 0.66799998 -0.051533967 1.2906201e-38 355 284
0.042290401 0.67000002 -0.051688269 1.2723252e-38 356 284
0.043530006 0.671 -0.051765412 1.2907283e-38 357 284
0.044773117 0.67199999 -0.051842555 1.2906936e-38 358 284
0.045951359 0.67199999 -0.051842555 1.2999131e-38 359 284
0.047339998 0.67500001 -0.052074 1.2721851e-38 360 284
0.048523501 0.67500001 -0.052074 1.2537101e-38 361 284
-0.029175464 0.63999999 -0.050495997 1.8062643e-38 294 285
-0.028141001 0.64200002 -0.0506538 1.8154839e-38 295 285
-0.02701536 0.64200002 -0.0506538 1.7971894e-38 296 285
-0.025889721 0.64200002 -0.0506538 1.7787861e-38 297 285
-0.02476408 0.64200002 -0.0506538 1.7971527e-38 298 285
-0.02363844 0.64200002 -0.0506538 1.8063724e-38 299 285
-0.022512799 0.64200002 -0.0506538 1.8064077e-38 300 285
-0.02138716 0.64200002 -0.0506538 1.8340304e-38 301 285
-0.020261521 0.64200002 -0.0506538 1.8156638e-38 302 285
-0.019135879 0.64200002 -0.0506538 1.8156638e-38 303 285
-0.01801024 0.64200002 -0.0506538 1.833995e-38 304 285
-0.016910899 0.64300001 -0.050732698 1.833995e-38 305 285
-0.01575896 0.64200002 -0.0506538 1.8064443e-38 306 285
-0.01463332 0.64200002 -0.0506538 1.7972247e-38 307 285
-0.01352872 0.64300001 -0.050732698 1.8062646e-38 308 285
-0.012401327 0.64300001 -0.050732698 1.7878256e-38 309 285
-0.011273934 0.64300001 -0.050732698 1.7878963e-38 310 285
-0.01016232 0.64399999 -0.050811596 1.7786767e-38 311 285
-0.0090331733 0.64399999 -0.050811596 1.7694218e-38 312 285
-0.0079040267 0.64399999 -0.050811596 1.7602022e-38 313 285
-0.0067748795 0.64399999 -0.050811596 1.7326878e-38 314 285
-0.0056457333 0.64399999 -0.050811596 1.7234681e-38 315 285
-0.0045306133 0.64600003 -0.0509694 1.7051e-38 316 285
-0.00339796 0.64600003 -0.0509694 1.686625e-38 317 285
-0.0022653067 0.64600003 -0.0509694 1.6865887e-38 318 285
-0.0011326533 0.64600003 -0.0509694 1.6773691e-38 319 285
0 0.64600003 -0.0509694 1.6772985e-38 320 285
0.0011326533 0.64600003 -0.0509694 1.6772985e-38 321 285
0.0022688133 0.64700001 -0.051048297 1.6588958e-38 322 285
0.0034032199 0.64700001 -0.051048297 1.6404927e-38 323 285
0.0045376266 0.64700001 -0.051048297 1.622018e-38 324 285
0.0056720334 0.64700001 -0.051048297 1.6127984e-38 325 285
0.0068169599 0.648 -0.051127199 1.5944316e-38 326 285
0.0079531204 0.648 -0.051127199 1.585212e-38 327 285
0.0091033066 0.64899999 -0.051206097 1.5668428e-38 328 285
0.01024122 0.64899999 -0.051206097 1.5576233e-38 329 285
0.011379133 0.64899999 -0.051206097 1.5300719e-38 330 285
0.012517046 0.64899999 -0.051206097 1.5116328e-38 331 285
0.013654959 0.64899999 -0.051206097 1.5023059e-38 332 285
0.014815666 0.64999998 -0.051284995 1.4930863e-38 333 285
0.015955333 0.64999998 -0.051284995 1.4655002e-38 334 285
0.017147599 0.65200001 -0.051442798 1.4562807e-38 335 285
0.018290773 0.65200001 -0.051442798 1.428659e-38 336 285
0.019463753 0.653 -0.0515217 1.428659e-38 337 285
0.020608678 0.653 -0.0515217 1.4102547e-38 338 285
0.021786919 0.65399998 -0.051600594 1.3734125e-38 339 285
0.022933599 0.65399998 -0.051600594 1.3456477e-38 340 285
0.024080278 0.65399998 -0.051600594 1.3548674e-38 341 285
0.025265532 0.65499997 -0.051679496 1.3272456e-38 342 285
0.026413966 0.65499997 -0.051679496 1.318026e-38 343 285
0.027646558 0.65700001 -0.051837299 1.2905471e-38 344 285
0.028798498 0.65700001 -0.051837299 1.2813276e-38 345 285
0.030041611 0.65899998 -0.051995095 1.2812925e-38 346 285
0.031197058 0.65899998 -0.051995095 1.2812925e-38 347 285
0.032450691 0.66100001 -0.052152898 1.281292e-38 348 285
0.033660494 0.662 -0.0522318 1.281292e-38 349 285
0.0349264 0.66399997 -0.052389596 1.2538494e-38 350 285
0.03619932 0.66600001 -0.052547399 1.2538494e-38 351 285
0.037367038 0.66600001 -0.052547399 1.2997315e-38 352 285
0.038592618 0.667 -0.052626297 1.2997315e-38 353 285
0.039762091 0.667 -0.052626297 1.2814006e-38 354 285
0.040992931 0.66799998 -0.052705199 1.2906201e-38 355 285
0.042290401 0.67000002 -0.052863002 1.2722899e-38 356 285
0.043530006 0.671 -0.052941896 1.2907289e-38 357 285
0.044773117 0.67199999 -0.053020798 1.2722195e-38 358 285
-0.034677424 0.63800001 -0.051456824 1.797084e-38 289 286
-0.033558797 0.63800001 -0.051456824 1.8063371e-38 290 286
-0.032440174 0.63800001 -0.051456824 1.7971174e-38 291 286
-0.031468827 0.64099997 -0.051698782 1.806443e-38 292 286
-0.030344937 0.64099997 -0.051698782 1.806443e-38 293 286
-0.029175464 0.63999999 -0.051618129 1.8064426e-38 294 286
-0.028053332 0.63999999 -0.051618129 1.8064426e-38 295 286
-0.026931198 0.63999999 -0.051618129 1.8064074e-38 296 286
-0.025849391 0.64099997 -0.051698782 1.7971877e-38 297 286
-0.024725504 0.64099997 -0.051698782 1.8155189e-38 298 286
-0.023601618 0.64099997 -0.051698782 1.8155189e-38 299 286
-0.022477733 0.64099997 -0.051698782 1.8155189e-38 300 286
-0.021353846 0.64099997 -0.051698782 1.8155189e-38 301 286
-0.020261521 0.64200002 -0.051779442 1.8246669e-38 302 286
-0.019135879 0.64200002 -0.051779442 1.8246669e-38 303 286
-0.01801024 0.64200002 -0.051779442 1.8247022e-38 304 286
-0.016910899 0.64300001 -0.051860094 1.8247022e-38 305 286
-0.01575896 0.64200002 -0.051779442 1.8062625e-38 306 286
-0.01463332 0.64200002 -0.051779442 1.7694201e-38 307 286
-0.01350768 0.64200002 -0.051779442 1.7142469e-38 308 286
-0.012401327 0.64300001 -0.051860094 1.7234665e-38 309 286
-0.011273934 0.64300001 -0.051860094 1.7235028e-38 310 286
-0.01014654 0.64300001 -0.051860094 1.6958801e-38 311 286
-0.0090191467 0.64300001 -0.051860094 1.6865887e-38 312 286
-0.0078917528 0.64300001 -0.051860094 1.6773691e-38 313 286
-0.0067643598 0.64300001 -0.051860094 1.6773691e-38 314 286
-0.0056457333 0.64399999 -0.051940747 1.6681135e-38 315 286
-0.0045165867 0.64399999 -0.051940747 1.6221952e-38 316 286
-0.0033874398 0.64399999 -0.051940747 1.6037921e-38 317 286
-0.0022582933 0.64399999 -0.051940747 1.6313432e-38 318 286
-0.0011291467 0.64399999 -0.051940747 1.6221236e-38 319 286
0 0.64600003 -0.052102055 1.6679343e-38 320 286
0.0011326533 0.64600003 -0.052102055 1.6679343e-38 321 286
0.0022653067 0.64600003 -0.052102055 1.6220164e-38 322 286
0.00339796 0.64600003 -0.052102055 1.6127969e-38 323 286
0.0045306133 0.64600003 -0.052102055 1.6035772e-38 324 286
0.0056720334 0.64700001 -0.052182708 1.5943576e-38 325 286
0.0068064397 0.64700001 -0.052182708 1.5851027e-38 326 286
0.0079408465 0.64700001 -0.052182708 1.5758473e-38 327 286
0.0090892799 0.648 -0.05226336 1.5391476e-38 328 286
0.010225439 0.648 -0.05226336 1.5022693e-38 329 286
0.011379133 0.64899999 -0.052344013 1.5115245e-38 330 286
0.012517046 0.64899999 -0.052344013 1.4838299e-38 331 286
0.013654959 0.64899999 -0.052344013 1.4377692e-38 332 286
0.014815666 0.64999998 -0.052424666 1.4377692e-38 333 286
0.015955333 0.64999998 -0.052424666 1.4376617e-38 334 286
0.017147599 0.65200001 -0.052585974 1.4284422e-38 335 286
0.018290773 0.65200001 -0.052585974 1.4100031e-38 336 286
0.019433947 0.65200001 -0.052585974 1.3639052e-38 337 286
0.020608678 0.653 -0.052666627 1.3179149e-38 338 286
0.021753605 0.653 -0.052666627 1.3179149e-38 339 286
0.022933599 0.65399998 -0.052747279 1.2903655e-38 340 286
0.024080278 0.65399998 -0.052747279 1.2903655e-38 341 286
0.025265532 0.65499997 -0.052827932 1.262816e-38 342 286
0.026413966 0.65499997 -0.052827932 1.262816e-38 343 286
0.027646558 0.65700001 -0.052989237 1.2628163e-38 344 286
0.028798498 0.65700001 -0.052989237 1.2720358e-38 345 286
0.030041611 0.65899998 -0.053150542 1.2811835e-38 346 286
0.031291738 0.66100001 -0.053311851 1.2811835e-38 347 286
0.032450691 0.66100001 -0.053311851 1.2629242e-38 348 286
0.033660494 0.662 -0.053392503 1.2813273e-38 349 286
0.0349264 0.66399997 -0.053553808 1.2629605e-38 350 286
0.03619932 0.66600001 -0.053715117 1.2814355e-38 351 286
0.037367038 0.66600001 -0.053715117 1.2813999e-38 352 286
0.038592618 0.667 -0.05379577 1.2906554e-38 353 286
0.039821707 0.66799998 -0.053876422 1.2814722e-38 354 286
0.040992931 0.66799998 -0.053876422 1.2814722e-38 355 286
0.042353518 0.671 -0.054118387 1.2814371e-38 356 286
0.043530006 0.671 -0.054118387 1.2906567e-38 357 286
-0.037973695 0.63700002 -0.052493047 1.8061909e-38 286 287
-0.036856819 0.63700002 -0.052493047 1.824594e-38 287 287
-0.035796054 0.63800001 -0.05257545 1.8155192e-38 288 287
-0.034677424 0.63800001 -0.05257545 1.8339585e-38 289 287
-0.033558797 0.63800001 -0.05257545 1.8339585e-38 290 287
-0.032440174 0.63800001 -0.05257545 1.8247389e-38 291 287
-0.031419732 0.63999999 -0.052740265 1.8156979e-38 292 287
-0.030297596 0.63999999 -0.052740265 1.8064423e-38 293 287
-0.029175464 0.63999999 -0.052740265 1.8064426e-38 294 287
-0.028053332 0.63999999 -0.052740265 1.8064426e-38 295 287
-0.026931198 0.63999999 -0.052740265 1.7696013e-38 296 287
-0.025809065 0.63999999 -0.052740265 1.7603818e-38 297 287
-0.024686933 0.63999999 -0.052740265 1.7604189e-38 298 287
-0.023564799 0.63999999 -0.052740265 1.7604189e-38 299 287
-0.022477733 0.64099997 -0.052822668 1.7694934e-38 300 287
-0.021353846 0.64099997 -0.052822668 1.7418707e-38 301 287
-0.020229958 0.64099997 -0.052822668 1.7878231e-38 302 287
-0.019106071 0.64099997 -0.052822668 1.7878231e-38 303 287
-0.017982185 0.64099997 -0.052822668 1.7602719e-38 304 287
-0.016884599 0.64200002 -0.052905083 1.7510523e-38 305 287
-0.01575896 0.64200002 -0.052905083 1.723465e-38 306 287
-0.01463332 0.64200002 -0.052905083 1.70499e-38 307 287
-0.01350768 0.64200002 -0.052905083 1.686659e-38 308 287
-0.01238204 0.64200002 -0.052905083 1.6774393e-38 309 287
-0.0112564 0.64200002 -0.052905083 1.6866237e-38 310 287
-0.01014654 0.64300001 -0.052987486 1.677404e-38 311 287
-0.00900512 0.64200002 -0.052905083 1.6589296e-38 312 287
-0.0078794798 0.64200002 -0.052905083 1.6404546e-38 313 287
-0.0067643598 0.64300001 -0.052987486 1.6221233e-38 314 287
-0.0056369668 0.64300001 -0.052987486 1.6221233e-38 315 287
-0.0045095733 0.64300001 -0.052987486 1.6037215e-38 316 287
-0.0033874398 0.64399999 -0.05306989 1.5945019e-38 317 287
-0.0022582933 0.64399999 -0.05306989 1.585212e-38 318 287
-0.0011291467 0.64399999 -0.05306989 1.585212e-38 319 287
0 0.64399999 -0.05306989 1.585212e-38 320 287
0.0011326533 0.64600003 -0.053234708 1.585212e-38 321 287
0.0022653067 0.64600003 -0.053234708 1.5392936e-38 322 287
0.00339796 0.64600003 -0.053234708 1.5392936e-38 323 287
0.0045306133 0.64600003 -0.053234708 1.5208899e-38 324 287
0.0056632664 0.64600003 -0.053234708 1.4932312e-38 325 287
0.00679592 0.64600003 -0.053234708 1.5114904e-38 326 287
0.0079285735 0.64600003 -0.053234708 1.5114904e-38 327 287
0.0090752533 0.64700001 -0.053317111 1.4747195e-38 328 287
0.01020966 0.64700001 -0.053317111 1.4562804e-38 329 287
0.0113616 0.648 -0.053399518 1.4288012e-38 330 287
0.01249776 0.648 -0.053399518 1.3919588e-38 331 287
0.013654959 0.64899999 -0.053481925 1.3917437e-38 332 287
0.014792874 0.64899999 -0.053481925 1.3825241e-38 333 287
0.015955333 0.64999998 -0.053564329 1.3731619e-38 334 287
0.017095 0.64999998 -0.053564329 1.3639424e-38 335 287
0.018234665 0.64999998 -0.053564329 1.3179169e-38 336 287
0.019433947 0.65200001 -0.053729147 1.2902582e-38 337 287
0.02057712 0.65200001 -0.053729147 1.2443046e-38 338 287
0.021753605 0.653 -0.05381155 1.2627796e-38 339 287
0.022933599 0.65399998 -0.053893957 1.2352302e-38 340 287
0.024080278 0.65399998 -0.053893957 1.2352302e-38 341 287
0.025265532 0.65499997 -0.053976361 1.2261185e-38 342 287
0.026413966 0.65499997 -0.053976361 1.2168631e-38 343 287
0.027646558 0.65700001 -0.054141179 1.2261185e-38 344 287
0.028842334 0.65799999 -0.054223582 1.2261185e-38 345 287
0.030041611 0.65899998 -0.054305989 1.2445213e-38 346 287
0.031291738 0.66100001 -0.054470807 1.2445213e-38 347 287
0.032450691 0.66100001 -0.054470807 1.2537765e-38 348 287
0.033660494 0.662 -0.054553211 1.2537765e-38 349 287
0.0349264 0.66399997 -0.054718021 1.2538488e-38 350 287
0.03619932 0.66600001 -0.054882839 1.2722878e-38 351 287
0.037367038 0.66600001 -0.054882839 1.2722526e-38 352 287
0.038592618 0.667 -0.054965243 1.2722526e-38 353 287
0.039762091 0.667 -0.054965243 1.2631056e-38 354 287
0.040992931 0.66799998 -0.05504765 1.2538861e-38 355 287
0.042353518 0.671 -0.055294871 1.2262648e-38 356 287
-0.040207442 0.63700002 -0.053609919 1.7971174e-38 284 288
-0.039090566 0.63700002 -0.053609919 1.8063371e-38 285 288
-0.037973695 0.63700002 -0.053609919 1.8246666e-38 286 288
-0.036856819 0.63700002 -0.053609919 1.8339222e-38 287 288
-0.035796054 0.63800001 -0.053694081 1.8247738e-38 288 288
-0.034677424 0.63800001 -0.053694081 1.8247738e-38 289 288
-0.033558797 0.63800001 -0.053694081 1.8065149e-38 290 288
-0.032440174 0.63800001 -0.053694081 1.8065149e-38 291 288
-0.031321548 0.63800001 -0.053694081 1.806443e-38 292 288
-0.030297596 0.63999999 -0.053862397 1.7971874e-38 293 288
-0.029175464 0.63999999 -0.053862397 1.8063344e-38 294 288
-0.028053332 0.63999999 -0.053862397 1.7879313e-38 295 288
-0.026931198 0.63999999 -0.053862397 1.7419058e-38 296 288
-0.025728412 0.63800001 -0.053694081 1.7326861e-38 297 288
-0.024609786 0.63800001 -0.053694081 1.7419061e-38 298 288
-0.023491161 0.63800001 -0.053694081 1.7142114e-38 299 288
-0.022372533 0.63800001 -0.053694081 1.7050271e-38 300 288
-0.021320533 0.63999999 -0.053862397 1.6773686e-38 301 288
-0.020198399 0.63999999 -0.053862397 1.7049905e-38 302 288
-0.019076265 0.63999999 -0.053862397 1.6865154e-38 303 288
-0.017954132 0.63999999 -0.053862397 1.6864791e-38 304 288
-0.016858298 0.64099997 -0.053946555 1.6772237e-38 305 288
-0.015734414 0.64099997 -0.053946555 1.6588927e-38 306 288
-0.014610525 0.64099997 -0.053946555 1.6404536e-38 307 288
-0.013486639 0.64099997 -0.053946555 1.6128319e-38 308 288
-0.012362752 0.64099997 -0.053946555 1.6220515e-38 309 288
-0.011238866 0.64099997 -0.053946555 1.6036125e-38 310 288
-0.01013076 0.64200002 -0.05403072 1.594357e-38 311 288
-0.00900512 0.64200002 -0.05403072 1.5576586e-38 312 288
-0.0078672068 0.64099997 -0.053946555 1.5576586e-38 313 288
-0.0067433193 0.64099997 -0.053946555 1.5575511e-38 314 288
-0.0056281998 0.64200002 -0.05403072 1.5668065e-38 315 288
-0.00450256 0.64200002 -0.05403072 1.5759905e-38 316 288
-0.0033821799 0.64300001 -0.054114878 1.5667709e-38 317 288
-0.0022547867 0.64300001 -0.054114878 1.5575161e-38 318 288
-0.0011273933 0.64300001 -0.054114878 1.5667356e-38 319 288
0 0.64399999 -0.054199036 1.5575163e-38 320 288
0.0011291467 0.64399999 -0.054199036 1.5482968e-38 321 288
0.0022582933 0.64399999 -0.054199036 1.5483318e-38 322 288
0.0033874398 0.64399999 -0.054199036 1.5391122e-38 323 288
0.0045306133 0.64600003 -0.05436736 1.5115963e-38 324 288
0.0056632664 0.64600003 -0.05436736 1.4931213e-38 325 288
0.00679592 0.64600003 -0.05436736 1.4654987e-38 326 288
0.0079285735 0.64600003 -0.05436736 1.4654987e-38 327 288
0.0090612266 0.64600003 -0.05436736 1.4378396e-38 328 288
0.01020966 0.64700001 -0.054451518 1.410181e-38 329 288
0.0113616 0.648 -0.05453568 1.400998e-38 330 288
0.01249776 0.648 -0.05453568 1.3457165e-38 331 288
0.013654959 0.64899999 -0.054619838 1.2995482e-38 332 288
0.014792874 0.64899999 -0.054619838 1.2995482e-38 333 288
0.015930785 0.64899999 -0.054619838 1.3362115e-38 334 288
0.017095 0.64999998 -0.054703996 1.3177724e-38 335 288
0.018234665 0.64999998 -0.054703996 1.2442327e-38 336 288
0.019433947 0.65200001 -0.054872319 1.2442327e-38 337 288
0.02057712 0.65200001 -0.054872319 1.2167901e-38 338 288
0.021753605 0.653 -0.054956477 1.2167901e-38 339 288
0.022933599 0.65399998 -0.055040635 1.2260455e-38 340 288
0.024080278 0.65399998 -0.055040635 1.2260455e-38 341 288
0.025265532 0.65499997 -0.055124797 1.2260455e-38 342 288
0.026413966 0.65499997 -0.055124797 1.2352651e-38 343 288
0.027646558 0.65700001 -0.055293117 1.2352651e-38 344 288
0.028842334 0.65799999 -0.055377278 1.2444848e-38 345 288
0.030041611 0.65899998 -0.055461437 1.2444848e-38 346 288
0.031291738 0.66100001 -0.05562976 1.2537043e-38 347 288
0.032499783 0.662 -0.055713918 1.2629239e-38 348 288
0.033762183 0.66399997 -0.055882234 1.281327e-38 349 288
0.0349264 0.66399997 -0.055882234 1.2722156e-38 350 288
0.03619932 0.66600001 -0.056050558 1.2814352e-38 351 288
0.037367038 0.66600001 -0.056050558 1.2722522e-38 352 288
0.038592618 0.667 -0.056134716 1.2722522e-38 353 288
0.039762091 0.667 -0.056134716 1.2446313e-38 354 288
0.040931564 0.667 -0.056134716 1.2353759e-38 355 288
-0.041324314 0.63700002 -0.054726794 1.8156272e-38 283 289
-0.040207442 0.63700002 -0.054726794 1.8064077e-38 284 289
-0.039090566 0.63700002 -0.054726794 1.797188e-38 285 289
-0.037973695 0.63700002 -0.054726794 1.8247022e-38 286 289
-0.036856819 0.63700002 -0.054726794 1.8247022e-38 287 289
-0.035739947 0.63700002 -0.054726794 1.7879681e-38 288 289
-0.034623075 0.63700002 -0.054726794 1.7879681e-38 289 289
-0.0335062 0.63700002 -0.054726794 1.7971524e-38 290 289
-0.032389328 0.63700002 -0.054726794 1.7879328e-38 291 289
-0.031272452 0.63700002 -0.054726794 1.8062278e-38 292 289
-0.03020292 0.63800001 -0.054812707 1.7877528e-38 293 289
-0.029084295 0.63800001 -0.054812707 1.7417258e-38 294 289
-0.027965667 0.63800001 -0.054812707 1.7417258e-38 295 289
-0.02684704 0.63800001 -0.054812707 1.686625e-38 296 289
-0.025728412 0.63800001 -0.054812707 1.686625e-38 297 289
-0.024609786 0.63800001 -0.054812707 1.677441e-38 298 289
-0.023491161 0.63800001 -0.054812707 1.6405628e-38 299 289
-0.022372533 0.63800001 -0.054812707 1.658893e-38 300 289
-0.021253906 0.63800001 -0.054812707 1.6496376e-38 301 289
-0.02013528 0.63800001 -0.054812707 1.6496732e-38 302 289
-0.019016653 0.63800001 -0.054812707 1.6404536e-38 303 289
-0.017898027 0.63800001 -0.054812707 1.6311984e-38 304 289
-0.016779399 0.63800001 -0.054812707 1.6311984e-38 305 289
-0.015709866 0.63999999 -0.054984529 1.6036125e-38 306 289
-0.014587732 0.63999999 -0.054984529 1.6036125e-38 307 289
-0.013486639 0.64099997 -0.055070441 1.6036136e-38 308 289
-0.012362752 0.64099997 -0.055070441 1.5943939e-38 309 289
-0.011238866 0.64099997 -0.055070441 1.5759911e-38 310 289
-0.010114979 0.64099997 -0.055070441 1.5759911e-38 311 289
-0.0089910924 0.64099997 -0.055070441 1.5668078e-38 312 289
-0.0078672068 0.64099997 -0.055070441 1.5575882e-38 313 289
-0.0067433193 0.64099997 -0.055070441 1.539257e-38 314 289
-0.0056281998 0.64200002 -0.055156358 1.5300374e-38 315 289
-0.00450256 0.64200002 -0.055156358 1.5391848e-38 316 289
-0.00337692 0.64200002 -0.055156358 1.5207457e-38 317 289
-0.0022547867 0.64300001 -0.05524227 1.5115624e-38 318 289
-0.0011273933 0.64300001 -0.05524227 1.5115624e-38 319 289
0 0.64300001 -0.05524227 1.4931595e-38 320 289
0.0011291467 0.64399999 -0.055328183 1.4746845e-38 321 289
0.0022582933 0.64399999 -0.055328183 1.4837946e-38 322 289
0.0033874398 0.64399999 -0.055328183 1.474575e-38 323 289
0.0045165867 0.64399999 -0.055328183 1.4195083e-38 324 289
0.0056632664 0.64600003 -0.055500012 1.4195083e-38 325 289
0.00679592 0.64600003 -0.055500012 1.4195434e-38 326 289
0.0079285735 0.64600003 -0.055500012 1.3826292e-38 327 289
0.0090612266 0.64600003 -0.055500012 1.3825575e-38 328 289
0.01020966 0.64700001 -0.055585928 1.3733379e-38 329 289
0.0113616 0.648 -0.055671841 1.3181667e-38 330 289
0.01249776 0.648 -0.055671841 1.2997276e-38 331 289
0.013654959 0.64899999 -0.05575775 1.2535947e-38 332 289
0.014792874 0.64899999 -0.05575775 1.2535947e-38 333 289
0.015930785 0.64899999 -0.05575775 1.2443401e-38 334 289
0.017095 0.64999998 -0.055843662 1.2535597e-38 335 289
0.018234665 0.64999998 -0.055843662 1.225938e-38 336 289
0.019433947 0.65200001 -0.056015491 1.225938e-38 337 289
0.02057712 0.65200001 -0.056015491 1.1800923e-38 338 289
0.021753605 0.653 -0.056101404 1.1800923e-38 339 289
0.022933599 0.65399998 -0.056187313 1.1984591e-38 340 289
0.024080278 0.65399998 -0.056187313 1.1984591e-38 341 289
0.025265532 0.65499997 -0.056273226 1.2076787e-38 342 289
0.026413966 0.65499997 -0.056273226 1.2168982e-38 343 289
0.027646558 0.65700001 -0.056445058 1.2444494e-38 344 289
0.028842334 0.65799999 -0.056530971 1.2444494e-38 345 289
0.030041611 0.65899998 -0.056616884 1.2445213e-38 346 289
0.031291738 0.66100001 -0.056788713 1.2537409e-38 347 289
0.032548878 0.66299999 -0.056960538 1.2629605e-38 348 289
0.033762183 0.66399997 -0.057046451 1.2629605e-38 349 289
0.035031598 0.66600001 -0.057218276 1.2446295e-38 350 289
0.03619932 0.66600001 -0.057218276 1.2538491e-38 351 289
0.037367038 0.66600001 -0.057218276 1.2446664e-38 352 289
0.03853476 0.66600001 -0.057218276 1.2446664e-38 353 289
0.039702479 0.66600001 -0.057218276 1.1985352e-38 354 289
0.040931564 0.667 -0.057304189 1.1524374e-38 355 289
-0.051779442 0.64200002 -0.056282002 1.7789733e-38 274 290
-0.048327126 0.64099997 -0.056194331 1.7235426e-38 277 290
-0.047129598 0.63999999 -0.056106664 1.7878981e-38 278 290
-0.046007466 0.63999999 -0.056106664 1.7971176e-38 279 290
-0.044674933 0.63700002 -0.055843666 1.7971527e-38 280 290
-0.043558061 0.63700002 -0.055843666 1.7971527e-38 281 290
-0.042441189 0.63700002 -0.055843666 1.7788565e-38 282 290
-0.041324314 0.63700002 -0.055843666 1.8064793e-38 283 290
-0.040207442 0.63700002 -0.055843666 1.8064074e-38 284 290
-0.039090566 0.63700002 -0.055843666 1.7971877e-38 285 290
-0.037973695 0.63700002 -0.055843666 1.8155189e-38 286 290
-0.036856819 0.63700002 -0.055843666 1.8155189e-38 287 290
-0.035739947 0.63700002 -0.055843666 1.7511975e-38 288 290
-0.034623075 0.63700002 -0.055843666 1.7419779e-38 289 290
-0.033453599 0.63599998 -0.055755995 1.760237e-38 290 290
-0.032338478 0.63599998 -0.055755995 1.7417977e-38 291 290
-0.031272452 0.63700002 -0.055843666 1.751017e-38 292 290
-0.03015558 0.63700002 -0.055843666 1.7141748e-38 293 290
-0.029084295 0.63800001 -0.055931333 1.6864438e-38 294 290
-0.027965667 0.63800001 -0.055931333 1.6772242e-38 295 290
-0.02684704 0.63800001 -0.055931333 1.6313432e-38 296 290
-0.025728412 0.63800001 -0.055931333 1.6221236e-38 297 290
-0.024609786 0.63800001 -0.055931333 1.6128319e-38 298 290
-0.02345434 0.63700002 -0.055843666 1.6036122e-38 299 290
-0.022337466 0.63700002 -0.055843666 1.5943923e-38 300 290
-0.021220595 0.63700002 -0.055843666 1.5759532e-38 301 290
-0.020103721 0.63700002 -0.055843666 1.5575517e-38 302 290
-0.018986847 0.63700002 -0.055843666 1.5667712e-38 303 290
-0.017869974 0.63700002 -0.055843666 1.5482615e-38 304 290
-0.0167531 0.63700002 -0.055843666 1.5759202e-38 305 290
-0.015636226 0.63700002 -0.055843666 1.557481e-38 306 290
-0.014542148 0.63800001 -0.055931333 1.5759202e-38 307 290
-0.013465599 0.63999999 -0.056106664 1.5575163e-38 308 290
-0.012343466 0.63999999 -0.056106664 1.5575163e-38 309 290
-0.011221332 0.63999999 -0.056106664 1.5300006e-38 310 290
-0.0100992 0.63999999 -0.056106664 1.5300006e-38 311 290
-0.0089770658 0.63999999 -0.056106664 1.5115977e-38 312 290
-0.0078549329 0.63999999 -0.056106664 1.5115977e-38 313 290
-0.0067433193 0.64099997 -0.056194331 1.5207101e-38 314 290
-0.0056194332 0.64099997 -0.056194331 1.5114904e-38 315 290
-0.0044955462 0.64099997 -0.056194331 1.5023062e-38 316 290
-0.00337692 0.64200002 -0.056282002 1.5023062e-38 317 290
-0.00225128 0.64200002 -0.056282002 1.4655005e-38 318 290
-0.00112564 0.64200002 -0.056282002 1.4655005e-38 319 290
0 0.64300001 -0.056369666 1.4745397e-38 320 290
0.0011291467 0.64399999 -0.056457333 1.4376973e-38 321 290
0.0022582933 0.64399999 -0.056457333 1.4009615e-38 322 290
0.0033874398 0.64399999 -0.056457333 1.3917419e-38 323 290
0.0045165867 0.64399999 -0.056457333 1.3366414e-38 324 290
0.0056632664 0.64600003 -0.056632672 1.3274219e-38 325 290
0.00679592 0.64600003 -0.056632672 1.32735e-38 326 290
0.0079285735 0.64600003 -0.056632672 1.2996554e-38 327 290
0.0090612266 0.64600003 -0.056632672 1.2996201e-38 328 290
0.01020966 0.64700001 -0.056720335 1.2904005e-38 329 290
0.0113616 0.648 -0.056808002 1.262816e-38 330 290
0.01249776 0.648 -0.056808002 1.2444127e-38 331 290
0.013654959 0.64899999 -0.056895666 1.2168256e-38 332 290
0.014792874 0.64899999 -0.056895666 1.2168256e-38 333 290
0.015955333 0.64999998 -0.056983333 1.2168254e-38 334 290
0.017095 0.64999998 -0.056983333 1.2168254e-38 335 290
0.018234665 0.64999998 -0.056983333 1.1892393e-38 336 290
0.019433947 0.65200001 -0.057158668 1.1984588e-38 337 290
0.02057712 0.65200001 -0.057158668 1.1800923e-38 338 290
0.021753605 0.653 -0.057246335 1.1800923e-38 339 290
0.022933599 0.65399998 -0.057333998 1.1984238e-38 340 290
0.024080278 0.65399998 -0.057333998 1.2076434e-38 341 290
0.025265532 0.65499997 -0.057421666 1.207679e-38 342 290
0.026413966 0.65499997 -0.057421666 1.2261182e-38 343 290
0.027646558 0.65700001 -0.057596996 1.2261185e-38 344 290
0.028842334 0.65799999 -0.057684667 1.2445216e-38 345 290
0.030041611 0.65899998 -0.057772331 1.2444863e-38 346 290
0.031291738 0.66100001 -0.057947662 1.2444863e-38 347 290
0.032450691 0.66100001 -0.057947662 1.2537059e-38 348 290
0.033609647 0.66100001 -0.057947662 1.2537059e-38 349 290
0.0349264 0.66399997 -0.05821066 1.2353746e-38 350 290
0.03619932 0.66600001 -0.058385998 1.2353746e-38 351 290
0.037367038 0.66600001 -0.058385998 1.2077532e-38 352 290
0.03853476 0.66600001 -0.058385998 1.1985337e-38 353 290
0.039702479 0.66600001 -0.058385998 1.1248884e-38 354 290
-0.052905083 0.64200002 -0.05740764 1.7235133e-38 273 291
-0.051698782 0.64099997 -0.057318214 1.7327987e-38 274 291
-0.050574899 0.64099997 -0.057318214 1.7143956e-38 275 291
-0.049451008 0.64099997 -0.057318214 1.760382e-38 276 291
-0.048251729 0.63999999 -0.057228796 1.7511625e-38 277 291
-0.046982322 0.63800001 -0.05704996 1.7787486e-38 278 291
