# .PCD v.7 - Point Cloud Data file format
FIELDS x y z rgb imX imY
SIZE 4 4 4 4 4 4
TYPE F F F F F F
COUNT 1 1 1 1 1 1
WIDTH 845
HEIGHT 1
VIEWPOINT 0 0 0 1 0 0 0
POINTS 845
DATA ascii
0.067591004 0.77100003 -0.02433276 1.7050665e-38 370 258
0.068942823 0.77100003 -0.02433276 1.695811e-38 371 258
0.070294641 0.77100003 -0.02433276 1.6866265e-38 372 258
0.071646459 0.77100003 -0.02433276 1.6405646e-38 373 258
0.072998285 0.77100003 -0.02433276 1.6037571e-38 374 258
0.074350104 0.77100003 -0.02433276 1.5668428e-38 375 258
0.075701922 0.77100003 -0.02433276 1.5482965e-38 376 258
0.077353559 0.77399999 -0.02442744 1.5021987e-38 377 258
0.078710638 0.77399999 -0.02442744 1.4652498e-38 378 258
0.080067717 0.77399999 -0.02442744 1.4284074e-38 379 258
0.081635199 0.77600002 -0.024490559 1.3913494e-38 380 258
0.082995787 0.77600002 -0.024490559 1.3636907e-38 381 258
0.084356368 0.77600002 -0.024490559 1.2716042e-38 382 258
0.08593788 0.778 -0.024553679 1.2439455e-38 383 258
0.08730197 0.778 -0.024553679 1.1061619e-38 384 258
0.088438138 0.77600002 -0.024490559 1.2628946e-38 385 258
0.089798726 0.77600002 -0.024490559 1.530448e-38 386 258
0.05079582 0.78299999 -0.026084339 1.4199907e-38 357 259
0.052035429 0.78100002 -0.026017714 1.5024583e-38 358 259
0.053404782 0.78100002 -0.026017714 1.5116779e-38 359 259
0.054703996 0.77999997 -0.025984399 1.5759237e-38 360 259
0.055927824 0.778 -0.025917772 1.5851432e-38 361 259
0.057291918 0.778 -0.025917772 1.603653e-38 362 259
0.058505226 0.77600002 -0.025851147 1.6220922e-38 363 259
0.059711516 0.77399999 -0.025784519 1.6497858e-38 364 259
0.060989697 0.773 -0.025751207 1.6590054e-38 365 259
0.06234502 0.773 -0.025751207 1.6866271e-38 366 259
0.063700356 0.773 -0.025751207 1.6866271e-38 367 259
0.065055676 0.773 -0.025751207 1.6958113e-38 368 259
0.066411003 0.773 -0.025751207 1.6958113e-38 369 259
0.067591004 0.77100003 -0.02568458 1.6958116e-38 370 259
0.068942823 0.77100003 -0.02568458 1.6958116e-38 371 259
0.070294641 0.77100003 -0.02568458 1.668259e-38 372 259
0.071646459 0.77100003 -0.02568458 1.649784e-38 373 259
0.072998285 0.77100003 -0.02568458 1.6129038e-38 374 259
0.074350104 0.77100003 -0.02568458 1.5760614e-38 375 259
0.075701922 0.77100003 -0.02568458 1.5482952e-38 376 259
0.077053741 0.77100003 -0.02568458 1.511381e-38 377 259
0.078405559 0.77100003 -0.02568458 1.4928348e-38 378 259
0.079964265 0.773 -0.025751207 1.4375175e-38 379 259
0.081424795 0.77399999 -0.025784519 1.4097156e-38 380 259
0.082781881 0.77399999 -0.025784519 1.3544341e-38 381 259
0.084356368 0.77600002 -0.025851147 1.2899717e-38 382 259
0.08593788 0.778 -0.025917772 1.2438379e-38 383 259
0.087077543 0.77600002 -0.025851147 1.0968348e-38 384 259
0.088438138 0.77600002 -0.025851147 1.2443479e-38 385 259
0.089798726 0.77600002 -0.025851147 1.4844575e-38 386 259
0.050666075 0.78100002 -0.027387068 1.4475417e-38 357 260
0.052035429 0.78100002 -0.027387068 1.511606e-38 358 260
0.053404782 0.78100002 -0.027387068 1.5208256e-38 359 260
0.054703996 0.77999997 -0.027351998 1.566812e-38 360 260
0.055927824 0.778 -0.027281865 1.5852511e-38 361 260
0.057144642 0.77600002 -0.027211733 1.6129081e-38 362 260
0.058505226 0.77600002 -0.027211733 1.6497505e-38 363 260
0.059711516 0.77399999 -0.027141599 1.6590054e-38 364 260
0.060989697 0.773 -0.027106533 1.6682249e-38 365 260
0.062183715 0.77100003 -0.027036399 1.695811e-38 366 260
0.063535534 0.77100003 -0.027036399 1.695811e-38 367 260
0.064719036 0.76899999 -0.026966266 1.6958113e-38 368 260
0.066067353 0.76899999 -0.026966266 1.6958113e-38 369 260
0.067415662 0.76899999 -0.026966266 1.6867001e-38 370 260
0.068763971 0.76899999 -0.026966266 1.6774445e-38 371 260
0.070112288 0.76899999 -0.026966266 1.6683319e-38 372 260
0.071460605 0.76899999 -0.026966266 1.6130504e-38 373 260
0.072808921 0.76899999 -0.026966266 1.6037939e-38 374 260
0.074157231 0.76899999 -0.026966266 1.5484766e-38 375 260
0.075701922 0.77100003 -0.027036399 1.5207104e-38 376 260
0.077053741 0.77100003 -0.027036399 1.4746126e-38 377 260
0.078405559 0.77100003 -0.027036399 1.4376267e-38 378 260
0.079757385 0.77100003 -0.027036399 1.409968e-38 379 260
0.0813196 0.773 -0.027106533 1.3636551e-38 380 260
0.082781881 0.77399999 -0.027141599 1.3360323e-38 381 260
0.084356368 0.77600002 -0.027211733 1.2532024e-38 382 260
0.08593788 0.778 -0.027281865 1.2439828e-38 383 260
0.087077543 0.77600002 -0.027211733 1.1336056e-38 384 260
0.088438138 0.77600002 -0.027211733 1.2534598e-38 385 260
0.089798726 0.77600002 -0.027211733 1.4935336e-38 386 260
0.050666075 0.78100002 -0.028756421 1.4383575e-38 357 261
0.052035429 0.78100002 -0.028756421 1.5116779e-38 358 261
0.053336397 0.77999997 -0.028719598 1.5116779e-38 359 261
0.054703996 0.77999997 -0.028719598 1.5852867e-38 360 261
0.055927824 0.778 -0.028645959 1.6036898e-38 361 261
0.057144642 0.77600002 -0.028572321 1.6313471e-38 362 261
0.058354434 0.77399999 -0.028498679 1.6497861e-38 363 261
0.059634373 0.773 -0.028461859 1.6498937e-38 364 261
0.060831897 0.77100003 -0.028388219 1.6498937e-38 365 261
0.062183715 0.77100003 -0.028388219 1.6683324e-38 366 261
0.063535534 0.77100003 -0.028388219 1.6775521e-38 367 261
0.064719036 0.76899999 -0.028314579 1.6774801e-38 368 261
0.066067353 0.76899999 -0.028314579 1.6866998e-38 369 261
0.067415662 0.76899999 -0.028314579 1.705031e-38 370 261
0.068585135 0.76700002 -0.02824094 1.705031e-38 371 261
0.06992995 0.76700002 -0.02824094 1.6958101e-38 372 261
0.071460605 0.76899999 -0.028314579 1.6588958e-38 373 261
0.072808921 0.76899999 -0.028314579 1.6128332e-38 374 261
0.074157231 0.76899999 -0.028314579 1.5667712e-38 375 261
0.07550554 0.76899999 -0.028314579 1.5298572e-38 376 261
0.076853856 0.76899999 -0.028314579 1.47454e-38 377 261
0.078202173 0.76899999 -0.028314579 1.4742882e-38 378 261
0.079757385 0.77100003 -0.028388219 1.4189708e-38 379 261
0.0813196 0.773 -0.028461859 1.3912768e-38 380 261
0.082674921 0.773 -0.028461859 1.345179e-38 381 261
0.084138952 0.77399999 -0.028498679 1.2532027e-38 382 261
0.085716955 0.77600002 -0.028572321 1.2347275e-38 383 261
0.087077543 0.77600002 -0.028572321 1.1060194e-38 384 261
0.088210195 0.77399999 -0.028498679 1.2258737e-38 385 261
0.089567274 0.77399999 -0.028498679 1.4567631e-38 386 261
0.049422957 0.78299999 -0.03020292 1.5950901e-38 356 262
0.05079582 0.78299999 -0.03020292 1.4198825e-38 357 262
0.052035429 0.78100002 -0.030125774 1.5209328e-38 358 262
0.053336397 0.77999997 -0.030087199 1.5209328e-38 359 262
0.054563731 0.778 -0.03001005 1.6036895e-38 360 262
0.055784054 0.77600002 -0.029932907 1.6221647e-38 361 262
0.057144642 0.77600002 -0.029932907 1.631419e-38 362 262
0.058354434 0.77399999 -0.029855758 1.6406744e-38 363 262
0.059480079 0.77100003 -0.029740039 1.6498937e-38 364 262
0.060831897 0.77100003 -0.029740039 1.6498937e-38 365 262
0.062022414 0.76899999 -0.02966289 1.6774801e-38 366 262
0.063370727 0.76899999 -0.02966289 1.6774801e-38 367 262
0.064719036 0.76899999 -0.02966289 1.686772e-38 368 262
0.066067353 0.76899999 -0.02966289 1.686772e-38 369 262
0.067240335 0.76700002 -0.029585747 1.714323e-38 370 262
0.068585135 0.76700002 -0.029585747 1.6866645e-38 371 262
0.06992995 0.76700002 -0.029585747 1.6865918e-38 372 262
0.07127475 0.76700002 -0.029585747 1.6312744e-38 373 262
0.072619557 0.76700002 -0.029585747 1.5852476e-38 374 262
0.074157231 0.76899999 -0.02966289 1.5391498e-38 375 262
0.07550554 0.76899999 -0.02966289 1.5114188e-38 376 262
0.076853856 0.76899999 -0.02966289 1.4652851e-38 377 262
0.078202173 0.76899999 -0.02966289 1.4467018e-38 378 262
0.079550482 0.76899999 -0.02966289 1.419043e-38 379 262
0.081109203 0.77100003 -0.029740039 1.3361039e-38 380 262
0.082461022 0.77100003 -0.029740039 1.3176648e-38 381 262
0.084030248 0.773 -0.029817186 1.216361e-38 382 262
0.085496038 0.77399999 -0.029855758 1.1979219e-38 383 262
0.086853117 0.77399999 -0.029855758 1.0875802e-38 384 262
0.087640367 0.76899999 -0.02966289 1.2258737e-38 385 262
0.088988677 0.76899999 -0.02966289 1.4475436e-38 386 262
0.049422957 0.78299999 -0.031575777 1.5673589e-38 356 263
0.050666075 0.78100002 -0.031495128 1.4106262e-38 357 263
0.051968798 0.77999997 -0.031454798 1.5485189e-38 358 263
0.053199638 0.778 -0.031374145 1.5485189e-38 359 263
0.054423466 0.77600002 -0.031293493 1.6129092e-38 360 263
0.055784054 0.77600002 -0.031293493 1.6221647e-38 361 263
0.056997359 0.77399999 -0.031212838 1.6314193e-38 362 263
0.058279041 0.773 -0.03117251 1.6498584e-38 363 263
0.059480079 0.77100003 -0.031091858 1.6498584e-38 364 263
0.060674097 0.76899999 -0.031011207 1.6682615e-38 365 263
0.062022414 0.76899999 -0.031011207 1.6775168e-38 366 263
0.063370727 0.76899999 -0.031011207 1.6775168e-38 367 263
0.064719036 0.76899999 -0.031011207 1.6775168e-38 368 263
0.066067353 0.76899999 -0.031011207 1.6867364e-38 369 263
0.067240335 0.76700002 -0.030930554 1.7142509e-38 370 263
0.068585135 0.76700002 -0.030930554 1.6958116e-38 371 263
0.06992995 0.76700002 -0.030930554 1.659041e-38 372 263
0.07127475 0.76700002 -0.030930554 1.6037236e-38 373 263
0.072619557 0.76700002 -0.030930554 1.5852473e-38 374 263
0.074157231 0.76899999 -0.031011207 1.52993e-38 375 263
0.07550554 0.76899999 -0.031011207 1.5022343e-38 376 263
0.076853856 0.76899999 -0.031011207 1.46532e-38 377 263
0.078202173 0.76899999 -0.031011207 1.4375538e-38 378 263
0.079550482 0.76899999 -0.031011207 1.3914919e-38 379 263
0.081109203 0.77100003 -0.031091858 1.3361395e-38 380 263
0.082461022 0.77100003 -0.031091858 1.3084449e-38 381 263
0.084030248 0.773 -0.03117251 1.216361e-38 382 263
0.085496038 0.77399999 -0.031212838 1.1979219e-38 383 263
0.086853117 0.77399999 -0.031212838 1.124279e-38 384 263
0.087640367 0.76899999 -0.031011207 1.2441333e-38 385 263
0.088988677 0.76899999 -0.031011207 1.4383237e-38 386 263
0.050601196 0.77999997 -0.032822397 1.4013695e-38 357 264
0.051835544 0.778 -0.032738242 1.548482e-38 358 264
0.053062879 0.77600002 -0.032654081 1.5669572e-38 359 264
0.054423466 0.77600002 -0.032654081 1.6037976e-38 360 264
0.055640277 0.77399999 -0.032569919 1.613053e-38 361 264
0.056923717 0.773 -0.032527838 1.6589701e-38 362 264
0.057977475 0.76899999 -0.032359518 1.6682255e-38 363 264
0.059325781 0.76899999 -0.032359518 1.6682252e-38 364 264
0.060674097 0.76899999 -0.032359518 1.6774448e-38 365 264
0.062022414 0.76899999 -0.032359518 1.6775168e-38 366 264
0.063370727 0.76899999 -0.032359518 1.6867364e-38 367 264
0.06455072 0.76700002 -0.03227536 1.6867364e-38 368 264
0.065895528 0.76700002 -0.03227536 1.6867364e-38 369 264
0.067240335 0.76700002 -0.03227536 1.6866645e-38 370 264
0.068585135 0.76700002 -0.03227536 1.6682252e-38 371 264
0.06992995 0.76700002 -0.03227536 1.6314175e-38 372 264
0.07127475 0.76700002 -0.03227536 1.5945391e-38 373 264
0.072619557 0.76700002 -0.03227536 1.5668428e-38 374 264
0.073964365 0.76700002 -0.03227536 1.520781e-38 375 264
0.075309172 0.76700002 -0.03227536 1.4930144e-38 376 264
0.07665398 0.76700002 -0.03227536 1.4469166e-38 377 264
0.077998787 0.76700002 -0.03227536 1.437482e-38 378 264
0.079550482 0.76899999 -0.032359518 1.39142e-38 379 264
0.080898799 0.76899999 -0.032359518 1.3268843e-38 380 264
0.082461022 0.77100003 -0.032443684 1.2900421e-38 381 264
0.08381284 0.77100003 -0.032443684 1.2071417e-38 382 264
0.085164659 0.77100003 -0.032443684 1.1702636e-38 383 264
0.086292051 0.76899999 -0.032359518 1.0967645e-38 384 264
0.087640367 0.76899999 -0.032359518 1.2166188e-38 385 264
0.050601196 0.77999997 -0.034189999 1.4289915e-38 357 265
0.051702294 0.77600002 -0.034014668 1.5668486e-38 358 265
0.052926116 0.77399999 -0.033927001 1.5945433e-38 359 265
0.054213066 0.773 -0.033883166 1.6221647e-38 360 265
0.055280842 0.76899999 -0.033707831 1.6406038e-38 361 265
0.056629159 0.76899999 -0.033707831 1.6590057e-38 362 265
0.057977475 0.76899999 -0.033707831 1.6682252e-38 363 265
0.059325781 0.76899999 -0.033707831 1.6774798e-38 364 265
0.060674097 0.76899999 -0.033707831 1.6774798e-38 365 265
0.061861109 0.76700002 -0.033620168 1.6866998e-38 366 265
0.063205913 0.76700002 -0.033620168 1.6959194e-38 367 265
0.06455072 0.76700002 -0.033620168 1.6867364e-38 368 265
0.065895528 0.76700002 -0.033620168 1.6867364e-38 369 265
0.067240335 0.76700002 -0.033620168 1.6775165e-38 370 265
0.068585135 0.76700002 -0.033620168 1.6406742e-38 371 265
0.06992995 0.76700002 -0.033620168 1.6222698e-38 372 265
0.07127475 0.76700002 -0.033620168 1.5577328e-38 373 265
0.072619557 0.76700002 -0.033620168 1.5392567e-38 374 265
0.073964365 0.76700002 -0.033620168 1.4931589e-38 375 265
0.075309172 0.76700002 -0.033620168 1.465428e-38 376 265
0.07665398 0.76700002 -0.033620168 1.4285497e-38 377 265
0.077998787 0.76700002 -0.033620168 1.4006759e-38 378 265
0.079343595 0.76700002 -0.033620168 1.3730172e-38 379 265
0.080898799 0.76899999 -0.033707831 1.3084096e-38 380 265
0.082247108 0.76899999 -0.033707831 1.2715672e-38 381 265
0.083595425 0.76899999 -0.033707831 1.1887023e-38 382 265
0.085164659 0.77100003 -0.033795502 1.151824e-38 383 265
0.086292051 0.76899999 -0.033707831 1.0417348e-38 384 265
0.087640367 0.76899999 -0.033707831 1.1707728e-38 385 265
0.051569037 0.77399999 -0.03528408 1.5577722e-38 358 266
0.052720979 0.77100003 -0.03514732 1.585395e-38 359 266
0.053932533 0.76899999 -0.035056144 1.613053e-38 360 266
0.055280842 0.76899999 -0.035056144 1.613053e-38 361 266
0.056629159 0.76899999 -0.035056144 1.6682249e-38 362 266
0.057826683 0.76700002 -0.034964975 1.6682249e-38 363 266
0.059171494 0.76700002 -0.034964975 1.6958466e-38 364 266
0.060516298 0.76700002 -0.034964975 1.7050662e-38 365 266
0.061861109 0.76700002 -0.034964975 1.695955e-38 366 266
0.063205913 0.76700002 -0.034964975 1.695955e-38 367 266
0.06455072 0.76700002 -0.034964975 1.6959196e-38 368 266
0.065895528 0.76700002 -0.034964975 1.6867001e-38 369 266
0.067240335 0.76700002 -0.034964975 1.6682249e-38 370 266
0.068585135 0.76700002 -0.034964975 1.6497858e-38 371 266
0.069838762 0.76599997 -0.034919381 1.6037586e-38 372 266
0.071181826 0.76599997 -0.034919381 1.5760641e-38 373 266
0.072524875 0.76599997 -0.034919381 1.5483315e-38 374 266
0.073964365 0.76700002 -0.034964975 1.5022696e-38 375 266
0.075309172 0.76700002 -0.034964975 1.4837227e-38 376 266
0.07665398 0.76700002 -0.034964975 1.4468443e-38 377 266
0.077998787 0.76700002 -0.034964975 1.437302e-38 378 266
0.079343595 0.76700002 -0.034964975 1.3819846e-38 379 266
0.080898799 0.76899999 -0.035056144 1.3359244e-38 380 266
0.082247108 0.76899999 -0.035056144 1.280607e-38 381 266
0.083595425 0.76899999 -0.035056144 1.1793388e-38 382 266
0.084943734 0.76899999 -0.035056144 1.1516443e-38 383 266
0.086292051 0.76899999 -0.035056144 1.0510263e-38 384 266
0.087412432 0.76700002 -0.034964975 1.1801001e-38 385 266
0.088757239 0.76700002 -0.034964975 1.3921913e-38 386 266
0.048539277 0.76899999 -0.036404461 1.5579205e-38 356 267
0.04988759 0.76899999 -0.036404461 1.4749445e-38 357 267
0.051235907 0.76899999 -0.036404461 1.585323e-38 358 267
0.052584216 0.76899999 -0.036404461 1.6130177e-38 359 267
0.053792264 0.76700002 -0.036309779 1.6039051e-38 360 267
0.055137072 0.76700002 -0.036309779 1.6223442e-38 361 267
0.056481879 0.76700002 -0.036309779 1.6682249e-38 362 267
0.057751291 0.76599997 -0.036262438 1.6682249e-38 363 267
0.059094343 0.76599997 -0.036262438 1.6866994e-38 364 267
0.060437392 0.76599997 -0.036262438 1.695955e-38 365 267
0.061780453 0.76599997 -0.036262438 1.7143228e-38 366 267
0.063123502 0.76599997 -0.036262438 1.7143228e-38 367 267
0.064466551 0.76599997 -0.036262438 1.6867367e-38 368 267
0.065809615 0.76599997 -0.036262438 1.6775171e-38 369 267
0.067152664 0.76599997 -0.036262438 1.6498584e-38 370 267
0.068495713 0.76599997 -0.036262438 1.6221997e-38 371 267
0.069838762 0.76599997 -0.036262438 1.5853921e-38 372 267
0.071181826 0.76599997 -0.036262438 1.5208551e-38 373 267
0.072524875 0.76599997 -0.036262438 1.5208176e-38 374 267
0.073867925 0.76599997 -0.036262438 1.4655002e-38 375 267
0.075309172 0.76700002 -0.036309779 1.4652847e-38 376 267
0.076554038 0.76599997 -0.036262438 1.4192229e-38 377 267
0.077897087 0.76599997 -0.036262438 1.3638352e-38 378 267
0.079343595 0.76700002 -0.036309779 1.3177374e-38 379 267
0.080688395 0.76700002 -0.036309779 1.2714967e-38 380 267
0.082247108 0.76899999 -0.036404461 1.2438379e-38 381 267
0.083595425 0.76899999 -0.036404461 1.160936e-38 382 267
0.084943734 0.76899999 -0.036404461 1.1240579e-38 383 267
0.086292051 0.76899999 -0.036404461 1.0601737e-38 384 267
0.087412432 0.76700002 -0.036309779 1.2076508e-38 385 267
0.088757239 0.76700002 -0.036309779 1.382971e-38 386 267
0.048539277 0.76899999 -0.03775277 1.521114e-38 356 268
0.04988759 0.76899999 -0.03775277 1.4842717e-38 357 268
0.051235907 0.76899999 -0.03775277 1.5670994e-38 358 268
0.052447457 0.76700002 -0.037654586 1.5855385e-38 359 268
0.053792264 0.76700002 -0.037654586 1.6314914e-38 360 268
0.055137072 0.76700002 -0.037654586 1.640711e-38 361 268
0.056408234 0.76599997 -0.037605491 1.6682249e-38 362 268
0.057751291 0.76599997 -0.037605491 1.6774445e-38 363 268
0.059094343 0.76599997 -0.037605491 1.6959194e-38 364 268
0.060437392 0.76599997 -0.037605491 1.6959194e-38 365 268
0.061619148 0.764 -0.037507307 1.7142512e-38 366 268
0.062958695 0.764 -0.037507307 1.7142512e-38 367 268
0.064298242 0.764 -0.037507307 1.7142156e-38 368 268
0.06563779 0.764 -0.037507307 1.704996e-38 369 268
0.06697733 0.764 -0.037507307 1.6590057e-38 370 268
0.068495713 0.76599997 -0.037605491 1.6221275e-38 371 268
0.069838762 0.76599997 -0.037605491 1.5852839e-38 372 268
0.070995972 0.764 -0.037507307 1.5391861e-38 373 268
0.072335519 0.764 -0.037507307 1.511526e-38 374 268
0.073867925 0.76599997 -0.037605491 1.4746479e-38 375 268
0.075309172 0.76700002 -0.037654586 1.4468819e-38 376 268
0.076554038 0.76599997 -0.037605491 1.4007482e-38 377 268
0.077897087 0.76599997 -0.037605491 1.3271011e-38 378 268
0.079343595 0.76700002 -0.037654586 1.2717837e-38 379 268
0.080688395 0.76700002 -0.037654586 1.2898283e-38 380 268
0.082247108 0.76899999 -0.03775277 1.2345109e-38 381 268
0.083595425 0.76899999 -0.03775277 1.1516092e-38 382 268
0.084943734 0.76899999 -0.03775277 1.1055114e-38 383 268
0.086292051 0.76899999 -0.03775277 1.0785054e-38 384 268
0.087640367 0.76899999 -0.03775277 1.2260186e-38 385 268
0.048413042 0.76700002 -0.038999394 1.4935266e-38 356 269
0.049757849 0.76700002 -0.038999394 1.5119297e-38 357 269
0.051102653 0.76700002 -0.038999394 1.5946505e-38 358 269
0.052447457 0.76700002 -0.038999394 1.60387e-38 359 269
0.053792264 0.76700002 -0.038999394 1.6314912e-38 360 269
0.055065181 0.76599997 -0.038948543 1.6407107e-38 361 269
0.056408234 0.76599997 -0.038948543 1.6774801e-38 362 269
0.057751291 0.76599997 -0.038948543 1.6866998e-38 363 269
0.059094343 0.76599997 -0.038948543 1.6959194e-38 364 269
0.0602796 0.764 -0.038846854 1.6959194e-38 365 269
0.061619148 0.764 -0.038846854 1.714323e-38 366 269
0.062958695 0.764 -0.038846854 1.714323e-38 367 269
0.064298242 0.764 -0.038846854 1.6958843e-38 368 269
0.06563779 0.764 -0.038846854 1.6774451e-38 369 269
0.06697733 0.764 -0.038846854 1.631419e-38 370 269
0.068316877 0.764 -0.038846854 1.6037602e-38 371 269
0.069656424 0.764 -0.038846854 1.5760646e-38 372 269
0.070995972 0.764 -0.038846854 1.5207472e-38 373 269
0.072335519 0.764 -0.038846854 1.5022355e-38 374 269
0.073675066 0.764 -0.038846854 1.4653933e-38 375 269
0.075014614 0.764 -0.038846854 1.428479e-38 376 269
0.076354161 0.764 -0.038846854 1.3731617e-38 377 269
0.077998787 0.76700002 -0.038999394 1.3453242e-38 378 269
0.079343595 0.76700002 -0.038999394 1.3084099e-38 379 269
0.080688395 0.76700002 -0.038999394 1.2438026e-38 380 269
0.082247108 0.76899999 -0.039101087 1.2069604e-38 381 269
0.083595425 0.76899999 -0.039101087 1.1240228e-38 382 269
0.084943734 0.76899999 -0.039101087 1.096364e-38 383 269
0.086292051 0.76899999 -0.039101087 1.0785422e-38 384 269
0.087640367 0.76899999 -0.039101087 1.2352747e-38 385 269
0.048413042 0.76700002 -0.040344197 1.5301877e-38 356 270
0.049757849 0.76700002 -0.040344197 1.5578465e-38 357 270
0.051102653 0.76700002 -0.040344197 1.5946505e-38 358 270
0.052447457 0.76700002 -0.040344197 1.60387e-38 359 270
0.053722132 0.76599997 -0.040291596 1.6406391e-38 360 270
0.054921411 0.764 -0.040186398 1.6498587e-38 361 270
0.056260962 0.764 -0.040186398 1.6682968e-38 362 270
0.057600506 0.764 -0.040186398 1.686772e-38 363 270
0.058940053 0.764 -0.040186398 1.686772e-38 364 270
0.0602796 0.764 -0.040186398 1.6959915e-38 365 270
0.061619148 0.764 -0.040186398 1.6958843e-38 366 270
0.062793881 0.76200002 -0.040081199 1.6958843e-38 367 270
0.064129919 0.76200002 -0.040081199 1.6866645e-38 368 270
0.065465957 0.76200002 -0.040081199 1.6682252e-38 369 270
0.066802002 0.76200002 -0.040081199 1.6221631e-38 370 270
0.068138041 0.76200002 -0.040081199 1.5944684e-38 371 270
0.069474079 0.76200002 -0.040081199 1.5759927e-38 372 270
0.070810117 0.76200002 -0.040081199 1.5206754e-38 373 270
0.072146162 0.76200002 -0.040081199 1.4930163e-38 374 270
0.073482201 0.76200002 -0.040081199 1.4469186e-38 375 270
0.075014614 0.764 -0.040186398 1.4008208e-38 376 270
0.076354161 0.764 -0.040186398 1.3455393e-38 377 270
0.077998787 0.76700002 -0.040344197 1.3177374e-38 378 270
0.079343595 0.76700002 -0.040344197 1.2808591e-38 379 270
0.080688395 0.76700002 -0.040344197 1.2253995e-38 380 270
0.082247108 0.76899999 -0.0404494 1.1977048e-38 381 270
0.083595425 0.76899999 -0.0404494 1.1148036e-38 382 270
0.084943734 0.76899999 -0.0404494 1.0779253e-38 383 270
0.086292051 0.76899999 -0.0404494 1.0877617e-38 384 270
0.048413042 0.76700002 -0.041689005 1.5854679e-38 356 271
0.049757849 0.76700002 -0.041689005 1.5762483e-38 357 271
0.051036026 0.76599997 -0.041634649 1.613053e-38 358 271
0.052379075 0.76599997 -0.041634649 1.613053e-38 359 271
0.053581864 0.764 -0.041525945 1.6590057e-38 360 271
0.054777641 0.76200002 -0.041417241 1.6682252e-38 361 271
0.056113683 0.76200002 -0.041417241 1.6682968e-38 362 271
0.057449725 0.76200002 -0.041417241 1.686772e-38 363 271
0.058785759 0.76200002 -0.041417241 1.6959559e-38 364 271
0.0602796 0.764 -0.041525945 1.6867364e-38 365 271
0.061457843 0.76200002 -0.041417241 1.6867364e-38 366 271
0.062793881 0.76200002 -0.041417241 1.6867364e-38 367 271
0.064129919 0.76200002 -0.041417241 1.6774445e-38 368 271
0.065465957 0.76200002 -0.041417241 1.6497858e-38 369 271
0.066802002 0.76200002 -0.041417241 1.6312391e-38 370 271
0.068138041 0.76200002 -0.041417241 1.5943968e-38 371 271
0.069474079 0.76200002 -0.041417241 1.5575176e-38 372 271
0.070810117 0.76200002 -0.041417241 1.5114558e-38 373 271
0.072146162 0.76200002 -0.041417241 1.4837242e-38 374 271
0.073482201 0.76200002 -0.041417241 1.4376623e-38 375 271
0.074818239 0.76200002 -0.041417241 1.4007482e-38 376 271
0.076154284 0.76200002 -0.041417241 1.3454308e-38 377 271
0.077897087 0.76599997 -0.041634649 1.2993335e-38 378 271
0.079343595 0.76700002 -0.041689005 1.2532357e-38 379 271
0.080688395 0.76700002 -0.041689005 1.2345109e-38 380 271
0.08203321 0.76700002 -0.041689005 1.1976685e-38 381 271
0.083378009 0.76700002 -0.041689005 1.1055487e-38 382 271
0.084722824 0.76700002 -0.041689005 1.0686704e-38 383 271
0.086292051 0.76899999 -0.041797712 1.0786503e-38 384 271
0.048413042 0.76700002 -0.043033812 1.6129821e-38 356 272
0.04969297 0.76599997 -0.042977702 1.6129821e-38 357 272
0.051036026 0.76599997 -0.042977702 1.6314193e-38 358 272
0.052105557 0.76200002 -0.042753279 1.6406388e-38 359 272
0.053441599 0.76200002 -0.042753279 1.6498937e-38 360 272
0.054777641 0.76200002 -0.042753279 1.6775165e-38 361 272
0.056113683 0.76200002 -0.042753279 1.6684049e-38 362 272
0.057449725 0.76200002 -0.042753279 1.6776603e-38 363 272
0.058785759 0.76200002 -0.042753279 1.6959559e-38 364 272
0.060121801 0.76200002 -0.042753279 1.6959559e-38 365 272
0.061457843 0.76200002 -0.042753279 1.6958841e-38 366 272
0.062793881 0.76200002 -0.042753279 1.6866645e-38 367 272
0.064129919 0.76200002 -0.042753279 1.6590054e-38 368 272
0.065465957 0.76200002 -0.042753279 1.6221631e-38 369 272
0.066802002 0.76200002 -0.042753279 1.6036161e-38 370 272
0.068138041 0.76200002 -0.042753279 1.5667377e-38 371 272
0.069474079 0.76200002 -0.042753279 1.5298946e-38 372 272
0.070810117 0.76200002 -0.042753279 1.4930163e-38 373 272
0.072146162 0.76200002 -0.042753279 1.4561735e-38 374 272
0.073482201 0.76200002 -0.042753279 1.4008561e-38 375 272
0.074818239 0.76200002 -0.042753279 1.3639777e-38 376 272
0.076154284 0.76200002 -0.042753279 1.31788e-38 377 272
0.077897087 0.76599997 -0.042977702 1.2901137e-38 378 272
0.079343595 0.76700002 -0.043033812 1.2440159e-38 379 272
0.080688395 0.76700002 -0.043033812 1.2069601e-38 380 272
0.08203321 0.76700002 -0.043033812 1.1792654e-38 381 272
0.083378009 0.76700002 -0.043033812 1.1055484e-38 382 272
0.084722824 0.76700002 -0.043033812 1.068706e-38 383 272
0.086292051 0.76899999 -0.043146025 1.0969816e-38 384 272
0.048349917 0.76599997 -0.044320758 1.6038697e-38 356 273
0.04969297 0.76599997 -0.044320758 1.6038697e-38 357 273
0.050902773 0.764 -0.04420504 1.6314909e-38 358 273
0.052105557 0.76200002 -0.044089317 1.6407463e-38 359 273
0.053441599 0.76200002 -0.044089317 1.6682968e-38 360 273
0.054777641 0.76200002 -0.044089317 1.6775165e-38 361 273
0.056113683 0.76200002 -0.044089317 1.6959559e-38 362 273
0.057449725 0.76200002 -0.044089317 1.6867364e-38 363 273
0.058785759 0.76200002 -0.044089317 1.714323e-38 364 273
0.060121801 0.76200002 -0.044089317 1.714323e-38 365 273
0.061457843 0.76200002 -0.044089317 1.7142862e-38 366 273
0.062793881 0.76200002 -0.044089317 1.695811e-38 367 273
0.064129919 0.76200002 -0.044089317 1.6773e-38 368 273
0.065465957 0.76200002 -0.044089317 1.6312022e-38 369 273
0.066802002 0.76200002 -0.044089317 1.5942887e-38 370 273
0.068138041 0.76200002 -0.044089317 1.5389713e-38 371 273
0.069474079 0.76200002 -0.044089317 1.4929809e-38 372 273
0.070810117 0.76200002 -0.044089317 1.4653583e-38 373 273
0.072051473 0.76099998 -0.044031456 1.437662e-38 374 273
0.07338576 0.76099998 -0.044031456 1.4100033e-38 375 273
0.074818239 0.76200002 -0.044089317 1.3822718e-38 376 273
0.076154284 0.76200002 -0.044089317 1.3362098e-38 377 273
0.077693708 0.764 -0.04420504 1.3267752e-38 378 273
0.079240143 0.76599997 -0.044320758 1.2714578e-38 379 273
0.080583192 0.76599997 -0.044320758 1.2253269e-38 380 273
0.081712343 0.764 -0.04420504 1.1792291e-38 381 273
0.08305189 0.764 -0.04420504 1.0504114e-38 382 273
0.084391437 0.764 -0.04420504 1.0227168e-38 383 273
0.085730985 0.764 -0.04420504 1.1062014e-38 384 273
0.045544583 0.764 -0.045544583 1.5762499e-38 354 274
0.046884131 0.764 -0.045544583 1.5762499e-38 355 274
0.048097439 0.76200002 -0.045425359 1.6038697e-38 356 274
0.049433477 0.76200002 -0.045425359 1.6130893e-38 357 274
0.050769519 0.76200002 -0.045425359 1.6314912e-38 358 274
0.052105557 0.76200002 -0.045425359 1.6499303e-38 359 274
0.053441599 0.76200002 -0.045425359 1.6774451e-38 360 274
0.054777641 0.76200002 -0.045425359 1.6958843e-38 361 274
0.056113683 0.76200002 -0.045425359 1.6867011e-38 362 274
0.057449725 0.76200002 -0.045425359 1.6959565e-38 363 274
0.058785759 0.76200002 -0.045425359 1.7142874e-38 364 274
0.060121801 0.76200002 -0.045425359 1.7142874e-38 365 274
0.061457843 0.76200002 -0.045425359 1.6866645e-38 366 274
0.062793881 0.76200002 -0.045425359 1.6774448e-38 367 274
0.064045757 0.76099998 -0.045365743 1.6497142e-38 368 274
0.065380037 0.76099998 -0.045365743 1.6036164e-38 369 274
0.066714332 0.76099998 -0.045365743 1.5390792e-38 370 274
0.068048611 0.76099998 -0.045365743 1.5022008e-38 371 274
0.069382899 0.76099998 -0.045365743 1.5021636e-38 372 274
0.070717193 0.76099998 -0.045365743 1.4468463e-38 373 274
0.072051473 0.76099998 -0.045365743 1.4285141e-38 374 274
0.07338576 0.76099998 -0.045365743 1.3731967e-38 375 274
0.074818239 0.76200002 -0.045425359 1.3454664e-38 376 274
0.076154284 0.76200002 -0.045425359 1.3085881e-38 377 274
0.077490322 0.76200002 -0.045425359 1.271639e-38 378 274
0.079240143 0.76599997 -0.045663811 1.2347966e-38 379 274
0.080583192 0.76599997 -0.045663811 1.1701543e-38 380 274
0.081712343 0.764 -0.045544583 1.1424597e-38 381 274
0.08305189 0.764 -0.045544583 1.068707e-38 382 274
0.084391437 0.764 -0.045544583 1.0594874e-38 383 274
0.085730985 0.764 -0.045544583 1.097126e-38 384 274
0.044089317 0.76200002 -0.046761397 1.4934575e-38 353 275
0.045425359 0.76200002 -0.046761397 1.6037994e-38 354 275
0.046761397 0.76200002 -0.046761397 1.613019e-38 355 275
0.048097439 0.76200002 -0.046761397 1.6038695e-38 356 275
0.049368605 0.76099998 -0.046700031 1.6038695e-38 357 275
0.050702889 0.76099998 -0.046700031 1.6314914e-38 358 275
0.052037176 0.76099998 -0.046700031 1.640711e-38 359 275
0.053371463 0.76099998 -0.046700031 1.6774818e-38 360 275
0.05470575 0.76099998 -0.046700031 1.6774818e-38 361 275
0.056040037 0.76099998 -0.046700031 1.6867011e-38 362 275
0.057374325 0.76099998 -0.046700031 1.6959565e-38 363 275
0.058708608 0.76099998 -0.046700031 1.6867364e-38 364 275
0.060042895 0.76099998 -0.046700031 1.6867364e-38 365 275
0.061457843 0.76200002 -0.046761397 1.6774445e-38 366 275
0.06271147 0.76099998 -0.046700031 1.6590054e-38 367 275
0.064045757 0.76099998 -0.046700031 1.6404221e-38 368 275
0.065380037 0.76099998 -0.046700031 1.5942884e-38 369 275
0.066714332 0.76099998 -0.046700031 1.5206754e-38 370 275
0.068048611 0.76099998 -0.046700031 1.4929807e-38 371 275
0.069382899 0.76099998 -0.046700031 1.465393e-38 372 275
0.070717193 0.76099998 -0.046700031 1.4284787e-38 373 275
0.072051473 0.76099998 -0.046700031 1.4100031e-38 374 275
0.07338576 0.76099998 -0.046700031 1.3639052e-38 375 275
0.074720047 0.76099998 -0.046700031 1.3361392e-38 376 275
0.076154284 0.76200002 -0.046761397 1.3084805e-38 377 275
0.077490322 0.76200002 -0.046761397 1.2623477e-38 378 275
0.079240143 0.76599997 -0.047006864 1.2254696e-38 379 275
0.080583192 0.76599997 -0.047006864 1.1792309e-38 380 275
0.081712343 0.764 -0.046884131 1.1331331e-38 381 275
0.08305189 0.764 -0.046884131 1.0134995e-38 382 275
0.084391437 0.764 -0.046884131 1.041158e-38 383 275
0.085730985 0.764 -0.046884131 1.1063107e-38 384 275
0.087070532 0.764 -0.046884131 1.2630073e-38 385 275
0.044089317 0.76200002 -0.048097439 1.539482e-38 353 276
0.045425359 0.76200002 -0.048097439 1.6313855e-38 354 276
0.046761397 0.76200002 -0.048097439 1.6129824e-38 355 276
0.048034318 0.76099998 -0.048034318 1.6314196e-38 356 276
0.049368605 0.76099998 -0.048034318 1.6406391e-38 357 276
0.050702889 0.76099998 -0.048034318 1.6406744e-38 358 276
0.052037176 0.76099998 -0.048034318 1.649894e-38 359 276
0.053371463 0.76099998 -0.048034318 1.6774095e-38 360 276
0.05470575 0.76099998 -0.048034318 1.6958846e-38 361 276
0.056040037 0.76099998 -0.048034318 1.6958843e-38 362 276
0.057374325 0.76099998 -0.048034318 1.6958843e-38 363 276
0.058708608 0.76099998 -0.048034318 1.6958841e-38 364 276
0.060042895 0.76099998 -0.048034318 1.6866645e-38 365 276
0.061377186 0.76099998 -0.048034318 1.6682249e-38 366 276
0.06271147 0.76099998 -0.048034318 1.6313827e-38 367 276
0.064045757 0.76099998 -0.048034318 1.6219829e-38 368 276
0.065380037 0.76099998 -0.048034318 1.5666656e-38 369 276
0.066714332 0.76099998 -0.048034318 1.5298223e-38 370 276
0.068048611 0.76099998 -0.048034318 1.4929441e-38 371 276
0.069474079 0.76200002 -0.048097439 1.4469539e-38 372 276
0.070810117 0.76200002 -0.048097439 1.4008561e-38 373 276
0.072051473 0.76099998 -0.048034318 1.3824169e-38 374 276
0.07338576 0.76099998 -0.048034318 1.3270996e-38 375 276
0.074720047 0.76099998 -0.048034318 1.3269199e-38 376 276
0.076154284 0.76200002 -0.048097439 1.2808222e-38 377 276
0.077490322 0.76200002 -0.048097439 1.2347616e-38 378 276
0.079240143 0.76599997 -0.048349917 1.207067e-38 379 276
0.080583192 0.76599997 -0.048349917 1.1423897e-38 380 276
0.081712343 0.764 -0.048223678 1.1055114e-38 381 276
0.08305189 0.764 -0.048223678 1.0042446e-38 382 276
0.084391437 0.764 -0.048223678 1.0227196e-38 383 276
0.085730985 0.764 -0.048223678 1.1063826e-38 384 276
0.042697169 0.76099998 -0.049368605 1.5486641e-38 352 277
0.044089317 0.76200002 -0.049433477 1.5578836e-38 353 277
0.045425359 0.76200002 -0.049433477 1.6314208e-38 354 277
0.046761397 0.76200002 -0.049433477 1.6314208e-38 355 277
0.048034318 0.76099998 -0.049368605 1.6406388e-38 356 277
0.049368605 0.76099998 -0.049368605 1.6498584e-38 357 277
0.050702889 0.76099998 -0.049368605 1.6407463e-38 358 277
0.052037176 0.76099998 -0.049368605 1.6499659e-38 359 277
0.053371463 0.76099998 -0.049368605 1.65915e-38 360 277
0.05470575 0.76099998 -0.049368605 1.65915e-38 361 277
0.056040037 0.76099998 -0.049368605 1.6958843e-38 362 277
0.05722354 0.759 -0.049238857 1.6866648e-38 363 277
0.058554318 0.759 -0.049238857 1.6866645e-38 364 277
0.059885096 0.759 -0.049238857 1.6682252e-38 365 277
0.061377186 0.76099998 -0.049368605 1.6589338e-38 366 277
0.06271147 0.76099998 -0.049368605 1.6220195e-38 367 277
0.063877434 0.759 -0.049238857 1.5942884e-38 368 277
0.065208219 0.759 -0.049238857 1.5390069e-38 369 277
0.066538997 0.759 -0.049238857 1.4930163e-38 370 277
0.067869775 0.759 -0.049238857 1.4561381e-38 371 277
0.069382899 0.76099998 -0.049368605 1.4284793e-38 372 277
0.070717193 0.76099998 -0.049368605 1.3916012e-38 373 277
0.072051473 0.76099998 -0.049368605 1.3639424e-38 374 277
0.07338576 0.76099998 -0.049368605 1.3178447e-38 375 277
0.074720047 0.76099998 -0.049368605 1.290114e-38 376 277
0.076154284 0.76200002 -0.049433477 1.2440162e-38 377 277
0.077490322 0.76200002 -0.049433477 1.19792e-38 378 277
0.079033248 0.764 -0.049563225 1.1702612e-38 379 277
0.080583192 0.76599997 -0.04969297 1.1146961e-38 380 277
0.081926249 0.76599997 -0.04969297 1.0870372e-38 381 277
0.083269298 0.76599997 -0.04969297 9.950619e-39 382 277
0.084612355 0.76599997 -0.04969297 1.0319762e-38 383 277
0.041254178 0.759 -0.050569639 1.5211885e-38 351 278
0.042584959 0.759 -0.050569639 1.5853603e-38 352 278
0.044031456 0.76099998 -0.050702889 1.613019e-38 353 278
0.045365743 0.76099998 -0.050702889 1.6314559e-38 354 278
0.046700031 0.76099998 -0.050702889 1.6314559e-38 355 278
0.048034318 0.76099998 -0.050702889 1.6590054e-38 356 278
0.049368605 0.76099998 -0.050702889 1.6682249e-38 357 278
0.050702889 0.76099998 -0.050702889 1.6683324e-38 358 278
0.051900417 0.759 -0.050569639 1.6683324e-38 359 278
0.053231198 0.759 -0.050569639 1.6775168e-38 360 278
0.054561976 0.759 -0.050569639 1.6775168e-38 361 278
0.055892758 0.759 -0.050569639 1.6775171e-38 362 278
0.05722354 0.759 -0.050569639 1.6775171e-38 363 278
0.058400027 0.75700003 -0.050436385 1.6774448e-38 364 278
0.059727304 0.75700003 -0.050436385 1.6590057e-38 365 278
0.061215881 0.759 -0.050569639 1.6497139e-38 366 278
0.062546656 0.759 -0.050569639 1.6036161e-38 367 278
0.063877434 0.759 -0.050569639 1.5758851e-38 368 278
0.065208219 0.759 -0.050569639 1.5297514e-38 369 278
0.066538997 0.759 -0.050569639 1.4929444e-38 370 278
0.067869775 0.759 -0.050569639 1.4652498e-38 371 278
0.069382899 0.76099998 -0.050702889 1.4191523e-38 372 278
0.070717193 0.76099998 -0.050702889 1.4007131e-38 373 278
0.072051473 0.76099998 -0.050702889 1.3546156e-38 374 278
0.07338576 0.76099998 -0.050702889 1.3085178e-38 375 278
0.074720047 0.76099998 -0.050702889 1.2532374e-38 376 278
0.076054335 0.76099998 -0.050702889 1.2255786e-38 377 278
0.077490322 0.76200002 -0.050769519 1.2068897e-38 378 278
0.07882636 0.76200002 -0.050769519 1.1607919e-38 379 278
0.080372795 0.764 -0.050902773 1.0961512e-38 380 278
0.081712343 0.764 -0.050902773 1.0500893e-38 381 278
0.08305189 0.764 -0.050902773 9.583291e-39 382 278
0.084612355 0.76599997 -0.051036026 1.0320856e-38 383 278
0.039712999 0.755 -0.051626898 1.5396257e-38 350 279
0.041036766 0.755 -0.051626898 1.5120029e-38 351 279
0.042472746 0.75700003 -0.051763661 1.6130896e-38 352 279
0.043915741 0.759 -0.051900417 1.6130896e-38 353 279
0.045246519 0.759 -0.051900417 1.640711e-38 354 279
0.046577301 0.759 -0.051900417 1.640711e-38 355 279
0.048034318 0.76099998 -0.052037176 1.6499659e-38 356 279
0.049238857 0.759 -0.051900417 1.6591856e-38 357 279
0.050569639 0.759 -0.051900417 1.6591853e-38 358 279
0.051900417 0.759 -0.051900417 1.6591853e-38 359 279
0.053231198 0.759 -0.051900417 1.6775168e-38 360 279
0.054561976 0.759 -0.051900417 1.6682971e-38 361 279
0.055892758 0.759 -0.051900417 1.6682615e-38 362 279
0.057072755 0.75700003 -0.051763661 1.6682615e-38 363 279
0.058400027 0.75700003 -0.051763661 1.6498584e-38 364 279
0.059727304 0.75700003 -0.051763661 1.6314193e-38 365 279
0.061054576 0.75700003 -0.051763661 1.640387e-38 366 279
0.062381849 0.75700003 -0.051763661 1.6034729e-38 367 279
0.063709125 0.75700003 -0.051763661 1.5481911e-38 368 279
0.065036394 0.75700003 -0.051763661 1.5020933e-38 369 279
0.06636367 0.75700003 -0.051763661 1.4561028e-38 370 279
0.067690939 0.75700003 -0.051763661 1.428444e-38 371 279
0.069018215 0.75700003 -0.051763661 1.4008213e-38 372 279
0.070531338 0.759 -0.051900417 1.3639071e-38 373 279
0.072051473 0.76099998 -0.052037176 1.3270292e-38 374 279
0.07338576 0.76099998 -0.052037176 1.2624923e-38 375 279
0.074720047 0.76099998 -0.052037176 1.1888449e-38 376 279
0.076054335 0.76099998 -0.052037176 1.1704058e-38 377 279
0.077388622 0.76099998 -0.052037176 1.1425329e-38 378 279
0.07882636 0.76200002 -0.052105557 1.1148383e-38 379 279
0.080162399 0.76200002 -0.052105557 1.0593089e-38 380 279
0.081712343 0.764 -0.052242316 1.0223946e-38 381 279
0.08305189 0.764 -0.052242316 9.673686e-39 382 279
0.038389232 0.755 -0.052950665 1.5582118e-38 349 280
0.039712999 0.755 -0.052950665 1.5394086e-38 350 280
0.041036766 0.755 -0.052950665 1.5578836e-38 351 280
0.042472746 0.75700003 -0.053090934 1.6130893e-38 352 280
0.043800019 0.75700003 -0.053090934 1.6223089e-38 353 280
0.045127295 0.75700003 -0.053090934 1.6407463e-38 354 280
0.046454567 0.75700003 -0.053090934 1.6499659e-38 355 280
0.047908079 0.759 -0.053231198 1.6682968e-38 356 280
0.049238857 0.759 -0.053231198 1.6775165e-38 357 280
0.050436385 0.75700003 -0.053090934 1.6775165e-38 358 280
0.051763661 0.75700003 -0.053090934 1.6775165e-38 359 280
0.053090934 0.75700003 -0.053090934 1.6682615e-38 360 280
0.054418206 0.75700003 -0.053090934 1.6682615e-38 361 280
0.055745479 0.75700003 -0.053090934 1.6406757e-38 362 280
0.056921966 0.755 -0.052950665 1.6406757e-38 363 280
0.058245733 0.755 -0.052950665 1.6313842e-38 364 280
0.059569497 0.755 -0.052950665 1.6036895e-38 365 280
0.060893264 0.755 -0.052950665 1.6219123e-38 366 280
0.062381849 0.75700003 -0.053090934 1.5666308e-38 367 280
0.063709125 0.75700003 -0.053090934 1.529752e-38 368 280
0.065036394 0.75700003 -0.053090934 1.4836542e-38 369 280
0.06636367 0.75700003 -0.053090934 1.4376636e-38 370 280
0.067690939 0.75700003 -0.053090934 1.4100409e-38 371 280
0.069018215 0.75700003 -0.053090934 1.3731266e-38 372 280
0.070531338 0.759 -0.053231198 1.3362844e-38 373 280
0.071862116 0.759 -0.053231198 1.2810033e-38 374 280
0.073192894 0.759 -0.053231198 1.2349415e-38 375 280
0.074720047 0.76099998 -0.053371463 1.2072118e-38 376 280
0.076054335 0.76099998 -0.053371463 1.1611141e-38 377 280
0.077388622 0.76099998 -0.053371463 1.1332424e-38 378 280
0.078722909 0.76099998 -0.053371463 1.0594859e-38 379 280
0.080162399 0.76200002 -0.053441599 1.0132494e-38 380 280
0.081712343 0.764 -0.053581864 9.7640697e-39 381 280
0.037016369 0.75400001 -0.054202545 1.5674298e-38 348 281
0.038338386 0.75400001 -0.054202545 1.4936732e-38 349 281
0.039712999 0.755 -0.054274432 1.5945448e-38 350 281
0.041036766 0.755 -0.054274432 1.6129839e-38 351 281
0.042472746 0.75700003 -0.054418206 1.6406757e-38 352 281
0.043800019 0.75700003 -0.054418206 1.6406757e-38 353 281
0.045127295 0.75700003 -0.054418206 1.6499303e-38 354 281
0.046454567 0.75700003 -0.054418206 1.65915e-38 355 281
0.04778184 0.75700003 -0.054418206 1.6775171e-38 356 281
0.049109112 0.75700003 -0.054418206 1.6775171e-38 357 281
0.050303131 0.755 -0.054274432 1.6775168e-38 358 281
0.051626898 0.755 -0.054274432 1.6682971e-38 359 281
0.052950665 0.755 -0.054274432 1.6498937e-38 360 281
0.054274432 0.755 -0.054274432 1.6314546e-38 361 281
0.055598196 0.755 -0.054274432 1.6497508e-38 362 281
0.056921966 0.755 -0.054274432 1.6313477e-38 363 281
0.058245733 0.755 -0.054274432 1.6128731e-38 364 281
0.059569497 0.755 -0.054274432 1.5943981e-38 365 281
0.060893264 0.755 -0.054274432 1.5666671e-38 366 281
0.062217031 0.755 -0.054274432 1.5113499e-38 367 281
0.063540794 0.755 -0.054274432 1.5020936e-38 368 281
0.064864561 0.755 -0.054274432 1.4651795e-38 369 281
0.066188328 0.755 -0.054274432 1.4100409e-38 370 281
0.067512102 0.755 -0.054274432 1.3823463e-38 371 281
0.069018215 0.75700003 -0.054418206 1.3363194e-38 372 281
0.070345491 0.75700003 -0.054418206 1.2994051e-38 373 281
0.071862116 0.759 -0.054561976 1.2717472e-38 374 281
0.073192894 0.759 -0.054561976 1.2256133e-38 375 281
0.07452368 0.759 -0.054561976 1.1611144e-38 376 281
0.076054335 0.76099998 -0.05470575 1.105797e-38 377 281
0.077388622 0.76099998 -0.05470575 1.1146236e-38 378 281
0.078722909 0.76099998 -0.05470575 1.0500867e-38 379 281
0.080162399 0.76200002 -0.054777641 9.580026e-39 380 281
0.081498444 0.76200002 -0.054777641 9.3034377e-39 381 281
0.035694357 0.75400001 -0.055524562 1.6411172e-38 347 282
0.037016369 0.75400001 -0.055524562 1.5303338e-38 348 282
0.038338386 0.75400001 -0.055524562 1.4934916e-38 349 282
0.039712999 0.755 -0.055598196 1.5762836e-38 350 282
0.041036766 0.755 -0.055598196 1.5947228e-38 351 282
0.042360533 0.755 -0.055598196 1.6223798e-38 352 282
0.043800019 0.75700003 -0.055745479 1.6315993e-38 353 282
0.045008067 0.755 -0.055598196 1.6316347e-38 354 282
0.04633183 0.755 -0.055598196 1.6500379e-38 355 282
0.047655597 0.755 -0.055598196 1.6775168e-38 356 282
0.048979364 0.755 -0.055598196 1.6775168e-38 357 282
0.050236505 0.75400001 -0.055524562 1.6774448e-38 358 282
0.051558517 0.75400001 -0.055524562 1.6774448e-38 359 282
0.052880533 0.75400001 -0.055524562 1.631419e-38 360 282
0.054202545 0.75400001 -0.055524562 1.6221994e-38 361 282
0.055598196 0.755 -0.055598196 1.6037249e-38 362 282
0.056846574 0.75400001 -0.055524562 1.5853217e-38 363 282
0.058168583 0.75400001 -0.055524562 1.566847e-38 364 282
0.059490599 0.75400001 -0.055524562 1.5207851e-38 365 282
0.060893264 0.755 -0.055598196 1.5206769e-38 366 282
0.062217031 0.755 -0.055598196 1.4745791e-38 367 282
0.063540794 0.755 -0.055598196 1.4652874e-38 368 282
0.064864561 0.755 -0.055598196 1.428409e-38 369 282
0.066188328 0.755 -0.055598196 1.3915662e-38 370 282
0.067512102 0.755 -0.055598196 1.3454684e-38 371 282
0.068835862 0.755 -0.055598196 1.3361762e-38 372 282
0.070345491 0.75700003 -0.055745479 1.2992979e-38 373 282
0.07167276 0.75700003 -0.055745479 1.2440527e-38 374 282
0.073192894 0.759 -0.055892758 1.1979551e-38 375 282
0.07452368 0.759 -0.055892758 1.1609707e-38 376 282
0.075854458 0.759 -0.055892758 1.0964697e-38 377 282
0.077388622 0.76099998 -0.056040037 1.0684909e-38 378 282
0.078722909 0.76099998 -0.056040037 1.0131735e-38 379 282
0.080162399 0.76200002 -0.056113683 9.1215688e-39 380 282
0.034372345 0.75400001 -0.056846574 1.6594469e-38 346 283
0.035694357 0.75400001 -0.056846574 1.530373e-38 347 283
0.037016369 0.75400001 -0.056846574 1.5024931e-38 348 283
0.038389232 0.755 -0.056921966 1.5394074e-38 349 283
0.039712999 0.755 -0.056921966 1.6039051e-38 350 283
0.041036766 0.755 -0.056921966 1.6039051e-38 351 283
0.042360533 0.755 -0.056921966 1.6224148e-38 352 283
0.043684296 0.755 -0.056921966 1.6224148e-38 353 283
0.044948451 0.75400001 -0.056846574 1.6500376e-38 354 283
0.046270464 0.75400001 -0.056846574 1.6500376e-38 355 283
0.04759248 0.75400001 -0.056846574 1.6775168e-38 356 283
0.048914492 0.75400001 -0.056846574 1.6682971e-38 357 283
0.050236505 0.75400001 -0.056846574 1.6682968e-38 358 283
0.051558517 0.75400001 -0.056846574 1.6498937e-38 359 283
0.052880533 0.75400001 -0.056846574 1.6314546e-38 360 283
0.054202545 0.75400001 -0.056846574 1.5853568e-38 361 283
0.055524562 0.75400001 -0.056846574 1.5944331e-38 362 283
0.056846574 0.75400001 -0.056846574 1.575994e-38 363 283
0.058168583 0.75400001 -0.056846574 1.5575553e-38 364 283
0.059490599 0.75400001 -0.056846574 1.5114573e-38 365 283
0.060812615 0.75400001 -0.056846574 1.5113129e-38 366 283
0.062134624 0.75400001 -0.056846574 1.4836542e-38 367 283
0.06345664 0.75400001 -0.056846574 1.4376285e-38 368 283
0.064864561 0.755 -0.056921966 1.4007504e-38 369 283
0.066188328 0.755 -0.056921966 1.3730913e-38 370 283
0.067512102 0.755 -0.056921966 1.3362491e-38 371 283
0.068835862 0.755 -0.056921966 1.3085178e-38 372 283
0.070345491 0.75700003 -0.057072755 1.2716037e-38 373 283
0.07167276 0.75700003 -0.057072755 1.2256136e-38 374 283
0.073192894 0.759 -0.05722354 1.1702962e-38 375 283
0.07452368 0.759 -0.05722354 1.1240932e-38 376 283
0.075854458 0.759 -0.05722354 1.0595562e-38 377 283
0.077388622 0.76099998 -0.057374325 1.0132101e-38 378 283
0.032962665 0.75199997 -0.058014289 1.6504093e-38 345 284
0.034281172 0.75199997 -0.058014289 1.5211871e-38 346 284
0.035694357 0.75400001 -0.058168583 1.4750534e-38 347 284
0.037016369 0.75400001 -0.058168583 1.5301858e-38 348 284
0.038338386 0.75400001 -0.058168583 1.5670641e-38 349 284
0.039660402 0.75400001 -0.058168583 1.5947205e-38 350 284
0.040982414 0.75400001 -0.058168583 1.6131597e-38 351 284
0.042304426 0.75400001 -0.058168583 1.6316697e-38 352 284
0.043626439 0.75400001 -0.058168583 1.6316697e-38 353 284
0.044948451 0.75400001 -0.058168583 1.6499656e-38 354 284
0.046270464 0.75400001 -0.058168583 1.6591853e-38 355 284
0.047466237 0.75199997 -0.058014289 1.6682971e-38 356 284
0.048784744 0.75199997 -0.058014289 1.649894e-38 357 284
0.050103247 0.75199997 -0.058014289 1.640746e-38 358 284
0.051421758 0.75199997 -0.058014289 1.6315265e-38 359 284
0.052880533 0.75400001 -0.058168583 1.622235e-38 360 284
0.054202545 0.75400001 -0.058168583 1.5761372e-38 361 284
0.055377278 0.75199997 -0.058014289 1.575994e-38 362 284
0.056695782 0.75199997 -0.058014289 1.5483712e-38 363 284
0.058014289 0.75199997 -0.058014289 1.5298962e-38 364 284
0.059332799 0.75199997 -0.058014289 1.4930539e-38 365 284
0.060812615 0.75400001 -0.058168583 1.4745422e-38 366 284
0.062134624 0.75400001 -0.058168583 1.4376638e-38 367 284
0.06345664 0.75400001 -0.058168583 1.4098977e-38 368 284
0.064778648 0.75400001 -0.058168583 1.3822749e-38 369 284
0.066188328 0.755 -0.058245733 1.3362491e-38 370 284
0.067512102 0.755 -0.058245733 1.3085544e-38 371 284
0.068835862 0.755 -0.058245733 1.2808238e-38 372 284
0.070159629 0.755 -0.058245733 1.2255064e-38 373 284
0.07167276 0.75700003 -0.058400027 1.1887005e-38 374 284
0.073192894 0.759 -0.058554318 1.1333831e-38 375 284
0.07452368 0.759 -0.058554318 1.0779959e-38 376 284
0.075854458 0.759 -0.058554318 1.0042394e-38 377 284
0.077185236 0.759 -0.058554318 9.3052216e-39 378 284
0.032962665 0.75199997 -0.059332799 1.585691e-38 345 285
0.034281172 0.75199997 -0.059332799 1.4841621e-38 346 285
0.035599679 0.75199997 -0.059332799 1.5026013e-38 347 285
0.036918186 0.75199997 -0.059332799 1.5854657e-38 348 285
0.038236689 0.75199997 -0.059332799 1.5946852e-38 349 285
0.039660402 0.75400001 -0.059490599 1.6131953e-38 350 285
0.040982414 0.75400001 -0.059490599 1.6224148e-38 351 285
0.042304426 0.75400001 -0.059490599 1.6500009e-38 352 285
0.043626439 0.75400001 -0.059490599 1.6592205e-38 353 285
0.044829223 0.75199997 -0.059332799 1.6775521e-38 354 285
0.04614773 0.75199997 -0.059332799 1.6683324e-38 355 285
0.047466237 0.75199997 -0.059332799 1.6683324e-38 356 285
0.048784744 0.75199997 -0.059332799 1.6683324e-38 357 285
0.050103247 0.75199997 -0.059332799 1.640746e-38 358 285
0.051421758 0.75199997 -0.059332799 1.6131234e-38 359 285
0.052740261 0.75199997 -0.059332799 1.6129796e-38 360 285
0.054058768 0.75199997 -0.059332799 1.5669176e-38 361 285
0.055377278 0.75199997 -0.059332799 1.5483706e-38 362 285
0.056695782 0.75199997 -0.059332799 1.5299315e-38 363 285
0.058014289 0.75199997 -0.059332799 1.4930893e-38 364 285
