# .PCD v.7 - Point Cloud Data file format
FIELDS x y z rgb imX imY
SIZE 4 4 4 4 4 4
TYPE F F F F F F
COUNT 1 1 1 1 1 1
WIDTH 839
HEIGHT 1
VIEWPOINT 0 0 0 1 0 0 0
POINTS 839
DATA ascii
0.062990256 0.78100002 -0.030125774 1.2627832e-38 366 262
0.064277194 0.77999997 -0.030087199 1.2627832e-38 367 262
0.065476485 0.778 -0.03001005 1.2812222e-38 368 262
0.066668749 0.77600002 -0.029932907 1.2904417e-38 369 262
0.068029337 0.77600002 -0.029932907 1.3087008e-38 370 262
0.069389917 0.77600002 -0.029932907 1.3087008e-38 371 262
0.070568159 0.77399999 -0.029855758 1.3087014e-38 372 262
0.071925238 0.77399999 -0.029855758 1.3087014e-38 373 262
0.073282316 0.77399999 -0.029855758 1.3178859e-38 374 262
0.074542962 0.773 -0.029817186 1.3271056e-38 375 262
0.075898297 0.773 -0.029817186 1.2537437e-38 376 262
0.077253617 0.773 -0.029817186 1.272147e-38 377 262
0.078405559 0.77100003 -0.029740039 1.2998778e-38 378 262
0.079550482 0.76899999 -0.02966289 1.3551952e-38 379 262
0.080898799 0.76899999 -0.02966289 1.4011488e-38 380 262
0.082247108 0.76899999 -0.02966289 1.4011488e-38 381 262
0.083595425 0.76899999 -0.02966289 1.4655044e-38 382 262
0.084722824 0.76700002 -0.029585747 1.4655044e-38 383 262
0.086067624 0.76700002 -0.029585747 1.465576e-38 384 262
0.087412432 0.76700002 -0.029585747 1.465576e-38 385 262
0.088757239 0.76700002 -0.029585747 1.4563921e-38 386 262
0.090102047 0.76700002 -0.029585747 1.4563921e-38 387 262
0.091446854 0.76700002 -0.029585747 1.4196937e-38 388 262
0.092791654 0.76700002 -0.029585747 1.4196937e-38 389 262
0.094136469 0.76700002 -0.029585747 1.3828879e-38 390 262
0.095481269 0.76700002 -0.029585747 1.3459738e-38 391 262
0.097078554 0.76899999 -0.02966289 1.2444905e-38 392 262
0.098426871 0.76899999 -0.02966289 1.3735644e-38 393 262
0.09977518 0.76899999 -0.02966289 1.8686898e-38 394 262
0.1011235 0.76899999 -0.02966289 1.8779095e-38 395 262
-0.06563779 0.764 -0.030809574 1.8983888e-38 271 263
-0.064298242 0.764 -0.030809574 1.9170052e-38 272 263
-0.062958695 0.764 -0.030809574 1.9262247e-38 273 263
-0.061457843 0.76200002 -0.030728921 1.92626e-38 274 263
-0.060121801 0.76200002 -0.030728921 1.9170405e-38 275 263
-0.058785759 0.76200002 -0.030728921 1.9076057e-38 276 263
-0.057449725 0.76200002 -0.030728921 1.861508e-38 277 263
-0.056113683 0.76200002 -0.030728921 1.7967205e-38 278 263
-0.054777641 0.76200002 -0.030728921 1.7598783e-38 279 263
-0.053441599 0.76200002 -0.030728921 1.7876108e-38 280 263
-0.052105557 0.76200002 -0.030728921 1.8060499e-38 281 263
-0.050769519 0.76200002 -0.030728921 1.8246335e-38 282 263
-0.049433477 0.76200002 -0.030728921 1.8338531e-38 283 263
-0.048097439 0.76200002 -0.030728921 1.8063373e-38 284 263
-0.046761397 0.76200002 -0.030728921 1.7786426e-38 285 263
-0.045544583 0.764 -0.030809574 1.7876091e-38 286 263
-0.04420504 0.764 -0.030809574 1.750695e-38 287 263
-0.042865492 0.764 -0.030809574 1.6588221e-38 288 263
-0.041525945 0.764 -0.030809574 1.6219437e-38 289 263
-0.040186398 0.764 -0.030809574 1.5850659e-38 290 263
-0.038846854 0.764 -0.030809574 1.5573712e-38 291 263
-0.037605491 0.76599997 -0.030890226 1.5298219e-38 292 263
-0.036262438 0.76599997 -0.030890226 1.5298219e-38 293 263
-0.034919381 0.76599997 -0.030890226 1.5021655e-38 294 263
-0.033620168 0.76700002 -0.030930554 1.4929459e-38 295 263
-0.032359518 0.76899999 -0.031011207 1.4745794e-38 296 263
-0.031011207 0.76899999 -0.031011207 1.4561044e-38 297 263
-0.029740039 0.77100003 -0.031091858 1.4377734e-38 298 263
-0.028388219 0.77100003 -0.031091858 1.4285539e-38 299 263
-0.027106533 0.773 -0.03117251 1.4285183e-38 300 263
-0.025751207 0.773 -0.03117251 1.4285183e-38 301 263
-0.024395877 0.773 -0.03117251 1.410187e-38 302 263
-0.023040552 0.773 -0.03117251 1.4009675e-38 303 263
-0.021685226 0.773 -0.03117251 1.3917479e-38 304 263
-0.020356199 0.77399999 -0.031212838 1.3917479e-38 305 263
-0.019048214 0.77600002 -0.031293493 1.3917479e-38 306 263
-0.017733213 0.778 -0.031374145 1.3917479e-38 307 263
-0.016369121 0.778 -0.031374145 1.3734167e-38 308 263
-0.0150436 0.77999997 -0.031454798 1.3641611e-38 309 263
-0.013693534 0.78100002 -0.031495128 1.3824207e-38 310 263
-0.01232418 0.78100002 -0.031495128 1.3732012e-38 311 263
-0.010954826 0.78100002 -0.031495128 1.3639463e-38 312 263
-0.0096100196 0.78299999 -0.031575777 1.3639463e-38 313 263
-0.0082371598 0.78299999 -0.031575777 1.3547267e-38 314 263
-0.0068642995 0.78299999 -0.031575777 1.3271039e-38 315 263
-0.0054914397 0.78299999 -0.031575777 1.345363e-38 316 263
-0.0041185799 0.78299999 -0.031575777 1.3269238e-38 317 263
-0.0027527334 0.78500003 -0.031656433 1.3176687e-38 318 263
-0.0013763667 0.78500003 -0.031656433 1.2992294e-38 319 263
0 0.78500003 -0.031656433 1.2624235e-38 320 263
0.0013763667 0.78500003 -0.031656433 1.2348008e-38 321 263
0.0027667598 0.78899997 -0.031817738 1.197995e-38 322 263
0.0041501396 0.78899997 -0.031817738 1.1887396e-38 323 263
0.0055335197 0.78899997 -0.031817738 1.133639e-38 324 263
0.0069168997 0.78899997 -0.031817738 1.1244194e-38 325 263
0.0083108004 0.79000002 -0.031858064 1.0693894e-38 326 263
0.0096959332 0.79000002 -0.031858064 1.0601699e-38 327 263
0.018006733 0.79000002 -0.031858064 1.0412266e-38 333 263
0.019391866 0.79000002 -0.031858064 9.9541741e-39 334 263
0.052568436 0.78899997 -0.031817738 1.151791e-38 358 263
0.053815059 0.787 -0.031737085 1.1610105e-38 359 263
0.055054668 0.78500003 -0.031656433 1.188525e-38 360 263
0.056287259 0.78299999 -0.031575777 1.2069642e-38 361 263
0.057660121 0.78299999 -0.031575777 1.1519342e-38 362 263
0.059032977 0.78299999 -0.031575777 1.1979961e-38 363 263
0.060405839 0.78299999 -0.031575777 1.1982115e-38 364 263
0.061778698 0.78299999 -0.031575777 1.2350539e-38 365 263
0.062990256 0.78100002 -0.031495128 1.2443809e-38 366 263
0.064277194 0.77999997 -0.031454798 1.2536005e-38 367 263
0.065476485 0.778 -0.031374145 1.2627838e-38 368 263
0.066668749 0.77600002 -0.031293493 1.2811869e-38 369 263
0.068029337 0.77600002 -0.031293493 1.2811503e-38 370 263
0.069389917 0.77600002 -0.031293493 1.2903699e-38 371 263
0.070568159 0.77399999 -0.031212838 1.2811147e-38 372 263
0.071925238 0.77399999 -0.031212838 1.2811147e-38 373 263
0.073282316 0.77399999 -0.031212838 1.2627482e-38 374 263
0.074639395 0.77399999 -0.031212838 1.2811513e-38 375 263
0.075898297 0.773 -0.03117251 1.2811866e-38 376 263
0.077253617 0.773 -0.03117251 1.2811866e-38 377 263
0.078405559 0.77100003 -0.031091858 1.2996614e-38 378 263
0.079550482 0.76899999 -0.031011207 1.2996614e-38 379 263
0.080898799 0.76899999 -0.031011207 1.3091683e-38 380 263
0.082247108 0.76899999 -0.031011207 1.3552302e-38 381 263
0.083595425 0.76899999 -0.031011207 1.4470652e-38 382 263
0.084722824 0.76700002 -0.030930554 1.4655044e-38 383 263
0.086067624 0.76700002 -0.030930554 1.4196937e-38 384 263
0.087412432 0.76700002 -0.030930554 1.4196937e-38 385 263
0.088757239 0.76700002 -0.030930554 1.4196937e-38 386 263
0.090102047 0.76700002 -0.030930554 1.4196937e-38 387 263
0.091446854 0.76700002 -0.030930554 1.4013264e-38 388 263
0.092791654 0.76700002 -0.030930554 1.4105461e-38 389 263
0.094136469 0.76700002 -0.030930554 1.4012194e-38 390 263
0.095481269 0.76700002 -0.030930554 1.3459022e-38 391 263
0.096826084 0.76700002 -0.030930554 1.226124e-38 392 263
0.098170884 0.76700002 -0.030930554 1.475052e-38 393 263
0.09977518 0.76899999 -0.031011207 1.8873817e-38 394 263
0.1011235 0.76899999 -0.031011207 1.8135892e-38 395 263
-0.069474079 0.76200002 -0.032064959 1.861082e-38 268 264
-0.068138041 0.76200002 -0.032064959 1.8887408e-38 269 264
-0.066802002 0.76200002 -0.032064959 1.8525054e-38 270 264
-0.065465957 0.76200002 -0.032064959 1.8985673e-38 271 264
-0.064129919 0.76200002 -0.032064959 1.917042e-38 272 264
-0.06271147 0.76099998 -0.032022879 1.917042e-38 273 264
-0.061377186 0.76099998 -0.032022879 1.926225e-38 274 264
-0.060042895 0.76099998 -0.032022879 1.9170054e-38 275 264
-0.058708608 0.76099998 -0.032022879 1.9167903e-38 276 264
-0.057374325 0.76099998 -0.032022879 1.8706925e-38 277 264
-0.056040037 0.76099998 -0.032022879 1.8520735e-38 278 264
-0.05470575 0.76099998 -0.032022879 1.8244149e-38 279 264
-0.053371463 0.76099998 -0.032022879 1.8245593e-38 280 264
-0.052037176 0.76099998 -0.032022879 1.8522181e-38 281 264
-0.050702889 0.76099998 -0.032022879 1.8246686e-38 282 264
-0.049368605 0.76099998 -0.032022879 1.8154489e-38 283 264
-0.048034318 0.76099998 -0.032022879 1.7970082e-38 284 264
-0.046761397 0.76200002 -0.032064959 1.7232158e-38 285 264
-0.045425359 0.76200002 -0.032064959 1.6678975e-38 286 264
-0.044089317 0.76200002 -0.032064959 1.6125801e-38 287 264
-0.042865492 0.764 -0.032149121 1.5390419e-38 288 264
-0.041525945 0.764 -0.032149121 1.5390419e-38 289 264
-0.040186398 0.764 -0.032149121 1.5113134e-38 290 264
-0.038846854 0.764 -0.032149121 1.5113134e-38 291 264
-0.037605491 0.76599997 -0.032233275 1.4653595e-38 292 264
-0.036262438 0.76599997 -0.032233275 1.4653595e-38 293 264
-0.034919381 0.76599997 -0.032233275 1.4653595e-38 294 264
-0.033620168 0.76700002 -0.03227536 1.45614e-38 295 264
-0.032359518 0.76899999 -0.032359518 1.4378087e-38 296 264
-0.031011207 0.76899999 -0.032359518 1.4285533e-38 297 264
-0.029740039 0.77100003 -0.032443684 1.4102226e-38 298 264
-0.028388219 0.77100003 -0.032443684 1.4009672e-38 299 264
-0.027106533 0.773 -0.032527838 1.4101873e-38 300 264
-0.025751207 0.773 -0.032527838 1.4009678e-38 301 264
-0.024395877 0.773 -0.032527838 1.3917123e-38 302 264
-0.023040552 0.773 -0.032527838 1.3917123e-38 303 264
-0.021713279 0.77399999 -0.032569919 1.3641617e-38 304 264
-0.020356199 0.77399999 -0.032569919 1.3641617e-38 305 264
-0.019048214 0.77600002 -0.032654081 1.3641261e-38 306 264
-0.017733213 0.778 -0.032738242 1.3549065e-38 307 264
-0.016411198 0.77999997 -0.032822397 1.3549421e-38 308 264
-0.0150436 0.77999997 -0.032822397 1.3456867e-38 309 264
-0.013693534 0.78100002 -0.032864477 1.3640182e-38 310 264
-0.01232418 0.78100002 -0.032864477 1.3363955e-38 311 264
-0.010954826 0.78100002 -0.032864477 1.3271053e-38 312 264
-0.0095854728 0.78100002 -0.032864477 1.3178856e-38 313 264
-0.0082371598 0.78299999 -0.032948639 1.3086305e-38 314 264
-0.0068642995 0.78299999 -0.032948639 1.2994109e-38 315 264
-0.0054914397 0.78299999 -0.032948639 1.3177055e-38 316 264
-0.0041291001 0.78500003 -0.033032801 1.3177055e-38 317 264
-0.0027527334 0.78500003 -0.033032801 1.2809335e-38 318 264
-0.0013763667 0.78500003 -0.033032801 1.2348358e-38 319 264
0 0.78500003 -0.033032801 1.2532021e-38 320 264
0.0013798733 0.787 -0.033116959 1.2255433e-38 321 264
0.0027667598 0.78899997 -0.033201117 1.151861e-38 322 264
0.0055335197 0.78899997 -0.033201117 1.0323335e-38 324 264
0.0069168997 0.78899997 -0.033201117 1.0138585e-38 325 264
0.060560133 0.78500003 -0.033032801 1.1981409e-38 364 264
0.061778698 0.78299999 -0.032948639 1.216544e-38 365 264
0.062990256 0.78100002 -0.032864477 1.1799185e-38 366 264
0.064277194 0.77999997 -0.032822397 1.1983577e-38 367 264
0.065476485 0.778 -0.032738242 1.2259794e-38 368 264
0.066840574 0.778 -0.032738242 1.2259794e-38 369 264
0.068029337 0.77600002 -0.032654081 1.2536008e-38 370 264
0.069389917 0.77600002 -0.032654081 1.2443453e-38 371 264
0.070568159 0.77399999 -0.032569919 1.2443806e-38 372 264
0.071925238 0.77399999 -0.032569919 1.2443806e-38 373 264
0.073282316 0.77399999 -0.032569919 1.2535283e-38 374 264
0.074639395 0.77399999 -0.032569919 1.2535283e-38 375 264
0.075898297 0.773 -0.032527838 1.2535639e-38 376 264
0.077253617 0.773 -0.032527838 1.2627835e-38 377 264
0.078405559 0.77100003 -0.032443684 1.2627838e-38 378 264
0.079550482 0.76899999 -0.032359518 1.2443088e-38 379 264
0.080898799 0.76899999 -0.032359518 1.1984981e-38 380 264
0.082247108 0.76899999 -0.032359518 1.2906936e-38 381 264
0.083378009 0.76700002 -0.03227536 1.3826728e-38 382 264
0.084722824 0.76700002 -0.03227536 1.4287706e-38 383 264
0.086067624 0.76700002 -0.03227536 1.4105463e-38 384 264
0.087412432 0.76700002 -0.03227536 1.4105463e-38 385 264
0.088641517 0.76599997 -0.032233275 1.419729e-38 386 264
0.089984566 0.76599997 -0.032233275 1.419729e-38 387 264
0.091327623 0.76599997 -0.032233275 1.4105458e-38 388 264
0.092670672 0.76599997 -0.032233275 1.4198012e-38 389 264
0.094013728 0.76599997 -0.032233275 1.4289857e-38 390 264
0.095356777 0.76599997 -0.032233275 1.3367542e-38 391 264
0.096699834 0.76599997 -0.032233275 1.2537472e-38 392 264
0.098170884 0.76700002 -0.03227536 1.6409688e-38 393 264
0.099515699 0.76700002 -0.03227536 1.8974294e-38 394 264
0.1008605 0.76700002 -0.03227536 1.6853795e-38 395 264
-0.069474079 0.76200002 -0.033401001 1.8245266e-38 268 265
-0.068138041 0.76200002 -0.033401001 1.8705884e-38 269 265
-0.066714332 0.76099998 -0.033357166 1.8892761e-38 270 265
-0.065380037 0.76099998 -0.033357166 1.9077153e-38 271 265
-0.064045757 0.76099998 -0.033357166 1.935266e-38 272 265
-0.06271147 0.76099998 -0.033357166 1.935266e-38 273 265
-0.061377186 0.76099998 -0.033357166 1.9536326e-38 274 265
-0.060042895 0.76099998 -0.033357166 1.9352295e-38 275 265
-0.058554318 0.759 -0.033269498 1.9167548e-38 276 265
-0.05722354 0.759 -0.033269498 1.8890959e-38 277 265
-0.056040037 0.76099998 -0.033357166 1.8522178e-38 278 265
-0.05470575 0.76099998 -0.033357166 1.824559e-38 279 265
-0.053371463 0.76099998 -0.033357166 1.8061922e-38 280 265
-0.052037176 0.76099998 -0.033357166 1.787753e-38 281 265
-0.050702889 0.76099998 -0.033357166 1.7416552e-38 282 265
-0.049368605 0.76099998 -0.033357166 1.704813e-38 283 265
-0.048034318 0.76099998 -0.033357166 1.6862284e-38 284 265
-0.046700031 0.76099998 -0.033357166 1.6216915e-38 285 265
-0.045425359 0.76200002 -0.033401001 1.5298557e-38 286 265
-0.044089317 0.76200002 -0.033401001 1.5113807e-38 287 265
-0.042753279 0.76200002 -0.033401001 1.5297147e-38 288 265
-0.041525945 0.764 -0.033488665 1.5297147e-38 289 265
-0.040186398 0.764 -0.033488665 1.5020583e-38 290 265
-0.038846854 0.764 -0.033488665 1.4928387e-38 291 265
-0.037605491 0.76599997 -0.033576332 1.4561044e-38 292 265
-0.036262438 0.76599997 -0.033576332 1.4561044e-38 293 265
-0.034919381 0.76599997 -0.033576332 1.4469204e-38 294 265
-0.033620168 0.76700002 -0.033620168 1.4469204e-38 295 265
-0.032359518 0.76899999 -0.033707831 1.4285539e-38 296 265
-0.031011207 0.76899999 -0.033707831 1.4285539e-38 297 265
-0.029740039 0.77100003 -0.033795502 1.4010396e-38 298 265
-0.028388219 0.77100003 -0.033795502 1.3917842e-38 299 265
-0.027106533 0.773 -0.033883166 1.4100438e-38 300 265
-0.025751207 0.773 -0.033883166 1.4192634e-38 301 265
-0.024395877 0.773 -0.033883166 1.3916406e-38 302 265
-0.023040552 0.773 -0.033883166 1.3916406e-38 303 265
-0.021713279 0.77399999 -0.033927001 1.3732014e-38 304 265
-0.020356199 0.77399999 -0.033927001 1.3732014e-38 305 265
-0.019048214 0.77600002 -0.034014668 1.3456151e-38 306 265
-0.017733213 0.778 -0.034102332 1.3456151e-38 307 265
-0.016411198 0.77999997 -0.034189999 1.3822775e-38 308 265
-0.0150436 0.77999997 -0.034189999 1.3638744e-38 309 265
-0.013693534 0.78100002 -0.034233831 1.3546548e-38 310 265
-0.01232418 0.78100002 -0.034233831 1.3454351e-38 311 265
-0.010954826 0.78100002 -0.034233831 1.3269251e-38 312 265
-0.0095854728 0.78100002 -0.034233831 1.3177055e-38 313 265
-0.0082371598 0.78299999 -0.034321502 1.2348377e-38 314 265
-0.0068642995 0.78299999 -0.034321502 1.2163627e-38 315 265
-0.0054914397 0.78299999 -0.034321502 1.2254376e-38 316 265
-0.0041291001 0.78500003 -0.034409165 1.1793399e-38 317 265
-0.0027597465 0.787 -0.034496833 1.1057266e-38 318 265
-0.0013798733 0.787 -0.034496833 1.0595928e-38 319 265
0 0.787 -0.034496833 9.9534356e-39 320 265
0.063151553 0.78299999 -0.034321502 1.1061263e-38 366 265
0.064359605 0.78100002 -0.034233831 1.1706632e-38 367 265
0.065476485 0.778 -0.034102332 1.2349116e-38 368 265
0.066840574 0.778 -0.034102332 1.2625702e-38 369 265
0.068029337 0.77600002 -0.034014668 1.2901194e-38 370 265
0.069389917 0.77600002 -0.034014668 1.2901194e-38 371 265
0.070568159 0.77399999 -0.033927001 1.2626403e-38 372 265
0.071925238 0.77399999 -0.033927001 1.2626403e-38 373 265
0.073282316 0.77399999 -0.033927001 1.2443088e-38 374 265
0.074639395 0.77399999 -0.033927001 1.2443088e-38 375 265
0.075898297 0.773 -0.033883166 1.2626756e-38 376 265
0.077253617 0.773 -0.033883166 1.2718951e-38 377 265
0.078405559 0.77100003 -0.033795502 1.2718949e-38 378 265
0.079550482 0.76899999 -0.033707831 1.2442722e-38 379 265
0.080898799 0.76899999 -0.033707831 1.2443075e-38 380 265
0.082247108 0.76899999 -0.033707831 1.2811497e-38 381 265
0.083378009 0.76700002 -0.033620168 1.3090608e-38 382 265
0.084722824 0.76700002 -0.033620168 1.3735977e-38 383 265
0.086067624 0.76700002 -0.033620168 1.4379546e-38 384 265
0.08729846 0.76599997 -0.033576332 1.44721e-38 385 265
0.088641517 0.76599997 -0.033576332 1.4197659e-38 386 265
0.089984566 0.76599997 -0.033576332 1.4289855e-38 387 265
0.091089167 0.764 -0.033488665 1.4290576e-38 388 265
0.092428714 0.764 -0.033488665 1.4290576e-38 389 265
0.093768261 0.764 -0.033488665 1.4658284e-38 390 265
0.095356777 0.76599997 -0.033576332 1.3644132e-38 391 265
0.096699834 0.76599997 -0.033576332 1.3550548e-38 392 265
0.09804289 0.76599997 -0.033576332 1.7883744e-38 393 265
0.099515699 0.76700002 -0.033620168 1.8525558e-38 394 265
0.1008605 0.76700002 -0.033620168 1.7419569e-38 395 265
-0.069382899 0.76099998 -0.034691449 1.8523278e-38 268 266
-0.068048611 0.76099998 -0.034691449 1.8799505e-38 269 266
-0.066538997 0.759 -0.034600276 1.8984251e-38 270 266
-0.065208219 0.759 -0.034600276 1.9076446e-38 271 266
-0.063877434 0.759 -0.034600276 1.9076802e-38 272 266
-0.062546656 0.759 -0.034600276 1.9168998e-38 273 266
-0.061215881 0.759 -0.034600276 1.9168995e-38 274 266
-0.059885096 0.759 -0.034600276 1.8892408e-38 275 266
-0.058554318 0.759 -0.034600276 1.8799487e-38 276 266
-0.05722354 0.759 -0.034600276 1.8615095e-38 277 266
-0.055892758 0.759 -0.034600276 1.8522534e-38 278 266
-0.054561976 0.759 -0.034600276 1.8337783e-38 279 266
-0.053231198 0.759 -0.034600276 1.7969363e-38 280 266
-0.051900417 0.759 -0.034600276 1.7416189e-38 281 266
-0.050702889 0.76099998 -0.034691449 1.677082e-38 282 266
-0.049368605 0.76099998 -0.034691449 1.6401677e-38 283 266
-0.048034318 0.76099998 -0.034691449 1.5850308e-38 284 266
-0.046700031 0.76099998 -0.034691449 1.5573361e-38 285 266
-0.045425359 0.76200002 -0.034737039 1.4838693e-38 286 266
-0.044089317 0.76200002 -0.034737039 1.4654301e-38 287 266
-0.042753279 0.76200002 -0.034737039 1.4653598e-38 288 266
-0.041525945 0.764 -0.034828212 1.4561044e-38 289 266
-0.040186398 0.764 -0.034828212 1.4285539e-38 290 266
-0.038846854 0.764 -0.034828212 1.4285539e-38 291 266
-0.037605491 0.76599997 -0.034919381 1.4102224e-38 292 266
-0.036262438 0.76599997 -0.034919381 1.4102224e-38 293 266
-0.034964975 0.76700002 -0.034964975 1.3918551e-38 294 266
-0.033620168 0.76700002 -0.034964975 1.3918551e-38 295 266
-0.03227536 0.76700002 -0.034964975 1.4009322e-38 296 266
-0.031011207 0.76899999 -0.035056144 1.4009322e-38 297 266
-0.029740039 0.77100003 -0.03514732 1.4009324e-38 298 266
-0.028388219 0.77100003 -0.03514732 1.4009324e-38 299 266
-0.027106533 0.773 -0.035238493 1.3916773e-38 300 266
-0.025751207 0.773 -0.035238493 1.373238e-38 301 266
-0.024395877 0.773 -0.035238493 1.3456519e-38 302 266
-0.02307036 0.77399999 -0.03528408 1.3364324e-38 303 266
-0.021713279 0.77399999 -0.03528408 1.3271772e-38 304 266
-0.020356199 0.77399999 -0.03528408 1.3271772e-38 305 266
-0.019048214 0.77600002 -0.035375252 1.3178859e-38 306 266
-0.017778799 0.77999997 -0.035557598 1.3271056e-38 307 266
-0.016411198 0.77999997 -0.035557598 1.2994109e-38 308 266
-0.0150436 0.77999997 -0.035557598 1.2994109e-38 309 266
-0.013693534 0.78100002 -0.035603184 1.2901548e-38 310 266
-0.012355739 0.78299999 -0.035694357 1.2809352e-38 311 266
-0.010982879 0.78299999 -0.035694357 1.2899745e-38 312 266
-0.0096100196 0.78299999 -0.035694357 1.2531323e-38 313 266
-0.0082582003 0.78500003 -0.035785533 1.170372e-38 314 266
-0.0068818335 0.78500003 -0.035785533 1.1243101e-38 315 266
-0.0055054668 0.78500003 -0.035785533 1.0781045e-38 316 266
0.064524412 0.78299999 -0.035694357 1.0692112e-38 367 266
0.065728955 0.78100002 -0.035603184 1.0968699e-38 368 266
0.066840574 0.778 -0.035466425 1.1153449e-38 369 266
0.068204664 0.778 -0.035466425 1.1797739e-38 370 266
0.069389917 0.77600002 -0.035375252 1.198213e-38 371 266
0.070750505 0.77600002 -0.035375252 1.1799538e-38 372 266
0.071925238 0.77399999 -0.03528408 1.1706983e-38 373 266
0.073282316 0.77399999 -0.03528408 1.1891366e-38 374 266
0.074639395 0.77399999 -0.03528408 1.2075397e-38 375 266
0.075898297 0.773 -0.035238493 1.2259778e-38 376 266
0.077253617 0.773 -0.035238493 1.2167582e-38 377 266
0.078405559 0.77100003 -0.03514732 1.2442722e-38 378 266
0.079757385 0.77100003 -0.03514732 1.2442722e-38 379 266
0.080898799 0.76899999 -0.035056144 1.2167577e-38 380 266
0.082247108 0.76899999 -0.035056144 1.2444162e-38 381 266
0.083378009 0.76700002 -0.034964975 1.2444888e-38 382 266
0.084722824 0.76700002 -0.034964975 1.3182453e-38 383 266
0.086067624 0.76700002 -0.034964975 1.3736343e-38 384 266
0.08729846 0.76599997 -0.034919381 1.4105486e-38 385 266
0.088410079 0.764 -0.034828212 1.4289857e-38 386 266
0.089749627 0.764 -0.034828212 1.4289857e-38 387 266
0.090850718 0.76200002 -0.034737039 1.4474599e-38 388 266
0.092186764 0.76200002 -0.034737039 1.4474599e-38 389 266
0.093522795 0.76200002 -0.034737039 1.4567518e-38 390 266
0.09485884 0.76200002 -0.034737039 1.3922148e-38 391 266
0.096194878 0.76200002 -0.034737039 1.373781e-38 392 266
0.097530924 0.76200002 -0.034737039 1.7610027e-38 393 266
0.099126451 0.764 -0.034828212 1.8345135e-38 394 266
-0.070717193 0.76099998 -0.036025736 1.8061982e-38 267 267
-0.069200553 0.759 -0.035931058 1.870659e-38 268 267
-0.067869775 0.759 -0.035931058 1.8890982e-38 269 267
-0.066538997 0.759 -0.035931058 1.8983888e-38 270 267
-0.065208219 0.759 -0.035931058 1.9167919e-38 271 267
-0.063877434 0.759 -0.035931058 1.91672e-38 272 267
-0.062546656 0.759 -0.035931058 1.91672e-38 273 267
-0.061215881 0.759 -0.035931058 1.8708016e-38 274 267
-0.059727304 0.75700003 -0.03583638 1.843143e-38 275 267
-0.058400027 0.75700003 -0.03583638 1.8890606e-38 276 267
-0.05722354 0.759 -0.035931058 1.8614379e-38 277 267
-0.055892758 0.759 -0.035931058 1.8338516e-38 278 267
-0.054561976 0.759 -0.035931058 1.7693146e-38 279 267
-0.053231198 0.759 -0.035931058 1.6403123e-38 280 267
-0.051900417 0.759 -0.035931058 1.5757754e-38 281 267
-0.050569639 0.759 -0.035931058 1.5388248e-38 282 267
-0.049238857 0.759 -0.035931058 1.5572998e-38 283 267
-0.048034318 0.76099998 -0.036025736 1.5204952e-38 284 267
-0.046700031 0.76099998 -0.036025736 1.5112756e-38 285 267
-0.045425359 0.76200002 -0.036073081 1.4745428e-38 286 267
-0.044089317 0.76200002 -0.036073081 1.4745428e-38 287 267
-0.042753279 0.76200002 -0.036073081 1.4560681e-38 288 267
-0.041525945 0.764 -0.036167759 1.4560681e-38 289 267
-0.040186398 0.764 -0.036167759 1.4285173e-38 290 267
-0.038846854 0.764 -0.036167759 1.4285173e-38 291 267
-0.037605491 0.76599997 -0.036262438 1.4102577e-38 292 267
-0.036262438 0.76599997 -0.036262438 1.4010381e-38 293 267
-0.034964975 0.76700002 -0.036309779 1.3918551e-38 294 267
-0.033620168 0.76700002 -0.036309779 1.3918551e-38 295 267
-0.03227536 0.76700002 -0.036309779 1.4100438e-38 296 267
-0.031011207 0.76899999 -0.036404461 1.4100438e-38 297 267
-0.029740039 0.77100003 -0.036499143 1.4100441e-38 298 267
-0.028388219 0.77100003 -0.036499143 1.4100441e-38 299 267
-0.027106533 0.773 -0.036593821 1.3731661e-38 300 267
-0.025751207 0.773 -0.036593821 1.354727e-38 301 267
-0.02442744 0.77399999 -0.036641158 1.3452926e-38 302 267
-0.02307036 0.77399999 -0.036641158 1.3452926e-38 303 267
-0.021713279 0.77399999 -0.036641158 1.3268535e-38 304 267
-0.0204088 0.77600002 -0.036735836 1.3360731e-38 305 267
-0.019097306 0.778 -0.036830518 1.3544396e-38 306 267
-0.017801592 0.78100002 -0.036972538 1.3360005e-38 307 267
-0.016432239 0.78100002 -0.036972538 1.2991941e-38 308 267
-0.015062887 0.78100002 -0.036972538 1.2346572e-38 309 267
-0.013728599 0.78299999 -0.037067216 1.1151633e-38 310 267
0.067098312 0.78100002 -0.036972538 8.2057292e-39 369 267
0.068204664 0.778 -0.036830518 9.1276784e-39 370 267
0.069389917 0.77600002 -0.036735836 9.9574405e-39 371 267
0.070750505 0.77600002 -0.036735836 1.1246365e-38 372 267
0.071925238 0.77399999 -0.036641158 1.1614787e-38 373 267
0.073282316 0.77399999 -0.036641158 1.2257979e-38 374 267
0.074639395 0.77399999 -0.036641158 1.2350174e-38 375 267
0.075898297 0.773 -0.036593821 1.2350895e-38 376 267
0.077253617 0.773 -0.036593821 1.2350895e-38 377 267
0.078405559 0.77100003 -0.036499143 1.2258695e-38 378 267
0.079757385 0.77100003 -0.036499143 1.2350892e-38 379 267
0.080898799 0.76899999 -0.036404461 1.2351245e-38 380 267
0.082247108 0.76899999 -0.036404461 1.2351245e-38 381 267
0.083378009 0.76700002 -0.036309779 1.244309e-38 382 267
0.084722824 0.76700002 -0.036309779 1.2535286e-38 383 267
0.086067624 0.76700002 -0.036309779 1.281548e-38 384 267
0.08729846 0.76599997 -0.036262438 1.3553404e-38 385 267
0.088410079 0.764 -0.036167759 1.5024921e-38 386 267
0.08951468 0.76200002 -0.036073081 1.484017e-38 387 267
0.090850718 0.76200002 -0.036073081 1.4657558e-38 388 267
0.092186764 0.76200002 -0.036073081 1.4750112e-38 389 267
0.093522795 0.76200002 -0.036073081 1.4567167e-38 390 267
0.09485884 0.76200002 -0.036073081 1.4013994e-38 391 267
0.096194878 0.76200002 -0.036073081 1.3828937e-38 392 267
0.097530924 0.76200002 -0.036073081 1.6963588e-38 393 267
0.098866954 0.76200002 -0.036073081 1.7240588e-38 394 267
-0.07338576 0.76099998 -0.037360024 1.6041276e-38 265 268
-0.071862116 0.759 -0.03726184 1.7785373e-38 266 268
-0.070531338 0.759 -0.03726184 1.8338546e-38 267 268
-0.069200553 0.759 -0.03726184 1.8523278e-38 268 268
-0.067869775 0.759 -0.03726184 1.8707309e-38 269 268
-0.066538997 0.759 -0.03726184 1.8799505e-38 270 268
-0.065208219 0.759 -0.03726184 1.8799505e-38 271 268
-0.063877434 0.759 -0.03726184 1.8798786e-38 272 268
-0.062381849 0.75700003 -0.037163652 1.870659e-38 273 268
-0.061054576 0.75700003 -0.037163652 1.8523275e-38 274 268
-0.059727304 0.75700003 -0.037163652 1.843108e-38 275 268
-0.058400027 0.75700003 -0.037163652 1.8063371e-38 276 268
-0.05722354 0.759 -0.03726184 1.7786782e-38 277 268
-0.055892758 0.759 -0.03726184 1.7417277e-38 278 268
-0.054561976 0.759 -0.03726184 1.69563e-38 279 268
-0.053231198 0.759 -0.03726184 1.5574447e-38 280 268
-0.051900417 0.759 -0.03726184 1.5205305e-38 281 268
-0.050569639 0.759 -0.03726184 1.5296794e-38 282 268
-0.049238857 0.759 -0.03726184 1.5204598e-38 283 268
-0.048034318 0.76099998 -0.037360024 1.4745072e-38 284 268
-0.046700031 0.76099998 -0.037360024 1.4652876e-38 285 268
-0.045365743 0.76099998 -0.037360024 1.4561044e-38 286 268
-0.044089317 0.76200002 -0.037409119 1.4468848e-38 287 268
-0.042753279 0.76200002 -0.037409119 1.4284817e-38 288 268
-0.041417241 0.76200002 -0.037409119 1.4284817e-38 289 268
-0.040186398 0.764 -0.037507307 1.4010028e-38 290 268
-0.038846854 0.764 -0.037507307 1.4010028e-38 291 268
-0.037605491 0.76599997 -0.037605491 1.3917831e-38 292 268
-0.036262438 0.76599997 -0.037605491 1.3917831e-38 293 268
-0.034919381 0.76599997 -0.037605491 1.3917479e-38 294 268
-0.033620168 0.76700002 -0.037654586 1.3917479e-38 295 268
-0.03227536 0.76700002 -0.037654586 1.4100441e-38 296 268
-0.030930554 0.76700002 -0.037654586 1.3731659e-38 297 268
-0.02966289 0.76899999 -0.03775277 1.3456153e-38 298 268
-0.028388219 0.77100003 -0.037850961 1.3363599e-38 299 268
-0.027106533 0.773 -0.037949149 1.2993393e-38 300 268
-0.025751207 0.773 -0.037949149 1.2901197e-38 301 268
-0.02442744 0.77399999 -0.037998237 1.2808295e-38 302 268
-0.02307036 0.77399999 -0.037998237 1.2808295e-38 303 268
-0.021769386 0.77600002 -0.038096428 1.2624261e-38 304 268
-0.020461399 0.778 -0.038194612 1.2532064e-38 305 268
-0.0191464 0.77999997 -0.038292799 1.2531336e-38 306 268
0.069568761 0.778 -0.038194612 8.4816028e-39 371 268
0.070750505 0.77600002 -0.038096428 9.1269568e-39 372 268
0.072111093 0.77600002 -0.038096428 9.9567174e-39 373 268
0.073471673 0.77600002 -0.038096428 1.0693913e-38 374 268
0.074832268 0.77600002 -0.038096428 1.1062696e-38 375 268
0.075996473 0.77399999 -0.037998237 1.1338563e-38 376 268
0.077353559 0.77399999 -0.037998237 1.1430759e-38 377 268
0.078405559 0.77100003 -0.037850961 1.1706973e-38 378 268
0.079757385 0.77100003 -0.037850961 1.1799168e-38 379 268
0.080898799 0.76899999 -0.03775277 1.1891719e-38 380 268
0.082247108 0.76899999 -0.03775277 1.1891719e-38 381 268
0.083378009 0.76700002 -0.037654586 1.2074678e-38 382 268
0.084722824 0.76700002 -0.037654586 1.2074678e-38 383 268
0.085955404 0.76599997 -0.037605491 1.2259791e-38 384 268
0.087070532 0.764 -0.037507307 1.3089551e-38 385 268
0.088178635 0.76200002 -0.037409119 1.3827825e-38 386 268
0.089397199 0.76099998 -0.037360024 1.4380999e-38 387 268
0.090731487 0.76099998 -0.037360024 1.4564659e-38 388 268
0.092065774 0.76099998 -0.037360024 1.4656855e-38 389 268
0.093400061 0.76099998 -0.037360024 1.484125e-38 390 268
0.094734348 0.76099998 -0.037360024 1.4656857e-38 391 268
0.096068636 0.76099998 -0.037360024 1.4379959e-38 392 268
0.097402923 0.76099998 -0.037360024 1.6592655e-38 393 268
0.098866954 0.76200002 -0.037409119 1.6412271e-38 394 268
-0.07452368 0.759 -0.038592618 1.6777379e-38 264 269
-0.073192894 0.759 -0.038592618 1.6224206e-38 265 269
-0.071862116 0.759 -0.038592618 1.8062667e-38 266 269
-0.070531338 0.759 -0.038592618 1.8154863e-38 267 269
-0.069200553 0.759 -0.038592618 1.8338528e-38 268 269
-0.067869775 0.759 -0.038592618 1.8431083e-38 269 269
-0.06636367 0.75700003 -0.038490929 1.8431796e-38 270 269
-0.065036394 0.75700003 -0.038490929 1.83396e-38 271 269
-0.063877434 0.759 -0.038592618 1.8522549e-38 272 269
-0.062381849 0.75700003 -0.038490929 1.8338518e-38 273 269
-0.061054576 0.75700003 -0.038490929 1.8247036e-38 274 269
-0.059727304 0.75700003 -0.038490929 1.8154839e-38 275 269
-0.058400027 0.75700003 -0.038490929 1.7694937e-38 276 269
-0.057072755 0.75700003 -0.038490929 1.7233959e-38 277 269
-0.055745479 0.75700003 -0.038490929 1.6127618e-38 278 269
-0.054418206 0.75700003 -0.038490929 1.5758476e-38 279 269
-0.053090934 0.75700003 -0.038490929 1.4929091e-38 280 269
-0.051900417 0.759 -0.038592618 1.4929091e-38 281 269
-0.050569639 0.759 -0.038592618 1.511205e-38 282 269
-0.049238857 0.759 -0.038592618 1.4928019e-38 283 269
-0.048034318 0.76099998 -0.038694311 1.4744346e-38 284 269
-0.046700031 0.76099998 -0.038694311 1.4744346e-38 285 269
-0.045365743 0.76099998 -0.038694311 1.4469204e-38 286 269
-0.044089317 0.76200002 -0.038745161 1.4469204e-38 287 269
-0.042753279 0.76200002 -0.038745161 1.4284817e-38 288 269
-0.041417241 0.76200002 -0.038745161 1.4284817e-38 289 269
-0.040186398 0.764 -0.038846854 1.4101143e-38 290 269
-0.038846854 0.764 -0.038846854 1.4101143e-38 291 269
-0.037605491 0.76599997 -0.038948543 1.3917123e-38 292 269
-0.036262438 0.76599997 -0.038948543 1.3917123e-38 293 269
-0.034919381 0.76599997 -0.038948543 1.3732733e-38 294 269
-0.033620168 0.76700002 -0.038999394 1.3640538e-38 295 269
-0.03227536 0.76700002 -0.038999394 1.3823128e-38 296 269
-0.030930554 0.76700002 -0.038999394 1.3546902e-38 297 269
-0.02966289 0.76899999 -0.039101087 1.2993022e-38 298 269
-0.028314579 0.76899999 -0.039101087 1.2716433e-38 299 269
-0.027106533 0.773 -0.039304473 1.216256e-38 300 269
-0.025751207 0.773 -0.039304473 1.2346951e-38 301 269
-0.02442744 0.77399999 -0.039355319 1.2348023e-38 302 269
-0.023129974 0.77600002 -0.039457016 1.2255828e-38 303 269
-0.021769386 0.77600002 -0.039457016 1.2255103e-38 304 269
-0.020513998 0.77999997 -0.039660398 1.1886319e-38 305 269
0.079964265 0.773 -0.039304473 1.1428971e-38 379 269
0.080898799 0.76899999 -0.039101087 1.133856e-38 380 269
0.082247108 0.76899999 -0.039101087 1.1430756e-38 381 269
0.083595425 0.76899999 -0.039101087 1.1797734e-38 382 269
0.084722824 0.76700002 -0.038999394 1.1982484e-38 383 269
0.085955404 0.76599997 -0.038948543 1.1892087e-38 384 269
0.086842604 0.76200002 -0.038745161 1.2076478e-38 385 269
0.088062912 0.76099998 -0.038694311 1.2905513e-38 386 269
0.089397199 0.76099998 -0.038694311 1.3643078e-38 387 269
0.090493038 0.759 -0.038592618 1.4379199e-38 388 269
0.091823816 0.759 -0.038592618 1.456359e-38 389 269
0.092909135 0.75700003 -0.038490929 1.465686e-38 390 269
0.094236404 0.75700003 -0.038490929 1.4749057e-38 391 269
0.095311195 0.755 -0.038389232 1.4655823e-38 392 269
0.096634962 0.755 -0.038389232 1.5946562e-38 393 269
0.098218225 0.75700003 -0.038490929 1.5766899e-38 394 269
-0.076054335 0.76099998 -0.040028598 1.6780308e-38 263 270
-0.07452368 0.759 -0.0399234 1.6683363e-38 264 270
-0.073192894 0.759 -0.0399234 1.6775559e-38 265 270
-0.071862116 0.759 -0.0399234 1.7878625e-38 266 270
-0.070345491 0.75700003 -0.039818201 1.797082e-38 267 270
-0.069018215 0.75700003 -0.039818201 1.806302e-38 268 270
-0.067690939 0.75700003 -0.039818201 1.806302e-38 269 270
-0.06636367 0.75700003 -0.039818201 1.7971897e-38 270 270
-0.065036394 0.75700003 -0.039818201 1.7971897e-38 271 270
-0.063709125 0.75700003 -0.039818201 1.7971529e-38 272 270
-0.062381849 0.75700003 -0.039818201 1.7878975e-38 273 270
-0.061054576 0.75700003 -0.039818201 1.7694934e-38 274 270
-0.059727304 0.75700003 -0.039818201 1.7234315e-38 275 270
-0.058400027 0.75700003 -0.039818201 1.6864806e-38 276 270
-0.057072755 0.75700003 -0.039818201 1.6219437e-38 277 270
-0.055745479 0.75700003 -0.039818201 1.5207104e-38 278 270
-0.054418206 0.75700003 -0.039818201 1.5022711e-38 279 270
-0.053090934 0.75700003 -0.039818201 1.5204604e-38 280 270
-0.051763661 0.75700003 -0.039818201 1.4928019e-38 281 270
-0.050436385 0.75700003 -0.039818201 1.4836189e-38 282 270
-0.049238857 0.759 -0.0399234 1.4743993e-38 283 270
-0.048034318 0.76099998 -0.040028598 1.4560681e-38 284 270
-0.046700031 0.76099998 -0.040028598 1.4560681e-38 285 270
-0.045365743 0.76099998 -0.040028598 1.4468848e-38 286 270
-0.044089317 0.76200002 -0.040081199 1.4284817e-38 287 270
-0.042753279 0.76200002 -0.040081199 1.4284817e-38 288 270
-0.041417241 0.76200002 -0.040081199 1.4100424e-38 289 270
-0.040186398 0.764 -0.040186398 1.3825277e-38 290 270
-0.038846854 0.764 -0.040186398 1.3825277e-38 291 270
-0.037605491 0.76599997 -0.040291596 1.3732728e-38 292 270
-0.036262438 0.76599997 -0.040291596 1.3456501e-38 293 270
-0.034919381 0.76599997 -0.040291596 1.3455425e-38 294 270
-0.033576332 0.76599997 -0.040291596 1.2810055e-38 295 270
-0.03227536 0.76700002 -0.040344197 1.2807537e-38 296 270
-0.031011207 0.76899999 -0.0404494 1.2438755e-38 297 270
-0.02966289 0.76899999 -0.0404494 1.2255103e-38 298 270
-0.028314579 0.76899999 -0.0404494 1.2162908e-38 299 270
-0.027036399 0.77100003 -0.040554602 1.1887766e-38 300 270
-0.02568458 0.77100003 -0.040554602 1.1887766e-38 301 270
-0.02442744 0.77399999 -0.040712398 1.1518257e-38 302 270
-0.023129974 0.77600002 -0.0408176 1.1057638e-38 303 270
0.084722824 0.76700002 -0.040344197 1.1245661e-38 383 270
0.085955404 0.76599997 -0.040291596 1.1706267e-38 384 270
0.086728632 0.76099998 -0.040028598 1.1890659e-38 385 270
0.087831482 0.759 -0.0399234 1.2259791e-38 386 270
0.08916226 0.759 -0.0399234 1.3089551e-38 387 270
0.090493038 0.759 -0.0399234 1.3918592e-38 388 270
0.091581859 0.75700003 -0.039818201 1.4102984e-38 389 270
0.092663661 0.755 -0.039712999 1.4471041e-38 390 270
0.093987428 0.755 -0.039712999 1.4563237e-38 391 270
0.095311195 0.755 -0.039712999 1.4288113e-38 392 270
0.096634962 0.755 -0.039712999 1.4564701e-38 393 270
0.097958729 0.755 -0.039712999 1.5030406e-38 394 270
-0.077388622 0.76099998 -0.041362885 1.7703321e-38 262 271
-0.075854458 0.759 -0.041254178 1.5306235e-38 263 271
-0.07452368 0.759 -0.041254178 1.6591152e-38 264 271
-0.073192894 0.759 -0.041254178 1.6959575e-38 265 271
-0.07167276 0.75700003 -0.041145474 1.7786076e-38 266 271
-0.070345491 0.75700003 -0.041145474 1.7786076e-38 267 271
-0.069018215 0.75700003 -0.041145474 1.7878628e-38 268 271
-0.067690939 0.75700003 -0.041145474 1.7878628e-38 269 271
-0.066188328 0.755 -0.041036766 1.769531e-38 270 271
-0.064864561 0.755 -0.041036766 1.769531e-38 271 271
-0.063709125 0.75700003 -0.041145474 1.7694934e-38 272 271
-0.062381849 0.75700003 -0.041145474 1.7418707e-38 273 271
-0.061054576 0.75700003 -0.041145474 1.7233946e-38 274 271
-0.059727304 0.75700003 -0.041145474 1.6496381e-38 275 271
-0.058400027 0.75700003 -0.041145474 1.594322e-38 276 271
-0.057072755 0.75700003 -0.041145474 1.5390046e-38 277 271
-0.055745479 0.75700003 -0.041145474 1.4746497e-38 278 271
-0.054418206 0.75700003 -0.041145474 1.4654301e-38 279 271
-0.053090934 0.75700003 -0.041145474 1.4652876e-38 280 271
-0.051763661 0.75700003 -0.041145474 1.4560681e-38 281 271
-0.050436385 0.75700003 -0.041145474 1.4285173e-38 282 271
-0.049238857 0.759 -0.041254178 1.4469204e-38 283 271
-0.048034318 0.76099998 -0.041362885 1.4193343e-38 284 271
-0.046700031 0.76099998 -0.041362885 1.4193343e-38 285 271
-0.045365743 0.76099998 -0.041362885 1.419299e-38 286 271
-0.044089317 0.76200002 -0.041417241 1.4100794e-38 287 271
-0.042753279 0.76200002 -0.041417241 1.3824926e-38 288 271
-0.041417241 0.76200002 -0.041417241 1.3732731e-38 289 271
-0.040186398 0.764 -0.041525945 1.327391e-38 290 271
-0.038846854 0.764 -0.041525945 1.327391e-38 291 271
-0.037605491 0.76599997 -0.041634649 1.354762e-38 292 271
-0.036262438 0.76599997 -0.041634649 1.3086642e-38 293 271
-0.034919381 0.76599997 -0.041634649 1.2809332e-38 294 271
-0.033576332 0.76599997 -0.041634649 1.1979572e-38 295 271
-0.03227536 0.76700002 -0.041689005 1.1701207e-38 296 271
-0.030930554 0.76700002 -0.041689005 1.1793402e-38 297 271
-0.02966289 0.76899999 -0.041797712 1.1794852e-38 298 271
-0.028314579 0.76899999 -0.041797712 1.1702298e-38 299 271
-0.027036399 0.77100003 -0.04190642 1.1428566e-38 300 271
-0.02568458 0.77100003 -0.04190642 1.1059783e-38 301 271
0.086067624 0.76700002 -0.041689005 1.0969447e-38 384 271
0.086728632 0.76099998 -0.041362885 1.1245674e-38 385 271
0.087600037 0.75700003 -0.041145474 1.1798832e-38 386 271
0.088574894 0.75400001 -0.040982414 1.2352005e-38 387 271
0.089896902 0.75400001 -0.040982414 1.3272513e-38 388 271
0.091218919 0.75400001 -0.040982414 1.3733491e-38 389 271
0.092540927 0.75400001 -0.040982414 1.4377776e-38 390 271
0.093862943 0.75400001 -0.040982414 1.4561807e-38 391 271
0.095184959 0.75400001 -0.040982414 1.4102987e-38 392 271
0.096506968 0.75400001 -0.040982414 1.382604e-38 393 271
0.097828984 0.75400001 -0.040982414 1.4108433e-38 394 271
-0.077185236 0.759 -0.042584959 1.6596948e-38 262 272
-0.075854458 0.759 -0.042584959 1.4753036e-38 263 272
-0.074327305 0.75700003 -0.042472746 1.6866271e-38 264 272
-0.073000036 0.75700003 -0.042472746 1.7142859e-38 265 272
-0.07167276 0.75700003 -0.042472746 1.7693868e-38 266 272
-0.070159629 0.755 -0.042360533 1.7786063e-38 267 272
-0.068835862 0.755 -0.042360533 1.7693868e-38 268 272
-0.067512102 0.755 -0.042360533 1.7786063e-38 269 272
-0.066188328 0.755 -0.042360533 1.7694584e-38 270 272
-0.064864561 0.755 -0.042360533 1.7694584e-38 271 272
-0.063540794 0.755 -0.042360533 1.7784246e-38 272 272
-0.062217031 0.755 -0.042360533 1.6769735e-38 273 272
-0.060893264 0.755 -0.042360533 1.6126517e-38 274 272
-0.059727304 0.75700003 -0.042472746 1.5481147e-38 275 272
-0.058400027 0.75700003 -0.042472746 1.4654283e-38 276 272
-0.057072755 0.75700003 -0.042472746 1.4654283e-38 277 272
-0.055745479 0.75700003 -0.042472746 1.4929093e-38 278 272
-0.054418206 0.75700003 -0.042472746 1.4652148e-38 279 272
-0.053090934 0.75700003 -0.042472746 1.4651797e-38 280 272
-0.051763661 0.75700003 -0.042472746 1.4467765e-38 281 272
-0.050569639 0.759 -0.042584959 1.428517e-38 282 272
-0.049238857 0.759 -0.042584959 1.428517e-38 283 272
-0.048034318 0.76099998 -0.042697169 1.4100789e-38 284 272
-0.046700031 0.76099998 -0.042697169 1.4100789e-38 285 272
-0.045365743 0.76099998 -0.042697169 1.3916406e-38 286 272
-0.044031456 0.76099998 -0.042697169 1.382421e-38 287 272
-0.042753279 0.76200002 -0.042753279 1.3824207e-38 288 272
-0.041417241 0.76200002 -0.042753279 1.3732012e-38 289 272
-0.040081199 0.76200002 -0.042753279 1.3269942e-38 290 272
-0.038846854 0.764 -0.042865492 1.2532377e-38 291 272
-0.037507307 0.764 -0.042865492 1.1516777e-38 292 272
-0.036262438 0.76599997 -0.042977702 1.0963962e-38 293 272
-0.034919381 0.76599997 -0.042977702 1.0231094e-38 294 272
-0.033576332 0.76599997 -0.042977702 1.0876464e-38 295 272
-0.03227536 0.76700002 -0.043033812 1.1793049e-38 296 272
-0.030930554 0.76700002 -0.043033812 1.2254026e-38 297 272
-0.029585747 0.76700002 -0.043033812 1.1427146e-38 298 272
0.086789995 0.75 -0.04208 1.2071822e-38 386 272
0.088105001 0.75 -0.04208 1.2440965e-38 387 272
0.089419998 0.75 -0.04208 1.2534954e-38 388 272
0.090734996 0.75 -0.04208 1.3272519e-38 389 272
0.09229546 0.75199997 -0.04219221 1.3824968e-38 390 272
0.093613967 0.75199997 -0.04219221 1.3824968e-38 391 272
0.094932474 0.75199997 -0.04219221 1.4100464e-38 392 272
0.096250981 0.75199997 -0.04219221 1.3362898e-38 393 272
0.097569488 0.75199997 -0.04219221 1.327758e-38 394 272
-0.080057196 0.76099998 -0.044031456 1.8994452e-38 260 273
-0.078516021 0.759 -0.043915741 1.6412975e-38 261 273
-0.076981857 0.75700003 -0.043800019 1.6041591e-38 262 273
-0.075654581 0.75700003 -0.043800019 1.5211831e-38 263 273
-0.074327305 0.75700003 -0.043800019 1.6500359e-38 264 273
-0.073000036 0.75700003 -0.043800019 1.6592555e-38 265 273
-0.071483396 0.755 -0.043684296 1.7142859e-38 266 273
-0.070159629 0.755 -0.043684296 1.7235055e-38 267 273
-0.068835862 0.755 -0.043684296 1.75102e-38 268 273
-0.067512102 0.755 -0.043684296 1.7418004e-38 269 273
-0.066188328 0.755 -0.043684296 1.732688e-38 270 273
-0.064864561 0.755 -0.043684296 1.7050293e-38 271 273
-0.063540794 0.755 -0.043684296 1.6774057e-38 272 273
-0.062217031 0.755 -0.043684296 1.5575514e-38 273 273
-0.060893264 0.755 -0.043684296 1.5113838e-38 274 273
-0.059727304 0.75700003 -0.043800019 1.5021283e-38 275 273
-0.058400027 0.75700003 -0.043800019 1.4652523e-38 276 273
-0.057072755 0.75700003 -0.043800019 1.4560328e-38 277 273
-0.055745479 0.75700003 -0.043800019 1.4468132e-38 278 273
-0.054418206 0.75700003 -0.043800019 1.4375936e-38 279 273
-0.053090934 0.75700003 -0.043800019 1.419262e-38 280 273
-0.051763661 0.75700003 -0.043800019 1.419262e-38 281 273
-0.050569639 0.759 -0.043915741 1.3917476e-38 282 273
-0.049238857 0.759 -0.043915741 1.3917476e-38 283 273
-0.047908079 0.759 -0.043915741 1.3916409e-38 284 273
-0.046577301 0.759 -0.043915741 1.3731659e-38 285 273
-0.045365743 0.76099998 -0.044031456 1.3639816e-38 286 273
-0.044031456 0.76099998 -0.044031456 1.3271034e-38 287 273
-0.042697169 0.76099998 -0.044031456 1.3362854e-38 288 273
-0.041417241 0.76200002 -0.044089317 1.2717484e-38 289 273
-0.040081199 0.76200002 -0.044089317 1.1796973e-38 290 273
-0.038745161 0.76200002 -0.044089317 1.0783181e-38 291 273
-0.037507307 0.764 -0.04420504 1.0228247e-38 292 273
-0.036262438 0.76599997 -0.044320758 1.0412278e-38 293 273
-0.034919381 0.76599997 -0.044320758 1.1055512e-38 294 273
0.086789995 0.75 -0.043394998 1.1061292e-38 386 273
0.087987527 0.74900001 -0.04333714 1.1429715e-38 387 273
0.089300767 0.74900001 -0.04333714 1.189068e-38 388 273
0.090614013 0.74900001 -0.04333714 1.2259103e-38 389 273
0.091927268 0.74900001 -0.04333714 1.2904104e-38 390 273
0.093613967 0.75199997 -0.04351072 1.2996658e-38 391 273
0.094932474 0.75199997 -0.04351072 1.3546606e-38 392 273
0.096250981 0.75199997 -0.04351072 1.3454409e-38 393 273
0.097309999 0.75 -0.043394998 1.2628258e-38 394 273
0.098493494 0.74900001 -0.04333714 1.3273627e-38 395 273
0.099806741 0.74900001 -0.04333714 1.4015531e-38 396 273
0.10111999 0.74900001 -0.04333714 1.5951639e-38 397 273
-0.081391476 0.76099998 -0.045365743 1.9638765e-38 259 274
-0.079846799 0.759 -0.045246519 1.8623848e-38 260 274
-0.078309126 0.75700003 -0.045127295 1.4383209e-38 261 274
-0.076981857 0.75700003 -0.045127295 1.4935224e-38 262 274
-0.075454697 0.755 -0.045008067 1.5396202e-38 263 274
-0.07413093 0.755 -0.045008067 1.6498915e-38 264 274
-0.07280717 0.755 -0.045008067 1.6683306e-38 265 274
-0.071388714 0.75400001 -0.044948451 1.7142114e-38 266 274
-0.070066705 0.75400001 -0.044948451 1.7326505e-38 267 274
-0.068744689 0.75400001 -0.044948451 1.7326505e-38 268 274
-0.067422673 0.75400001 -0.044948451 1.7326505e-38 269 274
-0.066100664 0.75400001 -0.044948451 1.6866606e-38 270 274
-0.064778648 0.75400001 -0.044948451 1.5944289e-38 271 274
-0.06345664 0.75400001 -0.044948451 1.5391476e-38 272 274
-0.062217031 0.755 -0.045008067 1.465355e-38 273 274
-0.060893264 0.755 -0.045008067 1.4928722e-38 274 274
-0.059569497 0.755 -0.045008067 1.4836526e-38 275 274
-0.058400027 0.75700003 -0.045127295 1.4376288e-38 276 274
-0.057072755 0.75700003 -0.045127295 1.4376288e-38 277 274
-0.055745479 0.75700003 -0.045127295 1.4375932e-38 278 274
-0.054418206 0.75700003 -0.045127295 1.4375932e-38 279 274
-0.053090934 0.75700003 -0.045127295 1.4192617e-38 280 274
-0.051763661 0.75700003 -0.045127295 1.4100421e-38 281 274
-0.050569639 0.759 -0.045246519 1.3917106e-38 282 274
-0.049238857 0.759 -0.045246519 1.3824911e-38 283 274
-0.047908079 0.759 -0.045246519 1.3732012e-38 284 274
-0.046577301 0.759 -0.045246519 1.3639816e-38 285 274
-0.045365743 0.76099998 -0.045365743 1.3452188e-38 286 274
-0.044031456 0.76099998 -0.045365743 1.1976698e-38 287 274
-0.042697169 0.76099998 -0.045365743 9.767587e-39 288 274
-0.041362885 0.76099998 -0.045365743 8.0155169e-39 289 274
-0.040081199 0.76200002 -0.045425359 7.0982578e-39 290 274
-0.038745161 0.76200002 -0.045425359 8.2049654e-39 291 274
-0.037507307 0.764 -0.045544583 1.0135701e-38 292 274
-0.036167759 0.764 -0.045544583 1.1057297e-38 293 274
0.087987527 0.74900001 -0.044650383 1.1428626e-38 387 274
0.089062311 0.74699998 -0.044531155 1.216402e-38 388 274
0.090372056 0.74699998 -0.044531155 1.2624999e-38 389 274
0.091927268 0.74900001 -0.044650383 1.2901939e-38 390 274
0.093364999 0.75 -0.044709999 1.3086331e-38 391 274
0.094679996 0.75 -0.044709999 1.3545507e-38 392 274
0.095994994 0.75 -0.044709999 1.3453312e-38 393 274
0.097180255 0.74900001 -0.044650383 1.3082737e-38 394 274
0.098230496 0.74699998 -0.044531155 1.2252617e-38 395 274
0.099540234 0.74699998 -0.044531155 1.1246049e-38 396 274
0.10084997 0.74699998 -0.044531155 1.1707028e-38 397 274
0.10215972 0.74699998 -0.044531155 1.1522306e-38 398 274
-0.081177577 0.759 -0.046577301 1.8716086e-38 259 275
-0.079636402 0.75700003 -0.046454567 1.7058655e-38 260 275
-0.078102231 0.755 -0.04633183 1.3462665e-38 261 275
-0.076778464 0.755 -0.04633183 1.5025608e-38 262 275
-0.075454697 0.755 -0.04633183 1.5670977e-38 263 275
-0.074032739 0.75400001 -0.046270464 1.5672048e-38 264 275
-0.07271073 0.75400001 -0.046270464 1.5856439e-38 265 275
-0.071388714 0.75400001 -0.046270464 1.6499991e-38 266 275
-0.070066705 0.75400001 -0.046270464 1.6684022e-38 267 275
-0.068744689 0.75400001 -0.046270464 1.6958451e-38 268 275
-0.067422673 0.75400001 -0.046270464 1.6681505e-38 269 275
-0.066100664 0.75400001 -0.046270464 1.5760629e-38 270 275
-0.064778648 0.75400001 -0.046270464 1.511526e-38 271 275
-0.06345664 0.75400001 -0.046270464 1.4562804e-38 272 275
-0.062217031 0.755 -0.04633183 1.4101826e-38 273 275
-0.060893264 0.755 -0.04633183 1.4376636e-38 274 275
-0.059569497 0.755 -0.04633183 1.428444e-38 275 275
-0.058400027 0.75700003 -0.046454567 1.410114e-38 276 275
-0.057072755 0.75700003 -0.046454567 1.410114e-38 277 275
-0.055745479 0.75700003 -0.046454567 1.3917112e-38 278 275
-0.054418206 0.75700003 -0.046454567 1.4101143e-38 279 275
-0.053090934 0.75700003 -0.046454567 1.3641964e-38 280 275
-0.051900417 0.759 -0.046577301 1.3549769e-38 281 275
-0.050569639 0.759 -0.046577301 1.3456851e-38 282 275
-0.049238857 0.759 -0.046577301 1.3272459e-38 283 275
