# .PCD v.7 - Point Cloud Data file format
FIELDS x y z rgb imX imY
SIZE 4 4 4 4 4 4
TYPE F F F F F F
COUNT 1 1 1 1 1 1
WIDTH 833
HEIGHT 1
VIEWPOINT 0 0 0 1 0 0 0
POINTS 833
DATA ascii
0.021082079 0.66799998 -0.038650475 1.8156656e-38 338 273
0.022253305 0.66799998 -0.038650475 1.7972625e-38 339 273
0.023424532 0.66799998 -0.038650475 1.7788945e-38 340 273
0.024669399 0.67000002 -0.038766202 1.7512716e-38 341 273
0.025844134 0.67000002 -0.038766202 1.751164e-38 342 273
0.027059194 0.671 -0.038824059 1.751164e-38 343 273
0.028235679 0.671 -0.038824059 1.7051761e-38 344 273
0.029412165 0.671 -0.038824059 1.6959565e-38 345 273
0.030588651 0.671 -0.038824059 1.6682971e-38 346 273
0.031765141 0.671 -0.038824059 1.6682971e-38 347 273
0.032941625 0.671 -0.038824059 1.6682615e-38 348 273
0.034118112 0.671 -0.038824059 1.6498584e-38 349 273
0.0352946 0.671 -0.038824059 1.6314559e-38 350 273
0.036525436 0.67199999 -0.03888192 1.6130527e-38 351 273
0.037871998 0.67500001 -0.039055496 1.6038329e-38 352 273
0.039113361 0.676 -0.039113361 1.6038329e-38 353 273
0.040298611 0.676 -0.039113361 1.5854659e-38 354 273
0.041606598 0.67799997 -0.039229076 1.5670268e-38 355 273
0.042858478 0.67900002 -0.039286941 1.5669918e-38 356 273
0.044113863 0.68000001 -0.039344799 1.5485527e-38 357 273
0.045306131 0.68000001 -0.039344799 1.5208934e-38 358 273
0.046635158 0.68199998 -0.039460517 1.4563565e-38 359 273
0.047830928 0.68199998 -0.039460517 1.4102942e-38 360 273
0.049098592 0.68300003 -0.039518382 1.4102942e-38 361 273
0.05029612 0.68300003 -0.039518382 1.3735251e-38 362 273
0.051569041 0.68400002 -0.03957624 1.3827447e-38 363 273
0.05276832 0.68400002 -0.03957624 1.3828176e-38 364 273
0.053967599 0.68400002 -0.03957624 1.373598e-38 365 273
0.055328183 0.68599999 -0.039691959 1.3551236e-38 366 273
0.057107817 0.69300002 -0.04009698 1.3366486e-38 367 273
0.058322877 0.69300002 -0.04009698 1.3090623e-38 368 273
0.059623852 0.69400001 -0.040154841 1.318282e-38 369 273
0.061015997 0.69599998 -0.040270556 1.2814412e-38 370 273
0.062236317 0.69599998 -0.040270556 1.2906609e-38 371 273
-0.033660494 0.662 -0.039464023 1.7885224e-38 291 274
-0.032499783 0.662 -0.039464023 1.7977053e-38 292 274
-0.026696252 0.662 -0.039464023 1.7974163e-38 297 274
-0.025535546 0.662 -0.039464023 1.8157459e-38 298 274
-0.013865359 0.65899998 -0.039285187 1.8247077e-38 308 274
-0.012709912 0.65899998 -0.039285187 1.8431828e-38 309 274
-0.011554466 0.65899998 -0.039285187 1.8615493e-38 310 274
-0.010399019 0.65899998 -0.039285187 1.8615493e-38 311 274
-0.0092716264 0.66100001 -0.039404415 1.8432531e-38 312 274
-0.0081126727 0.66100001 -0.039404415 1.8432531e-38 313 274
-0.00695372 0.66100001 -0.039404415 1.852435e-38 314 274
-0.0057947668 0.66100001 -0.039404415 1.8431796e-38 315 274
-0.0046358132 0.66100001 -0.039404415 1.8524335e-38 316 274
-0.00347686 0.66100001 -0.039404415 1.8708366e-38 317 274
-0.0023179066 0.66100001 -0.039404415 1.8617249e-38 318 274
-0.0011589533 0.66100001 -0.039404415 1.8617249e-38 319 274
0 0.66100001 -0.039404415 1.870909e-38 320 274
0.00116772 0.66600001 -0.039702479 1.8801645e-38 321 274
0.0023284266 0.66399997 -0.039583251 1.8709093e-38 322 274
0.0034926396 0.66399997 -0.039583251 1.8709093e-38 323 274
0.0046568532 0.66399997 -0.039583251 1.8800936e-38 324 274
0.0058122999 0.66299999 -0.039523639 1.8800936e-38 325 274
0.0069747595 0.66299999 -0.039523639 1.8708743e-38 326 274
0.0081372196 0.66299999 -0.039523639 1.8708743e-38 327 274
0.0092996797 0.66299999 -0.039523639 1.8892055e-38 328 274
0.01044636 0.662 -0.039464023 1.8892055e-38 329 274
0.011607066 0.662 -0.039464023 1.8708743e-38 330 274
0.012787059 0.66299999 -0.039523639 1.8616546e-38 331 274
0.013970559 0.66399997 -0.039583251 1.852435e-38 332 274
0.015134773 0.66399997 -0.039583251 1.8431796e-38 333 274
0.016348081 0.66600001 -0.039702479 1.8156288e-38 334 274
0.017515799 0.66600001 -0.039702479 1.8156288e-38 335 274
0.018711573 0.667 -0.039762091 1.8155569e-38 336 274
0.019881045 0.667 -0.039762091 1.8063373e-38 337 274
0.021050518 0.667 -0.039762091 1.7603833e-38 338 274
0.022219993 0.667 -0.039762091 1.7603833e-38 339 274
0.023424532 0.66799998 -0.039821707 1.741872e-38 340 274
0.02459576 0.66799998 -0.039821707 1.7234327e-38 341 274
0.025766984 0.66799998 -0.039821707 1.7326527e-38 342 274
0.027018867 0.67000002 -0.039940935 1.723433e-38 343 274
0.028193599 0.67000002 -0.039940935 1.6958116e-38 344 274
0.029368332 0.67000002 -0.039940935 1.6865562e-38 345 274
0.030588651 0.671 -0.040000543 1.6222347e-38 346 274
0.0317178 0.67000002 -0.039940935 1.6314543e-38 347 274
0.032892533 0.67000002 -0.039940935 1.6589335e-38 348 274
0.034067266 0.67000002 -0.039940935 1.6497139e-38 349 274
0.035241999 0.67000002 -0.039940935 1.6129799e-38 350 274
0.036471087 0.671 -0.040000543 1.6037602e-38 351 274
0.037815895 0.67400002 -0.040179387 1.5854287e-38 352 274
0.039055496 0.67500001 -0.040238999 1.5762091e-38 353 274
0.040238999 0.67500001 -0.040238999 1.5669539e-38 354 274
0.041483864 0.676 -0.040298611 1.5485508e-38 355 274
0.042795356 0.67799997 -0.040417835 1.5393315e-38 356 274
0.044048995 0.67900002 -0.040477451 1.5300761e-38 357 274
0.045306131 0.68000001 -0.040537067 1.5208934e-38 358 274
0.046635158 0.68199998 -0.040656291 1.4747956e-38 359 274
0.047830928 0.68199998 -0.040656291 1.3550137e-38 360 274
0.049098592 0.68300003 -0.040715907 1.3366106e-38 361 274
0.05029612 0.68300003 -0.040715907 1.3641261e-38 362 274
0.051569041 0.68400002 -0.040775519 1.3733458e-38 363 274
0.05276832 0.68400002 -0.040775519 1.3734901e-38 364 274
0.053967599 0.68400002 -0.040775519 1.3550511e-38 365 274
0.055328183 0.68599999 -0.040894743 1.3182453e-38 366 274
0.056613375 0.68699998 -0.040954359 1.3182453e-38 367 274
0.058322877 0.69300002 -0.041312039 1.3090628e-38 368 274
0.059623852 0.69400001 -0.041371655 1.3182823e-38 369 274
0.061015997 0.69599998 -0.041490879 1.2906256e-38 370 274
0.062236317 0.69599998 -0.041490879 1.3459428e-38 371 274
-0.041848559 0.66299999 -0.040686097 1.8710277e-38 284 275
-0.04062473 0.662 -0.04062473 1.8434049e-38 285 275
-0.039464023 0.662 -0.04062473 1.8342219e-38 286 275
-0.037086505 0.66100001 -0.040563367 1.8341498e-38 288 275
-0.035927553 0.66100001 -0.040563367 1.8434052e-38 289 275
-0.0347686 0.66100001 -0.040563367 1.8526245e-38 290 275
-0.033609647 0.66100001 -0.040563367 1.8249658e-38 291 275
-0.032450691 0.66100001 -0.040563367 1.8248933e-38 292 275
-0.031291738 0.66100001 -0.040563367 1.8156738e-38 293 275
-0.030132787 0.66100001 -0.040563367 1.8248562e-38 294 275
-0.028973831 0.66100001 -0.040563367 1.8064172e-38 295 275
-0.026696252 0.662 -0.04062473 1.8248191e-38 297 275
-0.025496973 0.66100001 -0.040563367 1.8431843e-38 298 275
-0.02433802 0.66100001 -0.040563367 1.8339289e-38 299 275
-0.023179067 0.66100001 -0.040563367 1.8339625e-38 300 275
-0.021820232 0.65499997 -0.040195163 1.8063038e-38 301 275
-0.020640239 0.65399998 -0.040133797 1.8154486e-38 302 275
-0.019493559 0.65399998 -0.040133797 1.8154486e-38 303 275
-0.01834688 0.65399998 -0.040133797 1.8063347e-38 304 275
-0.017226499 0.65499997 -0.040195163 1.8063347e-38 305 275
-0.016225345 0.66100001 -0.040563367 1.8247375e-38 306 275
-0.015066394 0.66100001 -0.040563367 1.8339571e-38 307 275
-0.013865359 0.65899998 -0.04044063 1.8615449e-38 308 275
-0.012709912 0.65899998 -0.04044063 1.8707644e-38 309 275
-0.011554466 0.65899998 -0.04044063 1.8799489e-38 310 275
-0.010399019 0.65899998 -0.04044063 1.8799489e-38 311 275
-0.0092716264 0.66100001 -0.040563367 1.8524347e-38 312 275
-0.0081126727 0.66100001 -0.040563367 1.8432152e-38 313 275
-0.0069326796 0.65899998 -0.04044063 1.8523628e-38 314 275
-0.0057772328 0.65899998 -0.04044063 1.8523628e-38 315 275
-0.0046358132 0.66100001 -0.040563367 1.870801e-38 316 275
-0.00347686 0.66100001 -0.040563367 1.8800206e-38 317 275
-0.0023179066 0.66100001 -0.040563367 1.870909e-38 318 275
-0.0011554466 0.65899998 -0.04044063 1.870909e-38 319 275
0 0.65899998 -0.04044063 1.8892405e-38 320 275
0.0011554466 0.65899998 -0.04044063 1.8892405e-38 321 275
0.0023108933 0.65899998 -0.04044063 1.8709096e-38 322 275
0.0034873798 0.66299999 -0.040686097 1.861654e-38 323 275
0.0046498398 0.66299999 -0.040686097 1.8616546e-38 324 275
0.0058122999 0.66299999 -0.040686097 1.8616546e-38 325 275
0.0069747595 0.66299999 -0.040686097 1.8616546e-38 326 275
0.0081372196 0.66299999 -0.040686097 1.852435e-38 327 275
0.009285653 0.662 -0.04062473 1.852435e-38 328 275
0.01044636 0.662 -0.04062473 1.8431796e-38 329 275
0.011607066 0.662 -0.04062473 1.824813e-38 330 275
0.012767773 0.662 -0.04062473 1.8063739e-38 331 275
0.013949519 0.66299999 -0.040686097 1.7880424e-38 332 275
0.015134773 0.66399997 -0.040747464 1.7696031e-38 333 275
0.016298985 0.66399997 -0.040747464 1.7420524e-38 334 275
0.0174632 0.66399997 -0.040747464 1.7420524e-38 335 275
0.018683519 0.66600001 -0.040870197 1.7603114e-38 336 275
0.019851239 0.66600001 -0.040870197 1.7418723e-38 337 275
0.02101896 0.66600001 -0.040870197 1.7235055e-38 338 275
0.022219993 0.667 -0.040931564 1.7142859e-38 339 275
0.023389466 0.667 -0.040931564 1.7233977e-38 340 275
0.024558939 0.667 -0.040931564 1.6957392e-38 341 275
0.025766984 0.66799998 -0.040992931 1.6682603e-38 342 275
0.026938211 0.66799998 -0.040992931 1.6590407e-38 343 275
0.028109439 0.66799998 -0.040992931 1.6497508e-38 344 275
0.029280664 0.66799998 -0.040992931 1.6497508e-38 345 275
0.030543067 0.67000002 -0.041115668 1.6220925e-38 346 275
0.0317178 0.67000002 -0.041115668 1.6220925e-38 347 275
0.032892533 0.67000002 -0.041115668 1.6220922e-38 348 275
0.034067266 0.67000002 -0.041115668 1.6128725e-38 349 275
0.035241999 0.67000002 -0.041115668 1.5853571e-38 350 275
0.036471087 0.671 -0.041177034 1.5761375e-38 351 275
0.037703678 0.67199999 -0.041238401 1.5669539e-38 352 275
0.038997639 0.67400002 -0.041361131 1.5485508e-38 353 275
0.040179387 0.67400002 -0.041361131 1.5210366e-38 354 275
0.041422497 0.67500001 -0.041422497 1.5025975e-38 355 275
0.042669121 0.676 -0.041483864 1.4932706e-38 356 275
0.043854371 0.676 -0.041483864 1.4932706e-38 357 275
0.045239504 0.67900002 -0.041667968 1.4564649e-38 358 275
0.046498399 0.68000001 -0.041729335 1.4472095e-38 359 275
0.047830928 0.68199998 -0.041852064 1.3459388e-38 360 275
0.049026705 0.68199998 -0.041852064 1.3090964e-38 361 275
0.050222475 0.68199998 -0.041852064 1.3366119e-38 362 275
0.051493648 0.68300003 -0.041913435 1.3366119e-38 363 275
0.05276832 0.68400002 -0.041974798 1.3182456e-38 364 275
0.053967599 0.68400002 -0.041974798 1.309026e-38 365 275
0.055328183 0.68599999 -0.042097531 1.2998425e-38 366 275
0.056613375 0.68699998 -0.042158898 1.2998425e-38 367 275
0.057817914 0.68699998 -0.042158898 1.3090628e-38 368 275
0.059795678 0.69599998 -0.042711195 1.3182823e-38 369 275
0.061015997 0.69599998 -0.042711195 1.2999892e-38 370 275
-0.080693655 0.667 -0.042101037 1.7697904e-38 251 276
-0.079404958 0.66600001 -0.042037919 1.7788289e-38 252 276
-0.078237243 0.66600001 -0.042037919 1.7603537e-38 253 276
-0.075901799 0.66600001 -0.042037919 1.751313e-38 255 276
-0.074734077 0.66600001 -0.042037919 1.7696427e-38 256 276
-0.073566355 0.66600001 -0.042037919 1.7604231e-38 257 276
-0.07239864 0.66600001 -0.042037919 1.7787172e-38 258 276
-0.071230918 0.66600001 -0.042037919 1.7694976e-38 259 276
-0.070168398 0.667 -0.042101037 1.7785726e-38 260 276
-0.068998925 0.667 -0.042101037 1.769353e-38 261 276
-0.067829452 0.667 -0.042101037 1.7602413e-38 262 276
-0.06665998 0.667 -0.042101037 1.7602413e-38 263 276
-0.060539093 0.66399997 -0.041911677 1.7509862e-38 268 276
-0.059374876 0.66399997 -0.041911677 1.7509862e-38 269 276
-0.05562976 0.66100001 -0.04172232 1.7052129e-38 272 276
-0.054305989 0.65899998 -0.041596077 1.6959575e-38 273 276
-0.053150542 0.65899998 -0.041596077 1.7511667e-38 274 276
-0.048528757 0.65899998 -0.041596077 1.7970474e-38 278 276
-0.04737331 0.65899998 -0.041596077 1.7970474e-38 279 276
-0.046217863 0.65899998 -0.041596077 1.7695327e-38 280 276
-0.044106852 0.662 -0.041785441 1.7602411e-38 282 276
-0.042946145 0.662 -0.041785441 1.7694606e-38 283 276
-0.041785441 0.662 -0.041785441 1.7970474e-38 284 276
-0.040563367 0.66100001 -0.04172232 1.7970474e-38 285 276
-0.039285187 0.65899998 -0.041596077 1.7786806e-38 286 276
-0.038071878 0.65799999 -0.04153296 1.7970837e-38 287 276
-0.036918186 0.65799999 -0.04153296 1.797084e-38 288 276
-0.035818845 0.65899998 -0.041596077 1.8063036e-38 289 276
-0.034663398 0.65899998 -0.041596077 1.8154512e-38 290 276
-0.033457108 0.65799999 -0.04153296 1.8154512e-38 291 276
-0.032303412 0.65799999 -0.04153296 1.8154868e-38 292 276
-0.031197058 0.65899998 -0.041596077 1.83389e-38 293 276
-0.030041611 0.65899998 -0.041596077 1.8339253e-38 294 276
-0.028886165 0.65899998 -0.041596077 1.8339253e-38 295 276
-0.027730718 0.65899998 -0.041596077 1.870659e-38 296 276
-0.026655925 0.66100001 -0.04172232 1.870659e-38 297 276
-0.025419824 0.65899998 -0.041596077 1.8432527e-38 298 276
-0.024264378 0.65899998 -0.041596077 1.8432527e-38 299 276
-0.023108931 0.65899998 -0.041596077 1.8799152e-38 300 276
-0.021820232 0.65499997 -0.041343596 1.8706956e-38 301 276
-0.020640239 0.65399998 -0.041280478 1.870766e-38 302 276
-0.019493559 0.65399998 -0.041280478 1.870766e-38 303 276
-0.018374931 0.65499997 -0.041343596 1.8524685e-38 304 276
-0.017226499 0.65499997 -0.041343596 1.8524685e-38 305 276
-0.016078066 0.65499997 -0.041343596 1.8708348e-38 306 276
-0.014929632 0.65499997 -0.041343596 1.8708348e-38 307 276
-0.013781199 0.65499997 -0.041343596 1.8707997e-38 308 276
-0.012690626 0.65799999 -0.04153296 1.8800193e-38 309 276
-0.011536933 0.65799999 -0.04153296 1.8800196e-38 310 276
-0.010399019 0.65899998 -0.041596077 1.8615446e-38 311 276
-0.0092435731 0.65899998 -0.041596077 1.8429981e-38 312 276
-0.0080881258 0.65899998 -0.041596077 1.8429981e-38 313 276
-0.0069326796 0.65899998 -0.041596077 1.8338518e-38 314 276
-0.0057772328 0.65899998 -0.041596077 1.8614745e-38 315 276
-0.0046217865 0.65899998 -0.041596077 1.8432152e-38 316 276
-0.0034663398 0.65899998 -0.041596077 1.8524347e-38 317 276
-0.0023108933 0.65899998 -0.041596077 1.8523994e-38 318 276
-0.0011554466 0.65899998 -0.041596077 1.8523994e-38 319 276
0 0.65899998 -0.041596077 1.8707306e-38 320 276
0.0011554466 0.65899998 -0.041596077 1.8799861e-38 321 276
0.0023108933 0.65899998 -0.041596077 1.8524347e-38 322 276
0.00347686 0.66100001 -0.04172232 1.8432152e-38 323 276
0.0046498398 0.66299999 -0.041848559 1.8523982e-38 324 276
0.0058035329 0.662 -0.041785441 1.8523982e-38 325 276
0.0069642398 0.662 -0.041785441 1.8431786e-38 326 276
0.0081249457 0.662 -0.041785441 1.8431786e-38 327 276
0.009285653 0.662 -0.041785441 1.8155569e-38 328 276
0.01043058 0.66100001 -0.04172232 1.8155569e-38 329 276
0.011589534 0.66100001 -0.04172232 1.7696029e-38 330 276
0.012748486 0.66100001 -0.04172232 1.7511637e-38 331 276
0.01392848 0.662 -0.041785441 1.7235405e-38 332 276
0.015089186 0.662 -0.041785441 1.7235405e-38 333 276
0.016249891 0.662 -0.041785441 1.7143209e-38 334 276
0.017436899 0.66299999 -0.041848559 1.7143209e-38 335 276
0.018627413 0.66399997 -0.041911677 1.7050296e-38 336 276
0.019791625 0.66399997 -0.041911677 1.6958101e-38 337 276
0.020955838 0.66399997 -0.041911677 1.6865915e-38 338 276
0.02218668 0.66600001 -0.042037919 1.6865915e-38 339 276
0.023354398 0.66600001 -0.042037919 1.6681886e-38 340 276
0.02452212 0.66600001 -0.042037919 1.6497136e-38 341 276
0.025728412 0.667 -0.042101037 1.6497858e-38 342 276
0.026897885 0.667 -0.042101037 1.6313827e-38 343 276
0.028067358 0.667 -0.042101037 1.6312394e-38 344 276
0.029236831 0.667 -0.042101037 1.6312394e-38 345 276
0.030451892 0.66799998 -0.042164158 1.6312391e-38 346 276
0.0317178 0.67000002 -0.042290401 1.6220195e-38 347 276
0.032892533 0.67000002 -0.042290401 1.6036883e-38 348 276
0.034067266 0.67000002 -0.042290401 1.6036883e-38 349 276
0.035241999 0.67000002 -0.042290401 1.5669176e-38 350 276
0.036471087 0.671 -0.042353518 1.5576981e-38 351 276
0.037647571 0.671 -0.042353518 1.5393313e-38 352 276
0.03888192 0.67199999 -0.042416636 1.5393313e-38 353 276
0.040060159 0.67199999 -0.042416636 1.5025255e-38 354 276
0.041361131 0.67400002 -0.042542879 1.4840505e-38 355 276
0.042606 0.67500001 -0.042606 1.474724e-38 356 276
0.043854371 0.676 -0.042669121 1.4655044e-38 357 276
0.045172878 0.67799997 -0.042795356 1.4011841e-38 358 276
0.046430022 0.67900002 -0.042858478 1.382745e-38 359 276
0.047690667 0.68000001 -0.042921599 1.345939e-38 360 276
0.049026705 0.68199998 -0.043047838 1.3182804e-38 361 276
0.050222475 0.68199998 -0.043047838 1.3181371e-38 362 276
0.051493648 0.68300003 -0.043110959 1.3273926e-38 363 276
0.05292261 0.68599999 -0.043300316 1.3181371e-38 364 276
0.054125395 0.68599999 -0.043300316 1.3273926e-38 365 276
0.055328183 0.68599999 -0.043300316 1.2998778e-38 366 276
0.056530971 0.68599999 -0.043300316 1.2998778e-38 367 276
0.058575355 0.69599998 -0.043931518 1.2907308e-38 368 276
0.059795678 0.69599998 -0.043931518 1.3183895e-38 369 276
0.061015997 0.69599998 -0.043931518 1.3000974e-38 370 276
-0.081863128 0.667 -0.04327051 1.8155953e-38 250 277
-0.080693655 0.667 -0.04327051 1.7879726e-38 251 277
-0.079404958 0.66600001 -0.043205637 1.7787155e-38 252 277
-0.078237243 0.66600001 -0.043205637 1.7971546e-38 253 277
-0.077069521 0.66600001 -0.043205637 1.7787508e-38 254 277
-0.075901799 0.66600001 -0.043205637 1.7695313e-38 255 277
-0.074734077 0.66600001 -0.043205637 1.8062996e-38 256 277
-0.073566355 0.66600001 -0.043205637 1.7878965e-38 257 277
-0.072181225 0.66399997 -0.043075889 1.8062625e-38 258 277
-0.071017005 0.66399997 -0.043075889 1.8062625e-38 259 277
-0.070063196 0.66600001 -0.043205637 1.7970067e-38 260 277
-0.068895474 0.66600001 -0.043205637 1.8062262e-38 261 277
-0.067727759 0.66600001 -0.043205637 1.7787117e-38 262 277
-0.066560037 0.66600001 -0.043205637 1.7787117e-38 263 277
-0.065490507 0.667 -0.04327051 1.7787117e-38 264 277
-0.064224601 0.66600001 -0.043205637 1.7602725e-38 265 277
-0.062867515 0.66399997 -0.043075889 1.8062262e-38 266 277
-0.061703302 0.66399997 -0.043075889 1.8062262e-38 267 277
-0.060539093 0.66399997 -0.043075889 1.778712e-38 268 277
-0.05919604 0.662 -0.042946145 1.8155542e-38 269 277
-0.057947662 0.66100001 -0.042881273 1.7972247e-38 270 277
-0.056616884 0.65899998 -0.042751525 1.8064443e-38 271 277
-0.055461437 0.65899998 -0.042751525 1.8339588e-38 272 277
-0.054305989 0.65899998 -0.042751525 1.8154836e-38 273 277
-0.053150542 0.65899998 -0.042751525 1.8247742e-38 274 277
-0.051916201 0.65799999 -0.042686652 1.8247742e-38 275 277
-0.050762504 0.65799999 -0.042686652 1.8338492e-38 276 277
-0.049608808 0.65799999 -0.042686652 1.8338492e-38 277 277
-0.048528757 0.65899998 -0.042751525 1.8338486e-38 278 277
-0.04737331 0.65899998 -0.042751525 1.8338486e-38 279 277
-0.04614773 0.65799999 -0.042686652 1.8063697e-38 280 277
-0.044994038 0.65799999 -0.042686652 1.7879666e-38 281 277
-0.043840345 0.65799999 -0.042686652 1.8063344e-38 282 277
-0.042881273 0.66100001 -0.042881273 1.8063344e-38 283 277
-0.04172232 0.66100001 -0.042881273 1.815554e-38 284 277
-0.040563367 0.66100001 -0.042881273 1.8248094e-38 285 277
-0.039225571 0.65799999 -0.042686652 1.8248094e-38 286 277
-0.038071878 0.65799999 -0.042686652 1.8248094e-38 287 277
-0.036918186 0.65799999 -0.042686652 1.8339935e-38 288 277
-0.035764489 0.65799999 -0.042686652 1.8339935e-38 289 277
-0.034610797 0.65799999 -0.042686652 1.8339935e-38 290 277
-0.033457108 0.65799999 -0.042686652 1.8339935e-38 291 277
-0.032303412 0.65799999 -0.042686652 1.8432487e-38 292 277
-0.031149717 0.65799999 -0.042686652 1.8432487e-38 293 277
-0.029996024 0.65799999 -0.042686652 1.8432487e-38 294 277
-0.028886165 0.65899998 -0.042751525 1.8432487e-38 295 277
-0.027730718 0.65899998 -0.042751525 1.8615802e-38 296 277
-0.026575271 0.65899998 -0.042751525 1.8707997e-38 297 277
-0.025419824 0.65899998 -0.042751525 1.8708363e-38 298 277
-0.024264378 0.65899998 -0.042751525 1.8800559e-38 299 277
-0.023073865 0.65799999 -0.042686652 1.8800561e-38 300 277
-0.021920172 0.65799999 -0.042686652 1.8800561e-38 301 277
-0.020671798 0.65499997 -0.042492028 1.8800559e-38 302 277
-0.019523365 0.65499997 -0.042492028 1.8800559e-38 303 277
-0.018374931 0.65499997 -0.042492028 1.8892742e-38 304 277
-0.017226499 0.65499997 -0.042492028 1.8892742e-38 305 277
-0.016078066 0.65499997 -0.042492028 1.8800543e-38 306 277
-0.014929632 0.65499997 -0.042492028 1.8800543e-38 307 277
-0.013781199 0.65499997 -0.042492028 1.8983508e-38 308 277
-0.012632766 0.65499997 -0.042492028 1.8983508e-38 309 277
-0.011536933 0.65799999 -0.042686652 1.8523253e-38 310 277
-0.010399019 0.65899998 -0.042751525 1.815447e-38 311 277
-0.0092295464 0.65799999 -0.042686652 1.796936e-38 312 277
-0.0080758529 0.65799999 -0.042686652 1.8061556e-38 313 277
-0.0069221598 0.65799999 -0.042686652 1.8062641e-38 314 277
-0.0057684663 0.65799999 -0.042686652 1.8247392e-38 315 277
-0.0046217865 0.65899998 -0.042751525 1.806444e-38 316 277
-0.0034610799 0.65799999 -0.042686652 1.8156994e-38 317 277
-0.0023073866 0.65799999 -0.042686652 1.8431433e-38 318 277
-0.0011536933 0.65799999 -0.042686652 1.8431433e-38 319 277
0 0.65799999 -0.042686652 1.8431796e-38 320 277
0.0011536933 0.65799999 -0.042686652 1.83396e-38 321 277
0.0023073866 0.65799999 -0.042686652 1.8156275e-38 322 277
0.0034610799 0.65799999 -0.042686652 1.8063721e-38 323 277
0.0046217865 0.65899998 -0.042751525 1.8063347e-38 324 277
0.0057947668 0.66100001 -0.042881273 1.8063347e-38 325 277
0.00695372 0.66100001 -0.042881273 1.7879684e-38 326 277
0.0081126727 0.66100001 -0.042881273 1.7879684e-38 327 277
0.0092716264 0.66100001 -0.042881273 1.7327606e-38 328 277
0.01043058 0.66100001 -0.042881273 1.7327606e-38 329 277
0.011589534 0.66100001 -0.042881273 1.7326527e-38 330 277
0.012748486 0.66100001 -0.042881273 1.723433e-38 331 277
0.01390744 0.66100001 -0.042881273 1.6866621e-38 332 277
0.015066394 0.66100001 -0.042881273 1.668259e-38 333 277
0.016225345 0.66100001 -0.042881273 1.6590036e-38 334 277
0.017410601 0.662 -0.042946145 1.6590036e-38 335 277
0.018599359 0.66299999 -0.043011017 1.6773353e-38 336 277
0.019791625 0.66399997 -0.043075889 1.6681158e-38 337 277
0.020955838 0.66399997 -0.043075889 1.6497136e-38 338 277
0.022120051 0.66399997 -0.043075889 1.6404941e-38 339 277
0.023284266 0.66399997 -0.043075889 1.6404944e-38 340 277
0.024448479 0.66399997 -0.043075889 1.6312747e-38 341 277
0.02568984 0.66600001 -0.043205637 1.6129078e-38 342 277
0.026857559 0.66600001 -0.043205637 1.6036883e-38 343 277
0.028025279 0.66600001 -0.043205637 1.6220195e-38 344 277
0.029236831 0.667 -0.04327051 1.6036164e-38 345 277
0.030406304 0.667 -0.04327051 1.5944684e-38 346 277
0.031623118 0.66799998 -0.043335386 1.5944684e-38 347 277
0.032892533 0.67000002 -0.043465134 1.5852489e-38 348 277
0.034067266 0.67000002 -0.043465134 1.5760293e-38 349 277
0.035241999 0.67000002 -0.043465134 1.530147e-38 350 277
0.036416732 0.67000002 -0.043465134 1.5116719e-38 351 277
0.037647571 0.671 -0.043530006 1.4841214e-38 352 277
0.038824059 0.671 -0.043530006 1.4933409e-38 353 277
0.040060159 0.67199999 -0.043594878 1.4656467e-38 354 277
0.041361131 0.67400002 -0.043724626 1.4195488e-38 355 277
0.042606 0.67500001 -0.043789499 1.3734883e-38 356 277
0.043854371 0.676 -0.043854371 1.3642687e-38 357 277
0.045039624 0.676 -0.043854371 1.3549787e-38 358 277
0.046430022 0.67900002 -0.044048995 1.3549787e-38 359 277
0.047690667 0.68000001 -0.044113863 1.3181371e-38 360 277
0.049026705 0.68199998 -0.044243611 1.3089176e-38 361 277
0.050222475 0.68199998 -0.044243611 1.308846e-38 362 277
0.051493648 0.68300003 -0.044308487 1.308846e-38 363 277
0.05292261 0.68599999 -0.044503104 1.2905864e-38 364 277
0.054125395 0.68599999 -0.044503104 1.2998059e-38 365 277
0.055328183 0.68599999 -0.044503104 1.2815466e-38 366 277
0.056695789 0.68800002 -0.044632856 1.2815466e-38 367 277
0.057902083 0.68800002 -0.044632856 1.3000227e-38 368 277
0.059795678 0.69599998 -0.045151837 1.3184618e-38 369 277
0.061015997 0.69599998 -0.045151837 1.2540366e-38 370 277
-0.085371546 0.667 -0.044439986 1.7510553e-38 247 278
-0.084202074 0.667 -0.044439986 1.7786414e-38 248 278
-0.083032601 0.667 -0.044439986 1.8062641e-38 249 278
-0.081863128 0.667 -0.044439986 1.8155542e-38 250 278
-0.08057268 0.66600001 -0.04437336 1.8155542e-38 251 278
-0.079404958 0.66600001 -0.04437336 1.8154836e-38 252 278
-0.078237243 0.66600001 -0.04437336 1.8247392e-38 253 278
-0.077069521 0.66600001 -0.04437336 1.7971174e-38 254 278
-0.075673863 0.66399997 -0.044240102 1.8063371e-38 255 278
-0.07450965 0.66399997 -0.044240102 1.8155192e-38 256 278
-0.07334543 0.66399997 -0.044240102 1.8155192e-38 257 278
-0.072181225 0.66399997 -0.044240102 1.8247738e-38 258 278
-0.071017005 0.66399997 -0.044240102 1.8247738e-38 259 278
-0.069852799 0.66399997 -0.044240102 1.8155542e-38 260 278
-0.068688579 0.66399997 -0.044240102 1.8155542e-38 261 278
-0.067524366 0.66399997 -0.044240102 1.8155542e-38 262 278
-0.066360161 0.66399997 -0.044240102 1.8155542e-38 263 278
-0.065392323 0.66600001 -0.04437336 1.8063347e-38 264 278
-0.064224601 0.66600001 -0.04437336 1.8063347e-38 265 278
-0.062867515 0.66399997 -0.044240102 1.8247375e-38 266 278
-0.061610378 0.66299999 -0.044173479 1.8339571e-38 267 278
-0.060447913 0.66299999 -0.044173479 1.8615799e-38 268 278
-0.05919604 0.662 -0.044106852 1.8707995e-38 269 278
-0.057947662 0.66100001 -0.044040225 1.870836e-38 270 278
-0.056616884 0.65899998 -0.043906972 1.870836e-38 271 278
-0.055377278 0.65799999 -0.043840345 1.8707644e-38 272 278
-0.054223582 0.65799999 -0.043840345 1.8615449e-38 273 278
-0.05306989 0.65799999 -0.043840345 1.8615446e-38 274 278
-0.051916201 0.65799999 -0.043840345 1.8615446e-38 275 278
-0.050762504 0.65799999 -0.043840345 1.8430685e-38 276 278
-0.049608808 0.65799999 -0.043840345 1.8338489e-38 277 278
-0.048455119 0.65799999 -0.043840345 1.8247375e-38 278 278
-0.047301427 0.65799999 -0.043840345 1.8707995e-38 279 278
-0.04614773 0.65799999 -0.043840345 1.8615802e-38 280 278
-0.04492566 0.65700001 -0.043773718 1.8615802e-38 281 278
-0.043773718 0.65700001 -0.043773718 1.8524685e-38 282 278
-0.042881273 0.66100001 -0.044040225 1.8524685e-38 283 278
-0.04172232 0.66100001 -0.044040225 1.8524682e-38 284 278
-0.04044063 0.65899998 -0.043906972 1.8708713e-38 285 278
-0.039225571 0.65799999 -0.043840345 1.8709069e-38 286 278
-0.038071878 0.65799999 -0.043840345 1.8709069e-38 287 278
-0.036918186 0.65799999 -0.043840345 1.8800546e-38 288 278
-0.035764489 0.65799999 -0.043840345 1.8800546e-38 289 278
-0.034610797 0.65799999 -0.043840345 1.8709069e-38 290 278
-0.033406258 0.65700001 -0.043773718 1.8524679e-38 291 278
-0.03225432 0.65700001 -0.043773718 1.8524679e-38 292 278
-0.03110238 0.65700001 -0.043773718 1.8709069e-38 293 278
-0.029996024 0.65799999 -0.043840345 1.8800546e-38 294 278
-0.028842334 0.65799999 -0.043840345 1.8800546e-38 295 278
-0.027688639 0.65799999 -0.043840345 1.880019e-38 296 278
-0.026575271 0.65899998 -0.043906972 1.880019e-38 297 278
-0.025342681 0.65700001 -0.043773718 1.870836e-38 298 278
-0.024190739 0.65700001 -0.043773718 1.8800915e-38 299 278
-0.023073865 0.65799999 -0.043840345 1.8617249e-38 300 278
-0.021886859 0.65700001 -0.043773718 1.8617249e-38 301 278
-0.020671798 0.65499997 -0.043640465 1.8617249e-38 302 278
-0.019523365 0.65499997 -0.043640465 1.8617249e-38 303 278
-0.018374931 0.65499997 -0.043640465 1.870836e-38 304 278
-0.017226499 0.65499997 -0.043640465 1.870836e-38 305 278
-0.016078066 0.65499997 -0.043640465 1.870836e-38 306 278
-0.014929632 0.65499997 -0.043640465 1.870836e-38 307 278
-0.013781199 0.65499997 -0.043640465 1.8523982e-38 308 278
-0.012632766 0.65499997 -0.043640465 1.8431786e-38 309 278
-0.011519399 0.65700001 -0.043773718 1.8338513e-38 310 278
-0.01036746 0.65700001 -0.043773718 1.815412e-38 311 278
-0.0092155198 0.65700001 -0.043773718 1.8062278e-38 312 278
-0.0080635799 0.65700001 -0.043773718 1.8062278e-38 313 278
-0.0069116396 0.65700001 -0.043773718 1.7696016e-38 314 278
-0.0057596997 0.65700001 -0.043773718 1.7788212e-38 315 278
-0.0046147732 0.65799999 -0.043840345 1.7971891e-38 316 278
-0.0034558198 0.65700001 -0.043773718 1.7971891e-38 317 278
-0.0023038799 0.65700001 -0.043773718 1.8063376e-38 318 278
-0.0011536933 0.65799999 -0.043840345 1.8063376e-38 319 278
0 0.65700001 -0.043773718 1.7971529e-38 320 278
0.00115194 0.65700001 -0.043773718 1.7878975e-38 321 278
0.0023038799 0.65700001 -0.043773718 1.787931e-38 322 278
0.0034558198 0.65700001 -0.043773718 1.787931e-38 323 278
0.0046147732 0.65799999 -0.043840345 1.7419061e-38 324 278
0.0057772328 0.65899998 -0.043906972 1.7419061e-38 325 278
0.0069326796 0.65899998 -0.043906972 1.7235758e-38 326 278
0.0080881258 0.65899998 -0.043906972 1.7051365e-38 327 278
0.0092435731 0.65899998 -0.043906972 1.7050649e-38 328 278
0.010399019 0.65899998 -0.043906972 1.6958095e-38 329 278
0.011554466 0.65899998 -0.043906972 1.6773353e-38 330 278
0.012709912 0.65899998 -0.043906972 1.6773353e-38 331 278
0.013865359 0.65899998 -0.043906972 1.6314543e-38 332 278
0.015020805 0.65899998 -0.043906972 1.6222347e-38 333 278
0.016176252 0.65899998 -0.043906972 1.6128725e-38 334 278
0.0173843 0.66100001 -0.044040225 1.6128725e-38 335 278
0.018571306 0.662 -0.044106852 1.6036886e-38 336 278
0.019732011 0.662 -0.044106852 1.6129081e-38 337 278
0.020924279 0.66299999 -0.044173479 1.6036883e-38 338 278
0.02208674 0.66299999 -0.044173479 1.6036883e-38 339 278
0.0232492 0.66299999 -0.044173479 1.594504e-38 340 278
0.024448479 0.66399997 -0.044240102 1.594504e-38 341 278
0.025612691 0.66399997 -0.044240102 1.5761372e-38 342 278
0.026776904 0.66399997 -0.044240102 1.5761372e-38 343 278
0.027941117 0.66399997 -0.044240102 1.5852489e-38 344 278
0.029192999 0.66600001 -0.04437336 1.5852489e-38 345 278
0.030360719 0.66600001 -0.04437336 1.5576981e-38 346 278
0.03157578 0.667 -0.044439986 1.5669176e-38 347 278
0.032745253 0.667 -0.044439986 1.5576978e-38 348 278
0.033965573 0.66799998 -0.044506609 1.5392585e-38 349 278
0.035241999 0.67000002 -0.044639867 1.4749012e-38 350 278
0.036416732 0.67000002 -0.044639867 1.4656817e-38 351 278
0.037591465 0.67000002 -0.044639867 1.4288393e-38 352 278
0.038824059 0.671 -0.044706494 1.4380589e-38 353 278
0.040000543 0.671 -0.044706494 1.4196207e-38 354 278
0.041238401 0.67199999 -0.044773117 1.3643033e-38 355 278
0.042542879 0.67400002 -0.044906374 1.3274273e-38 356 278
0.043789499 0.67500001 -0.044972997 1.3182078e-38 357 278
0.045039624 0.676 -0.045039624 1.3088823e-38 358 278
0.046361636 0.67799997 -0.045172878 1.3088823e-38 359 278
0.047620531 0.67900002 -0.045239504 1.2812243e-38 360 278
0.049026705 0.68199998 -0.045439381 1.2720047e-38 361 278
0.050222475 0.68199998 -0.045439381 1.2536735e-38 362 278
0.051493648 0.68300003 -0.045506012 1.2536735e-38 363 278
0.05292261 0.68599999 -0.045705888 1.2538523e-38 364 278
0.054204296 0.68699998 -0.045772515 1.2722914e-38 365 278
0.055408835 0.68699998 -0.045772515 1.2907664e-38 366 278
0.056695789 0.68800002 -0.045839146 1.2907664e-38 367 278
0.057902083 0.68800002 -0.045839146 1.2999877e-38 368 278
0.059108373 0.68800002 -0.045839146 1.3092072e-38 369 278
-0.088879973 0.667 -0.045609459 1.7786061e-38 244 279
-0.0877105 0.667 -0.045609459 1.7786061e-38 245 279
-0.086541019 0.667 -0.045609459 1.7786767e-38 246 279
-0.085371546 0.667 -0.045609459 1.7786767e-38 247 279
-0.084202074 0.667 -0.045609459 1.8154821e-38 248 279
-0.083032601 0.667 -0.045609459 1.8154821e-38 249 279
-0.081863128 0.667 -0.045609459 1.8247375e-38 250 279
-0.08057268 0.66600001 -0.045541082 1.8154821e-38 251 279
-0.079404958 0.66600001 -0.045541082 1.8338489e-38 252 279
-0.078237243 0.66600001 -0.045541082 1.8338489e-38 253 279
-0.076838076 0.66399997 -0.045404319 1.8246293e-38 254 279
-0.075673863 0.66399997 -0.045404319 1.8246293e-38 255 279
-0.07450965 0.66399997 -0.045404319 1.8338486e-38 256 279
-0.07334543 0.66399997 -0.045404319 1.824629e-38 257 279
-0.072072513 0.66299999 -0.045335937 1.8338489e-38 258 279
-0.070910059 0.66299999 -0.045335937 1.8338489e-38 259 279
-0.069747597 0.66299999 -0.045335937 1.7880032e-38 260 279
-0.068585135 0.66299999 -0.045335937 1.769564e-38 261 279
-0.067422673 0.66299999 -0.045335937 1.8338489e-38 262 279
-0.066260219 0.66299999 -0.045335937 1.8246293e-38 263 279
-0.065097757 0.66299999 -0.045335937 1.8246646e-38 264 279
-0.063838862 0.662 -0.04526756 1.8338842e-38 265 279
-0.062583476 0.66100001 -0.045199182 1.8338842e-38 266 279
-0.061424527 0.66100001 -0.045199182 1.8523233e-38 267 279
-0.060083222 0.65899998 -0.045062415 1.8706548e-38 268 279
-0.058927774 0.65899998 -0.045062415 1.8798745e-38 269 279
-0.057772331 0.65899998 -0.045062415 1.870835e-38 270 279
-0.056530971 0.65799999 -0.044994038 1.8616155e-38 271 279
-0.055377278 0.65799999 -0.044994038 1.8615802e-38 272 279
-0.054223582 0.65799999 -0.044994038 1.8615802e-38 273 279
-0.05306989 0.65799999 -0.044994038 1.852325e-38 274 279
-0.051916201 0.65799999 -0.044994038 1.8339219e-38 275 279
-0.050762504 0.65799999 -0.044994038 1.8061909e-38 276 279
-0.049608808 0.65799999 -0.044994038 1.7969713e-38 277 279
-0.048455119 0.65799999 -0.044994038 1.8154824e-38 278 279
-0.047301427 0.65799999 -0.044994038 1.8523606e-38 279 279
-0.04614773 0.65799999 -0.044994038 1.8705844e-38 280 279
-0.04492566 0.65700001 -0.04492566 1.8798398e-38 281 279
-0.043773718 0.65700001 -0.04492566 1.8707281e-38 282 279
-0.042686652 0.65799999 -0.044994038 1.8891312e-38 283 279
-0.04153296 0.65799999 -0.044994038 1.8800546e-38 284 279
-0.040379263 0.65799999 -0.044994038 1.870835e-38 285 279
-0.039165959 0.65700001 -0.04492566 1.870835e-38 286 279
-0.038014017 0.65700001 -0.04492566 1.8800546e-38 287 279
-0.036862079 0.65700001 -0.04492566 1.8800909e-38 288 279
-0.035710141 0.65700001 -0.04492566 1.8708713e-38 289 279
-0.034558199 0.65700001 -0.04492566 1.8707997e-38 290 279
-0.033406258 0.65700001 -0.04492566 1.8707997e-38 291 279
-0.03225432 0.65700001 -0.04492566 1.889131e-38 292 279
-0.03110238 0.65700001 -0.04492566 1.8707278e-38 293 279
-0.02995044 0.65700001 -0.04492566 1.8891307e-38 294 279
-0.028798498 0.65700001 -0.04492566 1.8891307e-38 295 279
-0.027646558 0.65700001 -0.04492566 1.889131e-38 296 279
-0.026494619 0.65700001 -0.04492566 1.8983505e-38 297 279
-0.025265532 0.65499997 -0.044788897 1.8707997e-38 298 279
-0.024117097 0.65499997 -0.044788897 1.8707997e-38 299 279
-0.023038799 0.65700001 -0.04492566 1.8707997e-38 300 279
-0.021886859 0.65700001 -0.04492566 1.8707997e-38 301 279
-0.020671798 0.65499997 -0.044788897 1.8615446e-38 302 279
-0.019523365 0.65499997 -0.044788897 1.8615446e-38 303 279
-0.018374931 0.65499997 -0.044788897 1.8523606e-38 304 279
-0.017226499 0.65499997 -0.044788897 1.8339215e-38 305 279
-0.016078066 0.65499997 -0.044788897 1.861508e-38 306 279
-0.014929632 0.65499997 -0.044788897 1.861508e-38 307 279
-0.013781199 0.65499997 -0.044788897 1.8523253e-38 308 279
-0.012632766 0.65499997 -0.044788897 1.8246666e-38 309 279
-0.011484332 0.65499997 -0.044788897 1.8246669e-38 310 279
-0.010335899 0.65499997 -0.044788897 1.8246669e-38 311 279
-0.0091874655 0.65499997 -0.044788897 1.787896e-38 312 279
-0.008039033 0.65499997 -0.044788897 1.787896e-38 313 279
-0.0069116396 0.65700001 -0.04492566 1.7787117e-38 314 279
-0.0057596997 0.65700001 -0.04492566 1.7787117e-38 315 279
-0.0046077599 0.65700001 -0.04492566 1.7879316e-38 316 279
-0.0034558198 0.65700001 -0.04492566 1.7694566e-38 317 279
-0.0023038799 0.65700001 -0.04492566 1.787753e-38 318 279
-0.00115194 0.65700001 -0.04492566 1.787753e-38 319 279
0 0.65700001 -0.04492566 1.7417624e-38 320 279
0.00115194 0.65700001 -0.04492566 1.7233593e-38 321 279
0.0023038799 0.65700001 -0.04492566 1.7142101e-38 322 279
0.0034558198 0.65700001 -0.04492566 1.7049905e-38 323 279
0.0046077599 0.65700001 -0.04492566 1.6682563e-38 324 279
0.0057684663 0.65799999 -0.044994038 1.6590009e-38 325 279
0.0069221598 0.65799999 -0.044994038 1.6590015e-38 326 279
0.0080758529 0.65799999 -0.044994038 1.6405983e-38 327 279
0.0092295464 0.65799999 -0.044994038 1.6588224e-38 328 279
0.01038324 0.65799999 -0.044994038 1.6496028e-38 329 279
0.011536933 0.65799999 -0.044994038 1.6037218e-38 330 279
0.012690626 0.65799999 -0.044994038 1.6221249e-38 331 279
0.01384432 0.65799999 -0.044994038 1.6312378e-38 332 279
0.014998012 0.65799999 -0.044994038 1.6127987e-38 333 279
0.016176252 0.65899998 -0.045062415 1.6127634e-38 334 279
0.017331699 0.65899998 -0.045062415 1.6219829e-38 335 279
0.018543253 0.66100001 -0.045199182 1.5944316e-38 336 279
0.019702207 0.66100001 -0.045199182 1.585212e-38 337 279
0.020892721 0.662 -0.04526756 1.5944672e-38 338 279
0.022053426 0.662 -0.04526756 1.5852476e-38 339 279
0.0232492 0.66299999 -0.045335937 1.5760641e-38 340 279
0.024411658 0.66299999 -0.045335937 1.5760641e-38 341 279
0.025574118 0.66299999 -0.045335937 1.5760641e-38 342 279
0.026736578 0.66299999 -0.045335937 1.5760641e-38 343 279
0.027941117 0.66399997 -0.045404319 1.5944672e-38 344 279
0.02910533 0.66399997 -0.045404319 1.5852476e-38 345 279
0.030360719 0.66600001 -0.045541082 1.548441e-38 346 279
0.031528439 0.66600001 -0.045541082 1.5392214e-38 347 279
0.032696161 0.66600001 -0.045541082 1.4749719e-38 348 279
0.033965573 0.66799998 -0.045677837 1.4288741e-38 349 279
0.035241999 0.67000002 -0.0458146 1.3919605e-38 350 279
0.036416732 0.67000002 -0.0458146 1.3735572e-38 351 279
0.037591465 0.67000002 -0.0458146 1.4010729e-38 352 279
0.038824059 0.671 -0.045882981 1.4010729e-38 353 279
0.040000543 0.671 -0.045882981 1.3550841e-38 354 279
0.041238401 0.67199999 -0.045951359 1.3182059e-38 355 279
0.042542879 0.67400002 -0.046088122 1.3090235e-38 356 279
0.043789499 0.67500001 -0.0461565 1.2905845e-38 357 279
0.045039624 0.676 -0.046224877 1.2996612e-38 358 279
0.046224877 0.676 -0.046224877 1.2904415e-38 359 279
0.047620531 0.67900002 -0.046430022 1.26282e-38 360 279
0.049026705 0.68199998 -0.046635158 1.2443809e-38 361 279
0.050222475 0.68199998 -0.046635158 1.2442734e-38 362 279
0.051569041 0.68400002 -0.046771921 1.2535289e-38 363 279
0.05292261 0.68599999 -0.046908677 1.2630353e-38 364 279
0.054204296 0.68699998 -0.046977058 1.290658e-38 365 279
0.055489492 0.68800002 -0.047045439 1.2817621e-38 366 279
0.056695789 0.68800002 -0.047045439 1.2817621e-38 367 279
0.057902083 0.68800002 -0.047045439 1.2999879e-38 368 279
-0.10399371 0.67400002 -0.047269866 1.5950512e-38 232 280
-0.10250688 0.67199999 -0.047129598 1.5212589e-38 233 280
-0.10132863 0.67199999 -0.047129598 1.4936669e-38 234 280
-0.10015039 0.67199999 -0.047129598 1.4475332e-38 235 280
-0.098972157 0.67199999 -0.047129598 1.5025583e-38 236 280
-0.091218919 0.667 -0.046778932 1.7693847e-38 242 280
-0.090049446 0.667 -0.046778932 1.7878237e-38 243 280
-0.088879973 0.667 -0.046778932 1.769529e-38 244 280
-0.087841995 0.66799998 -0.046849065 1.75109e-38 245 280
-0.086541019 0.667 -0.046778932 1.7786411e-38 246 280
-0.085371546 0.667 -0.046778932 1.7694215e-38 247 280
-0.084202074 0.667 -0.046778932 1.7510906e-38 248 280
-0.082908116 0.66600001 -0.046708796 1.7694937e-38 249 280
-0.081740394 0.66600001 -0.046708796 1.7879681e-38 250 280
-0.08057268 0.66600001 -0.046708796 1.7787486e-38 251 280
-0.079166502 0.66399997 -0.046568532 1.7878234e-38 252 280
-0.078002289 0.66399997 -0.046568532 1.7694201e-38 253 280
-0.076838076 0.66399997 -0.046568532 1.7602722e-38 254 280
-0.075559892 0.66299999 -0.046498399 1.7602722e-38 255 280
-0.074397437 0.66299999 -0.046498399 1.7878231e-38 256 280
-0.07334543 0.66399997 -0.046568532 1.7878231e-38 257 280
-0.072072513 0.66299999 -0.046498399 1.7878237e-38 258 280
-0.070803106 0.662 -0.046428263 1.7878237e-38 259 280
-0.069642402 0.662 -0.046428263 1.732651e-38 260 280
-0.068481691 0.662 -0.046428263 1.7418707e-38 261 280
-0.067320988 0.662 -0.046428263 1.7877528e-38 262 280
-0.066160277 0.662 -0.046428263 1.7970082e-38 263 280
-0.064901382 0.66100001 -0.046358135 1.7878234e-38 264 280
-0.06345313 0.65799999 -0.04614773 1.7878234e-38 265 280
-0.062299434 0.65799999 -0.04614773 1.8245928e-38 266 280
-0.061145745 0.65799999 -0.04614773 1.8338123e-38 267 280
-0.059992049 0.65799999 -0.04614773 1.8062991e-38 268 280
-0.058838356 0.65799999 -0.04614773 1.8155545e-38 269 280
-0.057684667 0.65799999 -0.04614773 1.8246669e-38 270 280
-0.056530971 0.65799999 -0.04614773 1.8246669e-38 271 280
-0.055377278 0.65799999 -0.04614773 1.8338866e-38 272 280
-0.054223582 0.65799999 -0.04614773 1.8246669e-38 273 280
-0.05306989 0.65799999 -0.04614773 1.8154836e-38 274 280
-0.051916201 0.65799999 -0.04614773 1.8062641e-38 275 280
-0.050762504 0.65799999 -0.04614773 1.8154476e-38 276 280
-0.049608808 0.65799999 -0.04614773 1.8154476e-38 277 280
-0.048455119 0.65799999 -0.04614773 1.8062641e-38 278 280
-0.047301427 0.65799999 -0.04614773 1.8247392e-38 279 280
-0.046077598 0.65700001 -0.046077598 1.8338516e-38 280 280
-0.04492566 0.65700001 -0.046077598 1.8522547e-38 281 280
-0.043773718 0.65700001 -0.046077598 1.8338516e-38 282 280
-0.04262178 0.65700001 -0.046077598 1.8522547e-38 283 280
-0.041469838 0.65700001 -0.046077598 1.843178e-38 284 280
-0.0403179 0.65700001 -0.046077598 1.843178e-38 285 280
-0.039165959 0.65700001 -0.046077598 1.8432499e-38 286 280
-0.038014017 0.65700001 -0.046077598 1.8432499e-38 287 280
-0.036862079 0.65700001 -0.046077598 1.8248834e-38 288 280
-0.035710141 0.65700001 -0.046077598 1.8156638e-38 289 280
-0.034558199 0.65700001 -0.046077598 1.8339953e-38 290 280
-0.033406258 0.65700001 -0.046077598 1.8339953e-38 291 280
-0.032156132 0.65499997 -0.04593733 1.843143e-38 292 280
-0.031007698 0.65499997 -0.04593733 1.843143e-38 293 280
-0.029859263 0.65499997 -0.04593733 1.8431783e-38 294 280
-0.028710833 0.65499997 -0.04593733 1.8431783e-38 295 280
-0.027562398 0.65499997 -0.04593733 1.85229e-38 296 280
-0.026413966 0.65499997 -0.04593733 1.85229e-38 297 280
-0.025226958 0.65399998 -0.045867197 1.8339585e-38 298 280
-0.024080278 0.65399998 -0.045867197 1.8339585e-38 299 280
-0.022933599 0.65399998 -0.045867197 1.8247036e-38 300 280
-0.021820232 0.65499997 -0.04593733 1.8339232e-38 301 280
-0.020640239 0.65399998 -0.045867197 1.806302e-38 302 280
-0.019493559 0.65399998 -0.045867197 1.806302e-38 303 280
-0.01834688 0.65399998 -0.045867197 1.7971174e-38 304 280
-0.017200198 0.65399998 -0.045867197 1.7878978e-38 305 280
-0.01605352 0.65399998 -0.045867197 1.7971527e-38 306 280
-0.014906839 0.65399998 -0.045867197 1.8063724e-38 307 280
-0.013760159 0.65399998 -0.045867197 1.8062646e-38 308 280
-0.012613479 0.65399998 -0.045867197 1.7786061e-38 309 280
-0.011484332 0.65499997 -0.04593733 1.7694571e-38 310 280
-0.010335899 0.65499997 -0.04593733 1.7694571e-38 311 280
-0.0091874655 0.65499997 -0.04593733 1.751017e-38 312 280
-0.008039033 0.65499997 -0.04593733 1.751017e-38 313 280
-0.0068905996 0.65499997 -0.04593733 1.7419407e-38 314 280
-0.0057421662 0.65499997 -0.04593733 1.7235015e-38 315 280
-0.0046077599 0.65700001 -0.046077598 1.7509451e-38 316 280
-0.0034452998 0.65499997 -0.04593733 1.7417256e-38 317 280
-0.0022968664 0.65499997 -0.04593733 1.7141397e-38 318 280
-0.0011484332 0.65499997 -0.04593733 1.7141397e-38 319 280
0 0.65499997 -0.04593733 1.6866253e-38 320 280
0.0011484332 0.65499997 -0.04593733 1.6866253e-38 321 280
0.0022968664 0.65499997 -0.04593733 1.6498562e-38 322 280
0.0034452998 0.65499997 -0.04593733 1.6498562e-38 323 280
0.0046077599 0.65700001 -0.046077598 1.6130135e-38 324 280
0.0057596997 0.65700001 -0.046077598 1.5945385e-38 325 280
0.0069116396 0.65700001 -0.046077598 1.6220883e-38 326 280
0.0080758529 0.65799999 -0.04614773 1.6128687e-38 327 280
0.0092295464 0.65799999 -0.04614773 1.6127631e-38 328 280
0.01036746 0.65700001 -0.046077598 1.6127631e-38 329 280
0.011519399 0.65700001 -0.046077598 1.5576628e-38 330 280
0.01267134 0.65700001 -0.046077598 1.5576628e-38 331 280
0.013823279 0.65700001 -0.046077598 1.5484432e-38 332 280
0.01497522 0.65700001 -0.046077598 1.5484432e-38 333 280
0.016151706 0.65799999 -0.04614773 1.5300764e-38 334 280
0.017331699 0.65899998 -0.046217863 1.5300764e-38 335 280
0.018487146 0.65899998 -0.046217863 1.5484427e-38 336 280
0.019702207 0.66100001 -0.046358135 1.5576981e-38 337 280
0.02086116 0.66100001 -0.046358135 1.5576975e-38 338 280
0.022020113 0.66100001 -0.046358135 1.548478e-38 339 280
0.023214132 0.662 -0.046428263 1.5576975e-38 340 280
0.024374841 0.662 -0.046428263 1.548478e-38 341 280
0.025574118 0.66299999 -0.046498399 1.5392936e-38 342 280
0.026736578 0.66299999 -0.046498399 1.5392936e-38 343 280
0.027899038 0.66299999 -0.046498399 1.5208549e-38 344 280
0.029061496 0.66299999 -0.046498399 1.5208549e-38 345 280
0.030269546 0.66399997 -0.046568532 1.4931959e-38 346 280
0.031528439 0.66600001 -0.046708796 1.4747566e-38 347 280
0.032696161 0.66600001 -0.046708796 1.4287659e-38 348 280
0.033914726 0.667 -0.046778932 1.4011431e-38 349 280
0.035241999 0.67000002 -0.046989333 1.3366804e-38 350 280
0.036416732 0.67000002 -0.046989333 1.3366804e-38 351 280
0.037647571 0.671 -0.047059465 1.3366825e-38 352 280
0.038824059 0.671 -0.047059465 1.3182075e-38 353 280
0.040000543 0.671 -0.047059465 1.2998765e-38 354 280
0.041238401 0.67199999 -0.047129598 1.290657e-38 355 280
0.042542879 0.67400002 -0.047269866 1.3089879e-38 356 280
0.043789499 0.67500001 -0.047339998 1.2813653e-38 357 280
0.045039624 0.676 -0.047410134 1.2904415e-38 358 280
0.046224877 0.676 -0.047410134 1.2904415e-38 359 280
0.047550395 0.67799997 -0.047550395 1.2443806e-38 360 280
0.049026705 0.68199998 -0.047830928 1.216758e-38 361 280
0.05029612 0.68300003 -0.047901068 1.198463e-38 362 280
0.051493648 0.68300003 -0.047901068 1.2445607e-38 363 280
0.05276832 0.68400002 -0.0479712 1.2722549e-38 364 280
0.054125395 0.68599999 -0.048111461 1.309133e-38 365 280
0.055489492 0.68800002 -0.048251733 1.2999861e-38 366 280
0.056695789 0.68800002 -0.048251733 1.2815469e-38 367 280
-0.1071462 0.67900002 -0.048811045 1.3366135e-38 230 281
-0.10517546 0.67400002 -0.048451614 1.2812962e-38 231 281
-0.10399371 0.67400002 -0.048451614 1.2541362e-38 232 281
-0.10250688 0.67199999 -0.04830784 1.3278927e-38 233 281
-0.10132863 0.67199999 -0.04830784 1.4107946e-38 234 281
-0.10000136 0.671 -0.048235953 1.466112e-38 235 281
-0.098824874 0.671 -0.048235953 1.603829e-38 236 281
-0.097502865 0.67000002 -0.048164066 1.6222681e-38 237 281
-0.096040577 0.66799998 -0.048020288 1.6773688e-38 238 281
-0.094727337 0.667 -0.047948405 1.7049915e-38 239 281
-0.093417592 0.66600001 -0.047876518 1.7325416e-38 240 281
-0.092249878 0.66600001 -0.047876518 1.7602003e-38 241 281
-0.091082163 0.66600001 -0.047876518 1.7694199e-38 242 281
-0.090049446 0.667 -0.047948405 1.7694199e-38 243 281
-0.088879973 0.667 -0.047948405 1.7785668e-38 244 281
-0.087841995 0.66799998 -0.048020288 1.7693473e-38 245 281
-0.086541019 0.667 -0.047948405 1.7693117e-38 246 281
-0.085371546 0.667 -0.047948405 1.741689e-38 247 281
-0.084202074 0.667 -0.047948405 1.6956636e-38 248 281
-0.082908116 0.66600001 -0.047876518 1.7048833e-38 249 281
-0.081740394 0.66600001 -0.047876518 1.6864801e-38 250 281
-0.08057268 0.66600001 -0.047876518 1.6772605e-38 251 281
-0.079166502 0.66399997 -0.047732744 1.6681844e-38 252 281
-0.078002289 0.66399997 -0.047732744 1.6589649e-38 253 281
-0.076838076 0.66399997 -0.047732744 1.6864438e-38 254 281
-0.075559892 0.66299999 -0.047660857 1.6864438e-38 255 281
-0.074397437 0.66299999 -0.047660857 1.7047747e-38 256 281
-0.073234983 0.66299999 -0.047660857 1.7047747e-38 257 281
-0.071963809 0.662 -0.047588971 1.7232141e-38 258 281
-0.070803106 0.662 -0.047588971 1.7600924e-38 259 281
-0.069642402 0.662 -0.047588971 1.7324707e-38 260 281
-0.068378247 0.66100001 -0.047517084 1.7324707e-38 261 281
-0.067219295 0.66100001 -0.047517084 1.7600205e-38 262 281
-0.065760516 0.65799999 -0.047301427 1.7600205e-38 263 281
-0.064606823 0.65799999 -0.047301427 1.7600202e-38 264 281
-0.063356705 0.65700001 -0.04722954 1.7692398e-38 265 281
-0.06220476 0.65700001 -0.04722954 1.7875716e-38 266 281
