# .PCD v.7 - Point Cloud Data file format
FIELDS x y z rgb imX imY
SIZE 4 4 4 4 4 4
TYPE F F F F F F
COUNT 1 1 1 1 1 1
WIDTH 850
HEIGHT 1
VIEWPOINT 0 0 0 1 0 0 0
POINTS 850
DATA ascii
0.057044696 0.72299999 -0.01140894 1.8156272e-38 365 249
0.058312356 0.72299999 -0.01140894 1.7787486e-38 366 249
0.059580017 0.72299999 -0.01140894 1.7418705e-38 367 249
0.060847677 0.72299999 -0.01140894 1.7052129e-38 368 249
-0.061457843 0.76200002 -0.0133604 1.7051423e-38 274 250
-0.060042895 0.76099998 -0.013342866 1.7051423e-38 275 250
-0.058708608 0.76099998 -0.013342866 1.6868461e-38 276 250
-0.05722354 0.759 -0.0133078 1.6776265e-38 277 250
-0.055745479 0.75700003 -0.013272733 1.7142877e-38 278 250
-0.054418206 0.75700003 -0.013272733 1.6866292e-38 279 250
-0.053090934 0.75700003 -0.013272733 1.6406388e-38 280 250
-0.051626898 0.755 -0.013237666 1.6406388e-38 281 250
-0.050303131 0.755 -0.013237666 1.5763184e-38 282 250
-0.048979364 0.755 -0.013237666 1.5763184e-38 283 250
-0.047655597 0.755 -0.013237666 1.5486596e-38 284 250
-0.04633183 0.755 -0.013237666 1.4933422e-38 285 250
-0.045008067 0.755 -0.013237666 1.4838707e-38 286 250
-0.043684296 0.755 -0.013237666 1.4378087e-38 287 250
-0.042360533 0.755 -0.013237666 1.3643039e-38 288 250
-0.041036766 0.755 -0.013237666 1.3643039e-38 289 250
-0.039818201 0.75700003 -0.013272733 1.3642317e-38 290 250
-0.038389232 0.755 -0.013237666 1.3550122e-38 291 250
-0.037065465 0.755 -0.013237666 1.3366809e-38 292 250
-0.03583638 0.75700003 -0.013272733 1.3366809e-38 293 250
-0.034509107 0.75700003 -0.013272733 1.3366822e-38 294 250
-0.033181835 0.75700003 -0.013272733 1.3459019e-38 295 250
-0.031854562 0.75700003 -0.013272733 1.3459388e-38 296 250
-0.030527288 0.75700003 -0.013272733 1.3551583e-38 297 250
-0.029200014 0.75700003 -0.013272733 1.3734898e-38 298 250
-0.027872739 0.75700003 -0.013272733 1.3734898e-38 299 250
-0.026545467 0.75700003 -0.013272733 1.3550511e-38 300 250
-0.025218192 0.75700003 -0.013272733 1.3734901e-38 301 250
-0.02389092 0.75700003 -0.013272733 1.3734545e-38 302 250
-0.022563647 0.75700003 -0.013272733 1.3734545e-38 303 250
-0.021180267 0.755 -0.013237666 1.3550514e-38 304 250
-0.0198565 0.755 -0.013237666 1.3826741e-38 305 250
-0.018508185 0.75400001 -0.013220133 1.3826741e-38 306 250
-0.017140586 0.75199997 -0.013185065 1.3734545e-38 307 250
-0.015822079 0.75199997 -0.013185065 1.3734898e-38 308 250
-0.014503572 0.75199997 -0.013185065 1.3827094e-38 309 250
-0.013185065 0.75199997 -0.013185065 1.373633e-38 310 250
-0.011866559 0.75199997 -0.013185065 1.373633e-38 311 250
-0.010548052 0.75199997 -0.013185065 1.373633e-38 312 250
-0.0092540924 0.75400001 -0.013220133 1.3828526e-38 313 250
-0.00793208 0.75400001 -0.013220133 1.4011838e-38 314 250
-0.0065925326 0.75199997 -0.013185065 1.4104035e-38 315 250
-0.0052740262 0.75199997 -0.013185065 1.4287706e-38 316 250
-0.0039555198 0.75199997 -0.013185065 1.4287706e-38 317 250
-0.0026370131 0.75199997 -0.013185065 1.4563567e-38 318 250
-0.001315 0.75 -0.01315 1.4655763e-38 319 250
0 0.75 -0.01315 1.4472804e-38 320 250
0.0013132467 0.74900001 -0.013132467 1.4472804e-38 321 250
0.0026194798 0.74699998 -0.013097399 1.4472804e-38 322 250
0.0039292197 0.74699998 -0.013097399 1.4565e-38 323 250
0.0052389596 0.74699998 -0.013097399 1.4656116e-38 324 250
0.0065399334 0.74599999 -0.013079867 1.4656116e-38 325 250
0.0078479191 0.74599999 -0.013079867 1.4748665e-38 326 250
0.0091559067 0.74599999 -0.013079867 1.4748665e-38 327 250
0.010463892 0.74599999 -0.013079867 1.4748659e-38 328 250
0.011771879 0.74599999 -0.013079867 1.4748659e-38 329 250
0.013079867 0.74599999 -0.013079867 1.4840139e-38 330 250
0.01434928 0.74400002 -0.0130448 1.502417e-38 331 250
0.015653761 0.74400002 -0.0130448 1.5024176e-38 332 250
0.016912652 0.74199998 -0.013009733 1.5024176e-38 333 250
0.018213626 0.74199998 -0.013009733 1.5207848e-38 334 250
0.0195146 0.74199998 -0.013009733 1.5207848e-38 335 250
0.020787518 0.741 -0.0129922 1.5116724e-38 336 250
0.022027127 0.73900002 -0.012957133 1.5116724e-38 337 250
0.023322839 0.73900002 -0.012957133 1.5392229e-38 338 250
0.024618553 0.73900002 -0.012957133 1.5392229e-38 339 250
0.025879199 0.73799998 -0.012939599 1.5302189e-38 340 250
0.027173158 0.73799998 -0.012939599 1.5394385e-38 341 250
0.028389972 0.736 -0.012904533 1.5853921e-38 342 250
0.029680425 0.736 -0.012904533 1.6407095e-38 343 250
0.030886721 0.73400003 -0.012869466 1.6775151e-38 344 250
0.032173667 0.73400003 -0.012869466 1.7143934e-38 345 250
0.033415023 0.73299998 -0.012851933 1.7328322e-38 346 250
0.034700219 0.73299998 -0.012851933 1.7513072e-38 347 250
0.035985414 0.73299998 -0.012851933 1.7971891e-38 348 250
0.037168913 0.73100001 -0.012816866 1.8064445e-38 349 250
0.038398001 0.73000002 -0.012799333 1.8064445e-38 350 250
0.039677933 0.73000002 -0.012799333 1.8156641e-38 351 250
0.040957868 0.73000002 -0.012799333 1.8248837e-38 352 250
0.042122077 0.72799999 -0.012764266 1.8341032e-38 353 250
0.043398503 0.72799999 -0.012764266 1.8341035e-38 354 250
0.044674929 0.72799999 -0.012764266 1.8341035e-38 355 250
0.045888241 0.727 -0.012746733 1.8433234e-38 356 250
0.047162913 0.727 -0.012746733 1.8617266e-38 357 250
0.048437584 0.727 -0.012746733 1.8709459e-38 358 250
0.0495755 0.72500002 -0.012711667 1.8709459e-38 359 250
0.050846666 0.72500002 -0.012711667 1.8709815e-38 360 250
0.052117832 0.72500002 -0.012711667 1.8709815e-38 361 250
0.053388998 0.72500002 -0.012711667 1.8709809e-38 362 250
0.054660168 0.72500002 -0.012711667 1.8617614e-38 363 250
0.055931333 0.72500002 -0.012711667 1.8800559e-38 364 250
0.056492399 0.71600002 -0.012553867 1.8524332e-38 365 250
0.057747785 0.71600002 -0.012553867 1.8339938e-38 366 250
0.059003171 0.71600002 -0.012553867 1.8247742e-38 367 250
0.060763516 0.722 -0.012659066 1.7879331e-38 368 250
0.062029421 0.722 -0.012659066 1.751055e-38 369 250
0.062593997 0.71399999 -0.012518799 1.6680827e-38 370 250
-0.06271147 0.76099998 -0.014677152 1.6407152e-38 273 251
-0.061377186 0.76099998 -0.014677152 1.6591518e-38 274 251
-0.060042895 0.76099998 -0.014677152 1.6499323e-38 275 251
-0.058554318 0.759 -0.014638579 1.6591155e-38 276 251
-0.057072755 0.75700003 -0.014600007 1.6314208e-38 277 251
-0.055745479 0.75700003 -0.014600007 1.631384e-38 278 251
-0.054274432 0.755 -0.014561433 1.631384e-38 279 251
-0.052950665 0.755 -0.014561433 1.6038332e-38 280 251
-0.051626898 0.755 -0.014561433 1.5946136e-38 281 251
-0.050303131 0.755 -0.014561433 1.5578072e-38 282 251
-0.048979364 0.755 -0.014561433 1.5024899e-38 283 251
-0.047655597 0.755 -0.014561433 1.4748312e-38 284 251
-0.04633183 0.755 -0.014561433 1.4195138e-38 285 251
-0.045008067 0.755 -0.014561433 1.3459375e-38 286 251
-0.043684296 0.755 -0.014561433 1.3366819e-38 287 251
-0.042360533 0.755 -0.014561433 1.3551218e-38 288 251
-0.041036766 0.755 -0.014561433 1.3459022e-38 289 251
-0.039712999 0.755 -0.014561433 1.3459022e-38 290 251
-0.038389232 0.755 -0.014561433 1.3366825e-38 291 251
-0.037065465 0.755 -0.014561433 1.3642331e-38 292 251
-0.03583638 0.75700003 -0.014600007 1.3550134e-38 293 251
-0.034509107 0.75700003 -0.014600007 1.3642334e-38 294 251
-0.033181835 0.75700003 -0.014600007 1.3642334e-38 295 251
-0.031854562 0.75700003 -0.014600007 1.3458669e-38 296 251
-0.030527288 0.75700003 -0.014600007 1.3550864e-38 297 251
-0.029200014 0.75700003 -0.014600007 1.3550867e-38 298 251
-0.027872739 0.75700003 -0.014600007 1.3550867e-38 299 251
-0.026545467 0.75700003 -0.014600007 1.3458316e-38 300 251
-0.025218192 0.75700003 -0.014600007 1.3550511e-38 301 251
-0.02389092 0.75700003 -0.014600007 1.3550511e-38 302 251
-0.022563647 0.75700003 -0.014600007 1.3550511e-38 303 251
-0.021180267 0.755 -0.014561433 1.3458316e-38 304 251
-0.0198565 0.755 -0.014561433 1.3550511e-38 305 251
-0.018508185 0.75400001 -0.014542146 1.3734182e-38 306 251
-0.017186172 0.75400001 -0.014542146 1.3734182e-38 307 251
-0.01586416 0.75400001 -0.014542146 1.3458316e-38 308 251
-0.014503572 0.75199997 -0.014503572 1.3458316e-38 309 251
-0.013185065 0.75199997 -0.014503572 1.3550864e-38 310 251
-0.01189812 0.75400001 -0.014542146 1.3734896e-38 311 251
-0.010576107 0.75400001 -0.014542146 1.3644135e-38 312 251
-0.0092540924 0.75400001 -0.014542146 1.3644135e-38 313 251
-0.00793208 0.75400001 -0.014542146 1.3919646e-38 314 251
-0.0066100666 0.75400001 -0.014542146 1.4011841e-38 315 251
-0.0052740262 0.75199997 -0.014503572 1.4195153e-38 316 251
-0.0039555198 0.75199997 -0.014503572 1.4195153e-38 317 251
-0.0026370131 0.75199997 -0.014503572 1.437918e-38 318 251
-0.0013185065 0.75199997 -0.014503572 1.437918e-38 319 251
0 0.75 -0.014465 1.4379536e-38 320 251
0.0013132467 0.74900001 -0.014445714 1.4563567e-38 321 251
0.0026194798 0.74699998 -0.014407139 1.4563567e-38 322 251
0.0039292197 0.74699998 -0.014407139 1.4563567e-38 323 251
0.0052389596 0.74699998 -0.014407139 1.4563565e-38 324 251
0.0065399334 0.74599999 -0.014387853 1.4563565e-38 325 251
0.0078479191 0.74599999 -0.014387853 1.4656113e-38 326 251
0.0091559067 0.74599999 -0.014387853 1.4656113e-38 327 251
0.010463892 0.74599999 -0.014387853 1.4747943e-38 328 251
0.011771879 0.74599999 -0.014387853 1.4747943e-38 329 251
0.013079867 0.74599999 -0.014387853 1.4747943e-38 330 251
0.01434928 0.74400002 -0.01434928 1.4840139e-38 331 251
0.015653761 0.74400002 -0.01434928 1.4840142e-38 332 251
0.016912652 0.74199998 -0.014310705 1.5024173e-38 333 251
0.018213626 0.74199998 -0.014310705 1.5116006e-38 334 251
0.0195146 0.74199998 -0.014310705 1.5208201e-38 335 251
0.020787518 0.741 -0.01429142 1.5208201e-38 336 251
0.022027127 0.73900002 -0.014252847 1.5392232e-38 337 251
0.023322839 0.73900002 -0.014252847 1.5392229e-38 338 251
0.024585238 0.73799998 -0.014233559 1.5392229e-38 339 251
0.025879199 0.73799998 -0.014233559 1.5301467e-38 340 251
0.02709952 0.736 -0.014194986 1.520927e-38 341 251
0.028389972 0.736 -0.014194986 1.5576608e-38 342 251
0.029680425 0.736 -0.014194986 1.5853195e-38 343 251
0.030886721 0.73400003 -0.014156413 1.5576961e-38 344 251
0.032173667 0.73400003 -0.014156413 1.5853189e-38 345 251
0.033415023 0.73299998 -0.014137126 1.6039383e-38 346 251
0.034700219 0.73299998 -0.014137126 1.6500359e-38 347 251
0.035887226 0.73100001 -0.014098554 1.7236129e-38 348 251
0.037118066 0.73000002 -0.014079267 1.7328325e-38 349 251
0.038398001 0.73000002 -0.014079267 1.7696382e-38 350 251
0.039569225 0.72799999 -0.014040692 1.7788579e-38 351 251
0.040845651 0.72799999 -0.014040692 1.8156638e-38 352 251
0.042122077 0.72799999 -0.014040692 1.8156638e-38 353 251
0.043398503 0.72799999 -0.014040692 1.8248834e-38 354 251
0.044613566 0.727 -0.014021406 1.8248834e-38 355 251
0.045761999 0.72500002 -0.013982833 1.8248837e-38 356 251
0.047033165 0.72500002 -0.013982833 1.8341032e-38 357 251
0.048437584 0.727 -0.014021406 1.861654e-38 358 251
0.049438741 0.72299999 -0.01394426 1.8709096e-38 359 251
0.050706398 0.72299999 -0.01394426 1.8709093e-38 360 251
0.051902171 0.722 -0.013924973 1.8709093e-38 361 251
0.053020801 0.72000003 -0.0138864 1.8984957e-38 362 251
0.054057021 0.71700001 -0.013828539 1.8892761e-38 363 251
0.055314157 0.71700001 -0.013828539 1.8892756e-38 364 251
0.056492399 0.71600002 -0.013809253 1.8800559e-38 365 251
0.057747785 0.71600002 -0.013809253 1.8524329e-38 366 251
0.058838356 0.71399999 -0.01377068 1.8524329e-38 367 251
0.060090236 0.71399999 -0.01377068 1.8339571e-38 368 251
0.061342116 0.71399999 -0.01377068 1.8062625e-38 369 251
0.062593997 0.71399999 -0.01377068 1.7416552e-38 370 251
0.064114138 0.71700001 -0.013828539 1.704813e-38 371 251
0.065371275 0.71700001 -0.013828539 1.6591171e-38 372 251
-0.064045757 0.76099998 -0.016011439 1.6590449e-38 272 252
-0.06271147 0.76099998 -0.016011439 1.6498253e-38 273 252
-0.061377186 0.76099998 -0.016011439 1.6130896e-38 274 252
-0.059885096 0.759 -0.015969358 1.60387e-38 275 252
-0.058400027 0.75700003 -0.015927281 1.5854679e-38 276 252
-0.057072755 0.75700003 -0.015927281 1.5762483e-38 277 252
-0.055598196 0.755 -0.015885198 1.5670291e-38 278 252
-0.054274432 0.755 -0.015885198 1.5670291e-38 279 252
-0.052950665 0.755 -0.015885198 1.5577722e-38 280 252
-0.051626898 0.755 -0.015885198 1.5301135e-38 281 252
-0.050303131 0.755 -0.015885198 1.4657192e-38 282 252
-0.048979364 0.755 -0.015885198 1.4288408e-38 283 252
-0.047655597 0.755 -0.015885198 1.3827444e-38 284 252
-0.04633183 0.755 -0.015885198 1.3735249e-38 285 252
-0.045008067 0.755 -0.015885198 1.3458681e-38 286 252
-0.043684296 0.755 -0.015885198 1.3182453e-38 287 252
-0.042360533 0.755 -0.015885198 1.3183174e-38 288 252
-0.041036766 0.755 -0.015885198 1.3090976e-38 289 252
-0.039712999 0.755 -0.015885198 1.3182806e-38 290 252
-0.038389232 0.755 -0.015885198 1.3182806e-38 291 252
-0.037065465 0.755 -0.015885198 1.3366119e-38 292 252
-0.03583638 0.75700003 -0.015927281 1.3366119e-38 293 252
-0.034509107 0.75700003 -0.015927281 1.3182806e-38 294 252
-0.033181835 0.75700003 -0.015927281 1.3366839e-38 295 252
-0.031854562 0.75700003 -0.015927281 1.309133e-38 296 252
-0.030446632 0.755 -0.015885198 1.309133e-38 297 252
-0.029122867 0.755 -0.015885198 1.3183174e-38 298 252
-0.027799098 0.755 -0.015885198 1.3090976e-38 299 252
-0.026475333 0.755 -0.015885198 1.2998425e-38 300 252
-0.025151566 0.755 -0.015885198 1.3090979e-38 301 252
-0.023827799 0.755 -0.015885198 1.2907311e-38 302 252
-0.022504034 0.755 -0.015885198 1.2815115e-38 303 252
-0.021180267 0.755 -0.015885198 1.3273926e-38 304 252
-0.0198565 0.755 -0.015885198 1.3273926e-38 305 252
-0.018508185 0.75400001 -0.01586416 1.3273926e-38 306 252
-0.017140586 0.75199997 -0.015822079 1.3273926e-38 307 252
-0.015822079 0.75199997 -0.015822079 1.2998059e-38 308 252
-0.014542146 0.75400001 -0.01586416 1.3090255e-38 309 252
-0.013220133 0.75400001 -0.01586416 1.3182806e-38 310 252
-0.01189812 0.75400001 -0.01586416 1.3366839e-38 311 252
-0.010576107 0.75400001 -0.01586416 1.3275719e-38 312 252
-0.0092540924 0.75400001 -0.01586416 1.3275719e-38 313 252
-0.00793208 0.75400001 -0.01586416 1.3643785e-38 314 252
-0.0066100666 0.75400001 -0.01586416 1.355123e-38 315 252
-0.0052740262 0.75199997 -0.015822079 1.3827097e-38 316 252
-0.0039555198 0.75199997 -0.015822079 1.3919292e-38 317 252
-0.0026370131 0.75199997 -0.015822079 1.4011125e-38 318 252
-0.0013185065 0.75199997 -0.015822079 1.4011125e-38 319 252
0 0.75 -0.01578 1.4195156e-38 320 252
0.0013132467 0.74900001 -0.01575896 1.4287353e-38 321 252
0.0026194798 0.74699998 -0.015716879 1.4104041e-38 322 252
0.0039292197 0.74699998 -0.015716879 1.4104041e-38 323 252
0.0052389596 0.74699998 -0.015716879 1.4287706e-38 324 252
0.0065399334 0.74599999 -0.015695838 1.4287706e-38 325 252
0.0078479191 0.74599999 -0.015695838 1.4288055e-38 326 252
0.0091559067 0.74599999 -0.015695838 1.4380252e-38 327 252
0.010463892 0.74599999 -0.015695838 1.4563918e-38 328 252
0.011771879 0.74599999 -0.015695838 1.4563918e-38 329 252
0.013079867 0.74599999 -0.015695838 1.4656113e-38 330 252
0.01434928 0.74400002 -0.015653761 1.4748309e-38 331 252
0.015653761 0.74400002 -0.015653761 1.4564997e-38 332 252
0.016912652 0.74199998 -0.015611678 1.4564997e-38 333 252
0.018213626 0.74199998 -0.015611678 1.4840861e-38 334 252
0.0195146 0.74199998 -0.015611678 1.4840861e-38 335 252
0.020787518 0.741 -0.01559064 1.5116722e-38 336 252
0.022027127 0.73900002 -0.01554856 1.5116722e-38 337 252
0.023322839 0.73900002 -0.01554856 1.5117075e-38 338 252
0.024585238 0.73799998 -0.015527519 1.5117075e-38 339 252
0.025809066 0.736 -0.015485439 1.5208549e-38 340 252
0.02702588 0.73400003 -0.01544336 1.5208549e-38 341 252
0.028312827 0.73400003 -0.01544336 1.5209273e-38 342 252
0.029599773 0.73400003 -0.01544336 1.5209273e-38 343 252
0.030886721 0.73400003 -0.01544336 1.539258e-38 344 252
0.032173667 0.73400003 -0.01544336 1.539258e-38 345 252
0.033415023 0.73299998 -0.015422319 1.5577328e-38 346 252
0.034605537 0.73100001 -0.01538024 1.5762078e-38 347 252
0.035887226 0.73100001 -0.01538024 1.6407814e-38 348 252
0.037118066 0.73000002 -0.0153592 1.6592205e-38 349 252
0.038292799 0.72799999 -0.01531712 1.7235774e-38 350 252
0.039569225 0.72799999 -0.01531712 1.7420524e-38 351 252
0.040789545 0.727 -0.015296079 1.7512716e-38 352 252
0.042064216 0.727 -0.015296079 1.7788945e-38 353 252
0.043338891 0.727 -0.015296079 1.8064089e-38 354 252
0.044490833 0.72500002 -0.015254001 1.8064089e-38 355 252
0.04563576 0.72299999 -0.015211919 1.8156288e-38 356 252
0.046903417 0.72299999 -0.015211919 1.8248484e-38 357 252
0.048104454 0.722 -0.015190879 1.824813e-38 358 252
0.04937036 0.722 -0.015190879 1.8340685e-38 359 252
0.050636265 0.722 -0.015190879 1.843288e-38 360 252
0.05168651 0.71899998 -0.01512776 1.843288e-38 361 252
0.052799881 0.71700001 -0.015085679 1.8617266e-38 362 252
0.054057021 0.71700001 -0.015085679 1.8617266e-38 363 252
0.055237014 0.71600002 -0.01506464 1.8617969e-38 364 252
0.056492399 0.71600002 -0.01506464 1.8433578e-38 365 252
0.057586476 0.71399999 -0.015022559 1.8708713e-38 366 252
0.058838356 0.71399999 -0.015022559 1.8708713e-38 367 252
0.060090236 0.71399999 -0.015022559 1.8616152e-38 368 252
0.061342116 0.71399999 -0.015022559 1.8523956e-38 369 252
0.062856995 0.71700001 -0.015085679 1.778712e-38 370 252
0.064114138 0.71700001 -0.015085679 1.7417977e-38 371 252
0.065371275 0.71700001 -0.015085679 1.668259e-38 372 252
0.066349633 0.71399999 -0.015022559 1.6590036e-38 373 252
-0.065380037 0.76099998 -0.017345725 1.539626e-38 271 253
-0.064045757 0.76099998 -0.017345725 1.6220938e-38 272 253
-0.06271147 0.76099998 -0.017345725 1.6036547e-38 273 253
-0.061215881 0.759 -0.017300138 1.5853234e-38 274 253
-0.059885096 0.759 -0.017300138 1.5761037e-38 275 253
-0.058400027 0.75700003 -0.017254554 1.5577372e-38 276 253
-0.056921966 0.755 -0.017208965 1.5669569e-38 277 253
-0.055598196 0.755 -0.017208965 1.5853234e-38 278 253
-0.054274432 0.755 -0.017208965 1.5484452e-38 279 253
-0.052950665 0.755 -0.017208965 1.4747593e-38 280 253
-0.051626898 0.755 -0.017208965 1.4286255e-38 281 253
-0.050303131 0.755 -0.017208965 1.3091311e-38 282 253
-0.048979364 0.755 -0.017208965 1.3183507e-38 283 253
-0.047655597 0.755 -0.017208965 1.318388e-38 284 253
-0.04633183 0.755 -0.017208965 1.318388e-38 285 253
-0.045008067 0.755 -0.017208965 1.309133e-38 286 253
-0.043684296 0.755 -0.017208965 1.309133e-38 287 253
-0.042360533 0.755 -0.017208965 1.3090974e-38 288 253
-0.041036766 0.755 -0.017208965 1.3090974e-38 289 253
-0.039712999 0.755 -0.017208965 1.327357e-38 290 253
-0.038389232 0.755 -0.017208965 1.3365766e-38 291 253
-0.037065465 0.755 -0.017208965 1.3365766e-38 292 253
-0.035741698 0.755 -0.017208965 1.3365766e-38 293 253
-0.034417931 0.755 -0.017208965 1.3365768e-38 294 253
-0.033094164 0.755 -0.017208965 1.3273573e-38 295 253
-0.031770397 0.755 -0.017208965 1.3273573e-38 296 253
-0.030446632 0.755 -0.017208965 1.3181377e-38 297 253
-0.029122867 0.755 -0.017208965 1.3180655e-38 298 253
-0.027799098 0.755 -0.017208965 1.308846e-38 299 253
-0.026475333 0.755 -0.017208965 1.2995544e-38 300 253
-0.025151566 0.755 -0.017208965 1.2995544e-38 301 253
-0.023827799 0.755 -0.017208965 1.2995541e-38 302 253
-0.022504034 0.755 -0.017208965 1.2903345e-38 303 253
-0.021180267 0.755 -0.017208965 1.2350522e-38 304 253
-0.0198565 0.755 -0.017208965 1.2166131e-38 305 253
-0.018508185 0.75400001 -0.017186172 1.2258329e-38 306 253
-0.017140586 0.75199997 -0.017140586 1.2442722e-38 307 253
-0.015822079 0.75199997 -0.017140586 1.2627838e-38 308 253
-0.014542146 0.75400001 -0.017186172 1.2904064e-38 309 253
-0.013220133 0.75400001 -0.017186172 1.3181362e-38 310 253
-0.01189812 0.75400001 -0.017186172 1.3273557e-38 311 253
-0.010576107 0.75400001 -0.017186172 1.3550134e-38 312 253
-0.0092540924 0.75400001 -0.017186172 1.3550134e-38 313 253
-0.00793208 0.75400001 -0.017186172 1.3642334e-38 314 253
-0.0066100666 0.75400001 -0.017186172 1.3642334e-38 315 253
-0.0052740262 0.75199997 -0.017140586 1.3917842e-38 316 253
-0.0039555198 0.75199997 -0.017140586 1.4010396e-38 317 253
-0.0026370131 0.75199997 -0.017140586 1.4010396e-38 318 253
-0.0013185065 0.75199997 -0.017140586 1.4102592e-38 319 253
0 0.75 -0.017095 1.4285904e-38 320 253
0.0013132467 0.74900001 -0.017072206 1.43781e-38 321 253
0.0026194798 0.74699998 -0.017026618 1.4194788e-38 322 253
0.0039292197 0.74699998 -0.017026618 1.4194788e-38 323 253
0.0052389596 0.74699998 -0.017026618 1.4378453e-38 324 253
0.0065399334 0.74599999 -0.017003827 1.4470649e-38 325 253
0.0078479191 0.74599999 -0.017003827 1.4379529e-38 326 253
0.0091559067 0.74599999 -0.017003827 1.4379529e-38 327 253
0.010463892 0.74599999 -0.017003827 1.474651e-38 328 253
0.011771879 0.74599999 -0.017003827 1.474651e-38 329 253
0.013079867 0.74599999 -0.017003827 1.4563195e-38 330 253
0.01434928 0.74400002 -0.016958239 1.465575e-38 331 253
0.015653761 0.74400002 -0.016958239 1.4747946e-38 332 253
0.016912652 0.74199998 -0.016912652 1.4840142e-38 333 253
0.018213626 0.74199998 -0.016912652 1.4840142e-38 334 253
0.019488299 0.741 -0.016889861 1.4840142e-38 335 253
0.020731414 0.73900002 -0.016844273 1.511565e-38 336 253
0.021997318 0.73799998 -0.016821479 1.5207845e-38 337 253
0.023291279 0.73799998 -0.016821479 1.5116724e-38 338 253
0.024518613 0.736 -0.016775893 1.5116724e-38 339 253
0.025809066 0.736 -0.016775893 1.5208554e-38 340 253
0.02702588 0.73400003 -0.016730307 1.5208554e-38 341 253
0.028312827 0.73400003 -0.016730307 1.5391861e-38 342 253
0.029599773 0.73400003 -0.016730307 1.5484415e-38 343 253
0.030886721 0.73400003 -0.016730307 1.5484412e-38 344 253
0.032129832 0.73299998 -0.016707512 1.5576608e-38 345 253
0.033415023 0.73299998 -0.016707512 1.585212e-38 346 253
0.034605537 0.73100001 -0.016661927 1.585212e-38 347 253
0.035838135 0.73000002 -0.016639132 1.5669527e-38 348 253
0.037016369 0.72799999 -0.016593546 1.5853918e-38 349 253
0.038292799 0.72799999 -0.016593546 1.6040107e-38 350 253
0.039514873 0.727 -0.016570752 1.6316694e-38 351 253
0.040789545 0.727 -0.016570752 1.67766e-38 352 253
0.041948501 0.72500002 -0.016525166 1.7237577e-38 353 253
0.043219667 0.72500002 -0.016525166 1.8063727e-38 354 253
0.044490833 0.72500002 -0.016525166 1.7971529e-38 355 253
0.045572639 0.722 -0.016456785 1.8064077e-38 356 253
0.046838548 0.722 -0.016456785 1.8064077e-38 357 253
0.048104454 0.722 -0.016456785 1.8339232e-38 358 253
0.0492336 0.72000003 -0.0164112 1.8339232e-38 359 253
0.050496001 0.72000003 -0.0164112 1.8614745e-38 360 253
0.051542737 0.71700001 -0.016342819 1.8706941e-38 361 253
0.052799881 0.71700001 -0.016342819 1.8708016e-38 362 253
0.053981625 0.71600002 -0.016320027 1.8800211e-38 363 253
0.055237014 0.71600002 -0.016320027 1.8616893e-38 364 253
0.056492399 0.71600002 -0.016320027 1.8616893e-38 365 253
0.057586476 0.71399999 -0.016274439 1.8617249e-38 366 253
0.058838356 0.71399999 -0.016274439 1.8617249e-38 367 253
0.060090236 0.71399999 -0.016274439 1.8525048e-38 368 253
0.061342116 0.71399999 -0.016274439 1.8432852e-38 369 253
0.062769331 0.71600002 -0.016320027 1.8432855e-38 370 253
0.063845873 0.71399999 -0.016274439 1.8064074e-38 371 253
0.065097757 0.71399999 -0.016274439 1.7879331e-38 372 253
0.066349633 0.71399999 -0.016274439 1.7694581e-38 373 253
0.067033432 0.708 -0.01613768 1.7325821e-38 374 253
0.068274796 0.708 -0.01613768 1.7049593e-38 375 253
0.071795486 0.70599997 -0.016092092 1.6320777e-38 378 253
0.07303334 0.70599997 -0.016092092 1.7703713e-38 379 253
-0.066538997 0.759 -0.01863092 1.5580285e-38 270 254
-0.065208219 0.759 -0.01863092 1.484272e-38 271 254
-0.063877434 0.759 -0.01863092 1.6036549e-38 272 254
-0.062381849 0.75700003 -0.018581826 1.5759962e-38 273 254
-0.061054576 0.75700003 -0.018581826 1.5484826e-38 274 254
-0.059727304 0.75700003 -0.018581826 1.5484826e-38 275 254
-0.058245733 0.755 -0.018532733 1.5209678e-38 276 254
-0.056921966 0.755 -0.018532733 1.5025287e-38 277 254
-0.055598196 0.755 -0.018532733 1.4840523e-38 278 254
-0.054274432 0.755 -0.018532733 1.44721e-38 279 254
-0.052950665 0.755 -0.018532733 1.3827081e-38 280 254
-0.051626898 0.755 -0.018532733 1.3550134e-38 281 254
-0.050303131 0.755 -0.018532733 1.2999131e-38 282 254
-0.048979364 0.755 -0.018532733 1.2999131e-38 283 254
-0.047655597 0.755 -0.018532733 1.3090974e-38 284 254
-0.04633183 0.755 -0.018532733 1.2998778e-38 285 254
-0.045008067 0.755 -0.018532733 1.2908017e-38 286 254
-0.043684296 0.755 -0.018532733 1.2815463e-38 287 254
-0.042360533 0.755 -0.018532733 1.3090976e-38 288 254
-0.041036766 0.755 -0.018532733 1.2998781e-38 289 254
-0.039712999 0.755 -0.018532733 1.2998428e-38 290 254
-0.038389232 0.755 -0.018532733 1.2998428e-38 291 254
-0.037065465 0.755 -0.018532733 1.3089907e-38 292 254
-0.035741698 0.755 -0.018532733 1.3089907e-38 293 254
-0.034417931 0.755 -0.018532733 1.290516e-38 294 254
-0.033094164 0.755 -0.018532733 1.2812964e-38 295 254
-0.031770397 0.755 -0.018532733 1.2812964e-38 296 254
-0.030446632 0.755 -0.018532733 1.2720769e-38 297 254
-0.029122867 0.755 -0.018532733 1.2719694e-38 298 254
-0.027799098 0.755 -0.018532733 1.2166879e-38 299 254
-0.026475333 0.755 -0.018532733 1.1797736e-38 300 254
-0.025151566 0.755 -0.018532733 1.1982128e-38 301 254
-0.023827799 0.755 -0.018532733 1.1982478e-38 302 254
-0.022504034 0.755 -0.018532733 1.2075034e-38 303 254
-0.021180267 0.755 -0.018532733 1.2073213e-38 304 254
-0.0198565 0.755 -0.018532733 1.1151256e-38 305 254
-0.018508185 0.75400001 -0.018508185 1.1059789e-38 306 254
-0.017186172 0.75400001 -0.018508185 1.1336017e-38 307 254
-0.01586416 0.75400001 -0.018508185 1.1889929e-38 308 254
-0.014542146 0.75400001 -0.018508185 1.2535299e-38 309 254
-0.013185065 0.75199997 -0.018459093 1.2721472e-38 310 254
-0.011866559 0.75199997 -0.018459093 1.2905864e-38 311 254
-0.010576107 0.75400001 -0.018508185 1.3090961e-38 312 254
-0.0092540924 0.75400001 -0.018508185 1.3090961e-38 313 254
-0.00793208 0.75400001 -0.018508185 1.3183157e-38 314 254
-0.0066100666 0.75400001 -0.018508185 1.3367189e-38 315 254
-0.0052880533 0.75400001 -0.018508185 1.3550864e-38 316 254
-0.0039555198 0.75199997 -0.018459093 1.3550864e-38 317 254
-0.0026370131 0.75199997 -0.018459093 1.3734177e-38 318 254
-0.0013185065 0.75199997 -0.018459093 1.3826731e-38 319 254
0 0.75 -0.018409999 1.3734898e-38 320 254
0.001315 0.75 -0.018409999 1.3734898e-38 321 254
0.0026264933 0.74900001 -0.018385453 1.3826731e-38 322 254
0.0039292197 0.74699998 -0.018336359 1.3918927e-38 323 254
0.0052389596 0.74699998 -0.018336359 1.4011475e-38 324 254
0.0065486995 0.74699998 -0.018336359 1.4011475e-38 325 254
0.0078479191 0.74599999 -0.018311813 1.4195507e-38 326 254
0.0091559067 0.74599999 -0.018311813 1.4195507e-38 327 254
0.010463892 0.74599999 -0.018311813 1.4195507e-38 328 254
0.011771879 0.74599999 -0.018311813 1.4195507e-38 329 254
0.013079867 0.74599999 -0.018311813 1.4379536e-38 330 254
0.01434928 0.74400002 -0.01826272 1.4563567e-38 331 254
0.015653761 0.74400002 -0.01826272 1.4563565e-38 332 254
0.016912652 0.74199998 -0.018213626 1.4563565e-38 333 254
0.018213626 0.74199998 -0.018213626 1.4747596e-38 334 254
0.019488299 0.741 -0.018189078 1.4839791e-38 335 254
0.020731414 0.73900002 -0.018139986 1.484051e-38 336 254
0.021997318 0.73799998 -0.018115439 1.4932706e-38 337 254
0.023291279 0.73799998 -0.018115439 1.5116371e-38 338 254
0.024518613 0.736 -0.018066347 1.5116371e-38 339 254
0.025809066 0.736 -0.018066347 1.5116722e-38 340 254
0.02702588 0.73400003 -0.018017253 1.5116722e-38 341 254
0.028312827 0.73400003 -0.018017253 1.5208554e-38 342 254
0.029599773 0.73400003 -0.018017253 1.5392585e-38 343 254
0.030844638 0.73299998 -0.017992707 1.5485136e-38 344 254
0.032129832 0.73299998 -0.017992707 1.5485136e-38 345 254
0.033323854 0.73100001 -0.017943613 1.576029e-38 346 254
0.034558199 0.73000002 -0.017919067 1.5852486e-38 347 254
0.035838135 0.73000002 -0.017919067 1.5576975e-38 348 254
0.037016369 0.72799999 -0.017869972 1.548478e-38 349 254
0.038240198 0.727 -0.017845426 1.566953e-38 350 254
0.039514873 0.727 -0.017845426 1.6037952e-38 351 254
0.040677335 0.72500002 -0.017796334 1.6314543e-38 352 254
0.041948501 0.72500002 -0.017796334 1.6683324e-38 353 254
0.043100435 0.72299999 -0.017747238 1.7052814e-38 354 254
0.044368099 0.72299999 -0.017747238 1.7052814e-38 355 254
0.045572639 0.722 -0.017722692 1.7603464e-38 356 254
0.046838548 0.722 -0.017722692 1.7972247e-38 357 254
0.0479712 0.72000003 -0.017673599 1.8064445e-38 358 254
0.0492336 0.72000003 -0.017673599 1.8064445e-38 359 254
0.050425861 0.71899998 -0.017649053 1.8156288e-38 360 254
0.051542737 0.71700001 -0.017599959 1.8248484e-38 361 254
0.052726239 0.71600002 -0.017575413 1.8248486e-38 362 254
0.053981625 0.71600002 -0.017575413 1.8248486e-38 363 254
0.055237014 0.71600002 -0.017575413 1.8248839e-38 364 254
0.0563346 0.71399999 -0.017526319 1.8341035e-38 365 254
0.057586476 0.71399999 -0.017526319 1.8433581e-38 366 254
0.058591139 0.71100003 -0.01745268 1.8341385e-38 367 254
0.059837762 0.71100003 -0.01745268 1.8525048e-38 368 254
0.061256204 0.713 -0.017501773 1.8432852e-38 369 254
0.062506333 0.713 -0.017501773 1.8341007e-38 370 254
0.063756458 0.713 -0.017501773 1.8064779e-38 371 254
0.064733058 0.70999998 -0.017428132 1.8247723e-38 372 254
0.065792084 0.708 -0.017379038 1.8247723e-38 373 254
0.067033432 0.708 -0.017379038 1.7880382e-38 374 254
0.068274796 0.708 -0.017379038 1.7419763e-38 375 254
0.069516152 0.708 -0.017379038 1.6588955e-38 376 254
0.070657574 0.70700002 -0.017354494 1.6588955e-38 377 254
0.071795486 0.70599997 -0.017329946 1.5947989e-38 378 254
0.072826453 0.704 -0.017280852 1.7238727e-38 379 254
0.07406079 0.704 -0.017280852 1.7335305e-38 380 254
-0.067512102 0.755 -0.0198565 1.6320049e-38 269 255
-0.066188328 0.755 -0.0198565 1.4196252e-38 270 255
-0.064864561 0.755 -0.0198565 1.4104056e-38 271 255
-0.063540794 0.755 -0.0198565 1.548301e-38 272 255
-0.062217031 0.755 -0.0198565 1.548301e-38 273 255
-0.060893264 0.755 -0.0198565 1.5483022e-38 274 255
-0.059569497 0.755 -0.0198565 1.5483022e-38 275 255
-0.058245733 0.755 -0.0198565 1.5300416e-38 276 255
-0.056921966 0.755 -0.0198565 1.4747243e-38 277 255
-0.055598196 0.755 -0.0198565 1.3550485e-38 278 255
-0.054202545 0.75400001 -0.019830201 1.3182062e-38 279 255
-0.052880533 0.75400001 -0.019830201 1.2906564e-38 280 255
-0.051626898 0.755 -0.0198565 1.2999119e-38 281 255
-0.050303131 0.755 -0.0198565 1.290658e-38 282 255
-0.048979364 0.755 -0.0198565 1.2999134e-38 283 255
-0.047655597 0.755 -0.0198565 1.2998778e-38 284 255
-0.04633183 0.755 -0.0198565 1.2998778e-38 285 255
-0.045008067 0.755 -0.0198565 1.2815463e-38 286 255
-0.043684296 0.755 -0.0198565 1.2815463e-38 287 255
-0.042360533 0.755 -0.0198565 1.2906585e-38 288 255
-0.041036766 0.755 -0.0198565 1.2906585e-38 289 255
-0.039712999 0.755 -0.0198565 1.2997706e-38 290 255
-0.038389232 0.755 -0.0198565 1.2997706e-38 291 255
-0.037065465 0.755 -0.0198565 1.2998062e-38 292 255
-0.035741698 0.755 -0.0198565 1.2905866e-38 293 255
-0.034417931 0.755 -0.0198565 1.2904792e-38 294 255
-0.033094164 0.755 -0.0198565 1.2720399e-38 295 255
-0.031854562 0.75700003 -0.019909101 1.2903715e-38 296 255
-0.030527288 0.75700003 -0.019909101 1.2811518e-38 297 255
-0.029200014 0.75700003 -0.019909101 1.2535289e-38 298 255
-0.027872739 0.75700003 -0.019909101 1.2166146e-38 299 255
-0.026545467 0.75700003 -0.019909101 1.2073232e-38 300 255
-0.025218192 0.75700003 -0.019909101 1.2073232e-38 301 255
-0.02389092 0.75700003 -0.019909101 1.1982115e-38 302 255
-0.022563647 0.75700003 -0.019909101 1.2166146e-38 303 255
-0.021180267 0.755 -0.0198565 1.2166496e-38 304 255
-0.0198565 0.755 -0.0198565 1.189027e-38 305 255
-0.018508185 0.75400001 -0.019830201 1.1799143e-38 306 255
-0.017186172 0.75400001 -0.019830201 1.1799143e-38 307 255
-0.01586416 0.75400001 -0.019830201 1.1983537e-38 308 255
-0.014542146 0.75400001 -0.019830201 1.2260126e-38 309 255
-0.013185065 0.75199997 -0.0197776 1.2354115e-38 310 255
-0.011866559 0.75199997 -0.0197776 1.2538508e-38 311 255
-0.010576107 0.75400001 -0.019830201 1.3089879e-38 312 255
-0.0092540924 0.75400001 -0.019830201 1.3089879e-38 313 255
-0.00793208 0.75400001 -0.019830201 1.3182078e-38 314 255
-0.0066100666 0.75400001 -0.019830201 1.3274273e-38 315 255
-0.0052880533 0.75400001 -0.019830201 1.3366469e-38 316 255
-0.0039555198 0.75199997 -0.0197776 1.3366469e-38 317 255
-0.0026370131 0.75199997 -0.0197776 1.3549781e-38 318 255
-0.0013185065 0.75199997 -0.0197776 1.3642337e-38 319 255
0 0.75199997 -0.0197776 1.3642337e-38 320 255
0.001315 0.75 -0.019724999 1.3642337e-38 321 255
0.0026264933 0.74900001 -0.0196987 1.3918198e-38 322 255
0.0039397399 0.74900001 -0.0196987 1.3918198e-38 323 255
0.0052389596 0.74699998 -0.019646099 1.4010394e-38 324 255
0.0065486995 0.74699998 -0.019646099 1.4010394e-38 325 255
0.0078479191 0.74599999 -0.019619798 1.391928e-38 326 255
0.0091559067 0.74599999 -0.019619798 1.391928e-38 327 255
0.010463892 0.74599999 -0.019619798 1.4011475e-38 328 255
0.011771879 0.74599999 -0.019619798 1.4011475e-38 329 255
0.013079867 0.74599999 -0.019619798 1.4286981e-38 330 255
0.01434928 0.74400002 -0.019567199 1.4286981e-38 331 255
0.015653761 0.74400002 -0.019567199 1.4470646e-38 332 255
0.016912652 0.74199998 -0.0195146 1.45632e-38 333 255
0.018213626 0.74199998 -0.0195146 1.4838712e-38 334 255
0.019488299 0.741 -0.019488299 1.4838712e-38 335 255
0.020731414 0.73900002 -0.0194357 1.474724e-38 336 255
0.022027127 0.73900002 -0.0194357 1.4839435e-38 337 255
0.023291279 0.73799998 -0.019409399 1.502382e-38 338 255
0.024518613 0.736 -0.019356798 1.502382e-38 339 255
0.025809066 0.736 -0.019356798 1.5024173e-38 340 255
0.02702588 0.73400003 -0.019304199 1.5024173e-38 341 255
0.028312827 0.73400003 -0.019304199 1.520892e-38 342 255
0.029559445 0.73299998 -0.019277899 1.5301117e-38 343 255
0.030844638 0.73299998 -0.019277899 1.5484427e-38 344 255
0.032129832 0.73299998 -0.019277899 1.5576981e-38 345 255
0.033323854 0.73100001 -0.019225299 1.5760646e-38 346 255
0.034558199 0.73000002 -0.019199001 1.5760646e-38 347 255
0.035739943 0.72799999 -0.0191464 1.5760643e-38 348 255
0.037016369 0.72799999 -0.0191464 1.5760643e-38 349 255
0.038240198 0.727 -0.019120099 1.5852839e-38 350 255
0.039406165 0.72500002 -0.0190675 1.5852839e-38 351 255
0.040677335 0.72500002 -0.0190675 1.5853195e-38 352 255
0.041832779 0.72299999 -0.019014901 1.6037586e-38 353 255
0.043100435 0.72299999 -0.019014901 1.6131937e-38 354 255
0.044306733 0.722 -0.0189886 1.6500359e-38 355 255
0.045572639 0.722 -0.0189886 1.7326878e-38 356 255
0.0467088 0.72000003 -0.018935999 1.7603464e-38 357 255
0.0479712 0.72000003 -0.018935999 1.7696369e-38 358 255
0.049165215 0.71899998 -0.018909698 1.7788565e-38 359 255
0.0502856 0.71700001 -0.018857099 1.8064074e-38 360 255
0.051470853 0.71600002 -0.0188308 1.815627e-38 361 255
0.052578956 0.71399999 -0.018778199 1.8156275e-38 362 255
0.053830836 0.71399999 -0.018778199 1.8340306e-38 363 255
0.05508272 0.71399999 -0.018778199 1.8340304e-38 364 255
0.056255698 0.713 -0.018751899 1.8340304e-38 365 255
0.057344519 0.71100003 -0.0186993 1.8432855e-38 366 255
0.058508728 0.70999998 -0.018672999 1.8432855e-38 367 255
0.059585281 0.708 -0.0186204 1.8432499e-38 368 255
0.060826641 0.708 -0.0186204 1.8432499e-38 369 255
0.062331002 0.71100003 -0.0186993 1.8340304e-38 370 255
0.063488193 0.70999998 -0.018672999 1.8340304e-38 371 255
0.064733058 0.70999998 -0.018672999 1.8156989e-38 372 255
0.065792084 0.708 -0.0186204 1.8156989e-38 373 255
0.067033432 0.708 -0.0186204 1.7882187e-38 374 255
0.068274796 0.708 -0.0186204 1.7513044e-38 375 255
0.069516152 0.708 -0.0186204 1.75109e-38 376 255
0.070657574 0.70700002 -0.018594101 1.7326508e-38 377 255
0.071897186 0.70700002 -0.018594101 1.6406391e-38 378 255
0.072826453 0.704 -0.018515198 1.5761022e-38 379 255
0.07406079 0.704 -0.018515198 1.5123638e-38 380 255
0.075295143 0.704 -0.018515198 1.7243779e-38 381 255
-0.068744689 0.75400001 -0.021152213 1.7888081e-38 268 256
-0.067422673 0.75400001 -0.021152213 1.53988e-38 269 256
-0.066188328 0.755 -0.021180267 1.4195533e-38 270 256
-0.064864561 0.755 -0.021180267 1.4563956e-38 271 256
-0.063540794 0.755 -0.021180267 1.5207512e-38 272 256
-0.062217031 0.755 -0.021180267 1.5115315e-38 273 256
-0.060893264 0.755 -0.021180267 1.4839085e-38 274 256
-0.059569497 0.755 -0.021180267 1.4562498e-38 275 256
-0.058168583 0.75400001 -0.021152213 1.4286252e-38 276 256
-0.056846574 0.75400001 -0.021152213 1.3825632e-38 277 256
-0.055524562 0.75400001 -0.021152213 1.3090939e-38 278 256
-0.054202545 0.75400001 -0.021152213 1.3090939e-38 279 256
-0.052880533 0.75400001 -0.021152213 1.2999482e-38 280 256
-0.051558517 0.75400001 -0.021152213 1.2999482e-38 281 256
-0.050303131 0.755 -0.021180267 1.2998778e-38 282 256
-0.048979364 0.755 -0.021180267 1.2998778e-38 283 256
-0.047655597 0.755 -0.021180267 1.2998778e-38 284 256
-0.04633183 0.755 -0.021180267 1.2998778e-38 285 256
-0.045008067 0.755 -0.021180267 1.272327e-38 286 256
-0.043684296 0.755 -0.021180267 1.272327e-38 287 256
-0.042360533 0.755 -0.021180267 1.2906585e-38 288 256
-0.041036766 0.755 -0.021180267 1.2906585e-38 289 256
-0.039712999 0.755 -0.021180267 1.2906585e-38 290 256
-0.038389232 0.755 -0.021180267 1.2906585e-38 291 256
-0.037065465 0.755 -0.021180267 1.2905864e-38 292 256
-0.035741698 0.755 -0.021180267 1.2813668e-38 293 256
-0.034417931 0.755 -0.021180267 1.2812946e-38 294 256
-0.033094164 0.755 -0.021180267 1.2628554e-38 295 256
-0.031854562 0.75700003 -0.021236373 1.2628554e-38 296 256
-0.030527288 0.75700003 -0.021236373 1.2536358e-38 297 256
-0.029200014 0.75700003 -0.021236373 1.2259772e-38 298 256
-0.027872739 0.75700003 -0.021236373 1.207538e-38 299 256
-0.026545467 0.75700003 -0.021236373 1.1983184e-38 300 256
-0.025218192 0.75700003 -0.021236373 1.1890989e-38 301 256
-0.02389092 0.75700003 -0.021236373 1.1708395e-38 302 256
-0.02262326 0.759 -0.02129248 1.1892788e-38 303 256
-0.02129248 0.759 -0.02129248 1.1893494e-38 304 256
-0.019909101 0.75700003 -0.021236373 1.198569e-38 305 256
-0.018532733 0.755 -0.021180267 1.198604e-38 306 256
-0.017186172 0.75400001 -0.021152213 1.1893844e-38 307 256
-0.01586416 0.75400001 -0.021152213 1.1710179e-38 308 256
-0.014542146 0.75400001 -0.021152213 1.189421e-38 309 256
-0.013220133 0.75400001 -0.021152213 1.2170803e-38 310 256
-0.01189812 0.75400001 -0.021152213 1.2170803e-38 311 256
-0.010576107 0.75400001 -0.021152213 1.2538508e-38 312 256
-0.0092540924 0.75400001 -0.021152213 1.2538508e-38 313 256
-0.00793208 0.75400001 -0.021152213 1.2721823e-38 314 256
-0.0066100666 0.75400001 -0.021152213 1.2814018e-38 315 256
-0.0052880533 0.75400001 -0.021152213 1.2906217e-38 316 256
-0.00396604 0.75400001 -0.021152213 1.2906217e-38 317 256
-0.0026370131 0.75199997 -0.021096105 1.3089529e-38 318 256
-0.0013185065 0.75199997 -0.021096105 1.327392e-38 319 256
0 0.75199997 -0.021096105 1.3365753e-38 320 256
0.0013185065 0.75199997 -0.021096105 1.3365753e-38 321 256
0.0026264933 0.74900001 -0.021011947 1.3549781e-38 322 256
0.0039397399 0.74900001 -0.021011947 1.3642337e-38 323 256
0.0052389596 0.74699998 -0.020955838 1.3642331e-38 324 256
0.0065486995 0.74699998 -0.020955838 1.3642331e-38 325 256
0.0078584393 0.74699998 -0.020955838 1.373453e-38 326 256
0.0091559067 0.74599999 -0.020927785 1.373453e-38 327 256
0.010463892 0.74599999 -0.020927785 1.3735251e-38 328 256
0.011771879 0.74599999 -0.020927785 1.3827447e-38 329 256
0.013079867 0.74599999 -0.020927785 1.4102236e-38 330 256
0.014387853 0.74599999 -0.020927785 1.4102236e-38 331 256
0.015653761 0.74400002 -0.02087168 1.4377381e-38 332 256
0.016912652 0.74199998 -0.020815572 1.4377381e-38 333 256
0.018213626 0.74199998 -0.020815572 1.4377747e-38 334 256
0.019488299 0.741 -0.020787518 1.4469942e-38 335 256
0.020731414 0.73900002 -0.020731414 1.4378827e-38 336 256
0.022027127 0.73900002 -0.020731414 1.4563217e-38 337 256
0.023322839 0.73900002 -0.020731414 1.4747596e-38 338 256
0.024518613 0.736 -0.020647252 1.4839791e-38 339 256
0.025809066 0.736 -0.020647252 1.4840505e-38 340 256
0.02702588 0.73400003 -0.020591147 1.4933059e-38 341 256
0.028312827 0.73400003 -0.020591147 1.5207845e-38 342 256
0.029559445 0.73299998 -0.020563092 1.5484432e-38 343 256
0.030844638 0.73299998 -0.020563092 1.5484429e-38 344 256
0.032042164 0.73100001 -0.020506985 1.5484429e-38 345 256
0.033323854 0.73100001 -0.020506985 1.5576978e-38 346 256
0.034558199 0.73000002 -0.020478934 1.5576978e-38 347 256
0.035739943 0.72799999 -0.020422826 1.5576978e-38 348 256
0.037016369 0.72799999 -0.020422826 1.5576978e-38 349 256
0.038240198 0.727 -0.020394772 1.5760293e-38 350 256
0.039406165 0.72500002 -0.020338668 1.5852489e-38 351 256
0.040565118 0.72299999 -0.020282559 1.5852842e-38 352 256
0.041832779 0.72299999 -0.020282559 1.5760646e-38 353 256
0.043040827 0.722 -0.020254506 1.5853195e-38 354 256
0.044306733 0.722 -0.020254506 1.5945391e-38 355 256
0.045446403 0.72000003 -0.020198401 1.6222698e-38 356 256
0.0467088 0.72000003 -0.020198401 1.677587e-38 357 256
0.04790457 0.71899998 -0.020170346 1.7235761e-38 358 256
0.04902846 0.71700001 -0.020114239 1.7511988e-38 359 256
0.050215468 0.71600002 -0.020086186 1.7788929e-38 360 256
0.05132708 0.71399999 -0.020030079 1.7788929e-38 361 256
0.052505318 0.713 -0.020002026 1.8063721e-38 362 256
0.053604662 0.71100003 -0.01994592 1.8156275e-38 363 256
0.054851279 0.71100003 -0.01994592 1.7881481e-38 364 256
0.056097899 0.71100003 -0.01994592 1.7881481e-38 365 256
0.057263866 0.70999998 -0.019917866 1.8065149e-38 366 256
0.058508728 0.70999998 -0.019917866 1.8065149e-38 367 256
0.059585281 0.708 -0.01986176 1.8249543e-38 368 256
0.060826641 0.708 -0.01986176 1.8156989e-38 369 256
0.062243331 0.70999998 -0.019917866 1.834066e-38 370 256
0.063488193 0.70999998 -0.019917866 1.834066e-38 371 256
0.064733058 0.70999998 -0.019917866 1.8340657e-38 372 256
0.065792084 0.708 -0.01986176 1.8156626e-38 373 256
0.067033432 0.708 -0.01986176 1.8340291e-38 374 256
0.068274796 0.708 -0.01986176 1.8063344e-38 375 256
0.069516152 0.708 -0.01986176 1.7695287e-38 376 256
0.070657574 0.70700002 -0.019833706 1.7511256e-38 377 256
0.071897186 0.70700002 -0.019833706 1.6866606e-38 378 256
0.07303334 0.70599997 -0.019805651 1.6221236e-38 379 256
0.07406079 0.704 -0.019749546 1.5027072e-38 380 256
0.075295143 0.704 -0.019749546 1.6040865e-38 381 256
0.076529488 0.704 -0.019749546 1.6321142e-38 382 256
-0.070066705 0.75400001 -0.022474226 1.871571e-38 267 257
-0.068744689 0.75400001 -0.022474226 1.6687727e-38 268 257
-0.067422673 0.75400001 -0.022474226 1.5120041e-38 269 257
-0.066100664 0.75400001 -0.022474226 1.4932372e-38 270 257
-0.064864561 0.755 -0.022504034 1.5024568e-38 271 257
-0.063540794 0.755 -0.022504034 1.5208587e-38 272 257
-0.062217031 0.755 -0.022504034 1.4932e-38 273 257
-0.060893264 0.755 -0.022504034 1.4286983e-38 274 257
-0.059569497 0.755 -0.022504034 1.3457223e-38 275 257
-0.058168583 0.75400001 -0.022474226 1.3088792e-38 276 257
-0.056846574 0.75400001 -0.022474226 1.3088792e-38 277 257
-0.055524562 0.75400001 -0.022474226 1.2814725e-38 278 257
-0.054202545 0.75400001 -0.022474226 1.290692e-38 279 257
-0.052880533 0.75400001 -0.022474226 1.2907289e-38 280 257
-0.051558517 0.75400001 -0.022474226 1.2907289e-38 281 257
-0.050303131 0.755 -0.022504034 1.2723267e-38 282 257
-0.048979364 0.755 -0.022504034 1.2723267e-38 283 257
-0.047655597 0.755 -0.022504034 1.290658e-38 284 257
-0.04633183 0.755 -0.022504034 1.2722549e-38 285 257
-0.045008067 0.755 -0.022504034 1.2538879e-38 286 257
-0.043684296 0.755 -0.022504034 1.2631075e-38 287 257
-0.042360533 0.755 -0.022504034 1.2631075e-38 288 257
-0.041036766 0.755 -0.022504034 1.2631075e-38 289 257
-0.039712999 0.755 -0.022504034 1.272327e-38 290 257
-0.038389232 0.755 -0.022504034 1.2631075e-38 291 257
-0.037065465 0.755 -0.022504034 1.2538876e-38 292 257
-0.035741698 0.755 -0.022504034 1.2354845e-38 293 257
-0.034509107 0.75700003 -0.022563647 1.2446313e-38 294 257
-0.033181835 0.75700003 -0.022563647 1.2353759e-38 295 257
-0.031854562 0.75700003 -0.022563647 1.2261563e-38 296 257
-0.030527288 0.75700003 -0.022563647 1.1985337e-38 297 257
-0.029277159 0.759 -0.02262326 1.2168649e-38 298 257
-0.027946379 0.759 -0.02262326 1.2076453e-38 299 257
-0.026615599 0.759 -0.02262326 1.1892421e-38 300 257
-0.025284819 0.759 -0.02262326 1.1892421e-38 301 257
-0.024017159 0.76099998 -0.022682872 1.1709829e-38 302 257
-0.022682872 0.76099998 -0.022682872 1.189386e-38 303 257
-0.021348584 0.76099998 -0.022682872 1.189386e-38 304 257
-0.020014299 0.76099998 -0.022682872 1.1986055e-38 305 257
-0.01863092 0.759 -0.02262326 1.1986055e-38 306 257
-0.017300138 0.759 -0.02262326 1.189386e-38 307 257
-0.015969358 0.759 -0.02262326 1.1893857e-38 308 257
-0.014561433 0.755 -0.022504034 1.1893857e-38 309 257
-0.013220133 0.75400001 -0.022474226 1.1986409e-38 310 257
-0.01189812 0.75400001 -0.022474226 1.1986409e-38 311 257
-0.010590133 0.755 -0.022504034 1.2261916e-38 312 257
-0.0092663663 0.755 -0.022504034 1.2261916e-38 313 257
-0.0079425992 0.755 -0.022504034 1.2261563e-38 314 257
-0.0066100666 0.75400001 -0.022474226 1.2261563e-38 315 257
-0.0052880533 0.75400001 -0.022474226 1.2444885e-38 316 257
-0.00396604 0.75400001 -0.022474226 1.253744e-38 317 257
-0.0026440267 0.75400001 -0.022474226 1.2720752e-38 318 257
-0.0013185065 0.75199997 -0.022414612 1.2812949e-38 319 257
0 0.75199997 -0.022414612 1.2905142e-38 320 257
0.0013185065 0.75199997 -0.022414612 1.3089532e-38 321 257
0.00263 0.75 -0.022355 1.3181362e-38 322 257
0.003945 0.75 -0.022355 1.3273557e-38 323 257
0.0052529867 0.74900001 -0.022325192 1.3366106e-38 324 257
0.0065662335 0.74900001 -0.022325192 1.3366106e-38 325 257
0.0078584393 0.74699998 -0.022265578 1.3366822e-38 326 257
0.0091681797 0.74699998 -0.022265578 1.3459019e-38 327 257
0.010477919 0.74699998 -0.022265578 1.3458669e-38 328 257
0.011787659 0.74699998 -0.022265578 1.3550864e-38 329 257
0.013079867 0.74599999 -0.022235774 1.3733458e-38 330 257
0.014387853 0.74599999 -0.022235774 1.3733458e-38 331 257
0.015695838 0.74599999 -0.022235774 1.3916409e-38 332 257
0.016958239 0.74400002 -0.022176161 1.4100441e-38 333 257
0.018213626 0.74199998 -0.022116546 1.3916409e-38 334 257
0.019488299 0.741 -0.02208674 1.4100441e-38 335 257
0.020731414 0.73900002 -0.022027127 1.4010394e-38 336 257
0.022027127 0.73900002 -0.022027127 1.4102589e-38 337 257
0.023322839 0.73900002 -0.022027127 1.4470649e-38 338 257
0.024518613 0.736 -0.021937706 1.4747596e-38 339 257
0.025809066 0.736 -0.021937706 1.5023823e-38 340 257
0.02702588 0.73400003 -0.021878093 1.5023823e-38 341 257
0.028312827 0.73400003 -0.021878093 1.5116015e-38 342 257
0.029559445 0.73299998 -0.021848286 1.520857e-38 343 257
0.030844638 0.73299998 -0.021848286 1.5209287e-38 344 257
0.032042164 0.73100001 -0.021788673 1.5209287e-38 345 257
0.033323854 0.73100001 -0.021788673 1.530148e-38 346 257
0.034558199 0.73000002 -0.021758866 1.530148e-38 347 257
0.035739943 0.72799999 -0.021699252 1.5393315e-38 348 257
0.037016369 0.72799999 -0.021699252 1.5393315e-38 349 257
0.038240198 0.727 -0.021669446 1.5576981e-38 350 257
0.039406165 0.72500002 -0.021609833 1.5576981e-38 351 257
0.040565118 0.72299999 -0.021550218 1.576029e-38 352 257
0.041832779 0.72299999 -0.021550218 1.576029e-38 353 257
0.043040827 0.722 -0.021520413 1.5760646e-38 354 257
0.044306733 0.722 -0.021520413 1.5576256e-38 355 257
0.045446403 0.72000003 -0.021460801 1.5852839e-38 356 257
0.046643924 0.71899998 -0.021430992 1.622198e-38 357 257
0.04777132 0.71700001 -0.021371379 1.6590757e-38 358 257
0.048960082 0.71600002 -0.021341572 1.6867703e-38 359 257
0.050215468 0.71600002 -0.021341572 1.7328678e-38 360 257
0.051255193 0.713 -0.021252153 1.7420874e-38 361 257
0.052358042 0.71100003 -0.021192541 1.7696016e-38 362 257
0.053529263 0.70999998 -0.021162732 1.7788212e-38 363 257
0.054774132 0.70999998 -0.021162732 1.7697085e-38 364 257
0.056018997 0.70999998 -0.021162732 1.7789282e-38 365 257
0.057102561 0.708 -0.021103119 1.7972949e-38 366 257
0.058343921 0.708 -0.021103119 1.7972949e-38 367 257
