# .PCD v.7 - Point Cloud Data file format
FIELDS x y z rgb imX imY
SIZE 4 4 4 4 4 4
TYPE F F F F F F
COUNT 1 1 1 1 1 1
WIDTH 828
HEIGHT 1
VIEWPOINT 0 0 0 1 0 0 0
POINTS 828
DATA ascii
-0.076578587 0.71600002 -0.064024724 1.8432149e-38 259 291
-0.075323202 0.71600002 -0.064024724 1.861726e-38 260 291
-0.073860914 0.71399999 -0.063845873 1.861726e-38 261 291
-0.072609037 0.71399999 -0.063845873 1.8984607e-38 262 291
-0.071257219 0.713 -0.063756458 1.9076802e-38 263 291
-0.069810718 0.71100003 -0.063577622 1.935231e-38 264 291
-0.068564095 0.71100003 -0.063577622 1.9444506e-38 265 291
-0.067222796 0.70999998 -0.063488193 1.9536704e-38 266 291
-0.065977924 0.70999998 -0.063488193 1.9628901e-38 267 291
-0.064733058 0.70999998 -0.063488193 1.9813288e-38 268 291
-0.063488193 0.70999998 -0.063488193 1.9629257e-38 269 291
-0.062243331 0.70999998 -0.063488193 1.9720372e-38 270 291
-0.060998458 0.70999998 -0.063488193 1.9535622e-38 271 291
-0.059837762 0.71100003 -0.063577622 1.9351591e-38 272 291
-0.058591139 0.71100003 -0.063577622 1.9259396e-38 273 291
-0.057344519 0.71100003 -0.063577622 1.8891332e-38 274 291
-0.056097899 0.71100003 -0.063577622 1.8706941e-38 275 291
-0.054851279 0.71100003 -0.063577622 1.8339956e-38 276 291
-0.053604662 0.71100003 -0.063577622 1.8063371e-38 277 291
-0.052505318 0.713 -0.063756458 1.8061937e-38 278 291
-0.051111419 0.71100003 -0.063577622 1.7877906e-38 279 291
-0.049864799 0.71100003 -0.063577622 1.7047091e-38 280 291
-0.048618179 0.71100003 -0.063577622 1.6586113e-38 281 291
-0.047504812 0.713 -0.063756458 1.4748366e-38 282 291
-0.086081654 0.722 -0.065827139 1.4472839e-38 252 292
-0.084815748 0.722 -0.065827139 1.4104056e-38 253 292
-0.083318397 0.72000003 -0.065644801 1.6314177e-38 254 292
-0.081942029 0.71899998 -0.065553628 1.66826e-38 255 292
-0.080456957 0.71700001 -0.065371275 1.7235055e-38 256 292
-0.079089358 0.71600002 -0.06528011 1.751164e-38 257 292
-0.07761655 0.71399999 -0.065097757 1.7787508e-38 258 292
-0.076364681 0.71399999 -0.065097757 1.8248486e-38 259 292
-0.075112797 0.71399999 -0.065097757 1.8340679e-38 260 292
-0.07375747 0.713 -0.065006584 1.8617266e-38 261 292
-0.072303966 0.71100003 -0.064824238 1.8709096e-38 262 292
-0.071057342 0.71100003 -0.064824238 1.8985323e-38 263 292
-0.069712527 0.70999998 -0.064733058 1.9168995e-38 264 292
-0.068467662 0.70999998 -0.064733058 1.9445581e-38 265 292
-0.067033432 0.708 -0.06455072 1.9537427e-38 266 292
-0.065792084 0.708 -0.06455072 1.9537427e-38 267 292
-0.06455072 0.708 -0.06455072 1.9812932e-38 268 292
-0.063309364 0.708 -0.06455072 1.9628901e-38 269 292
-0.062068 0.708 -0.06455072 1.9811849e-38 270 292
-0.060998458 0.70999998 -0.064733058 1.9719654e-38 271 292
-0.059585281 0.708 -0.06455072 1.9535259e-38 272 292
-0.058343921 0.708 -0.06455072 1.9350509e-38 273 292
-0.057263866 0.70999998 -0.064733058 1.9074997e-38 274 292
-0.056018997 0.70999998 -0.064733058 1.8982802e-38 275 292
-0.054774132 0.70999998 -0.064733058 1.8707294e-38 276 292
-0.053529263 0.70999998 -0.064733058 1.8522903e-38 277 292
-0.052284397 0.70999998 -0.064733058 1.8246669e-38 278 292
-0.051039528 0.70999998 -0.064733058 1.8062278e-38 279 292
-0.049794663 0.70999998 -0.064733058 1.750805e-38 280 292
-0.048549797 0.70999998 -0.064733058 1.6862681e-38 281 292
-0.047371563 0.71100003 -0.064824238 1.5300454e-38 282 292
-0.085843205 0.72000003 -0.066907197 1.4381013e-38 252 293
-0.084580801 0.72000003 -0.066907197 1.3920035e-38 253 293
-0.083202675 0.71899998 -0.066814266 1.6130149e-38 254 293
-0.081942029 0.71899998 -0.066814266 1.6314899e-38 255 293
-0.080456957 0.71700001 -0.066628419 1.7233962e-38 256 293
-0.079089358 0.71600002 -0.066535495 1.751055e-38 257 293
-0.07761655 0.71399999 -0.066349633 1.8062643e-38 258 293
-0.076364681 0.71399999 -0.066349633 1.8247036e-38 259 293
-0.075007595 0.713 -0.066256717 1.8524345e-38 260 293
-0.073550582 0.71100003 -0.066070862 1.8524345e-38 261 293
-0.072303966 0.71100003 -0.066070862 1.8983882e-38 262 293
-0.070957392 0.70999998 -0.065977924 1.9260468e-38 263 293
-0.069712527 0.70999998 -0.065977924 1.935266e-38 264 293
-0.068274796 0.708 -0.065792084 1.9444856e-38 265 293
-0.066938758 0.70700002 -0.065699153 1.9261194e-38 266 293
-0.065699153 0.70700002 -0.065699153 1.9537422e-38 267 293
-0.064459547 0.70700002 -0.065699153 1.9628901e-38 268 293
-0.063219935 0.70700002 -0.065699153 1.9812932e-38 269 293
-0.061980337 0.70700002 -0.065699153 1.9536704e-38 270 293
-0.060826641 0.708 -0.065792084 1.9536704e-38 271 293
-0.059501119 0.70700002 -0.065699153 1.9352313e-38 272 293
-0.05826151 0.70700002 -0.065699153 1.9260117e-38 273 293
-0.057021905 0.70700002 -0.065699153 1.8891332e-38 274 293
-0.055861197 0.708 -0.065792084 1.8799136e-38 275 293
-0.054619838 0.708 -0.065792084 1.8523628e-38 276 293
-0.053378478 0.708 -0.065792084 1.8431433e-38 277 293
-0.052137118 0.708 -0.065792084 1.8338881e-38 278 293
-0.050895758 0.708 -0.065792084 1.8338881e-38 279 293
-0.049654398 0.708 -0.065792084 1.7600616e-38 280 293
-0.048413038 0.708 -0.065792084 1.7139637e-38 281 293
-0.047171678 0.708 -0.065792084 1.5486641e-38 282 293
-0.046060063 0.70999998 -0.065977924 1.613201e-38 283 293
-0.085127831 0.71399999 -0.067601517 1.4289544e-38 252 294
-0.083875954 0.71399999 -0.067601517 1.3644174e-38 253 294
-0.082855515 0.71600002 -0.067790881 1.6037602e-38 254 294
-0.08160013 0.71600002 -0.067790881 1.631419e-38 255 294
-0.080120318 0.71399999 -0.067601517 1.6774798e-38 256 294
-0.078868434 0.71399999 -0.067601517 1.7143581e-38 257 294
-0.07761655 0.71399999 -0.067601517 1.7695313e-38 258 294
-0.076043822 0.71100003 -0.067317478 1.8063736e-38 259 294
-0.074691996 0.70999998 -0.067222796 1.8248484e-38 260 294
-0.073447131 0.70999998 -0.067222796 1.8433234e-38 261 294
-0.072202265 0.70999998 -0.067222796 1.870874e-38 262 294
-0.070957392 0.70999998 -0.067222796 1.8985325e-38 263 294
-0.069516152 0.708 -0.067033432 1.9077521e-38 264 294
-0.068178371 0.70700002 -0.066938758 1.9169717e-38 265 294
-0.066844068 0.70599997 -0.066844068 1.9536707e-38 266 294
-0.065606222 0.70599997 -0.066844068 1.9628904e-38 267 294
-0.064368367 0.70599997 -0.066844068 1.9628904e-38 268 294
-0.063130513 0.70599997 -0.066844068 1.9628904e-38 269 294
-0.061892662 0.70599997 -0.066844068 1.9536704e-38 270 294
-0.060654808 0.70599997 -0.066844068 1.9536704e-38 271 294
-0.059416957 0.70599997 -0.066844068 1.9627455e-38 272 294
-0.058179103 0.70599997 -0.066844068 1.9443064e-38 273 294
-0.056941248 0.70599997 -0.066844068 1.9350863e-38 274 294
-0.055703394 0.70599997 -0.066844068 1.9074634e-38 275 294
-0.054465543 0.70599997 -0.066844068 1.8890606e-38 276 294
-0.053227689 0.70599997 -0.066844068 1.8614379e-38 277 294
-0.051989835 0.70599997 -0.066844068 1.8338513e-38 278 294
-0.050823875 0.70700002 -0.066938758 1.815412e-38 279 294
-0.049584266 0.70700002 -0.066938758 1.7969023e-38 280 294
-0.048344657 0.70700002 -0.066938758 1.7600599e-38 281 294
-0.047105055 0.70700002 -0.066938758 1.6036572e-38 282 294
-0.045930319 0.708 -0.067033432 1.6681941e-38 283 294
-0.086258732 0.713 -0.068756968 1.8437328e-38 251 295
-0.085127831 0.71399999 -0.068853401 1.4473577e-38 252 295
-0.083758481 0.713 -0.068756968 1.3644177e-38 253 295
-0.082508355 0.713 -0.068756968 1.5944331e-38 254 295
-0.08125823 0.713 -0.068756968 1.6129081e-38 255 295
-0.080008104 0.713 -0.068756968 1.7049212e-38 256 295
-0.078537062 0.71100003 -0.068564095 1.7326157e-38 257 295
-0.077290438 0.71100003 -0.068564095 1.7878965e-38 258 295
-0.075936861 0.70999998 -0.068467662 1.8155192e-38 259 295
-0.074691996 0.70999998 -0.068467662 1.8340304e-38 260 295
-0.073240235 0.708 -0.068274796 1.8432499e-38 261 295
-0.071897186 0.70700002 -0.068178371 1.8800206e-38 262 295
-0.070657574 0.70700002 -0.068178371 1.8984957e-38 263 295
-0.069319785 0.70599997 -0.06808193 1.9076446e-38 264 295
-0.06808193 0.70599997 -0.06808193 1.9261196e-38 265 295
-0.066844068 0.70599997 -0.06808193 1.9444155e-38 266 295
-0.065420374 0.704 -0.067889065 1.9536351e-38 267 295
-0.064186029 0.704 -0.067889065 1.9720019e-38 268 295
-0.062951677 0.704 -0.067889065 1.9812216e-38 269 295
-0.061717331 0.704 -0.067889065 1.9720372e-38 270 295
-0.060482983 0.704 -0.067889065 1.9720372e-38 271 295
-0.059248637 0.704 -0.067889065 1.9535976e-38 272 295
-0.058014292 0.704 -0.067889065 1.9535976e-38 273 295
-0.056779943 0.704 -0.067889065 1.9259746e-38 274 295
-0.055545598 0.704 -0.067889065 1.9075353e-38 275 295
-0.054465543 0.70599997 -0.06808193 1.8799489e-38 276 295
-0.053076904 0.704 -0.067889065 1.8615098e-38 277 295
-0.051842559 0.704 -0.067889065 1.8522903e-38 278 295
-0.050751984 0.70599997 -0.06808193 1.8246316e-38 279 295
-0.04951413 0.70599997 -0.06808193 1.8153773e-38 280 295
-0.048276275 0.70599997 -0.06808193 1.7876827e-38 281 295
-0.047038425 0.70599997 -0.06808193 1.6497183e-38 282 295
-0.04580057 0.70599997 -0.06808193 1.6865607e-38 283 295
-0.044562716 0.70599997 -0.06808193 1.6592676e-38 284 295
-0.086258732 0.713 -0.070007093 1.8162183e-38 251 296
-0.085127831 0.71399999 -0.070105277 1.4566852e-38 252 296
-0.083758481 0.713 -0.070007093 1.35527e-38 253 296
-0.082508355 0.713 -0.070007093 1.5484432e-38 254 296
-0.08125823 0.713 -0.070007093 1.5853215e-38 255 296
-0.080008104 0.713 -0.070007093 1.6498564e-38 256 296
-0.078537062 0.71100003 -0.069810718 1.6867347e-38 257 296
-0.077290438 0.71100003 -0.069810718 1.75102e-38 258 296
-0.075722955 0.708 -0.069516152 1.7878981e-38 259 296
-0.074481599 0.708 -0.069516152 1.8063727e-38 260 296
-0.073240235 0.708 -0.069516152 1.8339953e-38 261 296
-0.071897186 0.70700002 -0.069417976 1.85247e-38 262 296
-0.070557632 0.70599997 -0.069319785 1.8709093e-38 263 296
-0.069319785 0.70599997 -0.069319785 1.8984253e-38 264 296
-0.067889065 0.704 -0.06912341 1.9076449e-38 265 296
-0.066654719 0.704 -0.06912341 1.9259408e-38 266 296
-0.065420374 0.704 -0.06912341 1.9351963e-38 267 296
-0.064186029 0.704 -0.06912341 1.935196e-38 268 296
-0.062951677 0.704 -0.06912341 1.9444155e-38 269 296
-0.061629668 0.70300001 -0.069025226 1.9536701e-38 270 296
-0.06039707 0.70300001 -0.069025226 1.9444506e-38 271 296
-0.059164476 0.70300001 -0.069025226 1.9535973e-38 272 296
-0.057931885 0.70300001 -0.069025226 1.9351942e-38 273 296
-0.056699295 0.70300001 -0.069025226 1.9352295e-38 274 296
-0.055545598 0.704 -0.06912341 1.9260099e-38 275 296
-0.054311249 0.704 -0.06912341 1.879984e-38 276 296
-0.053001512 0.70300001 -0.069025226 1.8707644e-38 277 296
-0.051768921 0.70300001 -0.069025226 1.8615451e-38 278 296
-0.050536323 0.70300001 -0.069025226 1.8522897e-38 279 296
-0.049303733 0.70300001 -0.069025226 1.8246683e-38 280 296
-0.048139516 0.704 -0.06912341 1.8154486e-38 281 296
-0.046905171 0.704 -0.06912341 1.7234019e-38 282 296
-0.045670826 0.704 -0.06912341 1.7234019e-38 283 296
-0.044562716 0.70599997 -0.069319785 1.6224964e-38 284 296
-0.086258732 0.713 -0.071257219 1.7978521e-38 251 297
-0.085008614 0.713 -0.071257219 1.5120038e-38 252 297
-0.083523542 0.71100003 -0.071057342 1.3460877e-38 253 297
-0.082276918 0.71100003 -0.071057342 1.5206766e-38 254 297
-0.081030294 0.71100003 -0.071057342 1.575994e-38 255 297
-0.079671465 0.70999998 -0.070957392 1.6130498e-38 256 297
-0.0784266 0.70999998 -0.070957392 1.6499641e-38 257 297
-0.076964319 0.708 -0.070757516 1.7050662e-38 258 297
-0.07561601 0.70700002 -0.070657574 1.732725e-38 259 297
-0.074376404 0.70700002 -0.070657574 1.8061937e-38 260 297
-0.07303334 0.70599997 -0.070557632 1.8338884e-38 261 297
-0.071795486 0.70599997 -0.070557632 1.843143e-38 262 297
-0.070357755 0.704 -0.070357755 1.8708016e-38 263 297
-0.06912341 0.704 -0.070357755 1.8892055e-38 264 297
-0.067889065 0.704 -0.070357755 1.8984251e-38 265 297
-0.066560037 0.70300001 -0.070257813 1.9259761e-38 266 297
-0.065327443 0.70300001 -0.070257813 1.9259761e-38 267 297
-0.064094849 0.70300001 -0.070257813 1.9351957e-38 268 297
-0.062862262 0.70300001 -0.070257813 1.9444511e-38 269 297
-0.06145433 0.70099998 -0.070057929 1.9261194e-38 270 297
-0.060225245 0.70099998 -0.070057929 1.9445225e-38 271 297
-0.058996156 0.70099998 -0.070057929 1.9719648e-38 272 297
-0.057767071 0.70099998 -0.070057929 1.9719648e-38 273 297
-0.056537982 0.70099998 -0.070057929 1.9535613e-38 274 297
-0.055308893 0.70099998 -0.070057929 1.9443058e-38 275 297
-0.054234106 0.70300001 -0.070257813 1.9167903e-38 276 297
-0.053001512 0.70300001 -0.070257813 1.8983152e-38 277 297
-0.051768921 0.70300001 -0.070257813 1.8707644e-38 278 297
-0.050536323 0.70300001 -0.070257813 1.8615449e-38 279 297
-0.049303733 0.70300001 -0.070257813 1.8339588e-38 280 297
-0.048071139 0.70300001 -0.070257813 1.8247392e-38 281 297
-0.046838548 0.70300001 -0.070257813 1.7695332e-38 282 297
-0.04560595 0.70300001 -0.070257813 1.7510581e-38 283 297
-0.044436477 0.704 -0.070357755 1.6408616e-38 284 297
-0.043202132 0.704 -0.070357755 1.7330573e-38 285 297
-0.086258732 0.713 -0.072507344 1.7703013e-38 251 298
-0.085008614 0.713 -0.072507344 1.5488828e-38 252 298
-0.083523542 0.71100003 -0.072303966 1.3644555e-38 253 298
-0.082161188 0.70999998 -0.072202265 1.4652879e-38 254 298
-0.08091633 0.70999998 -0.072202265 1.5666671e-38 255 298
-0.079671465 0.70999998 -0.072202265 1.6037934e-38 256 298
-0.078205675 0.708 -0.071998879 1.6314881e-38 257 298
-0.076964319 0.708 -0.071998879 1.7049212e-38 258 298
-0.07561601 0.70700002 -0.071897186 1.7326157e-38 259 298
-0.074271195 0.70599997 -0.071795486 1.7786061e-38 260 298
-0.07303334 0.70599997 -0.071795486 1.8062646e-38 261 298
-0.071592107 0.704 -0.071592107 1.8339588e-38 262 298
-0.070357755 0.704 -0.071592107 1.8523979e-38 263 298
-0.06912341 0.704 -0.071592107 1.870801e-38 264 298
-0.067792632 0.70300001 -0.071490414 1.8800206e-38 265 298
-0.066560037 0.70300001 -0.071490414 1.9168272e-38 266 298
-0.065327443 0.70300001 -0.071490414 1.9260468e-38 267 298
-0.063912503 0.70099998 -0.071287021 1.9260112e-38 268 298
-0.062683418 0.70099998 -0.071287021 1.9352666e-38 269 298
-0.061366666 0.69999999 -0.071185328 1.9261194e-38 270 298
-0.060139328 0.69999999 -0.071185328 1.9445225e-38 271 298
-0.058911994 0.69999999 -0.071185328 1.972037e-38 272 298
-0.05768466 0.69999999 -0.071185328 1.9628174e-38 273 298
-0.056457333 0.69999999 -0.071185328 1.9535976e-38 274 298
-0.055229999 0.69999999 -0.071185328 1.9351944e-38 275 298
-0.054002665 0.69999999 -0.071185328 1.9259749e-38 276 298
-0.052775331 0.69999999 -0.071185328 1.9074997e-38 277 298
-0.051547997 0.69999999 -0.071185328 1.8708013e-38 278 298
-0.050320663 0.69999999 -0.071185328 1.8708013e-38 279 298
-0.049163464 0.70099998 -0.071287021 1.8432149e-38 280 298
-0.047934376 0.70099998 -0.071287021 1.8339953e-38 281 298
-0.046705291 0.70099998 -0.071287021 1.7787881e-38 282 298
-0.045476202 0.70099998 -0.071287021 1.7510934e-38 283 298
-0.044436477 0.704 -0.071592107 1.6866701e-38 284 298
-0.043202132 0.704 -0.071592107 1.8065244e-38 285 298
-0.086258732 0.713 -0.07375747 1.7701927e-38 251 299
-0.085008614 0.713 -0.07375747 1.576506e-38 252 299
-0.083523542 0.71100003 -0.073550582 1.4013345e-38 253 299
-0.082161188 0.70999998 -0.073447131 1.4100438e-38 254 299
-0.08091633 0.70999998 -0.073447131 1.4838003e-38 255 299
-0.079671465 0.70999998 -0.073447131 1.5945388e-38 256 299
-0.078205675 0.708 -0.073240235 1.6222333e-38 257 299
-0.076855607 0.70700002 -0.073136792 1.6314175e-38 258 299
-0.075509049 0.70599997 -0.07303334 1.6775151e-38 259 299
-0.07406079 0.704 -0.072826453 1.686807e-38 260 299
-0.072826453 0.704 -0.072826453 1.7144657e-38 261 299
-0.071490414 0.70300001 -0.072723009 1.7971894e-38 262 299
-0.070257813 0.70300001 -0.072723009 1.8248839e-38 263 299
-0.069025226 0.70300001 -0.072723009 1.8524347e-38 264 299
-0.067599766 0.70099998 -0.072516106 1.8524347e-38 265 299
-0.066370681 0.70099998 -0.072516106 1.8892055e-38 266 299
-0.06486281 0.69800001 -0.072205767 1.8984251e-38 267 299
-0.063638985 0.69800001 -0.072205767 1.898497e-38 268 299
-0.062325738 0.69700003 -0.072102323 1.9077165e-38 269 299
-0.061103668 0.69700003 -0.072102323 1.8986051e-38 270 299
-0.05988159 0.69700003 -0.072102323 1.8986051e-38 271 299
-0.05865952 0.69700003 -0.072102323 1.9261547e-38 272 299
-0.057519849 0.69800001 -0.072205767 1.9169351e-38 273 299
-0.056296028 0.69800001 -0.072205767 1.9353016e-38 274 299
-0.0550722 0.69800001 -0.072205767 1.9260821e-38 275 299
-0.053848371 0.69800001 -0.072205767 1.9168269e-38 276 299
-0.052624546 0.69800001 -0.072205767 1.8984238e-38 277 299
-0.051400717 0.69800001 -0.072205767 1.8984238e-38 278 299
-0.050320663 0.69999999 -0.072412662 1.8892041e-38 279 299
-0.049093332 0.69999999 -0.072412662 1.8524698e-38 280 299
-0.047865998 0.69999999 -0.072412662 1.8340306e-38 281 299
-0.046638668 0.69999999 -0.072412662 1.83396e-38 282 299
-0.04541133 0.69999999 -0.072412662 1.7971176e-38 283 299
-0.044183996 0.69999999 -0.072412662 1.7418783e-38 284 299
-0.043140765 0.70300001 -0.072723009 1.8156348e-38 285 299
-0.085895792 0.70999998 -0.074691996 1.7793406e-38 251 300
-0.084650926 0.70999998 -0.074691996 1.5856904e-38 252 300
-0.083171122 0.708 -0.074481599 1.4381773e-38 253 300
-0.081929758 0.708 -0.074481599 1.4008974e-38 254 300
-0.08091633 0.70999998 -0.074691996 1.4561789e-38 255 300
-0.079447038 0.708 -0.074481599 1.5208549e-38 256 300
-0.07809522 0.70700002 -0.074376404 1.5669527e-38 257 300
-0.076855607 0.70700002 -0.074376404 1.6587873e-38 258 300
-0.075295143 0.704 -0.07406079 1.7048493e-38 259 300
-0.07406079 0.704 -0.07406079 1.7142116e-38 260 300
-0.072723009 0.70300001 -0.073955595 1.7326508e-38 261 300
-0.071490414 0.70300001 -0.073955595 1.7787486e-38 262 300
-0.070057929 0.70099998 -0.073745191 1.8064074e-38 263 300
-0.068828844 0.70099998 -0.073745191 1.8614026e-38 264 300
-0.067599766 0.70099998 -0.073745191 1.8890253e-38 265 300
-0.066086642 0.69800001 -0.073429599 1.8891338e-38 266 300
-0.06486281 0.69800001 -0.073429599 1.8983535e-38 267 300
-0.06354782 0.69700003 -0.073324397 1.91672e-38 268 300
-0.062236317 0.69599998 -0.073219195 1.9259396e-38 269 300
-0.061015997 0.69599998 -0.073219195 1.9260112e-38 270 300
-0.059795678 0.69599998 -0.073219195 1.9352666e-38 271 300
-0.058575355 0.69599998 -0.073219195 1.9261549e-38 272 300
-0.057355035 0.69599998 -0.073219195 1.9261549e-38 273 300
-0.056134716 0.69599998 -0.073219195 1.9169717e-38 274 300
-0.054914396 0.69599998 -0.073219195 1.9077521e-38 275 300
-0.053771228 0.69700003 -0.073324397 1.9077165e-38 276 300
-0.052549154 0.69700003 -0.073324397 1.8800938e-38 277 300
-0.051327083 0.69700003 -0.073324397 1.8800936e-38 278 300
-0.050176892 0.69800001 -0.073429599 1.8616543e-38 279 300
-0.048953064 0.69800001 -0.073429599 1.8158442e-38 280 300
-0.047729239 0.69800001 -0.073429599 1.8065887e-38 281 300
-0.046505414 0.69800001 -0.073429599 1.8248133e-38 282 300
-0.045281585 0.69800001 -0.073429599 1.8155938e-38 283 300
-0.04405776 0.69800001 -0.073429599 1.7879389e-38 284 300
-0.043140765 0.70300001 -0.073955595 1.7971584e-38 285 300
-0.041908171 0.70300001 -0.073955595 1.6964331e-38 286 300
-0.085895792 0.70999998 -0.075936861 1.7425347e-38 251 301
-0.084650926 0.70999998 -0.075936861 1.604202e-38 252 301
-0.083171122 0.708 -0.075722955 1.4659086e-38 253 301
-0.081929758 0.708 -0.075722955 1.4100814e-38 254 301
-0.080688395 0.708 -0.075722955 1.4469595e-38 255 301
-0.079447038 0.708 -0.075722955 1.4840142e-38 256 301
-0.07809522 0.70700002 -0.07561601 1.5300761e-38 257 301
-0.076855607 0.70700002 -0.07561601 1.5944316e-38 258 301
-0.075295143 0.704 -0.075295143 1.6313097e-38 259 301
-0.073955595 0.70300001 -0.07518819 1.6681508e-38 260 301
-0.072516106 0.70099998 -0.074974284 1.7050649e-38 261 301
-0.071287021 0.70099998 -0.074974284 1.7235055e-38 262 301
-0.069957994 0.69999999 -0.07486733 1.7603836e-38 263 301
-0.068730667 0.69999999 -0.07486733 1.7970472e-38 264 301
-0.067503333 0.69999999 -0.07486733 1.8339253e-38 265 301
-0.066086642 0.69800001 -0.074653424 1.8706956e-38 266 301
-0.064769886 0.69700003 -0.074546471 1.8706956e-38 267 301
-0.063456632 0.69599998 -0.074439511 1.9074294e-38 268 301
-0.06205748 0.69400001 -0.074225612 1.916685e-38 269 301
-0.060840666 0.69400001 -0.074225612 1.9076449e-38 270 301
-0.059623852 0.69400001 -0.074225612 1.9168645e-38 271 301
-0.058407038 0.69400001 -0.074225612 1.9077165e-38 272 301
-0.057190225 0.69400001 -0.074225612 1.916972e-38 273 301
-0.055973411 0.69400001 -0.074225612 1.9261549e-38 274 301
-0.054756597 0.69400001 -0.074225612 1.9168995e-38 275 301
-0.053539783 0.69400001 -0.074225612 1.9168995e-38 276 301
-0.052473757 0.69599998 -0.074439511 1.8984604e-38 277 301
-0.051253434 0.69599998 -0.074439511 1.8892405e-38 278 301
-0.050105009 0.69700003 -0.074546471 1.8892405e-38 279 301
-0.048882935 0.69700003 -0.074546471 1.861654e-38 280 301
-0.047660861 0.69700003 -0.074546471 1.8524345e-38 281 301
-0.046438783 0.69700003 -0.074546471 1.8707306e-38 282 301
-0.045216713 0.69700003 -0.074546471 1.8523275e-38 283 301
-0.043994639 0.69700003 -0.074546471 1.824743e-38 284 301
-0.042772565 0.69700003 -0.074546471 1.8063038e-38 285 301
-0.084650926 0.70999998 -0.077181734 1.6041664e-38 252 302
-0.083406061 0.70999998 -0.077181734 1.484348e-38 253 302
-0.082161188 0.70999998 -0.077181734 1.400899e-38 254 302
-0.080688395 0.708 -0.076964319 1.4193381e-38 255 302
-0.079447038 0.708 -0.076964319 1.4837989e-38 256 302
-0.07809522 0.70700002 -0.076855607 1.5298967e-38 257 302
-0.076746903 0.70599997 -0.076746903 1.530147e-38 258 302
-0.075295143 0.704 -0.076529488 1.5669893e-38 259 302
-0.073955595 0.70300001 -0.076420791 1.6405643e-38 260 302
-0.072516106 0.70099998 -0.076203369 1.668259e-38 261 302
-0.071287021 0.70099998 -0.076203369 1.732616e-38 262 302
-0.069957994 0.69999999 -0.076094657 1.7510553e-38 263 302
-0.068534292 0.69800001 -0.075877249 1.815377e-38 264 302
-0.06731046 0.69800001 -0.075877249 1.8338162e-38 265 302
-0.06599196 0.69700003 -0.075768545 1.8705869e-38 266 302
-0.064769886 0.69700003 -0.075768545 1.8890259e-38 267 302
-0.063274294 0.69400001 -0.075442426 1.8982451e-38 268 302
-0.061968062 0.69300002 -0.075333714 1.8982451e-38 269 302
-0.060752999 0.69300002 -0.075333714 1.8892055e-38 270 302
-0.05953794 0.69300002 -0.075333714 1.9076446e-38 271 302
-0.058322877 0.69300002 -0.075333714 1.916972e-38 272 302
-0.057107817 0.69300002 -0.075333714 1.916972e-38 273 302
-0.055892758 0.69300002 -0.075333714 1.916972e-38 274 302
-0.054677699 0.69300002 -0.075333714 1.916972e-38 275 302
-0.053539783 0.69400001 -0.075442426 1.935231e-38 276 302
-0.052322973 0.69400001 -0.075442426 1.9167919e-38 277 302
-0.051106159 0.69400001 -0.075442426 1.8984604e-38 278 302
-0.049889345 0.69400001 -0.075442426 1.8892408e-38 279 302
-0.048672531 0.69400001 -0.075442426 1.870874e-38 280 302
-0.047455717 0.69400001 -0.075442426 1.8616543e-38 281 302
-0.046238903 0.69400001 -0.075442426 1.852435e-38 282 302
-0.045022093 0.69400001 -0.075442426 1.8431796e-38 283 302
-0.043805279 0.69400001 -0.075442426 1.8248136e-38 284 302
-0.042588469 0.69400001 -0.075442426 1.8155582e-38 285 302
-0.082701221 0.704 -0.077763841 1.5118636e-38 253 303
-0.081466876 0.704 -0.077763841 1.4285944e-38 254 303
-0.080460466 0.70599997 -0.07798475 1.4009715e-38 255 303
-0.079334825 0.70700002 -0.07809522 1.4377378e-38 256 303
-0.07798475 0.70599997 -0.07798475 1.4746161e-38 257 303
-0.076529488 0.704 -0.077763841 1.4840858e-38 258 303
-0.07518819 0.70300001 -0.077653378 1.5301836e-38 259 303
-0.073745191 0.70099998 -0.077432454 1.6220545e-38 260 303
-0.072516106 0.70099998 -0.077432454 1.6497492e-38 261 303
-0.071185328 0.69999999 -0.077321991 1.714106e-38 262 303
-0.069758117 0.69800001 -0.077101074 1.7325451e-38 263 303
-0.068534292 0.69800001 -0.077101074 1.787683e-38 264 303
-0.067214034 0.69700003 -0.076990619 1.8153417e-38 265 303
-0.065897278 0.69599998 -0.076880157 1.8429283e-38 266 303
-0.064491108 0.69400001 -0.07665924 1.8613676e-38 267 303
-0.063183114 0.69300002 -0.076548778 1.8705869e-38 268 303
-0.061789215 0.69099998 -0.076327853 1.8890259e-38 269 303
-0.060577665 0.69099998 -0.076327853 1.8799861e-38 270 303
-0.05953794 0.69300002 -0.076548778 1.8984253e-38 271 303
-0.058322877 0.69300002 -0.076548778 1.9168645e-38 272 303
-0.056942999 0.69099998 -0.076327853 1.9168645e-38 273 303
-0.055731449 0.69099998 -0.076327853 1.916972e-38 274 303
-0.054519895 0.69099998 -0.076327853 1.9077165e-38 275 303
-0.053308345 0.69099998 -0.076327853 1.935231e-38 276 303
-0.052096792 0.69099998 -0.076327853 1.9167919e-38 277 303
-0.050885238 0.69099998 -0.076327853 1.9168272e-38 278 303
-0.049817458 0.69300002 -0.076548778 1.9168272e-38 279 303
-0.048602402 0.69300002 -0.076548778 1.8892052e-38 280 303
-0.047387339 0.69300002 -0.076548778 1.8892052e-38 281 303
-0.046039023 0.69099998 -0.076327853 1.8799858e-38 282 303
-0.044827472 0.69099998 -0.076327853 1.8707662e-38 283 303
-0.043552797 0.69 -0.076217398 1.8431448e-38 284 303
-0.042342998 0.69 -0.076217398 1.8431448e-38 285 303
-0.041133199 0.69 -0.076217398 1.8339289e-38 286 303
-0.082701221 0.704 -0.078998186 1.5027522e-38 253 304
-0.081466876 0.704 -0.078998186 1.4379943e-38 254 304
-0.080232531 0.704 -0.078998186 1.382677e-38 255 304
-0.078998186 0.704 -0.078998186 1.4009675e-38 256 304
-0.077763841 0.704 -0.078998186 1.4285902e-38 257 304
-0.076420791 0.70300001 -0.078885972 1.4655748e-38 258 304
-0.074974284 0.70099998 -0.078661539 1.520892e-38 259 304
-0.073745191 0.70099998 -0.078661539 1.6219832e-38 260 304
-0.072412662 0.69999999 -0.078549333 1.6588256e-38 261 304
-0.071185328 0.69999999 -0.078549333 1.6865202e-38 262 304
-0.069758117 0.69800001 -0.078324907 1.7049593e-38 263 304
-0.068436109 0.69700003 -0.078212693 1.750877e-38 264 304
-0.067117594 0.69599998 -0.078100473 1.7785357e-38 265 304
-0.065897278 0.69599998 -0.078100473 1.8336729e-38 266 304
-0.064491108 0.69400001 -0.077876054 1.852148e-38 267 304
-0.063000768 0.69099998 -0.077539407 1.8522196e-38 268 304
-0.061789215 0.69099998 -0.077539407 1.8706588e-38 269 304
-0.060577665 0.69099998 -0.077539407 1.8799861e-38 270 304
-0.059366114 0.69099998 -0.077539407 1.8892058e-38 271 304
-0.058154557 0.69099998 -0.077539407 1.8984616e-38 272 304
-0.0568606 0.69 -0.077427194 1.9077171e-38 273 304
-0.055650797 0.69 -0.077427194 1.9077168e-38 274 304
-0.054440998 0.69 -0.077427194 1.9169364e-38 275 304
-0.053231198 0.69 -0.077427194 1.9168995e-38 276 304
-0.052021399 0.69 -0.077427194 1.9076799e-38 277 304
-0.050811596 0.69 -0.077427194 1.9260465e-38 278 304
-0.049673684 0.69099998 -0.077539407 1.9168269e-38 279 304
-0.04846213 0.69099998 -0.077539407 1.8984604e-38 280 304
-0.047250576 0.69099998 -0.077539407 1.8892408e-38 281 304
-0.046039023 0.69099998 -0.077539407 1.8799858e-38 282 304
-0.044827472 0.69099998 -0.077539407 1.8799858e-38 283 304
-0.043552797 0.69 -0.077427194 1.8707306e-38 284 304
-0.042342998 0.69 -0.077427194 1.8523275e-38 285 304
-0.041133199 0.69 -0.077427194 1.8432176e-38 286 304
-0.082701221 0.704 -0.080232531 1.5027885e-38 253 305
-0.081466876 0.704 -0.080232531 1.4472508e-38 254 305
-0.080232531 0.704 -0.080232531 1.3827139e-38 255 305
-0.078998186 0.704 -0.080232531 1.3824929e-38 256 305
-0.077763841 0.704 -0.080232531 1.3732733e-38 257 305
-0.076420791 0.70300001 -0.080118567 1.3919627e-38 258 305
-0.074974284 0.70099998 -0.079890631 1.4657192e-38 259 305
-0.073639996 0.69999999 -0.079776667 1.5942887e-38 260 305
-0.072102323 0.69700003 -0.079434767 1.6219832e-38 261 305
-0.070880257 0.69700003 -0.079434767 1.686375e-38 262 305
-0.069658175 0.69700003 -0.079434767 1.7140338e-38 263 305
-0.068337917 0.69599998 -0.079320796 1.7692069e-38 264 305
-0.066924736 0.69400001 -0.079092868 1.7876461e-38 265 305
-0.065707922 0.69400001 -0.079092868 1.8244168e-38 266 305
-0.06421233 0.69099998 -0.078750968 1.8428559e-38 267 305
-0.063000768 0.69099998 -0.078750968 1.8338162e-38 268 305
-0.061699796 0.69 -0.078636996 1.8614748e-38 269 305
-0.060489997 0.69 -0.078636996 1.8523628e-38 270 305
-0.059280202 0.69 -0.078636996 1.870766e-38 271 305
-0.058070395 0.69 -0.078636996 1.8984607e-38 272 305
-0.0568606 0.69 -0.078636996 1.9076802e-38 273 305
-0.055489492 0.68800002 -0.078409068 1.9169001e-38 274 305
-0.054283202 0.68800002 -0.078409068 1.9169001e-38 275 305
-0.053076908 0.68800002 -0.078409068 1.9168995e-38 276 305
-0.051870614 0.68800002 -0.078409068 1.9168995e-38 277 305
-0.050664321 0.68800002 -0.078409068 1.9168995e-38 278 305
-0.049386136 0.68699998 -0.078295097 1.9076799e-38 279 305
-0.048181597 0.68699998 -0.078295097 1.8985323e-38 280 305
-0.047045439 0.68800002 -0.078409068 1.8709096e-38 281 305
-0.045972396 0.69 -0.078636996 1.8892052e-38 282 305
-0.044632856 0.68800002 -0.078409068 1.8799855e-38 283 305
-0.043426562 0.68800002 -0.078409068 1.8523997e-38 284 305
-0.042220265 0.68800002 -0.078409068 1.8523997e-38 285 305
-0.041013971 0.68800002 -0.078409068 1.8522928e-38 286 305
-0.0399234 0.69 -0.078636996 1.8338178e-38 287 305
-0.082583755 0.70300001 -0.081351154 1.5211556e-38 253 306
-0.081351154 0.70300001 -0.081351154 1.4288843e-38 254 306
-0.080118567 0.70300001 -0.081351154 1.39197e-38 255 306
-0.078885972 0.70300001 -0.081351154 1.4101889e-38 256 306
-0.077653378 0.70300001 -0.081351154 1.3917139e-38 257 306
-0.076420791 0.70300001 -0.081351154 1.3917479e-38 258 306
-0.074546471 0.69700003 -0.080656841 1.4562849e-38 259 306
-0.073324397 0.69700003 -0.080656841 1.5116003e-38 260 306
-0.072102323 0.69700003 -0.080656841 1.5576981e-38 261 306
-0.070880257 0.69700003 -0.080656841 1.6771198e-38 262 306
-0.069558233 0.69599998 -0.080541112 1.695595e-38 263 306
-0.068141542 0.69400001 -0.080309682 1.7048508e-38 264 306
-0.066924736 0.69400001 -0.080309682 1.7325454e-38 265 306
-0.06561324 0.69300002 -0.080193959 1.7509496e-38 266 306
-0.06421233 0.69099998 -0.079962514 1.7693527e-38 267 306
-0.062909603 0.69 -0.079846799 1.7970474e-38 268 306
-0.061699796 0.69 -0.079846799 1.8154866e-38 269 306
-0.060314666 0.68800002 -0.079615362 1.824813e-38 270 306
-0.059108373 0.68800002 -0.079615362 1.8340685e-38 271 306
-0.057817914 0.68699998 -0.079499632 1.843288e-38 272 306
-0.056613375 0.68699998 -0.079499632 1.8616913e-38 273 306
-0.055408835 0.68699998 -0.079499632 1.8984616e-38 274 306
-0.054204296 0.68699998 -0.079499632 1.8984616e-38 275 306
-0.052999757 0.68699998 -0.079499632 1.8984972e-38 276 306
-0.051795214 0.68699998 -0.079499632 1.9077168e-38 277 306
-0.050590675 0.68699998 -0.079499632 1.9076802e-38 278 306
-0.049314249 0.68599999 -0.079383917 1.9076802e-38 279 306
-0.048111461 0.68599999 -0.079383917 1.8984601e-38 280 306
-0.046977058 0.68699998 -0.079499632 1.8892405e-38 281 306
-0.045839146 0.68800002 -0.079615362 1.9167197e-38 282 306
-0.044632856 0.68800002 -0.079615362 1.9075e-38 283 306
-0.043363437 0.68699998 -0.079499632 1.8891338e-38 284 306
-0.042158898 0.68699998 -0.079499632 1.8799142e-38 285 306
-0.040954359 0.68699998 -0.079499632 1.8706593e-38 286 306
-0.039807681 0.68800002 -0.079615362 1.8706593e-38 287 306
-0.038545277 0.68699998 -0.079499632 1.8062685e-38 288 306
-0.037340738 0.68699998 -0.079499632 1.8062685e-38 289 306
-0.081351154 0.70300001 -0.082583755 1.4288137e-38 254 307
-0.080118567 0.70300001 -0.082583755 1.3919353e-38 255 307
-0.078885972 0.70300001 -0.082583755 1.4193378e-38 256 307
-0.077653378 0.70300001 -0.082583755 1.4008987e-38 257 307
-0.076420791 0.70300001 -0.082583755 1.4375583e-38 258 307
-0.074439511 0.69599998 -0.081761435 1.4559974e-38 259 307
-0.073219195 0.69599998 -0.081761435 1.4655395e-38 260 307
-0.072102323 0.69700003 -0.081878915 1.5300764e-38 261 307
-0.070778556 0.69599998 -0.081761435 1.6953429e-38 262 307
-0.069558233 0.69599998 -0.081761435 1.7045624e-38 263 307
-0.068141542 0.69400001 -0.081526496 1.7139245e-38 264 307
-0.066924736 0.69400001 -0.081526496 1.7323638e-38 265 307
-0.065423876 0.69099998 -0.081174068 1.7691347e-38 266 307
-0.064119399 0.69 -0.081056595 1.8152325e-38 267 307
-0.062909603 0.69 -0.081056595 1.7786429e-38 268 307
-0.06152096 0.68800002 -0.080821648 1.8063376e-38 269 307
-0.060226995 0.68699998 -0.080704175 1.8431083e-38 270 307
-0.059022456 0.68699998 -0.080704175 1.8431083e-38 271 307
-0.057733759 0.68599999 -0.080586702 1.8799142e-38 272 307
-0.056530971 0.68599999 -0.080586702 1.8799142e-38 273 307
-0.055328183 0.68599999 -0.080586702 1.8799855e-38 274 307
-0.054125395 0.68599999 -0.080586702 1.8892052e-38 275 307
-0.05292261 0.68599999 -0.080586702 1.9259396e-38 276 307
-0.051719822 0.68599999 -0.080586702 1.9351591e-38 277 307
-0.050517038 0.68599999 -0.080586702 1.9260115e-38 278 307
-0.049170479 0.68400002 -0.080351762 1.9260115e-38 279 307
-0.0479712 0.68400002 -0.080351762 1.9076802e-38 280 307
-0.046908677 0.68599999 -0.080586702 1.8984607e-38 281 307
-0.045705888 0.68599999 -0.080586702 1.8983535e-38 282 307
-0.044567976 0.68699998 -0.080704175 1.8891338e-38 283 307
-0.043363437 0.68699998 -0.080704175 1.8707309e-38 284 307
-0.042158898 0.68699998 -0.080704175 1.8707309e-38 285 307
-0.040954359 0.68699998 -0.080704175 1.8522922e-38 286 307
-0.039807681 0.68800002 -0.080821648 1.8522922e-38 287 307
-0.038545277 0.68699998 -0.080704175 1.83389e-38 288 307
-0.037340738 0.68699998 -0.080704175 1.8431095e-38 289 307
-0.036136195 0.68699998 -0.080704175 1.7788289e-38 290 307
-0.077653378 0.70300001 -0.083816342 1.4100832e-38 257 308
-0.075768545 0.69700003 -0.083100989 1.4100088e-38 258 308
-0.074439511 0.69599998 -0.082981758 1.4192284e-38 259 308
-0.073219195 0.69599998 -0.082981758 1.3918927e-38 260 308
-0.072102323 0.69700003 -0.083100989 1.4656492e-38 261 308
-0.070778556 0.69599998 -0.082981758 1.6402791e-38 262 308
-0.069558233 0.69599998 -0.082981758 1.6402791e-38 263 308
-0.068141542 0.69400001 -0.082743309 1.6495693e-38 264 308
-0.06663543 0.69099998 -0.082385622 1.6772281e-38 265 308
-0.065329194 0.69 -0.082266398 1.7323303e-38 266 308
-0.063933544 0.68800002 -0.082027942 1.7415498e-38 267 308
-0.062636077 0.68699998 -0.081908718 1.7508414e-38 268 308
-0.061431535 0.68699998 -0.081908718 1.7877556e-38 269 308
-0.060139328 0.68599999 -0.081789486 1.8153784e-38 270 308
-0.058936544 0.68599999 -0.081789486 1.8246338e-38 271 308
-0.057565439 0.68400002 -0.081551038 1.8338534e-38 272 308
-0.056366164 0.68400002 -0.081551038 1.8430729e-38 273 308
-0.055166878 0.68400002 -0.081551038 1.8431801e-38 274 308
-0.053967599 0.68400002 -0.081551038 1.8523997e-38 275 308
-0.05276832 0.68400002 -0.081551038 1.8799508e-38 276 308
-0.051569041 0.68400002 -0.081551038 1.8891705e-38 277 308
-0.05029612 0.68300003 -0.081431814 1.9076096e-38 278 308
-0.049098592 0.68300003 -0.081431814 1.9076096e-38 279 308
-0.047901068 0.68300003 -0.081431814 1.9167569e-38 280 308
-0.046771921 0.68400002 -0.081551038 1.8983179e-38 281 308
-0.045572639 0.68400002 -0.081551038 1.9074294e-38 282 308
-0.044503104 0.68599999 -0.081789486 1.9074294e-38 283 308
-0.043300316 0.68599999 -0.081789486 1.8707312e-38 284 308
-0.042097531 0.68599999 -0.081789486 1.8707312e-38 285 308
-0.040894743 0.68599999 -0.081789486 1.8522922e-38 286 308
-0.039749816 0.68699998 -0.081908718 1.8522922e-38 287 308
-0.038545277 0.68699998 -0.081908718 1.8430727e-38 288 308
-0.037340738 0.68699998 -0.081908718 1.8430727e-38 289 308
-0.036136195 0.68699998 -0.081908718 1.7786822e-38 290 308
-0.034931656 0.68699998 -0.081908718 1.7971572e-38 291 308
-0.075659841 0.69599998 -0.084202074 1.4008974e-38 258 309
-0.074439511 0.69599998 -0.084202074 1.3824223e-38 259 309
-0.073219195 0.69599998 -0.084202074 1.3458666e-38 260 309
-0.071998879 0.69599998 -0.084202074 1.4011838e-38 261 309
-0.070778556 0.69599998 -0.084202074 1.5390797e-38 262 309
-0.069358356 0.69400001 -0.083960123 1.5851417e-38 263 309
-0.068043359 0.69300002 -0.083839141 1.6402776e-38 264 309
-0.06663543 0.69099998 -0.083597176 1.6587167e-38 265 309
-0.065139838 0.68800002 -0.083234236 1.704599e-38 266 309
-0.06384062 0.68699998 -0.083113261 1.7322937e-38 267 309
-0.062544905 0.68599999 -0.082992278 1.741657e-38 268 309
-0.061342116 0.68599999 -0.082992278 1.7600963e-38 269 309
-0.060139328 0.68599999 -0.082992278 1.8060502e-38 270 309
-0.058764715 0.68400002 -0.082750313 1.8336729e-38 271 309
-0.057565439 0.68400002 -0.082750313 1.8246688e-38 272 309
-0.056366164 0.68400002 -0.082750313 1.8246688e-38 273 309
-0.055166878 0.68400002 -0.082750313 1.8522194e-38 274 309
-0.053888701 0.68300003 -0.082629345 1.8522194e-38 275 309
-0.052691177 0.68300003 -0.082629345 1.8705518e-38 276 309
-0.051418249 0.68199998 -0.082508355 1.888955e-38 277 309
-0.050222475 0.68199998 -0.082508355 1.8891354e-38 278 309
-0.049026705 0.68199998 -0.082508355 1.898355e-38 279 309
-0.047830928 0.68199998 -0.082508355 1.9166862e-38 280 309
-0.046635158 0.68199998 -0.082508355 1.8982831e-38 281 309
-0.045439381 0.68199998 -0.082508355 1.8982104e-38 282 309
-0.044308487 0.68300003 -0.082629345 1.888955e-38 283 309
-0.043110959 0.68300003 -0.082629345 1.8706593e-38 284 309
-0.041913435 0.68300003 -0.082629345 1.8614039e-38 285 309
-0.040775519 0.68400002 -0.082750313 1.8430729e-38 286 309
-0.03957624 0.68400002 -0.082750313 1.8430729e-38 287 309
-0.038376961 0.68400002 -0.082750313 1.8430727e-38 288 309
-0.037177678 0.68400002 -0.082750313 1.8338531e-38 289 309
-0.035978399 0.68400002 -0.082750313 1.8154866e-38 290 309
-0.03477912 0.68400002 -0.082750313 1.8154866e-38 291 309
-0.033579841 0.68400002 -0.082750313 1.7602821e-38 292 309
-0.075659841 0.69599998 -0.085422389 1.3916788e-38 258 310
-0.074439511 0.69599998 -0.085422389 1.3732757e-38 259 310
-0.073219195 0.69599998 -0.085422389 1.3824573e-38 260 310
-0.071998879 0.69599998 -0.085422389 1.3824573e-38 261 310
-0.07057517 0.69400001 -0.085176937 1.4103296e-38 262 310
-0.069358356 0.69400001 -0.085176937 1.4840861e-38 263 310
-0.067846984 0.69099998 -0.08480873 1.6125479e-38 264 310
-0.066538997 0.69 -0.084685996 1.631023e-38 265 310
-0.065045156 0.68699998 -0.084317796 1.6494618e-38 266 310
-0.063747689 0.68599999 -0.084195063 1.6771204e-38 267 310
-0.062544905 0.68599999 -0.084195063 1.723146e-38 268 310
-0.061342116 0.68599999 -0.084195063 1.7415852e-38 269 310
-0.060139328 0.68599999 -0.084195063 1.7509119e-38 270 310
-0.058764715 0.68400002 -0.083949596 1.7693512e-38 271 310
-0.057481278 0.68300003 -0.08382687 1.7786782e-38 272 310
-0.056283753 0.68300003 -0.08382687 1.7786782e-38 273 310
-0.055086225 0.68300003 -0.08382687 1.8245965e-38 274 310
-0.053888701 0.68300003 -0.08382687 1.815377e-38 275 310
-0.052614026 0.68199998 -0.083704129 1.8428932e-38 276 310
-0.051418249 0.68199998 -0.083704129 1.8521127e-38 277 310
-0.050075196 0.68000001 -0.083458669 1.8338544e-38 278 310
-0.048882935 0.68000001 -0.083458669 1.8523294e-38 279 310
-0.047690667 0.68000001 -0.083458669 1.8798083e-38 280 310
-0.046498399 0.68000001 -0.083458669 1.889028e-38 281 310
-0.045306131 0.68000001 -0.083458669 1.870624e-38 282 310
-0.044113863 0.68000001 -0.083458669 1.8614044e-38 283 310
-0.043047838 0.68199998 -0.083704129 1.8521127e-38 284 310
-0.041852064 0.68199998 -0.083704129 1.8428932e-38 285 310
-0.040656291 0.68199998 -0.083704129 1.8337815e-38 286 310
-0.039460517 0.68199998 -0.083704129 1.8337815e-38 287 310
-0.038264744 0.68199998 -0.083704129 1.8337812e-38 288 310
-0.036960267 0.68000001 -0.083458669 1.8245615e-38 289 310
-0.035767999 0.68000001 -0.083458669 1.8245612e-38 290 310
-0.034575731 0.68000001 -0.083458669 1.8245612e-38 291 310
-0.033530746 0.68300003 -0.08382687 1.7969421e-38 292 310
-0.032333218 0.68300003 -0.08382687 1.8430039e-38 293 310
-0.075659841 0.69599998 -0.08664272 1.4101538e-38 258 311
-0.074439511 0.69599998 -0.08664272 1.3732757e-38 259 311
-0.073219195 0.69599998 -0.08664272 1.3916409e-38 260 311
-0.071998879 0.69599998 -0.08664272 1.3639463e-38 261 311
-0.07057517 0.69400001 -0.086393744 1.3641611e-38 262 311
-0.069358356 0.69400001 -0.086393744 1.4194785e-38 263 311
-0.067846984 0.69099998 -0.086020276 1.548119e-38 264 311
-0.066538997 0.69 -0.085895799 1.5942166e-38 265 311
-0.065045156 0.68699998 -0.085522331 1.6126559e-38 266 311
-0.063747689 0.68599999 -0.085397847 1.6403144e-38 267 311
-0.062544905 0.68599999 -0.085397847 1.6587536e-38 268 311
-0.061163284 0.68400002 -0.085148886 1.6771928e-38 269 311
-0.059964001 0.68400002 -0.085148886 1.6957392e-38 270 311
-0.05867881 0.68300003 -0.085024394 1.7233977e-38 271 311
-0.05739712 0.68199998 -0.084899902 1.7510202e-38 272 311
-0.056201346 0.68199998 -0.084899902 1.7510202e-38 273 311
-0.055005573 0.68199998 -0.084899902 1.7878262e-38 274 311
-0.053809796 0.68199998 -0.084899902 1.7785708e-38 275 311
-0.052459732 0.68000001 -0.084650926 1.824418e-38 276 311
-0.051267464 0.68000001 -0.084650926 1.8336734e-38 277 311
-0.050075196 0.68000001 -0.084650926 1.7969768e-38 278 311
-0.048811045 0.67900002 -0.084526442 1.8338549e-38 279 311
-0.047620531 0.67900002 -0.084526442 1.8705534e-38 280 311
-0.046430022 0.67900002 -0.084526442 1.8890285e-38 281 311
-0.045239504 0.67900002 -0.084526442 1.870624e-38 282 311
-0.044048995 0.67900002 -0.084526442 1.852149e-38 283 311
-0.042858478 0.67900002 -0.084526442 1.842928e-38 284 311
-0.041729335 0.68000001 -0.084650926 1.8244889e-38 285 311
-0.040537067 0.68000001 -0.084650926 1.8243814e-38 286 311
-0.039344799 0.68000001 -0.084650926 1.833601e-38 287 311
-0.038152531 0.68000001 -0.084650926 1.8243814e-38 288 311
-0.036905911 0.67900002 -0.084526442 1.8243814e-38 289 311
-0.035715401 0.67900002 -0.084526442 1.8244889e-38 290 311
-0.034524884 0.67900002 -0.084526442 1.8521477e-38 291 311
-0.033383466 0.68000001 -0.084650926 1.7970118e-38 292 311
-0.032191198 0.68000001 -0.084650926 1.8154868e-38 293 311
-0.030998932 0.68000001 -0.084650926 1.7235118e-38 294 311
-0.074439511 0.69599998 -0.087863036 1.3733138e-38 259 312
-0.073219195 0.69599998 -0.087863036 1.3823504e-38 260 312
-0.071998879 0.69599998 -0.087863036 1.3731308e-38 261 312
-0.07057517 0.69400001 -0.087610558 1.363945e-38 262 312
-0.069358356 0.69400001 -0.087610558 1.3915677e-38 263 312
-0.067846984 0.69099998 -0.087231837 1.4378085e-38 264 312
-0.066346131 0.68800002 -0.086853124 1.5023454e-38 265 312
-0.064950474 0.68599999 -0.086600631 1.6308428e-38 266 312
-0.063747689 0.68599999 -0.086600631 1.649282e-38 267 312
-0.062362559 0.68400002 -0.086348161 1.6586794e-38 268 312
-0.061163284 0.68400002 -0.086348161 1.6771186e-38 269 312
-0.059876334 0.68300003 -0.086221918 1.7048127e-38 270 312
-0.05867881 0.68300003 -0.086221918 1.7324713e-38 271 312
-0.05739712 0.68199998 -0.086095676 1.7508751e-38 272 312
-0.056201346 0.68199998 -0.086095676 1.7600946e-38 273 312
-0.055005573 0.68199998 -0.086095676 1.7693146e-38 274 312
-0.053809796 0.68199998 -0.086095676 1.7877177e-38 275 312
-0.052459732 0.68000001 -0.085843198 1.796866e-38 276 312
-0.051267464 0.68000001 -0.085843198 1.8060855e-38 277 312
-0.050001562 0.67900002 -0.085716955 1.8060149e-38 278 312
-0.048811045 0.67900002 -0.085716955 1.8428932e-38 279 312
-0.047620531 0.67900002 -0.085716955 1.8154866e-38 280 312
-0.046430022 0.67900002 -0.085716955 1.8338897e-38 281 312
-0.045172878 0.67799997 -0.085590713 1.8522925e-38 282 312
-0.043984115 0.67799997 -0.085590713 1.8338534e-38 283 312
-0.042795356 0.67799997 -0.085590713 1.8154123e-38 284 312
-0.041606598 0.67799997 -0.085590713 1.695558e-38 285 312
-0.040417835 0.67799997 -0.085590713 1.7412236e-38 286 312
-0.039229076 0.67799997 -0.085590713 1.6859062e-38 287 312
-0.038040318 0.67799997 -0.085590713 1.6951983e-38 288 312
-0.036742851 0.676 -0.085338242 1.7136375e-38 289 312
-0.035557602 0.676 -0.085338242 1.7048145e-38 290 312
-0.034474038 0.67799997 -0.085590713 1.7601319e-38 291 312
-0.033285279 0.67799997 -0.085590713 1.7785726e-38 292 312
-0.03209652 0.67799997 -0.085590713 1.7970118e-38 293 312
-0.030953348 0.67900002 -0.085716955 1.7693557e-38 294 312
-0.073219195 0.69599998 -0.089083351 1.4099721e-38 260 313
-0.071998879 0.69599998 -0.089083351 1.391533e-38 261 313
-0.07057517 0.69400001 -0.088827372 1.3822409e-38 262 313
-0.069058537 0.69099998 -0.088443391 1.3453986e-38 263 313
-0.067846984 0.69099998 -0.088443391 1.3456151e-38 264 313
-0.066346131 0.68800002 -0.088059418 1.4377747e-38 265 313
-0.064950474 0.68599999 -0.087803423 1.5206403e-38 266 313
-0.063747689 0.68599999 -0.087803423 1.5574826e-38 267 313
-0.062362559 0.68400002 -0.087547436 1.5943586e-38 268 313
-0.061073858 0.68300003 -0.087419443 1.6220533e-38 269 313
-0.059876334 0.68300003 -0.087419443 1.6404571e-38 270 313
-0.058592889 0.68199998 -0.087291449 1.6588961e-38 271 313
-0.05739712 0.68199998 -0.087291449 1.7048511e-38 272 313
-0.056036532 0.68000001 -0.087035462 1.7232902e-38 273 313
-0.054844268 0.68000001 -0.087035462 1.7325454e-38 274 313
-0.053652 0.68000001 -0.087035462 1.7325454e-38 275 313
-0.052459732 0.68000001 -0.087035462 1.7600963e-38 276 313
-0.051192071 0.67900002 -0.086907476 1.7600963e-38 277 313
-0.050001562 0.67900002 -0.086907476 1.7876126e-38 278 313
-0.048811045 0.67900002 -0.086907476 1.8060518e-38 279 313
-0.047550395 0.67799997 -0.086779475 1.7786456e-38 280 313
-0.046361636 0.67799997 -0.086779475 1.7970487e-38 281 313
-0.045172878 0.67799997 -0.086779475 1.8246338e-38 282 313
-0.043854371 0.676 -0.086523488 1.8153784e-38 283 313
-0.042669121 0.676 -0.086523488 1.8062278e-38 284 313
-0.041483864 0.676 -0.086523488 1.695593e-38 285 313
-0.040298611 0.676 -0.086523488 1.7409718e-38 286 313
-0.039113361 0.676 -0.086523488 1.6672153e-38 287 313
-0.037928104 0.676 -0.086523488 1.5937494e-38 288 313
-0.036742851 0.676 -0.086523488 1.6490668e-38 289 313
-0.035557602 0.676 -0.086523488 1.6216975e-38 290 313
-0.034372345 0.676 -0.086523488 1.6770147e-38 291 313
-0.033285279 0.67799997 -0.086779475 1.7048536e-38 292 313
-0.03209652 0.67799997 -0.086779475 1.7970134e-38 293 313
-0.030907756 0.67799997 -0.086779475 1.797049e-38 294 313
-0.029718997 0.67799997 -0.086779475 1.7601707e-38 295 313
-0.028530238 0.67799997 -0.086779475 1.7142199e-38 296 313
-0.071481638 0.69099998 -0.089654945 1.3640208e-38 261 314
-0.070270091 0.69099998 -0.089654945 1.3823128e-38 262 314
-0.069058537 0.69099998 -0.089654945 1.336215e-38 263 314
-0.067846984 0.69099998 -0.089654945 1.317739e-38 264 314
-0.066346131 0.68800002 -0.089265712 1.3730564e-38 265 314
-0.064950474 0.68599999 -0.089006208 1.4285889e-38 266 314
-0.063747689 0.68599999 -0.089006208 1.4746866e-38 267 314
-0.062362559 0.68400002 -0.088746719 1.557481e-38 268 314
-0.061073858 0.68300003 -0.088616975 1.5943591e-38 269 314
-0.059788663 0.68199998 -0.088487223 1.6403479e-38 270 314
-0.058592889 0.68199998 -0.088487223 1.6495675e-38 271 314
-0.057228796 0.68000001 -0.088227727 1.6863737e-38 272 314
-0.056036532 0.68000001 -0.088227727 1.704813e-38 273 314
-0.054844268 0.68000001 -0.088227727 1.7324359e-38 274 314
-0.053652 0.68000001 -0.088227727 1.7324359e-38 275 314
-0.052382588 0.67900002 -0.08809799 1.7599514e-38 276 314
-0.051116679 0.67799997 -0.08796823 1.7692069e-38 277 314
-0.049927916 0.67799997 -0.08796823 1.7783192e-38 278 314
-0.048739154 0.67799997 -0.08796823 1.805942e-38 279 314
-0.047550395 0.67799997 -0.08796823 1.7968307e-38 280 314
-0.046224877 0.676 -0.087708741 1.8336729e-38 281 314
-0.045039624 0.676 -0.087708741 1.8336734e-38 282 314
-0.043854371 0.676 -0.087708741 1.8428932e-38 283 314
-0.042669121 0.676 -0.087708741 1.8061221e-38 284 314
-0.041483864 0.676 -0.087708741 1.7600243e-38 285 314
-0.040298611 0.676 -0.087708741 1.7597346e-38 286 314
-0.039055496 0.67500001 -0.087578997 1.6214412e-38 287 314
-0.037871998 0.67500001 -0.087578997 1.5662324e-38 288 314
-0.036688499 0.67500001 -0.087578997 1.6030747e-38 289 314
-0.035505001 0.67500001 -0.087578997 1.5662705e-38 290 314
-0.034372345 0.676 -0.087708741 1.5847098e-38 291 314
-0.033187091 0.676 -0.087708741 1.5851069e-38 292 314
-0.032001842 0.676 -0.087708741 1.7049254e-38 293 314
-0.030816587 0.676 -0.087708741 1.7602779e-38 294 314
-0.029631332 0.676 -0.087708741 1.7510584e-38 295 314
-0.028530238 0.67799997 -0.08796823 1.7785019e-38 296 314
-0.027341479 0.67799997 -0.08796823 1.7692824e-38 297 314
-0.070270091 0.69099998 -0.090866491 1.3823481e-38 262 315
