# .PCD v.7 - Point Cloud Data file format
FIELDS x y z rgb imX imY
SIZE 4 4 4 4 4 4
TYPE F F F F F F
COUNT 1 1 1 1 1 1
WIDTH 830
HEIGHT 1
VIEWPOINT 0 0 0 1 0 0 0
POINTS 830
DATA ascii
-0.038766202 0.67000002 -0.038766202 1.8894572e-38 287 273
-0.037647571 0.671 -0.038824059 1.8802729e-38 288 273
-0.036471087 0.671 -0.038824059 1.8802729e-38 289 273
-0.0352946 0.671 -0.038824059 1.8803082e-38 290 273
-0.034067266 0.67000002 -0.038766202 1.8618693e-38 291 273
-0.032892533 0.67000002 -0.038766202 1.8894556e-38 292 273
-0.0317178 0.67000002 -0.038766202 1.8802361e-38 293 273
-0.030543067 0.67000002 -0.038766202 1.8802361e-38 294 273
-0.029280664 0.66799998 -0.038650475 1.8802361e-38 295 273
-0.028109439 0.66799998 -0.038650475 1.9077869e-38 296 273
-0.026938211 0.66799998 -0.038650475 1.9077869e-38 297 273
-0.025766984 0.66799998 -0.038650475 1.8894209e-38 298 273
-0.02459576 0.66799998 -0.038650475 1.8801654e-38 299 273
-0.023389466 0.667 -0.038592618 1.8433951e-38 300 273
-0.022219993 0.667 -0.038592618 1.7972973e-38 301 273
-0.08554513 0.69700003 -0.041550495 1.4010028e-38 250 274
-0.084323063 0.69700003 -0.041550495 1.4010028e-38 251 274
-0.083100989 0.69700003 -0.041550495 1.4010726e-38 252 274
-0.081761435 0.69599998 -0.041490879 1.3918529e-38 253 274
-0.080309682 0.69400001 -0.041371655 1.410255e-38 254 274
-0.079092868 0.69400001 -0.041371655 1.410255e-38 255 274
-0.077876054 0.69400001 -0.041371655 1.4194027e-38 256 274
-0.076548778 0.69300002 -0.041312039 1.4286222e-38 257 274
-0.075007595 0.69 -0.041133199 1.4103993e-38 258 274
-0.073583893 0.68800002 -0.041013971 1.456497e-38 259 274
-0.0723776 0.68800002 -0.041013971 1.5300374e-38 260 274
-0.071067855 0.68699998 -0.040954359 1.5576961e-38 261 274
-0.06955824 0.68400002 -0.040775519 1.5945738e-38 262 274
-0.068259016 0.68300003 -0.040715907 1.6314881e-38 263 274
-0.0669633 0.68199998 -0.040656291 1.6773704e-38 264 274
-0.065767527 0.68199998 -0.040656291 1.6865899e-38 265 274
-0.064571753 0.68199998 -0.040656291 1.7049568e-38 266 274
-0.063190132 0.68000001 -0.040537067 1.7233959e-38 267 274
-0.061997864 0.68000001 -0.040537067 1.7050649e-38 268 274
-0.060626756 0.67799997 -0.040417835 1.7234681e-38 269 274
-0.059262663 0.676 -0.040298611 1.732688e-38 270 274
-0.058077414 0.676 -0.040298611 1.7419076e-38 271 274
-0.056808002 0.67500001 -0.040238999 1.7603467e-38 272 274
-0.055542093 0.67400002 -0.040179387 1.7603467e-38 273 274
-0.054360349 0.67400002 -0.040179387 1.7787861e-38 274 274
-0.053257499 0.67500001 -0.040238999 1.7971894e-38 275 274
-0.051996857 0.67400002 -0.040179387 1.788078e-38 276 274
-0.050815105 0.67400002 -0.040179387 1.7972976e-38 277 274
-0.049633358 0.67400002 -0.040179387 1.8157007e-38 278 274
-0.048451614 0.67400002 -0.040179387 1.8157007e-38 279 274
-0.047129598 0.67199999 -0.040060159 1.8432152e-38 280 274
-0.045951359 0.67199999 -0.040060159 1.8524347e-38 281 274
-0.044773117 0.67199999 -0.040060159 1.8433231e-38 282 274
-0.043530006 0.671 -0.040000543 1.8617263e-38 283 274
-0.042290401 0.67000002 -0.039940935 1.8526144e-38 284 274
-0.041115668 0.67000002 -0.039940935 1.8526144e-38 285 274
-0.039821707 0.66799998 -0.039821707 1.8618342e-38 286 274
-0.038650475 0.66799998 -0.039821707 1.8618342e-38 287 274
-0.037591465 0.67000002 -0.039940935 1.8617989e-38 288 274
-0.036416732 0.67000002 -0.039940935 1.8617989e-38 289 274
-0.035241999 0.67000002 -0.039940935 1.8893856e-38 290 274
-0.033965573 0.66799998 -0.039821707 1.8893856e-38 291 274
-0.032794341 0.66799998 -0.039821707 1.8893856e-38 292 274
-0.0317178 0.67000002 -0.039940935 1.8893856e-38 293 274
-0.030543067 0.67000002 -0.039940935 1.8893853e-38 294 274
-0.029280664 0.66799998 -0.039821707 1.8986049e-38 295 274
-0.028109439 0.66799998 -0.039821707 1.8986404e-38 296 274
-0.027018867 0.67000002 -0.039940935 1.8986404e-38 297 274
-0.025766984 0.66799998 -0.039821707 1.8894928e-38 298 274
-0.02459576 0.66799998 -0.039821707 1.8894928e-38 299 274
-0.023389466 0.667 -0.039762091 1.8894928e-38 300 274
-0.02218668 0.66600001 -0.039702479 1.8894928e-38 301 274
-0.020955838 0.66399997 -0.039583251 1.8618698e-38 302 274
-0.019791625 0.66399997 -0.039583251 1.8802729e-38 303 274
-0.01044636 0.662 -0.039464023 1.7788992e-38 311 274
-0.009285653 0.662 -0.039464023 1.7788642e-38 312 274
-0.0081249457 0.662 -0.039464023 1.7788642e-38 313 274
-0.0069642398 0.662 -0.039464023 1.7696816e-38 314 274
-0.0058035329 0.662 -0.039464023 1.7696816e-38 315 274
-0.0046498398 0.66299999 -0.039523639 1.778938e-38 316 274
-0.0034926396 0.66399997 -0.039583251 1.8158163e-38 317 274
-0.0023284266 0.66399997 -0.039583251 1.7883396e-38 318 274
-0.08591333 0.69999999 -0.042956665 1.3918198e-38 250 275
-0.084444039 0.69800001 -0.042833932 1.3918198e-38 251 275
-0.083220214 0.69800001 -0.042833932 1.41022e-38 252 275
-0.081761435 0.69599998 -0.042711195 1.41022e-38 253 275
-0.080309682 0.69400001 -0.042588469 1.3918519e-38 254 275
-0.079092868 0.69400001 -0.042588469 1.410255e-38 255 275
-0.077876054 0.69400001 -0.042588469 1.3918882e-38 256 275
-0.076548778 0.69300002 -0.042527102 1.3918882e-38 257 275
-0.075007595 0.69 -0.042342998 1.382632e-38 258 275
-0.073583893 0.68800002 -0.042220265 1.4102547e-38 259 275
-0.07227239 0.68699998 -0.042158898 1.4655352e-38 260 275
-0.070964411 0.68599999 -0.042097531 1.4839744e-38 261 275
-0.06955824 0.68400002 -0.041974798 1.5392564e-38 262 275
-0.068259016 0.68300003 -0.041913435 1.5761347e-38 263 275
-0.0669633 0.68199998 -0.041852064 1.6037586e-38 264 275
-0.065767527 0.68199998 -0.041852064 1.6129782e-38 265 275
-0.064382397 0.68000001 -0.041729335 1.6498564e-38 266 275
-0.063097201 0.67900002 -0.041667968 1.659076e-38 267 275
-0.061906695 0.67900002 -0.041667968 1.6682234e-38 268 275
-0.060626756 0.67799997 -0.041606598 1.6866265e-38 269 275
-0.059262663 0.676 -0.041483864 1.6958819e-38 270 275
-0.057991501 0.67500001 -0.041422497 1.7051015e-38 271 275
-0.056723841 0.67400002 -0.041361131 1.7235411e-38 272 275
-0.055542093 0.67400002 -0.041361131 1.7235411e-38 273 275
-0.054360349 0.67400002 -0.041361131 1.7511284e-38 274 275
-0.053178601 0.67400002 -0.041361131 1.7511284e-38 275 275
-0.051842555 0.67199999 -0.041238401 1.7419814e-38 276 275
-0.050664317 0.67199999 -0.041238401 1.751237e-38 277 275
-0.049486078 0.67199999 -0.041238401 1.7787878e-38 278 275
-0.04830784 0.67199999 -0.041238401 1.7880074e-38 279 275
-0.047129598 0.67199999 -0.041238401 1.788043e-38 280 275
-0.045951359 0.67199999 -0.041238401 1.7972625e-38 281 275
-0.044706494 0.671 -0.041177034 1.8156654e-38 282 275
-0.043530006 0.671 -0.041177034 1.8248849e-38 283 275
-0.042164158 0.66799998 -0.040992931 1.8066612e-38 284 275
-0.040992931 0.66799998 -0.040992931 1.8158809e-38 285 275
-0.039821707 0.66799998 -0.040992931 1.8250288e-38 286 275
-0.038650475 0.66799998 -0.040992931 1.8250288e-38 287 275
-0.037479252 0.66799998 -0.040992931 1.8250288e-38 288 275
-0.036253672 0.667 -0.040931564 1.843432e-38 289 275
-0.035084199 0.667 -0.040931564 1.8433964e-38 290 275
-0.033914726 0.667 -0.040931564 1.8526159e-38 291 275
-0.032745253 0.667 -0.040931564 1.8617639e-38 292 275
-0.031623118 0.66799998 -0.040992931 1.880167e-38 293 275
-0.030451892 0.66799998 -0.040992931 1.8802023e-38 294 275
-0.029280664 0.66799998 -0.040992931 1.8802023e-38 295 275
-0.028025279 0.66600001 -0.040870197 1.8986049e-38 296 275
-0.026857559 0.66600001 -0.040870197 1.8986049e-38 297 275
-0.02568984 0.66600001 -0.040870197 1.8986049e-38 298 275
-0.02452212 0.66600001 -0.040870197 1.8893853e-38 299 275
-0.023354398 0.66600001 -0.040870197 1.8802373e-38 300 275
-0.02218668 0.66600001 -0.040870197 1.8802373e-38 301 275
-0.020955838 0.66399997 -0.040747464 1.8894206e-38 302 275
-0.019791625 0.66399997 -0.040747464 1.8986402e-38 303 275
-0.018543253 0.66100001 -0.040563367 1.8894925e-38 304 275
-0.0173843 0.66100001 -0.040563367 1.8802729e-38 305 275
-0.016225345 0.66100001 -0.040563367 1.8802379e-38 306 275
-0.015020805 0.65899998 -0.04044063 1.8894575e-38 307 275
-0.013865359 0.65899998 -0.04044063 1.8802026e-38 308 275
-0.012767773 0.662 -0.04062473 1.852544e-38 309 275
-0.011607066 0.662 -0.04062473 1.8434317e-38 310 275
-0.01043058 0.66100001 -0.040563367 1.8250286e-38 311 275
-0.0092716264 0.66100001 -0.040563367 1.8156656e-38 312 275
-0.0081249457 0.662 -0.04062473 1.8156656e-38 313 275
-0.0069642398 0.662 -0.04062473 1.7972272e-38 314 275
-0.0058035329 0.662 -0.04062473 1.7972272e-38 315 275
-0.0046428265 0.662 -0.04062473 1.7788973e-38 316 275
-0.00347686 0.66100001 -0.040563367 1.8157755e-38 317 275
-0.0023179066 0.66100001 -0.040563367 1.7790437e-38 318 275
-0.0011589533 0.66100001 -0.040563367 1.8066664e-38 319 275
-0.08591333 0.69999999 -0.044183996 1.3826378e-38 250 276
-0.084685996 0.69999999 -0.044183996 1.3826378e-38 251 276
-0.083220214 0.69800001 -0.04405776 1.4010378e-38 252 276
-0.081761435 0.69599998 -0.043931518 1.3918181e-38 253 276
-0.080309682 0.69400001 -0.043805279 1.4102197e-38 254 276
-0.079092868 0.69400001 -0.043805279 1.3918166e-38 255 276
-0.077876054 0.69400001 -0.043805279 1.3918516e-38 256 276
-0.076217398 0.69 -0.043552797 1.3918516e-38 257 276
-0.075007595 0.69 -0.043552797 1.4101828e-38 258 276
-0.073583893 0.68800002 -0.043426562 1.4009633e-38 259 276
-0.07227239 0.68699998 -0.043363437 1.3826683e-38 260 276
-0.070964411 0.68599999 -0.043300316 1.4011433e-38 261 276
-0.06955824 0.68400002 -0.043174081 1.4562804e-38 262 276
-0.068259016 0.68300003 -0.043110959 1.4839749e-38 263 276
-0.0669633 0.68199998 -0.043047838 1.4932315e-38 264 276
-0.065574668 0.68000001 -0.042921599 1.5116706e-38 265 276
-0.064287722 0.67900002 -0.042858478 1.5485859e-38 266 276
-0.063097201 0.67900002 -0.042858478 1.585464e-38 267 276
-0.061815511 0.67799997 -0.042795356 1.6681158e-38 268 276
-0.06044792 0.676 -0.042669121 1.6773353e-38 269 276
-0.059175 0.67500001 -0.042606 1.6866974e-38 270 276
-0.057991501 0.67500001 -0.042606 1.6866974e-38 271 276
-0.056723841 0.67400002 -0.042542879 1.695917e-38 272 276
-0.055542093 0.67400002 -0.042542879 1.7051365e-38 273 276
-0.054360349 0.67400002 -0.042542879 1.7235408e-38 274 276
-0.053020798 0.67199999 -0.042416636 1.7235408e-38 275 276
-0.051842555 0.67199999 -0.042416636 1.7327606e-38 276 276
-0.050664317 0.67199999 -0.042416636 1.7511637e-38 277 276
-0.049486078 0.67199999 -0.042416636 1.7603117e-38 278 276
-0.048235953 0.671 -0.042353518 1.7695313e-38 279 276
-0.047059465 0.671 -0.042353518 1.7695315e-38 280 276
-0.045882981 0.671 -0.042353518 1.7787511e-38 281 276
-0.044439986 0.667 -0.042101037 1.7512719e-38 282 276
-0.04327051 0.667 -0.042101037 1.7788947e-38 283 276
-0.042101037 0.667 -0.042101037 1.7788947e-38 284 276
-0.040931564 0.667 -0.042101037 1.7881143e-38 285 276
-0.039762091 0.667 -0.042101037 1.7972625e-38 286 276
-0.038592618 0.667 -0.042101037 1.8156656e-38 287 276
-0.037423145 0.667 -0.042101037 1.806554e-38 288 276
-0.036253672 0.667 -0.042101037 1.806554e-38 289 276
-0.035084199 0.667 -0.042101037 1.8249935e-38 290 276
-0.033914726 0.667 -0.042101037 1.8433966e-38 291 276
-0.032745253 0.667 -0.042101037 1.852509e-38 292 276
-0.03157578 0.667 -0.042101037 1.8617286e-38 293 276
-0.030406304 0.667 -0.042101037 1.8617639e-38 294 276
-0.029236831 0.667 -0.042101037 1.8617639e-38 295 276
-0.028025279 0.66600001 -0.042037919 1.88935e-38 296 276
-0.026776904 0.66399997 -0.041911677 1.88935e-38 297 276
-0.025612691 0.66399997 -0.041911677 1.8802023e-38 298 276
-0.02452212 0.66600001 -0.042037919 1.8802023e-38 299 276
-0.023354398 0.66600001 -0.042037919 1.8802023e-38 300 276
-0.02218668 0.66600001 -0.042037919 1.8802023e-38 301 276
-0.02101896 0.66600001 -0.042037919 1.8802023e-38 302 276
-0.019732011 0.662 -0.041785441 1.8802023e-38 303 276
-0.018543253 0.66100001 -0.04172232 1.8618708e-38 304 276
-0.017331699 0.65899998 -0.041596077 1.8618708e-38 305 276
-0.016176252 0.65899998 -0.041596077 1.8618708e-38 306 276
-0.015020805 0.65899998 -0.041596077 1.8711262e-38 307 276
-0.013865359 0.65899998 -0.041596077 1.8803102e-38 308 276
-0.012709912 0.65899998 -0.041596077 1.8618711e-38 309 276
-0.011589534 0.66100001 -0.04172232 1.8618711e-38 310 276
-0.01043058 0.66100001 -0.04172232 1.8618711e-38 311 276
-0.0092716264 0.66100001 -0.04172232 1.8617995e-38 312 276
-0.0081126727 0.66100001 -0.04172232 1.8617995e-38 313 276
-0.00695372 0.66100001 -0.04172232 1.8617639e-38 314 276
-0.0057947668 0.66100001 -0.04172232 1.8617639e-38 315 276
-0.0046358132 0.66100001 -0.04172232 1.8525812e-38 316 276
-0.0034663398 0.65899998 -0.041596077 1.8618007e-38 317 276
-0.0023108933 0.65899998 -0.041596077 1.8342512e-38 318 276
-0.0011554466 0.65899998 -0.041596077 1.8250316e-38 319 276
0 0.65899998 -0.041596077 1.8249247e-38 320 276
0.0011554466 0.65899998 -0.041596077 1.8157052e-38 321 276
-0.084685996 0.69999999 -0.04541133 1.3550527e-38 251 277
-0.083220214 0.69800001 -0.045281585 1.4010391e-38 252 277
-0.081761435 0.69599998 -0.045151837 1.3918195e-38 253 277
-0.080309682 0.69400001 -0.045022093 1.4010729e-38 254 277
-0.079092868 0.69400001 -0.045022093 1.3918532e-38 255 277
-0.077876054 0.69400001 -0.045022093 1.3918882e-38 256 277
-0.076217398 0.69 -0.0447626 1.3826686e-38 257 277
-0.075007595 0.69 -0.0447626 1.382597e-38 258 277
-0.073583893 0.68800002 -0.044632856 1.382597e-38 259 277
-0.07227239 0.68699998 -0.044567976 1.3825614e-38 260 277
-0.070964411 0.68599999 -0.044503104 1.391781e-38 261 277
-0.069456547 0.68300003 -0.044308487 1.4101828e-38 262 277
-0.068159081 0.68199998 -0.044243611 1.3825241e-38 263 277
-0.066766933 0.68000001 -0.044113863 1.3914916e-38 264 277
-0.065478235 0.67900002 -0.044048995 1.3914916e-38 265 277
-0.064287722 0.67900002 -0.044048995 1.3920331e-38 266 277
-0.063097201 0.67900002 -0.044048995 1.4841927e-38 267 277
-0.061815511 0.67799997 -0.043984115 1.5669895e-38 268 277
-0.06044792 0.676 -0.043854371 1.6038679e-38 269 277
-0.059175 0.67500001 -0.043789499 1.6407445e-38 270 277
-0.057991501 0.67500001 -0.043789499 1.6407445e-38 271 277
-0.056723841 0.67400002 -0.043724626 1.6866974e-38 272 277
-0.055542093 0.67400002 -0.043724626 1.6866974e-38 273 277
-0.054199036 0.67199999 -0.043594878 1.68677e-38 274 277
-0.053020798 0.67199999 -0.043594878 1.68677e-38 275 277
-0.051765412 0.671 -0.043530006 1.69599e-38 276 277
-0.050588924 0.671 -0.043530006 1.69599e-38 277 277
-0.049412437 0.671 -0.043530006 1.7418723e-38 278 277
-0.048235953 0.671 -0.043530006 1.7418723e-38 279 277
-0.046778932 0.667 -0.04327051 1.741837e-38 280 277
-0.045609459 0.667 -0.04327051 1.7510565e-38 281 277
-0.044439986 0.667 -0.04327051 1.7327253e-38 282 277
-0.04327051 0.667 -0.04327051 1.760348e-38 283 277
-0.042101037 0.667 -0.04327051 1.7420524e-38 284 277
-0.040870197 0.66600001 -0.043205637 1.7512719e-38 285 277
-0.039702479 0.66600001 -0.043205637 1.7787511e-38 286 277
-0.03853476 0.66600001 -0.043205637 1.7971544e-38 287 277
-0.037367038 0.66600001 -0.043205637 1.7512719e-38 288 277
-0.03619932 0.66600001 -0.043205637 1.7788947e-38 289 277
-0.035031598 0.66600001 -0.043205637 1.8156656e-38 290 277
-0.03386388 0.66600001 -0.043205637 1.8248852e-38 291 277
-0.032696161 0.66600001 -0.043205637 1.7972991e-38 292 277
-0.031528439 0.66600001 -0.043205637 1.8065187e-38 293 277
-0.030406304 0.667 -0.04327051 1.8341048e-38 294 277
-0.029236831 0.667 -0.04327051 1.8433245e-38 295 277
-0.028025279 0.66600001 -0.043205637 1.8249932e-38 296 277
-0.026776904 0.66399997 -0.043075889 1.8249932e-38 297 277
-0.025612691 0.66399997 -0.043075889 1.852544e-38 298 277
-0.024448479 0.66399997 -0.043075889 1.852544e-38 299 277
-0.0232492 0.66299999 -0.043011017 1.8526159e-38 300 277
-0.02208674 0.66299999 -0.043011017 1.8526159e-38 301 277
-0.02086116 0.66100001 -0.042881273 1.8617995e-38 302 277
-0.019702207 0.66100001 -0.042881273 1.8617995e-38 303 277
-0.018487146 0.65899998 -0.042751525 1.8617995e-38 304 277
-0.017331699 0.65899998 -0.042751525 1.8617995e-38 305 277
-0.016176252 0.65899998 -0.042751525 1.8617995e-38 306 277
-0.015020805 0.65899998 -0.042751525 1.8894221e-38 307 277
-0.013865359 0.65899998 -0.042751525 1.8894224e-38 308 277
-0.012709912 0.65899998 -0.042751525 1.880167e-38 309 277
-0.011589534 0.66100001 -0.042881273 1.880167e-38 310 277
-0.010399019 0.65899998 -0.042751525 1.8617639e-38 311 277
-0.0092435731 0.65899998 -0.042751525 1.8617642e-38 312 277
-0.0080881258 0.65899998 -0.042751525 1.8617642e-38 313 277
-0.0069326796 0.65899998 -0.042751525 1.8525809e-38 314 277
-0.0057772328 0.65899998 -0.042751525 1.8525809e-38 315 277
-0.0046217865 0.65899998 -0.042751525 1.8342499e-38 316 277
-0.0034663398 0.65899998 -0.042751525 1.8342499e-38 317 277
-0.0023108933 0.65899998 -0.042751525 1.8251023e-38 318 277
-0.0011554466 0.65899998 -0.042751525 1.8066633e-38 319 277
0 0.65899998 -0.042751525 1.8066633e-38 320 277
0.0011554466 0.65899998 -0.042751525 1.8066633e-38 321 277
0.0023108933 0.65899998 -0.042751525 1.8065554e-38 322 277
0.0034663398 0.65899998 -0.042751525 1.7973357e-38 323 277
0.0046217865 0.65899998 -0.042751525 1.7789689e-38 324 277
0.0057684663 0.65799999 -0.042686652 1.7789689e-38 325 277
-0.084444039 0.69800001 -0.046505414 1.3274669e-38 251 278
-0.083100989 0.69700003 -0.046438783 1.3734533e-38 252 278
-0.081761435 0.69599998 -0.046372157 1.3642337e-38 253 278
-0.080541112 0.69599998 -0.046372157 1.3918178e-38 254 278
-0.079092868 0.69400001 -0.046238903 1.3918178e-38 255 278
-0.077876054 0.69400001 -0.046238903 1.3918885e-38 256 278
-0.076327853 0.69099998 -0.046039023 1.3826689e-38 257 278
-0.075007595 0.69 -0.045972396 1.4101475e-38 258 278
-0.073583893 0.68800002 -0.045839146 1.3917084e-38 259 278
-0.07227239 0.68699998 -0.045772515 1.3825614e-38 260 278
-0.070964411 0.68599999 -0.045705888 1.3733419e-38 261 278
-0.069456547 0.68300003 -0.045506012 1.364087e-38 262 278
-0.068159081 0.68199998 -0.045439381 1.3548674e-38 263 278
-0.066668749 0.67900002 -0.045239504 1.2534878e-38 264 278
-0.065381795 0.67799997 -0.045172878 1.1705118e-38 265 278
-0.06419304 0.67799997 -0.045172878 1.2722509e-38 266 278
-0.063004278 0.67799997 -0.045172878 1.3736302e-38 267 278
-0.061633173 0.676 -0.045039624 1.4840507e-38 268 278
-0.06044792 0.676 -0.045039624 1.5578072e-38 269 278
-0.059175 0.67500001 -0.044972997 1.6221994e-38 270 278
-0.057905588 0.67400002 -0.044906374 1.631419e-38 271 278
-0.056723841 0.67400002 -0.044906374 1.6590404e-38 272 278
-0.055377278 0.67199999 -0.044773117 1.6590404e-38 273 278
-0.054199036 0.67199999 -0.044773117 1.6407811e-38 274 278
-0.052941896 0.671 -0.044706494 1.6500006e-38 275 278
-0.051765412 0.671 -0.044706494 1.6867347e-38 276 278
-0.050588924 0.671 -0.044706494 1.6867347e-38 277 278
-0.04919152 0.66799998 -0.044506609 1.7050662e-38 278 278
-0.047948405 0.667 -0.044439986 1.7050662e-38 279 278
-0.046778932 0.667 -0.044439986 1.705031e-38 280 278
-0.045541082 0.66600001 -0.04437336 1.7142506e-38 281 278
-0.04437336 0.66600001 -0.04437336 1.7142506e-38 282 278
-0.043205637 0.66600001 -0.04437336 1.723506e-38 283 278
-0.042037919 0.66600001 -0.04437336 1.7052108e-38 284 278
-0.040870197 0.66600001 -0.04437336 1.7052108e-38 285 278
-0.039702479 0.66600001 -0.04437336 1.7328678e-38 286 278
-0.03853476 0.66600001 -0.04437336 1.7143928e-38 287 278
-0.037367038 0.66600001 -0.04437336 1.7511625e-38 288 278
-0.03619932 0.66600001 -0.04437336 1.760382e-38 289 278
-0.035031598 0.66600001 -0.04437336 1.7788584e-38 290 278
-0.03386388 0.66600001 -0.04437336 1.7788584e-38 291 278
-0.032696161 0.66600001 -0.04437336 1.7787508e-38 292 278
-0.031528439 0.66600001 -0.04437336 1.8063736e-38 293 278
-0.030360719 0.66600001 -0.04437336 1.7880424e-38 294 278
-0.029192999 0.66600001 -0.04437336 1.797262e-38 295 278
-0.028025279 0.66600001 -0.04437336 1.7789323e-38 296 278
-0.026736578 0.66299999 -0.044173479 1.7789323e-38 297 278
-0.025574118 0.66299999 -0.044173479 1.7790395e-38 298 278
-0.024411658 0.66299999 -0.044173479 1.788259e-38 299 278
-0.0232492 0.66299999 -0.044173479 1.8434314e-38 300 278
-0.022053426 0.662 -0.044106852 1.8434314e-38 301 278
-0.02086116 0.66100001 -0.044040225 1.843432e-38 302 278
-0.019702207 0.66100001 -0.044040225 1.8526515e-38 303 278
-0.018487146 0.65899998 -0.043906972 1.8525446e-38 304 278
-0.017305398 0.65799999 -0.043840345 1.8525446e-38 305 278
-0.016151706 0.65799999 -0.043840345 1.843326e-38 306 278
-0.015020805 0.65899998 -0.043906972 1.8525814e-38 307 278
-0.013865359 0.65899998 -0.043906972 1.8525814e-38 308 278
-0.012709912 0.65899998 -0.043906972 1.8525814e-38 309 278
-0.011554466 0.65899998 -0.043906972 1.8342499e-38 310 278
-0.010399019 0.65899998 -0.043906972 1.8342499e-38 311 278
-0.0092435731 0.65899998 -0.043906972 1.8342499e-38 312 278
-0.0080881258 0.65899998 -0.043906972 1.8342499e-38 313 278
-0.0069326796 0.65899998 -0.043906972 1.8342144e-38 314 278
-0.0057772328 0.65899998 -0.043906972 1.8342144e-38 315 278
-0.0046217865 0.65899998 -0.043906972 1.8342499e-38 316 278
-0.0034663398 0.65899998 -0.043906972 1.8250304e-38 317 278
-0.0023108933 0.65899998 -0.043906972 1.8066633e-38 318 278
-0.0011554466 0.65899998 -0.043906972 1.8066633e-38 319 278
0 0.65899998 -0.043906972 1.797444e-38 320 278
0.0011554466 0.65899998 -0.043906972 1.8066636e-38 321 278
0.0023108933 0.65899998 -0.043906972 1.8157755e-38 322 278
0.0034663398 0.65899998 -0.043906972 1.8157755e-38 323 278
0.0046217865 0.65899998 -0.043906972 1.8065203e-38 324 278
0.0057684663 0.65799999 -0.043840345 1.8065203e-38 325 278
0.0069221598 0.65799999 -0.043840345 1.7698229e-38 326 278
0.0080758529 0.65799999 -0.043840345 1.7698229e-38 327 278
-0.084444039 0.69800001 -0.047729239 1.3183217e-38 251 279
-0.083100989 0.69700003 -0.047660861 1.3643075e-38 252 279
-0.081761435 0.69599998 -0.047592476 1.3458684e-38 253 279
-0.080541112 0.69599998 -0.047592476 1.4010025e-38 254 279
-0.079092868 0.69400001 -0.047455717 1.4010025e-38 255 279
-0.077876054 0.69400001 -0.047455717 1.4010731e-38 256 279
-0.076327853 0.69099998 -0.047250576 1.4010731e-38 257 279
-0.075007595 0.69 -0.047182199 1.4101844e-38 258 279
-0.073583893 0.68800002 -0.047045439 1.3917813e-38 259 279
-0.07227239 0.68699998 -0.046977058 1.3733421e-38 260 279
-0.070964411 0.68599999 -0.046908677 1.3733421e-38 261 279
-0.069456547 0.68300003 -0.04670354 1.3365359e-38 262 279
-0.068159081 0.68199998 -0.046635158 1.3180966e-38 263 279
-0.066668749 0.67900002 -0.046430022 1.2167187e-38 264 279
-0.065381795 0.67799997 -0.046361636 1.1798406e-38 265 279
-0.06419304 0.67799997 -0.046361636 1.2351946e-38 266 279
-0.063004278 0.67799997 -0.046361636 1.3089511e-38 267 279
-0.061633173 0.676 -0.046224877 1.3827429e-38 268 279
-0.06044792 0.676 -0.046224877 1.4380603e-38 269 279
-0.059175 0.67500001 -0.0461565 1.4933053e-38 270 279
-0.057905588 0.67400002 -0.046088122 1.520964e-38 271 279
-0.056555521 0.67199999 -0.045951359 1.5578779e-38 272 279
-0.055377278 0.67199999 -0.045951359 1.5947203e-38 273 279
-0.054199036 0.67199999 -0.045951359 1.6407092e-38 274 279
-0.052941896 0.671 -0.045882981 1.6407092e-38 275 279
-0.051688269 0.67000002 -0.0458146 1.6866621e-38 276 279
-0.050513536 0.67000002 -0.0458146 1.6866621e-38 277 279
-0.04919152 0.66799998 -0.045677837 1.6958098e-38 278 279
-0.047948405 0.667 -0.045609459 1.6958098e-38 279 279
-0.046708796 0.66600001 -0.045541082 1.7050296e-38 280 279
-0.045541082 0.66600001 -0.045541082 1.7050296e-38 281 279
-0.04437336 0.66600001 -0.045541082 1.704994e-38 282 279
-0.043205637 0.66600001 -0.045541082 1.704994e-38 283 279
-0.042037919 0.66600001 -0.045541082 1.7051015e-38 284 279
-0.040870197 0.66600001 -0.045541082 1.6958819e-38 285 279
-0.039583251 0.66399997 -0.045404319 1.7051368e-38 286 279
-0.038419038 0.66399997 -0.045404319 1.6958814e-38 287 279
-0.037254825 0.66399997 -0.045404319 1.6959167e-38 288 279
-0.036090612 0.66399997 -0.045404319 1.6959167e-38 289 279
-0.0349264 0.66399997 -0.045404319 1.7143562e-38 290 279
-0.033762183 0.66399997 -0.045404319 1.7143562e-38 291 279
-0.032499783 0.662 -0.04526756 1.7235411e-38 292 279
-0.031339079 0.662 -0.04526756 1.7511637e-38 293 279
-0.030178372 0.662 -0.04526756 1.7327253e-38 294 279
-0.029017664 0.662 -0.04526756 1.760348e-38 295 279
-0.027856959 0.662 -0.04526756 1.7695315e-38 296 279
-0.026696252 0.662 -0.04526756 1.7787511e-38 297 279
-0.025535546 0.662 -0.04526756 1.7788228e-38 298 279
-0.024374841 0.662 -0.04526756 1.7696031e-38 299 279
-0.023214132 0.662 -0.04526756 1.7788228e-38 300 279
-0.022053426 0.662 -0.04526756 1.7788228e-38 301 279
-0.020798039 0.65899998 -0.045062415 1.7697478e-38 302 279
-0.019642593 0.65899998 -0.045062415 1.7789673e-38 303 279
-0.018487146 0.65899998 -0.045062415 1.8339976e-38 304 279
-0.017305398 0.65799999 -0.044994038 1.8339976e-38 305 279
-0.016151706 0.65799999 -0.044994038 1.8156303e-38 306 279
-0.015020805 0.65899998 -0.045062415 1.843325e-38 307 279
-0.013865359 0.65899998 -0.045062415 1.843325e-38 308 279
-0.012709912 0.65899998 -0.045062415 1.843325e-38 309 279
-0.011554466 0.65899998 -0.045062415 1.8249579e-38 310 279
-0.010399019 0.65899998 -0.045062415 1.8249579e-38 311 279
-0.0092435731 0.65899998 -0.045062415 1.8342497e-38 312 279
-0.0080881258 0.65899998 -0.045062415 1.8342497e-38 313 279
-0.0069326796 0.65899998 -0.045062415 1.8342499e-38 314 279
-0.0057772328 0.65899998 -0.045062415 1.8250304e-38 315 279
-0.0046217865 0.65899998 -0.045062415 1.8157749e-38 316 279
-0.0034663398 0.65899998 -0.045062415 1.8157749e-38 317 279
-0.0023108933 0.65899998 -0.045062415 1.8157033e-38 318 279
-0.0011554466 0.65899998 -0.045062415 1.8157033e-38 319 279
0 0.65899998 -0.045062415 1.8157036e-38 320 279
0.0011554466 0.65899998 -0.045062415 1.8157036e-38 321 279
0.0023108933 0.65899998 -0.045062415 1.815668e-38 322 279
0.0034663398 0.65899998 -0.045062415 1.815668e-38 323 279
0.0046217865 0.65899998 -0.045062415 1.7788975e-38 324 279
0.0057684663 0.65799999 -0.044994038 1.7604225e-38 325 279
0.0069221598 0.65799999 -0.044994038 1.7696777e-38 326 279
0.0080758529 0.65799999 -0.044994038 1.7604581e-38 327 279
0.0092295464 0.65799999 -0.044994038 1.7787896e-38 328 279
0.01038324 0.65799999 -0.044994038 1.7603506e-38 329 279
0.011536933 0.65799999 -0.044994038 1.7512033e-38 330 279
0.012690626 0.65799999 -0.044994038 1.7512033e-38 331 279
0.013823279 0.65700001 -0.04492566 1.7328367e-38 332 279
0.014998012 0.65799999 -0.044994038 1.7328367e-38 333 279
0.016298985 0.66399997 -0.045404319 1.705215e-38 334 279
0.0174632 0.66399997 -0.045404319 1.7328736e-38 335 279
-0.084444039 0.69800001 -0.048953064 1.309174e-38 251 280
-0.083100989 0.69700003 -0.048882935 1.3183542e-38 252 280
-0.081878915 0.69700003 -0.048882935 1.2999511e-38 253 280
-0.080541112 0.69599998 -0.048812799 1.355122e-38 254 280
-0.079320796 0.69599998 -0.048812799 1.3458666e-38 255 280
-0.077876054 0.69400001 -0.048672531 1.3735589e-38 256 280
-0.07665924 0.69400001 -0.048672531 1.3643033e-38 257 280
-0.075007595 0.69 -0.048391998 1.391781e-38 258 280
-0.073583893 0.68800002 -0.048251733 1.391781e-38 259 280
-0.07227239 0.68699998 -0.048181597 1.400928e-38 260 280
-0.070964411 0.68599999 -0.048111461 1.3824888e-38 261 280
-0.069456547 0.68300003 -0.047901068 1.3640854e-38 262 280
-0.068159081 0.68199998 -0.047830928 1.3364266e-38 263 280
-0.066668749 0.67900002 -0.047620531 1.2902587e-38 264 280
-0.065381795 0.67799997 -0.047550395 1.2625642e-38 265 280
-0.06419304 0.67799997 -0.047550395 1.2536696e-38 266 280
-0.063004278 0.67799997 -0.047550395 1.2628891e-38 267 280
-0.061633173 0.676 -0.047410134 1.3642317e-38 268 280
-0.06044792 0.676 -0.047410134 1.40111e-38 269 280
-0.059175 0.67500001 -0.047339998 1.4287684e-38 270 280
-0.057905588 0.67400002 -0.047269866 1.4564271e-38 271 280
-0.056555521 0.67199999 -0.047129598 1.4748659e-38 272 280
-0.055377278 0.67199999 -0.047129598 1.5209637e-38 273 280
-0.054118387 0.671 -0.047059465 1.5762441e-38 274 280
-0.052941896 0.671 -0.047059465 1.5946833e-38 275 280
-0.051688269 0.67000002 -0.046989333 1.6407448e-38 276 280
-0.050513536 0.67000002 -0.046989333 1.6407448e-38 277 280
-0.04919152 0.66799998 -0.046849065 1.6407092e-38 278 280
-0.047948405 0.667 -0.046778932 1.6683319e-38 279 280
-0.046708796 0.66600001 -0.046708796 1.6499287e-38 280 280
-0.045541082 0.66600001 -0.046708796 1.6499287e-38 281 280
-0.04437336 0.66600001 -0.046708796 1.6407095e-38 282 280
-0.043075889 0.66399997 -0.046568532 1.649929e-38 283 280
-0.041911677 0.66399997 -0.046568532 1.6407095e-38 284 280
-0.040747464 0.66399997 -0.046568532 1.649929e-38 285 280
-0.039583251 0.66399997 -0.046568532 1.6499287e-38 286 280
-0.038419038 0.66399997 -0.046568532 1.6499287e-38 287 280
-0.037254825 0.66399997 -0.046568532 1.649929e-38 288 280
-0.036090612 0.66399997 -0.046568532 1.6683321e-38 289 280
-0.0349264 0.66399997 -0.046568532 1.6499303e-38 290 280
-0.033711337 0.66299999 -0.046498399 1.65915e-38 291 280
-0.032499783 0.662 -0.046428263 1.6774462e-38 292 280
-0.031339079 0.662 -0.046428263 1.6867016e-38 293 280
-0.030178372 0.662 -0.046428263 1.686666e-38 294 280
-0.029017664 0.662 -0.046428263 1.686666e-38 295 280
-0.027856959 0.662 -0.046428263 1.6867016e-38 296 280
-0.026696252 0.662 -0.046428263 1.6867016e-38 297 280
-0.025535546 0.662 -0.046428263 1.7051407e-38 298 280
-0.024374841 0.662 -0.046428263 1.7051407e-38 299 280
-0.023214132 0.662 -0.046428263 1.6776263e-38 300 280
-0.022020113 0.66100001 -0.046358135 1.6961013e-38 301 280
-0.020798039 0.65899998 -0.046217863 1.7143603e-38 302 280
-0.019612785 0.65799999 -0.04614773 1.7419831e-38 303 280
-0.018459093 0.65799999 -0.04614773 1.7512017e-38 304 280
-0.0172791 0.65700001 -0.046077598 1.7604213e-38 305 280
-0.01612716 0.65700001 -0.046077598 1.778895e-38 306 280
-0.014998012 0.65799999 -0.04614773 1.8065537e-38 307 280
-0.01384432 0.65799999 -0.04614773 1.7789673e-38 308 280
-0.012690626 0.65799999 -0.04614773 1.7697478e-38 309 280
-0.011554466 0.65899998 -0.046217863 1.760565e-38 310 280
-0.010399019 0.65899998 -0.046217863 1.7697846e-38 311 280
-0.0092435731 0.65899998 -0.046217863 1.8157752e-38 312 280
-0.0080881258 0.65899998 -0.046217863 1.8157752e-38 313 280
-0.0069326796 0.65899998 -0.046217863 1.7698223e-38 314 280
-0.0057772328 0.65899998 -0.046217863 1.7606026e-38 315 280
-0.0046217865 0.65899998 -0.046217863 1.7972656e-38 316 280
-0.0034610799 0.65799999 -0.04614773 1.7972656e-38 317 280
-0.0023073866 0.65799999 -0.04614773 1.7789344e-38 318 280
-0.0011484332 0.65499997 -0.04593733 1.7789344e-38 319 280
0 0.65499997 -0.04593733 1.7788269e-38 320 280
0.0011536933 0.65799999 -0.04614773 1.79723e-38 321 280
0.0023108933 0.65899998 -0.046217863 1.7513124e-38 322 280
0.0034558198 0.65700001 -0.046077598 1.7513124e-38 323 280
0.0046077599 0.65700001 -0.046077598 1.751383e-38 324 280
0.0057596997 0.65700001 -0.046077598 1.7052854e-38 325 280
0.0069116396 0.65700001 -0.046077598 1.696101e-38 326 280
0.0080635799 0.65700001 -0.046077598 1.7053207e-38 327 280
0.0092295464 0.65799999 -0.04614773 1.7052859e-38 328 280
0.01038324 0.65799999 -0.04614773 1.7052859e-38 329 280
0.011536933 0.65799999 -0.04614773 1.6961027e-38 330 280
0.012690626 0.65799999 -0.04614773 1.6961027e-38 331 280
0.013823279 0.65700001 -0.046077598 1.7052859e-38 332 280
0.014998012 0.65799999 -0.04614773 1.6775912e-38 333 280
0.016298985 0.66399997 -0.046568532 1.686666e-38 334 280
0.0174632 0.66399997 -0.046568532 1.686666e-38 335 280
0.018627413 0.66399997 -0.046568532 1.6315638e-38 336 280
0.019851239 0.66600001 -0.046708796 1.6131246e-38 337 280
-0.084685996 0.69999999 -0.050320663 1.3000287e-38 251 281
-0.083100989 0.69700003 -0.050105009 1.3091021e-38 252 281
-0.081761435 0.69599998 -0.050033119 1.2814076e-38 253 281
-0.080541112 0.69599998 -0.050033119 1.3366135e-38 254 281
-0.079092868 0.69400001 -0.049889345 1.3366135e-38 255 281
-0.077876054 0.69400001 -0.049889345 1.3734167e-38 256 281
-0.07665924 0.69400001 -0.049889345 1.3734167e-38 257 281
-0.075007595 0.69 -0.049601797 1.3734866e-38 258 281
-0.073583893 0.68800002 -0.049458027 1.3734866e-38 259 281
-0.07227239 0.68699998 -0.049386136 1.3826336e-38 260 281
-0.070964411 0.68599999 -0.049314249 1.3826336e-38 261 281
-0.069456547 0.68300003 -0.049098592 1.3641586e-38 262 281
-0.068159081 0.68199998 -0.049026705 1.3365359e-38 263 281
-0.066668749 0.67900002 -0.048811045 1.244485e-38 264 281
-0.065381795 0.67799997 -0.048739154 1.1706925e-38 265 281
-0.06419304 0.67799997 -0.048739154 1.253454e-38 266 281
-0.063004278 0.67799997 -0.048739154 1.317991e-38 267 281
-0.061633173 0.676 -0.048595384 1.3457573e-38 268 281
-0.06044792 0.676 -0.048595384 1.3641964e-38 269 281
-0.059175 0.67500001 -0.048523501 1.3918178e-38 270 281
-0.057905588 0.67400002 -0.048451614 1.4010375e-38 271 281
-0.056555521 0.67199999 -0.04830784 1.4195839e-38 272 281
-0.055377278 0.67199999 -0.04830784 1.4195839e-38 273 281
-0.054118387 0.671 -0.048235953 1.4564974e-38 274 281
-0.052941896 0.671 -0.048235953 1.4841561e-38 275 281
-0.051688269 0.67000002 -0.048164066 1.5392933e-38 276 281
-0.050362743 0.66799998 -0.048020288 1.5762076e-38 277 281
-0.049117878 0.667 -0.047948405 1.6404924e-38 278 281
-0.047948405 0.667 -0.047948405 1.6773707e-38 279 281
-0.046708796 0.66600001 -0.047876518 1.6498193e-38 280 281
-0.045541082 0.66600001 -0.047876518 1.6498193e-38 281 281
-0.04437336 0.66600001 -0.047876518 1.6497843e-38 282 281
-0.043075889 0.66399997 -0.047732744 1.6497843e-38 283 281
-0.041911677 0.66399997 -0.047732744 1.649749e-38 284 281
-0.040747464 0.66399997 -0.047732744 1.6589685e-38 285 281
-0.039583251 0.66399997 -0.047732744 1.6314175e-38 286 281
-0.038361177 0.66299999 -0.047660857 1.6498564e-38 287 281
-0.037198719 0.66299999 -0.047660857 1.631453e-38 288 281
-0.036036257 0.66299999 -0.047660857 1.6498562e-38 289 281
-0.034821201 0.662 -0.047588971 1.6590041e-38 290 281
-0.033660494 0.662 -0.047588971 1.6682237e-38 291 281
-0.032499783 0.662 -0.047588971 1.6773e-38 292 281
-0.031291738 0.66100001 -0.047517084 1.6957392e-38 293 281
-0.030132787 0.66100001 -0.047517084 1.6681884e-38 294 281
-0.029017664 0.662 -0.047588971 1.6589688e-38 295 281
-0.02781488 0.66100001 -0.047517084 1.6590041e-38 296 281
-0.026655925 0.66100001 -0.047517084 1.6590041e-38 297 281
-0.025496973 0.66100001 -0.047517084 1.6681884e-38 298 281
-0.02433802 0.66100001 -0.047517084 1.6865915e-38 299 281
-0.023179067 0.66100001 -0.047517084 1.6682968e-38 300 281
-0.022020113 0.66100001 -0.047517084 1.6682968e-38 301 281
-0.02076648 0.65799999 -0.047301427 1.6682615e-38 302 281
-0.019582979 0.65700001 -0.04722954 1.6775171e-38 303 281
-0.01843104 0.65700001 -0.04722954 1.6682615e-38 304 281
-0.0172791 0.65700001 -0.04722954 1.6775171e-38 305 281
-0.01612716 0.65700001 -0.04722954 1.6775521e-38 306 281
-0.01497522 0.65700001 -0.04722954 1.6683324e-38 307 281
-0.013823279 0.65700001 -0.04722954 1.686735e-38 308 281
-0.01267134 0.65700001 -0.04722954 1.6959547e-38 309 281
-0.011519399 0.65700001 -0.04722954 1.7052458e-38 310 281
-0.01038324 0.65799999 -0.047301427 1.6868067e-38 311 281
-0.0092295464 0.65799999 -0.047301427 1.7143225e-38 312 281
-0.0080758529 0.65799999 -0.047301427 1.7235779e-38 313 281
-0.0069221598 0.65799999 -0.047301427 1.7602776e-38 314 281
-0.0057596997 0.65700001 -0.04722954 1.7695332e-38 315 281
-0.0046077599 0.65700001 -0.04722954 1.7694976e-38 316 281
-0.0034558198 0.65700001 -0.04722954 1.7694976e-38 317 281
-0.0023038799 0.65700001 -0.04722954 1.7694979e-38 318 281
-0.0011484332 0.65499997 -0.047085766 1.7694979e-38 319 281
0 0.65499997 -0.047085766 1.7694979e-38 320 281
0.0011484332 0.65499997 -0.047085766 1.7787175e-38 321 281
0.0023038799 0.65700001 -0.04722954 1.7511314e-38 322 281
0.0034558198 0.65700001 -0.04722954 1.7511314e-38 323 281
0.0046077599 0.65700001 -0.04722954 1.7143606e-38 324 281
0.0057596997 0.65700001 -0.04722954 1.686666e-38 325 281
0.0068905996 0.65499997 -0.047085766 1.6683345e-38 326 281
0.008039033 0.65499997 -0.047085766 1.67759e-38 327 281
0.0092155198 0.65700001 -0.04722954 1.6776265e-38 328 281
0.01036746 0.65700001 -0.04722954 1.6776265e-38 329 281
0.011519399 0.65700001 -0.04722954 1.6959224e-38 330 281
0.01267134 0.65700001 -0.04722954 1.6682998e-38 331 281
0.013823279 0.65700001 -0.04722954 1.6314205e-38 332 281
0.014998012 0.65799999 -0.047301427 1.5484805e-38 333 281
0.016274439 0.66299999 -0.047660857 1.5391867e-38 334 281
0.017436899 0.66299999 -0.047660857 1.493089e-38 335 281
0.018599359 0.66299999 -0.047660857 1.4838696e-38 336 281
0.019791625 0.66399997 -0.047732744 1.5576262e-38 337 281
0.020955838 0.66399997 -0.047732744 1.5669566e-38 338 281
0.02218668 0.66600001 -0.047876518 1.5853956e-38 339 281
0.023354398 0.66600001 -0.047876518 1.4935988e-38 340 281
0.02452212 0.66600001 -0.047876518 1.5396606e-38 341 281
0.025728412 0.667 -0.047948405 1.5676109e-38 342 281
-0.083100989 0.69700003 -0.051327083 1.3183587e-38 252 282
-0.081526496 0.69400001 -0.051106159 1.2814804e-38 253 282
-0.080309682 0.69400001 -0.051106159 1.2907331e-38 254 282
-0.079092868 0.69400001 -0.051106159 1.2630744e-38 255 282
-0.077876054 0.69400001 -0.051106159 1.3273926e-38 256 282
-0.07665924 0.69400001 -0.051106159 1.3366121e-38 257 282
-0.075007595 0.69 -0.050811596 1.3642317e-38 258 282
-0.073583893 0.68800002 -0.050664321 1.3734513e-38 259 282
-0.07227239 0.68699998 -0.050590675 1.3643021e-38 260 282
-0.070757523 0.68400002 -0.050369758 1.3643021e-38 261 282
-0.069456547 0.68300003 -0.05029612 1.382597e-38 262 282
-0.068159081 0.68199998 -0.050222475 1.3733416e-38 263 282
-0.066766933 0.68000001 -0.050075196 1.2996572e-38 264 282
-0.065381795 0.67799997 -0.049927916 1.2167172e-38 265 282
-0.06419304 0.67799997 -0.049927916 1.2627807e-38 266 282
-0.063004278 0.67799997 -0.049927916 1.2904752e-38 267 282
-0.061633173 0.676 -0.049780637 1.3181709e-38 268 282
-0.06044792 0.676 -0.049780637 1.33661e-38 269 282
-0.059175 0.67500001 -0.049706999 1.3825986e-38 270 282
-0.057905588 0.67400002 -0.049633358 1.3918181e-38 271 282
-0.056723841 0.67400002 -0.049633358 1.3827782e-38 272 282
-0.055377278 0.67199999 -0.049486078 1.3827782e-38 273 282
-0.054118387 0.671 -0.049412437 1.4102927e-38 274 282
-0.052863002 0.67000002 -0.049338799 1.4379154e-38 275 282
-0.051533967 0.66799998 -0.04919152 1.4747564e-38 276 282
-0.050362743 0.66799998 -0.04919152 1.4932315e-38 277 282
-0.049117878 0.667 -0.049117878 1.5300372e-38 278 282
-0.047876518 0.66600001 -0.04904424 1.5484763e-38 279 282
-0.046708796 0.66600001 -0.04904424 1.5578032e-38 280 282
-0.045541082 0.66600001 -0.04904424 1.5578032e-38 281 282
-0.044240102 0.66399997 -0.048896957 1.5577684e-38 282 282
-0.043075889 0.66399997 -0.048896957 1.5762076e-38 283 282
-0.041911677 0.66399997 -0.048896957 1.5761375e-38 284 282
-0.040747464 0.66399997 -0.048896957 1.5853571e-38 285 282
-0.039583251 0.66399997 -0.048896957 1.6037602e-38 286 282
-0.038361177 0.66299999 -0.048823316 1.6037602e-38 287 282
-0.037198719 0.66299999 -0.048823316 1.6129796e-38 288 282
-0.036036257 0.66299999 -0.048823316 1.6037599e-38 289 282
-0.034821201 0.662 -0.048749682 1.6129078e-38 290 282
-0.033660494 0.662 -0.048749682 1.6221275e-38 291 282
-0.032450691 0.66100001 -0.04867604 1.6129081e-38 292 282
-0.031291738 0.66100001 -0.04867604 1.6221278e-38 293 282
-0.030132787 0.66100001 -0.04867604 1.6221278e-38 294 282
-0.028973831 0.66100001 -0.04867604 1.6221278e-38 295 282
-0.02781488 0.66100001 -0.04867604 1.6221631e-38 296 282
-0.026655925 0.66100001 -0.04867604 1.6129076e-38 297 282
-0.025496973 0.66100001 -0.04867604 1.6129802e-38 298 282
-0.024264378 0.65899998 -0.048528757 1.6129802e-38 299 282
-0.023108931 0.65899998 -0.048528757 1.6130527e-38 300 282
-0.021953486 0.65899998 -0.048528757 1.6130527e-38 301 282
-0.020734919 0.65700001 -0.048381478 1.6313842e-38 302 282
-0.019523365 0.65499997 -0.048234195 1.6406038e-38 303 282
-0.018374931 0.65499997 -0.048234195 1.631384e-38 304 282
-0.017226499 0.65499997 -0.048234195 1.631384e-38 305 282
-0.016078066 0.65499997 -0.048234195 1.677265e-38 306 282
-0.014929632 0.65499997 -0.048234195 1.677265e-38 307 282
-0.013781199 0.65499997 -0.048234195 1.6497855e-38 308 282
-0.012632766 0.65499997 -0.048234195 1.659041e-38 309 282
-0.011484332 0.65499997 -0.048234195 1.6499641e-38 310 282
-0.01036746 0.65700001 -0.048381478 1.6407445e-38 311 282
-0.0092155198 0.65700001 -0.048381478 1.6407092e-38 312 282
-0.0080635799 0.65700001 -0.048381478 1.6683319e-38 313 282
-0.0069116396 0.65700001 -0.048381478 1.6867001e-38 314 282
-0.0057596997 0.65700001 -0.048381478 1.6774445e-38 315 282
-0.0046077599 0.65700001 -0.048381478 1.6775168e-38 316 282
-0.0034558198 0.65700001 -0.048381478 1.6682971e-38 317 282
-0.0023038799 0.65700001 -0.048381478 1.6774815e-38 318 282
-0.0011484332 0.65499997 -0.048234195 1.6774815e-38 319 282
0 0.65499997 -0.048234195 1.6774815e-38 320 282
0.0011484332 0.65499997 -0.048234195 1.6774815e-38 321 282
0.0022968664 0.65499997 -0.048234195 1.6683345e-38 322 282
0.0034452998 0.65499997 -0.048234195 1.659115e-38 323 282
0.0045937328 0.65499997 -0.048234195 1.6591152e-38 324 282
0.0057421662 0.65499997 -0.048234195 1.6498955e-38 325 282
0.0068905996 0.65499997 -0.048234195 1.6406407e-38 326 282
0.008039033 0.65499997 -0.048234195 1.6590799e-38 327 282
0.0091874655 0.65499997 -0.048234195 1.6591165e-38 328 282
0.010335899 0.65499997 -0.048234195 1.6591165e-38 329 282
0.011484332 0.65499997 -0.048234195 1.6682645e-38 330 282
0.01267134 0.65700001 -0.048381478 1.6498253e-38 331 282
0.013823279 0.65700001 -0.048381478 1.5669922e-38 332 282
0.01497522 0.65700001 -0.048381478 1.5300779e-38 333 282
0.016176252 0.65899998 -0.048528757 1.4931258e-38 334 282
0.017410601 0.662 -0.048749682 1.447028e-38 335 282
0.018571306 0.662 -0.048749682 1.4469201e-38 336 282
0.019761819 0.66299999 -0.048823316 1.4746147e-38 337 282
0.020924279 0.66299999 -0.048823316 1.4932353e-38 338 282
0.02208674 0.66299999 -0.048823316 1.5208581e-38 339 282
0.023284266 0.66399997 -0.048896957 1.4841603e-38 340 282
0.024448479 0.66399997 -0.048896957 1.5025634e-38 341 282
0.02568984 0.66600001 -0.04904424 1.5213293e-38 342 282
0.026857559 0.66600001 -0.04904424 1.5858663e-38 343 282
0.028025279 0.66600001 -0.04904424 1.6224611e-38 344 282
0.038264744 0.68199998 -0.050222475 1.5578486e-38 352 282
0.039460517 0.68199998 -0.050222475 1.447214e-38 353 282
0.040656291 0.68199998 -0.050222475 1.3917867e-38 354 282
-0.081526496 0.69400001 -0.052322973 1.3091034e-38 253 283
-0.080309682 0.69400001 -0.052322973 1.299882e-38 254 283
-0.077876054 0.69400001 -0.052322973 1.3088472e-38 256 283
-0.074681476 0.68699998 -0.051795214 1.33661e-38 258 283
-0.07227239 0.68699998 -0.051795214 1.3643024e-38 260 283
-0.070757523 0.68400002 -0.051569041 1.3643024e-38 261 283
-0.069456547 0.68300003 -0.051493648 1.3643021e-38 262 283
-0.068159081 0.68199998 -0.051418249 1.3550825e-38 263 283
-0.066766933 0.68000001 -0.051267464 1.3365709e-38 264 283
-0.065381795 0.67799997 -0.051116679 1.3089121e-38 265 283
-0.06419304 0.67799997 -0.051116679 1.2997651e-38 266 283
-0.063004278 0.67799997 -0.051116679 1.3089847e-38 267 283
-0.061633173 0.676 -0.050965894 1.3366078e-38 268 283
-0.06044792 0.676 -0.050965894 1.3458274e-38 269 283
-0.059175 0.67500001 -0.050890498 1.3734137e-38 270 283
-0.057905588 0.67400002 -0.050815105 1.3826333e-38 271 283
-0.056723841 0.67400002 -0.050815105 1.3735572e-38 272 283
-0.055377278 0.67199999 -0.050664317 1.3735572e-38 273 283
-0.054118387 0.671 -0.050588924 1.4010726e-38 274 283
-0.052863002 0.67000002 -0.050513536 1.3918529e-38 275 283
-0.051533967 0.66799998 -0.050362743 1.4194746e-38 276 283
-0.050362743 0.66799998 -0.050362743 1.410255e-38 277 283
-0.049117878 0.667 -0.050287351 1.4288015e-38 278 283
-0.047876518 0.66600001 -0.050211959 1.438021e-38 279 283
-0.046708796 0.66600001 -0.050211959 1.4563883e-38 280 283
-0.045541082 0.66600001 -0.050211959 1.4563883e-38 281 283
-0.044240102 0.66399997 -0.05006117 1.4564251e-38 282 283
-0.043075889 0.66399997 -0.05006117 1.4656447e-38 283 283
-0.041911677 0.66399997 -0.05006117 1.5116e-38 284 283
-0.040747464 0.66399997 -0.05006117 1.5484782e-38 285 283
-0.039523639 0.66299999 -0.049985778 1.5669174e-38 286 283
-0.038361177 0.66299999 -0.049985778 1.5669174e-38 287 283
-0.037142612 0.662 -0.049910385 1.603687e-38 288 283
-0.035981905 0.662 -0.049910385 1.603687e-38 289 283
-0.034821201 0.662 -0.049910385 1.5944672e-38 290 283
-0.033609647 0.66100001 -0.049834993 1.5944672e-38 291 283
-0.032450691 0.66100001 -0.049834993 1.594504e-38 292 283
-0.031291738 0.66100001 -0.049834993 1.594504e-38 293 283
-0.030132787 0.66100001 -0.049834993 1.6036161e-38 294 283
-0.028973831 0.66100001 -0.049834993 1.5943966e-38 295 283
-0.02781488 0.66100001 -0.049834993 1.6127984e-38 296 283
-0.026575271 0.65899998 -0.049684204 1.6035788e-38 297 283
-0.025419824 0.65899998 -0.049684204 1.5760641e-38 298 283
-0.024264378 0.65899998 -0.049684204 1.5853195e-38 299 283
-0.023073865 0.65799999 -0.049608808 1.6036517e-38 300 283
-0.021920172 0.65799999 -0.049608808 1.6220548e-38 301 283
-0.020671798 0.65499997 -0.049382631 1.6036886e-38 302 283
-0.019523365 0.65499997 -0.049382631 1.6129081e-38 303 283
-0.018374931 0.65499997 -0.049382631 1.6128728e-38 304 283
-0.017226499 0.65499997 -0.049382631 1.6128728e-38 305 283
-0.016078066 0.65499997 -0.049382631 1.6219848e-38 306 283
-0.014929632 0.65499997 -0.049382631 1.6219848e-38 307 283
-0.013781199 0.65499997 -0.049382631 1.5852489e-38 308 283
-0.012632766 0.65499997 -0.049382631 1.5852489e-38 309 283
-0.011484332 0.65499997 -0.049382631 1.5853918e-38 310 283
-0.010335899 0.65499997 -0.049382631 1.5761722e-38 311 283
-0.0091874655 0.65499997 -0.049382631 1.5853936e-38 312 283
-0.008039033 0.65499997 -0.049382631 1.5853936e-38 313 283
-0.0068905996 0.65499997 -0.049382631 1.5670274e-38 314 283
-0.0057421662 0.65499997 -0.049382631 1.5670274e-38 315 283
-0.0045937328 0.65499997 -0.049382631 1.5853234e-38 316 283
-0.0034452998 0.65499997 -0.049382631 1.5853234e-38 317 283
-0.0022968664 0.65499997 -0.049382631 1.5852881e-38 318 283
-0.0011484332 0.65499997 -0.049382631 1.5852881e-38 319 283
0 0.65499997 -0.049382631 1.5669569e-38 320 283
0.0011484332 0.65499997 -0.049382631 1.58536e-38 321 283
0.0022968664 0.65499997 -0.049382631 1.585395e-38 322 283
0.0034452998 0.65499997 -0.049382631 1.5946505e-38 323 283
0.0045937328 0.65499997 -0.049382631 1.5946502e-38 324 283
0.0057421662 0.65499997 -0.049382631 1.5854306e-38 325 283
0.0068905996 0.65499997 -0.049382631 1.6220938e-38 326 283
0.008039033 0.65499997 -0.049382631 1.6313492e-38 327 283
0.0091874655 0.65499997 -0.049382631 1.6406041e-38 328 283
0.010335899 0.65499997 -0.049382631 1.6406041e-38 329 283
0.011484332 0.65499997 -0.049382631 1.6406407e-38 330 283
0.012632766 0.65499997 -0.049382631 1.6129821e-38 331 283
0.013781199 0.65499997 -0.049382631 1.5485889e-38 332 283
0.01497522 0.65700001 -0.049533416 1.5209663e-38 333 283
0.016151706 0.65799999 -0.049608808 1.502382e-38 334 283
0.0173843 0.66100001 -0.049834993 1.4747593e-38 335 283
0.018571306 0.662 -0.049910385 1.4745791e-38 336 283
0.019732011 0.662 -0.049910385 1.4469204e-38 337 283
0.020892721 0.662 -0.049910385 1.4285183e-38 338 283
0.02208674 0.66299999 -0.049985778 1.4562128e-38 339 283
0.023284266 0.66399997 -0.05006117 1.465541e-38 340 283
0.024448479 0.66399997 -0.05006117 1.5024553e-38 341 283
0.025612691 0.66399997 -0.05006117 1.5302597e-38 342 283
0.026776904 0.66399997 -0.05006117 1.5671738e-38 343 283
0.027941117 0.66399997 -0.05006117 1.5301893e-38 344 283
0.02910533 0.66399997 -0.05006117 1.4656524e-38 345 283
0.036960267 0.68000001 -0.051267464 1.4011861e-38 351 283
0.038152531 0.68000001 -0.051267464 1.4011861e-38 352 283
0.039344799 0.68000001 -0.051267464 1.382747e-38 353 283
0.040656291 0.68199998 -0.051418249 1.3735647e-38 354 283
0.041913435 0.68300003 -0.051493648 1.3182473e-38 355 283
-0.069354847 0.68199998 -0.052614026 1.3550472e-38 262 284
-0.068159081 0.68199998 -0.052614026 1.3550472e-38 263 284
-0.066766933 0.68000001 -0.052459732 1.3366431e-38 264 284
-0.065478235 0.67900002 -0.052382588 1.3274236e-38 265 284
