# .PCD v.7 - Point Cloud Data file format
FIELDS x y z rgb imX imY
SIZE 4 4 4 4 4 4
TYPE F F F F F F
COUNT 1 1 1 1 1 1
WIDTH 850
HEIGHT 1
VIEWPOINT 0 0 0 1 0 0 0
POINTS 850
DATA ascii
0.075365283 0.796 0.0097695729 1.649859e-38 374 233
0.076760925 0.796 0.0097695729 1.6682621e-38 375 233
0.077960216 0.79400003 0.0097450269 1.6774448e-38 376 233
0.079352364 0.79400003 0.0097450269 1.6682252e-38 377 233
0.080744505 0.79400003 0.0097450269 1.6773356e-38 378 233
0.082136653 0.79400003 0.0097450269 1.6312378e-38 379 233
0.083528802 0.79400003 0.0097450269 1.6403123e-38 380 233
0.08492095 0.79400003 0.0097450269 1.6218731e-38 381 233
0.086313091 0.79400003 0.0097450269 1.5851027e-38 382 233
0.08770524 0.79400003 0.0097450269 1.5574442e-38 383 233
0.089321814 0.796 0.0097695729 1.5114889e-38 384 233
0.090717465 0.796 0.0097695729 1.4838302e-38 385 233
0.092113115 0.796 0.0097695729 1.437803e-38 386 233
0.093743719 0.79799998 0.0097941197 1.4008887e-38 387 233
0.095142879 0.79799998 0.0097941197 1.3271014e-38 388 233
0.096300073 0.796 0.0097695729 1.336321e-38 389 233
0.097695731 0.796 0.0097695729 1.208263e-38 390 233
0.054300729 0.815 0.0085737994 1.1244215e-38 358 234
0.055592939 0.81300002 0.0085527599 1.1889584e-38 359 234
0.056878131 0.81099999 0.0085317204 1.3272498e-38 360 234
0.058156308 0.80900002 0.0085106799 1.3180302e-38 361 234
0.05957476 0.80900002 0.0085106799 1.3456516e-38 362 234
0.060691636 0.80500001 0.0084686 1.3548712e-38 363 234
0.062103067 0.80500001 0.0084686 1.3641617e-38 364 234
0.063356698 0.80299997 0.0084475596 1.3641617e-38 365 234
0.064683966 0.80199999 0.0084370393 1.3825279e-38 366 234
0.065925337 0.80000001 0.0084159998 1.4747596e-38 367 234
0.067159683 0.79799998 0.0083949603 1.5116724e-38 368 234
0.068558834 0.79799998 0.0083949603 1.520892e-38 369 234
0.069782659 0.796 0.0083739199 1.566953e-38 370 234
0.071178317 0.796 0.0083739199 1.5761725e-38 371 234
0.072573967 0.796 0.0083739199 1.6312747e-38 372 234
0.073969625 0.796 0.0083739199 1.6589335e-38 373 234
0.075365283 0.796 0.0083739199 1.6681536e-38 374 234
0.076568067 0.79400003 0.0083528794 1.6957763e-38 375 234
0.077763841 0.792 0.0083318399 1.6682971e-38 376 234
0.07915248 0.792 0.0083318399 1.6682971e-38 377 234
0.080541119 0.792 0.0083318399 1.6498937e-38 378 234
0.081929758 0.792 0.0083318399 1.6406742e-38 379 234
0.083318397 0.792 0.0083318399 1.6129432e-38 380 234
0.084707037 0.792 0.0083318399 1.594504e-38 381 234
0.086095676 0.792 0.0083318399 1.5760276e-38 382 234
0.08770524 0.79400003 0.0083528794 1.5575526e-38 383 234
0.089097388 0.79400003 0.0083528794 1.4932309e-38 384 234
0.090717465 0.796 0.0083739199 1.4563886e-38 385 234
0.092113115 0.796 0.0083739199 1.4288015e-38 386 234
0.093743719 0.79799998 0.0083949603 1.3642645e-38 387 234
0.095142879 0.79799998 0.0083949603 1.3365359e-38 388 234
0.096300073 0.796 0.0083739199 1.2996216e-38 389 234
0.097695731 0.796 0.0083739199 1.1711308e-38 390 234
0.099091381 0.796 0.0083739199 1.4016199e-38 391 234
0.055592939 0.81300002 0.0071272999 1.0968714e-38 359 235
0.056878131 0.81099999 0.0071097664 1.2076128e-38 360 235
0.058156308 0.80900002 0.0070922333 1.2629302e-38 361 235
0.05957476 0.80900002 0.0070922333 1.3180653e-38 362 235
0.060691636 0.80500001 0.0070571667 1.3365403e-38 363 235
0.062103067 0.80500001 0.0070571667 1.3365753e-38 364 235
0.063356698 0.80299997 0.0070396326 1.3641981e-38 365 235
0.064683966 0.80199999 0.0070308661 1.355122e-38 366 235
0.065925337 0.80000001 0.007013333 1.4011838e-38 367 235
0.067159683 0.79799998 0.0069957995 1.4839791e-38 368 235
0.068387017 0.796 0.0069782664 1.5116018e-38 369 235
0.069782659 0.796 0.0069782664 1.5485508e-38 370 235
0.071178317 0.796 0.0069782664 1.5669539e-38 371 235
0.072573967 0.796 0.0069782664 1.6129078e-38 372 235
0.073969625 0.796 0.0069782664 1.6497861e-38 373 235
0.075365283 0.796 0.0069782664 1.6406388e-38 374 235
0.076568067 0.79400003 0.0069607338 1.6498584e-38 375 235
0.077763841 0.792 0.0069431998 1.6774445e-38 376 235
0.07915248 0.792 0.0069431998 1.6774445e-38 377 235
0.080541119 0.792 0.0069431998 1.66826e-38 378 235
0.081929758 0.792 0.0069431998 1.66826e-38 379 235
0.083108 0.79000002 0.0069256667 1.6681155e-38 380 235
0.084493138 0.79000002 0.0069256667 1.6404927e-38 381 235
0.08587826 0.79000002 0.0069256667 1.6036492e-38 382 235
0.087484315 0.792 0.0069431998 1.5759905e-38 383 235
0.088872954 0.792 0.0069431998 1.5392552e-38 384 235
0.090489529 0.79400003 0.0069607338 1.5115963e-38 385 235
0.092113115 0.796 0.0069782664 1.465534e-38 386 235
0.093508773 0.796 0.0069782664 1.4286197e-38 387 235
0.094904423 0.796 0.0069782664 1.3825592e-38 388 235
0.096300073 0.796 0.0069782664 1.3180222e-38 389 235
0.097695731 0.796 0.0069782664 1.1892082e-38 390 235
0.099091381 0.796 0.0069782664 1.3920385e-38 391 235
0.057018399 0.81300002 0.0057018399 1.152332e-38 360 236
0.058300085 0.81099999 0.0056878133 1.2076494e-38 361 236
0.05957476 0.80900002 0.0056737866 1.3363249e-38 362 236
0.060842417 0.80699998 0.0056597595 1.373203e-38 363 236
0.062103067 0.80500001 0.0056457333 1.3366469e-38 364 236
0.063356698 0.80299997 0.0056317062 1.3458666e-38 365 236
0.064683966 0.80199999 0.0056246929 1.4010041e-38 366 236
0.065925337 0.80000001 0.0056106667 1.4102236e-38 367 236
0.067159683 0.79799998 0.0055966396 1.4746161e-38 368 236
0.068387017 0.796 0.0055826134 1.5115302e-38 369 236
0.069782659 0.796 0.0055826134 1.5760293e-38 370 236
0.071178317 0.796 0.0055826134 1.5944684e-38 371 236
0.072573967 0.796 0.0055826134 1.6129076e-38 372 236
0.073969625 0.796 0.0055826134 1.6313827e-38 373 236
0.075175926 0.79400003 0.0055685868 1.6314543e-38 374 236
0.076568067 0.79400003 0.0055685868 1.6406739e-38 375 236
0.077763841 0.792 0.0055545596 1.6682605e-38 376 236
0.07915248 0.792 0.0055545596 1.6774801e-38 377 236
0.080541119 0.792 0.0055545596 1.6682971e-38 378 236
0.081722863 0.79000002 0.0055405335 1.6775168e-38 379 236
0.083108 0.79000002 0.0055405335 1.659041e-38 380 236
0.084493138 0.79000002 0.0055405335 1.6497855e-38 381 236
0.08587826 0.79000002 0.0055405335 1.6037218e-38 382 236
0.087263398 0.79000002 0.0055405335 1.5945022e-38 383 236
0.088872954 0.792 0.0055545596 1.5393273e-38 384 236
0.090261593 0.792 0.0055545596 1.5116328e-38 385 236
0.091650233 0.792 0.0055545596 1.4747904e-38 386 236
0.093273826 0.79400003 0.0055685868 1.419473e-38 387 236
0.094904423 0.796 0.0055826134 1.391779e-38 388 236
0.096300073 0.796 0.0055826134 1.3364616e-38 389 236
0.097450264 0.79400003 0.0055685868 1.2443809e-38 390 236
0.098593436 0.792 0.0055545596 1.3550517e-38 391 236
0.099982075 0.792 0.0055545596 1.3646748e-38 392 236
0.058443859 0.81300002 0.0042763799 1.1430774e-38 361 237
0.05972204 0.81099999 0.0042658602 1.2812243e-38 362 237
0.060691636 0.80500001 0.0042343 1.3181024e-38 363 237
0.062103067 0.80500001 0.0042343 1.3549068e-38 364 237
0.063356698 0.80299997 0.0042237798 1.3641264e-38 365 237
0.064683966 0.80199999 0.0042185197 1.3459022e-38 366 237
0.065925337 0.80000001 0.0042079999 1.3551218e-38 367 237
0.067159683 0.79799998 0.0041974802 1.4195141e-38 368 237
0.068387017 0.796 0.0041869599 1.484051e-38 369 237
0.069782659 0.796 0.0041869599 1.5575909e-38 370 237
0.071178317 0.796 0.0041869599 1.5852136e-38 371 237
0.072573967 0.796 0.0041869599 1.5853568e-38 372 237
0.07378377 0.79400003 0.0041764397 1.6129796e-38 373 237
0.074986562 0.792 0.00416592 1.6222345e-38 374 237
0.076375201 0.792 0.00416592 1.6407095e-38 375 237
0.077567466 0.79000002 0.0041554002 1.649929e-38 376 237
0.078952603 0.79000002 0.0041554002 1.6775517e-38 377 237
0.080337733 0.79000002 0.0041554002 1.6775165e-38 378 237
0.081722863 0.79000002 0.0041554002 1.6775165e-38 379 237
0.083108 0.79000002 0.0041554002 1.6683324e-38 380 237
0.084493138 0.79000002 0.0041554002 1.6406739e-38 381 237
0.08587826 0.79000002 0.0041554002 1.6405643e-38 382 237
0.087263398 0.79000002 0.0041554002 1.6037221e-38 383 237
0.088648535 0.79000002 0.0041554002 1.5485116e-38 384 237
0.090033665 0.79000002 0.0041554002 1.5208529e-38 385 237
0.091418803 0.79000002 0.0041554002 1.4839744e-38 386 237
0.093038872 0.792 0.00416592 1.4286929e-38 387 237
0.094427519 0.792 0.00416592 1.4009633e-38 388 237
0.096058123 0.79400003 0.0041764397 1.3456459e-38 389 237
0.097204797 0.792 0.00416592 1.2718949e-38 390 237
0.09834446 0.79000002 0.0041554002 1.2995894e-38 391 237
0.099729598 0.79000002 0.0041554002 1.3093202e-38 392 237
0.10111474 0.79000002 0.0041554002 1.5305898e-38 393 237
0.05972204 0.81099999 0.0028439066 1.2076125e-38 362 238
0.060691636 0.80500001 0.0028228667 1.2537103e-38 363 238
0.061948773 0.80299997 0.0028158531 1.2905861e-38 364 238
0.063356698 0.80299997 0.0028158531 1.3090611e-38 365 238
0.064683966 0.80199999 0.0028123464 1.3549784e-38 366 238
0.066090144 0.80199999 0.0028123464 1.3734177e-38 367 238
0.067159683 0.79799998 0.0027983198 1.3918924e-38 368 238
0.068387017 0.796 0.0027913067 1.4564293e-38 369 238
0.069782659 0.796 0.0027913067 1.5116018e-38 370 238
0.071178317 0.796 0.0027913067 1.5392606e-38 371 238
0.072391629 0.79400003 0.0027842934 1.5761741e-38 372 238
0.073597915 0.792 0.0027772798 1.5853936e-38 373 238
0.074986562 0.792 0.0027772798 1.6039035e-38 374 238
0.076182336 0.79000002 0.0027702667 1.6131231e-38 375 238
0.077567466 0.79000002 0.0027702667 1.6406739e-38 376 238
0.078952603 0.79000002 0.0027702667 1.6683324e-38 377 238
0.080337733 0.79000002 0.0027702667 1.6499659e-38 378 238
0.081722863 0.79000002 0.0027702667 1.6591856e-38 379 238
0.083108 0.79000002 0.0027702667 1.6683324e-38 380 238
0.08438617 0.78899997 0.0027667598 1.6498934e-38 381 238
0.085769556 0.78899997 0.0027667598 1.6681511e-38 382 238
0.087152928 0.78899997 0.0027667598 1.6312728e-38 383 238
0.088648535 0.79000002 0.0027702667 1.6036125e-38 384 238
0.090033665 0.79000002 0.0027702667 1.5759179e-38 385 238
0.091418803 0.79000002 0.0027702667 1.5023765e-38 386 238
0.092803933 0.79000002 0.0027702667 1.4562788e-38 387 238
0.094427519 0.792 0.0027772798 1.4284778e-38 388 238
0.095816158 0.792 0.0027772798 1.4007831e-38 389 238
0.097204797 0.792 0.0027772798 1.3087349e-38 390 238
0.09834446 0.79000002 0.0027702667 1.2534175e-38 391 238
0.099729598 0.79000002 0.0027702667 1.2538565e-38 392 238
0.10111474 0.79000002 0.0027702667 1.5304434e-38 393 238
0.060691636 0.80500001 0.0014114333 1.1892826e-38 363 239
0.061948773 0.80299997 0.0014079266 1.2998062e-38 364 239
0.063356698 0.80299997 0.0014079266 1.2998062e-38 365 239
0.064683966 0.80199999 0.0014061732 1.3549418e-38 366 239
0.066090144 0.80199999 0.0014061732 1.3641614e-38 367 239
0.067159683 0.79799998 0.0013991599 1.410187e-38 368 239
0.068387017 0.796 0.0013956534 1.4562849e-38 369 239
0.069782659 0.796 0.0013956534 1.5298249e-38 370 239
0.070999481 0.79400003 0.0013921467 1.5666671e-38 371 239
0.072391629 0.79400003 0.0013921467 1.5668821e-38 372 239
0.073597915 0.792 0.0013886399 1.6037602e-38 373 239
0.074797198 0.79000002 0.0013851334 1.6405297e-38 374 239
0.076182336 0.79000002 0.0013851334 1.6589688e-38 375 239
0.077469274 0.78899997 0.0013833799 1.6589691e-38 376 239
0.078852654 0.78899997 0.0013833799 1.6865918e-38 377 239
0.080236033 0.78899997 0.0013833799 1.6682971e-38 378 239
0.081619412 0.78899997 0.0013833799 1.6775168e-38 379 239
0.083002798 0.78899997 0.0013833799 1.65915e-38 380 239
0.08438617 0.78899997 0.0013833799 1.6499303e-38 381 239
0.085769556 0.78899997 0.0013833799 1.6590057e-38 382 239
0.087152928 0.78899997 0.0013833799 1.6221275e-38 383 239
0.088536315 0.78899997 0.0013833799 1.5853195e-38 384 239
0.089919694 0.78899997 0.0013833799 1.5392217e-38 385 239
0.091303073 0.78899997 0.0013833799 1.4841549e-38 386 239
0.092686452 0.78899997 0.0013833799 1.4288015e-38 387 239
0.094189063 0.79000002 0.0013851334 1.4194391e-38 388 239
0.0955742 0.79000002 0.0013851334 1.3733772e-38 389 239
0.096959338 0.79000002 0.0013851334 1.3456474e-38 390 239
0.09834446 0.79000002 0.0013851334 1.2811105e-38 391 239
0.099729598 0.79000002 0.0013851334 1.226124e-38 392 239
0.10111474 0.79000002 0.0013851334 1.4934913e-38 393 239
0.060691636 0.80500001 -0 1.1706635e-38 363 240
0.062103067 0.80500001 -0 1.2995908e-38 364 240
0.063356698 0.80299997 -0 1.3272854e-38 365 240
0.064683966 0.80199999 -0 1.299841e-38 366 240
0.065925337 0.80000001 -0 1.318316e-38 367 240
0.067159683 0.79799998 -0 1.3550864e-38 368 240
0.068387017 0.796 -0 1.382745e-38 369 240
0.069607332 0.79400003 -0 1.4562864e-38 370 240
0.070999481 0.79400003 -0 1.4931646e-38 371 240
0.072026931 0.79000002 -0 1.5300782e-38 372 240
0.073412068 0.79000002 -0 1.5577369e-38 373 240
0.074797198 0.79000002 -0 1.5854659e-38 374 240
0.076182336 0.79000002 -0 1.5946855e-38 375 240
0.077469274 0.78899997 -0 1.6314193e-38 376 240
0.078852654 0.78899997 -0 1.6498584e-38 377 240
0.080236033 0.78899997 -0 1.6591503e-38 378 240
0.081619412 0.78899997 -0 1.6591503e-38 379 240
0.083002798 0.78899997 -0 1.6775168e-38 380 240
0.08438617 0.78899997 -0 1.6682971e-38 381 240
0.085769556 0.78899997 -0 1.6589688e-38 382 240
0.087152928 0.78899997 -0 1.6405297e-38 383 240
0.088536315 0.78899997 -0 1.6128332e-38 384 240
0.089919694 0.78899997 -0 1.5759908e-38 385 240
0.091303073 0.78899997 -0 1.5299626e-38 386 240
0.092686452 0.78899997 -0 1.4930845e-38 387 240
0.094069831 0.78899997 -0 1.4469872e-38 388 240
0.09545321 0.78899997 -0 1.4192927e-38 389 240
0.096959338 0.79000002 -0 1.3823446e-38 390 240
0.09834446 0.79000002 -0 1.3178077e-38 391 240
0.099729598 0.79000002 -0 1.2075044e-38 392 240
0.10111474 0.79000002 -0 1.4380293e-38 393 240
0.062103067 0.80500001 -0.0014114333 1.198393e-38 364 241
0.063356698 0.80299997 -0.0014079266 1.2537103e-38 365 241
0.064683966 0.80199999 -0.0014061732 1.2998412e-38 366 241
0.065925337 0.80000001 -0.0014026667 1.3090608e-38 367 241
0.067159683 0.79799998 -0.0013991599 1.3733811e-38 368 241
0.068387017 0.796 -0.0013956534 1.4010396e-38 369 241
0.069607332 0.79400003 -0.0013921467 1.4562125e-38 370 241
0.070999481 0.79400003 -0.0013921467 1.5023104e-38 371 241
0.072026931 0.79000002 -0.0013851334 1.5391882e-38 372 241
0.073412068 0.79000002 -0.0013851334 1.5760666e-38 373 241
0.074797198 0.79000002 -0.0013851334 1.6129081e-38 374 241
0.076182336 0.79000002 -0.0013851334 1.6313474e-38 375 241
0.077469274 0.78899997 -0.0013833799 1.6314546e-38 376 241
0.078852654 0.78899997 -0.0013833799 1.6406742e-38 377 241
0.080236033 0.78899997 -0.0013833799 1.6498934e-38 378 241
0.081619412 0.78899997 -0.0013833799 1.6683324e-38 379 241
0.083002798 0.78899997 -0.0013833799 1.6591853e-38 380 241
0.08438617 0.78899997 -0.0013833799 1.6591853e-38 381 241
0.085552141 0.787 -0.0013798733 1.649894e-38 382 241
0.086932018 0.787 -0.0013798733 1.6221994e-38 383 241
0.088311888 0.787 -0.0013798733 1.603688e-38 384 241
0.089691758 0.787 -0.0013798733 1.5852489e-38 385 241
0.091071643 0.787 -0.0013798733 1.52993e-38 386 241
0.092451513 0.787 -0.0013798733 1.4930157e-38 387 241
0.094069831 0.78899997 -0.0013833799 1.4470611e-38 388 241
0.09545321 0.78899997 -0.0013833799 1.4009633e-38 389 241
0.096836597 0.78899997 -0.0013833799 1.3640501e-38 390 241
0.09834446 0.79000002 -0.0013851334 1.3179163e-38 391 241
0.099729598 0.79000002 -0.0013851334 1.2534936e-38 392 241
0.10111474 0.79000002 -0.0013851334 1.391787e-38 393 241
0.064764626 0.80299997 -0.0028158531 1.2447404e-38 366 242
0.065925337 0.80000001 -0.0028053334 1.2632154e-38 367 242
0.067159683 0.79799998 -0.0027983198 1.3367192e-38 368 242
0.068387017 0.796 -0.0027913067 1.3459388e-38 369 242
0.069607332 0.79400003 -0.0027842934 1.3644132e-38 370 242
0.070999481 0.79400003 -0.0027842934 1.410511e-38 371 242
0.072026931 0.79000002 -0.0027702667 1.4840154e-38 372 242
0.073412068 0.79000002 -0.0027702667 1.5301132e-38 373 242
0.074797198 0.79000002 -0.0027702667 1.5761388e-38 374 242
0.076085895 0.78899997 -0.0027667598 1.594578e-38 375 242
0.077469274 0.78899997 -0.0027667598 1.6130881e-38 376 242
0.078852654 0.78899997 -0.0027667598 1.6314912e-38 377 242
0.080236033 0.78899997 -0.0027667598 1.6407107e-38 378 242
0.081412524 0.787 -0.0027597465 1.6499303e-38 379 242
0.082792401 0.787 -0.0027597465 1.6591856e-38 380 242
0.084172271 0.787 -0.0027597465 1.6499659e-38 381 242
0.085552141 0.787 -0.0027597465 1.659041e-38 382 242
0.086932018 0.787 -0.0027597465 1.6313824e-38 383 242
0.088311888 0.787 -0.0027597465 1.6312744e-38 384 242
0.089691758 0.787 -0.0027597465 1.5944321e-38 385 242
0.091071643 0.787 -0.0027597465 1.539257e-38 386 242
0.092451513 0.787 -0.0027597465 1.4747201e-38 387 242
0.093831383 0.787 -0.0027597465 1.4562438e-38 388 242
0.09545321 0.78899997 -0.0027667598 1.4285491e-38 389 242
0.096836597 0.78899997 -0.0027667598 1.4007833e-38 390 242
0.09834446 0.79000002 -0.0027702667 1.3639052e-38 391 242
0.099729598 0.79000002 -0.0027702667 1.26264e-38 392 242
0.10111474 0.79000002 -0.0027702667 1.3087738e-38 393 242
0.064764626 0.80299997 -0.0042237798 1.2905864e-38 366 243
0.065925337 0.80000001 -0.0042079999 1.3090255e-38 367 243
0.067159683 0.79799998 -0.0041974802 1.3183154e-38 368 243
0.068387017 0.796 -0.0041869599 1.3367545e-38 369 243
0.069607332 0.79400003 -0.0041764397 1.3826728e-38 370 243
0.070820637 0.792 -0.00416592 1.4195151e-38 371 243
0.072026931 0.79000002 -0.0041554002 1.4747243e-38 372 243
0.07331913 0.78899997 -0.0041501396 1.5392612e-38 373 243
0.074702516 0.78899997 -0.0041501396 1.5760666e-38 374 243
0.076085895 0.78899997 -0.0041501396 1.6037251e-38 375 243
0.077272899 0.787 -0.0041396199 1.6038332e-38 376 243
0.078652777 0.787 -0.0041396199 1.6314559e-38 377 243
0.080032654 0.787 -0.0041396199 1.6498587e-38 378 243
0.081412524 0.787 -0.0041396199 1.6682618e-38 379 243
0.082792401 0.787 -0.0041396199 1.65915e-38 380 243
0.084172271 0.787 -0.0041396199 1.65915e-38 381 243
0.085552141 0.787 -0.0041396199 1.6682249e-38 382 243
0.086711101 0.78500003 -0.0041291001 1.6497858e-38 383 243
0.088087469 0.78500003 -0.0041291001 1.6405293e-38 384 243
0.08946383 0.78500003 -0.0041291001 1.5944316e-38 385 243
0.090840198 0.78500003 -0.0041291001 1.5484766e-38 386 243
0.092216566 0.78500003 -0.0041291001 1.4839396e-38 387 243
0.093831383 0.787 -0.0041396199 1.4654286e-38 388 243
0.09521126 0.787 -0.0041396199 1.4377339e-38 389 243
0.096836597 0.78899997 -0.0041501396 1.409968e-38 390 243
0.098219968 0.78899997 -0.0041501396 1.3823093e-38 391 243
0.099729598 0.79000002 -0.0041554002 1.2902604e-38 392 243
0.10111474 0.79000002 -0.0041554002 1.2257235e-38 393 243
0.063672297 0.80699998 -0.0056597595 1.2350935e-38 365 244
0.064764626 0.80299997 -0.0056317062 1.2904797e-38 366 244
0.066090144 0.80199999 -0.0056246929 1.3181024e-38 367 244
0.067159683 0.79799998 -0.0055966396 1.3183157e-38 368 244
0.068387017 0.796 -0.0055826134 1.3367189e-38 369 244
0.069607332 0.79400003 -0.0055685868 1.3918198e-38 370 244
0.070820637 0.792 -0.0055545596 1.3918198e-38 371 244
0.072026931 0.79000002 -0.0055405335 1.438025e-38 372 244
0.07331913 0.78899997 -0.0055335197 1.4933422e-38 373 244
0.074702516 0.78899997 -0.0055335197 1.5576275e-38 374 244
0.07589303 0.787 -0.005519493 1.585322e-38 375 244
0.077272899 0.787 -0.005519493 1.6129448e-38 376 244
0.078652777 0.787 -0.005519493 1.6406035e-38 377 244
0.079829268 0.78500003 -0.0055054668 1.649894e-38 378 244
0.081205636 0.78500003 -0.0055054668 1.6682971e-38 379 244
0.082582004 0.78500003 -0.0055054668 1.6775168e-38 380 244
0.083958365 0.78500003 -0.0055054668 1.6775168e-38 381 244
0.085334733 0.78500003 -0.0055054668 1.6774448e-38 382 244
0.086711101 0.78500003 -0.0055054668 1.6590057e-38 383 244
0.088087469 0.78500003 -0.0055054668 1.6313824e-38 384 244
0.08946383 0.78500003 -0.0055054668 1.594504e-38 385 244
0.090840198 0.78500003 -0.0055054668 1.5574813e-38 386 244
0.092216566 0.78500003 -0.0055054668 1.5113835e-38 387 244
0.093592934 0.78500003 -0.0055054668 1.4653933e-38 388 244
0.09521126 0.787 -0.005519493 1.4376986e-38 389 244
0.096836597 0.78899997 -0.0055335197 1.409968e-38 390 244
0.098219968 0.78899997 -0.0055335197 1.3730898e-38 391 244
0.099729598 0.79000002 -0.0055405335 1.3179169e-38 392 244
0.10111474 0.79000002 -0.0055405335 1.2257212e-38 393 244
0.10249986 0.79000002 -0.0055405335 1.2173363e-38 394 244
0.063672297 0.80699998 -0.0070746993 1.2165835e-38 365 245
0.064764626 0.80299997 -0.0070396326 1.2077566e-38 366 245
0.066090144 0.80199999 -0.0070308661 1.2538904e-38 367 245
0.066991359 0.796 -0.0069782664 1.318316e-38 368 245
0.068387017 0.796 -0.0069782664 1.3367192e-38 369 245
0.069431998 0.792 -0.0069431998 1.3826725e-38 370 245
0.070820637 0.792 -0.0069431998 1.373453e-38 371 245
0.072026931 0.79000002 -0.0069256667 1.428769e-38 372 245
0.07331913 0.78899997 -0.0069168997 1.4933059e-38 373 245
0.074702516 0.78899997 -0.0069168997 1.5393315e-38 374 245
0.07589303 0.787 -0.0068993662 1.5761738e-38 375 245
0.077272899 0.787 -0.0068993662 1.6038332e-38 376 245
0.078652777 0.787 -0.0068993662 1.6314559e-38 377 245
0.079829268 0.78500003 -0.0068818335 1.6499303e-38 378 245
0.081205636 0.78500003 -0.0068818335 1.6499303e-38 379 245
0.082582004 0.78500003 -0.0068818335 1.6775168e-38 380 245
0.083958365 0.78500003 -0.0068818335 1.6775168e-38 381 245
0.085334733 0.78500003 -0.0068818335 1.6866648e-38 382 245
0.086490177 0.78299999 -0.0068642995 1.6682255e-38 383 245
0.087863036 0.78299999 -0.0068642995 1.6404588e-38 384 245
0.089235894 0.78299999 -0.0068642995 1.6220195e-38 385 245
0.090608761 0.78299999 -0.0068642995 1.5666658e-38 386 245
0.091981612 0.78299999 -0.0068642995 1.5021289e-38 387 245
0.093354478 0.78299999 -0.0068642995 1.4745047e-38 388 245
0.094727337 0.78299999 -0.0068642995 1.4376623e-38 389 245
0.09659113 0.787 -0.0068993662 1.4100028e-38 390 245
0.097971 0.787 -0.0068993662 1.3731604e-38 391 245
0.099603355 0.78899997 -0.0069168997 1.3546509e-38 392 245
0.10098673 0.78899997 -0.0069168997 1.2532357e-38 393 245
0.10249986 0.79000002 -0.0069256667 1.2261605e-38 394 245
0.064925931 0.80500001 -0.0084686 1.2534598e-38 366 246
0.066172548 0.80299997 -0.0084475596 1.2811545e-38 367 246
0.066991359 0.796 -0.0083739199 1.3090255e-38 368 246
0.068387017 0.796 -0.0083739199 1.3366842e-38 369 246
0.069431998 0.792 -0.0083318399 1.3917845e-38 370 246
0.070641801 0.79000002 -0.0083108004 1.4010041e-38 371 246
0.071935758 0.78899997 -0.0083002793 1.4562481e-38 372 246
0.07331913 0.78899997 -0.0083002793 1.5115296e-38 373 246
0.074702516 0.78899997 -0.0083002793 1.5667377e-38 374 246
0.07589303 0.787 -0.0082792398 1.6036161e-38 375 246
0.077272899 0.787 -0.0082792398 1.6129076e-38 376 246
0.078652777 0.787 -0.0082792398 1.6497858e-38 377 246
0.079829268 0.78500003 -0.0082582003 1.659041e-38 378 246
0.081205636 0.78500003 -0.0082582003 1.6682605e-38 379 246
0.082582004 0.78500003 -0.0082582003 1.6682968e-38 380 246
0.083744459 0.78299999 -0.0082371598 1.6775165e-38 381 246
0.08511731 0.78299999 -0.0082371598 1.6774815e-38 382 246
0.086490177 0.78299999 -0.0082371598 1.6682618e-38 383 246
0.087863036 0.78299999 -0.0082371598 1.6314193e-38 384 246
0.089235894 0.78299999 -0.0082371598 1.6037604e-38 385 246
0.090608761 0.78299999 -0.0082371598 1.5667372e-38 386 246
0.091981612 0.78299999 -0.0082371598 1.4929807e-38 387 246
0.093354478 0.78299999 -0.0082371598 1.4471337e-38 388 246
0.094727337 0.78299999 -0.0082371598 1.4194391e-38 389 246
0.096100196 0.78299999 -0.0082371598 1.3917081e-38 390 246
0.097971 0.787 -0.0082792398 1.3456462e-38 391 246
0.099603355 0.78899997 -0.0083002793 1.3270643e-38 392 246
0.10098673 0.78899997 -0.0083002793 1.2717469e-38 393 246
0.10237011 0.78899997 -0.0083002793 1.2352358e-38 394 246
0.066172548 0.80299997 -0.0098554865 1.2443498e-38 367 247
0.066991359 0.796 -0.0097695729 1.2721851e-38 368 247
0.068387017 0.796 -0.0097695729 1.2998077e-38 369 247
0.069431998 0.792 -0.0097204801 1.3458672e-38 370 247
0.070641801 0.79000002 -0.0096959332 1.3734898e-38 371 247
0.071935758 0.78899997 -0.0096836593 1.437845e-38 372 247
0.07331913 0.78899997 -0.0096836593 1.45632e-38 373 247
0.07451316 0.787 -0.0096591124 1.5300761e-38 374 247
0.07589303 0.787 -0.0096591124 1.5669542e-38 375 247
0.077076539 0.78500003 -0.0096345674 1.594578e-38 376 247
0.0784529 0.78500003 -0.0096345674 1.613053e-38 377 247
0.079829268 0.78500003 -0.0096345674 1.6406391e-38 378 247
0.080998734 0.78299999 -0.0096100196 1.6498587e-38 379 247
0.0823716 0.78299999 -0.0096100196 1.6499306e-38 380 247
0.083744459 0.78299999 -0.0096100196 1.6499306e-38 381 247
0.08511731 0.78299999 -0.0096100196 1.6774451e-38 382 247
0.086490177 0.78299999 -0.0096100196 1.6682255e-38 383 247
0.087863036 0.78299999 -0.0096100196 1.6681158e-38 384 247
0.089235894 0.78299999 -0.0096100196 1.622018e-38 385 247
0.090608761 0.78299999 -0.0096100196 1.5576586e-38 386 247
0.091981612 0.78299999 -0.0096100196 1.5115608e-38 387 247
0.093354478 0.78299999 -0.0096100196 1.4654984e-38 388 247
0.094727337 0.78299999 -0.0096100196 1.4378396e-38 389 247
0.096100196 0.78299999 -0.0096100196 1.4375529e-38 390 247
0.097722031 0.78500003 -0.0096345674 1.391455e-38 391 247
0.099350877 0.787 -0.0096591124 1.37291e-38 392 247
0.10098673 0.78899997 -0.0096836593 1.308373e-38 393 247
0.10237011 0.78899997 -0.0096836593 1.2535304e-38 394 247
0.10375349 0.78899997 -0.0096836593 1.4655805e-38 395 247
0.066337362 0.80500001 -0.011291467 1.280976e-38 367 248
0.066991359 0.796 -0.011165227 1.3088475e-38 368 248
0.068043359 0.792 -0.011109119 1.3272866e-38 369 248
0.069431998 0.792 -0.011109119 1.3550867e-38 370 248
0.070641801 0.79000002 -0.011081067 1.3734898e-38 371 248
0.071935758 0.78899997 -0.011067039 1.43781e-38 372 248
0.07331913 0.78899997 -0.011067039 1.4747243e-38 373 248
0.07451316 0.787 -0.011038986 1.5390807e-38 374 248
0.075700171 0.78500003 -0.011010934 1.5851785e-38 375 248
0.077076539 0.78500003 -0.011010934 1.603653e-38 376 248
0.0784529 0.78500003 -0.011010934 1.6220922e-38 377 248
0.079625882 0.78299999 -0.010982879 1.6313474e-38 378 248
0.080998734 0.78299999 -0.010982879 1.6497505e-38 379 248
0.0823716 0.78299999 -0.010982879 1.6682615e-38 380 248
0.083530553 0.78100002 -0.010954826 1.6682615e-38 381 248
0.084899902 0.78100002 -0.010954826 1.6682618e-38 382 248
0.086269259 0.78100002 -0.010954826 1.6498587e-38 383 248
0.087638609 0.78100002 -0.010954826 1.6404591e-38 384 248
0.089007966 0.78100002 -0.010954826 1.6036167e-38 385 248
0.090608761 0.78299999 -0.010982879 1.5576612e-38 386 248
0.091981612 0.78299999 -0.010982879 1.5115274e-38 387 248
0.093354478 0.78299999 -0.010982879 1.4747201e-38 388 248
0.094727337 0.78299999 -0.010982879 1.4470255e-38 389 248
0.096100196 0.78299999 -0.010982879 1.4284074e-38 390 248
0.097473055 0.78299999 -0.010982879 1.3823096e-38 391 248
0.099350877 0.787 -0.011038986 1.35458e-38 392 248
0.10073075 0.787 -0.011038986 1.2992985e-38 393 248
0.10237011 0.78899997 -0.011067039 1.2535301e-38 394 248
0.10375349 0.78899997 -0.011067039 1.4195183e-38 395 248
0.066823035 0.79400003 -0.01252932 1.2444199e-38 368 249
0.068043359 0.792 -0.012497759 1.2905176e-38 369 249
0.069431998 0.792 -0.012497759 1.3366842e-38 370 249
0.070641801 0.79000002 -0.0124662 1.3551233e-38 371 249
0.071935758 0.78899997 -0.012450419 1.4285551e-38 372 249
0.07331913 0.78899997 -0.012450419 1.4654694e-38 373 249
0.07451316 0.787 -0.01241886 1.5115668e-38 374 249
0.075700171 0.78500003 -0.0123873 1.5484452e-38 375 249
0.076880157 0.78299999 -0.012355739 1.6036532e-38 376 249
0.078253016 0.78299999 -0.012355739 1.6128728e-38 377 249
0.079625882 0.78299999 -0.012355739 1.6221997e-38 378 249
0.080998734 0.78299999 -0.012355739 1.6314193e-38 379 249
0.082161196 0.78100002 -0.01232418 1.640711e-38 380 249
0.083530553 0.78100002 -0.01232418 1.640711e-38 381 249
0.084899902 0.78100002 -0.01232418 1.6497155e-38 382 249
0.086269259 0.78100002 -0.01232418 1.6220928e-38 383 249
0.087638609 0.78100002 -0.01232418 1.6403517e-38 384 249
0.089007966 0.78100002 -0.01232418 1.612693e-38 385 249
0.090377316 0.78100002 -0.01232418 1.5759204e-38 386 249
0.091746673 0.78100002 -0.01232418 1.5390063e-38 387 249
0.09311603 0.78100002 -0.01232418 1.4930513e-38 388 249
0.09448538 0.78100002 -0.01232418 1.4469535e-38 389 249
0.096100196 0.78299999 -0.012355739 1.4191876e-38 390 249
0.097473055 0.78299999 -0.012355739 1.3823093e-38 391 249
0.099098399 0.78500003 -0.0123873 1.3546156e-38 392 249
0.10047477 0.78500003 -0.0123873 1.3085178e-38 393 249
0.10211062 0.787 -0.01241886 1.2259072e-38 394 249
0.1034905 0.787 -0.01241886 1.3733842e-38 395 249
0.066823035 0.79400003 -0.013921468 1.2260887e-38 368 250
0.068043359 0.792 -0.0138864 1.2814059e-38 369 250
0.069431998 0.792 -0.0138864 1.3550517e-38 370 250
0.070641801 0.79000002 -0.013851333 1.3826744e-38 371 250
0.071935758 0.78899997 -0.013833799 1.4469224e-38 372 250
0.073133282 0.787 -0.013798732 1.4930202e-38 373 250
0.07451316 0.787 -0.013798732 1.5115665e-38 374 250
0.075700171 0.78500003 -0.013763667 1.5392612e-38 375 250
0.076880157 0.78299999 -0.013728599 1.6036886e-38 376 250
0.078253016 0.78299999 -0.013728599 1.6221278e-38 377 250
0.079625882 0.78299999 -0.013728599 1.6314543e-38 378 250
0.080791846 0.78100002 -0.013693534 1.6314543e-38 379 250
0.082161196 0.78100002 -0.013693534 1.6406388e-38 380 250
0.083530553 0.78100002 -0.013693534 1.6221997e-38 381 250
0.084791191 0.77999997 -0.013675999 1.6311324e-38 382 250
0.086158797 0.77999997 -0.013675999 1.6034379e-38 383 250
0.087526396 0.77999997 -0.013675999 1.5943265e-38 384 250
0.088893995 0.77999997 -0.013675999 1.603546e-38 385 250
0.090261593 0.77999997 -0.013675999 1.594218e-38 386 250
0.091629192 0.77999997 -0.013675999 1.5481561e-38 387 250
0.092996791 0.77999997 -0.013675999 1.4929807e-38 388 250
0.094364397 0.77999997 -0.013675999 1.4561384e-38 389 250
0.096100196 0.78299999 -0.013728599 1.4284074e-38 390 250
0.097473055 0.78299999 -0.013728599 1.3823096e-38 391 250
0.099098399 0.78500003 -0.013763667 1.354545e-38 392 250
0.10047477 0.78500003 -0.013763667 1.3361059e-38 393 250
0.10185113 0.78500003 -0.013763667 1.2166523e-38 394 250
0.1034905 0.787 -0.013798732 1.3272869e-38 395 250
0.066823035 0.79400003 -0.015313613 1.2443834e-38 368 251
0.068043359 0.792 -0.01527504 1.3089204e-38 369 251
0.069256663 0.79000002 -0.015236467 1.3734548e-38 370 251
0.070641801 0.79000002 -0.015236467 1.3826744e-38 371 251
0.071935758 0.78899997 -0.015217179 1.4652895e-38 372 251
0.073133282 0.787 -0.015178605 1.5113514e-38 373 251
0.07451316 0.787 -0.015178605 1.5115665e-38 374 251
0.075507298 0.78299999 -0.01510146 1.5484808e-38 375 251
0.076880157 0.78299999 -0.01510146 1.6036886e-38 376 251
0.078253016 0.78299999 -0.01510146 1.6313474e-38 377 251
0.079422489 0.78100002 -0.015062887 1.631419e-38 378 251
0.080791846 0.78100002 -0.015062887 1.6406744e-38 379 251
0.082055993 0.77999997 -0.0150436 1.631384e-38 380 251
0.083423592 0.77999997 -0.0150436 1.585322e-38 381 251
0.084573783 0.778 -0.015005025 1.5573403e-38 382 251
0.08593788 0.778 -0.015005025 1.5112785e-38 383 251
0.08730197 0.778 -0.015005025 1.5023469e-38 384 251
0.088666067 0.778 -0.015005025 1.5392612e-38 385 251
0.090030156 0.778 -0.015005025 1.5665955e-38 386 251
0.091629192 0.77999997 -0.0150436 1.5389009e-38 387 251
0.092996791 0.77999997 -0.0150436 1.4929809e-38 388 251
0.094364397 0.77999997 -0.0150436 1.4561028e-38 389 251
0.095854737 0.78100002 -0.015062887 1.4283721e-38 390 251
0.097473055 0.78299999 -0.01510146 1.4006775e-38 391 251
0.098845914 0.78299999 -0.01510146 1.3545097e-38 392 251
0.10021878 0.78299999 -0.01510146 1.3360705e-38 393 251
0.10185113 0.78500003 -0.015140033 1.2625687e-38 394 251
0.1032275 0.78500003 -0.015140033 1.3178859e-38 395 251
0.10460387 0.78500003 -0.015140033 1.4013711e-38 396 251
0.066823035 0.79400003 -0.016705759 1.2258368e-38 368 252
0.068215191 0.79400003 -0.016705759 1.3272519e-38 369 252
0.069168992 0.78899997 -0.016600559 1.3458687e-38 370 252
0.070552371 0.78899997 -0.016600559 1.3643078e-38 371 252
0.071753412 0.787 -0.01655848 1.4561422e-38 372 252
0.073133282 0.787 -0.01655848 1.4930205e-38 373 252
0.074323803 0.78500003 -0.016516401 1.5208584e-38 374 252
0.075507298 0.78299999 -0.01647432 1.5485171e-38 375 252
0.076683782 0.78100002 -0.016432239 1.5853583e-38 376 252
0.078053139 0.78100002 -0.016432239 1.594578e-38 377 252
0.079422489 0.78100002 -0.016432239 1.6497508e-38 378 252
0.080688395 0.77999997 -0.016411198 1.6497508e-38 379 252
0.082055993 0.77999997 -0.016411198 1.6496086e-38 380 252
0.083209693 0.778 -0.016369121 1.5573769e-38 381 252
0.084573783 0.778 -0.016369121 1.4744734e-38 382 252
0.08593788 0.778 -0.016369121 1.3914974e-38 383 252
0.08730197 0.778 -0.016369121 1.4009687e-38 384 252
0.088666067 0.778 -0.016369121 1.4839807e-38 385 252
0.090030156 0.778 -0.016369121 1.511387e-38 386 252
0.091394253 0.778 -0.016369121 1.4929839e-38 387 252
0.092758343 0.778 -0.016369121 1.4745422e-38 388 252
0.094364397 0.77999997 -0.016411198 1.4468835e-38 389 252
0.095854737 0.78100002 -0.016432239 1.4283721e-38 390 252
0.097473055 0.78299999 -0.01647432 1.3822743e-38 391 252
0.098845914 0.78299999 -0.01647432 1.3728768e-38 392 252
0.10021878 0.78299999 -0.01647432 1.3452182e-38 393 252
0.10159164 0.78299999 -0.01647432 1.2442018e-38 394 252
0.10296449 0.78299999 -0.01647432 1.2442018e-38 395 252
0.10433736 0.78299999 -0.01647432 1.3462695e-38 396 252
0.066486403 0.79000002 -0.018006733 1.2258724e-38 368 253
0.067871533 0.79000002 -0.018006733 1.3364713e-38 369 253
0.069168992 0.78899997 -0.017983939 1.3733826e-38 370 253
0.070373543 0.787 -0.017938353 1.4010772e-38 371 253
0.071571067 0.78500003 -0.017892767 1.4562125e-38 372 253
0.072947428 0.78500003 -0.017892767 1.5115299e-38 373 253
0.074134432 0.78299999 -0.017847179 1.5391526e-38 374 253
0.075314432 0.78100002 -0.017801592 1.5760669e-38 375 253
0.076683782 0.78100002 -0.017801592 1.6036179e-38 376 253
0.078053139 0.78100002 -0.017801592 1.6312768e-38 377 253
0.079320796 0.77999997 -0.017778799 1.6220572e-38 378 253
0.080688395 0.77999997 -0.017778799 1.6312768e-38 379 253
0.081845596 0.778 -0.017733213 1.594543e-38 380 253
0.083209693 0.778 -0.017733213 1.4470298e-38 381 253
0.084356368 0.77600002 -0.017687626 1.3822056e-38 382 253
0.085716955 0.77600002 -0.017687626 1.2992294e-38 383 253
0.087077543 0.77600002 -0.017687626 1.3272475e-38 384 253
0.088438138 0.77600002 -0.017687626 1.4102236e-38 385 253
0.089798726 0.77600002 -0.017687626 1.5203901e-38 386 253
0.091394253 0.778 -0.017733213 1.5296098e-38 387 253
0.092758343 0.778 -0.017733213 1.4470633e-38 388 253
0.094364397 0.77999997 -0.017778799 1.4286242e-38 389 253
0.095854737 0.78100002 -0.017801592 1.3825264e-38 390 253
0.097224087 0.78100002 -0.017801592 1.3548677e-38 391 253
0.098845914 0.78299999 -0.017847179 1.3362138e-38 392 253
0.099962793 0.78100002 -0.017801592 1.3177746e-38 393 253
0.10133215 0.78100002 -0.017801592 1.2809335e-38 394 253
0.1027015 0.78100002 -0.017801592 1.2624585e-38 395 253
0.10433736 0.78299999 -0.017847179 1.3278284e-38 396 253
0.066486403 0.79000002 -0.019391866 1.2441683e-38 368 254
0.067613788 0.787 -0.019318225 1.336364e-38 369 254
0.068993665 0.787 -0.019318225 1.3458687e-38 370 254
0.070015855 0.78299999 -0.019220039 1.3735274e-38 371 254
0.071388714 0.78299999 -0.019220039 1.4379899e-38 372 254
0.07276158 0.78299999 -0.019220039 1.4656845e-38 373 254
0.074134432 0.78299999 -0.019220039 1.5392612e-38 374 254
0.075314432 0.78100002 -0.019170946 1.5668839e-38 375 254
0.076585598 0.77999997 -0.0191464 1.6036901e-38 376 254
0.077953197 0.77999997 -0.0191464 1.6129098e-38 377 254
0.079320796 0.77999997 -0.0191464 1.6312773e-38 378 254
0.080481507 0.778 -0.019097306 1.6035826e-38 379 254
0.081845596 0.778 -0.019097306 1.5024199e-38 380 254
0.082995787 0.77600002 -0.019048214 1.3272122e-38 381 254
0.084356368 0.77600002 -0.019048214 1.3176324e-38 382 254
0.085716955 0.77600002 -0.019048214 1.2714986e-38 383 254
0.087077543 0.77600002 -0.019048214 1.2902604e-38 384 254
0.088438138 0.77600002 -0.019048214 1.3640169e-38 385 254
0.089798726 0.77600002 -0.019048214 1.4102226e-38 386 254
0.091394253 0.778 -0.019097306 1.4470649e-38 387 254
0.092758343 0.778 -0.019097306 1.4561397e-38 388 254
0.094364397 0.77999997 -0.0191464 1.4192973e-38 389 254
0.095854737 0.78100002 -0.019170946 1.4191879e-38 390 254
0.097224087 0.78100002 -0.019170946 1.37309e-38 391 254
0.098593444 0.78100002 -0.019170946 1.3545084e-38 392 254
0.099962793 0.78100002 -0.019170946 1.3360691e-38 393 254
0.10133215 0.78100002 -0.019170946 1.2441992e-38 394 254
0.1027015 0.78100002 -0.019170946 1.1796622e-38 395 254
0.10433736 0.78299999 -0.019220039 1.3000618e-38 396 254
0.066486403 0.79000002 -0.020777 1.2170136e-38 368 255
0.067613788 0.787 -0.0206981 1.2631114e-38 369 255
0.068993665 0.787 -0.0206981 1.3826744e-38 370 255
0.070015855 0.78299999 -0.0205929 1.4011135e-38 371 255
0.071388714 0.78299999 -0.0205929 1.4379902e-38 372 255
0.07276158 0.78299999 -0.0205929 1.484052e-38 373 255
0.073945075 0.78100002 -0.020540299 1.5391526e-38 374 255
0.075314432 0.78100002 -0.020540299 1.5668473e-38 375 255
0.076585598 0.77999997 -0.020513998 1.585322e-38 376 255
0.077953197 0.77999997 -0.020513998 1.6129448e-38 377 255
0.07911741 0.778 -0.020461399 1.6313489e-38 378 255
0.080481507 0.778 -0.020461399 1.5391533e-38 379 255
0.081635199 0.77600002 -0.0204088 1.437775e-38 380 255
0.082995787 0.77600002 -0.0204088 1.2349446e-38 381 255
0.084356368 0.77600002 -0.0204088 1.2437679e-38 382 255
0.085716955 0.77600002 -0.0204088 1.2161093e-38 383 255
0.087077543 0.77600002 -0.0204088 1.3084477e-38 384 255
0.088438138 0.77600002 -0.0204088 1.3822044e-38 385 255
0.089798726 0.77600002 -0.0204088 1.4285539e-38 386 255
0.091394253 0.778 -0.020461399 1.446993e-38 387 255
0.092758343 0.778 -0.020461399 1.4377731e-38 388 255
0.094122432 0.778 -0.020461399 1.419334e-38 389 255
0.095731996 0.77999997 -0.020513998 1.400786e-38 390 255
0.097099595 0.77999997 -0.020513998 1.3638717e-38 391 255
0.098593444 0.78100002 -0.020540299 1.3453254e-38 392 255
0.099962793 0.78100002 -0.020540299 1.3177027e-38 393 255
0.10133215 0.78100002 -0.020540299 1.2532745e-38 394 255
0.1027015 0.78100002 -0.020540299 1.1702986e-38 395 255
0.066486403 0.79000002 -0.022162134 1.2814429e-38 368 256
0.067785613 0.78899997 -0.022134079 1.2906624e-38 369 256
0.068818331 0.78500003 -0.022021867 1.3643075e-38 370 256
0.070015855 0.78299999 -0.021965759 1.3827825e-38 371 256
0.071388714 0.78299999 -0.021965759 1.4471745e-38 372 256
0.07276158 0.78299999 -0.021965759 1.4656495e-38 373 256
0.073945075 0.78100002 -0.021909652 1.530006e-38 374 256
0.075217992 0.77999997 -0.021881599 1.5484452e-38 375 256
0.076585598 0.77999997 -0.021881599 1.5852867e-38 376 256
0.077953197 0.77999997 -0.021881599 1.6129095e-38 377 256
0.07911741 0.778 -0.021825492 1.6220938e-38 378 256
0.080481507 0.778 -0.021825492 1.4745808e-38 379 256
0.081635199 0.77600002 -0.021769386 1.3639831e-38 380 256
0.082995787 0.77600002 -0.021769386 1.1427496e-38 381 256
0.084356368 0.77600002 -0.021769386 1.2251859e-38 382 256
0.085496038 0.77399999 -0.021713279 1.2251859e-38 383 256
0.086853117 0.77399999 -0.021713279 1.3175244e-38 384 256
0.088210195 0.77399999 -0.021713279 1.4097201e-38 385 256
0.089798726 0.77600002 -0.021769386 1.3916409e-38 386 256
0.091159306 0.77600002 -0.021769386 1.4284832e-38 387 256
0.092519894 0.77600002 -0.021769386 1.4101873e-38 388 256
0.094122432 0.778 -0.021825492 1.3824926e-38 389 256
0.095731996 0.77999997 -0.021881599 1.3915309e-38 390 256
0.097099595 0.77999997 -0.021881599 1.3454689e-38 391 256
0.098593444 0.78100002 -0.021909652 1.3453254e-38 392 256
0.099834792 0.77999997 -0.021881599 1.308483e-38 393 256
0.10120239 0.77999997 -0.021881599 1.2348361e-38 394 256
0.1027015 0.78100002 -0.021909652 1.1333849e-38 395 256
0.067785613 0.78899997 -0.023517458 1.3366161e-38 369 257
0.068818331 0.78500003 -0.023398234 1.3827823e-38 370 257
0.070015855 0.78299999 -0.02333862 1.4011855e-38 371 257
0.071206369 0.78100002 -0.023279008 1.456394e-38 372 257
0.072575726 0.78100002 -0.023279008 1.4840526e-38 373 257
0.073945075 0.78100002 -0.023279008 1.5300063e-38 374 257
0.075217992 0.77999997 -0.023249198 1.5484455e-38 375 257
0.076585598 0.77999997 -0.023249198 1.5668486e-38 376 257
0.07775332 0.778 -0.023189586 1.5853237e-38 377 257
0.07911741 0.778 -0.023189586 1.5762486e-38 378 257
0.080481507 0.778 -0.023189586 1.3734182e-38 379 257
0.081635199 0.77600002 -0.023129974 1.2900829e-38 380 257
0.082995787 0.77600002 -0.023129974 1.096472e-38 381 257
0.084356368 0.77600002 -0.023129974 1.1515726e-38 382 257
0.085496038 0.77399999 -0.02307036 1.1976344e-38 383 257
0.086853117 0.77399999 -0.02307036 1.3542949e-38 384 257
0.088210195 0.77399999 -0.02307036 1.4649655e-38 385 257
0.089567274 0.77399999 -0.02307036 1.4008969e-38 386 257
0.091159306 0.77600002 -0.023129974 1.4101523e-38 387 257
0.092519894 0.77600002 -0.023129974 1.4009678e-38 388 257
0.093880482 0.77600002 -0.023129974 1.3732731e-38 389 257
0.095486529 0.778 -0.023189586 1.3639801e-38 390 257
0.096850619 0.778 -0.023189586 1.3362854e-38 391 257
0.098467186 0.77999997 -0.023249198 1.3177746e-38 392 257
0.099834792 0.77999997 -0.023249198 1.2992995e-38 393 257
0.10120239 0.77999997 -0.023249198 1.2164333e-38 394 257
0.10256999 0.77999997 -0.023249198 1.1057985e-38 395 257
0.068818331 0.78500003 -0.0247746 1.4287003e-38 370 258
0.070015855 0.78299999 -0.024711479 1.4379199e-38 371 258
0.071206369 0.78100002 -0.024648361 1.456394e-38 372 258
0.072575726 0.78100002 -0.024648361 1.4840526e-38 373 258
0.073850393 0.77999997 -0.024616797 1.530006e-38 374 258
0.075217992 0.77999997 -0.024616797 1.5484452e-38 375 258
0.076389223 0.778 -0.024553679 1.5484457e-38 376 258
0.07775332 0.778 -0.024553679 1.5852881e-38 377 258
0.07911741 0.778 -0.024553679 1.5669937e-38 378 258
0.080274612 0.77600002 -0.024490559 1.2811513e-38 379 258
0.081635199 0.77600002 -0.024490559 1.1793052e-38 380 258
0.082995787 0.77600002 -0.024490559 1.013353e-38 381 258
0.084356368 0.77600002 -0.024490559 1.1971675e-38 382 258
0.085716955 0.77600002 -0.024490559 1.2709599e-38 383 258
0.087077543 0.77600002 -0.024490559 1.391209e-38 384 258
0.088210195 0.77399999 -0.02442744 1.5110633e-38 385 258
0.089567274 0.77399999 -0.02442744 1.4102592e-38 386 258
0.091159306 0.77600002 -0.024490559 1.4010396e-38 387 258
0.092519894 0.77600002 -0.024490559 1.3918195e-38 388 258
0.093880482 0.77600002 -0.024490559 1.3549771e-38 389 258
0.095241062 0.77600002 -0.024490559 1.3547968e-38 390 258
0.09660165 0.77600002 -0.024490559 1.3179544e-38 391 258
0.097962238 0.77600002 -0.024490559 1.3085195e-38 392 258
0.099578805 0.778 -0.024553679 1.2900802e-38 393 258
0.10068341 0.77600002 -0.024490559 1.1888468e-38 394 258
0.102044 0.77600002 -0.024490559 1.0874676e-38 395 258
0.068818331 0.78500003 -0.026150968 1.4379552e-38 370 259
0.070015855 0.78299999 -0.026084339 1.4471747e-38 371 259
0.071206369 0.78100002 -0.026017714 1.4564659e-38 372 259
0.072482795 0.77999997 -0.025984399 1.4656855e-38 373 259
0.073661037 0.778 -0.025917772 1.5024916e-38 374 259
0.074832268 0.77600002 -0.025851147 1.5209666e-38 375 259
0.076192856 0.77600002 -0.025851147 1.548482e-38 376 259
0.077553444 0.77600002 -0.025851147 1.548482e-38 377 259
0.078914031 0.77600002 -0.025851147 1.5299728e-38 378 259
0.080274612 0.77600002 -0.025851147 1.1980686e-38 379 259
0.081635199 0.77600002 -0.025851147 1.0962218e-38 380 259
0.082995787 0.77600002 -0.025851147 1.0039903e-38 381 259
0.084356368 0.77600002 -0.025851147 1.1421732e-38 382 259
0.085496038 0.77399999 -0.025784519 1.2804666e-38 383 259
0.086853117 0.77399999 -0.025784519 1.4280867e-38 384 259
0.088210195 0.77399999 -0.025784519 1.5571605e-38 385 259
0.089567274 0.77399999 -0.025784519 1.4470646e-38 386 259
0.091159306 0.77600002 -0.025851147 1.4286255e-38 387 259
0.092519894 0.77600002 -0.025851147 1.3917106e-38 388 259
0.093880482 0.77600002 -0.025851147 1.364052e-38 389 259
0.095241062 0.77600002 -0.025851147 1.3455052e-38 390 259
0.09660165 0.77600002 -0.025851147 1.3270661e-38 391 259
0.097962238 0.77600002 -0.025851147 1.3176672e-38 392 259
0.099322826 0.77600002 -0.025851147 1.2807888e-38 393 259
0.10042392 0.77399999 -0.025784519 1.1796269e-38 394 259
0.101781 0.77399999 -0.025784519 1.0598085e-38 395 259
0.070015855 0.78299999 -0.027457198 1.4472116e-38 371 260
0.071206369 0.78100002 -0.027387068 1.4839804e-38 372 260
0.072482795 0.77999997 -0.027351998 1.5024197e-38 373 260
0.073471673 0.77600002 -0.027211733 1.5208584e-38 374 260
0.074832268 0.77600002 -0.027211733 1.5392975e-38 375 260
0.076192856 0.77600002 -0.027211733 1.5392981e-38 376 260
0.077553444 0.77600002 -0.027211733 1.5392981e-38 377 260
0.078914031 0.77600002 -0.027211733 1.4287003e-38 378 260
0.080067717 0.77399999 -0.027141599 1.0322591e-38 379 260
0.081424795 0.77399999 -0.027141599 9.764748e-39 380 260
0.082781881 0.77399999 -0.027141599 9.764748e-39 381 260
0.084138952 0.77399999 -0.027141599 1.1053666e-38 382 260
0.085496038 0.77399999 -0.027141599 1.3174525e-38 383 260
0.086853117 0.77399999 -0.027141599 1.4650361e-38 384 260
0.088210195 0.77399999 -0.027141599 1.5664154e-38 385 260
0.089567274 0.77399999 -0.027141599 1.4195141e-38 386 260
0.090924352 0.77399999 -0.027141599 1.4010391e-38 387 260
0.092281438 0.77399999 -0.027141599 1.3917831e-38 388 260
0.093638517 0.77399999 -0.027141599 1.3456854e-38 389 260
0.095241062 0.77600002 -0.027211733 1.3455419e-38 390 260
0.09660165 0.77600002 -0.027211733 1.3086995e-38 391 260
0.097962238 0.77600002 -0.027211733 1.2809332e-38 392 260
0.099066831 0.77399999 -0.027141599 1.2624941e-38 393 260
0.10042392 0.77399999 -0.027141599 1.1610453e-38 394 260
0.101781 0.77399999 -0.027141599 1.0780692e-38 395 260
0.069837019 0.78100002 -0.028756421 1.4471763e-38 371 261
0.071115196 0.77999997 -0.028719598 1.4931646e-38 372 261
0.072296947 0.778 -0.028645959 1.5024202e-38 373 261
0.073471673 0.77600002 -0.028572321 1.5300063e-38 374 261
0.074832268 0.77600002 -0.028572321 1.5392259e-38 375 261
0.076192856 0.77600002 -0.028572321 1.5668133e-38 376 261
0.077353559 0.77399999 -0.028498679 1.5115317e-38 377 261
0.078710638 0.77399999 -0.028498679 1.3548715e-38 378 261
0.080067717 0.77399999 -0.028498679 9.7686954e-39 379 261
0.081424795 0.77399999 -0.028498679 9.5789176e-39 380 261
0.082781881 0.77399999 -0.028498679 1.0223928e-38 381 261
0.084138952 0.77399999 -0.028498679 1.151429e-38 382 261
0.085496038 0.77399999 -0.028498679 1.3819541e-38 383 261
0.086853117 0.77399999 -0.028498679 1.4743277e-38 384 261
0.088210195 0.77399999 -0.028498679 1.5573038e-38 385 261
0.089567274 0.77399999 -0.028498679 1.4378453e-38 386 261
0.090924352 0.77399999 -0.028498679 1.4009672e-38 387 261
0.092281438 0.77399999 -0.028498679 1.4008223e-38 388 261
0.093638517 0.77399999 -0.028498679 1.3823832e-38 389 261
0.094995596 0.77399999 -0.028498679 1.3455408e-38 390 261
0.09660165 0.77600002 -0.028572321 1.3178462e-38 391 261
0.097962238 0.77600002 -0.028572321 1.2809335e-38 392 261
0.099066831 0.77399999 -0.028498679 1.2256163e-38 393 261
0.10042392 0.77399999 -0.028498679 1.1517554e-38 394 261
0.101781 0.77399999 -0.028498679 1.0503761e-38 395 261
0.069837019 0.78100002 -0.030125774 1.4380646e-38 371 262
0.07093285 0.778 -0.03001005 1.5023119e-38 372 262
0.072296947 0.778 -0.03001005 1.5207512e-38 373 262
0.073471673 0.77600002 -0.029932907 1.5207868e-38 374 262
0.074639395 0.77399999 -0.029855758 1.5484455e-38 375 262
0.075996473 0.77399999 -0.029855758 1.5760687e-38 376 262
0.077353559 0.77399999 -0.029855758 1.4562145e-38 377 262
0.078710638 0.77399999 -0.029855758 1.3178134e-38 378 262
0.080067717 0.77399999 -0.029855758 9.8590918e-39 379 262
0.081424795 0.77399999 -0.029855758 9.94734e-39 380 262
0.082781881 0.77399999 -0.029855758 1.0777102e-38 381 262
0.084138952 0.77399999 -0.029855758 1.2529171e-38 382 262
0.085496038 0.77399999 -0.029855758 1.4557475e-38 383 262
0.086853117 0.77399999 -0.029855758 1.4837284e-38 384 262
0.088210195 0.77399999 -0.029855758 1.4929839e-38 385 262
0.089567274 0.77399999 -0.029855758 1.437845e-38 386 262
