# .PCD v.7 - Point Cloud Data file format
FIELDS x y z rgb imX imY
SIZE 4 4 4 4 4 4
TYPE F F F F F F
COUNT 1 1 1 1 1 1
WIDTH 841
HEIGHT 1
VIEWPOINT 0 0 0 1 0 0 0
POINTS 841
DATA ascii
0.079829268 0.78500003 -0.0068818335 1.613053e-38 378 245
0.081205636 0.78500003 -0.0068818335 1.6406757e-38 379 245
0.082582004 0.78500003 -0.0068818335 1.6315638e-38 380 245
0.083958365 0.78500003 -0.0068818335 1.649967e-38 381 245
0.08511731 0.78299999 -0.0068642995 1.6682618e-38 382 245
0.086490177 0.78299999 -0.0068642995 1.6498587e-38 383 245
0.087863036 0.78299999 -0.0068642995 1.6313824e-38 384 245
0.089235894 0.78299999 -0.0068642995 1.6037236e-38 385 245
0.090608761 0.78299999 -0.0068642995 1.5668431e-38 386 245
0.091981612 0.78299999 -0.0068642995 1.5207454e-38 387 245
0.093354478 0.78299999 -0.0068642995 1.4930141e-38 388 245
0.094727337 0.78299999 -0.0068642995 1.4653553e-38 389 245
0.096100196 0.78299999 -0.0068642995 1.4467734e-38 390 245
0.097722031 0.78500003 -0.0068818335 1.4007115e-38 391 245
0.099350877 0.787 -0.0068993662 1.3362488e-38 392 245
0.10073075 0.787 -0.0068993662 1.2993704e-38 393 245
0.10237011 0.78899997 -0.0069168997 1.2353435e-38 394 245
0.065087236 0.80699998 -0.0084896395 1.2073627e-38 366 246
0.066172548 0.80299997 -0.0084475596 1.2534245e-38 367 246
0.066991359 0.796 -0.0083739199 1.2812964e-38 368 246
0.068387017 0.796 -0.0083739199 1.3089551e-38 369 246
0.069431998 0.792 -0.0083318399 1.3734182e-38 370 246
0.070641801 0.79000002 -0.0083108004 1.3826378e-38 371 246
0.072026931 0.79000002 -0.0083108004 1.456034e-38 372 246
0.07331913 0.78899997 -0.0083002793 1.5113514e-38 373 246
0.074702516 0.78899997 -0.0083002793 1.5115302e-38 374 246
0.07589303 0.787 -0.0082792398 1.5668117e-38 375 246
0.077272899 0.787 -0.0082792398 1.5853217e-38 376 246
0.078652777 0.787 -0.0082792398 1.6037249e-38 377 246
0.079829268 0.78500003 -0.0082582003 1.6220922e-38 378 246
0.080998734 0.78299999 -0.0082371598 1.6497508e-38 379 246
0.0823716 0.78299999 -0.0082371598 1.649859e-38 380 246
0.083744459 0.78299999 -0.0082371598 1.6682621e-38 381 246
0.08511731 0.78299999 -0.0082371598 1.6773744e-38 382 246
0.086490177 0.78299999 -0.0082371598 1.6589353e-38 383 246
0.087863036 0.78299999 -0.0082371598 1.6496433e-38 384 246
0.089235894 0.78299999 -0.0082371598 1.6219845e-38 385 246
0.090608761 0.78299999 -0.0082371598 1.5485861e-38 386 246
0.091981612 0.78299999 -0.0082371598 1.4840492e-38 387 246
0.093354478 0.78299999 -0.0082371598 1.474721e-38 388 246
0.094727337 0.78299999 -0.0082371598 1.4286592e-38 389 246
0.096100196 0.78299999 -0.0082371598 1.4284437e-38 390 246
0.097722031 0.78500003 -0.0082582003 1.3823819e-38 391 246
0.099098399 0.78500003 -0.0082582003 1.3270658e-38 392 246
0.10073075 0.787 -0.0082792398 1.2902234e-38 393 246
0.10211062 0.787 -0.0082792398 1.2536385e-38 394 246
0.066337362 0.80500001 -0.0098800333 1.189033e-38 367 247
0.066823035 0.79400003 -0.0097450269 1.1986097e-38 368 247
0.068215191 0.79400003 -0.0097450269 1.2447074e-38 369 247
0.069431998 0.792 -0.0097204801 1.3090976e-38 370 247
0.070641801 0.79000002 -0.0096959332 1.3275369e-38 371 247
0.071935758 0.78899997 -0.0096836593 1.4102589e-38 372 247
0.07331913 0.78899997 -0.0096836593 1.4102589e-38 373 247
0.074702516 0.78899997 -0.0096836593 1.4841229e-38 374 247
0.07589303 0.787 -0.0096591124 1.5117817e-38 375 247
0.077076539 0.78500003 -0.0096345674 1.5761034e-38 376 247
0.0784529 0.78500003 -0.0096345674 1.585323e-38 377 247
0.079625882 0.78299999 -0.0096100196 1.5946855e-38 378 247
0.080998734 0.78299999 -0.0096100196 1.6131246e-38 379 247
0.0823716 0.78299999 -0.0096100196 1.6223089e-38 380 247
0.083744459 0.78299999 -0.0096100196 1.6223089e-38 381 247
0.08511731 0.78299999 -0.0096100196 1.6313136e-38 382 247
0.086490177 0.78299999 -0.0096100196 1.6128745e-38 383 247
0.087863036 0.78299999 -0.0096100196 1.5852511e-38 384 247
0.089235894 0.78299999 -0.0096100196 1.5760316e-38 385 247
0.090608761 0.78299999 -0.0096100196 1.5483706e-38 386 247
0.091981612 0.78299999 -0.0096100196 1.5207119e-38 387 247
0.09311603 0.78100002 -0.0095854728 1.5205302e-38 388 247
0.09448538 0.78100002 -0.0095854728 1.4836879e-38 389 247
0.096100196 0.78299999 -0.0096100196 1.446774e-38 390 247
0.097722031 0.78500003 -0.0096345674 1.4098959e-38 391 247
0.099098399 0.78500003 -0.0096345674 1.3821664e-38 392 247
0.10073075 0.787 -0.0096591124 1.3361045e-38 393 247
0.10211062 0.787 -0.0096591124 1.2627128e-38 394 247
0.10375349 0.78899997 -0.0096836593 1.3733476e-38 395 247
0.066823035 0.79400003 -0.011137174 1.2443832e-38 368 248
0.068043359 0.792 -0.011109119 1.290481e-38 369 248
0.069431998 0.792 -0.011109119 1.3366486e-38 370 248
0.070641801 0.79000002 -0.011081067 1.3458681e-38 371 248
0.071935758 0.78899997 -0.011067039 1.4285185e-38 372 248
0.073133282 0.787 -0.011038986 1.4469577e-38 373 248
0.07451316 0.787 -0.011038986 1.5392606e-38 374 248
0.075700171 0.78500003 -0.011010934 1.5485161e-38 375 248
0.077076539 0.78500003 -0.011010934 1.5761385e-38 376 248
0.078253016 0.78299999 -0.010982879 1.5853939e-38 377 248
0.079625882 0.78299999 -0.010982879 1.6038682e-38 378 248
0.080998734 0.78299999 -0.010982879 1.6130878e-38 379 248
0.0823716 0.78299999 -0.010982879 1.6314914e-38 380 248
0.083744459 0.78299999 -0.010982879 1.6130525e-38 381 248
0.08511731 0.78299999 -0.010982879 1.6036177e-38 382 248
0.086490177 0.78299999 -0.010982879 1.5575559e-38 383 248
0.087863036 0.78299999 -0.010982879 1.5758871e-38 384 248
0.089235894 0.78299999 -0.010982879 1.5851066e-38 385 248
0.090608761 0.78299999 -0.010982879 1.5483359e-38 386 248
0.091746673 0.78100002 -0.010954826 1.5298967e-38 387 248
0.09311603 0.78100002 -0.010954826 1.5113849e-38 388 248
0.09448538 0.78100002 -0.010954826 1.465323e-38 389 248
0.096100196 0.78299999 -0.010982879 1.4284437e-38 390 248
0.097473055 0.78299999 -0.010982879 1.3916015e-38 391 248
0.099098399 0.78500003 -0.011010934 1.3454686e-38 392 248
0.10073075 0.787 -0.011038986 1.3270295e-38 393 248
0.10211062 0.787 -0.011038986 1.2534936e-38 394 248
0.1034905 0.787 -0.011038986 1.3088109e-38 395 248
0.068043359 0.792 -0.012497759 1.272186e-38 369 249
0.069431998 0.792 -0.012497759 1.3366489e-38 370 249
0.070641801 0.79000002 -0.0124662 1.3458684e-38 371 249
0.071935758 0.78899997 -0.012450419 1.4285201e-38 372 249
0.073133282 0.787 -0.01241886 1.4561789e-38 373 249
0.07451316 0.787 -0.01241886 1.5207147e-38 374 249
0.075700171 0.78500003 -0.0123873 1.5575571e-38 375 249
0.076880157 0.78299999 -0.012355739 1.5761741e-38 376 249
0.078253016 0.78299999 -0.012355739 1.5946133e-38 377 249
0.079625882 0.78299999 -0.012355739 1.6039404e-38 378 249
0.080998734 0.78299999 -0.012355739 1.6039404e-38 379 249
0.082161196 0.78100002 -0.01232418 1.6130527e-38 380 249
0.083530553 0.78100002 -0.01232418 1.5946136e-38 381 249
0.084899902 0.78100002 -0.01232418 1.5298965e-38 382 249
0.086269259 0.78100002 -0.01232418 1.45614e-38 383 249
0.087638609 0.78100002 -0.01232418 1.4837989e-38 384 249
0.089007966 0.78100002 -0.01232418 1.5298967e-38 385 249
0.090377316 0.78100002 -0.01232418 1.5390094e-38 386 249
0.091746673 0.78100002 -0.01232418 1.529754e-38 387 249
0.09311603 0.78100002 -0.01232418 1.52968e-38 388 249
0.09448538 0.78100002 -0.01232418 1.4835823e-38 389 249
0.096100196 0.78299999 -0.012355739 1.437627e-38 390 249
0.097473055 0.78299999 -0.012355739 1.4099324e-38 391 249
0.099098399 0.78500003 -0.0123873 1.3454686e-38 392 249
0.10047477 0.78500003 -0.0123873 1.3362491e-38 393 249
0.10185113 0.78500003 -0.0123873 1.2810078e-38 394 249
0.1032275 0.78500003 -0.0123873 1.2994109e-38 395 249
0.066654719 0.792 -0.0138864 1.2444202e-38 368 250
0.067871533 0.79000002 -0.013851333 1.2997374e-38 369 250
0.069256663 0.79000002 -0.013851333 1.3182823e-38 370 250
0.070641801 0.79000002 -0.013851333 1.3551246e-38 371 250
0.071935758 0.78899997 -0.013833799 1.4377397e-38 372 250
0.073133282 0.787 -0.013798732 1.4654344e-38 373 250
0.074323803 0.78500003 -0.013763667 1.5023116e-38 374 250
0.075507298 0.78299999 -0.013728599 1.5392259e-38 375 250
0.076880157 0.78299999 -0.013728599 1.5669192e-38 376 250
0.078253016 0.78299999 -0.013728599 1.594578e-38 377 250
0.079422489 0.78100002 -0.013693534 1.6130527e-38 378 250
0.080791846 0.78100002 -0.013693534 1.6130527e-38 379 250
0.082161196 0.78100002 -0.013693534 1.631277e-38 380 250
0.083530553 0.78100002 -0.013693534 1.5943628e-38 381 250
0.084899902 0.78100002 -0.013693534 1.4560696e-38 382 250
0.086269259 0.78100002 -0.013693534 1.3362153e-38 383 250
0.087526396 0.77999997 -0.013675999 1.3640538e-38 384 250
0.088893995 0.77999997 -0.013675999 1.4470298e-38 385 250
0.090261593 0.77999997 -0.013675999 1.520535e-38 386 250
0.091629192 0.77999997 -0.013675999 1.520535e-38 387 250
0.092996791 0.77999997 -0.013675999 1.5021657e-38 388 250
0.09448538 0.78100002 -0.013693534 1.4652876e-38 389 250
0.096100196 0.78299999 -0.013728599 1.4376273e-38 390 250
0.097473055 0.78299999 -0.013728599 1.4099327e-38 391 250
0.098845914 0.78299999 -0.013728599 1.3454686e-38 392 250
0.10021878 0.78299999 -0.013728599 1.3270295e-38 393 250
0.10159164 0.78299999 -0.013728599 1.2993375e-38 394 250
0.10296449 0.78299999 -0.013728599 1.2716786e-38 395 250
0.066486403 0.79000002 -0.015236467 1.244313e-38 368 251
0.067871533 0.79000002 -0.015236467 1.3088498e-38 369 251
0.069256663 0.79000002 -0.015236467 1.3457618e-38 370 251
0.070552371 0.78899997 -0.015217179 1.382604e-38 371 251
0.071935758 0.78899997 -0.015217179 1.4377752e-38 372 251
0.073133282 0.787 -0.015178605 1.4746536e-38 373 251
0.074323803 0.78500003 -0.015140033 1.5116021e-38 374 251
0.075507298 0.78299999 -0.01510146 1.5392609e-38 375 251
0.076880157 0.78299999 -0.01510146 1.5761022e-38 376 251
0.078053139 0.78100002 -0.015062887 1.6037249e-38 377 251
0.079422489 0.78100002 -0.015062887 1.6221644e-38 378 251
0.080791846 0.78100002 -0.015062887 1.631384e-38 379 251
0.082055993 0.77999997 -0.0150436 1.6403534e-38 380 251
0.083423592 0.77999997 -0.0150436 1.520535e-38 381 251
0.084791191 0.77999997 -0.0150436 1.3914976e-38 382 251
0.086158797 0.77999997 -0.0150436 1.2808629e-38 383 251
0.087526396 0.77999997 -0.0150436 1.2535639e-38 384 251
0.088893995 0.77999997 -0.0150436 1.3549431e-38 385 251
0.090261593 0.77999997 -0.0150436 1.4469948e-38 386 251
0.091629192 0.77999997 -0.0150436 1.4562145e-38 387 251
0.092996791 0.77999997 -0.0150436 1.4929106e-38 388 251
0.094364397 0.77999997 -0.0150436 1.4652879e-38 389 251
0.095854737 0.78100002 -0.015062887 1.4284443e-38 390 251
0.097473055 0.78299999 -0.01510146 1.3915662e-38 391 251
0.098845914 0.78299999 -0.01510146 1.3454689e-38 392 251
0.10021878 0.78299999 -0.01510146 1.3269939e-38 393 251
0.10159164 0.78299999 -0.01510146 1.2901176e-38 394 251
0.10296449 0.78299999 -0.01510146 1.2348361e-38 395 251
0.066486403 0.79000002 -0.016621601 1.1708084e-38 368 252
0.067785613 0.78899997 -0.016600559 1.2445649e-38 369 252
0.069168992 0.78899997 -0.016600559 1.3365788e-38 370 252
0.070373543 0.787 -0.01655848 1.3550179e-38 371 252
0.071753412 0.787 -0.01655848 1.4194806e-38 372 252
0.072947428 0.78500003 -0.016516401 1.4379199e-38 373 252
0.074134432 0.78299999 -0.01647432 1.4932356e-38 374 252
0.075507298 0.78299999 -0.01647432 1.5300779e-38 375 252
0.076683782 0.78100002 -0.016432239 1.5668836e-38 376 252
0.078053139 0.78100002 -0.016432239 1.5853586e-38 377 252
0.079422489 0.78100002 -0.016432239 1.6129092e-38 378 252
0.080688395 0.77999997 -0.016411198 1.6036895e-38 379 252
0.082055993 0.77999997 -0.016411198 1.5759965e-38 380 252
0.083423592 0.77999997 -0.016411198 1.3916053e-38 381 252
0.084573783 0.778 -0.016369121 1.3268535e-38 382 252
0.08593788 0.778 -0.016369121 1.2254023e-38 383 252
0.08730197 0.778 -0.016369121 1.2349093e-38 384 252
0.088666067 0.778 -0.016369121 1.3178853e-38 385 252
0.090030156 0.778 -0.016369121 1.410117e-38 386 252
0.091629192 0.77999997 -0.016411198 1.4469592e-38 387 252
0.092996791 0.77999997 -0.016411198 1.4561049e-38 388 252
0.094364397 0.77999997 -0.016411198 1.4284464e-38 389 252
0.095854737 0.78100002 -0.016432239 1.4283724e-38 390 252
0.097224087 0.78100002 -0.016432239 1.4006778e-38 391 252
0.098593444 0.78100002 -0.016432239 1.3637999e-38 392 252
0.099962793 0.78100002 -0.016432239 1.3361412e-38 393 252
0.10133215 0.78100002 -0.016432239 1.2717134e-38 394 252
0.1027015 0.78100002 -0.016432239 1.1887373e-38 395 252
0.066402234 0.78899997 -0.017983939 1.2169059e-38 368 253
0.067785613 0.78899997 -0.017983939 1.2445646e-38 369 253
0.068993665 0.787 -0.017938353 1.3457618e-38 370 253
0.070194699 0.78500003 -0.017892767 1.382604e-38 371 253
0.071571067 0.78500003 -0.017892767 1.4195156e-38 372 253
0.07276158 0.78299999 -0.017847179 1.4471745e-38 373 253
0.074134432 0.78299999 -0.017847179 1.5207495e-38 374 253
0.075314432 0.78100002 -0.017801592 1.5484082e-38 375 253
0.076683782 0.78100002 -0.017801592 1.5668473e-38 376 253
0.077953197 0.77999997 -0.017778799 1.5852864e-38 377 253
0.079320796 0.77999997 -0.017778799 1.6220575e-38 378 253
0.080688395 0.77999997 -0.017778799 1.5851432e-38 379 253
0.081845596 0.778 -0.017733213 1.4747255e-38 380 253
0.083209693 0.778 -0.017733213 1.2442725e-38 381 253
0.084573783 0.778 -0.017733213 1.24377e-38 382 253
0.085716955 0.77600002 -0.017687626 1.2253307e-38 383 253
0.087077543 0.77600002 -0.017687626 1.289616e-38 384 253
0.088438138 0.77600002 -0.017687626 1.3909951e-38 385 253
0.090030156 0.778 -0.017733213 1.419264e-38 386 253
0.091629192 0.77999997 -0.017778799 1.4284835e-38 387 253
0.092996791 0.77999997 -0.017778799 1.4469204e-38 388 253
0.094364397 0.77999997 -0.017778799 1.4285173e-38 389 253
0.095854737 0.78100002 -0.017801592 1.4100059e-38 390 253
0.097224087 0.78100002 -0.017801592 1.3823113e-38 391 253
0.098593444 0.78100002 -0.017801592 1.3362506e-38 392 253
0.099962793 0.78100002 -0.017801592 1.3178115e-38 393 253
0.10133215 0.78100002 -0.017801592 1.234909e-38 394 253
0.1027015 0.78100002 -0.017801592 1.1427494e-38 395 253
0.066402234 0.78899997 -0.019367319 1.2628243e-38 368 254
0.067613788 0.787 -0.019318225 1.2904828e-38 369 254
0.068993665 0.787 -0.019318225 1.3274669e-38 370 254
0.070194699 0.78500003 -0.019269135 1.3550895e-38 371 254
0.071388714 0.78299999 -0.019220039 1.4103688e-38 372 254
0.07276158 0.78299999 -0.019220039 1.4379915e-38 373 254
0.073945075 0.78100002 -0.019170946 1.4932356e-38 374 254
0.075314432 0.78100002 -0.019170946 1.5208584e-38 375 254
0.076585598 0.77999997 -0.0191464 1.5484808e-38 376 254
0.077953197 0.77999997 -0.0191464 1.5761034e-38 377 254
0.079320796 0.77999997 -0.0191464 1.6220578e-38 378 254
0.080481507 0.778 -0.019097306 1.5759239e-38 379 254
0.081845596 0.778 -0.019097306 1.4010416e-38 380 254
0.083209693 0.778 -0.019097306 1.1244547e-38 381 254
0.084356368 0.77600002 -0.019048214 1.2067491e-38 382 254
0.085716955 0.77600002 -0.019048214 1.2528467e-38 383 254
0.087077543 0.77600002 -0.019048214 1.2622465e-38 384 254
0.088438138 0.77600002 -0.019048214 1.336003e-38 385 254
0.089798726 0.77600002 -0.019048214 1.373203e-38 386 254
0.091629192 0.77999997 -0.0191464 1.4008618e-38 387 254
0.092996791 0.77999997 -0.0191464 1.4285539e-38 388 254
0.094364397 0.77999997 -0.0191464 1.4100789e-38 389 254
0.095854737 0.78100002 -0.019170946 1.4007507e-38 390 254
0.097224087 0.78100002 -0.019170946 1.3730919e-38 391 254
0.098593444 0.78100002 -0.019170946 1.3545099e-38 392 254
0.099962793 0.78100002 -0.019170946 1.3360708e-38 393 254
0.10133215 0.78100002 -0.019170946 1.2623882e-38 394 254
0.1027015 0.78100002 -0.019170946 1.1517894e-38 395 254
0.066402234 0.78899997 -0.0207507 1.31807e-38 368 255
0.067613788 0.787 -0.0206981 1.2995949e-38 369 255
0.068993665 0.787 -0.0206981 1.3733845e-38 370 255
0.070194699 0.78500003 -0.020645501 1.4010433e-38 371 255
0.071388714 0.78299999 -0.0205929 1.4286997e-38 372 255
0.07276158 0.78299999 -0.0205929 1.4563943e-38 373 255
0.073945075 0.78100002 -0.020540299 1.5116018e-38 374 255
0.075314432 0.78100002 -0.020540299 1.5300411e-38 375 255
0.076585598 0.77999997 -0.020513998 1.5392609e-38 376 255
0.077953197 0.77999997 -0.020513998 1.5853586e-38 377 255
0.07911741 0.778 -0.020461399 1.6313855e-38 378 255
0.080481507 0.778 -0.020461399 1.5115312e-38 379 255
0.081635199 0.77600002 -0.0204088 1.3365403e-38 380 255
0.082995787 0.77600002 -0.0204088 1.0230391e-38 381 255
0.084356368 0.77600002 -0.0204088 1.1513588e-38 382 255
0.085716955 0.77600002 -0.0204088 1.2251153e-38 383 255
0.087077543 0.77600002 -0.0204088 1.3080904e-38 384 255
0.088438138 0.77600002 -0.0204088 1.418725e-38 385 255
0.089798726 0.77600002 -0.0204088 1.483764e-38 386 255
0.091629192 0.77999997 -0.020513998 1.4560693e-38 387 255
0.092996791 0.77999997 -0.020513998 1.4193343e-38 388 255
0.094364397 0.77999997 -0.020513998 1.4100789e-38 389 255
0.095731996 0.77999997 -0.020513998 1.3915674e-38 390 255
0.097224087 0.78100002 -0.020540299 1.3547252e-38 391 255
0.098593444 0.78100002 -0.020540299 1.3362506e-38 392 255
0.099962793 0.78100002 -0.020540299 1.2993725e-38 393 255
0.10133215 0.78100002 -0.020540299 1.2256531e-38 394 255
0.1027015 0.78100002 -0.020540299 1.1057988e-38 395 255
0.066486403 0.79000002 -0.022162134 1.3642039e-38 368 256
0.067785613 0.78899997 -0.022134079 1.2996669e-38 369 256
0.068993665 0.787 -0.022077972 1.3642725e-38 370 256
0.070015855 0.78299999 -0.021965759 1.3827477e-38 371 256
0.071388714 0.78299999 -0.021965759 1.4379552e-38 372 256
0.07276158 0.78299999 -0.021965759 1.4656139e-38 373 256
0.073945075 0.78100002 -0.021909652 1.5116021e-38 374 256
0.075217992 0.77999997 -0.021881599 1.5300414e-38 375 256
0.076389223 0.778 -0.021825492 1.5484808e-38 376 256
0.07775332 0.778 -0.021825492 1.5761034e-38 377 256
0.07911741 0.778 -0.021825492 1.5762839e-38 378 256
0.080481507 0.778 -0.021825492 1.3918927e-38 379 256
0.081635199 0.77600002 -0.021769386 1.281115e-38 380 256
0.082995787 0.77600002 -0.021769386 9.3999115e-39 381 256
0.084356368 0.77600002 -0.021769386 1.0317918e-38 382 256
0.085496038 0.77399999 -0.021713279 1.114768e-38 383 256
0.086853117 0.77399999 -0.021713279 1.3174174e-38 384 256
0.088210195 0.77399999 -0.021713279 1.4464554e-38 385 256
0.089798726 0.77600002 -0.021769386 1.5113514e-38 386 256
0.091394253 0.778 -0.021825492 1.456034e-38 387 256
0.092758343 0.778 -0.021825492 1.4285539e-38 388 256
0.094364397 0.77999997 -0.021881599 1.3916756e-38 389 256
0.095731996 0.77999997 -0.021881599 1.3732715e-38 390 256
0.097099595 0.77999997 -0.021881599 1.3456127e-38 391 256
0.098593444 0.78100002 -0.021909652 1.3270305e-38 392 256
0.099834792 0.77999997 -0.021881599 1.2901882e-38 393 256
0.10120239 0.77999997 -0.021881599 1.2164333e-38 394 256
0.10256999 0.77999997 -0.021881599 1.0504812e-38 395 256
0.066486403 0.79000002 -0.023547266 1.4196291e-38 368 257
0.067785613 0.78899997 -0.023517458 1.2997748e-38 369 257
0.068643004 0.78299999 -0.02333862 1.3551246e-38 370 257
0.070015855 0.78299999 -0.02333862 1.3735996e-38 371 257
0.071206369 0.78100002 -0.023279008 1.4379549e-38 372 257
0.072575726 0.78100002 -0.023279008 1.4656495e-38 373 257
0.073850393 0.77999997 -0.023249198 1.5391529e-38 374 257
0.075217992 0.77999997 -0.023249198 1.5483726e-38 375 257
0.076192856 0.77600002 -0.023129974 1.5392609e-38 376 257
0.077553444 0.77600002 -0.023129974 1.576139e-38 377 257
0.078914031 0.77600002 -0.023129974 1.5669569e-38 378 257
0.080274612 0.77600002 -0.023129974 1.3456872e-38 379 257
0.081635199 0.77600002 -0.023129974 1.207251e-38 380 257
0.082995787 0.77600002 -0.023129974 8.8456629e-39 381 257
0.084356368 0.77600002 -0.023129974 1.0040596e-38 382 257
0.085496038 0.77399999 -0.02307036 1.1146584e-38 383 257
0.086853117 0.77399999 -0.02307036 1.3267073e-38 384 257
0.088210195 0.77399999 -0.02307036 1.483404e-38 385 257
0.089798726 0.77600002 -0.023129974 1.4562493e-38 386 257
0.091159306 0.77600002 -0.023129974 1.43781e-38 387 257
0.092519894 0.77600002 -0.023129974 1.4010028e-38 388 257
0.093880482 0.77600002 -0.023129974 1.3733081e-38 389 257
0.095486529 0.778 -0.023189586 1.3457204e-38 390 257
0.096850619 0.778 -0.023189586 1.3180616e-38 391 257
0.098214716 0.778 -0.023189586 1.3178462e-38 392 257
0.099834792 0.77999997 -0.023249198 1.2810039e-38 393 257
0.1009429 0.778 -0.023189586 1.2071417e-38 394 257
0.10230699 0.778 -0.023189586 1.0411897e-38 395 257
0.066486403 0.79000002 -0.024932399 1.4382123e-38 368 258
0.067270137 0.78299999 -0.024711479 1.2999189e-38 369 258
0.068643004 0.78299999 -0.024711479 1.3367583e-38 370 258
0.069837019 0.78100002 -0.024648361 1.364453e-38 371 258
0.071206369 0.78100002 -0.024648361 1.465506e-38 372 258
0.072482795 0.77999997 -0.024616797 1.4931646e-38 373 258
0.073850393 0.77999997 -0.024616797 1.5207142e-38 374 258
0.075025134 0.778 -0.024553679 1.5483729e-38 375 258
0.076192856 0.77600002 -0.024490559 1.5392256e-38 376 258
0.077553444 0.77600002 -0.024490559 1.5761037e-38 377 258
0.078914031 0.77600002 -0.024490559 1.5301511e-38 378 258
0.080274612 0.77600002 -0.024490559 1.2350892e-38 379 258
0.081635199 0.77600002 -0.024490559 1.1149833e-38 380 258
0.082995787 0.77600002 -0.024490559 9.1215295e-39 381 258
0.084356368 0.77600002 -0.024490559 1.0590529e-38 382 258
0.085496038 0.77399999 -0.02442744 1.2157496e-38 383 258
0.086853117 0.77399999 -0.02442744 1.3819891e-38 384 258
0.088210195 0.77399999 -0.02442744 1.5295021e-38 385 258
0.089567274 0.77399999 -0.02442744 1.4194432e-38 386 258
0.090924352 0.77399999 -0.02442744 1.4102236e-38 387 258
0.092281438 0.77399999 -0.02442744 1.4010025e-38 388 258
0.093880482 0.77600002 -0.024490559 1.3733437e-38 389 258
0.095241062 0.77600002 -0.024490559 1.3365009e-38 390 258
0.09660165 0.77600002 -0.024490559 1.3180616e-38 391 258
0.097962238 0.77600002 -0.024490559 1.2902599e-38 392 258
0.099322826 0.77600002 -0.024490559 1.2534175e-38 393 258
0.10042392 0.77399999 -0.02442744 1.188667e-38 394 258
0.101781 0.77399999 -0.02442744 1.0319704e-38 395 258
0.067270137 0.78299999 -0.026084339 1.3183231e-38 369 259
0.068643004 0.78299999 -0.026084339 1.3551981e-38 370 259
0.069837019 0.78100002 -0.026017714 1.3828208e-38 371 259
0.071115196 0.77999997 -0.025984399 1.4288801e-38 372 259
0.072482795 0.77999997 -0.025984399 1.4380996e-38 373 259
0.073661037 0.778 -0.025917772 1.5207512e-38 374 259
0.074832268 0.77600002 -0.025851147 1.5299707e-38 375 259
0.076192856 0.77600002 -0.025851147 1.5300429e-38 376 259
0.077553444 0.77600002 -0.025851147 1.5577016e-38 377 259
0.078914031 0.77600002 -0.025851147 1.5299723e-38 378 259
0.080274612 0.77600002 -0.025851147 1.1704453e-38 379 259
0.081635199 0.77600002 -0.025851147 1.0593442e-38 380 259
0.082995787 0.77600002 -0.025851147 1.0132104e-38 381 259
0.084356368 0.77600002 -0.025851147 1.1328474e-38 382 259
0.085496038 0.77399999 -0.025784519 1.2619213e-38 383 259
0.086853117 0.77399999 -0.025784519 1.4372712e-38 384 259
0.088210195 0.77399999 -0.025784519 1.5663451e-38 385 259
0.089567274 0.77399999 -0.025784519 1.4561772e-38 386 259
0.090924352 0.77399999 -0.025784519 1.4377381e-38 387 259
0.092281438 0.77399999 -0.025784519 1.4100777e-38 388 259
0.093880482 0.77600002 -0.025851147 1.3916027e-38 389 259
0.095241062 0.77600002 -0.025851147 1.3456124e-38 390 259
0.09660165 0.77600002 -0.025851147 1.3087343e-38 391 259
0.097962238 0.77600002 -0.025851147 1.2902234e-38 392 259
0.099322826 0.77600002 -0.025851147 1.2533093e-38 393 259
0.10029417 0.773 -0.025751207 1.1702283e-38 394 259
0.10164949 0.773 -0.025751207 1.004276e-38 395 259
0.069747597 0.77999997 -0.027351998 1.3737813e-38 371 260
0.071115196 0.77999997 -0.027351998 1.4563946e-38 372 260
0.072296947 0.778 -0.027281865 1.4840173e-38 373 260
0.073471673 0.77600002 -0.027211733 1.5207865e-38 374 260
0.074832268 0.77600002 -0.027211733 1.530006e-38 375 260
0.076192856 0.77600002 -0.027211733 1.5208587e-38 376 260
0.077553444 0.77600002 -0.027211733 1.5392978e-38 377 260
0.078710638 0.77399999 -0.027141599 1.5022763e-38 378 260
0.080067717 0.77399999 -0.027141599 1.1058351e-38 379 260
0.081424795 0.77399999 -0.027141599 1.0039184e-38 380 260
0.082781881 0.77399999 -0.027141599 1.0684553e-38 381 260
0.084138952 0.77399999 -0.027141599 1.1515386e-38 382 260
0.085496038 0.77399999 -0.027141599 1.2990875e-38 383 260
0.086853117 0.77399999 -0.027141599 1.5018081e-38 384 260
0.088210195 0.77399999 -0.027141599 1.5663451e-38 385 260
0.089567274 0.77399999 -0.027141599 1.4379183e-38 386 260
0.090924352 0.77399999 -0.027141599 1.4102236e-38 387 260
0.092281438 0.77399999 -0.027141599 1.4009672e-38 388 260
0.093638517 0.77399999 -0.027141599 1.3640888e-38 389 260
0.094995596 0.77399999 -0.027141599 1.3272459e-38 390 260
0.09660165 0.77600002 -0.027211733 1.2995513e-38 391 260
0.097962238 0.77600002 -0.027211733 1.2626017e-38 392 260
0.099066831 0.77399999 -0.027141599 1.2441626e-38 393 260
0.10029417 0.773 -0.027106533 1.0967604e-38 394 260
0.10164949 0.773 -0.027106533 9.0314961e-39 395 260
0.069747597 0.77999997 -0.028719598 1.4012599e-38 371 261
0.07093285 0.778 -0.028645959 1.4564665e-38 372 261
0.072296947 0.778 -0.028645959 1.4564665e-38 373 261
0.073471673 0.77600002 -0.028572321 1.5207868e-38 374 261
0.074832268 0.77600002 -0.028572321 1.5207868e-38 375 261
0.075996473 0.77399999 -0.028498679 1.530006e-38 376 261
0.077353559 0.77399999 -0.028498679 1.5207865e-38 377 261
0.078710638 0.77399999 -0.028498679 1.4745443e-38 378 261
0.080067717 0.77399999 -0.028498679 1.1333846e-38 379 261
0.081424795 0.77399999 -0.028498679 9.3044915e-39 380 261
0.082781881 0.77399999 -0.028498679 1.059523e-38 381 261
0.084138952 0.77399999 -0.028498679 1.1885969e-38 382 261
0.085496038 0.77399999 -0.028498679 1.3361099e-38 383 261
0.086853117 0.77399999 -0.028498679 1.4835488e-38 384 261
0.088210195 0.77399999 -0.028498679 1.5573053e-38 385 261
0.089567274 0.77399999 -0.028498679 1.4838359e-38 386 261
0.090924352 0.77399999 -0.028498679 1.4377381e-38 387 261
0.092281438 0.77399999 -0.028498679 1.3917109e-38 388 261
0.093638517 0.77399999 -0.028498679 1.3732718e-38 389 261
0.094995596 0.77399999 -0.028498679 1.318026e-38 390 261
0.09660165 0.77600002 -0.028572321 1.2719642e-38 391 261
0.097962238 0.77600002 -0.028572321 1.2533822e-38 392 261
0.099066831 0.77399999 -0.028498679 1.1980648e-38 393 261
0.10042392 0.77399999 -0.028498679 1.1149127e-38 394 261
0.101781 0.77399999 -0.028498679 9.6739971e-39 395 261
0.07093285 0.778 -0.03001005 1.4564296e-38 372 262
0.072111093 0.77600002 -0.029932907 1.4656492e-38 373 262
0.073471673 0.77600002 -0.029932907 1.4932002e-38 374 262
0.074639395 0.77399999 -0.029855758 1.5208231e-38 375 262
0.075996473 0.77399999 -0.029855758 1.5300063e-38 376 262
0.077353559 0.77399999 -0.029855758 1.5115312e-38 377 262
0.078710638 0.77399999 -0.029855758 1.4655395e-38 378 262
0.080067717 0.77399999 -0.029855758 1.1428547e-38 379 262
0.081424795 0.77399999 -0.029855758 9.7683213e-39 380 262
0.082781881 0.77399999 -0.029855758 1.0505886e-38 381 262
0.084138952 0.77399999 -0.029855758 1.2346575e-38 382 262
0.085496038 0.77399999 -0.029855758 1.4006456e-38 383 262
0.086853117 0.77399999 -0.029855758 1.4652895e-38 384 262
0.088210195 0.77399999 -0.029855758 1.5113514e-38 385 262
0.089567274 0.77399999 -0.029855758 1.4561775e-38 386 262
0.090924352 0.77399999 -0.029855758 1.4285188e-38 387 262
0.092281438 0.77399999 -0.029855758 1.3916756e-38 388 262
0.093638517 0.77399999 -0.029855758 1.3640169e-38 389 262
0.094995596 0.77399999 -0.029855758 1.3087711e-38 390 262
0.096352674 0.77399999 -0.029855758 1.2719289e-38 391 262
0.09770976 0.77399999 -0.029855758 1.2256526e-38 392 262
0.099066831 0.77399999 -0.029855758 1.1703711e-38 393 262
0.10042392 0.77399999 -0.029855758 1.0321531e-38 394 262
0.101781 0.77399999 -0.029855758 9.8609121e-39 395 262
0.069389917 0.77600002 -0.031293493 1.4012234e-38 371 263
0.070750505 0.77600002 -0.031293493 1.4563943e-38 372 263
0.072111093 0.77600002 -0.031293493 1.4656139e-38 373 263
0.073471673 0.77600002 -0.031293493 1.4839454e-38 374 263
0.074639395 0.77399999 -0.031212838 1.5023846e-38 375 263
0.075996473 0.77399999 -0.031212838 1.5208231e-38 376 263
0.077353559 0.77399999 -0.031212838 1.5024199e-38 377 263
0.078710638 0.77399999 -0.031212838 1.4747593e-38 378 263
0.080067717 0.77399999 -0.031212838 1.3179907e-38 379 263
0.081424795 0.77399999 -0.031212838 1.1798422e-38 380 263
0.082781881 0.77399999 -0.031212838 1.2259398e-38 381 263
0.084138952 0.77399999 -0.031212838 1.3270686e-38 382 263
0.085496038 0.77399999 -0.031212838 1.4192284e-38 383 263
0.086853117 0.77399999 -0.031212838 1.4378103e-38 384 263
0.088210195 0.77399999 -0.031212838 1.4562495e-38 385 263
0.089567274 0.77399999 -0.031212838 1.4469933e-38 386 263
0.090924352 0.77399999 -0.031212838 1.4100791e-38 387 263
0.092281438 0.77399999 -0.031212838 1.4008229e-38 388 263
0.093638517 0.77399999 -0.031212838 1.3639448e-38 389 263
0.094995596 0.77399999 -0.031212838 1.3086993e-38 390 263
0.096352674 0.77399999 -0.031212838 1.2626373e-38 391 263
0.09770976 0.77399999 -0.031212838 1.2164333e-38 392 263
0.099066831 0.77399999 -0.031212838 1.0781397e-38 393 263
0.10042392 0.77399999 -0.031212838 9.6772467e-39 394 263
0.101781 0.77399999 -0.031212838 9.8612778e-39 395 263
0.069389917 0.77600002 -0.032654081 1.3919685e-38 371 264
0.070750505 0.77600002 -0.032654081 1.4471397e-38 372 264
0.072111093 0.77600002 -0.032654081 1.4563593e-38 373 264
0.073282316 0.77399999 -0.032569919 1.4746905e-38 374 264
0.074639395 0.77399999 -0.032569919 1.4839101e-38 375 264
0.075898297 0.773 -0.032527838 1.493272e-38 376 264
0.077253617 0.773 -0.032527838 1.493272e-38 377 264
0.078608945 0.773 -0.032527838 1.4840142e-38 378 264
0.079964265 0.773 -0.032527838 1.4286608e-38 379 264
0.0813196 0.773 -0.032527838 1.3918546e-38 380 264
0.082674921 0.773 -0.032527838 1.4103296e-38 381 264
0.084030248 0.773 -0.032527838 1.4470649e-38 382 264
0.085385576 0.773 -0.032527838 1.4378453e-38 383 264
0.086740904 0.773 -0.032527838 1.4194788e-38 384 264
0.088096231 0.773 -0.032527838 1.4102592e-38 385 264
0.089451559 0.773 -0.032527838 1.4100438e-38 386 264
0.090806887 0.773 -0.032527838 1.382421e-38 387 264
0.092162207 0.773 -0.032527838 1.3639816e-38 388 264
0.093638517 0.77399999 -0.032569919 1.3271034e-38 389 264
0.094995596 0.77399999 -0.032569919 1.2902251e-38 390 264
0.096352674 0.77399999 -0.032569919 1.2256882e-38 391 264
0.09770976 0.77399999 -0.032569919 1.1977443e-38 392 264
0.099322826 0.77600002 -0.032654081 1.0686704e-38 393 264
0.10042392 0.77399999 -0.032569919 1.0043168e-38 394 264
0.101781 0.77399999 -0.032569919 1.0504506e-38 395 264
0.068029337 0.77600002 -0.034014668 1.3827486e-38 370 265
0.069389917 0.77600002 -0.034014668 1.3827486e-38 371 265
0.070750505 0.77600002 -0.034014668 1.4654344e-38 372 265
0.072111093 0.77600002 -0.034014668 1.4746539e-38 373 265
0.073282316 0.77399999 -0.033927001 1.4655062e-38 374 265
0.074542962 0.773 -0.033883166 1.4839454e-38 375 265
0.075898297 0.773 -0.033883166 1.5023116e-38 376 265
0.077253617 0.773 -0.033883166 1.5115312e-38 377 265
0.078608945 0.773 -0.033883166 1.502382e-38 378 265
0.079964265 0.773 -0.033883166 1.4839789e-38 379 265
0.0813196 0.773 -0.033883166 1.4379882e-38 380 265
0.082674921 0.773 -0.033883166 1.4379882e-38 381 265
0.084030248 0.773 -0.033883166 1.4563921e-38 382 265
0.085385576 0.773 -0.033883166 1.4379529e-38 383 265
0.086740904 0.773 -0.033883166 1.4377378e-38 384 265
0.088096231 0.773 -0.033883166 1.4100791e-38 385 265
0.089451559 0.773 -0.033883166 1.4006801e-38 386 265
0.090806887 0.773 -0.033883166 1.3822409e-38 387 265
0.092162207 0.773 -0.033883166 1.3454705e-38 388 265
0.093517542 0.773 -0.033883166 1.3177759e-38 389 265
0.094995596 0.77399999 -0.033927001 1.2533469e-38 390 265
0.096352674 0.77399999 -0.033927001 1.1980295e-38 391 265
0.09770976 0.77399999 -0.033927001 1.0874323e-38 392 265
0.099322826 0.77600002 -0.034014668 9.3991926e-39 393 265
0.10068341 0.77600002 -0.034014668 8.4819559e-39 394 265
0.102044 0.77600002 -0.034014668 1.0049283e-38 395 265
0.068029337 0.77600002 -0.035375252 1.364453e-38 370 266
0.069211073 0.77399999 -0.03528408 1.3551976e-38 371 266
0.070568159 0.77399999 -0.03528408 1.4195884e-38 372 266
0.071925238 0.77399999 -0.03528408 1.4195884e-38 373 266
0.073282316 0.77399999 -0.03528408 1.419553e-38 374 266
0.074542962 0.773 -0.035238493 1.4379562e-38 375 266
0.075898297 0.773 -0.035238493 1.4563943e-38 376 266
0.077253617 0.773 -0.035238493 1.4656139e-38 377 266
0.078608945 0.773 -0.035238493 1.4839435e-38 378 266
0.079964265 0.773 -0.035238493 1.474724e-38 379 266
0.081109203 0.77100003 -0.03514732 1.4655041e-38 380 266
0.082461022 0.77100003 -0.03514732 1.4470649e-38 381 266
0.08381284 0.77100003 -0.03514732 1.4102592e-38 382 266
0.085164659 0.77100003 -0.03514732 1.4010396e-38 383 266
0.086516477 0.77100003 -0.03514732 1.3917129e-38 384 266
0.087868303 0.77100003 -0.03514732 1.3640182e-38 385 266
0.089220122 0.77100003 -0.03514732 1.3454716e-38 386 266
0.09057194 0.77100003 -0.03514732 1.3270683e-38 387 266
0.092162207 0.773 -0.035238493 1.2994094e-38 388 266
0.093517542 0.773 -0.035238493 1.262567e-38 389 266
0.094872862 0.773 -0.035238493 1.1981018e-38 390 266
0.09622819 0.773 -0.035238493 1.105906e-38 391 266
0.09770976 0.77399999 -0.03528408 9.6786508e-39 392 266
0.099066831 0.77399999 -0.03528408 8.4797475e-39 393 266
0.10068341 0.77600002 -0.035375252 8.3890386e-39 394 266
0.068029337 0.77600002 -0.036735836 1.3552332e-38 370 267
0.069211073 0.77399999 -0.036641158 1.3460135e-38 371 267
0.070476986 0.773 -0.036593821 1.428663e-38 372 267
0.071832314 0.773 -0.036593821 1.428663e-38 373 267
0.073187642 0.773 -0.036593821 1.4469945e-38 374 267
0.074542962 0.773 -0.036593821 1.4654338e-38 375 267
0.075701922 0.77100003 -0.036499143 1.4746889e-38 376 267
0.077053741 0.77100003 -0.036499143 1.4839085e-38 377 267
0.078405559 0.77100003 -0.036499143 1.4746887e-38 378 267
0.079757385 0.77100003 -0.036499143 1.4654691e-38 379 267
0.081109203 0.77100003 -0.036499143 1.4286986e-38 380 267
0.082461022 0.77100003 -0.036499143 1.4102236e-38 381 267
0.08381284 0.77100003 -0.036499143 1.4099721e-38 382 267
0.085164659 0.77100003 -0.036499143 1.3822775e-38 383 267
0.086516477 0.77100003 -0.036499143 1.3821691e-38 384 267
0.087868303 0.77100003 -0.036499143 1.3729494e-38 385 267
0.089220122 0.77100003 -0.036499143 1.3454699e-38 386 267
0.09057194 0.77100003 -0.036499143 1.3178112e-38 387 267
0.091923758 0.77100003 -0.036499143 1.262602e-38 388 267
0.093517542 0.773 -0.036593821 1.2256879e-38 389 267
0.094872862 0.773 -0.036593821 1.1153055e-38 390 267
0.09622819 0.773 -0.036593821 9.7701205e-39 391 267
0.09758351 0.773 -0.036593821 9.5814357e-39 392 267
0.099066831 0.77399999 -0.036641158 9.1204576e-39 393 267
0.10068341 0.77600002 -0.036735836 8.4808867e-39 394 267
0.067854002 0.77399999 -0.037998237 1.3734921e-38 370 268
0.069211073 0.77399999 -0.037998237 1.3734921e-38 371 268
0.070476986 0.773 -0.037949149 1.4194435e-38 372 268
0.071832314 0.773 -0.037949149 1.4194435e-38 373 268
0.073187642 0.773 -0.037949149 1.391822e-38 374 268
0.074350104 0.77100003 -0.037850961 1.4010416e-38 375 268
0.075701922 0.77100003 -0.037850961 1.4194803e-38 376 268
0.077053741 0.77100003 -0.037850961 1.4379196e-38 377 268
0.078405559 0.77100003 -0.037850961 1.4378827e-38 378 268
0.079757385 0.77100003 -0.037850961 1.4194435e-38 379 268
0.081109203 0.77100003 -0.037850961 1.4102236e-38 380 268
0.082461022 0.77100003 -0.037850961 1.3733814e-38 381 268
0.08381284 0.77100003 -0.037850961 1.3731659e-38 382 268
0.084943734 0.76899999 -0.03775277 1.3455072e-38 383 268
0.086292051 0.76899999 -0.03775277 1.3179557e-38 384 268
0.087868303 0.77100003 -0.037850961 1.2995166e-38 385 268
0.088988677 0.76899999 -0.03775277 1.2811132e-38 386 268
0.090336986 0.76899999 -0.03775277 1.2442348e-38 387 268
0.091923758 0.77100003 -0.037850961 1.1981737e-38 388 268
0.093275577 0.77100003 -0.037850961 1.1152336e-38 389 268
0.094627403 0.77100003 -0.037850961 1.0321865e-38 390 268
0.095979221 0.77100003 -0.037850961 9.3077131e-39 391 268
0.09733104 0.77100003 -0.037850961 7.927322e-39 392 268
0.099066831 0.77399999 -0.037998237 7.8351263e-39 393 268
0.10042392 0.77399999 -0.037998237 8.4805364e-39 394 268
0.067854002 0.77399999 -0.039355319 1.3827839e-38 370 269
0.069121659 0.773 -0.039304473 1.3551251e-38 371 269
0.070294641 0.77100003 -0.03920278 1.4010043e-38 372 269
0.071646459 0.77100003 -0.03920278 1.3917848e-38 373 269
0.072998285 0.77100003 -0.03920278 1.3917495e-38 374 269
0.074350104 0.77100003 -0.03920278 1.400969e-38 375 269
0.075701922 0.77100003 -0.03920278 1.3918927e-38 376 269
0.076853856 0.76899999 -0.039101087 1.4011122e-38 377 269
0.078202173 0.76899999 -0.039101087 1.3918924e-38 378 269
0.079550482 0.76899999 -0.039101087 1.3734533e-38 379 269
0.080898799 0.76899999 -0.039101087 1.3733814e-38 380 269
0.082247108 0.76899999 -0.039101087 1.3456867e-38 381 269
0.083595425 0.76899999 -0.039101087 1.3364305e-38 382 269
0.084943734 0.76899999 -0.039101087 1.3179913e-38 383 269
0.086292051 0.76899999 -0.039101087 1.2995513e-38 384 269
0.087640367 0.76899999 -0.039101087 1.2719286e-38 385 269
0.088988677 0.76899999 -0.039101087 1.2350872e-38 386 269
0.090336986 0.76899999 -0.039101087 1.1798059e-38 387 269
0.091685303 0.76899999 -0.039101087 1.1152339e-38 388 269
0.093275577 0.77100003 -0.03920278 1.0230022e-38 389 269
0.094381928 0.76899999 -0.039101087 9.3995556e-39 390 269
0.095730245 0.76899999 -0.039101087 8.7541862e-39 391 269
0.097078554 0.76899999 -0.039101087 8.2017635e-39 392 269
0.099066831 0.77399999 -0.039355319 8.1092091e-39 393 269
0.067854002 0.77399999 -0.040712398 1.3827477e-38 370 270
0.069121659 0.773 -0.0406598 1.355053e-38 371 270
0.070294641 0.77100003 -0.040554602 1.3733814e-38 372 270
0.071460605 0.76899999 -0.0404494 1.3641617e-38 373 270
0.072808921 0.76899999 -0.0404494 1.3549787e-38 374 270
0.074350104 0.77100003 -0.040554602 1.3549787e-38 375 270
0.07550554 0.76899999 -0.0404494 1.3458669e-38 376 270
0.076853856 0.76899999 -0.0404494 1.3458669e-38 377 270
0.078202173 0.76899999 -0.0404494 1.3549781e-38 378 270
0.079550482 0.76899999 -0.0404494 1.336575e-38 379 270
0.080898799 0.76899999 -0.0404494 1.3365024e-38 380 270
0.082247108 0.76899999 -0.0404494 1.3088797e-38 381 270
0.083595425 0.76899999 -0.0404494 1.2904399e-38 382 270
0.084943734 0.76899999 -0.0404494 1.2812204e-38 383 270
0.086292051 0.76899999 -0.0404494 1.2627091e-38 384 270
0.087640367 0.76899999 -0.0404494 1.2350502e-38 385 270
0.088988677 0.76899999 -0.0404494 1.1797703e-38 386 270
0.090336986 0.76899999 -0.0404494 1.0967941e-38 387 270
0.091685303 0.76899999 -0.0404494 9.7697702e-39 388 270
0.093033619 0.76899999 -0.0404494 9.3087921e-39 389 270
0.094381928 0.76899999 -0.0404494 8.4790468e-39 390 270
0.095730245 0.76899999 -0.0404494 8.2024613e-39 391 270
0.097078554 0.76899999 -0.0404494 7.7429503e-39 392 270
0.099066831 0.77399999 -0.040712398 7.466362e-39 393 270
0.066411003 0.773 -0.042015124 1.3370512e-38 369 271
0.067766331 0.773 -0.042015124 1.3826391e-38 370 271
0.069121659 0.773 -0.042015124 1.3457968e-38 371 271
0.070294641 0.77100003 -0.04190642 1.3366103e-38 372 271
0.071460605 0.76899999 -0.041797712 1.3273908e-38 373 271
0.072808921 0.76899999 -0.041797712 1.2998415e-38 374 271
0.074157231 0.76899999 -0.041797712 1.2998415e-38 375 271
0.07550554 0.76899999 -0.041797712 1.290658e-38 376 271
0.076853856 0.76899999 -0.041797712 1.290658e-38 377 271
0.078202173 0.76899999 -0.041797712 1.3089882e-38 378 271
0.079550482 0.76899999 -0.041797712 1.2813297e-38 379 271
0.080898799 0.76899999 -0.041797712 1.2721453e-38 380 271
0.082247108 0.76899999 -0.041797712 1.2537061e-38 381 271
0.083595425 0.76899999 -0.041797712 1.2536343e-38 382 271
0.084943734 0.76899999 -0.041797712 1.21672e-38 383 271
0.086292051 0.76899999 -0.041797712 1.1890973e-38 384 271
0.087640367 0.76899999 -0.041797712 1.1521831e-38 385 271
0.088988677 0.76899999 -0.041797712 1.0875023e-38 386 271
0.090336986 0.76899999 -0.041797712 1.0045263e-38 387 271
0.091685303 0.76899999 -0.041797712 8.75634e-39 388 271
0.093033619 0.76899999 -0.041797712 8.4793943e-39 389 271
0.094136469 0.76700002 -0.041689005 8.1099182e-39 390 271
0.095481269 0.76700002 -0.041689005 8.0173624e-39 391 271
0.097078554 0.76899999 -0.041797712 7.3748951e-39 392 271
0.066239186 0.77100003 -0.043258239 1.300064e-38 369 272
0.067591004 0.77100003 -0.043258239 1.3366486e-38 370 272
0.068942823 0.77100003 -0.043258239 1.3090258e-38 371 272
0.070112288 0.76899999 -0.043146025 1.3181712e-38 372 272
0.071460605 0.76899999 -0.043146025 1.2996962e-38 373 272
0.072808921 0.76899999 -0.043146025 1.2813299e-38 374 272
0.074157231 0.76899999 -0.043146025 1.2813299e-38 375 272
0.07550554 0.76899999 -0.043146025 1.2813297e-38 376 272
0.076853856 0.76899999 -0.043146025 1.27211e-38 377 272
0.078202173 0.76899999 -0.043146025 1.2812572e-38 378 272
0.079550482 0.76899999 -0.043146025 1.2628541e-38 379 272
0.080898799 0.76899999 -0.043146025 1.2351946e-38 380 272
0.082247108 0.76899999 -0.043146025 1.1891326e-38 381 272
0.083595425 0.76899999 -0.043146025 1.1799128e-38 382 272
0.084943734 0.76899999 -0.043146025 1.1245954e-38 383 272
0.086292051 0.76899999 -0.043146025 1.0233247e-38 384 272
0.087640367 0.76899999 -0.043146025 9.6800731e-39 385 272
0.088988677 0.76899999 -0.043146025 8.8496034e-39 386 272
0.090336986 0.76899999 -0.043146025 8.2967883e-39 387 272
0.091685303 0.76899999 -0.043146025 8.1099014e-39 388 272
0.093033619 0.76899999 -0.043146025 8.1099014e-39 389 272
0.094136469 0.76700002 -0.043033812 7.7415014e-39 390 272
0.095481269 0.76700002 -0.043033812 7.7415014e-39 391 272
0.066239186 0.77100003 -0.044610061 1.2631482e-38 369 273
0.067591004 0.77100003 -0.044610061 1.3366472e-38 370 273
0.068763971 0.76899999 -0.044494338 1.3182081e-38 371 273
0.070112288 0.76899999 -0.044494338 1.272182e-38 372 273
0.071460605 0.76899999 -0.044494338 1.2445592e-38 373 273
0.072808921 0.76899999 -0.044494338 1.2077898e-38 374 273
0.074157231 0.76899999 -0.044494338 1.2170094e-38 375 273
0.07550554 0.76899999 -0.044494338 1.2077898e-38 376 273
0.076853856 0.76899999 -0.044494338 1.1893507e-38 377 273
0.078202173 0.76899999 -0.044494338 1.2076804e-38 378 273
0.079550482 0.76899999 -0.044494338 1.170838e-38 379 273
0.080898799 0.76899999 -0.044494338 1.1431415e-38 380 273
0.082247108 0.76899999 -0.044494338 1.0970797e-38 381 273
0.083595425 0.76899999 -0.044494338 1.0877518e-38 382 273
0.084943734 0.76899999 -0.044494338 1.0232148e-38 383 273
0.086292051 0.76899999 -0.044494338 9.403482e-39 384 273
0.087640367 0.76899999 -0.044494338 8.9425053e-39 385 273
0.088988677 0.76899999 -0.044494338 8.2046151e-39 386 273
0.090336986 0.76899999 -0.044494338 7.9276695e-39 387 273
0.091685303 0.76899999 -0.044494338 7.9248137e-39 388 273
0.092791654 0.76700002 -0.04437862 7.9248137e-39 389 273
0.094136469 0.76700002 -0.04437862 7.6486023e-39 390 273
0.095481269 0.76700002 -0.04437862 7.6486023e-39 391 273
0.064719036 0.76899999 -0.045842651 1.3738891e-38 368 274
0.066067353 0.76899999 -0.045842651 1.2632183e-38 369 274
0.067415662 0.76899999 -0.045842651 1.3366472e-38 370 274
0.068763971 0.76899999 -0.045842651 1.3089526e-38 371 274
0.070112288 0.76899999 -0.045842651 1.2446313e-38 372 274
0.071460605 0.76899999 -0.045842651 1.2077532e-38 373 274
0.072808921 0.76899999 -0.045842651 1.2077535e-38 374 274
0.074157231 0.76899999 -0.045842651 1.1984981e-38 375 274
0.07550554 0.76899999 -0.045842651 1.1800941e-38 376 274
0.076853856 0.76899999 -0.045842651 1.161655e-38 377 274
0.078202173 0.76899999 -0.045842651 1.1706212e-38 378 274
0.079550482 0.76899999 -0.045842651 1.0783897e-38 379 274
0.080898799 0.76899999 -0.045842651 9.5878719e-39 380 274
0.082247108 0.76899999 -0.045842651 9.0350568e-39 381 274
0.083595425 0.76899999 -0.045842651 9.0325541e-39 382 274
0.084943734 0.76899999 -0.045842651 8.1105992e-39 383 274
0.086292051 0.76899999 -0.045842651 7.3748488e-39 384 274
0.087640367 0.76899999 -0.045842651 7.5595988e-39 385 274
0.088988677 0.76899999 -0.045842651 8.2921444e-39 386 274
0.090336986 0.76899999 -0.045842651 8.1995901e-39 387 274
0.091685303 0.76899999 -0.045842651 7.649303e-39 388 274
0.092791654 0.76700002 -0.045723427 7.649303e-39 389 274
0.094136469 0.76700002 -0.045723427 7.3727385e-39 390 274
0.063370727 0.76899999 -0.047190964 1.272909e-38 367 275
0.064719036 0.76899999 -0.047190964 1.3643797e-38 368 275
0.066067353 0.76899999 -0.047190964 1.318282e-38 369 275
0.067415662 0.76899999 -0.047190964 1.3274626e-38 370 275
0.068763971 0.76899999 -0.047190964 1.2905845e-38 371 275
0.070112288 0.76899999 -0.047190964 1.2446308e-38 372 275
0.071460605 0.76899999 -0.047190964 1.2261916e-38 373 275
0.072808921 0.76899999 -0.047190964 1.1984981e-38 374 275
0.074157231 0.76899999 -0.047190964 1.1708392e-38 375 275
0.07550554 0.76899999 -0.047190964 1.1247769e-38 376 275
0.076853856 0.76899999 -0.047190964 1.0602399e-38 377 275
0.078202173 0.76899999 -0.047190964 1.032364e-38 378 275
0.079550482 0.76899999 -0.047190964 9.5860754e-39 379 275
0.080898799 0.76899999 -0.047190964 8.7577833e-39 380 275
0.082247108 0.76899999 -0.047190964 8.2049682e-39 381 275
0.083595425 0.76899999 -0.047190964 7.7429503e-39 382 275
0.084943734 0.76899999 -0.047190964 7.3741664e-39 383 275
0.086292051 0.76899999 -0.047190964 7.4642082e-39 384 275
0.087640367 0.76899999 -0.047190964 7.5564039e-39 385 275
0.088988677 0.76899999 -0.047190964 7.3734419e-39 386 275
0.090102047 0.76700002 -0.047068235 7.3734419e-39 387 275
0.091446854 0.76700002 -0.047068235 7.0982998e-39 388 275
0.093033619 0.76899999 -0.047190964 6.9139085e-39 389 275
0.063370727 0.76899999 -0.048539277 1.1987189e-38 367 276
0.064719036 0.76899999 -0.048539277 1.3090608e-38 368 276
0.066067353 0.76899999 -0.048539277 1.3182804e-38 369 276
0.067415662 0.76899999 -0.048539277 1.2906567e-38 370 276
0.068763971 0.76899999 -0.048539277 1.2722176e-38 371 276
0.070112288 0.76899999 -0.048539277 1.2262642e-38 372 276
0.071460605 0.76899999 -0.048539277 1.2078251e-38 373 276
0.072808921 0.76899999 -0.048539277 1.1800941e-38 374 276
0.074157231 0.76899999 -0.048539277 1.097118e-38 375 276
0.07550554 0.76899999 -0.048539277 1.041584e-38 376 276
0.076853856 0.76899999 -0.048539277 9.2172971e-39 377 276
0.078202173 0.76899999 -0.048539277 7.9276527e-39 378 276
0.079550482 0.76899999 -0.048539277 7.5588702e-39 379 276
0.080898799 0.76899999 -0.048539277 7.9255199e-39 380 276
0.082247108 0.76899999 -0.048539277 7.6492932e-39 381 276
0.083595425 0.76899999 -0.048539277 7.2816022e-39 382 276
0.084943734 0.76899999 -0.048539277 7.2816022e-39 383 276
0.086292051 0.76899999 -0.048539277 7.1890479e-39 384 276
0.087640367 0.76899999 -0.048539277 7.2816022e-39 385 276
0.088988677 0.76899999 -0.048539277 7.0986529e-39 386 276
0.090102047 0.76700002 -0.048413042 7.0064573e-39 387 276
0.091446854 0.76700002 -0.048413042 7.0050378e-39 388 276
0.063370727 0.76899999 -0.04988759 1.2537469e-38 367 277
0.064719036 0.76899999 -0.04988759 1.2998765e-38 368 277
0.066067353 0.76899999 -0.04988759 1.2998765e-38 369 277
0.067415662 0.76899999 -0.04988759 1.2722176e-38 370 277
0.068763971 0.76899999 -0.04988759 1.2445589e-38 371 277
0.070112288 0.76899999 -0.04988759 1.2075733e-38 372 277
0.071460605 0.76899999 -0.04988759 1.1614756e-38 373 277
0.072619557 0.76700002 -0.049757849 1.0324373e-38 374 277
0.073964365 0.76700002 -0.049757849 9.0336345e-39 375 277
0.075309172 0.76700002 -0.049757849 7.6514161e-39 376 277
0.07665398 0.76700002 -0.049757849 7.5592205e-39 377 277
0.078202173 0.76899999 -0.04988759 7.1890311e-39 378 277
0.079550482 0.76899999 -0.04988759 7.465618e-39 379 277
0.080898799 0.76899999 -0.04988759 7.0053825e-39 380 277
0.082247108 0.76899999 -0.04988759 7.0053825e-39 381 277
0.083595425 0.76899999 -0.04988759 6.7305907e-39 382 277
0.085164659 0.77100003 -0.050017338 6.823145e-39 383 277
0.086292051 0.76899999 -0.04988759 6.8227891e-39 384 277
0.087640367 0.76899999 -0.04988759 6.7305935e-39 385 277
0.088988677 0.76899999 -0.04988759 6.9135582e-39 386 277
0.090336986 0.76899999 -0.04988759 6.7295271e-39 387 277
