# .PCD v.7 - Point Cloud Data file format
FIELDS x y z rgb imX imY
SIZE 4 4 4 4 4 4
TYPE F F F F F F
COUNT 1 1 1 1 1 1
WIDTH 851
HEIGHT 1
VIEWPOINT 0 0 0 1 0 0 0
POINTS 851
DATA ascii
0.082550429 0.79799998 0.018189078 1.5482962e-38 379 227
0.083949596 0.79799998 0.018189078 1.4837949e-38 380 227
0.085348755 0.79799998 0.018189078 1.4745753e-38 381 227
0.086747915 0.79799998 0.018189078 1.4009282e-38 382 227
0.088367999 0.80000001 0.018234666 1.3824532e-38 383 227
0.089995086 0.80199999 0.018280253 1.2444905e-38 384 227
0.091401257 0.80199999 0.018280253 1.3735644e-38 385 227
0.044515379 0.81900001 0.017231759 1.069249e-38 351 228
0.045502506 0.81099999 0.017063441 1.2165793e-38 352 228
0.046924461 0.81099999 0.017063441 1.2534936e-38 353 228
0.048346411 0.81099999 0.017063441 1.3086289e-38 354 228
0.049768366 0.81099999 0.017063441 1.3178844e-38 355 228
0.051190317 0.81099999 0.017063441 1.2996245e-38 356 228
0.052482527 0.80900002 0.01702136 1.3088442e-38 357 228
0.053900972 0.80900002 0.01702136 1.3547264e-38 358 228
0.055182658 0.80699998 0.016979279 1.3732014e-38 359 228
0.056457333 0.80500001 0.0169372 1.3733814e-38 360 228
0.057868768 0.80500001 0.0169372 1.4194432e-38 361 228
0.059280202 0.80500001 0.0169372 1.5023823e-38 362 228
0.060540844 0.80299997 0.016895119 1.5208214e-38 363 228
0.061948773 0.80299997 0.016895119 1.5485155e-38 364 228
0.063356698 0.80299997 0.016895119 1.5761741e-38 365 228
0.064683966 0.80199999 0.016874079 1.5854289e-38 366 228
0.066090144 0.80199999 0.016874079 1.5946486e-38 367 228
0.067496315 0.80199999 0.016874079 1.6314193e-38 368 228
0.068730667 0.80000001 0.016832 1.6498584e-38 369 228
0.070133328 0.80000001 0.016832 1.6774815e-38 370 228
0.071357153 0.79799998 0.016789921 1.6867011e-38 371 228
0.072756313 0.79799998 0.016789921 1.6959196e-38 372 228
0.074155472 0.79799998 0.016789921 1.6867001e-38 373 228
0.075554639 0.79799998 0.016789921 1.6775502e-38 374 228
0.076953799 0.79799998 0.016789921 1.659111e-38 375 228
0.078352958 0.79799998 0.016789921 1.6405983e-38 376 228
0.079752117 0.79799998 0.016789921 1.6221233e-38 377 228
0.081151277 0.79799998 0.016789921 1.6219068e-38 378 228
0.082550429 0.79799998 0.016789921 1.5849927e-38 379 228
0.083949596 0.79799998 0.016789921 1.5664813e-38 380 228
0.085348755 0.79799998 0.016789921 1.529639e-38 381 228
0.086747915 0.79799998 0.016789921 1.4560636e-38 382 228
0.088147074 0.79799998 0.016789921 1.4100016e-38 383 228
0.089770667 0.80000001 0.016832 1.2625664e-38 384 228
0.091173328 0.80000001 0.016832 1.3271034e-38 385 228
0.045502506 0.81099999 0.015641484 1.078431e-38 352 229
0.046924461 0.81099999 0.015641484 1.1614071e-38 353 229
0.048346411 0.81099999 0.015641484 1.26264e-38 354 229
0.049768366 0.81099999 0.015641484 1.281115e-38 355 229
0.051190317 0.81099999 0.015641484 1.3087361e-38 356 229
0.052612271 0.81099999 0.015641484 1.3179557e-38 357 229
0.053900972 0.80900002 0.015602913 1.3455425e-38 358 229
0.055182658 0.80699998 0.015564339 1.354762e-38 359 229
0.056457333 0.80500001 0.015525767 1.3915327e-38 360 229
0.057868768 0.80500001 0.015525767 1.4468501e-38 361 229
0.059280202 0.80500001 0.015525767 1.4655397e-38 362 229
0.060540844 0.80299997 0.015487193 1.502382e-38 363 229
0.061948773 0.80299997 0.015487193 1.5301833e-38 364 229
0.063277796 0.80199999 0.015467905 1.5394029e-38 365 229
0.064683966 0.80199999 0.015467905 1.5762091e-38 366 229
0.065925337 0.80000001 0.015429333 1.5854287e-38 367 229
0.067327999 0.80000001 0.015429333 1.622235e-38 368 229
0.068558834 0.79799998 0.015390759 1.6406742e-38 369 229
0.069957994 0.79799998 0.015390759 1.6682971e-38 370 229
0.071357153 0.79799998 0.015390759 1.6775168e-38 371 229
0.072756313 0.79799998 0.015390759 1.6959194e-38 372 229
0.074155472 0.79799998 0.015390759 1.6959194e-38 373 229
0.075554639 0.79799998 0.015390759 1.69599e-38 374 229
0.076953799 0.79799998 0.015390759 1.6682953e-38 375 229
0.078352958 0.79799998 0.015390759 1.6315234e-38 376 229
0.079752117 0.79799998 0.015390759 1.6038287e-38 377 229
0.081151277 0.79799998 0.015390759 1.6219437e-38 378 229
0.082550429 0.79799998 0.015390759 1.5942851e-38 379 229
0.083949596 0.79799998 0.015390759 1.5481869e-38 380 229
0.085348755 0.79799998 0.015390759 1.5297838e-38 381 229
0.086747915 0.79799998 0.015390759 1.4653553e-38 382 229
0.088147074 0.79799998 0.015390759 1.4284772e-38 383 229
0.089770667 0.80000001 0.015429333 1.37302e-38 384 229
0.091173328 0.80000001 0.015429333 1.37302e-38 385 229
0.092575997 0.80000001 0.015429333 1.3553441e-38 386 229
0.048465639 0.81300002 0.0142546 1.2072881e-38 354 230
0.049891099 0.81300002 0.0142546 1.2626055e-38 355 230
0.051190317 0.81099999 0.014219533 1.2811503e-38 356 230
0.052612271 0.81099999 0.014219533 1.2995894e-38 357 230
0.053900972 0.80900002 0.014184467 1.3455069e-38 358 230
0.055182658 0.80699998 0.014149399 1.3547264e-38 359 230
0.056457333 0.80500001 0.014114333 1.3639466e-38 360 230
0.057868768 0.80500001 0.014114333 1.4100085e-38 361 230
0.059280202 0.80500001 0.014114333 1.4378097e-38 362 230
0.060540844 0.80299997 0.014079265 1.4839435e-38 363 230
0.061948773 0.80299997 0.014079265 1.5026325e-38 364 230
0.063277796 0.80199999 0.014061732 1.5118521e-38 365 230
0.064522661 0.80000001 0.014026666 1.5761372e-38 366 230
0.065925337 0.80000001 0.014026666 1.6037599e-38 367 230
0.067327999 0.80000001 0.014026666 1.6221994e-38 368 230
0.068558834 0.79799998 0.013991599 1.631419e-38 369 230
0.069957994 0.79799998 0.013991599 1.6774451e-38 370 230
0.071357153 0.79799998 0.013991599 1.6866648e-38 371 230
0.072573967 0.796 0.013956533 1.6958841e-38 372 230
0.073969625 0.796 0.013956533 1.714323e-38 373 230
0.075554639 0.79799998 0.013991599 1.6960266e-38 374 230
0.076760925 0.796 0.013956533 1.6775873e-38 375 230
0.078156583 0.796 0.013956533 1.6591108e-38 376 230
0.079552241 0.796 0.013956533 1.6130488e-38 377 230
0.080947891 0.796 0.013956533 1.6220161e-38 378 230
0.082343549 0.796 0.013956533 1.5943573e-38 379 230
0.083739199 0.796 0.013956533 1.5849577e-38 380 230
0.085134849 0.796 0.013956533 1.5573349e-38 381 230
0.086530507 0.796 0.013956533 1.4837583e-38 382 230
0.088147074 0.79799998 0.013991599 1.4560636e-38 383 230
0.089546233 0.79799998 0.013991599 1.3823463e-38 384 230
0.090945393 0.79799998 0.013991599 1.3731266e-38 385 230
0.092575997 0.80000001 0.014026666 1.25364e-38 386 230
0.094213605 0.80199999 0.014061732 1.4380313e-38 387 230
0.051190317 0.81099999 0.012797579 1.2627128e-38 356 231
0.052612271 0.81099999 0.012797579 1.2903715e-38 357 231
0.053900972 0.80900002 0.012766019 1.3271403e-38 358 231
0.055182658 0.80699998 0.01273446 1.3363599e-38 359 231
0.056457333 0.80500001 0.012702899 1.363911e-38 360 231
0.057868768 0.80500001 0.012702899 1.3916055e-38 361 231
0.059280202 0.80500001 0.012702899 1.4010043e-38 362 231
0.060540844 0.80299997 0.012671339 1.4378827e-38 363 231
0.061948773 0.80299997 0.012671339 1.5024176e-38 364 231
0.063277796 0.80199999 0.01265556 1.5300764e-38 365 231
0.064522661 0.80000001 0.012624 1.5486583e-38 366 231
0.065925337 0.80000001 0.012624 1.5578779e-38 367 231
0.067159683 0.79799998 0.012592439 1.5947205e-38 368 231
0.068558834 0.79799998 0.012592439 1.6039401e-38 369 231
0.069782659 0.796 0.01256088 1.6406754e-38 370 231
0.071178317 0.796 0.01256088 1.6591506e-38 371 231
0.072573967 0.796 0.01256088 1.6867016e-38 372 231
0.073969625 0.796 0.01256088 1.6959212e-38 373 231
0.075365283 0.796 0.01256088 1.7052114e-38 374 231
0.076760925 0.796 0.01256088 1.6867364e-38 375 231
0.078156583 0.796 0.01256088 1.6958814e-38 376 231
0.079552241 0.796 0.01256088 1.6498196e-38 377 231
0.080947891 0.796 0.01256088 1.6496025e-38 378 231
0.082343549 0.796 0.01256088 1.6219437e-38 379 231
0.083739199 0.796 0.01256088 1.6033605e-38 380 231
0.085134849 0.796 0.01256088 1.5756658e-38 381 231
0.086530507 0.796 0.01256088 1.5113441e-38 382 231
0.087926157 0.796 0.01256088 1.4836853e-38 383 231
0.089546233 0.79799998 0.012592439 1.4467737e-38 384 231
0.090945393 0.79799998 0.012592439 1.4375541e-38 385 231
0.092344552 0.79799998 0.012592439 1.2072528e-38 386 231
0.093978666 0.80000001 0.012624 1.3455463e-38 387 231
0.052612271 0.81099999 0.011375627 1.2353061e-38 357 232
0.053900972 0.80900002 0.011347573 1.3453998e-38 358 232
0.055182658 0.80699998 0.011319519 1.3546195e-38 359 232
0.056457333 0.80500001 0.011291467 1.3546548e-38 360 232
0.057868768 0.80500001 0.011291467 1.391533e-38 361 232
0.059280202 0.80500001 0.011291467 1.3916053e-38 362 232
0.060691636 0.80500001 0.011291467 1.4377031e-38 363 232
0.061948773 0.80299997 0.011263412 1.4563565e-38 364 232
0.063277796 0.80199999 0.011249386 1.4932706e-38 365 232
0.064522661 0.80000001 0.011221333 1.5393666e-38 366 232
0.065925337 0.80000001 0.011221333 1.5485861e-38 367 232
0.067159683 0.79799998 0.011193279 1.5854284e-38 368 232
0.068558834 0.79799998 0.011193279 1.594684e-38 369 232
0.069782659 0.796 0.011165227 1.6497861e-38 370 232
0.071178317 0.796 0.011165227 1.6682252e-38 371 232
0.072573967 0.796 0.011165227 1.695741e-38 372 232
0.073969625 0.796 0.011165227 1.7234357e-38 373 232
0.075365283 0.796 0.011165227 1.7142521e-38 374 232
0.076568067 0.79400003 0.011137174 1.7235076e-38 375 232
0.077960216 0.79400003 0.011137174 1.6959547e-38 376 232
0.079352364 0.79400003 0.011137174 1.6590404e-38 377 232
0.080744505 0.79400003 0.011137174 1.6588236e-38 378 232
0.082136653 0.79400003 0.011137174 1.6403845e-38 379 232
0.083528802 0.79400003 0.011137174 1.5943576e-38 380 232
0.08492095 0.79400003 0.011137174 1.5482599e-38 381 232
0.086313091 0.79400003 0.011137174 1.5206005e-38 382 232
0.087926157 0.796 0.011165227 1.4837583e-38 383 232
0.089321814 0.796 0.011165227 1.4377336e-38 384 232
0.090945393 0.79799998 0.011193279 1.3916718e-38 385 232
0.092344552 0.79799998 0.011193279 1.2993022e-38 386 232
0.093743719 0.79799998 0.011193279 1.3453998e-38 387 232
0.095142879 0.79799998 0.011193279 1.3738221e-38 388 232
0.053767715 0.80699998 0.0099045793 1.2903345e-38 358 233
0.055182658 0.80699998 0.0099045793 1.2995541e-38 359 233
0.056457333 0.80500001 0.0098800333 1.3363599e-38 360 233
0.057868768 0.80500001 0.0098800333 1.3640185e-38 361 233
0.059280202 0.80500001 0.0098800333 1.3640913e-38 362 233
0.060691636 0.80500001 0.0098800333 1.3917141e-38 363 233
0.061948773 0.80299997 0.0098554865 1.4011125e-38 364 233
0.063277796 0.80199999 0.0098432126 1.456394e-38 365 233
0.064522661 0.80000001 0.0098186666 1.465863e-38 366 233
0.065760516 0.79799998 0.0097941197 1.5027773e-38 367 233
0.067159683 0.79799998 0.0097941197 1.5486946e-38 368 233
0.068387017 0.796 0.0097695729 1.5671339e-38 369 233
0.069782659 0.796 0.0097695729 1.6039048e-38 370 233
0.071178317 0.796 0.0097695729 1.6131243e-38 371 233
0.072573967 0.796 0.0097695729 1.6315643e-38 372 233
0.073969625 0.796 0.0097695729 1.6591871e-38 373 233
0.075175926 0.79400003 0.0097450269 1.6959928e-38 374 233
0.076568067 0.79400003 0.0097450269 1.6959928e-38 375 233
0.077960216 0.79400003 0.0097450269 1.7143215e-38 376 233
0.079352364 0.79400003 0.0097450269 1.6958464e-38 377 233
0.080541119 0.792 0.0097204801 1.7049568e-38 378 233
0.081929758 0.792 0.0097204801 1.6588589e-38 379 233
0.083318397 0.792 0.0097204801 1.6220515e-38 380 233
0.084707037 0.792 0.0097204801 1.5575145e-38 381 233
0.086095676 0.792 0.0097204801 1.5574049e-38 382 233
0.08770524 0.79400003 0.0097450269 1.5297462e-38 383 233
0.089321814 0.796 0.0097695729 1.483685e-38 384 233
0.090717465 0.796 0.0097695729 1.4468428e-38 385 233
0.092113115 0.796 0.0097695729 1.3453254e-38 386 233
0.093743719 0.79799998 0.0097941197 1.3453254e-38 387 233
0.095142879 0.79799998 0.0097941197 1.2539659e-38 388 233
0.055182658 0.80699998 0.0084896395 1.2811516e-38 359 234
0.056457333 0.80500001 0.0084686 1.3271036e-38 360 234
0.057868768 0.80500001 0.0084686 1.3639819e-38 361 234
0.059280202 0.80500001 0.0084686 1.3731659e-38 362 234
0.060691636 0.80500001 0.0084686 1.4100441e-38 363 234
0.061871622 0.80199999 0.0084370393 1.4194437e-38 364 234
0.06312 0.80000001 0.0084159998 1.4747611e-38 365 234
0.064522661 0.80000001 0.0084159998 1.5209287e-38 366 234
0.065760516 0.79799998 0.0083949603 1.5209287e-38 367 234
0.066991359 0.796 0.0083739199 1.5670246e-38 368 234
0.068387017 0.796 0.0083739199 1.5762441e-38 369 234
0.069782659 0.796 0.0083739199 1.5946837e-38 370 234
0.071178317 0.796 0.0083739199 1.6131228e-38 371 234
0.072573967 0.796 0.0083739199 1.6406744e-38 372 234
0.07378377 0.79400003 0.0083528794 1.6867364e-38 373 234
0.075175926 0.79400003 0.0083528794 1.6867011e-38 374 234
0.076375201 0.792 0.0083318399 1.7051761e-38 375 234
0.077763841 0.792 0.0083318399 1.7052111e-38 376 234
0.07915248 0.792 0.0083318399 1.6959915e-38 377 234
0.080541119 0.792 0.0083318399 1.6866268e-38 378 234
0.081929758 0.792 0.0083318399 1.6497846e-38 379 234
0.083318397 0.792 0.0083318399 1.6404198e-38 380 234
0.084707037 0.792 0.0083318399 1.6035416e-38 381 234
0.086095676 0.792 0.0083318399 1.5483315e-38 382 234
0.08770524 0.79400003 0.0083528794 1.5298923e-38 383 234
0.089097388 0.79400003 0.0083528794 1.4838299e-38 384 234
0.090717465 0.796 0.0083739199 1.4285125e-38 385 234
0.092113115 0.796 0.0083739199 1.364122e-38 386 234
0.093743719 0.79799998 0.0083949603 1.2995851e-38 387 234
0.095142879 0.79799998 0.0083949603 1.1431846e-38 388 234
0.056457333 0.80500001 0.0070571667 1.3179206e-38 360 235
0.057868768 0.80500001 0.0070571667 1.3363599e-38 361 235
0.059280202 0.80500001 0.0070571667 1.3548712e-38 362 235
0.060691636 0.80500001 0.0070571667 1.3733463e-38 363 235
0.061871622 0.80199999 0.0070308661 1.3826378e-38 364 235
0.06312 0.80000001 0.007013333 1.4286997e-38 365 235
0.064522661 0.80000001 0.007013333 1.5208214e-38 366 235
0.065595701 0.796 0.0069782664 1.5208214e-38 367 235
0.066991359 0.796 0.0069782664 1.5394385e-38 368 235
0.068387017 0.796 0.0069782664 1.548658e-38 369 235
0.069607332 0.79400003 0.0069607338 1.5855007e-38 370 235
0.070999481 0.79400003 0.0069607338 1.6039398e-38 371 235
0.072391629 0.79400003 0.0069607338 1.6407463e-38 372 235
0.07378377 0.79400003 0.0069607338 1.6591856e-38 373 235
0.075175926 0.79400003 0.0069607338 1.6684054e-38 374 235
0.076375201 0.792 0.0069431998 1.6960281e-38 375 235
0.077763841 0.792 0.0069431998 1.7052108e-38 376 235
0.07915248 0.792 0.0069431998 1.6959913e-38 377 235
0.080337733 0.79000002 0.0069256667 1.7234327e-38 378 235
0.081722863 0.79000002 0.0069256667 1.6865546e-38 379 235
0.083108 0.79000002 0.0069256667 1.6863734e-38 380 235
0.084493138 0.79000002 0.0069256667 1.6402758e-38 381 235
0.08587826 0.79000002 0.0069256667 1.6034324e-38 382 235
0.087484315 0.792 0.0069431998 1.5665542e-38 383 235
0.088872954 0.792 0.0069431998 1.5113791e-38 384 235
0.090489529 0.79400003 0.0069607338 1.4653172e-38 385 235
0.091881685 0.79400003 0.0069607338 1.4100731e-38 386 235
0.093508773 0.796 0.0069782664 1.3455362e-38 387 235
0.095142879 0.79799998 0.0069957995 1.2072513e-38 388 235
0.096542038 0.79799998 0.0069957995 1.3824228e-38 389 235
0.058012534 0.80699998 0.0056597595 1.363911e-38 361 236
0.059280202 0.80500001 0.0056457333 1.3549065e-38 362 236
0.060691636 0.80500001 0.0056457333 1.3733458e-38 363 236
0.061948773 0.80299997 0.0056317062 1.4009687e-38 364 236
0.06312 0.80000001 0.0056106667 1.4194437e-38 365 236
0.064522661 0.80000001 0.0056106667 1.4473167e-38 366 236
0.065595701 0.796 0.0055826134 1.4657558e-38 367 236
0.066991359 0.796 0.0055826134 1.5302189e-38 368 236
0.068387017 0.796 0.0055826134 1.5394385e-38 369 236
0.069607332 0.79400003 0.0055685868 1.5853918e-38 370 236
0.070999481 0.79400003 0.0055685868 1.6222701e-38 371 236
0.072391629 0.79400003 0.0055685868 1.6406742e-38 372 236
0.07378377 0.79400003 0.0055685868 1.6498937e-38 373 236
0.074986562 0.792 0.0055545596 1.6867367e-38 374 236
0.076375201 0.792 0.0055545596 1.6959562e-38 375 236
0.077763841 0.792 0.0055545596 1.6959915e-38 376 236
0.07915248 0.792 0.0055545596 1.6959915e-38 377 236
0.080337733 0.79000002 0.0055405335 1.6959544e-38 378 236
0.081722863 0.79000002 0.0055405335 1.6682956e-38 379 236
0.083108 0.79000002 0.0055405335 1.6680791e-38 380 236
0.084493138 0.79000002 0.0055405335 1.6403845e-38 381 236
0.08587826 0.79000002 0.0055405335 1.5667712e-38 382 236
0.087263398 0.79000002 0.0055405335 1.5390767e-38 383 236
0.088648535 0.79000002 0.0055405335 1.5113807e-38 384 236
0.090261593 0.792 0.0055545596 1.4653187e-38 385 236
0.091650233 0.792 0.0055545596 1.400997e-38 386 236
0.093273826 0.79400003 0.0055685868 1.3364601e-38 387 236
0.094665974 0.79400003 0.0055685868 1.2901529e-38 388 236
0.058012534 0.80699998 0.0042448197 1.3272851e-38 361 237
0.059280202 0.80500001 0.0042343 1.3549065e-38 362 237
0.060691636 0.80500001 0.0042343 1.3733458e-38 363 237
0.061948773 0.80299997 0.0042237798 1.3734177e-38 364 237
0.063277796 0.80199999 0.0042185197 1.3918927e-38 365 237
0.064361356 0.79799998 0.0041974802 1.410474e-38 366 237
0.065595701 0.796 0.0041869599 1.4565718e-38 367 237
0.066991359 0.796 0.0041869599 1.4934481e-38 368 237
0.068215191 0.79400003 0.0041764397 1.5118874e-38 369 237
0.069607332 0.79400003 0.0041764397 1.5853918e-38 370 237
0.070820637 0.792 0.00416592 1.6037949e-38 371 237
0.072209276 0.792 0.00416592 1.6222347e-38 372 237
0.073597915 0.792 0.00416592 1.6498934e-38 373 237
0.074797198 0.79000002 0.0041554002 1.6682971e-38 374 237
0.076182336 0.79000002 0.0041554002 1.6775168e-38 375 237
0.077567466 0.79000002 0.0041554002 1.686772e-38 376 237
0.078952603 0.79000002 0.0041554002 1.6959915e-38 377 237
0.080337733 0.79000002 0.0041554002 1.6959547e-38 378 237
0.081722863 0.79000002 0.0041554002 1.6775154e-38 379 237
0.083108 0.79000002 0.0041554002 1.6681511e-38 380 237
0.084493138 0.79000002 0.0041554002 1.6312728e-38 381 237
0.08587826 0.79000002 0.0041554002 1.5759908e-38 382 237
0.087263398 0.79000002 0.0041554002 1.5482962e-38 383 237
0.088648535 0.79000002 0.0041554002 1.5206005e-38 384 237
0.090033665 0.79000002 0.0041554002 1.4745386e-38 385 237
0.091418803 0.79000002 0.0041554002 1.410181e-38 386 237
0.093038872 0.792 0.00416592 1.3640831e-38 387 237
0.094427519 0.792 0.00416592 1.299515e-38 388 237
0.059280202 0.80500001 0.0028228667 1.3274276e-38 362 238
0.060691636 0.80500001 0.0028228667 1.3458669e-38 363 238
0.061948773 0.80299997 0.0028158531 1.3826731e-38 364 238
0.06312 0.80000001 0.0028053334 1.3918927e-38 365 238
0.064361356 0.79799998 0.0027983198 1.3829232e-38 366 238
0.065595701 0.796 0.0027913067 1.4197656e-38 367 238
0.066991359 0.796 0.0027913067 1.5208554e-38 368 238
0.068215191 0.79400003 0.0027842934 1.5576978e-38 369 238
0.069431998 0.792 0.0027772798 1.5669893e-38 370 238
0.070641801 0.79000002 0.0027702667 1.5854284e-38 371 238
0.072026931 0.79000002 0.0027702667 1.6221994e-38 372 238
0.073412068 0.79000002 0.0027702667 1.6406744e-38 373 238
0.074797198 0.79000002 0.0027702667 1.6407107e-38 374 238
0.076182336 0.79000002 0.0027702667 1.65915e-38 375 238
0.077567466 0.79000002 0.0027702667 1.6684051e-38 376 238
0.078952603 0.79000002 0.0027702667 1.6684051e-38 377 238
0.080337733 0.79000002 0.0027702667 1.6775517e-38 378 238
0.081722863 0.79000002 0.0027702667 1.649929e-38 379 238
0.083108 0.79000002 0.0027702667 1.6681508e-38 380 238
0.084493138 0.79000002 0.0027702667 1.6312726e-38 381 238
0.08587826 0.79000002 0.0027702667 1.6219437e-38 382 238
0.087263398 0.79000002 0.0027702667 1.575846e-38 383 238
0.088648535 0.79000002 0.0027702667 1.5298191e-38 384 238
0.090033665 0.79000002 0.0027702667 1.4929048e-38 385 238
0.091418803 0.79000002 0.0027702667 1.4285476e-38 386 238
0.092803933 0.79000002 0.0027702667 1.4008887e-38 387 238
0.094427519 0.792 0.0027772798 1.3363191e-38 388 238
0.095816158 0.792 0.0027772798 1.2533431e-38 389 238
0.059280202 0.80500001 0.0014114333 1.3548712e-38 362 239
0.060691636 0.80500001 0.0014114333 1.3917495e-38 363 239
0.061948773 0.80299997 0.0014079266 1.3826728e-38 364 239
0.06312 0.80000001 0.0014026667 1.3826728e-38 365 239
0.064361356 0.79799998 0.0013991599 1.3827079e-38 366 239
0.065595701 0.796 0.0013956534 1.4288055e-38 367 239
0.066823035 0.79400003 0.0013921467 1.5390792e-38 368 239
0.068215191 0.79400003 0.0013921467 1.5759574e-38 369 239
0.069256663 0.79000002 0.0013851334 1.5852839e-38 370 239
0.070641801 0.79000002 0.0013851334 1.603723e-38 371 239
0.072026931 0.79000002 0.0013851334 1.6129429e-38 372 239
0.073412068 0.79000002 0.0013851334 1.6498211e-38 373 239
0.074797198 0.79000002 0.0013851334 1.6590054e-38 374 239
0.076182336 0.79000002 0.0013851334 1.6774445e-38 375 239
0.077469274 0.78899997 0.0013833799 1.6775171e-38 376 239
0.078852654 0.78899997 0.0013833799 1.6867367e-38 377 239
0.080236033 0.78899997 0.0013833799 1.6774815e-38 378 239
0.081619412 0.78899997 0.0013833799 1.6682618e-38 379 239
0.083002798 0.78899997 0.0013833799 1.6497142e-38 380 239
0.08438617 0.78899997 0.0013833799 1.6220195e-38 381 239
0.085769556 0.78899997 0.0013833799 1.5943591e-38 382 239
0.087152928 0.78899997 0.0013833799 1.557481e-38 383 239
0.088536315 0.78899997 0.0013833799 1.5023059e-38 384 239
0.089919694 0.78899997 0.0013833799 1.4562441e-38 385 239
0.091303073 0.78899997 0.0013833799 1.4194374e-38 386 239
0.092686452 0.78899997 0.0013833799 1.3825592e-38 387 239
0.094427519 0.792 0.0013886399 1.3272794e-38 388 239
0.095816158 0.792 0.0013886399 1.2535229e-38 389 239
0.059280202 0.80500001 -0 1.2815129e-38 362 240
0.060691636 0.80500001 -0 1.2999879e-38 363 240
0.061948773 0.80299997 -0 1.3826378e-38 364 240
0.063277796 0.80199999 -0 1.3918574e-38 365 240
0.064361356 0.79799998 -0 1.3918924e-38 366 240
0.065595701 0.796 -0 1.4287706e-38 367 240
0.066823035 0.79400003 -0 1.4473167e-38 368 240
0.068043359 0.792 -0 1.4750112e-38 369 240
0.069256663 0.79000002 -0 1.5485508e-38 370 240
0.070552371 0.78899997 -0 1.5762094e-38 371 240
0.071935758 0.78899997 -0 1.6129802e-38 372 240
0.07331913 0.78899997 -0 1.6221997e-38 373 240
0.074702516 0.78899997 -0 1.6589703e-38 374 240
0.076085895 0.78899997 -0 1.6681899e-38 375 240
0.077469274 0.78899997 -0 1.6682615e-38 376 240
0.078852654 0.78899997 -0 1.6682615e-38 377 240
0.080236033 0.78899997 -0 1.6957763e-38 378 240
0.081619412 0.78899997 -0 1.6588982e-38 379 240
0.083002798 0.78899997 -0 1.6680089e-38 380 240
0.08438617 0.78899997 -0 1.6403142e-38 381 240
0.085769556 0.78899997 -0 1.6035416e-38 382 240
0.087152928 0.78899997 -0 1.5574798e-38 383 240
0.088536315 0.78899997 -0 1.5482575e-38 384 240
0.089919694 0.78899997 -0 1.5113794e-38 385 240
0.091303073 0.78899997 -0 1.437838e-38 386 240
0.092686452 0.78899997 -0 1.4101433e-38 387 240
0.094189063 0.79000002 -0 1.3823071e-38 388 240
0.0955742 0.79000002 -0 1.3454647e-38 389 240
0.096959338 0.79000002 -0 1.2441291e-38 390 240
0.060540844 0.80299997 -0.0014079266 1.3365782e-38 363 241
0.061871622 0.80199999 -0.0014061732 1.400969e-38 364 241
0.062962197 0.79799998 -0.0013991599 1.4101886e-38 365 241
0.064200051 0.796 -0.0013956534 1.4194788e-38 366 241
0.065595701 0.796 -0.0013956534 1.437918e-38 367 241
0.066823035 0.79400003 -0.0013921467 1.4839789e-38 368 241
0.068043359 0.792 -0.0013886399 1.520857e-38 369 241
0.069256663 0.79000002 -0.0013851334 1.5668821e-38 370 241
0.070552371 0.78899997 -0.0013833799 1.5853571e-38 371 241
0.071935758 0.78899997 -0.0013833799 1.6129078e-38 372 241
0.07331913 0.78899997 -0.0013833799 1.6313471e-38 373 241
0.074702516 0.78899997 -0.0013833799 1.6589335e-38 374 241
0.076085895 0.78899997 -0.0013833799 1.6865562e-38 375 241
0.077469274 0.78899997 -0.0013833799 1.6774445e-38 376 241
0.078852654 0.78899997 -0.0013833799 1.6867001e-38 377 241
0.080236033 0.78899997 -0.0013833799 1.6774095e-38 378 241
0.081619412 0.78899997 -0.0013833799 1.6497508e-38 379 241
0.083002798 0.78899997 -0.0013833799 1.6403867e-38 380 241
0.084172271 0.787 -0.0013798733 1.6219476e-38 381 241
0.085552141 0.787 -0.0013798733 1.5759202e-38 382 241
0.086932018 0.787 -0.0013798733 1.557481e-38 383 241
0.088311888 0.787 -0.0013798733 1.5207454e-38 384 241
0.089919694 0.78899997 -0.0013833799 1.4746476e-38 385 241
0.091303073 0.78899997 -0.0013833799 1.4470961e-38 386 241
0.092686452 0.78899997 -0.0013833799 1.3825592e-38 387 241
0.094069831 0.78899997 -0.0013833799 1.364085e-38 388 241
0.0955742 0.79000002 -0.0013851334 1.2995482e-38 389 241
0.096959338 0.79000002 -0.0013851334 1.2626037e-38 390 241
0.09834446 0.79000002 -0.0013851334 1.3732383e-38 391 241
0.060540844 0.80299997 -0.0028158531 1.2630747e-38 363 242
0.061871622 0.80199999 -0.0028123464 1.4101889e-38 364 242
0.062962197 0.79799998 -0.0027983198 1.4101889e-38 365 242
0.064200051 0.796 -0.0027913067 1.401112e-38 366 242
0.065430894 0.79400003 -0.0027842934 1.4195151e-38 367 242
0.066654719 0.792 -0.0027772798 1.4380618e-38 368 242
0.068043359 0.792 -0.0027772798 1.4657564e-38 369 242
0.069256663 0.79000002 -0.0027702667 1.5485158e-38 370 242
0.070552371 0.78899997 -0.0027667598 1.5761385e-38 371 242
0.071935758 0.78899997 -0.0027667598 1.6129802e-38 372 242
0.07331913 0.78899997 -0.0027667598 1.6221997e-38 373 242
0.074702516 0.78899997 -0.0027667598 1.6590057e-38 374 242
0.07589303 0.787 -0.0027597465 1.6682252e-38 375 242
0.077272899 0.787 -0.0027597465 1.6682971e-38 376 242
0.078652777 0.787 -0.0027597465 1.6682971e-38 377 242
0.080032654 0.787 -0.0027597465 1.6682249e-38 378 242
0.081205636 0.78500003 -0.0027527334 1.6497858e-38 379 242
0.082582004 0.78500003 -0.0027527334 1.6405293e-38 380 242
0.083958365 0.78500003 -0.0027527334 1.603687e-38 381 242
0.085334733 0.78500003 -0.0027527334 1.5759911e-38 382 242
0.086711101 0.78500003 -0.0027527334 1.5575161e-38 383 242
0.088087469 0.78500003 -0.0027527334 1.5298923e-38 384 242
0.089691758 0.787 -0.0027597465 1.5022696e-38 385 242
0.091071643 0.787 -0.0027597465 1.4746103e-38 386 242
0.092451513 0.787 -0.0027597465 1.4285125e-38 387 242
0.094069831 0.78899997 -0.0027667598 1.3732676e-38 388 242
0.09545321 0.78899997 -0.0027667598 1.3363895e-38 389 242
0.096836597 0.78899997 -0.0027667598 1.2993728e-38 390 242
0.098219968 0.78899997 -0.0027667598 1.3454705e-38 391 242
0.061871622 0.80199999 -0.0042185197 1.4009337e-38 364 243
0.062804401 0.796 -0.0041869599 1.4101533e-38 365 243
0.064200051 0.796 -0.0041869599 1.4194788e-38 366 243
0.065430894 0.79400003 -0.0041764397 1.4286983e-38 367 243
0.066654719 0.792 -0.00416592 1.4563567e-38 368 243
0.067871533 0.79000002 -0.0041554002 1.4840154e-38 369 243
0.069168992 0.78899997 -0.0041501396 1.5392606e-38 370 243
0.070552371 0.78899997 -0.0041501396 1.5761388e-38 371 243
0.071753412 0.787 -0.0041396199 1.6129446e-38 372 243
0.073133282 0.787 -0.0041396199 1.6221641e-38 373 243
0.07451316 0.787 -0.0041396199 1.6497505e-38 374 243
0.07589303 0.787 -0.0041396199 1.6682255e-38 375 243
0.077272899 0.787 -0.0041396199 1.6498584e-38 376 243
0.0784529 0.78500003 -0.0041291001 1.6682615e-38 377 243
0.079829268 0.78500003 -0.0041291001 1.649894e-38 378 243
0.081205636 0.78500003 -0.0041291001 1.649894e-38 379 243
0.082582004 0.78500003 -0.0041291001 1.649749e-38 380 243
0.083958365 0.78500003 -0.0041291001 1.6220901e-38 381 243
0.085334733 0.78500003 -0.0041291001 1.5943942e-38 382 243
0.086711101 0.78500003 -0.0041291001 1.5667356e-38 383 243
0.088087469 0.78500003 -0.0041291001 1.5574795e-38 384 243
0.08946383 0.78500003 -0.0041291001 1.5298207e-38 385 243
0.090840198 0.78500003 -0.0041291001 1.4654634e-38 386 243
0.092216566 0.78500003 -0.0041291001 1.4285491e-38 387 243
0.093831383 0.787 -0.0041396199 1.3824521e-38 388 243
0.09521126 0.787 -0.0041396199 1.345574e-38 389 243
0.09659113 0.787 -0.0041396199 1.2994078e-38 390 243
0.097971 0.787 -0.0041396199 1.2809685e-38 391 243
0.061408747 0.796 -0.0055826134 1.3457965e-38 364 244
0.062804401 0.796 -0.0055826134 1.3734192e-38 365 244
0.064038746 0.79400003 -0.0055685868 1.4102592e-38 366 244
0.065266073 0.792 -0.0055545596 1.4194788e-38 367 244
0.066486403 0.79000002 -0.0055405335 1.4562849e-38 368 244
0.067871533 0.79000002 -0.0055405335 1.4839435e-38 369 244
0.069168992 0.78899997 -0.0055335197 1.5484079e-38 370 244
0.070552371 0.78899997 -0.0055335197 1.5760666e-38 371 244
0.071753412 0.787 -0.005519493 1.6129081e-38 372 244
0.072947428 0.78500003 -0.0055054668 1.6313474e-38 373 244
0.074323803 0.78500003 -0.0055054668 1.6313474e-38 374 244
0.075700171 0.78500003 -0.0055054668 1.6589701e-38 375 244
0.077076539 0.78500003 -0.0055054668 1.640711e-38 376 244
0.0784529 0.78500003 -0.0055054668 1.6499306e-38 377 244
0.079625882 0.78299999 -0.0054914397 1.6499306e-38 378 244
0.080998734 0.78299999 -0.0054914397 1.640711e-38 379 244
0.0823716 0.78299999 -0.0054914397 1.6589335e-38 380 244
0.083744459 0.78299999 -0.0054914397 1.6404944e-38 381 244
0.08511731 0.78299999 -0.0054914397 1.6036867e-38 382 244
0.086490177 0.78299999 -0.0054914397 1.575992e-38 383 244
0.087863036 0.78299999 -0.0054914397 1.5391848e-38 384 244
0.089235894 0.78299999 -0.0054914397 1.511526e-38 385 244
0.090840198 0.78500003 -0.0055054668 1.4655355e-38 386 244
0.092216566 0.78500003 -0.0055054668 1.4194377e-38 387 244
0.093831383 0.787 -0.005519493 1.3825241e-38 388 244
0.09521126 0.787 -0.005519493 1.3456459e-38 389 244
0.09659113 0.787 -0.005519493 1.3179166e-38 390 244
0.097971 0.787 -0.005519493 1.2533796e-38 391 244
0.062804401 0.796 -0.0069782664 1.2999511e-38 365 245
0.064038746 0.79400003 -0.0069607338 1.3734896e-38 366 245
0.065266073 0.792 -0.0069431998 1.3919646e-38 367 245
0.066486403 0.79000002 -0.0069256667 1.437918e-38 368 245
0.067871533 0.79000002 -0.0069256667 1.4747961e-38 369 245
0.069168992 0.78899997 -0.0069168997 1.5300767e-38 370 245
0.070552371 0.78899997 -0.0069168997 1.5669189e-38 371 245
0.071753412 0.787 -0.0068993662 1.6129081e-38 372 245
0.072947428 0.78500003 -0.0068818335 1.6313474e-38 373 245
0.074323803 0.78500003 -0.0068818335 1.631384e-38 374 245
0.075700171 0.78500003 -0.0068818335 1.6406035e-38 375 245
0.077076539 0.78500003 -0.0068818335 1.649859e-38 376 245
0.0784529 0.78500003 -0.0068818335 1.6774818e-38 377 245
0.079625882 0.78299999 -0.0068642995 1.6591503e-38 378 245
0.080998734 0.78299999 -0.0068642995 1.6499306e-38 379 245
0.0823716 0.78299999 -0.0068642995 1.6865562e-38 380 245
0.083744459 0.78299999 -0.0068642995 1.6589335e-38 381 245
0.08511731 0.78299999 -0.0068642995 1.6588236e-38 382 245
0.086490177 0.78299999 -0.0068642995 1.6127618e-38 383 245
0.087863036 0.78299999 -0.0068642995 1.5668065e-38 384 245
0.089235894 0.78299999 -0.0068642995 1.539112e-38 385 245
0.090608761 0.78299999 -0.0068642995 1.4747182e-38 386 245
0.092216566 0.78500003 -0.0068818335 1.437804e-38 387 245
0.093592934 0.78500003 -0.0068818335 1.4100734e-38 388 245
0.094969295 0.78500003 -0.0068818335 1.3731951e-38 389 245
0.096345663 0.78500003 -0.0068818335 1.3270993e-38 390 245
0.097722031 0.78500003 -0.0068818335 1.2625623e-38 391 245
0.099098399 0.78500003 -0.0068818335 1.1432196e-38 392 245
0.062804401 0.796 -0.0083739199 1.3550532e-38 365 246
0.064038746 0.79400003 -0.0083528794 1.3551583e-38 366 246
0.065266073 0.792 -0.0083318399 1.3643779e-38 367 246
0.066486403 0.79000002 -0.0083108004 1.4562849e-38 368 246
0.067785613 0.78899997 -0.0083002793 1.4655044e-38 369 246
0.069168992 0.78899997 -0.0083002793 1.5391882e-38 370 246
0.070373543 0.787 -0.0082792398 1.5760666e-38 371 246
0.071753412 0.787 -0.0082792398 1.6311672e-38 372 246
0.072947428 0.78500003 -0.0082582003 1.6680454e-38 373 246
0.074323803 0.78500003 -0.0082582003 1.6313471e-38 374 246
0.075700171 0.78500003 -0.0082582003 1.6590057e-38 375 246
0.076880157 0.78299999 -0.0082371598 1.6682252e-38 376 246
0.078253016 0.78299999 -0.0082371598 1.6774448e-38 377 246
0.079625882 0.78299999 -0.0082371598 1.6591503e-38 378 246
0.080998734 0.78299999 -0.0082371598 1.6591503e-38 379 246
0.0823716 0.78299999 -0.0082371598 1.6682621e-38 380 246
0.083744459 0.78299999 -0.0082371598 1.649859e-38 381 246
0.08511731 0.78299999 -0.0082371598 1.6313474e-38 382 246
0.086490177 0.78299999 -0.0082371598 1.5944331e-38 383 246
0.087863036 0.78299999 -0.0082371598 1.539258e-38 384 246
0.089235894 0.78299999 -0.0082371598 1.4931962e-38 385 246
0.090608761 0.78299999 -0.0082371598 1.4840112e-38 386 246
0.091981612 0.78299999 -0.0082371598 1.428694e-38 387 246
0.093354478 0.78299999 -0.0082371598 1.3918513e-38 388 246
0.094727337 0.78299999 -0.0082371598 1.3457175e-38 389 246
0.096100196 0.78299999 -0.0082371598 1.3271715e-38 390 246
0.097473055 0.78299999 -0.0082371598 1.2626345e-38 391 246
0.098845914 0.78299999 -0.0082371598 1.1706623e-38 392 246
0.062804401 0.796 -0.0097695729 1.2814412e-38 365 247
0.064038746 0.79400003 -0.0097450269 1.3458321e-38 366 247
0.065266073 0.792 -0.0097204801 1.3826744e-38 367 247
0.066486403 0.79000002 -0.0096959332 1.4010772e-38 368 247
0.067785613 0.78899997 -0.0096836593 1.4379196e-38 369 247
0.069168992 0.78899997 -0.0096836593 1.5024553e-38 370 247
0.070373543 0.787 -0.0096591124 1.5485171e-38 371 247
0.071571067 0.78500003 -0.0096345674 1.6037251e-38 372 247
0.07276158 0.78299999 -0.0096100196 1.6129448e-38 373 247
0.074134432 0.78299999 -0.0096100196 1.6313842e-38 374 247
0.075507298 0.78299999 -0.0096100196 1.6406038e-38 375 247
0.076880157 0.78299999 -0.0096100196 1.6681899e-38 376 247
0.078253016 0.78299999 -0.0096100196 1.6774095e-38 377 247
0.079625882 0.78299999 -0.0096100196 1.6775171e-38 378 247
0.080791846 0.78100002 -0.0095854728 1.6775171e-38 379 247
0.082161196 0.78100002 -0.0095854728 1.6774448e-38 380 247
0.083530553 0.78100002 -0.0095854728 1.6682252e-38 381 247
0.084899902 0.78100002 -0.0095854728 1.6681158e-38 382 247
0.086269259 0.78100002 -0.0095854728 1.622018e-38 383 247
0.087638609 0.78100002 -0.0095854728 1.5760258e-38 384 247
0.089007966 0.78100002 -0.0095854728 1.5483671e-38 385 247
0.090608761 0.78299999 -0.0096100196 1.5023762e-38 386 247
0.091981612 0.78299999 -0.0096100196 1.4470588e-38 387 247
0.093354478 0.78299999 -0.0096100196 1.4285481e-38 388 247
0.094727337 0.78299999 -0.0096100196 1.3732307e-38 389 247
0.096100196 0.78299999 -0.0096100196 1.3546138e-38 390 247
0.097473055 0.78299999 -0.0096100196 1.30848e-38 391 247
0.098845914 0.78299999 -0.0096100196 1.1890285e-38 392 247
0.064200051 0.796 -0.011165227 1.2816185e-38 366 248
0.065430894 0.79400003 -0.011137174 1.3000577e-38 367 248
0.066486403 0.79000002 -0.011081067 1.4102236e-38 368 248
0.067871533 0.79000002 -0.011081067 1.4379183e-38 369 248
0.069168992 0.78899997 -0.011067039 1.4932353e-38 370 248
0.070194699 0.78500003 -0.011010934 1.5301135e-38 371 248
0.071571067 0.78500003 -0.011010934 1.5760669e-38 372 248
0.07276158 0.78299999 -0.010982879 1.6129092e-38 373 248
0.074134432 0.78299999 -0.010982879 1.6313477e-38 374 248
0.075507298 0.78299999 -0.010982879 1.6589703e-38 375 248
0.076880157 0.78299999 -0.010982879 1.659041e-38 376 248
0.078253016 0.78299999 -0.010982879 1.6682605e-38 377 248
0.079422489 0.78100002 -0.010954826 1.6683321e-38 378 248
0.080791846 0.78100002 -0.010954826 1.6775517e-38 379 248
0.082161196 0.78100002 -0.010954826 1.6775168e-38 380 248
0.083530553 0.78100002 -0.010954826 1.6682971e-38 381 248
0.084899902 0.78100002 -0.010954826 1.6406744e-38 382 248
0.086269259 0.78100002 -0.010954826 1.6037602e-38 383 248
0.087638609 0.78100002 -0.010954826 1.5577684e-38 384 248
0.089007966 0.78100002 -0.010954826 1.5024511e-38 385 248
0.090377316 0.78100002 -0.010954826 1.4840465e-38 386 248
0.091981612 0.78299999 -0.010982879 1.4287293e-38 387 248
0.093354478 0.78299999 -0.010982879 1.4101828e-38 388 248
0.094727337 0.78299999 -0.010982879 1.364085e-38 389 248
0.096100196 0.78299999 -0.010982879 1.3362838e-38 390 248
0.097473055 0.78299999 -0.010982879 1.2901859e-38 391 248
0.098845914 0.78299999 -0.010982879 1.2074681e-38 392 248
0.064200051 0.796 -0.01256088 1.2631803e-38 366 249
0.065430894 0.79400003 -0.01252932 1.3092423e-38 367 249
0.066654719 0.792 -0.012497759 1.3918571e-38 368 249
0.067785613 0.78899997 -0.012450419 1.4287353e-38 369 249
0.068993665 0.787 -0.01241886 1.4655413e-38 370 249
0.070194699 0.78500003 -0.0123873 1.4932e-38 371 249
0.071571067 0.78500003 -0.0123873 1.5392612e-38 372 249
0.07276158 0.78299999 -0.012355739 1.585323e-38 373 249
0.074134432 0.78299999 -0.012355739 1.6221644e-38 374 249
0.075507298 0.78299999 -0.012355739 1.631384e-38 375 249
0.076880157 0.78299999 -0.012355739 1.6682605e-38 376 249
0.078053139 0.78100002 -0.01232418 1.6774801e-38 377 249
0.079422489 0.78100002 -0.01232418 1.6683324e-38 378 249
0.080791846 0.78100002 -0.01232418 1.6867717e-38 379 249
0.082161196 0.78100002 -0.01232418 1.6867364e-38 380 249
0.083530553 0.78100002 -0.01232418 1.6682971e-38 381 249
0.084791191 0.77999997 -0.012308398 1.6590054e-38 382 249
0.086158797 0.77999997 -0.012308398 1.6129076e-38 383 249
0.087638609 0.78100002 -0.01232418 1.5852473e-38 384 249
0.089007966 0.78100002 -0.01232418 1.5391495e-38 385 249
0.090377316 0.78100002 -0.01232418 1.4931942e-38 386 249
0.091746673 0.78100002 -0.01232418 1.4470605e-38 387 249
0.09311603 0.78100002 -0.01232418 1.4285497e-38 388 249
0.09448538 0.78100002 -0.01232418 1.3824518e-38 389 249
0.095854737 0.78100002 -0.01232418 1.3362838e-38 390 249
0.097473055 0.78299999 -0.012355739 1.2994054e-38 391 249
0.098845914 0.78299999 -0.012355739 1.2165793e-38 392 249
0.064200051 0.796 -0.013956533 1.2814762e-38 366 250
0.065266073 0.792 -0.0138864 1.3275741e-38 367 250
0.066486403 0.79000002 -0.013851333 1.4011122e-38 368 250
0.067613788 0.787 -0.013798732 1.4195153e-38 369 250
0.068818331 0.78500003 -0.013763667 1.4654694e-38 370 250
0.070194699 0.78500003 -0.013763667 1.4839085e-38 371 250
0.071388714 0.78299999 -0.013728599 1.530006e-38 372 250
0.07276158 0.78299999 -0.013728599 1.5668842e-38 373 250
0.074134432 0.78299999 -0.013728599 1.6129448e-38 374 250
0.075314432 0.78100002 -0.013693534 1.631384e-38 375 250
0.076683782 0.78100002 -0.013693534 1.6590054e-38 376 250
0.078053139 0.78100002 -0.013693534 1.6774445e-38 377 250
0.079320796 0.77999997 -0.013675999 1.6592209e-38 378 250
0.080688395 0.77999997 -0.013675999 1.6684405e-38 379 250
0.082055993 0.77999997 -0.013675999 1.6867367e-38 380 250
0.083423592 0.77999997 -0.013675999 1.6775171e-38 381 250
0.084791191 0.77999997 -0.013675999 1.6589703e-38 382 250
0.086158797 0.77999997 -0.013675999 1.6220922e-38 383 250
0.087526396 0.77999997 -0.013675999 1.5944321e-38 384 250
0.088893995 0.77999997 -0.013675999 1.5667374e-38 385 250
0.090261593 0.77999997 -0.013675999 1.5207101e-38 386 250
0.091746673 0.78100002 -0.013693534 1.4654286e-38 387 250
0.092996791 0.77999997 -0.013675999 1.4285141e-38 388 250
0.094364397 0.77999997 -0.013675999 1.3824521e-38 389 250
0.095854737 0.78100002 -0.013693534 1.3455039e-38 390 250
0.097473055 0.78299999 -0.013728599 1.3178094e-38 391 250
0.098845914 0.78299999 -0.013728599 1.216544e-38 392 250
0.065266073 0.792 -0.01527504 1.3457981e-38 367 251
0.066486403 0.79000002 -0.015236467 1.3919292e-38 368 251
0.067613788 0.787 -0.015178605 1.4011488e-38 369 251
0.068818331 0.78500003 -0.015140033 1.4562498e-38 370 251
0.070194699 0.78500003 -0.015140033 1.4746889e-38 371 251
0.071388714 0.78299999 -0.01510146 1.5207862e-38 372 251
0.07276158 0.78299999 -0.01510146 1.5668839e-38 373 251
0.073945075 0.78100002 -0.015062887 1.6037249e-38 374 251
0.075314432 0.78100002 -0.015062887 1.6314196e-38 375 251
0.076683782 0.78100002 -0.015062887 1.659041e-38 376 251
0.078053139 0.78100002 -0.015062887 1.6682605e-38 377 251
0.079320796 0.77999997 -0.0150436 1.6682968e-38 378 251
0.080688395 0.77999997 -0.0150436 1.6775165e-38 379 251
0.082055993 0.77999997 -0.0150436 1.6774818e-38 380 251
0.083209693 0.778 -0.015005025 1.6774818e-38 381 251
0.084573783 0.778 -0.015005025 1.6589353e-38 382 251
0.08593788 0.778 -0.015005025 1.6220572e-38 383 251
0.08730197 0.778 -0.015005025 1.5944331e-38 384 251
0.088666067 0.778 -0.015005025 1.5391516e-38 385 251
0.090030156 0.778 -0.015005025 1.4931962e-38 386 251
0.091629192 0.77999997 -0.0150436 1.4378788e-38 387 251
0.092996791 0.77999997 -0.0150436 1.4377342e-38 388 251
0.094364397 0.77999997 -0.0150436 1.3916365e-38 389 251
0.096100196 0.78299999 -0.01510146 1.3363207e-38 390 251
0.097473055 0.78299999 -0.01510146 1.2994784e-38 391 251
0.098845914 0.78299999 -0.01510146 1.2900125e-38 392 251
0.10021878 0.78299999 -0.01510146 1.2992321e-38 393 251
0.066654719 0.792 -0.01666368 1.437883e-38 368 252
0.067871533 0.79000002 -0.016621601 1.4286633e-38 369 252
0.069168992 0.78899997 -0.016600559 1.4287353e-38 370 252
0.070015855 0.78299999 -0.01647432 1.4379549e-38 371 252
0.071388714 0.78299999 -0.01647432 1.5024202e-38 372 252
0.072575726 0.78100002 -0.016432239 1.5392625e-38 373 252
0.073945075 0.78100002 -0.016432239 1.5945786e-38 374 252
0.075314432 0.78100002 -0.016432239 1.6130177e-38 375 252
0.076585598 0.77999997 -0.016411198 1.6314912e-38 376 252
0.077953197 0.77999997 -0.016411198 1.6499303e-38 377 252
0.07911741 0.778 -0.016369121 1.6775171e-38 378 252
0.080481507 0.778 -0.016369121 1.6867367e-38 379 252
0.081845596 0.778 -0.016369121 1.7049607e-38 380 252
0.082995787 0.77600002 -0.01632704 1.7049607e-38 381 252
0.084356368 0.77600002 -0.01632704 1.6865217e-38 382 252
0.085716955 0.77600002 -0.01632704 1.6312043e-38 383 252
0.087077543 0.77600002 -0.01632704 1.575994e-38 384 252
0.088438138 0.77600002 -0.01632704 1.5483712e-38 385 252
0.089798726 0.77600002 -0.01632704 1.5207107e-38 386 252
0.091394253 0.778 -0.016369121 1.4653933e-38 387 252
0.092758343 0.778 -0.016369121 1.4284422e-38 388 252
0.09448538 0.78100002 -0.016432239 1.4007833e-38 389 252
0.095854737 0.78100002 -0.016432239 1.3455037e-38 390 252
0.097473055 0.78299999 -0.01647432 1.3270645e-38 391 252
0.098593444 0.78100002 -0.016432239 1.299339e-38 392 252
0.099962793 0.78100002 -0.016432239 1.2440216e-38 393 252
0.066486403 0.79000002 -0.018006733 1.4011125e-38 368 253
0.067613788 0.787 -0.017938353 1.4011125e-38 369 253
0.068818331 0.78500003 -0.017892767 1.4470298e-38 370 253
0.070015855 0.78299999 -0.017847179 1.4746887e-38 371 253
0.071388714 0.78299999 -0.017847179 1.5298614e-38 372 253
0.072575726 0.78100002 -0.017801592 1.5943984e-38 373 253
0.073945075 0.78100002 -0.017801592 1.6129081e-38 374 253
0.075217992 0.77999997 -0.017778799 1.6497505e-38 375 253
0.076585598 0.77999997 -0.017778799 1.6406744e-38 376 253
0.07775332 0.778 -0.017733213 1.649894e-38 377 253
0.07911741 0.778 -0.017733213 1.6774451e-38 378 253
0.080274612 0.77600002 -0.017687626 1.6866648e-38 379 253
0.081635199 0.77600002 -0.017687626 1.6867016e-38 380 253
0.082995787 0.77600002 -0.017687626 1.6867016e-38 381 253
0.084356368 0.77600002 -0.017687626 1.6956694e-38 382 253
0.085496038 0.77399999 -0.01764204 1.6679748e-38 383 253
0.086853117 0.77399999 -0.01764204 1.5669542e-38 384 253
0.088438138 0.77600002 -0.017687626 1.5116368e-38 385 253
0.089798726 0.77600002 -0.017687626 1.4931611e-38 386 253
0.091394253 0.778 -0.017733213 1.4286242e-38 387 253
0.092758343 0.778 -0.017733213 1.4193676e-38 388 253
0.09448538 0.78100002 -0.017801592 1.3824535e-38 389 253
0.095854737 0.78100002 -0.017801592 1.3455393e-38 390 253
0.097224087 0.78100002 -0.017801592 1.3178447e-38 391 253
0.098593444 0.78100002 -0.017801592 1.3085195e-38 392 253
0.099962793 0.78100002 -0.017801592 1.2532021e-38 393 253
0.10133215 0.78100002 -0.017801592 1.2724031e-38 394 253
0.066486403 0.79000002 -0.019391866 1.382745e-38 368 254
0.067613788 0.787 -0.019318225 1.3919646e-38 369 254
0.068818331 0.78500003 -0.019269135 1.428663e-38 370 254
0.070015855 0.78299999 -0.019220039 1.4655413e-38 371 254
0.071388714 0.78299999 -0.019220039 1.5024197e-38 372 254
0.072575726 0.78100002 -0.019170946 1.5392978e-38 373 254
0.073850393 0.77999997 -0.0191464 1.594578e-38 374 254
0.075217992 0.77999997 -0.0191464 1.613053e-38 375 254
0.076389223 0.778 -0.019097306 1.6314914e-38 376 254
0.07775332 0.778 -0.019097306 1.6499306e-38 377 254
0.07911741 0.778 -0.019097306 1.6774815e-38 378 254
0.080274612 0.77600002 -0.019048214 1.6867011e-38 379 254
0.081635199 0.77600002 -0.019048214 1.6684054e-38 380 254
0.082781881 0.77399999 -0.018999118 1.6684054e-38 381 254
0.084138952 0.77399999 -0.018999118 1.6865564e-38 382 254
0.085496038 0.77399999 -0.018999118 1.6497142e-38 383 254
0.086853117 0.77399999 -0.018999118 1.585177e-38 384 254
0.088210195 0.77399999 -0.018999118 1.5575182e-38 385 254
0.089567274 0.77399999 -0.018999118 1.5021283e-38 386 254
0.091394253 0.778 -0.019097306 1.4744696e-38 387 254
0.092996791 0.77999997 -0.0191464 1.4284427e-38 388 254
0.094364397 0.77999997 -0.0191464 1.4007482e-38 389 254
0.095854737 0.78100002 -0.019170946 1.3729466e-38 390 254
0.097224087 0.78100002 -0.019170946 1.3453239e-38 391 254
0.098593444 0.78100002 -0.019170946 1.3084494e-38 392 254
0.099962793 0.78100002 -0.019170946 1.2254732e-38 393 254
0.066402234 0.78899997 -0.0207507 1.3551955e-38 368 255
0.067613788 0.787 -0.0206981 1.364415e-38 369 255
0.068818331 0.78500003 -0.020645501 1.4469942e-38 370 255
0.070015855 0.78299999 -0.0205929 1.4746889e-38 371 255
0.071388714 0.78299999 -0.0205929 1.5390813e-38 372 255
0.072575726 0.78100002 -0.020540299 1.5851432e-38 373 255
0.073850393 0.77999997 -0.020513998 1.6129081e-38 374 255
0.075025134 0.778 -0.020461399 1.6313474e-38 375 255
0.076389223 0.778 -0.020461399 1.6406742e-38 376 255
0.07775332 0.778 -0.020461399 1.6682968e-38 377 255
0.078914031 0.77600002 -0.0204088 1.6775168e-38 378 255
0.080274612 0.77600002 -0.0204088 1.6775168e-38 379 255
0.081424795 0.77399999 -0.020356199 1.6867367e-38 380 255
0.082781881 0.77399999 -0.020356199 1.6775171e-38 381 255
0.084138952 0.77399999 -0.020356199 1.6589701e-38 382 255
0.085496038 0.77399999 -0.020356199 1.6221278e-38 383 255
0.086853117 0.77399999 -0.020356199 1.5852489e-38 384 255
0.088210195 0.77399999 -0.020356199 1.5391511e-38 385 255
0.089567274 0.77399999 -0.020356199 1.4652874e-38 386 255
0.091159306 0.77600002 -0.0204088 1.4468482e-38 387 255
0.092758343 0.778 -0.020461399 1.4284087e-38 388 255
0.094364397 0.77999997 -0.020513998 1.3915664e-38 389 255
0.095854737 0.78100002 -0.020540299 1.3638355e-38 390 255
0.097224087 0.78100002 -0.020540299 1.3177376e-38 391 255
0.098593444 0.78100002 -0.020540299 1.2900799e-38 392 255
0.099962793 0.78100002 -0.020540299 1.1887007e-38 393 255
0.066402234 0.78899997 -0.022134079 1.3368289e-38 368 256
0.067613788 0.787 -0.022077972 1.3460485e-38 369 256
0.068818331 0.78500003 -0.022021867 1.4286277e-38 370 256
0.070015855 0.78299999 -0.021965759 1.465506e-38 371 256
0.071206369 0.78100002 -0.021909652 1.5115312e-38 372 256
0.072482795 0.77999997 -0.021881599 1.5484455e-38 373 256
0.073850393 0.77999997 -0.021881599 1.6036532e-38 374 256
0.075025134 0.778 -0.021825492 1.6313121e-38 375 256
0.076192856 0.77600002 -0.021769386 1.6406388e-38 376 256
0.077553444 0.77600002 -0.021769386 1.6498584e-38 377 256
0.078914031 0.77600002 -0.021769386 1.6499306e-38 378 256
0.080067717 0.77399999 -0.021713279 1.6591503e-38 379 256
0.081424795 0.77399999 -0.021713279 1.6867013e-38 380 256
0.082674921 0.773 -0.021685226 1.6774818e-38 381 256
0.084030248 0.773 -0.021685226 1.6865567e-38 382 256
0.085385576 0.773 -0.021685226 1.6404591e-38 383 256
0.086740904 0.773 -0.021685226 1.5943966e-38 384 256
0.088096231 0.773 -0.021685226 1.5390792e-38 385 256
0.089567274 0.77399999 -0.021713279 1.4653948e-38 386 256
0.091159306 0.77600002 -0.021769386 1.419297e-38 387 256
0.092519894 0.77600002 -0.021769386 1.4100053e-38 388 256
0.094364397 0.77999997 -0.021881599 1.3823466e-38 389 256
0.095731996 0.77999997 -0.021881599 1.3546156e-38 390 256
0.097099595 0.77999997 -0.021881599 1.3177374e-38 391 256
0.098593444 0.78100002 -0.021909652 1.2900799e-38 392 256
0.099834792 0.77999997 -0.021881599 1.1702256e-38 393 256
0.10120239 0.77999997 -0.021881599 1.1616236e-38 394 256
0.066402234 0.78899997 -0.023517458 1.3643794e-38 368 257
0.067613788 0.787 -0.023457846 1.3736349e-38 369 257
0.068467662 0.78100002 -0.023279008 1.4286997e-38 370 257
0.069837019 0.78100002 -0.023279008 1.4471747e-38 371 257
0.071206369 0.78100002 -0.023279008 1.5207868e-38 372 257
0.072482795 0.77999997 -0.023249198 1.5668486e-38 373 257
