# .PCD v.7 - Point Cloud Data file format
FIELDS x y z rgb imX imY
SIZE 4 4 4 4 4 4
TYPE F F F F F F
COUNT 1 1 1 1 1 1
WIDTH 854
HEIGHT 1
VIEWPOINT 0 0 0 1 0 0 0
POINTS 854
DATA ascii
0.081372194 0.66299999 -0.10229647 1.1795553e-38 390 328
0.08265914 0.66399997 -0.10245077 1.1795553e-38 391 328
0.084202074 0.667 -0.10291365 1.1703723e-38 392 328
0.085499547 0.66799998 -0.10306793 1.1703723e-38 393 328
0.086930268 0.67000002 -0.10337654 1.1795566e-38 394 328
0.088236496 0.671 -0.10353082 1.170337e-38 395 328
0.089812748 0.67400002 -0.10399371 1.1243847e-38 396 328
0.091129504 0.67500001 -0.104148 1.0966901e-38 397 328
-0.038766202 0.67000002 -0.10455126 9.1316231e-39 287 329
-0.037591465 0.67000002 -0.10455126 1.0690705e-38 288 329
-0.036416732 0.67000002 -0.10455126 1.0321922e-38 289 329
-0.035241999 0.67000002 -0.10455126 1.0137519e-38 290 329
-0.034067266 0.67000002 -0.10455126 9.8605716e-39 291 329
-0.032892533 0.67000002 -0.10455126 1.0135704e-38 292 329
-0.0317178 0.67000002 -0.10455126 1.004315e-38 293 329
-0.030588651 0.671 -0.10470732 9.5825273e-39 294 329
-0.029368332 0.67000002 -0.10455126 1.0596679e-38 295 329
-0.028193599 0.67000002 -0.10455126 1.1246362e-38 296 329
-0.026938211 0.66799998 -0.10423917 1.2076481e-38 297 329
-0.025766984 0.66799998 -0.10423917 1.2813318e-38 298 329
-0.02459576 0.66799998 -0.10423917 1.3366491e-38 299 329
-0.023354398 0.66600001 -0.10392708 1.3735993e-38 300 329
-0.02218668 0.66600001 -0.10392708 1.4105135e-38 301 329
-0.02101896 0.66600001 -0.10392708 1.4473195e-38 302 329
-0.019851239 0.66600001 -0.10392708 1.4749423e-38 303 329
-0.018683519 0.66600001 -0.10392708 1.4657931e-38 304 329
-0.017515799 0.66600001 -0.10392708 1.4473898e-38 305 329
-0.016348081 0.66600001 -0.10392708 1.438205e-38 306 329
-0.015111978 0.66299999 -0.10345893 1.4474246e-38 307 329
-0.01392848 0.662 -0.10330289 1.4933422e-38 308 329
-0.012767773 0.662 -0.10330289 1.5118173e-38 309 329
-0.011589534 0.66100001 -0.10314685 1.585323e-38 310 329
-0.01043058 0.66100001 -0.10314685 1.6130177e-38 311 329
-0.0092716264 0.66100001 -0.10314685 1.6498955e-38 312 329
-0.0081126727 0.66100001 -0.10314685 1.6775544e-38 313 329
-0.00695372 0.66100001 -0.10314685 1.7143969e-38 314 329
-0.0057947668 0.66100001 -0.10314685 1.732872e-38 315 329
-0.0046358132 0.66100001 -0.10314685 1.7419484e-38 316 329
-0.0034663398 0.65899998 -0.10283475 1.7419484e-38 317 329
-0.0023073866 0.65799999 -0.1026787 1.6957413e-38 318 329
-0.00115194 0.65700001 -0.10252266 1.640424e-38 319 329
0 0.65499997 -0.10221056 1.5290327e-38 320 329
0.0011484332 0.65499997 -0.10221056 1.4184338e-38 321 329
0.0022968664 0.65499997 -0.10221056 1.3723713e-38 322 329
0.0034452998 0.65499997 -0.10221056 1.3631518e-38 323 329
0.0045937328 0.65499997 -0.10221056 1.3171979e-38 324 329
0.0057421662 0.65499997 -0.10221056 1.3171979e-38 325 329
0.0068800794 0.65399998 -0.10205451 1.2896115e-38 326 329
0.0080267601 0.65399998 -0.10205451 1.3080865e-38 327 329
0.0091734398 0.65399998 -0.10205451 1.3172707e-38 328 329
0.01032012 0.65399998 -0.10205451 1.3541131e-38 329 329
0.011431733 0.65200001 -0.10174242 1.3727327e-38 330 329
0.012574906 0.65200001 -0.10174242 1.4188304e-38 331 329
0.013781199 0.65499997 -0.10221056 1.4556365e-38 332 329
0.014929632 0.65499997 -0.10221056 1.464856e-38 333 329
0.01612716 0.65700001 -0.10252266 1.4834038e-38 334 329
0.0172791 0.65700001 -0.10252266 1.5295375e-38 335 329
0.01843104 0.65700001 -0.10252266 1.5574125e-38 336 329
0.019523365 0.65499997 -0.10221056 1.6035463e-38 337 329
0.020671798 0.65499997 -0.10221056 1.6496083e-38 338 329
0.021786919 0.65399998 -0.10205451 1.7233648e-38 339 329
0.022933599 0.65399998 -0.10205451 1.8062685e-38 340 329
0.024043459 0.653 -0.10189847 1.8154881e-38 341 329
0.025149813 0.65200001 -0.10174242 1.8247427e-38 342 329
0.026292987 0.65200001 -0.10174242 1.8339981e-38 343 329
0.027478239 0.653 -0.10189847 1.8615491e-38 344 329
0.028491667 0.64999998 -0.10143033 1.8707686e-38 345 329
0.029631332 0.64999998 -0.10143033 1.8615491e-38 346 329
0.030770998 0.64999998 -0.10143033 1.8523294e-38 347 329
0.031910665 0.64999998 -0.10143033 1.8339979e-38 348 329
0.032999486 0.64899999 -0.10127428 1.8339979e-38 349 329
0.034137398 0.64899999 -0.10127428 1.8431098e-38 350 329
0.03527531 0.64899999 -0.10127428 1.8338544e-38 351 329
0.036413226 0.64899999 -0.10127428 1.8155234e-38 352 329
0.037608996 0.64999998 -0.10143033 1.8063038e-38 353 329
0.038748663 0.64999998 -0.10143033 1.806232e-38 354 329
0.039888334 0.64999998 -0.10143033 1.7970124e-38 355 329
0.041027997 0.64999998 -0.10143033 1.7694256e-38 356 329
0.042297412 0.65200001 -0.10174242 1.760206e-38 357 329
0.043440588 0.65200001 -0.10174242 1.7509496e-38 358 329
0.044583756 0.65200001 -0.10174242 1.7325105e-38 359 329
0.045797065 0.653 -0.10189847 1.7232908e-38 360 329
0.046941992 0.653 -0.10189847 1.7140354e-38 361 329
0.048086919 0.653 -0.10189847 1.6864127e-38 362 329
0.049231846 0.653 -0.10189847 1.6771931e-38 363 329
0.050376773 0.653 -0.10189847 1.649534e-38 364 329
0.0515217 0.653 -0.10189847 1.6403144e-38 365 329
0.052666627 0.653 -0.10189847 1.6219464e-38 366 329
0.05381155 0.653 -0.10189847 1.5850321e-38 367 329
0.054956477 0.653 -0.10189847 1.5482617e-38 368 329
0.056187313 0.65399998 -0.10205451 1.5390063e-38 369 329
0.057333998 0.65399998 -0.10205451 1.5297517e-38 370 329
0.058570094 0.65499997 -0.10221056 1.5113485e-38 371 329
0.059718527 0.65499997 -0.10221056 1.5020933e-38 372 329
0.060866963 0.65499997 -0.10221056 1.4836542e-38 373 329
0.062015396 0.65499997 -0.10221056 1.4652151e-38 374 329
0.063356705 0.65700001 -0.10252266 1.4468118e-38 375 329
0.064508639 0.65700001 -0.10252266 1.4100777e-38 376 329
0.065660581 0.65700001 -0.10252266 1.4008223e-38 377 329
0.066812515 0.65700001 -0.10252266 1.3915674e-38 378 329
0.067964457 0.65700001 -0.10252266 1.3639448e-38 379 329
0.069221593 0.65799999 -0.1026787 1.3730567e-38 380 329
0.070375293 0.65799999 -0.1026787 1.345398e-38 381 329
0.07163769 0.65899998 -0.10283475 1.3177759e-38 382 329
0.072793134 0.65899998 -0.10283475 1.2901532e-38 383 329
0.073948584 0.65899998 -0.10283475 1.2533469e-38 384 329
0.075104028 0.65899998 -0.10283475 1.2441273e-38 385 329
0.076490916 0.66100001 -0.10314685 1.2255807e-38 386 329
0.077649876 0.66100001 -0.10314685 1.216361e-38 387 329
0.078928046 0.662 -0.10330289 1.1888105e-38 388 329
0.080088757 0.662 -0.10330289 1.179555e-38 389 329
0.081372194 0.66299999 -0.10345893 1.1428213e-38 390 329
0.082908116 0.66600001 -0.10392708 1.1428213e-38 391 329
0.084328316 0.66799998 -0.10423917 1.1427859e-38 392 329
0.085755527 0.67000002 -0.10455126 1.1427859e-38 393 329
0.086930268 0.67000002 -0.10455126 1.1520061e-38 394 329
0.088236496 0.671 -0.10470732 1.1335311e-38 395 329
0.089812748 0.67400002 -0.10517546 1.105803e-38 396 329
-0.035241999 0.67000002 -0.105726 1.4839161e-38 290 330
-0.034067266 0.67000002 -0.105726 1.3456226e-38 291 330
-0.032892533 0.67000002 -0.105726 1.1797036e-38 292 330
-0.0317178 0.67000002 -0.105726 9.584342e-39 293 330
-0.030543067 0.67000002 -0.105726 8.6580627e-39 294 330
-0.029368332 0.67000002 -0.105726 9.119401e-39 295 330
-0.028109439 0.66799998 -0.1054104 9.862361e-39 296 330
-0.026938211 0.66799998 -0.1054104 1.1153098e-38 297 330
-0.025728412 0.667 -0.10525259 1.1800242e-38 298 330
-0.024558939 0.667 -0.10525259 1.2076829e-38 299 330
-0.023354398 0.66600001 -0.1050948 1.2722564e-38 300 330
-0.02218668 0.66600001 -0.1050948 1.3552683e-38 301 330
-0.02101896 0.66600001 -0.1050948 1.4012587e-38 302 330
-0.019851239 0.66600001 -0.1050948 1.4381009e-38 303 330
-0.018683519 0.66600001 -0.1050948 1.4382068e-38 304 330
-0.017515799 0.66600001 -0.1050948 1.4382068e-38 305 330
-0.016298985 0.66399997 -0.10477919 1.4473896e-38 306 330
-0.015111978 0.66299999 -0.1046214 1.4657928e-38 307 330
-0.01392848 0.662 -0.1044636 1.5209663e-38 308 330
-0.012767773 0.662 -0.1044636 1.5578445e-38 309 330
-0.011589534 0.66100001 -0.1043058 1.5947228e-38 310 330
-0.01043058 0.66100001 -0.1043058 1.6223813e-38 311 330
-0.0092716264 0.66100001 -0.1043058 1.6684064e-38 312 330
-0.0081126727 0.66100001 -0.1043058 1.6868814e-38 313 330
-0.00695372 0.66100001 -0.1043058 1.7144678e-38 314 330
-0.0057772328 0.65899998 -0.10399019 1.7144678e-38 315 330
-0.0046217865 0.65899998 -0.10399019 1.7419467e-38 316 330
-0.0034610799 0.65799999 -0.1038324 1.7327271e-38 317 330
-0.0023073866 0.65799999 -0.1038324 1.6680807e-38 318 330
-0.00115194 0.65700001 -0.1036746 1.4929091e-38 319 330
0 0.65399998 -0.10320119 1.3074375e-38 320 330
0.00114668 0.65399998 -0.10320119 1.1230477e-38 321 330
0.00229336 0.65399998 -0.10320119 1.1323031e-38 322 330
0.0034400397 0.65399998 -0.10320119 1.1415227e-38 323 330
0.0045937328 0.65499997 -0.10335899 1.0496164e-38 324 330
0.0057333997 0.65399998 -0.10320119 1.058836e-38 325 330
0.0068800794 0.65399998 -0.10320119 1.0496886e-38 326 330
0.0080144862 0.653 -0.1030434 1.0681277e-38 327 330
0.0091594132 0.653 -0.1030434 1.1050429e-38 328 330
0.010304339 0.653 -0.1030434 1.1603603e-38 329 330
0.011431733 0.65200001 -0.1028856 1.1974903e-38 330 330
0.012574906 0.65200001 -0.1028856 1.2712468e-38 331 330
0.01371808 0.65200001 -0.1028856 1.3173074e-38 332 330
0.014861252 0.65200001 -0.1028856 1.3173074e-38 333 330
0.016028972 0.653 -0.1030434 1.3359269e-38 334 330
0.017200198 0.65399998 -0.10320119 1.4004639e-38 335 330
0.01834688 0.65399998 -0.10320119 1.4467426e-38 336 330
0.019493559 0.65399998 -0.10320119 1.5389741e-38 337 330
0.020640239 0.65399998 -0.10320119 1.6403887e-38 338 330
0.021720294 0.65200001 -0.1028856 1.7141452e-38 339 330
0.022863466 0.65200001 -0.1028856 1.7787175e-38 340 330
0.023932999 0.64999998 -0.10256999 1.7971566e-38 341 330
0.025034092 0.64899999 -0.10241219 1.8430742e-38 342 330
0.026172007 0.64899999 -0.10241219 1.8522938e-38 343 330
0.027351998 0.64999998 -0.10256999 1.8522938e-38 344 330
0.028447833 0.64899999 -0.10241219 1.8522938e-38 345 330
0.029585747 0.64899999 -0.10241219 1.8430742e-38 346 330
0.030770998 0.64999998 -0.10256999 1.8430742e-38 347 330
0.031910665 0.64999998 -0.10256999 1.8430745e-38 348 330
0.032999486 0.64899999 -0.10241219 1.8338549e-38 349 330
0.034137398 0.64899999 -0.10241219 1.8062685e-38 350 330
0.03527531 0.64899999 -0.10241219 1.797049e-38 351 330
0.036413226 0.64899999 -0.10241219 1.797049e-38 352 330
0.037608996 0.64999998 -0.10256999 1.7786459e-38 353 330
0.038748663 0.64999998 -0.10256999 1.7602063e-38 354 330
0.039888334 0.64999998 -0.10256999 1.7509868e-38 355 330
0.041027997 0.64999998 -0.10256999 1.7509146e-38 356 330
0.042167664 0.64999998 -0.10256999 1.7324755e-38 357 330
0.043440588 0.65200001 -0.1028856 1.6957397e-38 358 330
0.044583756 0.65200001 -0.1028856 1.6772647e-38 359 330
0.045726933 0.65200001 -0.1028856 1.6772284e-38 360 330
0.046870105 0.65200001 -0.1028856 1.6680089e-38 361 330
0.048013281 0.65200001 -0.1028856 1.649534e-38 362 330
0.049156453 0.65200001 -0.1028856 1.6403144e-38 363 330
0.050299626 0.65200001 -0.1028856 1.6126559e-38 364 330
0.051442798 0.65200001 -0.1028856 1.5942166e-38 365 330
0.052585974 0.65200001 -0.1028856 1.5666656e-38 366 330
0.05381155 0.653 -0.1030434 1.5390069e-38 367 330
0.054956477 0.653 -0.1030434 1.5297514e-38 368 330
0.056187313 0.65399998 -0.10320119 1.5021286e-38 369 330
0.057333998 0.65399998 -0.10320119 1.4929093e-38 370 330
0.05848068 0.65399998 -0.10320119 1.4836539e-38 371 330
0.059718527 0.65499997 -0.10335899 1.4652151e-38 372 330
0.060866963 0.65499997 -0.10335899 1.4468118e-38 373 330
0.062015396 0.65499997 -0.10335899 1.4100421e-38 374 330
0.063163824 0.65499997 -0.10335899 1.4008226e-38 375 330
0.064312264 0.65499997 -0.10335899 1.3915674e-38 376 330
0.065660581 0.65700001 -0.1036746 1.3823479e-38 377 330
0.066812515 0.65700001 -0.1036746 1.3546899e-38 378 330
0.067964457 0.65700001 -0.1036746 1.3362506e-38 379 330
0.069116399 0.65700001 -0.1036746 1.3270308e-38 380 330
0.07026834 0.65700001 -0.1036746 1.2901885e-38 381 330
0.071528979 0.65799999 -0.1038324 1.2716415e-38 382 330
0.072793134 0.65899998 -0.10399019 1.2532024e-38 383 330
0.073948584 0.65899998 -0.10399019 1.1887749e-38 384 330
0.075104028 0.65899998 -0.10399019 1.1887749e-38 385 330
0.076490916 0.66100001 -0.1043058 1.2070342e-38 386 330
0.077649876 0.66100001 -0.1043058 1.2070342e-38 387 330
0.078928046 0.662 -0.1044636 1.1704076e-38 388 330
0.080088757 0.662 -0.1044636 1.1427491e-38 389 330
0.081372194 0.66299999 -0.1046214 1.1151633e-38 390 330
0.082908116 0.66600001 -0.1050948 1.1151633e-38 391 330
0.084328316 0.66799998 -0.1054104 1.1151282e-38 392 330
0.085883528 0.671 -0.10588379 1.1151282e-38 393 330
0.087060012 0.671 -0.10588379 1.1059097e-38 394 330
0.088631004 0.67400002 -0.1063572 1.0874704e-38 395 330
0.089812748 0.67400002 -0.1063572 1.0504869e-38 396 330
-0.030543067 0.67000002 -0.10690073 1.3546974e-38 294 331
-0.029368332 0.67000002 -0.10690073 1.2348431e-38 295 331
-0.028109439 0.66799998 -0.10658162 1.1153098e-38 296 331
-0.026897885 0.667 -0.10642207 1.0415175e-38 297 331
-0.025728412 0.667 -0.10642207 1.1151998e-38 298 331
-0.02452212 0.66600001 -0.10626251 1.1797368e-38 299 331
-0.023354398 0.66600001 -0.10626251 1.1248516e-38 300 331
-0.02218668 0.66600001 -0.10626251 1.1893885e-38 301 331
-0.02101896 0.66600001 -0.10626251 1.2907678e-38 302 331
-0.019851239 0.66600001 -0.10626251 1.3553048e-38 303 331
-0.018683519 0.66600001 -0.10626251 1.4379915e-38 304 331
-0.0174632 0.66399997 -0.1059434 1.447211e-38 305 331
-0.016298985 0.66399997 -0.1059434 1.4657208e-38 306 331
-0.015111978 0.66299999 -0.10578386 1.4841959e-38 307 331
-0.01392848 0.662 -0.1056243 1.5301858e-38 308 331
-0.012748486 0.66100001 -0.10546475 1.5670641e-38 309 331
-0.011554466 0.65899998 -0.10514564 1.5947584e-38 310 331
-0.010399019 0.65899998 -0.10514564 1.6316007e-38 311 331
-0.0092295464 0.65799999 -0.10498609 1.6684064e-38 312 331
-0.0080758529 0.65799999 -0.10498609 1.6868814e-38 313 331
-0.0069116396 0.65700001 -0.10482653 1.7143959e-38 314 331
-0.0057421662 0.65499997 -0.10450742 1.7143959e-38 315 331
-0.0045937328 0.65499997 -0.10450742 1.7510581e-38 316 331
-0.0034558198 0.65700001 -0.10482653 1.7510581e-38 317 331
-0.0023038799 0.65700001 -0.10482653 1.7048508e-38 318 331
-0.0011484332 0.65499997 -0.10450742 1.5573738e-38 319 331
0 0.65399998 -0.10434788 1.4461996e-38 320 331
0.00114668 0.65399998 -0.10434788 1.3909181e-38 321 331
0.00229336 0.65399998 -0.10434788 1.3910289e-38 322 331
0.0034347798 0.653 -0.10418832 1.3818093e-38 323 331
0.0045797066 0.653 -0.10418832 1.3357136e-38 324 331
0.0057333997 0.65399998 -0.10434788 1.3449332e-38 325 331
0.0068695596 0.653 -0.10418832 1.3173465e-38 326 331
0.0080022132 0.65200001 -0.10402877 1.308127e-38 327 331
0.0091453865 0.65200001 -0.10402877 1.3358936e-38 328 331
0.01028856 0.65200001 -0.10402877 1.3727358e-38 329 331
0.011431733 0.65200001 -0.10402877 1.4003582e-38 330 331
0.012574906 0.65200001 -0.10402877 1.427981e-38 331 331
0.01371808 0.65200001 -0.10402877 1.4372709e-38 332 331
0.014861252 0.65200001 -0.10402877 1.4465264e-38 333 331
0.016004426 0.65200001 -0.10402877 1.5112079e-38 334 331
0.017173899 0.653 -0.10418832 1.5480501e-38 335 331
0.018318826 0.653 -0.10418832 1.6308467e-38 336 331
0.019463753 0.653 -0.10418832 1.7046032e-38 337 331
0.02057712 0.65200001 -0.10402877 1.7692827e-38 338 331
0.021620352 0.64899999 -0.10355011 1.8061969e-38 339 331
0.022758266 0.64899999 -0.10355011 1.8062683e-38 340 331
0.023896178 0.64899999 -0.10355011 1.8062683e-38 341 331
0.024995521 0.648 -0.10339055 1.8247427e-38 342 331
0.02613168 0.648 -0.10339055 1.8339981e-38 343 331
0.02726784 0.648 -0.10339055 1.8431098e-38 344 331
0.028404001 0.648 -0.10339055 1.8431098e-38 345 331
0.029585747 0.64899999 -0.10355011 1.8430023e-38 346 331
0.030723657 0.64899999 -0.10355011 1.8245632e-38 347 331
0.031812482 0.648 -0.10339055 1.7970124e-38 348 331
0.032948639 0.648 -0.10339055 1.7693177e-38 349 331
0.034137398 0.64899999 -0.10355011 1.7326199e-38 350 331
0.03527531 0.64899999 -0.10355011 1.7326199e-38 351 331
0.036413226 0.64899999 -0.10355011 1.7326202e-38 352 331
0.037551139 0.64899999 -0.10355011 1.7233648e-38 353 331
0.038689051 0.64899999 -0.10355011 1.7416947e-38 354 331
0.039826967 0.64899999 -0.10355011 1.7232555e-38 355 331
0.041027997 0.64999998 -0.10370966 1.723111e-38 356 331
0.042167664 0.64999998 -0.10370966 1.704672e-38 357 331
0.04330733 0.64999998 -0.10370966 1.6587533e-38 358 331
0.044446997 0.64999998 -0.10370966 1.6495337e-38 359 331
0.045726933 0.65200001 -0.10402877 1.6494974e-38 360 331
0.046870105 0.65200001 -0.10402877 1.6218029e-38 361 331
0.047865998 0.64999998 -0.10370966 1.6217676e-38 362 331
0.049005665 0.64999998 -0.10370966 1.6125479e-38 363 331
0.050145328 0.64999998 -0.10370966 1.5757419e-38 364 331
0.051442798 0.65200001 -0.10402877 1.5573388e-38 365 331
0.052585974 0.65200001 -0.10402877 1.529752e-38 366 331
0.053729147 0.65200001 -0.10402877 1.5113129e-38 367 331
0.054872319 0.65200001 -0.10402877 1.4928737e-38 368 331
0.056101404 0.653 -0.10418832 1.4836542e-38 369 331
0.057333998 0.65399998 -0.10434788 1.4652151e-38 370 331
0.05848068 0.65399998 -0.10434788 1.4468118e-38 371 331
0.059627358 0.65399998 -0.10434788 1.4558879e-38 372 331
0.060774036 0.65399998 -0.10434788 1.4466683e-38 373 331
0.061920714 0.65399998 -0.10434788 1.391603e-38 374 331
0.063163824 0.65499997 -0.10450742 1.3823835e-38 375 331
0.064312264 0.65499997 -0.10450742 1.3547252e-38 376 331
0.065460697 0.65499997 -0.10450742 1.3362859e-38 377 331
0.066609129 0.65499997 -0.10450742 1.3360705e-38 378 331
0.067964457 0.65700001 -0.10482653 1.2899727e-38 379 331
0.069116399 0.65700001 -0.10482653 1.2807169e-38 380 331
0.07026834 0.65700001 -0.10482653 1.2253995e-38 381 331
0.071528979 0.65799999 -0.10498609 1.2438029e-38 382 331
0.072793134 0.65899998 -0.10514564 1.2253998e-38 383 331
0.073948584 0.65899998 -0.10514564 1.1886667e-38 384 331
0.075104028 0.65899998 -0.10514564 1.1886667e-38 385 331
0.076490916 0.66100001 -0.10546475 1.1703358e-38 386 331
0.077649876 0.66100001 -0.10546475 1.1703358e-38 387 331
0.078928046 0.662 -0.1056243 1.1427494e-38 388 331
0.080209732 0.66299999 -0.10578386 1.1335298e-38 389 331
0.081494927 0.66399997 -0.1059434 1.1242752e-38 390 331
0.083032601 0.667 -0.10642207 1.1150196e-38 391 331
0.084328316 0.66799998 -0.10658162 1.0873982e-38 392 331
0.086011514 0.67199999 -0.10721984 1.0966537e-38 393 331
0.087449253 0.67400002 -0.10753895 1.0781086e-38 394 331
0.088631004 0.67400002 -0.10753895 1.068889e-38 395 331
-0.026776904 0.66399997 -0.10710762 1.271864e-38 297 332
-0.025612691 0.66399997 -0.10710762 1.1426064e-38 298 332
-0.02452212 0.66600001 -0.10743023 1.1426064e-38 299 332
-0.023354398 0.66600001 -0.10743023 1.0969771e-38 300 332
-0.022120051 0.66399997 -0.10710762 1.1431109e-38 301 332
-0.020955838 0.66399997 -0.10710762 1.1984651e-38 302 332
-0.019851239 0.66600001 -0.10743023 1.2814412e-38 303 332
-0.018627413 0.66399997 -0.10710762 1.3368289e-38 304 332
-0.017436899 0.66299999 -0.10694631 1.4013659e-38 305 332
-0.016274439 0.66299999 -0.10694631 1.4749773e-38 306 332
-0.015089186 0.662 -0.10678501 1.4841969e-38 307 332
-0.01392848 0.662 -0.10678501 1.5118912e-38 308 332
-0.012709912 0.65899998 -0.10630108 1.5487694e-38 309 332
-0.011554466 0.65899998 -0.10630108 1.5947949e-38 310 332
-0.01038324 0.65799999 -0.10613978 1.6132342e-38 311 332
-0.0092155198 0.65700001 -0.10597847 1.6408922e-38 312 332
-0.0080635799 0.65700001 -0.10597847 1.6408922e-38 313 332
-0.0068905996 0.65499997 -0.10565586 1.6775191e-38 314 332
-0.0057421662 0.65499997 -0.10565586 1.6682995e-38 315 332
-0.0045867199 0.65399998 -0.10549456 1.6958856e-38 316 332
-0.0034400397 0.65399998 -0.10549456 1.7143606e-38 317 332
-0.00229336 0.65399998 -0.10549456 1.7324749e-38 318 332
-0.00114668 0.65399998 -0.10549456 1.667938e-38 319 332
0 0.653 -0.10533325 1.6307368e-38 320 332
0.0011449266 0.653 -0.10533325 1.6031142e-38 321 332
0.0022898533 0.653 -0.10533325 1.5480501e-38 322 332
0.0034347798 0.653 -0.10533325 1.5480501e-38 323 332
0.0045797066 0.653 -0.10533325 1.520464e-38 324 332
0.0057246331 0.653 -0.10533325 1.520464e-38 325 332
0.0068695596 0.653 -0.10533325 1.5388306e-38 326 332
0.0080022132 0.65200001 -0.10517195 1.529611e-38 327 332
0.0091453865 0.65200001 -0.10517195 1.5113514e-38 328 332
0.01028856 0.65200001 -0.10517195 1.520571e-38 329 332
0.011396666 0.64999998 -0.10484933 1.5480857e-38 330 332
0.012536332 0.64999998 -0.10484933 1.5480857e-38 331 332
0.013654959 0.64899999 -0.10468803 1.5481208e-38 332 332
0.014792874 0.64899999 -0.10468803 1.5573403e-38 333 332
0.015930785 0.64899999 -0.10468803 1.6403171e-38 334 332
0.017095 0.64999998 -0.10484933 1.6771593e-38 335 332
0.018234665 0.64999998 -0.10484933 1.72315e-38 336 332
0.019374331 0.64999998 -0.10484933 1.7692476e-38 337 332
0.02048244 0.64899999 -0.10468803 1.8338193e-38 338 332
0.02158704 0.648 -0.10452672 1.8154162e-38 339 332
0.0227232 0.648 -0.10452672 1.7787896e-38 340 332
0.023859359 0.648 -0.10452672 1.7880092e-38 341 332
0.024956945 0.64700001 -0.10436542 1.7880089e-38 342 332
0.026091354 0.64700001 -0.10436542 1.7880089e-38 343 332
0.027225759 0.64700001 -0.10436542 1.8062685e-38 344 332
0.028360168 0.64700001 -0.10436542 1.8062685e-38 345 332
0.029540159 0.648 -0.10452672 1.7969415e-38 346 332
0.03067632 0.648 -0.10452672 1.7785022e-38 347 332
0.031812482 0.648 -0.10452672 1.7324764e-38 348 332
0.032948639 0.648 -0.10452672 1.7048536e-38 349 332
0.034084801 0.648 -0.10452672 1.7048539e-38 350 332
0.035220958 0.648 -0.10452672 1.7048539e-38 351 332
0.03635712 0.648 -0.10452672 1.6957059e-38 352 332
0.037493281 0.648 -0.10452672 1.6957059e-38 353 332
0.038629439 0.648 -0.10452672 1.7048158e-38 354 332
0.039826967 0.64899999 -0.10468803 1.6771931e-38 355 332
0.041027997 0.64999998 -0.10484933 1.6770495e-38 356 332
0.042167664 0.64999998 -0.10484933 1.6586464e-38 357 332
0.04330733 0.64999998 -0.10484933 1.6126577e-38 358 332
0.044446997 0.64999998 -0.10484933 1.6034382e-38 359 332
0.045586664 0.64999998 -0.10484933 1.5758153e-38 360 332
0.046726331 0.64999998 -0.10484933 1.5665599e-38 361 332
0.047865998 0.64999998 -0.10484933 1.5390088e-38 362 332
0.049005665 0.64999998 -0.10484933 1.5297893e-38 363 332
0.050145328 0.64999998 -0.10484933 1.5296816e-38 364 332
0.051284995 0.64999998 -0.10484933 1.5112785e-38 365 332
0.052585974 0.65200001 -0.10517195 1.4929109e-38 366 332
0.053729147 0.65200001 -0.10517195 1.4652523e-38 367 332
0.054872319 0.65200001 -0.10517195 1.4284817e-38 368 332
0.056101404 0.653 -0.10533325 1.419262e-38 369 332
0.057246335 0.653 -0.10533325 1.4008226e-38 370 332
0.058391262 0.653 -0.10533325 1.4008226e-38 371 332
0.059627358 0.65399998 -0.10549456 1.3823479e-38 372 332
0.060774036 0.65399998 -0.10549456 1.3823479e-38 373 332
0.061920714 0.65399998 -0.10549456 1.3547971e-38 374 332
0.063163824 0.65499997 -0.10565586 1.3271743e-38 375 332
0.064312264 0.65499997 -0.10565586 1.3361056e-38 376 332
0.065460697 0.65499997 -0.10565586 1.2992632e-38 377 332
0.066609129 0.65499997 -0.10565586 1.2990128e-38 378 332
0.067757562 0.65499997 -0.10565586 1.2621704e-38 379 332
0.069116399 0.65700001 -0.10597847 1.2160743e-38 380 332
0.07026834 0.65700001 -0.10597847 1.197635e-38 381 332
0.071528979 0.65799999 -0.10613978 1.1701555e-38 382 332
0.072793134 0.65899998 -0.10630108 1.1701555e-38 383 332
0.073948584 0.65899998 -0.10630108 1.1611156e-38 384 332
0.075104028 0.65899998 -0.10630108 1.1703711e-38 385 332
0.076490916 0.66100001 -0.1066237 1.1611162e-38 386 332
0.077767342 0.662 -0.10678501 1.1611162e-38 387 332
0.079047278 0.66299999 -0.10694631 1.1427141e-38 388 332
0.080330715 0.66399997 -0.10710762 1.1242749e-38 389 332
0.081740394 0.66600001 -0.10743023 1.1056934e-38 390 332
0.083032601 0.667 -0.10759154 1.0964739e-38 391 332
0.084707037 0.671 -0.10823677 1.0505575e-38 392 332
0.086011514 0.67199999 -0.10839807 1.0505575e-38 393 332
0.087189756 0.67199999 -0.10839807 1.0320127e-38 394 332
-0.026776904 0.66399997 -0.10827184 1.787947e-38 297 333
-0.025612691 0.66399997 -0.10827184 1.5759978e-38 298 333
-0.02452212 0.66600001 -0.10859796 1.1334948e-38 299 333
-0.023354398 0.66600001 -0.10859796 1.032329e-38 300 333
-0.022120051 0.66399997 -0.10827184 1.1614029e-38 301 333
-0.020955838 0.66399997 -0.10827184 1.1614424e-38 302 333
-0.019791625 0.66399997 -0.10827184 1.2167598e-38 303 333
-0.018571306 0.662 -0.10794572 1.2356655e-38 304 333
-0.017410601 0.662 -0.10794572 1.3094221e-38 305 333
-0.016249891 0.662 -0.10794572 1.4291316e-38 306 333
-0.015066394 0.66100001 -0.10778265 1.4291316e-38 307 333
-0.013865359 0.65899998 -0.10745654 1.5301858e-38 308 333
-0.012690626 0.65799999 -0.10729348 1.5670641e-38 309 333
-0.011519399 0.65700001 -0.10713042 1.5947584e-38 310 333
-0.01036746 0.65700001 -0.10713042 1.6316007e-38 311 333
-0.0091874655 0.65499997 -0.10680429 1.6316363e-38 312 333
-0.008039033 0.65499997 -0.10680429 1.6316363e-38 313 333
-0.0068905996 0.65499997 -0.10680429 1.67741e-38 314 333
-0.0057333997 0.65399998 -0.10664123 1.67741e-38 315 333
-0.0045797066 0.653 -0.10647818 1.704961e-38 316 333
-0.0034347798 0.653 -0.10647818 1.7510586e-38 317 333
-0.0022898533 0.653 -0.10647818 1.7511311e-38 318 333
-0.0011431733 0.65200001 -0.10631512 1.7234723e-38 319 333
0 0.65200001 -0.10631512 1.7325493e-38 320 333
0.0011431733 0.65200001 -0.10631512 1.7786471e-38 321 333
0.0022863466 0.65200001 -0.10631512 1.7603172e-38 322 333
0.0034295199 0.65200001 -0.10631512 1.7603172e-38 323 333
0.0045726933 0.65200001 -0.10631512 1.7786487e-38 324 333
0.0057158666 0.65200001 -0.10631512 1.7602456e-38 325 333
0.0068590399 0.65200001 -0.10631512 1.7602453e-38 326 333
0.0080022132 0.65200001 -0.10631512 1.7602453e-38 327 333
0.0091173323 0.64999998 -0.10598899 1.7327661e-38 328 333
0.01024122 0.64899999 -0.10582593 1.7235465e-38 329 333
0.011379133 0.64899999 -0.10582593 1.7418415e-38 330 333
0.012517046 0.64899999 -0.10582593 1.7233663e-38 331 333
0.01363392 0.648 -0.10566287 1.7232572e-38 332 333
0.014770079 0.648 -0.10566287 1.6956343e-38 333 333
0.015906241 0.648 -0.10566287 1.7510963e-38 334 333
0.0170424 0.648 -0.10566287 1.7603159e-38 335 333
0.01817856 0.648 -0.10566287 1.7787193e-38 336 333
0.019314719 0.648 -0.10566287 1.7879389e-38 337 333
0.020450879 0.648 -0.10566287 1.8062332e-38 338 333
0.021553727 0.64700001 -0.10549982 1.7970137e-38 339 333
0.022688134 0.64700001 -0.10549982 1.7786822e-38 340 333
0.023822539 0.64700001 -0.10549982 1.7879017e-38 341 333
0.024956945 0.64700001 -0.10549982 1.7970134e-38 342 333
0.026091354 0.64700001 -0.10549982 1.7970134e-38 343 333
0.027225759 0.64700001 -0.10549982 1.7969768e-38 344 333
0.028360168 0.64700001 -0.10549982 1.7785375e-38 345 333
0.029494572 0.64700001 -0.10549982 1.778501e-38 346 333
0.030628979 0.64700001 -0.10549982 1.7508064e-38 347 333
0.031763386 0.64700001 -0.10549982 1.6957407e-38 348 333
0.032897793 0.64700001 -0.10549982 1.6865211e-38 349 333
0.0340322 0.64700001 -0.10549982 1.6864492e-38 350 333
0.035220958 0.648 -0.10566287 1.6864492e-38 351 333
0.03635712 0.648 -0.10566287 1.6496786e-38 352 333
0.037493281 0.648 -0.10566287 1.6036167e-38 353 333
0.038629439 0.648 -0.10566287 1.6127281e-38 354 333
0.039826967 0.64899999 -0.10582593 1.6035085e-38 355 333
0.040964879 0.64899999 -0.10582593 1.6401707e-38 356 333
0.042167664 0.64999998 -0.10598899 1.6216955e-38 357 333
0.04330733 0.64999998 -0.10598899 1.612476e-38 358 333
0.044446997 0.64999998 -0.10598899 1.5940368e-38 359 333
0.045586664 0.64999998 -0.10598899 1.566486e-38 360 333
0.046726331 0.64999998 -0.10598899 1.5480109e-38 361 333
0.047865998 0.64999998 -0.10598899 1.5020933e-38 362 333
0.049005665 0.64999998 -0.10598899 1.4928737e-38 363 333
0.050145328 0.64999998 -0.10598899 1.4928021e-38 364 333
0.051284995 0.64999998 -0.10598899 1.4835826e-38 365 333
0.052424666 0.64999998 -0.10598899 1.4468118e-38 366 333
0.053564329 0.64999998 -0.10598899 1.4468118e-38 367 333
0.054872319 0.65200001 -0.10631512 1.4100053e-38 368 333
0.056101404 0.653 -0.10647818 1.4007857e-38 369 333
0.057246335 0.653 -0.10647818 1.400786e-38 370 333
0.058391262 0.653 -0.10647818 1.3915664e-38 371 333
0.059536185 0.653 -0.10647818 1.3639798e-38 372 333
0.060681112 0.653 -0.10647818 1.3455405e-38 373 333
0.061920714 0.65399998 -0.10664123 1.3362491e-38 374 333
0.063067392 0.65399998 -0.10664123 1.2440174e-38 375 333
0.064214081 0.65399998 -0.10664123 1.16079e-38 376 333
0.065460697 0.65499997 -0.10680429 1.1331313e-38 377 333
0.066609129 0.65499997 -0.10680429 1.179159e-38 378 333
0.067757562 0.65499997 -0.10680429 1.1883786e-38 379 333
0.069116399 0.65700001 -0.10713042 1.1608654e-38 380 333
0.07026834 0.65700001 -0.10713042 1.1701209e-38 381 333
0.071528979 0.65799999 -0.10729348 1.1518963e-38 382 333
0.072793134 0.65899998 -0.10745654 1.1611159e-38 383 333
0.073948584 0.65899998 -0.10745654 1.1427491e-38 384 333
0.075104028 0.65899998 -0.10745654 1.1520045e-38 385 333
0.076490916 0.66100001 -0.10778265 1.1610453e-38 386 333
0.077767342 0.662 -0.10794572 1.1610453e-38 387 333
0.079047278 0.66299999 -0.10810877 1.1334595e-38 388 333
0.080330715 0.66399997 -0.10827184 1.1150202e-38 389 333
0.081740394 0.66600001 -0.10859796 1.0781073e-38 390 333
0.083157085 0.66799998 -0.10892407 1.0596323e-38 391 333
0.084328316 0.66799998 -0.10892407 1.0045323e-38 392 333
-0.02568984 0.66600001 -0.10976568 1.8064894e-38 298 334
-0.02452212 0.66600001 -0.10976568 1.4653655e-38 299 334
-0.023354398 0.66600001 -0.10976568 1.1701906e-38 300 334
-0.022120051 0.66399997 -0.10943604 1.1701906e-38 301 334
-0.020955838 0.66399997 -0.10943604 1.0786809e-38 302 334
-0.019791625 0.66399997 -0.10943604 1.1339983e-38 303 334
-0.018571306 0.662 -0.10910642 1.1526542e-38 304 334
-0.0173843 0.66100001 -0.10894161 1.2448858e-38 305 334
-0.016176252 0.65899998 -0.10861198 1.3370805e-38 306 334
-0.015020805 0.65899998 -0.10861198 1.3739946e-38 307 334
-0.013823279 0.65700001 -0.10828236 1.4108007e-38 308 334
-0.01267134 0.65700001 -0.10828236 1.4568625e-38 309 334
-0.011484332 0.65499997 -0.10795272 1.5396222e-38 310 334
-0.010335899 0.65499997 -0.10795272 1.5765004e-38 311 334
-0.0091734398 0.65399998 -0.10778791 1.622381e-38 312 334
-0.0080267601 0.65399998 -0.10778791 1.6131615e-38 313 334
-0.0068800794 0.65399998 -0.10778791 1.6681549e-38 314 334
-0.0057333997 0.65399998 -0.10778791 1.6681549e-38 315 334
-0.0045797066 0.653 -0.1076231 1.6498606e-38 316 334
-0.0034295199 0.65200001 -0.10745829 1.6682998e-38 317 334
-0.0022863466 0.65200001 -0.10745829 1.7141823e-38 318 334
-0.0011431733 0.65200001 -0.10745829 1.7326215e-38 319 334
0 0.65200001 -0.10745829 1.7602806e-38 320 334
0.0011431733 0.65200001 -0.10745829 1.7971587e-38 321 334
0.0022793331 0.64999998 -0.10712866 1.7970512e-38 322 334
0.0034189997 0.64999998 -0.10712866 1.7970512e-38 323 334
0.0045586661 0.64999998 -0.10712866 1.7878317e-38 324 334
0.005698333 0.64999998 -0.10712866 1.7693925e-38 325 334
0.0068379994 0.64999998 -0.10712866 1.7602806e-38 326 334
0.0079776663 0.64999998 -0.10712866 1.751061e-38 327 334
0.0091033066 0.64899999 -0.10696385 1.7326932e-38 328 334
0.010225439 0.648 -0.10679904 1.7326932e-38 329 334
0.0113616 0.648 -0.10679904 1.7326202e-38 330 334
0.01249776 0.648 -0.10679904 1.7326202e-38 331 334
0.01363392 0.648 -0.10679904 1.7234369e-38 332 334
0.014770079 0.648 -0.10679904 1.7234369e-38 333 334
0.015906241 0.648 -0.10679904 1.7327637e-38 334 334
0.0170424 0.648 -0.10679904 1.7327637e-38 335 334
0.01817856 0.648 -0.10679904 1.7787175e-38 336 334
0.019314719 0.648 -0.10679904 1.787937e-38 337 334
0.02041932 0.64700001 -0.10663422 1.7786468e-38 338 334
0.021553727 0.64700001 -0.10663422 1.7602076e-38 339 334
0.022688134 0.64700001 -0.10663422 1.7418415e-38 340 334
0.023822539 0.64700001 -0.10663422 1.7418415e-38 341 334
0.024956945 0.64700001 -0.10663422 1.705107e-38 342 334
0.026051028 0.64600003 -0.10646942 1.6958874e-38 343 334
0.02718368 0.64600003 -0.10646942 1.7141099e-38 344 334
0.028316336 0.64600003 -0.10646942 1.6956708e-38 345 334
0.029494572 0.64700001 -0.10663422 1.6680833e-38 346 334
0.030628979 0.64700001 -0.10663422 1.6680833e-38 347 334
0.031763386 0.64700001 -0.10663422 1.6496439e-38 348 334
0.032897793 0.64700001 -0.10663422 1.6496439e-38 349 334
0.0340322 0.64700001 -0.10663422 1.6221278e-38 350 334
0.035166606 0.64700001 -0.10663422 1.6036886e-38 351 334
0.036301013 0.64700001 -0.10663422 1.6126927e-38 352 334
0.03743542 0.64700001 -0.10663422 1.6034732e-38 353 334
0.038569827 0.64700001 -0.10663422 1.5758518e-38 354 334
0.0397656 0.648 -0.10679904 1.5574125e-38 355 334
0.040901758 0.648 -0.10679904 1.5390094e-38 356 334
0.042102791 0.64899999 -0.10696385 1.5205344e-38 357 334
0.043240704 0.64899999 -0.10696385 1.5113148e-38 358 334
0.044446997 0.64999998 -0.10712866 1.5020953e-38 359 334
0.045516532 0.64899999 -0.10696385 1.4560681e-38 360 334
0.046654444 0.64899999 -0.10696385 1.4560681e-38 361 334
0.047792356 0.64899999 -0.10696385 1.4469204e-38 362 334
0.048930272 0.64899999 -0.10696385 1.4285173e-38 363 334
0.050068185 0.64899999 -0.10696385 1.4192624e-38 364 334
0.051206097 0.64899999 -0.10696385 1.4100068e-38 365 334
0.052424666 0.64999998 -0.10712866 1.4008226e-38 366 334
0.053564329 0.64999998 -0.10712866 1.391603e-38 367 334
0.054703996 0.64999998 -0.10712866 1.3916027e-38 368 334
0.056015491 0.65200001 -0.10745829 1.3639801e-38 369 334
0.057158668 0.65200001 -0.10745829 1.3456127e-38 370 334
0.058301836 0.65200001 -0.10745829 1.3271737e-38 371 334
0.059445009 0.65200001 -0.10745829 1.3362859e-38 372 334
0.060588185 0.65200001 -0.10745829 1.3178109e-38 373 334
0.061826039 0.653 -0.1076231 1.2623866e-38 374 334
0.063067392 0.65399998 -0.10778791 1.2071051e-38 375 334
0.064214081 0.65399998 -0.10778791 1.1791603e-38 376 334
0.065360755 0.65399998 -0.10778791 1.1607572e-38 377 334
0.066609129 0.65499997 -0.10795272 1.1515739e-38 378 334
0.067757562 0.65499997 -0.10795272 1.1607935e-38 379 334
0.069116399 0.65700001 -0.10828236 1.1243098e-38 380 334
0.07026834 0.65700001 -0.10828236 1.1335295e-38 381 334
0.071528979 0.65799999 -0.10844716 1.1335651e-38 382 334
0.072682679 0.65799999 -0.10844716 1.1427847e-38 383 334
0.073948584 0.65899998 -0.10861198 1.1520045e-38 384 334
0.075331964 0.66100001 -0.10894161 1.1520045e-38 385 334
0.076606639 0.662 -0.10910642 1.1519689e-38 386 334
0.077767342 0.662 -0.10910642 1.1519689e-38 387 334
0.079047278 0.66299999 -0.10927124 1.1334948e-38 388 334
0.080330715 0.66399997 -0.10943604 1.1058001e-38 389 334
0.081494927 0.66399997 -0.10943604 1.0689238e-38 390 334
-0.02452212 0.66600001 -0.1109334 1.7327739e-38 299 335
-0.023354398 0.66600001 -0.1109334 1.5667082e-38 300 335
-0.022120051 0.66399997 -0.11060026 1.2532432e-38 301 335
-0.020955838 0.66399997 -0.11060026 1.1245253e-38 302 335
-0.019761819 0.66299999 -0.1104337 1.1337449e-38 303 335
-0.018571306 0.662 -0.11026713 1.1248866e-38 304 335
-0.017331699 0.65899998 -0.10976743 1.2170462e-38 305 335
-0.016151706 0.65799999 -0.10960086 1.2357727e-38 306 335
-0.01497522 0.65700001 -0.1094343 1.3003097e-38 307 335
-0.013781199 0.65499997 -0.10910116 1.3923243e-38 308 335
-0.012632766 0.65499997 -0.10910116 1.4476416e-38 309 335
-0.011484332 0.65499997 -0.10910116 1.5670641e-38 310 335
-0.01032012 0.65399998 -0.10893459 1.5855032e-38 311 335
-0.0091594132 0.653 -0.10876803 1.6130896e-38 312 335
-0.0080144862 0.653 -0.10876803 1.6223092e-38 313 335
-0.0068695596 0.653 -0.10876803 1.6589703e-38 314 335
-0.0057158666 0.65200001 -0.10860147 1.6589703e-38 315 335
-0.0045726933 0.65200001 -0.10860147 1.6681899e-38 316 335
-0.0034295199 0.65200001 -0.10860147 1.6681899e-38 317 335
-0.0022793331 0.64999998 -0.10826832 1.7048539e-38 318 335
-0.0011396665 0.64999998 -0.10826832 1.7416963e-38 319 335
0 0.64999998 -0.10826832 1.7509527e-38 320 335
0.0011396665 0.64999998 -0.10826832 1.769392e-38 321 335
0.0022758266 0.64899999 -0.10810176 1.7602076e-38 322 335
0.0034137398 0.64899999 -0.10810176 1.7602076e-38 323 335
0.00454464 0.648 -0.1079352 1.7601357e-38 324 335
0.0056807999 0.648 -0.1079352 1.7509161e-38 325 335
0.0068169599 0.648 -0.1079352 1.7234372e-38 326 335
0.0079531204 0.648 -0.1079352 1.7234372e-38 327 335
0.0090892799 0.648 -0.1079352 1.7142174e-38 328 335
0.01020966 0.64700001 -0.10776863 1.7142174e-38 329 335
0.011344067 0.64700001 -0.10776863 1.695814e-38 330 335
0.01249776 0.648 -0.1079352 1.695814e-38 331 335
0.01363392 0.648 -0.1079352 1.6866307e-38 332 335
0.014747286 0.64700001 -0.10776863 1.6958862e-38 333 335
0.015881693 0.64700001 -0.10776863 1.7143253e-38 334 335
0.0170161 0.64700001 -0.10776863 1.7327284e-38 335 335
0.018150507 0.64700001 -0.10776863 1.760206e-38 336 335
0.019255107 0.64600003 -0.10760207 1.760206e-38 337 335
0.020387759 0.64600003 -0.10760207 1.7693533e-38 338 335
0.021520413 0.64600003 -0.10760207 1.7324752e-38 339 335
0.022653066 0.64600003 -0.10760207 1.7324755e-38 340 335
0.023785722 0.64600003 -0.10760207 1.7232199e-38 341 335
0.024918374 0.64600003 -0.10760207 1.7047808e-38 342 335
0.026051028 0.64600003 -0.10760207 1.6863776e-38 343 335
0.02718368 0.64600003 -0.10760207 1.6494984e-38 344 335
0.028316336 0.64600003 -0.10760207 1.6218757e-38 345 335
0.029448988 0.64600003 -0.10760207 1.6127283e-38 346 335
0.030581642 0.64600003 -0.10760207 1.6311675e-38 347 335
0.031763386 0.64700001 -0.10776863 1.6218057e-38 348 335
0.032897793 0.64700001 -0.10776863 1.6402088e-38 349 335
0.0340322 0.64700001 -0.10776863 1.6033307e-38 350 335
0.035166606 0.64700001 -0.10776863 1.5941111e-38 351 335
0.036301013 0.64700001 -0.10776863 1.5849267e-38 352 335
0.03743542 0.64700001 -0.10776863 1.557304e-38 353 335
0.038569827 0.64700001 -0.10776863 1.5389362e-38 354 335
0.0397656 0.648 -0.1079352 1.5297167e-38 355 335
0.040901758 0.648 -0.1079352 1.5113131e-38 356 335
0.042037919 0.648 -0.1079352 1.5020936e-38 357 335
0.043240704 0.64899999 -0.10810176 1.4928384e-38 358 335
0.044378616 0.64899999 -0.10810176 1.4743993e-38 359 335
0.045516532 0.64899999 -0.10810176 1.4100777e-38 360 335
0.046654444 0.64899999 -0.10810176 1.4192973e-38 361 335
0.047792356 0.64899999 -0.10810176 1.4375566e-38 362 335
0.048930272 0.64899999 -0.10810176 1.4191175e-38 363 335
0.050068185 0.64899999 -0.10810176 1.4098624e-38 364 335
0.051206097 0.64899999 -0.10810176 1.4098624e-38 365 335
0.052344013 0.64899999 -0.10810176 1.3639801e-38 366 335
0.053564329 0.64999998 -0.10826832 1.3639801e-38 367 335
0.054703996 0.64999998 -0.10826832 1.3455402e-38 368 335
0.055843662 0.64999998 -0.10826832 1.3363207e-38 369 335
0.057158668 0.65200001 -0.10860147 1.3271008e-38 370 335
0.058301836 0.65200001 -0.10860147 1.3178813e-38 371 335
0.059445009 0.65200001 -0.10860147 1.2994431e-38 372 335
0.060588185 0.65200001 -0.10860147 1.2717484e-38 373 335
0.061826039 0.653 -0.10876803 1.2071048e-38 374 335
0.063067392 0.65399998 -0.10893459 1.1886657e-38 375 335
0.064214081 0.65399998 -0.10893459 1.1701909e-38 376 335
0.065360755 0.65399998 -0.10893459 1.1609713e-38 377 335
0.066609129 0.65499997 -0.10910116 1.1243086e-38 378 335
0.067757562 0.65499997 -0.10910116 1.1427117e-38 379 335
0.069116399 0.65700001 -0.1094343 1.1426764e-38 380 335
0.07026834 0.65700001 -0.1094343 1.1426764e-38 381 335
0.071528979 0.65799999 -0.10960086 1.1427491e-38 382 335
0.072682679 0.65799999 -0.10960086 1.1427491e-38 383 335
0.073948584 0.65899998 -0.10976743 1.1519689e-38 384 335
0.075331964 0.66100001 -0.11010057 1.170372e-38 385 335
0.076606639 0.662 -0.11026713 1.1428215e-38 386 335
0.077767342 0.662 -0.11026713 1.1335661e-38 387 335
0.079047278 0.66299999 -0.1104337 1.1059087e-38 388 335
0.080330715 0.66399997 -0.11060026 1.078214e-38 389 335
-0.022120051 0.66399997 -0.11176447 1.5391966e-38 301 336
-0.020955838 0.66399997 -0.11176447 1.382099e-38 302 336
-0.019761819 0.66299999 -0.11159615 1.2345858e-38 303 336
-0.018487146 0.65899998 -0.11092287 1.0697484e-38 304 336
-0.017305398 0.65799999 -0.11075456 1.1435049e-38 305 336
-0.01612716 0.65700001 -0.11058623 1.1529043e-38 306 336
-0.014929632 0.65499997 -0.11024959 1.2174412e-38 307 336
-0.013781199 0.65499997 -0.11024959 1.3094924e-38 308 336
-0.012632766 0.65499997 -0.11024959 1.3924685e-38 309 336
-0.011466799 0.65399998 -0.11008127 1.4935237e-38 310 336
-0.01032012 0.65399998 -0.11008127 1.5119988e-38 311 336
-0.0091594132 0.653 -0.10991295 1.5763187e-38 312 336
-0.0080022132 0.65200001 -0.10974464 1.5855382e-38 313 336
-0.0068590399 0.65200001 -0.10974464 1.6130525e-38 314 336
-0.0057158666 0.65200001 -0.10974464 1.6314914e-38 315 336
-0.0045586661 0.64999998 -0.10940799 1.649859e-38 316 336
-0.0034189997 0.64999998 -0.10940799 1.649859e-38 317 336
-0.0022793331 0.64999998 -0.10940799 1.6681196e-38 318 336
-0.0011379133 0.64899999 -0.10923968 1.6865588e-38 319 336
0 0.64899999 -0.10923968 1.7325493e-38 320 336
0.0011379133 0.64899999 -0.10923968 1.760208e-38 321 336
0.00227232 0.648 -0.10907136 1.750988e-38 322 336
0.00340848 0.648 -0.10907136 1.7325849e-38 323 336
0.00454464 0.648 -0.10907136 1.7416963e-38 324 336
0.0056720334 0.64700001 -0.10890304 1.7416963e-38 325 336
0.0068064397 0.64700001 -0.10890304 1.6958143e-38 326 336
0.0079408465 0.64700001 -0.10890304 1.6958143e-38 327 336
0.0090752533 0.64700001 -0.10890304 1.6866307e-38 328 336
0.01020966 0.64700001 -0.10890304 1.6774112e-38 329 336
0.011344067 0.64700001 -0.10890304 1.6865941e-38 330 336
0.012478473 0.64700001 -0.10890304 1.6773744e-38 331 336
0.013612879 0.64700001 -0.10890304 1.6773391e-38 332 336
0.014747286 0.64700001 -0.10890304 1.6773391e-38 333 336
0.015881693 0.64700001 -0.10890304 1.7232925e-38 334 336
0.0170161 0.64700001 -0.10890304 1.7048533e-38 335 336
0.018150507 0.64700001 -0.10890304 1.7232186e-38 336 336
0.019255107 0.64600003 -0.10873472 1.7047795e-38 337 336
0.020387759 0.64600003 -0.10873472 1.6955597e-38 338 336
0.021520413 0.64600003 -0.10873472 1.6863401e-38 339 336
0.022653066 0.64600003 -0.10873472 1.6771201e-38 340 336
0.023785722 0.64600003 -0.10873472 1.658717e-38 341 336
0.024918374 0.64600003 -0.10873472 1.649534e-38 342 336
0.026051028 0.64600003 -0.10873472 1.6403144e-38 343 336
0.02718368 0.64600003 -0.10873472 1.6309877e-38 344 336
0.028316336 0.64600003 -0.10873472 1.6217681e-38 345 336
0.029448988 0.64600003 -0.10873472 1.594218e-38 346 336
0.030581642 0.64600003 -0.10873472 1.5758148e-38 347 336
0.031714294 0.64600003 -0.10873472 1.5665602e-38 348 336
0.032846946 0.64600003 -0.10873472 1.5665602e-38 349 336
0.033979602 0.64600003 -0.10873472 1.5573406e-38 350 336
0.035112254 0.64600003 -0.10873472 1.5388656e-38 351 336
0.036301013 0.64700001 -0.10890304 1.5113148e-38 352 336
0.03743542 0.64700001 -0.10890304 1.5020953e-38 353 336
0.038569827 0.64700001 -0.10890304 1.4929103e-38 354 336
0.0397656 0.648 -0.10907136 1.4652876e-38 355 336
0.040901758 0.648 -0.10907136 1.45614e-38 356 336
0.042037919 0.648 -0.10907136 1.4469204e-38 357 336
0.043174081 0.648 -0.10907136 1.428482e-38 358 336
0.044378616 0.64899999 -0.10923968 1.4100068e-38 359 336
0.045516532 0.64899999 -0.10923968 1.4008229e-38 360 336
0.046654444 0.64899999 -0.10923968 1.4008229e-38 361 336
0.047792356 0.64899999 -0.10923968 1.391603e-38 362 336
0.048930272 0.64899999 -0.10923968 1.3823835e-38 363 336
0.050068185 0.64899999 -0.10923968 1.3823116e-38 364 336
0.051206097 0.64899999 -0.10923968 1.3823116e-38 365 336
0.052344013 0.64899999 -0.10923968 1.3547248e-38 366 336
0.053564329 0.64999998 -0.10940799 1.3455052e-38 367 336
0.054703996 0.64999998 -0.10940799 1.3087343e-38 368 336
0.055843662 0.64999998 -0.10940799 1.2995147e-38 369 336
0.057158668 0.65200001 -0.10974464 1.2902952e-38 370 336
0.058301836 0.65200001 -0.10974464 1.2626724e-38 371 336
0.059445009 0.65200001 -0.10974464 1.2625291e-38 372 336
0.060588185 0.65200001 -0.10974464 1.2349065e-38 373 336
0.061731357 0.65200001 -0.10974464 1.2071764e-38 374 336
0.062970966 0.653 -0.10991295 1.1703342e-38 375 336
0.064214081 0.65399998 -0.11008127 1.1243802e-38 376 336
0.065360755 0.65399998 -0.11008127 1.1243802e-38 377 336
0.066609129 0.65499997 -0.11024959 1.1243804e-38 378 336
0.067757562 0.65499997 -0.11024959 1.1336002e-38 379 336
0.069116399 0.65700001 -0.11058623 1.1426764e-38 380 336
0.07026834 0.65700001 -0.11058623 1.1518961e-38 381 336
0.071528979 0.65799999 -0.11075456 1.1427847e-38 382 336
0.072682679 0.65799999 -0.11075456 1.1427847e-38 383 336
0.074173011 0.66100001 -0.11125952 1.142821e-38 384 336
0.075445928 0.662 -0.11142784 1.142821e-38 385 336
0.076606639 0.662 -0.11142784 1.1428215e-38 386 336
0.077767342 0.662 -0.11142784 1.115163e-38 387 336
0.079166502 0.66399997 -0.11176447 1.0873988e-38 388 336
-0.02101896 0.66600001 -0.11326883 1.6494341e-38 302 337
-0.019732011 0.662 -0.11258854 1.3452245e-38 303 337
-0.018459093 0.65799999 -0.11190825 1.1431812e-38 304 337
-0.0172791 0.65700001 -0.11173818 1.1708039e-38 305 337
-0.016078066 0.65499997 -0.11139803 1.1528314e-38 306 337
-0.014929632 0.65499997 -0.11139803 1.1805261e-38 307 337
-0.013760159 0.65399998 -0.11122796 1.2450628e-38 308 337
-0.012613479 0.65399998 -0.11122796 1.3095997e-38 309 337
-0.011449266 0.653 -0.11105788 1.4199101e-38 310 337
-0.010304339 0.653 -0.11105788 1.4567883e-38 311 337
-0.0091453865 0.65200001 -0.11088781 1.5486596e-38 312 337
-0.0080022132 0.65200001 -0.11088781 1.5670988e-38 313 337
-0.0068379994 0.64999998 -0.11054766 1.6038695e-38 314 337
-0.005698333 0.64999998 -0.11054766 1.6038695e-38 315 337
-0.0045586661 0.64999998 -0.11054766 1.6038697e-38 316 337
-0.0034189997 0.64999998 -0.11054766 1.6130893e-38 317 337
-0.0022758266 0.64899999 -0.11037759 1.6497881e-38 318 337
-0.0011379133 0.64899999 -0.11037759 1.668227e-38 319 337
0 0.648 -0.11020751 1.6957787e-38 320 337
0.00113616 0.648 -0.11020751 1.7141818e-38 321 337
0.00227232 0.648 -0.11020751 1.7416966e-38 322 337
0.00340848 0.648 -0.11020751 1.732477e-38 323 337
0.0045376266 0.64700001 -0.11003745 1.7048903e-38 324 337
0.0056720334 0.64700001 -0.11003745 1.6956708e-38 325 337
0.0068064397 0.64700001 -0.11003745 1.6681919e-38 326 337
0.0079408465 0.64700001 -0.11003745 1.6497886e-38 327 337
0.0090612266 0.64600003 -0.10986737 1.6681915e-38 328 337
0.01019388 0.64600003 -0.10986737 1.6497883e-38 329 337
0.011326533 0.64600003 -0.10986737 1.6589e-38 330 337
0.012459187 0.64600003 -0.10986737 1.6496804e-38 331 337
0.01359184 0.64600003 -0.10986737 1.6495732e-38 332 337
0.014724494 0.64600003 -0.10986737 1.6587928e-38 333 337
0.015857147 0.64600003 -0.10986737 1.6403537e-38 334 337
0.016989801 0.64600003 -0.10986737 1.6311341e-38 335 337
0.018122453 0.64600003 -0.10986737 1.6494984e-38 336 337
0.019255107 0.64600003 -0.10986737 1.6218757e-38 337 337
0.02032464 0.64399999 -0.10952722 1.6585735e-38 338 337
0.021453787 0.64399999 -0.10952722 1.6585735e-38 339 337
0.022582933 0.64399999 -0.10952722 1.612693e-38 340 337
0.023785722 0.64600003 -0.10986737 1.5758148e-38 341 337
0.024918374 0.64600003 -0.10986737 1.5758151e-38 342 337
0.026051028 0.64600003 -0.10986737 1.5665955e-38 343 337
0.02718368 0.64600003 -0.10986737 1.5573759e-38 344 337
0.028316336 0.64600003 -0.10986737 1.5573759e-38 345 337
0.029448988 0.64600003 -0.10986737 1.5572684e-38 346 337
0.030581642 0.64600003 -0.10986737 1.5480489e-38 347 337
0.031714294 0.64600003 -0.10986737 1.4929106e-38 348 337
0.032846946 0.64600003 -0.10986737 1.5021302e-38 349 337
0.033979602 0.64600003 -0.10986737 1.4929109e-38 350 337
0.035112254 0.64600003 -0.10986737 1.4744719e-38 351 337
0.036244906 0.64600003 -0.10986737 1.4652526e-38 352 337
0.03743542 0.64700001 -0.11003745 1.456033e-38 353 337
0.038569827 0.64700001 -0.11003745 1.4285173e-38 354 337
0.039704233 0.64700001 -0.11003745 1.4192617e-38 355 337
0.04083864 0.64700001 -0.11003745 1.410114e-38 356 337
0.041973047 0.64700001 -0.11003745 1.3824914e-38 357 337
0.043174081 0.648 -0.11020751 1.400751e-38 358 337
0.044310238 0.648 -0.11020751 1.400751e-38 359 337
0.0454464 0.648 -0.11020751 1.3823835e-38 360 337
0.046582561 0.648 -0.11020751 1.3639803e-38 361 337
0.047718719 0.648 -0.11020751 1.3639803e-38 362 337
