# .PCD v.7 - Point Cloud Data file format
FIELDS x y z rgb imX imY
SIZE 4 4 4 4 4 4
TYPE F F F F F F
COUNT 1 1 1 1 1 1
WIDTH 831
HEIGHT 1
VIEWPOINT 0 0 0 1 0 0 0
POINTS 831
DATA ascii
-0.0044745067 0.63800001 -0.054812707 1.5942166e-38 316 289
-0.0033663998 0.63999999 -0.054984529 1.5849971e-38 317 289
-0.0022442664 0.63999999 -0.054984529 1.5666656e-38 318 289
-0.0011221332 0.63999999 -0.054984529 1.557446e-38 319 289
0 0.64099997 -0.055070441 1.5298949e-38 320 289
0.00112564 0.64200002 -0.055156358 1.5298949e-38 321 289
0.00225128 0.64200002 -0.055156358 1.5206751e-38 322 289
0.00337692 0.64200002 -0.055156358 1.5206751e-38 323 289
0.0045095733 0.64300001 -0.05524227 1.4839766e-38 324 289
0.0056369668 0.64300001 -0.05524227 1.4839766e-38 325 289
0.0067643598 0.64300001 -0.05524227 1.4747564e-38 326 289
0.0078917528 0.64300001 -0.05524227 1.4471337e-38 327 289
0.0090331733 0.64399999 -0.055328183 1.4194743e-38 328 289
0.01016232 0.64399999 -0.055328183 1.4102547e-38 329 289
0.011291467 0.64399999 -0.055328183 1.4101828e-38 330 289
0.012420613 0.64399999 -0.055328183 1.3917437e-38 331 289
0.01359184 0.64600003 -0.055500012 1.3731967e-38 332 289
0.014724494 0.64600003 -0.055500012 1.3731967e-38 333 289
0.015881693 0.64700001 -0.055585928 1.336391e-38 334 289
0.0170424 0.648 -0.055671841 1.3271715e-38 335 289
0.01817856 0.648 -0.055671841 1.2719637e-38 336 289
0.019314719 0.648 -0.055671841 1.2719637e-38 337 289
0.02048244 0.64899999 -0.05575775 1.2627093e-38 338 289
0.021620352 0.64899999 -0.05575775 1.2534538e-38 339 289
0.022793332 0.64999998 -0.055843662 1.2351579e-38 340 289
0.024006641 0.65200001 -0.056015491 1.2351579e-38 341 289
0.025226958 0.65399998 -0.056187313 1.2168982e-38 342 289
0.02637364 0.65399998 -0.056187313 1.2168982e-38 343 289
0.027562398 0.65499997 -0.056273226 1.2168636e-38 344 289
0.028710833 0.65499997 -0.056273226 1.2168636e-38 345 289
0.029996024 0.65799999 -0.056530971 1.2168283e-38 346 289
0.031197058 0.65899998 -0.056616884 1.2168283e-38 347 289
0.032450691 0.66100001 -0.056788713 1.2443791e-38 348 289
0.033609647 0.66100001 -0.056788713 1.2535987e-38 349 289
0.034821201 0.662 -0.056874625 1.2629257e-38 350 289
0.036036257 0.66299999 -0.056960538 1.2629257e-38 351 289
0.037254825 0.66399997 -0.057046451 1.2538143e-38 352 289
0.03853476 0.66600001 -0.057218276 1.2722176e-38 353 289
0.039702479 0.66600001 -0.057218276 1.2538157e-38 354 289
0.040870197 0.66600001 -0.057218276 1.226121e-38 355 289
0.042037919 0.66600001 -0.057218276 1.1524038e-38 356 289
0.043205637 0.66600001 -0.057218276 1.1063418e-38 357 289
-0.041259438 0.63599998 -0.055755995 1.7606103e-38 283 290
-0.040144317 0.63599998 -0.055755995 1.7695367e-38 284 290
-0.039029196 0.63599998 -0.055755995 1.6957802e-38 285 290
-0.037914075 0.63599998 -0.055755995 1.7785007e-38 286 290
-0.036856819 0.63700002 -0.055843666 1.8153789e-38 287 290
-0.035739947 0.63700002 -0.055843666 1.797082e-38 288 290
-0.034623075 0.63700002 -0.055843666 1.797082e-38 289 290
-0.033453599 0.63599998 -0.055755995 1.8154839e-38 290 290
-0.032338478 0.63599998 -0.055755995 1.8154839e-38 291 290
-0.031223357 0.63599998 -0.055755995 1.8247036e-38 292 290
-0.03015558 0.63700002 -0.055843666 1.8247036e-38 293 290
-0.029038707 0.63700002 -0.055843666 1.8247036e-38 294 290
-0.027921833 0.63700002 -0.055843666 1.8062643e-38 295 290
-0.026804959 0.63700002 -0.055843666 1.8337432e-38 296 290
-0.025688088 0.63700002 -0.055843666 1.8245237e-38 297 290
-0.024532638 0.63599998 -0.055755995 1.7694581e-38 298 290
-0.023417519 0.63599998 -0.055755995 1.751055e-38 299 290
-0.022302398 0.63599998 -0.055755995 1.7418352e-38 300 290
-0.021187279 0.63599998 -0.055755995 1.7141763e-38 301 290
-0.020072158 0.63599998 -0.055755995 1.7048849e-38 302 290
-0.018957037 0.63599998 -0.055755995 1.6864456e-38 303 290
-0.017841918 0.63599998 -0.055755995 1.6496391e-38 304 290
-0.016726799 0.63599998 -0.055755995 1.6404195e-38 305 290
-0.015611678 0.63599998 -0.055755995 1.6403479e-38 306 290
-0.014496559 0.63599998 -0.055755995 1.6219087e-38 307 290
-0.013381439 0.63599998 -0.055755995 1.5667356e-38 308 290
-0.012285607 0.63700002 -0.055843666 1.5482965e-38 309 290
-0.011168733 0.63700002 -0.055843666 1.5574807e-38 310 290
-0.01005186 0.63700002 -0.055843666 1.5667362e-38 311 290
-0.0089349868 0.63700002 -0.055843666 1.5484062e-38 312 290
-0.0078181131 0.63700002 -0.055843666 1.5391867e-38 313 290
-0.0067012399 0.63700002 -0.055843666 1.5575182e-38 314 290
-0.0055843666 0.63700002 -0.055843666 1.5390792e-38 315 290
-0.0044674934 0.63700002 -0.055843666 1.5482264e-38 316 290
-0.00335588 0.63800001 -0.055931333 1.5390069e-38 317 290
-0.0022372534 0.63800001 -0.055931333 1.5297514e-38 318 290
-0.0011186267 0.63800001 -0.055931333 1.5297514e-38 319 290
0 0.63999999 -0.056106664 1.5114555e-38 320 290
0.0011238866 0.64099997 -0.056194331 1.5114555e-38 321 290
0.0022477731 0.64099997 -0.056194331 1.5021992e-38 322 290
0.00337692 0.64200002 -0.056282002 1.4929797e-38 323 290
0.00450256 0.64200002 -0.056282002 1.4471337e-38 324 290
0.0056369668 0.64300001 -0.056369666 1.4379141e-38 325 290
0.0067643598 0.64300001 -0.056369666 1.4285141e-38 326 290
0.0078917528 0.64300001 -0.056369666 1.410111e-38 327 290
0.0090191467 0.64300001 -0.056369666 1.3641203e-38 328 290
0.01016232 0.64399999 -0.056457333 1.3456812e-38 329 290
0.011291467 0.64399999 -0.056457333 1.3088755e-38 330 290
0.012420613 0.64399999 -0.056457333 1.2904005e-38 331 290
0.01359184 0.64600003 -0.056632672 1.262744e-38 332 290
0.014724494 0.64600003 -0.056632672 1.2719637e-38 333 290
0.015881693 0.64700001 -0.056720335 1.2351225e-38 334 290
0.0170424 0.648 -0.056808002 1.2443422e-38 335 290
0.01817856 0.648 -0.056808002 1.2259751e-38 336 290
0.019314719 0.648 -0.056808002 1.2259751e-38 337 290
0.02048244 0.64899999 -0.056895666 1.2258677e-38 338 290
0.021620352 0.64899999 -0.056895666 1.2258677e-38 339 290
0.022793332 0.64999998 -0.056983333 1.2167553e-38 340 290
0.024006641 0.65200001 -0.057158668 1.2167553e-38 341 290
0.025226958 0.65399998 -0.057333998 1.2260102e-38 342 290
0.02637364 0.65399998 -0.057333998 1.2352297e-38 343 290
0.027562398 0.65499997 -0.057421666 1.2259751e-38 344 290
0.028798498 0.65700001 -0.057596996 1.2351949e-38 345 290
0.02995044 0.65700001 -0.057596996 1.2167927e-38 346 290
0.031149717 0.65799999 -0.057684667 1.2167927e-38 347 290
0.032352503 0.65899998 -0.057772331 1.2443438e-38 348 290
0.033507951 0.65899998 -0.057772331 1.2535992e-38 349 290
0.034821201 0.662 -0.058035329 1.2444513e-38 350 290
0.036036257 0.66299999 -0.058122993 1.2536708e-38 351 290
0.037254825 0.66399997 -0.05821066 1.2536708e-38 352 290
0.038419038 0.66399997 -0.05821066 1.2536708e-38 353 290
0.039583251 0.66399997 -0.05821066 1.2076826e-38 354 290
0.040747464 0.66399997 -0.05821066 1.1708042e-38 355 290
0.042037919 0.66600001 -0.058385998 1.0512059e-38 356 290
-0.042374559 0.63599998 -0.056871112 1.7878332e-38 282 291
-0.041259438 0.63599998 -0.056871112 1.7602105e-38 283 291
-0.040144317 0.63599998 -0.056871112 1.7694612e-38 284 291
-0.039029196 0.63599998 -0.056871112 1.7509862e-38 285 291
-0.037914075 0.63599998 -0.056871112 1.7786063e-38 286 291
-0.036798958 0.63599998 -0.056871112 1.8154486e-38 287 291
-0.035739947 0.63700002 -0.056960538 1.8246319e-38 288 291
-0.034623075 0.63700002 -0.056960538 1.8246319e-38 289 291
-0.033453599 0.63599998 -0.056871112 1.8429628e-38 290 291
-0.032338478 0.63599998 -0.056871112 1.8337432e-38 291 291
-0.031223357 0.63599998 -0.056871112 1.8246316e-38 292 291
-0.030108238 0.63599998 -0.056871112 1.8061924e-38 293 291
-0.028993119 0.63599998 -0.056871112 1.8061927e-38 294 291
-0.027877998 0.63599998 -0.056871112 1.7877177e-38 295 291
-0.026762879 0.63599998 -0.056871112 1.7509116e-38 296 291
-0.025647758 0.63599998 -0.056871112 1.7416921e-38 297 291
-0.024532638 0.63599998 -0.056871112 1.668259e-38 298 291
-0.023417519 0.63599998 -0.056871112 1.6405643e-38 299 291
-0.022302398 0.63599998 -0.056871112 1.6405277e-38 300 291
-0.021187279 0.63599998 -0.056871112 1.6128332e-38 301 291
-0.0200406 0.63499999 -0.056781694 1.6310561e-38 302 291
-0.018927233 0.63499999 -0.056781694 1.6126169e-38 303 291
-0.017841918 0.63599998 -0.056871112 1.5574792e-38 304 291
-0.016726799 0.63599998 -0.056871112 1.5574792e-38 305 291
-0.015611678 0.63599998 -0.056871112 1.5483318e-38 306 291
-0.014496559 0.63599998 -0.056871112 1.5298925e-38 307 291
-0.013381439 0.63599998 -0.056871112 1.5113103e-38 308 291
-0.012266319 0.63599998 -0.056871112 1.5205658e-38 309 291
-0.011151199 0.63599998 -0.056871112 1.5298219e-38 310 291
-0.010036079 0.63599998 -0.056871112 1.5298219e-38 311 291
-0.0089209592 0.63599998 -0.056871112 1.5206754e-38 312 291
-0.0078181131 0.63700002 -0.056960538 1.5206754e-38 313 291
-0.0067012399 0.63700002 -0.056960538 1.5114558e-38 314 291
-0.0055843666 0.63700002 -0.056960538 1.5114558e-38 315 291
-0.0044674934 0.63700002 -0.056960538 1.5113835e-38 316 291
-0.0033506199 0.63700002 -0.056960538 1.5021639e-38 317 291
-0.0022372534 0.63800001 -0.05704996 1.5113109e-38 318 291
-0.0011186267 0.63800001 -0.05704996 1.4836524e-38 319 291
0 0.63800001 -0.05704996 1.46532e-38 320 291
0.0011221332 0.63999999 -0.057228796 1.4469169e-38 321 291
0.0022477731 0.64099997 -0.057318214 1.4560288e-38 322 291
0.0033716597 0.64099997 -0.057318214 1.4560288e-38 323 291
0.0044955462 0.64099997 -0.057318214 1.419186e-38 324 291
0.0056281998 0.64200002 -0.05740764 1.3822718e-38 325 291
0.00675384 0.64200002 -0.05740764 1.3639403e-38 326 291
0.0078917528 0.64300001 -0.057497058 1.3455011e-38 327 291
0.0090191467 0.64300001 -0.057497058 1.3179146e-38 328 291
0.01014654 0.64300001 -0.057497058 1.2718528e-38 329 291
0.011291467 0.64399999 -0.057586476 1.2167522e-38 330 291
0.012420613 0.64399999 -0.057586476 1.2351553e-38 331 291
0.01359184 0.64600003 -0.057765324 1.2534175e-38 332 291
0.014724494 0.64600003 -0.057765324 1.2534175e-38 333 291
0.015881693 0.64700001 -0.057854742 1.2441992e-38 334 291
0.0170424 0.648 -0.05794416 1.2441992e-38 335 291
0.01817856 0.648 -0.05794416 1.21672e-38 336 291
0.019344525 0.64899999 -0.058033578 1.1983169e-38 337 291
0.02048244 0.64899999 -0.058033578 1.21672e-38 338 291
0.021653665 0.64999998 -0.058122993 1.21672e-38 339 291
0.022863466 0.65200001 -0.058301836 1.2259027e-38 340 291
0.024043459 0.653 -0.058391262 1.2259027e-38 341 291
0.025226958 0.65399998 -0.05848068 1.2259383e-38 342 291
0.02637364 0.65399998 -0.05848068 1.2351579e-38 343 291
0.027562398 0.65499997 -0.058570094 1.2259751e-38 344 291
0.028798498 0.65700001 -0.058748938 1.2259751e-38 345 291
0.02995044 0.65700001 -0.058748938 1.2351242e-38 346 291
0.031149717 0.65799999 -0.058838356 1.2351242e-38 347 291
0.032352503 0.65899998 -0.058927774 1.2351245e-38 348 291
0.033507951 0.65899998 -0.058927774 1.2443441e-38 349 291
0.034821201 0.662 -0.05919604 1.2444513e-38 350 291
0.036036257 0.66299999 -0.059285458 1.2536708e-38 351 291
0.037254825 0.66399997 -0.059374876 1.226121e-38 352 291
0.038419038 0.66399997 -0.059374876 1.1615841e-38 353 291
0.039583251 0.66399997 -0.059374876 1.0879024e-38 354 291
0.040747464 0.66399997 -0.059374876 1.0510242e-38 355 291
-0.047203235 0.64099997 -0.058442101 1.8712826e-38 278 292
-0.046079349 0.64099997 -0.058442101 1.8159652e-38 279 292
-0.044955466 0.64099997 -0.058442101 1.7513141e-38 280 292
-0.043763198 0.63999999 -0.058350928 1.6591543e-38 281 292
-0.042441189 0.63700002 -0.058077414 1.7232537e-38 282 292
-0.041259438 0.63599998 -0.057986237 1.778571e-38 283 292
-0.040144317 0.63599998 -0.057986237 1.806229e-38 284 292
-0.039029196 0.63599998 -0.057986237 1.806229e-38 285 292
-0.037914075 0.63599998 -0.057986237 1.8062293e-38 286 292
-0.036798958 0.63599998 -0.057986237 1.8062293e-38 287 292
-0.035683837 0.63599998 -0.057986237 1.8062293e-38 288 292
-0.03456872 0.63599998 -0.057986237 1.8062293e-38 289 292
-0.033400998 0.63499999 -0.057895064 1.8153767e-38 290 292
-0.032287631 0.63499999 -0.057895064 1.8061571e-38 291 292
-0.031174263 0.63499999 -0.057895064 1.796901e-38 292 292
-0.0300609 0.63499999 -0.057895064 1.7876814e-38 293 292
-0.028993119 0.63599998 -0.057986237 1.7508398e-38 294 292
-0.027877998 0.63599998 -0.057986237 1.7324006e-38 295 292
-0.026762879 0.63599998 -0.057986237 1.6864833e-38 296 292
-0.025647758 0.63599998 -0.057986237 1.6680082e-38 297 292
-0.024494065 0.63499999 -0.057895064 1.5945391e-38 298 292
-0.023380699 0.63499999 -0.057895064 1.5760641e-38 299 292
-0.022267332 0.63499999 -0.057895064 1.5668081e-38 300 292
-0.021153966 0.63499999 -0.057895064 1.52993e-38 301 292
-0.0200406 0.63499999 -0.057895064 1.5390052e-38 302 292
-0.018927233 0.63499999 -0.057895064 1.5297497e-38 303 292
-0.017813865 0.63499999 -0.057895064 1.4837242e-38 304 292
-0.016700499 0.63499999 -0.057895064 1.4837242e-38 305 292
-0.015611678 0.63599998 -0.057986237 1.4746476e-38 306 292
-0.014496559 0.63599998 -0.057986237 1.4562085e-38 307 292
-0.013381439 0.63599998 -0.057986237 1.4562456e-38 308 292
-0.012247032 0.63499999 -0.057895064 1.4654652e-38 309 292
-0.011133666 0.63499999 -0.057895064 1.4654299e-38 310 292
-0.010036079 0.63599998 -0.057986237 1.4562103e-38 311 292
-0.0089209592 0.63599998 -0.057986237 1.4746479e-38 312 292
-0.0078058392 0.63599998 -0.057986237 1.4746479e-38 313 292
-0.0066907196 0.63599998 -0.057986237 1.4745775e-38 314 292
-0.0055755996 0.63599998 -0.057986237 1.465358e-38 315 292
-0.0044604796 0.63599998 -0.057986237 1.4653933e-38 316 292
-0.0033506199 0.63700002 -0.058077414 1.4469183e-38 317 292
-0.0022337467 0.63700002 -0.058077414 1.4560636e-38 318 292
-0.0011168733 0.63700002 -0.058077414 1.446844e-38 319 292
0 0.63700002 -0.058077414 1.4376245e-38 320 292
0.0011221332 0.63999999 -0.058350928 1.4100016e-38 321 292
0.0022442664 0.63999999 -0.058350928 1.4007462e-38 322 292
0.0033716597 0.64099997 -0.058442101 1.3730875e-38 323 292
0.0044955462 0.64099997 -0.058442101 1.3454997e-38 324 292
0.0056194332 0.64099997 -0.058442101 1.3362802e-38 325 292
0.00675384 0.64200002 -0.058533281 1.3362465e-38 326 292
0.0078794798 0.64200002 -0.058533281 1.3178433e-38 327 292
0.00900512 0.64200002 -0.058533281 1.262637e-38 328 292
0.01014654 0.64300001 -0.058624454 1.2349783e-38 329 292
0.011291467 0.64399999 -0.058715623 1.2074283e-38 330 292
0.012420613 0.64399999 -0.058715623 1.2074283e-38 331 292
0.01359184 0.64600003 -0.058897976 1.2165765e-38 332 292
0.014724494 0.64600003 -0.058897976 1.2165765e-38 333 292
0.015881693 0.64700001 -0.058989145 1.2165409e-38 334 292
0.0170424 0.648 -0.059080318 1.2165409e-38 335 292
0.01817856 0.648 -0.059080318 1.1890617e-38 336 292
0.019344525 0.64899999 -0.059171494 1.1983172e-38 337 292
0.020513998 0.64999998 -0.059262663 1.2167556e-38 338 292
0.021653665 0.64999998 -0.059262663 1.2167556e-38 339 292
0.022863466 0.65200001 -0.059445009 1.2167906e-38 340 292
0.024043459 0.653 -0.059536185 1.1983875e-38 341 292
0.025226958 0.65399998 -0.059627358 1.2167553e-38 342 292
0.02637364 0.65399998 -0.059627358 1.2167553e-38 343 292
0.027562398 0.65499997 -0.059718527 1.198389e-38 344 292
0.028710833 0.65499997 -0.059718527 1.2076086e-38 345 292
0.029859263 0.65499997 -0.059718527 1.207538e-38 346 292
0.031149717 0.65799999 -0.059992049 1.2167577e-38 347 292
0.032352503 0.65899998 -0.060083222 1.2076103e-38 348 292
0.033507951 0.65899998 -0.060083222 1.2076103e-38 349 292
0.0347686 0.66100001 -0.060265575 1.1984983e-38 350 292
0.036036257 0.66299999 -0.060447913 1.2077179e-38 351 292
0.037254825 0.66399997 -0.060539093 1.1708422e-38 352 292
0.038419038 0.66399997 -0.060539093 1.1247084e-38 353 292
0.039583251 0.66399997 -0.060539093 1.0602109e-38 354 292
-0.048025552 0.63700002 -0.059194289 1.7699393e-38 277 293
-0.04690868 0.63700002 -0.059194289 1.79709e-38 278 293
-0.045791805 0.63700002 -0.059194289 1.7509922e-38 279 293
-0.044674933 0.63700002 -0.059194289 1.7234004e-38 280 293
-0.043489676 0.63599998 -0.059101358 1.751023e-38 281 293
-0.042374559 0.63599998 -0.059101358 1.7786063e-38 282 293
-0.041259438 0.63599998 -0.059101358 1.7878259e-38 283 293
-0.040081199 0.63499999 -0.059008431 1.7878612e-38 284 293
-0.038967833 0.63499999 -0.059008431 1.7878612e-38 285 293
-0.037854467 0.63499999 -0.059008431 1.7878256e-38 286 293
-0.036683239 0.634 -0.058915507 1.7786061e-38 287 293
-0.035571627 0.634 -0.058915507 1.7969729e-38 288 293
-0.034460012 0.634 -0.058915507 1.7969729e-38 289 293
-0.0333484 0.634 -0.058915507 1.7692053e-38 290 293
-0.032236785 0.634 -0.058915507 1.7507303e-38 291 293
-0.031125173 0.634 -0.058915507 1.70474e-38 292 293
-0.030013559 0.634 -0.058915507 1.6586423e-38 293 293
-0.028947532 0.63499999 -0.059008431 1.6126522e-38 294 293
-0.027834166 0.63499999 -0.059008431 1.5849577e-38 295 293
-0.0267208 0.63499999 -0.059008431 1.5664109e-38 296 293
-0.025607431 0.63499999 -0.059008431 1.5664109e-38 297 293
-0.024494065 0.63499999 -0.059008431 1.4654636e-38 298 293
-0.023380699 0.63499999 -0.059008431 1.4469885e-38 299 293
-0.022267332 0.63499999 -0.059008431 1.4377692e-38 300 293
-0.021153966 0.63499999 -0.059008431 1.4101465e-38 301 293
-0.0200406 0.63499999 -0.059008431 1.4284425e-38 302 293
-0.018927233 0.63499999 -0.059008431 1.4192229e-38 303 293
-0.017813865 0.63499999 -0.059008431 1.4007833e-38 304 293
-0.016700499 0.63499999 -0.059008431 1.4007833e-38 305 293
-0.015611678 0.63599998 -0.059101358 1.4007479e-38 306 293
-0.014496559 0.63599998 -0.059101358 1.4284425e-38 307 293
-0.0133604 0.63499999 -0.059008431 1.4466665e-38 308 293
-0.012247032 0.63499999 -0.059008431 1.4466665e-38 309 293
-0.011133666 0.63499999 -0.059008431 1.4284071e-38 310 293
-0.010036079 0.63599998 -0.059101358 1.409968e-38 311 293
-0.0089209592 0.63599998 -0.059101358 1.3641573e-38 312 293
-0.0078058392 0.63599998 -0.059101358 1.3641573e-38 313 293
-0.0066907196 0.63599998 -0.059101358 1.4192229e-38 314 293
-0.0055755996 0.63599998 -0.059101358 1.4100033e-38 315 293
-0.0044604796 0.63599998 -0.059101358 1.3914563e-38 316 293
-0.0033506199 0.63700002 -0.059194289 1.3546141e-38 317 293
-0.0022337467 0.63700002 -0.059194289 1.3362098e-38 318 293
-0.0011168733 0.63700002 -0.059194289 1.3085153e-38 319 293
0 0.63700002 -0.059194289 1.290184e-38 320 293
0.0011186267 0.63800001 -0.059287209 1.2809645e-38 321 293
0.0022442664 0.63999999 -0.05947306 1.2533061e-38 322 293
0.0033716597 0.64099997 -0.059565991 1.2717093e-38 323 293
0.0044955462 0.64099997 -0.059565991 1.2258639e-38 324 293
0.0056194332 0.64099997 -0.059565991 1.244303e-38 325 293
0.00675384 0.64200002 -0.059658919 1.2901506e-38 326 293
0.0078794798 0.64200002 -0.059658919 1.2717474e-38 327 293
0.00900512 0.64200002 -0.059658919 1.2349783e-38 328 293
0.01014654 0.64300001 -0.059751842 1.2349783e-38 329 293
0.011291467 0.64399999 -0.05984477 1.1981718e-38 330 293
0.012459187 0.64600003 -0.060030628 1.2074273e-38 331 293
0.01359184 0.64600003 -0.060030628 1.1981718e-38 332 293
0.014747286 0.64700001 -0.060123552 1.2074273e-38 333 293
0.015881693 0.64700001 -0.060123552 1.2074639e-38 334 293
0.0170424 0.648 -0.060216483 1.2074639e-38 335 293
0.01817856 0.648 -0.060216483 1.1891326e-38 336 293
0.019344525 0.64899999 -0.060309403 1.1983522e-38 337 293
0.020513998 0.64999998 -0.060402326 1.216755e-38 338 293
0.021653665 0.64999998 -0.060402326 1.216755e-38 339 293
0.022863466 0.65200001 -0.060588185 1.1984241e-38 340 293
0.024043459 0.653 -0.060681112 1.1984241e-38 341 293
0.025226958 0.65399998 -0.060774036 1.2167556e-38 342 293
0.02637364 0.65399998 -0.060774036 1.2167556e-38 343 293
0.027562398 0.65499997 -0.060866963 1.2166481e-38 344 293
0.028710833 0.65499997 -0.060866963 1.2258677e-38 345 293
0.029859263 0.65499997 -0.060866963 1.2258326e-38 346 293
0.031197058 0.65899998 -0.061238669 1.2350522e-38 347 293
0.032352503 0.65899998 -0.061238669 1.2167577e-38 348 293
0.033507951 0.65899998 -0.061238669 1.2167577e-38 349 293
0.0347686 0.66100001 -0.061424527 1.1799168e-38 350 293
-0.049142428 0.63700002 -0.060311161 1.8341853e-38 276 294
-0.048025552 0.63700002 -0.060311161 1.7419538e-38 277 294
-0.04690868 0.63700002 -0.060311161 1.7141805e-38 278 294
-0.045791805 0.63700002 -0.060311161 1.6957413e-38 279 294
-0.044604797 0.63599998 -0.060216475 1.7509472e-38 280 294
-0.043489676 0.63599998 -0.060216475 1.7693865e-38 281 294
-0.042374559 0.63599998 -0.060216475 1.7786063e-38 282 294
-0.041194562 0.63499999 -0.060121801 1.7878259e-38 283 294
-0.040081199 0.63499999 -0.060121801 1.7785708e-38 284 294
-0.038906466 0.634 -0.060027119 1.7785708e-38 285 294
-0.037794851 0.634 -0.060027119 1.7510202e-38 286 294
-0.036683239 0.634 -0.060027119 1.7418007e-38 287 294
-0.035571627 0.634 -0.060027119 1.7417277e-38 288 294
-0.034351308 0.63200003 -0.059837762 1.7048496e-38 289 294
-0.033243202 0.63200003 -0.059837762 1.70474e-38 290 294
-0.032135095 0.63200003 -0.059837762 1.6771173e-38 291 294
-0.031026987 0.63200003 -0.059837762 1.6310914e-38 292 294
-0.029918881 0.63200003 -0.059837762 1.5941772e-38 293 294
-0.028901944 0.634 -0.060027119 1.5482602e-38 294 294
-0.027790332 0.634 -0.060027119 1.5113459e-38 295 294
-0.026678719 0.634 -0.060027119 1.474468e-38 296 294
-0.025486453 0.63200003 -0.059837762 1.4560288e-38 297 294
-0.024378346 0.63200003 -0.059837762 1.3918516e-38 298 294
-0.02334388 0.634 -0.060027119 1.3734125e-38 299 294
-0.022232266 0.634 -0.060027119 1.3824532e-38 300 294
-0.021153966 0.63499999 -0.060121801 1.3640501e-38 301 294
-0.020009039 0.634 -0.060027119 1.3547971e-38 302 294
-0.018897425 0.634 -0.060027119 1.3547971e-38 303 294
-0.017813865 0.63499999 -0.060121801 1.3455072e-38 304 294
-0.016700499 0.63499999 -0.060121801 1.3455072e-38 305 294
-0.015587131 0.63499999 -0.060121801 1.3271034e-38 306 294
-0.014473766 0.63499999 -0.060121801 1.3271034e-38 307 294
-0.0133604 0.63499999 -0.060121801 1.3454699e-38 308 294
-0.012247032 0.63499999 -0.060121801 1.3547255e-38 309 294
-0.011133666 0.63499999 -0.060121801 1.3455419e-38 310 294
-0.0100203 0.63499999 -0.060121801 1.3455419e-38 311 294
-0.0089069325 0.63499999 -0.060121801 1.3272809e-38 312 294
-0.0078058392 0.63599998 -0.060216475 1.3088418e-38 313 294
-0.0066801999 0.63499999 -0.060121801 1.3270999e-38 314 294
-0.0055668331 0.63499999 -0.060121801 1.3178444e-38 315 294
-0.0044604796 0.63599998 -0.060216475 1.3085897e-38 316 294
-0.0033453598 0.63599998 -0.060216475 1.2993701e-38 317 294
-0.0022302398 0.63599998 -0.060216475 1.2900446e-38 318 294
-0.0011151199 0.63599998 -0.060216475 1.2900446e-38 319 294
0 0.63700002 -0.060311161 1.2623516e-38 320 294
0.0011168733 0.63700002 -0.060311161 1.2623516e-38 321 294
0.0022442664 0.63999999 -0.060595192 1.2532392e-38 322 294
0.0033716597 0.64099997 -0.060689874 1.2624588e-38 323 294
0.0044955462 0.64099997 -0.060689874 1.2166118e-38 324 294
0.0056194332 0.64099997 -0.060689874 1.2350149e-38 325 294
0.00675384 0.64200002 -0.060784556 1.2350149e-38 326 294
0.0078794798 0.64200002 -0.060784556 1.2166118e-38 327 294
0.00900512 0.64200002 -0.060784556 1.2166115e-38 328 294
0.01014654 0.64300001 -0.060879238 1.207392e-38 329 294
0.011291467 0.64399999 -0.06097392 1.1982793e-38 330 294
0.012420613 0.64399999 -0.06097392 1.1982793e-38 331 294
0.01359184 0.64600003 -0.061163284 1.1982437e-38 332 294
0.014747286 0.64700001 -0.061257958 1.2074992e-38 333 294
0.015906241 0.648 -0.06135264 1.2074639e-38 334 294
0.0170424 0.648 -0.06135264 1.2166834e-38 335 294
0.018206613 0.64899999 -0.061447315 1.1983522e-38 336 294
0.019374331 0.64999998 -0.061541997 1.2167553e-38 337 294
0.020513998 0.64999998 -0.061541997 1.2167556e-38 338 294
0.021720294 0.65200001 -0.061731357 1.2259751e-38 339 294
0.022898532 0.653 -0.061826039 1.21672e-38 340 294
0.024043459 0.653 -0.061826039 1.1983169e-38 341 294
0.025226958 0.65399998 -0.061920714 1.21672e-38 342 294
0.02637364 0.65399998 -0.061920714 1.1983169e-38 343 294
0.027520318 0.65399998 -0.061920714 1.1708027e-38 344 294
0.028666999 0.65399998 -0.061920714 1.1708027e-38 345 294
0.029813679 0.65399998 -0.061920714 1.1707676e-38 346 294
0.031197058 0.65899998 -0.062394116 1.1799872e-38 347 294
0.032352503 0.65899998 -0.062394116 1.1339632e-38 348 294
0.033609647 0.66100001 -0.062583476 1.1247437e-38 349 294
-0.0502593 0.63700002 -0.061428033 1.6960717e-38 275 295
-0.049142428 0.63700002 -0.061428033 1.7326565e-38 276 295
-0.048025552 0.63700002 -0.061428033 1.6773391e-38 277 295
-0.046835039 0.63599998 -0.061331596 1.7233623e-38 278 295
-0.045719914 0.63599998 -0.061331596 1.7418373e-38 279 295
-0.044604797 0.63599998 -0.061331596 1.7693515e-38 280 295
-0.043421298 0.63499999 -0.061235163 1.778571e-38 281 295
-0.042307932 0.63499999 -0.061235163 1.7693512e-38 282 295
-0.041194562 0.63499999 -0.061235163 1.7693512e-38 283 295
-0.040018078 0.634 -0.06113873 1.7601669e-38 284 295
-0.038906466 0.634 -0.06113873 1.7509472e-38 285 295
-0.037794851 0.634 -0.06113873 1.7509107e-38 286 295
-0.03656752 0.63200003 -0.060945868 1.7232161e-38 287 295
-0.035459414 0.63200003 -0.060945868 1.6679343e-38 288 295
-0.034351308 0.63200003 -0.060945868 1.6402758e-38 289 295
-0.033243202 0.63200003 -0.060945868 1.5942854e-38 290 295
-0.032084245 0.63099998 -0.060849428 1.5573712e-38 291 295
-0.030977892 0.63099998 -0.060849428 1.5113812e-38 292 295
-0.029918881 0.63200003 -0.060945868 1.4652834e-38 293 295
-0.028810775 0.63200003 -0.060945868 1.4468087e-38 294 295
-0.027702669 0.63200003 -0.060945868 1.4375892e-38 295 295
-0.026594561 0.63200003 -0.060945868 1.3825241e-38 296 295
-0.025486453 0.63200003 -0.060945868 1.3456459e-38 297 295
-0.024378346 0.63200003 -0.060945868 1.3088402e-38 298 295
-0.02327024 0.63200003 -0.060945868 1.2996207e-38 299 295
-0.022232266 0.634 -0.06113873 1.2812185e-38 300 295
-0.021120653 0.634 -0.06113873 1.2627793e-38 301 295
-0.020009039 0.634 -0.06113873 1.2994431e-38 302 295
-0.018897425 0.634 -0.06113873 1.2994431e-38 303 295
-0.017813865 0.63499999 -0.061235163 1.2993351e-38 304 295
-0.016700499 0.63499999 -0.061235163 1.2993351e-38 305 295
-0.015587131 0.63499999 -0.061235163 1.326849e-38 306 295
-0.014473766 0.63499999 -0.061235163 1.326849e-38 307 295
-0.0133604 0.63499999 -0.061235163 1.3085531e-38 308 295
-0.012247032 0.63499999 -0.061235163 1.3177727e-38 309 295
-0.011133666 0.63499999 -0.061235163 1.3086253e-38 310 295
-0.0100203 0.63499999 -0.061235163 1.3086253e-38 311 295
-0.0089069325 0.63499999 -0.061235163 1.2993701e-38 312 295
-0.0078058392 0.63599998 -0.061331596 1.2440527e-38 313 295
-0.0066801999 0.63499999 -0.061235163 1.2439809e-38 314 295
-0.0055668331 0.63499999 -0.061235163 1.2255417e-38 315 295
-0.0044604796 0.63599998 -0.061331596 1.2347981e-38 316 295
-0.0033453598 0.63599998 -0.061331596 1.2440178e-38 317 295
-0.0022302398 0.63599998 -0.061331596 1.2532021e-38 318 295
-0.0011151199 0.63599998 -0.061331596 1.2532021e-38 319 295
0 0.63599998 -0.061331596 1.2531658e-38 320 295
0.0011168733 0.63700002 -0.061428033 1.2531658e-38 321 295
0.0022442664 0.63999999 -0.061717331 1.2165389e-38 322 295
0.0033663998 0.63999999 -0.061717331 1.2257585e-38 323 295
0.0044955462 0.64099997 -0.061813761 1.2166466e-38 324 295
0.0056194332 0.64099997 -0.061813761 1.207427e-38 325 295
0.00675384 0.64200002 -0.061910201 1.2166468e-38 326 295
0.0078794798 0.64200002 -0.061910201 1.2166468e-38 327 295
0.00900512 0.64200002 -0.061910201 1.1981718e-38 328 295
0.01014654 0.64300001 -0.062006634 1.2074273e-38 329 295
0.011291467 0.64399999 -0.062103063 1.1982793e-38 330 295
0.012420613 0.64399999 -0.062103063 1.1982793e-38 331 295
0.01359184 0.64600003 -0.062295936 1.2074989e-38 332 295
0.014747286 0.64700001 -0.062392361 1.2074989e-38 333 295
0.015906241 0.648 -0.062488798 1.2074636e-38 334 295
0.0170424 0.648 -0.062488798 1.2166831e-38 335 295
0.018206613 0.64899999 -0.062585227 1.1983166e-38 336 295
0.019374331 0.64999998 -0.062681668 1.2167556e-38 337 295
0.020513998 0.64999998 -0.062681668 1.21672e-38 338 295
0.021720294 0.65200001 -0.062874533 1.21672e-38 339 295
0.022898532 0.653 -0.062970966 1.1983169e-38 340 295
0.024043459 0.653 -0.062970966 1.1983169e-38 341 295
0.025226958 0.65399998 -0.063067392 1.1890617e-38 342 295
0.02637364 0.65399998 -0.063067392 1.1890617e-38 343 295
0.027520318 0.65399998 -0.063067392 1.1615112e-38 344 295
0.028666999 0.65399998 -0.063067392 1.1799143e-38 345 295
0.029813679 0.65399998 -0.063067392 1.1615128e-38 346 295
0.030960357 0.65399998 -0.063067392 1.1522932e-38 347 295
-0.051376175 0.63700002 -0.062544905 1.6868108e-38 274 296
-0.0502593 0.63700002 -0.062544905 1.6314935e-38 275 296
-0.049065277 0.63599998 -0.062446713 1.6958098e-38 276 296
-0.047950156 0.63599998 -0.062446713 1.6865902e-38 277 296
-0.046835039 0.63599998 -0.062446713 1.7233606e-38 278 296
-0.045648031 0.63499999 -0.062348526 1.732616e-38 279 296
-0.044534665 0.63499999 -0.062348526 1.7600596e-38 280 296
-0.043352917 0.634 -0.062250346 1.7692793e-38 281 296
-0.042241305 0.634 -0.062250346 1.7601313e-38 282 296
-0.041129693 0.634 -0.062250346 1.7509116e-38 283 296
-0.039891839 0.63200003 -0.062053975 1.723324e-38 284 296
-0.038783733 0.63200003 -0.062053975 1.6956653e-38 285 296
-0.037675627 0.63200003 -0.062053975 1.695628e-38 286 296
-0.03656752 0.63200003 -0.062053975 1.6403108e-38 287 296
-0.035459414 0.63200003 -0.062053975 1.5942854e-38 288 296
-0.034351308 0.63200003 -0.062053975 1.5665909e-38 289 296
-0.033190601 0.63099998 -0.061955784 1.5297853e-38 290 296
-0.032084245 0.63099998 -0.061955784 1.4929072e-38 291 296
-0.030977892 0.63099998 -0.061955784 1.4376623e-38 292 296
-0.029871536 0.63099998 -0.061955784 1.4099677e-38 293 296
-0.028810775 0.63200003 -0.062053975 1.3731254e-38 294 296
-0.027658831 0.63099998 -0.061955784 1.3823449e-38 295 296
-0.026552478 0.63099998 -0.061955784 1.3363557e-38 296 296
-0.025486453 0.63200003 -0.062053975 1.3179166e-38 297 296
-0.024378346 0.63200003 -0.062053975 1.2811108e-38 298 296
-0.02327024 0.63200003 -0.062053975 1.2627077e-38 299 296
-0.022232266 0.634 -0.062250346 1.262637e-38 300 296
-0.021120653 0.634 -0.062250346 1.2441979e-38 301 296
-0.01994592 0.63200003 -0.062053975 1.234943e-38 302 296
-0.018837813 0.63200003 -0.062053975 1.234943e-38 303 296
-0.017785814 0.634 -0.062250346 1.2256879e-38 304 296
-0.0166742 0.634 -0.062250346 1.2349074e-38 305 296
-0.015587131 0.63499999 -0.062348526 1.2348709e-38 306 296
-0.014450972 0.634 -0.062250346 1.253274e-38 307 296
-0.013339359 0.634 -0.062250346 1.2533096e-38 308 296
-0.012227747 0.634 -0.062250346 1.2533096e-38 309 296
-0.011116133 0.634 -0.062250346 1.2533096e-38 310 296
-0.0100203 0.63499999 -0.062348526 1.2533096e-38 311 296
-0.0089069325 0.63499999 -0.062348526 1.2348712e-38 312 296
-0.0078058392 0.63599998 -0.062446713 1.2256516e-38 313 296
-0.0066907196 0.63599998 -0.062446713 1.2439828e-38 314 296
-0.0055755996 0.63599998 -0.062446713 1.2439828e-38 315 296
-0.0044604796 0.63599998 -0.062446713 1.2256516e-38 316 296
-0.0033453598 0.63599998 -0.062446713 1.2256516e-38 317 296
-0.0022302398 0.63599998 -0.062446713 1.216468e-38 318 296
-0.0011151199 0.63599998 -0.062446713 1.216468e-38 319 296
0 0.63599998 -0.062446713 1.1981001e-38 320 296
0.0011168733 0.63700002 -0.062544905 1.2165034e-38 321 296
0.0022372534 0.63800001 -0.062643096 1.1982073e-38 322 296
0.0033663998 0.63999999 -0.062839463 1.1982073e-38 323 296
0.0044955462 0.64099997 -0.062937655 1.207427e-38 324 296
0.0056194332 0.64099997 -0.062937655 1.207427e-38 325 296
0.0067433193 0.64099997 -0.062937655 1.1982793e-38 326 296
0.0078794798 0.64200002 -0.063035838 1.1982793e-38 327 296
0.00900512 0.64200002 -0.063035838 1.207427e-38 328 296
0.01014654 0.64300001 -0.063134022 1.207427e-38 329 296
0.011291467 0.64399999 -0.063232213 1.1982793e-38 330 296
0.012459187 0.64600003 -0.063428588 1.1982793e-38 331 296
0.01359184 0.64600003 -0.063428588 1.2074273e-38 332 296
0.014770079 0.648 -0.063624963 1.2166468e-38 333 296
0.015906241 0.648 -0.063624963 1.2074639e-38 334 296
0.017068699 0.64899999 -0.063723139 1.2166834e-38 335 296
0.018206613 0.64899999 -0.063723139 1.1891692e-38 336 296
0.019374331 0.64999998 -0.063821331 1.1983888e-38 337 296
0.02057712 0.65200001 -0.064017706 1.21672e-38 338 296
0.021720294 0.65200001 -0.064017706 1.1983169e-38 339 296
0.022898532 0.653 -0.064115889 1.1890617e-38 340 296
0.024043459 0.653 -0.064115889 1.1890617e-38 341 296
0.025226958 0.65399998 -0.064214081 1.1798068e-38 342 296
0.02637364 0.65399998 -0.064214081 1.1705873e-38 343 296
0.027562398 0.65499997 -0.064312264 1.1338536e-38 344 296
0.028710833 0.65499997 -0.064312264 1.1338536e-38 345 296
0.029859263 0.65499997 -0.064312264 1.0418046e-38 346 296
-0.054640878 0.63599998 -0.063561834 1.6317868e-38 271 297
-0.053525757 0.63599998 -0.063561834 1.6130893e-38 272 297
-0.052410636 0.63599998 -0.063561834 1.5485524e-38 273 297
-0.051295515 0.63599998 -0.063561834 1.6130135e-38 274 297
-0.050180398 0.63599998 -0.063561834 1.6314528e-38 275 297
-0.049065277 0.63599998 -0.063561834 1.6590038e-38 276 297
-0.047950156 0.63599998 -0.063561834 1.6682234e-38 277 297
-0.046761397 0.63499999 -0.0634619 1.7048861e-38 278 297
-0.045648031 0.63499999 -0.0634619 1.7141057e-38 279 297
-0.044534665 0.63499999 -0.0634619 1.7416205e-38 280 297
-0.043352917 0.634 -0.063361958 1.7416205e-38 281 297
-0.042241305 0.634 -0.063361958 1.7324003e-38 282 297
-0.040999945 0.63200003 -0.063162081 1.7231808e-38 283 297
-0.039891839 0.63200003 -0.063162081 1.6957003e-38 284 297
-0.038783733 0.63200003 -0.063162081 1.640383e-38 285 297
-0.037675627 0.63200003 -0.063162081 1.6219431e-38 286 297
-0.03656752 0.63200003 -0.063162081 1.5758813e-38 287 297
-0.035403304 0.63099998 -0.063062139 1.5206361e-38 288 297
-0.034296948 0.63099998 -0.063062139 1.483758e-38 289 297
-0.033190601 0.63099998 -0.063062139 1.4377326e-38 290 297
-0.032084245 0.63099998 -0.063062139 1.4192576e-38 291 297
-0.030977892 0.63099998 -0.063062139 1.373197e-38 292 297
-0.029871536 0.63099998 -0.063062139 1.3363547e-38 293 297
-0.028765187 0.63099998 -0.063062139 1.317808e-38 294 297
-0.027658831 0.63099998 -0.063062139 1.317808e-38 295 297
-0.026552478 0.63099998 -0.063062139 1.2627077e-38 296 297
-0.025446124 0.63099998 -0.063062139 1.2442327e-38 297 297
-0.024339773 0.63099998 -0.063062139 1.2166113e-38 298 297
-0.02327024 0.63200003 -0.063162081 1.2073917e-38 299 297
-0.022162134 0.63200003 -0.063162081 1.2165034e-38 300 297
-0.021120653 0.634 -0.063361958 1.1981001e-38 301 297
-0.01994592 0.63200003 -0.063162081 1.2071764e-38 302 297
-0.018837813 0.63200003 -0.063162081 1.1979569e-38 303 297
-0.017729707 0.63200003 -0.063162081 1.1979216e-38 304 297
-0.0166742 0.634 -0.063361958 1.207177e-38 305 297
-0.015562586 0.634 -0.063361958 1.2255077e-38 306 297
-0.014450972 0.634 -0.063361958 1.2347631e-38 307 297
-0.013339359 0.634 -0.063361958 1.2164313e-38 308 297
-0.012227747 0.634 -0.063361958 1.2164313e-38 309 297
-0.011116133 0.634 -0.063361958 1.2164313e-38 310 297
-0.0100203 0.63499999 -0.0634619 1.2072118e-38 311 297
-0.0089069325 0.63499999 -0.0634619 1.2164669e-38 312 297
-0.0077935657 0.63499999 -0.0634619 1.2164669e-38 313 297
-0.0066907196 0.63599998 -0.063561834 1.2164666e-38 314 297
-0.0055755996 0.63599998 -0.063561834 1.2164666e-38 315 297
-0.0044604796 0.63599998 -0.063561834 1.2164664e-38 316 297
-0.0033453598 0.63599998 -0.063561834 1.2164664e-38 317 297
-0.0022302398 0.63599998 -0.063561834 1.1797326e-38 318 297
-0.0011168733 0.63700002 -0.063661784 1.1797326e-38 319 297
0 0.63700002 -0.063661784 1.1888803e-38 320 297
0.0011168733 0.63700002 -0.063661784 1.1888803e-38 321 297
0.0022372534 0.63800001 -0.063761719 1.1797326e-38 322 297
0.0033663998 0.63999999 -0.063961595 1.1889521e-38 323 297
0.0044955462 0.64099997 -0.064061537 1.1706209e-38 324 297
0.0056194332 0.64099997 -0.064061537 1.1798406e-38 325 297
0.0067433193 0.64099997 -0.064061537 1.1706925e-38 326 297
0.0078794798 0.64200002 -0.064161479 1.1706925e-38 327 297
0.0090191467 0.64300001 -0.064261422 1.1982073e-38 328 297
0.01014654 0.64300001 -0.064261422 1.1982073e-38 329 297
0.011291467 0.64399999 -0.064361356 1.1799125e-38 330 297
0.012459187 0.64600003 -0.06456124 1.1891321e-38 331 297
0.013612879 0.64700001 -0.064661182 1.1891323e-38 332 297
0.014747286 0.64700001 -0.064661182 1.1891323e-38 333 297
0.015906241 0.648 -0.064761117 1.189097e-38 334 297
0.017068699 0.64899999 -0.064861059 1.189097e-38 335 297
0.018206613 0.64899999 -0.064861059 1.1891336e-38 336 297
0.019374331 0.64999998 -0.064960994 1.179914e-38 337 297
0.02057712 0.65200001 -0.065160878 1.1799143e-38 338 297
0.021720294 0.65200001 -0.065160878 1.1799143e-38 339 297
0.022898532 0.653 -0.06526082 1.1798787e-38 340 297
0.024043459 0.653 -0.06526082 1.1522561e-38 341 297
0.025226958 0.65399998 -0.065360755 1.143001e-38 342 297
0.02637364 0.65399998 -0.065360755 1.1337815e-38 343 297
0.027562398 0.65499997 -0.065460697 1.0969771e-38 344 297
0.028710833 0.65499997 -0.065460697 1.0601348e-38 345 297
-0.056960538 0.63700002 -0.064778656 1.5946582e-38 269 298
-0.055755995 0.63599998 -0.064676955 1.4936323e-38 270 298
-0.054640878 0.63599998 -0.064676955 1.4290953e-38 271 298
-0.053525757 0.63599998 -0.064676955 1.4658602e-38 272 298
-0.052410636 0.63599998 -0.064676955 1.4934829e-38 273 298
-0.051295515 0.63599998 -0.064676955 1.5670946e-38 274 298
-0.050101496 0.63499999 -0.064575262 1.5947892e-38 275 298
-0.04898813 0.63499999 -0.064575262 1.6681511e-38 276 298
-0.047874767 0.63499999 -0.064575262 1.6773707e-38 277 298
-0.046687759 0.634 -0.064473569 1.6865181e-38 278 298
-0.045432374 0.63200003 -0.064270191 1.6865181e-38 279 298
-0.044324268 0.63200003 -0.064270191 1.7048849e-38 280 298
-0.043216161 0.63200003 -0.064270191 1.6864456e-38 281 298
-0.042108051 0.63200003 -0.064270191 1.6771183e-38 282 298
-0.040999945 0.63200003 -0.064270191 1.6771183e-38 283 298
-0.039828718 0.63099998 -0.06416849 1.640383e-38 284 298
-0.038722362 0.63099998 -0.06416849 1.5850656e-38 285 298
-0.037616011 0.63099998 -0.06416849 1.5390753e-38 286 298
-0.036509659 0.63099998 -0.06416849 1.483758e-38 287 298
-0.035403304 0.63099998 -0.06416849 1.4652469e-38 288 298
-0.034296948 0.63099998 -0.06416849 1.419113e-38 289 298
-0.033190601 0.63099998 -0.06416849 1.3822718e-38 290 298
-0.032084245 0.63099998 -0.06416849 1.3730522e-38 291 298
-0.030928798 0.63 -0.064066797 1.3545785e-38 292 298
-0.029824199 0.63 -0.064066797 1.3177001e-38 293 298
-0.028765187 0.63099998 -0.06416849 1.2716746e-38 294 298
-0.027658831 0.63099998 -0.06416849 1.2532713e-38 295 298
-0.026552478 0.63099998 -0.06416849 1.244053e-38 296 298
-0.025446124 0.63099998 -0.06416849 1.225578e-38 297 298
-0.024339773 0.63099998 -0.06416849 1.1888449e-38 298 298
-0.02327024 0.63200003 -0.064270191 1.1796254e-38 299 298
-0.022162134 0.63200003 -0.064270191 1.1520749e-38 300 298
-0.021054026 0.63200003 -0.064270191 1.1428194e-38 301 298
-0.01994592 0.63200003 -0.064270191 1.1702986e-38 302 298
-0.018837813 0.63200003 -0.064270191 1.1610791e-38 303 298
-0.017729707 0.63200003 -0.064270191 1.1519314e-38 304 298
-0.016621601 0.63200003 -0.064270191 1.1703705e-38 305 298
-0.015562586 0.634 -0.064473569 1.188737e-38 306 298
-0.014450972 0.634 -0.064473569 1.207212e-38 307 298
-0.013339359 0.634 -0.064473569 1.1888803e-38 308 298
-0.012227747 0.634 -0.064473569 1.1888803e-38 309 298
-0.011116133 0.634 -0.064473569 1.1889877e-38 310 298
-0.0100203 0.63499999 -0.064575262 1.1889877e-38 311 298
-0.0089069325 0.63499999 -0.064575262 1.1981351e-38 312 298
-0.0077935657 0.63499999 -0.064575262 1.1981351e-38 313 298
-0.0066907196 0.63599998 -0.064676955 1.1981351e-38 314 298
-0.0055755996 0.63599998 -0.064676955 1.1981351e-38 315 298
-0.0044604796 0.63599998 -0.064676955 1.1981707e-38 316 298
-0.0033506199 0.63700002 -0.064778656 1.1889153e-38 317 298
-0.0022337467 0.63700002 -0.064778656 1.1797323e-38 318 298
-0.0011168733 0.63700002 -0.064778656 1.1705127e-38 319 298
0 0.63800001 -0.064880349 1.1797326e-38 320 298
0.0011186267 0.63800001 -0.064880349 1.170513e-38 321 298
0.0022442664 0.63999999 -0.065083727 1.1705133e-38 322 298
0.0033663998 0.63999999 -0.065083727 1.1797329e-38 323 298
0.0044955462 0.64099997 -0.06518542 1.1614016e-38 324 298
0.0056194332 0.64099997 -0.06518542 1.1706212e-38 325 298
0.00675384 0.64200002 -0.065287121 1.1706929e-38 326 298
0.0078794798 0.64200002 -0.065287121 1.1706929e-38 327 298
0.0090191467 0.64300001 -0.065388806 1.1982073e-38 328 298
0.01014654 0.64300001 -0.065388806 1.1982073e-38 329 298
0.011291467 0.64399999 -0.065490507 1.1798406e-38 330 298
0.012420613 0.64399999 -0.065490507 1.1982437e-38 331 298
0.01359184 0.64600003 -0.065693893 1.1798053e-38 332 298
0.014747286 0.64700001 -0.065795586 1.1982443e-38 333 298
0.015906241 0.648 -0.065897278 1.1798778e-38 334 298
0.0170424 0.648 -0.065897278 1.1798778e-38 335 298
0.018206613 0.64899999 -0.065998971 1.1798422e-38 336 298
0.019374331 0.64999998 -0.066100657 1.1798422e-38 337 298
0.020513998 0.64999998 -0.066100657 1.1798422e-38 338 298
0.021720294 0.65200001 -0.066304058 1.1798422e-38 339 298
0.022863466 0.65200001 -0.066304058 1.1430013e-38 340 298
0.024006641 0.65200001 -0.066304058 1.1153068e-38 341 298
0.025226958 0.65399998 -0.066507436 1.0324401e-38 342 298
0.02637364 0.65399998 -0.066507436 1.0048175e-38 343 298
0.027562398 0.65499997 -0.066609129 9.497184e-39 344 298
-0.058077414 0.63700002 -0.065895528 1.4659376e-38 268 299
-0.056960538 0.63700002 -0.065895528 1.3368637e-38 269 299
-0.055843666 0.63700002 -0.065895528 1.336893e-38 270 299
-0.054640878 0.63599998 -0.065792076 1.3829908e-38 271 299
-0.053525757 0.63599998 -0.065792076 1.4291612e-38 272 299
-0.052410636 0.63599998 -0.065792076 1.4752589e-38 273 299
-0.051214863 0.63499999 -0.065688632 1.5027397e-38 274 299
-0.050022598 0.634 -0.065585189 1.5303984e-38 275 299
-0.048910987 0.634 -0.065585189 1.6037952e-38 276 299
-0.047799375 0.634 -0.065585189 1.6130149e-38 277 299
-0.04654048 0.63200003 -0.065378293 1.6404924e-38 278 299
-0.045432374 0.63200003 -0.065378293 1.6588955e-38 279 299
-0.044324268 0.63200003 -0.065378293 1.6588943e-38 280 299
-0.043147776 0.63099998 -0.065274842 1.6404551e-38 281 299
-0.042041425 0.63099998 -0.065274842 1.6035772e-38 282 299
-0.040935073 0.63099998 -0.065274842 1.5943576e-38 283 299
-0.039828718 0.63099998 -0.065274842 1.5574795e-38 284 299
-0.038722362 0.63099998 -0.065274842 1.5205652e-38 285 299
-0.037616011 0.63099998 -0.065274842 1.4837596e-38 286 299
-0.036509659 0.63099998 -0.065274842 1.4376617e-38 287 299
-0.035403304 0.63099998 -0.065274842 1.4007833e-38 288 299
-0.034296948 0.63099998 -0.065274842 1.3454661e-38 289 299
-0.033190601 0.63099998 -0.065274842 1.2994402e-38 290 299
-0.032033399 0.63 -0.065171398 1.2718175e-38 291 299
-0.030928798 0.63 -0.065171398 1.2625642e-38 292 299
-0.029824199 0.63 -0.065171398 1.2349415e-38 293 299
-0.028719598 0.63 -0.065171398 1.2255786e-38 294 299
-0.027615 0.63 -0.065171398 1.2071396e-38 295 299
-0.026552478 0.63099998 -0.065274842 1.1703692e-38 296 299
-0.025446124 0.63099998 -0.065274842 1.1703692e-38 297 299
-0.024339773 0.63099998 -0.065274842 1.1428194e-38 298 299
-0.023233417 0.63099998 -0.065274842 1.1335999e-38 299 299
-0.022162134 0.63200003 -0.065378293 1.1335999e-38 300 299
-0.021054026 0.63200003 -0.065378293 1.1335999e-38 301 299
-0.01994592 0.63200003 -0.065378293 1.1336355e-38 302 299
-0.018837813 0.63200003 -0.065378293 1.1336355e-38 303 299
-0.017729707 0.63200003 -0.065378293 1.1337071e-38 304 299
-0.016621601 0.63200003 -0.065378293 1.1521462e-38 305 299
-0.015562586 0.634 -0.065585189 1.1614016e-38 306 299
-0.014450972 0.634 -0.065585189 1.1614016e-38 307 299
-0.013339359 0.634 -0.065585189 1.1888803e-38 308 299
-0.012227747 0.634 -0.065585189 1.1888803e-38 309 299
-0.011116133 0.634 -0.065585189 1.1797679e-38 310 299
-0.0100203 0.63499999 -0.065688632 1.1797679e-38 311 299
-0.0089069325 0.63499999 -0.065688632 1.1614367e-38 312 299
-0.0077935657 0.63499999 -0.065688632 1.1706562e-38 313 299
-0.0066907196 0.63599998 -0.065792076 1.1889872e-38 314 299
-0.0055755996 0.63599998 -0.065792076 1.1889872e-38 315 299
-0.0044604796 0.63599998 -0.065792076 1.1706559e-38 316 299
-0.0033506199 0.63700002 -0.065895528 1.1614364e-38 317 299
-0.0022337467 0.63700002 -0.065895528 1.1614011e-38 318 299
-0.0011186267 0.63800001 -0.065998971 1.1614011e-38 319 299
0 0.63800001 -0.065998971 1.1705133e-38 320 299
0.0011186267 0.63800001 -0.065998971 1.1705133e-38 321 299
0.0022442664 0.63999999 -0.066205859 1.1521468e-38 322 299
0.0033663998 0.63999999 -0.066205859 1.1613663e-38 323 299
0.0044955462 0.64099997 -0.06630931 1.143107e-38 324 299
0.0056194332 0.64099997 -0.06630931 1.143107e-38 325 299
0.00675384 0.64200002 -0.066412762 1.1431067e-38 326 299
0.0078794798 0.64200002 -0.066412762 1.1431067e-38 327 299
0.0090191467 0.64300001 -0.066516206 1.1614379e-38 328 299
0.01014654 0.64300001 -0.066516206 1.1614379e-38 329 299
0.011291467 0.64399999 -0.06661965 1.143107e-38 330 299
0.012420613 0.64399999 -0.06661965 1.143107e-38 331 299
0.01359184 0.64600003 -0.066826545 1.1430361e-38 332 299
0.014724494 0.64600003 -0.066826545 1.1430361e-38 333 299
0.015881693 0.64700001 -0.066929989 1.1430364e-38 334 299
0.0170424 0.648 -0.067033432 1.1430364e-38 335 299
0.018206613 0.64899999 -0.067136884 1.1430366e-38 336 299
0.019374331 0.64999998 -0.067240328 1.1337812e-38 337 299
0.020513998 0.64999998 -0.067240328 1.1155221e-38 338 299
0.021720294 0.65200001 -0.06744723 1.1063026e-38 339 299
0.022863466 0.65200001 -0.06744723 1.069391e-38 340 299
0.024006641 0.65200001 -0.06744723 1.0232932e-38 341 299
0.025149813 0.65200001 -0.06744723 9.7723416e-39 342 299
-0.059837762 0.63200003 -0.066486403 1.4562539e-38 266 300
-0.058729656 0.63200003 -0.066486403 1.3640224e-38 267 300
-0.057803888 0.634 -0.0666968 1.3090939e-38 268 300
-0.056871112 0.63599998 -0.066907197 1.327533e-38 269 300
-0.055755995 0.63599998 -0.066907197 1.3646245e-38 270 300
-0.054554965 0.63499999 -0.066801995 1.3830636e-38 271 300
-0.053357437 0.634 -0.0666968 1.4106863e-38 272 300
-0.052245826 0.634 -0.0666968 1.4291615e-38 273 300
-0.050972905 0.63200003 -0.066486403 1.5302169e-38 274 300
-0.049864799 0.63200003 -0.066486403 1.5670952e-38 275 300
-0.048756693 0.63200003 -0.066486403 1.6130132e-38 276 300
-0.047648586 0.63200003 -0.066486403 1.6037937e-38 277 300
-0.046466835 0.63099998 -0.066381201 1.6221602e-38 278 300
-0.045360483 0.63099998 -0.066381201 1.585318e-38 279 300
-0.044254132 0.63099998 -0.066381201 1.557622e-38 280 300
-0.043147776 0.63099998 -0.066381201 1.5023046e-38 281 300
-0.042041425 0.63099998 -0.066381201 1.4652819e-38 282 300
-0.040935073 0.63099998 -0.066381201 1.4468428e-38 283 300
-0.039828718 0.63099998 -0.066381201 1.3823068e-38 284 300
-0.038722362 0.63099998 -0.066381201 1.3454644e-38 285 300
-0.037616011 0.63099998 -0.066381201 1.3361377e-38 286 300
-0.036509659 0.63099998 -0.066381201 1.3176985e-38 287 300
-0.035403304 0.63099998 -0.066381201 1.2624175e-38 288 300
-0.034296948 0.63099998 -0.066381201 1.207136e-38 289 300
-0.033190601 0.63099998 -0.066381201 1.1886262e-38 290 300
-0.032033399 0.63 -0.066275999 1.1978458e-38 291 300
-0.030928798 0.63 -0.066275999 1.2254345e-38 292 300
-0.029824199 0.63 -0.066275999 1.2254345e-38 293 300
-0.028719598 0.63 -0.066275999 1.1334553e-38 294 300
-0.027615 0.63 -0.066275999 1.1518944e-38 295 300
-0.026510399 0.63 -0.066275999 1.15193e-38 296 300
-0.025405798 0.63 -0.066275999 1.1611497e-38 297 300
-0.024339773 0.63099998 -0.066381201 1.1336352e-38 298 300
-0.023233417 0.63099998 -0.066381201 1.1336352e-38 299 300
-0.022162134 0.63200003 -0.066486403 1.1428194e-38 300 300
-0.021054026 0.63200003 -0.066486403 1.1428194e-38 301 300
-0.01994592 0.63200003 -0.066486403 1.1428547e-38 302 300
-0.018837813 0.63200003 -0.066486403 1.1520743e-38 303 300
-0.017729707 0.63200003 -0.066486403 1.1429622e-38 304 300
-0.016621601 0.63200003 -0.066486403 1.1521818e-38 305 300
-0.015562586 0.634 -0.0666968 1.1614016e-38 306 300
-0.014450972 0.634 -0.0666968 1.1614016e-38 307 300
-0.013339359 0.634 -0.0666968 1.1889521e-38 308 300
-0.012227747 0.634 -0.0666968 1.1797326e-38 309 300
