# .PCD v.7 - Point Cloud Data file format
FIELDS x y z rgb imX imY
SIZE 4 4 4 4 4 4
TYPE F F F F F F
COUNT 1 1 1 1 1 1
WIDTH 833
HEIGHT 1
VIEWPOINT 0 0 0 1 0 0 0
POINTS 833
DATA ascii
0.023214132 0.662 -0.046428263 1.5301117e-38 340 280
0.024411658 0.66299999 -0.046498399 1.5116724e-38 341 280
0.025574118 0.66299999 -0.046498399 1.5116371e-38 342 280
0.026736578 0.66299999 -0.046498399 1.5024176e-38 343 280
0.027899038 0.66299999 -0.046498399 1.4747959e-38 344 280
0.02910533 0.66399997 -0.046568532 1.4655763e-38 345 280
0.030269546 0.66399997 -0.046568532 1.5021304e-38 346 280
0.031528439 0.66600001 -0.046708796 1.4929109e-38 347 280
0.032696161 0.66600001 -0.046708796 1.4102589e-38 348 280
0.033914726 0.667 -0.046778932 1.3549415e-38 349 280
0.035136797 0.66799998 -0.046849065 1.2809346e-38 350 280
0.036416732 0.67000002 -0.046989333 1.2901901e-38 351 280
0.037591465 0.67000002 -0.046989333 1.2903348e-38 352 280
0.038766202 0.67000002 -0.046989333 1.3087741e-38 353 280
0.040000543 0.671 -0.047059465 1.3089179e-38 354 280
0.041177034 0.671 -0.047059465 1.3181374e-38 355 280
0.042353518 0.671 -0.047059465 1.2905861e-38 356 280
0.043594878 0.67199999 -0.047129598 1.272147e-38 357 280
0.044773117 0.67199999 -0.047129598 1.2720749e-38 358 280
0.046088122 0.67400002 -0.047269866 1.2628554e-38 359 280
0.047339998 0.67500001 -0.047339998 1.2353046e-38 360 280
0.048811045 0.67900002 -0.047620531 1.2353046e-38 361 280
0.050075196 0.68000001 -0.047690667 1.2261213e-38 362 280
0.051418249 0.68199998 -0.047830928 1.2353409e-38 363 280
0.052691177 0.68300003 -0.047901068 1.226121e-38 364 280
0.053967599 0.68400002 -0.0479712 1.226121e-38 365 280
0.055328183 0.68599999 -0.048111461 1.2169743e-38 366 280
0.056613375 0.68699998 -0.048181597 1.2538526e-38 367 280
0.057902083 0.68800002 -0.048251733 1.2355955e-38 368 280
0.059108373 0.68800002 -0.048251733 1.2909129e-38 369 280
0.060314666 0.68800002 -0.048251733 1.3092117e-38 370 280
0.061699796 0.69 -0.048391998 1.346054e-38 371 280
-0.11226943 0.69599998 -0.050033119 1.2352254e-38 228 281
-0.1100918 0.69 -0.049601797 1.2444808e-38 229 281
-0.1085664 0.68800002 -0.049458027 1.2351556e-38 230 281
-0.10720405 0.68699998 -0.049386136 1.2351556e-38 231 281
-0.10584522 0.68599999 -0.049314249 1.2258283e-38 232 281
-0.10433736 0.68400002 -0.049170479 1.2258283e-38 233 281
-0.10313808 0.68400002 -0.049170479 1.2257565e-38 234 281
-0.10178977 0.68300003 -0.049098592 1.2257565e-38 235 281
-0.10044495 0.68199998 -0.049026705 1.2166086e-38 236 281
-0.099249184 0.68199998 -0.049026705 1.2166086e-38 237 281
-0.09776587 0.68000001 -0.048882935 1.2533784e-38 238 281
-0.096431576 0.67900002 -0.048811045 1.2533784e-38 239 281
-0.09510079 0.67799997 -0.048739154 1.2533777e-38 240 281
-0.093912028 0.67799997 -0.048739154 1.2626333e-38 241 281
-0.092449754 0.676 -0.048595384 1.2809642e-38 242 281
-0.091264501 0.676 -0.048595384 1.2901838e-38 243 281
-0.090079248 0.676 -0.048595384 1.2994392e-38 244 281
-0.088893995 0.676 -0.048595384 1.3086588e-38 245 281
-0.087708741 0.676 -0.048595384 1.3179146e-38 246 281
-0.086523488 0.676 -0.048595384 1.3179146e-38 247 281
-0.085085757 0.67400002 -0.048451614 1.3087304e-38 248 281
-0.083655037 0.67199999 -0.04830784 1.3271696e-38 249 281
-0.082354069 0.671 -0.048235953 1.4007815e-38 250 281
-0.081177577 0.671 -0.048235953 1.4192567e-38 251 281
-0.079881869 0.67000002 -0.048164066 1.4376595e-38 252 281
-0.078707129 0.67000002 -0.048164066 1.4468791e-38 253 281
-0.077532403 0.67000002 -0.048164066 1.4652816e-38 254 281
-0.076129727 0.66799998 -0.048020288 1.5021599e-38 255 281
-0.074958503 0.66799998 -0.048020288 1.5298188e-38 256 281
-0.074008204 0.67000002 -0.048164066 1.5574415e-38 257 281
-0.072616048 0.66799998 -0.048020288 1.5849927e-38 258 281
-0.071337871 0.667 -0.047948405 1.6034677e-38 259 281
-0.070168398 0.667 -0.047948405 1.5943555e-38 260 281
-0.068998925 0.667 -0.047948405 1.5943555e-38 261 281
-0.067727759 0.66600001 -0.047876518 1.6402731e-38 262 281
-0.066560037 0.66600001 -0.047876518 1.6494927e-38 263 281
-0.065392323 0.66600001 -0.047876518 1.6494932e-38 264 281
-0.064031735 0.66399997 -0.047732744 1.6587128e-38 265 281
-0.062867515 0.66399997 -0.047732744 1.6403108e-38 266 281
-0.061703302 0.66399997 -0.047732744 1.6679693e-38 267 281
-0.060539093 0.66399997 -0.047732744 1.6587142e-38 268 281
-0.059374876 0.66399997 -0.047732744 1.6679338e-38 269 281
-0.05821066 0.66399997 -0.047732744 1.6404551e-38 270 281
-0.056960538 0.66299999 -0.047660857 1.6404551e-38 271 281
-0.055713918 0.662 -0.047588971 1.6770817e-38 272 281
-0.054553211 0.662 -0.047588971 1.6770817e-38 273 281
-0.053392503 0.662 -0.047588971 1.6496381e-38 274 281
-0.052152898 0.66100001 -0.047517084 1.6496381e-38 275 281
-0.050993945 0.66100001 -0.047517084 1.6955201e-38 276 281
-0.049834993 0.66100001 -0.047517084 1.6955201e-38 277 281
-0.04867604 0.66100001 -0.047517084 1.7046678e-38 278 281
-0.04737331 0.65899998 -0.04737331 1.7046678e-38 279 281
-0.046217863 0.65899998 -0.04737331 1.7137795e-38 280 281
-0.044994038 0.65799999 -0.047301427 1.7137795e-38 281 281
-0.043840345 0.65799999 -0.047301427 1.6954129e-38 282 281
-0.042686652 0.65799999 -0.047301427 1.7138879e-38 283 281
-0.04153296 0.65799999 -0.047301427 1.695593e-38 284 281
-0.040379263 0.65799999 -0.047301427 1.695593e-38 285 281
-0.039225571 0.65799999 -0.047301427 1.6864453e-38 286 281
-0.038071878 0.65799999 -0.047301427 1.6864453e-38 287 281
-0.036918186 0.65799999 -0.047301427 1.6864088e-38 288 281
-0.035764489 0.65799999 -0.047301427 1.6771892e-38 289 281
-0.034610797 0.65799999 -0.047301427 1.6864438e-38 290 281
-0.033457108 0.65799999 -0.047301427 1.6772242e-38 291 281
-0.032303412 0.65799999 -0.047301427 1.658893e-38 292 281
-0.03110238 0.65700001 -0.04722954 1.6772961e-38 293 281
-0.02995044 0.65700001 -0.04722954 1.6772608e-38 294 281
-0.028798498 0.65700001 -0.04722954 1.6772608e-38 295 281
-0.027646558 0.65700001 -0.04722954 1.6864088e-38 296 281
-0.026494619 0.65700001 -0.04722954 1.6956283e-38 297 281
-0.025342681 0.65700001 -0.04722954 1.7047403e-38 298 281
-0.024190739 0.65700001 -0.04722954 1.7139598e-38 299 281
-0.023038799 0.65700001 -0.04722954 1.68641e-38 300 281
-0.021886859 0.65700001 -0.04722954 1.6956297e-38 301 281
-0.020671798 0.65499997 -0.047085766 1.6680435e-38 302 281
-0.019523365 0.65499997 -0.047085766 1.6772632e-38 303 281
-0.018374931 0.65499997 -0.047085766 1.6681158e-38 304 281
-0.017226499 0.65499997 -0.047085766 1.6773353e-38 305 281
-0.016078066 0.65499997 -0.047085766 1.6681155e-38 306 281
-0.014929632 0.65499997 -0.047085766 1.6404927e-38 307 281
-0.013781199 0.65499997 -0.047085766 1.6404198e-38 308 281
-0.012632766 0.65499997 -0.047085766 1.6496394e-38 309 281
-0.011484332 0.65499997 -0.047085766 1.6221605e-38 310 281
-0.01036746 0.65700001 -0.04722954 1.6037215e-38 311 281
-0.0092155198 0.65700001 -0.04722954 1.6220883e-38 312 281
-0.0080635799 0.65700001 -0.04722954 1.6036492e-38 313 281
-0.0069116396 0.65700001 -0.04722954 1.6496391e-38 314 281
-0.0057596997 0.65700001 -0.04722954 1.6404195e-38 315 281
-0.0046077599 0.65700001 -0.04722954 1.6678634e-38 316 281
-0.0034558198 0.65700001 -0.04722954 1.6678634e-38 317 281
-0.0022968664 0.65499997 -0.047085766 1.6494974e-38 318 281
-0.0011484332 0.65499997 -0.047085766 1.6494974e-38 319 281
0 0.65499997 -0.047085766 1.6403144e-38 320 281
0.00115194 0.65700001 -0.04722954 1.6403144e-38 321 281
0.0023038799 0.65700001 -0.04722954 1.6403139e-38 322 281
0.0034558198 0.65700001 -0.04722954 1.6403139e-38 323 281
0.0046147732 0.65799999 -0.047301427 1.6127984e-38 324 281
0.0057684663 0.65799999 -0.047301427 1.622018e-38 325 281
0.0069221598 0.65799999 -0.047301427 1.6127984e-38 326 281
0.0080758529 0.65799999 -0.047301427 1.622018e-38 327 281
0.0092295464 0.65799999 -0.047301427 1.5944672e-38 328 281
0.01036746 0.65700001 -0.04722954 1.5944672e-38 329 281
0.011519399 0.65700001 -0.04722954 1.6127981e-38 330 281
0.01267134 0.65700001 -0.04722954 1.6127981e-38 331 281
0.013823279 0.65700001 -0.04722954 1.5852473e-38 332 281
0.014998012 0.65799999 -0.047301427 1.5852473e-38 333 281
0.016176252 0.65899998 -0.04737331 1.5852476e-38 334 281
0.017331699 0.65899998 -0.04737331 1.575992e-38 335 281
0.018543253 0.66100001 -0.047517084 1.5391861e-38 336 281
0.019702207 0.66100001 -0.047517084 1.5391861e-38 337 281
0.02086116 0.66100001 -0.047517084 1.5391867e-38 338 281
0.022020113 0.66100001 -0.047517084 1.5299671e-38 339 281
0.023214132 0.662 -0.047588971 1.5116e-38 340 281
0.024374841 0.662 -0.047588971 1.5023804e-38 341 281
0.025574118 0.66299999 -0.047660857 1.483941e-38 342 281
0.026736578 0.66299999 -0.047660857 1.4563182e-38 343 281
0.027899038 0.66299999 -0.047660857 1.4653583e-38 344 281
0.02910533 0.66399997 -0.047732744 1.4653583e-38 345 281
0.030269546 0.66399997 -0.047732744 1.4102221e-38 346 281
0.031528439 0.66600001 -0.047876518 1.3917828e-38 347 281
0.032696161 0.66600001 -0.047876518 1.3549421e-38 348 281
0.033914726 0.667 -0.047948405 1.3364671e-38 349 281
0.035084199 0.667 -0.047948405 1.3179204e-38 350 281
0.036308024 0.66799998 -0.048020288 1.2994812e-38 351 281
0.037591465 0.67000002 -0.048164066 1.2811853e-38 352 281
0.038766202 0.67000002 -0.048164066 1.2904049e-38 353 281
0.040000543 0.671 -0.048235953 1.2904049e-38 354 281
0.041177034 0.671 -0.048235953 1.2904049e-38 355 281
0.042353518 0.671 -0.048235953 1.2904415e-38 356 281
0.043594878 0.67199999 -0.04830784 1.2812219e-38 357 281
0.044906374 0.67400002 -0.048451614 1.2627832e-38 358 281
0.046088122 0.67400002 -0.048451614 1.2535636e-38 359 281
0.047339998 0.67500001 -0.048523501 1.244416e-38 360 281
0.048739154 0.67799997 -0.048739154 1.244416e-38 361 281
0.050075196 0.68000001 -0.048882935 1.226121e-38 362 281
0.051418249 0.68199998 -0.049026705 1.2353765e-38 363 281
0.052691177 0.68300003 -0.049098592 1.2262292e-38 364 281
0.053967599 0.68400002 -0.049170479 1.2354489e-38 365 281
0.055328183 0.68599999 -0.049314249 1.2354858e-38 366 281
0.056613375 0.68699998 -0.049386136 1.2447053e-38 367 281
0.057902083 0.68800002 -0.049458027 1.2448152e-38 368 281
0.059108373 0.68800002 -0.049458027 1.2448152e-38 369 281
0.060314666 0.68800002 -0.049458027 1.1895015e-38 370 281
-0.1085664 0.68800002 -0.050664321 1.2718894e-38 230 282
-0.10736011 0.68800002 -0.050664321 1.2626698e-38 231 282
-0.10584522 0.68599999 -0.050517038 1.2533794e-38 232 282
-0.10464244 0.68599999 -0.050517038 1.2257565e-38 233 282
-0.10313808 0.68400002 -0.050369758 1.2166091e-38 234 282
-0.10178977 0.68300003 -0.05029612 1.2166091e-38 235 282
-0.10044495 0.68199998 -0.050222475 1.2166091e-38 236 282
-0.099249184 0.68199998 -0.050222475 1.2166091e-38 237 282
-0.09776587 0.68000001 -0.050075196 1.2257568e-38 238 282
-0.096431576 0.67900002 -0.050001562 1.2257568e-38 239 282
-0.09510079 0.67799997 -0.049927916 1.2349762e-38 240 282
-0.093912028 0.67799997 -0.049927916 1.2533794e-38 241 282
-0.092449754 0.676 -0.049780637 1.2626698e-38 242 282
-0.091264501 0.676 -0.049780637 1.2718894e-38 243 282
-0.090079248 0.676 -0.049780637 1.2718894e-38 244 282
-0.088893995 0.676 -0.049780637 1.281109e-38 245 282
-0.087578997 0.67500001 -0.049706999 1.2903288e-38 246 282
-0.086395502 0.67500001 -0.049706999 1.2903288e-38 247 282
-0.085085757 0.67400002 -0.049633358 1.2994039e-38 248 282
-0.083655037 0.67199999 -0.049486078 1.317843e-38 249 282
-0.082354069 0.671 -0.049412437 1.3546494e-38 250 282
-0.081177577 0.671 -0.049412437 1.3730525e-38 251 282
-0.079881869 0.67000002 -0.049338799 1.3730156e-38 252 282
-0.078707129 0.67000002 -0.049338799 1.3822352e-38 253 282
-0.077532403 0.67000002 -0.049338799 1.3915604e-38 254 282
-0.076129727 0.66799998 -0.04919152 1.4191831e-38 255 282
-0.074958503 0.66799998 -0.04919152 1.4559893e-38 256 282
-0.073787279 0.66799998 -0.04919152 1.4836482e-38 257 282
-0.072507344 0.667 -0.049117878 1.4745731e-38 258 282
-0.071337871 0.667 -0.049117878 1.4930482e-38 259 282
-0.070063196 0.66600001 -0.04904424 1.5023397e-38 260 282
-0.068895474 0.66600001 -0.04904424 1.5115592e-38 261 282
-0.067524366 0.66399997 -0.048896957 1.5574768e-38 262 282
-0.066360161 0.66399997 -0.048896957 1.5666964e-38 263 282
-0.065097757 0.66299999 -0.048823316 1.5666967e-38 264 282
-0.063935295 0.66299999 -0.048823316 1.5759164e-38 265 282
-0.062678158 0.662 -0.048749682 1.5575864e-38 266 282
-0.061517447 0.662 -0.048749682 1.5760614e-38 267 282
-0.060447913 0.66299999 -0.048823316 1.6126535e-38 268 282
-0.059285458 0.66299999 -0.048823316 1.6218731e-38 269 282
-0.058035329 0.662 -0.048749682 1.6035418e-38 270 282
-0.056874625 0.662 -0.048749682 1.6035418e-38 271 282
-0.055713918 0.662 -0.048749682 1.6401677e-38 272 282
-0.054553211 0.662 -0.048749682 1.6493873e-38 273 282
-0.053392503 0.662 -0.048749682 1.6311281e-38 274 282
-0.052152898 0.66100001 -0.04867604 1.6219084e-38 275 282
-0.050839648 0.65899998 -0.048528757 1.6310914e-38 276 282
-0.049684204 0.65899998 -0.048528757 1.6218718e-38 277 282
-0.048455119 0.65799999 -0.048455119 1.6219066e-38 278 282
-0.047301427 0.65799999 -0.048455119 1.612687e-38 279 282
-0.04614773 0.65799999 -0.048455119 1.5943558e-38 280 282
-0.044994038 0.65799999 -0.048455119 1.6127589e-38 281 282
-0.043840345 0.65799999 -0.048455119 1.6036125e-38 282 282
-0.042686652 0.65799999 -0.048455119 1.6128322e-38 283 282
-0.04153296 0.65799999 -0.048455119 1.6128334e-38 284 282
-0.040379263 0.65799999 -0.048455119 1.6128334e-38 285 282
-0.039225571 0.65799999 -0.048455119 1.6496397e-38 286 282
-0.038071878 0.65799999 -0.048455119 1.6219811e-38 287 282
-0.036918186 0.65799999 -0.048455119 1.6403845e-38 288 282
-0.035764489 0.65799999 -0.048455119 1.6219814e-38 289 282
-0.034610797 0.65799999 -0.048455119 1.6219811e-38 290 282
-0.033406258 0.65700001 -0.048381478 1.6219811e-38 291 282
-0.03225432 0.65700001 -0.048381478 1.6403111e-38 292 282
-0.03110238 0.65700001 -0.048381478 1.6403111e-38 293 282
-0.02995044 0.65700001 -0.048381478 1.6403108e-38 294 282
-0.028798498 0.65700001 -0.048381478 1.6587498e-38 295 282
-0.027646558 0.65700001 -0.048381478 1.6220167e-38 296 282
-0.026494619 0.65700001 -0.048381478 1.6220167e-38 297 282
-0.025265532 0.65499997 -0.048234195 1.6403123e-38 298 282
-0.024117097 0.65499997 -0.048234195 1.6403123e-38 299 282
-0.022968665 0.65499997 -0.048234195 1.6128332e-38 300 282
-0.021820232 0.65499997 -0.048234195 1.6128332e-38 301 282
-0.020671798 0.65499997 -0.048234195 1.6403845e-38 302 282
-0.019493559 0.65399998 -0.048160557 1.6496041e-38 303 282
-0.01834688 0.65399998 -0.048160557 1.6312028e-38 304 282
-0.017200198 0.65399998 -0.048160557 1.6312028e-38 305 282
-0.016078066 0.65499997 -0.048234195 1.6494984e-38 306 282
-0.014929632 0.65499997 -0.048234195 1.6218757e-38 307 282
-0.013781199 0.65499997 -0.048234195 1.6127981e-38 308 282
-0.012632766 0.65499997 -0.048234195 1.6035786e-38 309 282
-0.011484332 0.65499997 -0.048234195 1.5853195e-38 310 282
-0.010335899 0.65499997 -0.048234195 1.5853195e-38 311 282
-0.0092155198 0.65700001 -0.048381478 1.5944316e-38 312 282
-0.0080635799 0.65700001 -0.048381478 1.585212e-38 313 282
-0.0069116396 0.65700001 -0.048381478 1.5852476e-38 314 282
-0.0057421662 0.65499997 -0.048234195 1.575992e-38 315 282
-0.0045937328 0.65499997 -0.048234195 1.5759927e-38 316 282
-0.0034452998 0.65499997 -0.048234195 1.5759927e-38 317 282
-0.0022968664 0.65499997 -0.048234195 1.5575906e-38 318 282
-0.0011484332 0.65499997 -0.048234195 1.5759937e-38 319 282
0 0.65499997 -0.048234195 1.5759224e-38 320 282
0.0011484332 0.65499997 -0.048234195 1.5759224e-38 321 282
0.0022968664 0.65499997 -0.048234195 1.5759218e-38 322 282
0.0034452998 0.65499997 -0.048234195 1.5851773e-38 323 282
0.0046077599 0.65700001 -0.048381478 1.5759925e-38 324 282
0.0057596997 0.65700001 -0.048381478 1.5759925e-38 325 282
0.0069116396 0.65700001 -0.048381478 1.585212e-38 326 282
0.0080635799 0.65700001 -0.048381478 1.585212e-38 327 282
0.0092155198 0.65700001 -0.048381478 1.5760643e-38 328 282
0.01036746 0.65700001 -0.048381478 1.5760643e-38 329 282
0.011519399 0.65700001 -0.048381478 1.5759925e-38 330 282
0.01267134 0.65700001 -0.048381478 1.5759925e-38 331 282
0.013823279 0.65700001 -0.048381478 1.5576256e-38 332 282
0.01497522 0.65700001 -0.048381478 1.5484059e-38 333 282
0.016151706 0.65799999 -0.048455119 1.5391864e-38 334 282
0.017331699 0.65899998 -0.048528757 1.5299668e-38 335 282
0.018487146 0.65899998 -0.048528757 1.4931609e-38 336 282
0.019642593 0.65899998 -0.048528757 1.4839413e-38 337 282
0.02086116 0.66100001 -0.04867604 1.4563551e-38 338 282
0.022020113 0.66100001 -0.04867604 1.4471355e-38 339 282
0.023214132 0.662 -0.048749682 1.4563904e-38 340 282
0.024374841 0.662 -0.048749682 1.4471349e-38 341 282
0.025535546 0.662 -0.048749682 1.4103999e-38 342 282
0.026736578 0.66299999 -0.048823316 1.3550825e-38 343 282
0.027899038 0.66299999 -0.048823316 1.3548677e-38 344 282
0.02910533 0.66399997 -0.048896957 1.3733068e-38 345 282
0.030269546 0.66399997 -0.048896957 1.3365021e-38 346 282
0.031528439 0.66600001 -0.04904424 1.3365021e-38 347 282
0.032696161 0.66600001 -0.04904424 1.3271403e-38 348 282
0.033914726 0.667 -0.049117878 1.3087011e-38 349 282
0.035084199 0.667 -0.049117878 1.2718951e-38 350 282
0.036308024 0.66799998 -0.04919152 1.2718951e-38 351 282
0.037591465 0.67000002 -0.049338799 1.2535992e-38 352 282
0.038766202 0.67000002 -0.049338799 1.2535992e-38 353 282
0.040000543 0.671 -0.049412437 1.2535636e-38 354 282
0.041177034 0.671 -0.049412437 1.2627832e-38 355 282
0.042416636 0.67199999 -0.049486078 1.244416e-38 356 282
0.043594878 0.67199999 -0.049486078 1.2536355e-38 357 282
0.044906374 0.67400002 -0.049633358 1.244416e-38 358 282
0.0461565 0.67500001 -0.049706999 1.244416e-38 359 282
0.047339998 0.67500001 -0.049706999 1.244416e-38 360 282
0.048739154 0.67799997 -0.049927916 1.2536355e-38 361 282
0.050075196 0.68000001 -0.050075196 1.2353762e-38 362 282
0.051267464 0.68000001 -0.050075196 1.2445957e-38 363 282
0.052614026 0.68199998 -0.050222475 1.2445604e-38 364 282
0.053888701 0.68300003 -0.05029612 1.2630356e-38 365 282
0.055328183 0.68599999 -0.050517038 1.2447056e-38 366 282
0.056530971 0.68599999 -0.050517038 1.2539252e-38 367 282
0.057733759 0.68599999 -0.050517038 1.2171576e-38 368 282
-0.10736011 0.68800002 -0.051870614 1.2810736e-38 231 283
-0.10599951 0.68699998 -0.051795214 1.2625629e-38 232 283
-0.10464244 0.68599999 -0.051719822 1.2625629e-38 233 283
-0.10313808 0.68400002 -0.051569041 1.2533075e-38 234 283
-0.10178977 0.68300003 -0.051493648 1.2440878e-38 235 283
-0.10044495 0.68199998 -0.051418249 1.2257565e-38 236 283
-0.099249184 0.68199998 -0.051418249 1.216537e-38 237 283
-0.09776587 0.68000001 -0.051267464 1.2440881e-38 238 283
-0.096431576 0.67900002 -0.051192071 1.2440881e-38 239 283
-0.09510079 0.67799997 -0.051116679 1.2349768e-38 240 283
-0.093912028 0.67799997 -0.051116679 1.2533799e-38 241 283
-0.092449754 0.676 -0.050965894 1.2626348e-38 242 283
-0.091264501 0.676 -0.050965894 1.2626348e-38 243 283
-0.090079248 0.676 -0.050965894 1.2718894e-38 244 283
-0.088893995 0.676 -0.050965894 1.2718894e-38 245 283
-0.087578997 0.67500001 -0.050890498 1.2994402e-38 246 283
-0.086395502 0.67500001 -0.050890498 1.2994402e-38 247 283
-0.085085757 0.67400002 -0.050815105 1.2994405e-38 248 283
-0.083655037 0.67199999 -0.050664317 1.2994405e-38 249 283
-0.082354069 0.671 -0.050588924 1.3361395e-38 250 283
-0.081177577 0.671 -0.050588924 1.3361395e-38 251 283
-0.079881869 0.67000002 -0.050513536 1.3084802e-38 252 283
-0.078707129 0.67000002 -0.050513536 1.3176998e-38 253 283
-0.077532403 0.67000002 -0.050513536 1.3084784e-38 254 283
-0.076129727 0.66799998 -0.050362743 1.3084784e-38 255 283
-0.074958503 0.66799998 -0.050362743 1.3360998e-38 256 283
-0.073787279 0.66799998 -0.050362743 1.3637944e-38 257 283
-0.072507344 0.667 -0.050287351 1.3823777e-38 258 283
-0.071337871 0.667 -0.050287351 1.4100364e-38 259 283
-0.070063196 0.66600001 -0.050211959 1.4193283e-38 260 283
-0.068895474 0.66600001 -0.050211959 1.4377674e-38 261 283
-0.067524366 0.66399997 -0.05006117 1.4653538e-38 262 283
-0.066260219 0.66299999 -0.049985778 1.483793e-38 263 283
-0.065097757 0.66299999 -0.049985778 1.4838286e-38 264 283
-0.063935295 0.66299999 -0.049985778 1.4930482e-38 265 283
-0.062678158 0.662 -0.049910385 1.5114147e-38 266 283
-0.061517447 0.662 -0.049910385 1.548257e-38 267 283
-0.060356744 0.662 -0.049910385 1.5665892e-38 268 283
-0.05919604 0.662 -0.049910385 1.5942479e-38 269 283
-0.058035329 0.662 -0.049910385 1.5758463e-38 270 283
-0.056874625 0.662 -0.049910385 1.5758463e-38 271 283
-0.055713918 0.662 -0.049910385 1.539147e-38 272 283
-0.054553211 0.662 -0.049910385 1.5483666e-38 273 283
-0.053311851 0.66100001 -0.049834993 1.6034309e-38 274 283
-0.052152898 0.66100001 -0.049834993 1.5942112e-38 275 283
-0.050839648 0.65899998 -0.049684204 1.5849557e-38 276 283
-0.049608808 0.65799999 -0.049608808 1.5757362e-38 277 283
-0.048455119 0.65799999 -0.049608808 1.5574062e-38 278 283
-0.047301427 0.65799999 -0.049608808 1.5666618e-38 279 283
-0.046077598 0.65700001 -0.049533416 1.5390767e-38 280 283
-0.04492566 0.65700001 -0.049533416 1.5482962e-38 281 283
-0.043773718 0.65700001 -0.049533416 1.5391848e-38 282 283
-0.04262178 0.65700001 -0.049533416 1.5391848e-38 283 283
-0.041469838 0.65700001 -0.049533416 1.5851024e-38 284 283
-0.0403179 0.65700001 -0.049533416 1.594322e-38 285 283
-0.039165959 0.65700001 -0.049533416 1.5944295e-38 286 283
-0.038014017 0.65700001 -0.049533416 1.5759905e-38 287 283
-0.036862079 0.65700001 -0.049533416 1.6035772e-38 288 283
-0.035710141 0.65700001 -0.049533416 1.5943576e-38 289 283
-0.034558199 0.65700001 -0.049533416 1.5943576e-38 290 283
-0.033406258 0.65700001 -0.049533416 1.5943576e-38 291 283
-0.03225432 0.65700001 -0.049533416 1.6126532e-38 292 283
-0.03110238 0.65700001 -0.049533416 1.6126532e-38 293 283
-0.02995044 0.65700001 -0.049533416 1.5942504e-38 294 283
-0.028710833 0.65499997 -0.049382631 1.6126535e-38 295 283
-0.027562398 0.65499997 -0.049382631 1.5943576e-38 296 283
-0.026413966 0.65499997 -0.049382631 1.5943576e-38 297 283
-0.025265532 0.65499997 -0.049382631 1.5943576e-38 298 283
-0.024117097 0.65499997 -0.049382631 1.5851022e-38 299 283
-0.022968665 0.65499997 -0.049382631 1.5668075e-38 300 283
-0.021820232 0.65499997 -0.049382631 1.5668075e-38 301 283
-0.020640239 0.65399998 -0.049307238 1.5943591e-38 302 283
-0.019493559 0.65399998 -0.049307238 1.6035788e-38 303 283
-0.01834688 0.65399998 -0.049307238 1.6035438e-38 304 283
-0.017200198 0.65399998 -0.049307238 1.6035438e-38 305 283
-0.01605352 0.65399998 -0.049307238 1.6126915e-38 306 283
-0.014906839 0.65399998 -0.049307238 1.6034719e-38 307 283
-0.013781199 0.65499997 -0.049382631 1.5759202e-38 308 283
-0.012632766 0.65499997 -0.049382631 1.5759202e-38 309 283
-0.011484332 0.65499997 -0.049382631 1.5667362e-38 310 283
-0.010335899 0.65499997 -0.049382631 1.5667362e-38 311 283
-0.0091874655 0.65499997 -0.049382631 1.557481e-38 312 283
-0.008039033 0.65499997 -0.049382631 1.557481e-38 313 283
-0.0068905996 0.65499997 -0.049382631 1.5391498e-38 314 283
-0.0057421662 0.65499997 -0.049382631 1.5391498e-38 315 283
-0.0045937328 0.65499997 -0.049382631 1.5391501e-38 316 283
-0.0034452998 0.65499997 -0.049382631 1.5391501e-38 317 283
-0.00229336 0.65399998 -0.049307238 1.5391148e-38 318 283
-0.00114668 0.65399998 -0.049307238 1.5391148e-38 319 283
0 0.65399998 -0.049307238 1.5391148e-38 320 283
0.0011484332 0.65499997 -0.049382631 1.5575179e-38 321 283
0.0022968664 0.65499997 -0.049382631 1.5391864e-38 322 283
0.0034452998 0.65499997 -0.049382631 1.5391864e-38 323 283
0.0046077599 0.65700001 -0.049533416 1.5575532e-38 324 283
0.0057596997 0.65700001 -0.049533416 1.5575532e-38 325 283
0.0069116396 0.65700001 -0.049533416 1.5391864e-38 326 283
0.0080635799 0.65700001 -0.049533416 1.5484059e-38 327 283
0.0092155198 0.65700001 -0.049533416 1.5484059e-38 328 283
0.01036746 0.65700001 -0.049533416 1.5484059e-38 329 283
0.011519399 0.65700001 -0.049533416 1.5299668e-38 330 283
0.01267134 0.65700001 -0.049533416 1.5299668e-38 331 283
0.013823279 0.65700001 -0.049533416 1.5299668e-38 332 283
0.01497522 0.65700001 -0.049533416 1.5299668e-38 333 283
0.016151706 0.65799999 -0.049608808 1.5115627e-38 334 283
0.017331699 0.65899998 -0.049684204 1.4654649e-38 335 283
0.018487146 0.65899998 -0.049684204 1.4470255e-38 336 283
0.019642593 0.65899998 -0.049684204 1.4286222e-38 337 283
0.02086116 0.66100001 -0.049834993 1.4285874e-38 338 283
0.022020113 0.66100001 -0.049834993 1.4193676e-38 339 283
0.023179067 0.66100001 -0.049834993 1.4101481e-38 340 283
0.024374841 0.662 -0.049910385 1.4008926e-38 341 283
0.025535546 0.662 -0.049910385 1.3365728e-38 342 283
0.026696252 0.662 -0.049910385 1.30895e-38 343 283
0.027899038 0.66299999 -0.049985778 1.3086995e-38 344 283
0.029061496 0.66299999 -0.049985778 1.3086995e-38 345 283
0.030269546 0.66399997 -0.05006117 1.28115e-38 346 283
0.031433757 0.66399997 -0.05006117 1.28115e-38 347 283
0.032696161 0.66600001 -0.050211959 1.2810075e-38 348 283
0.033914726 0.667 -0.050287351 1.2717879e-38 349 283
0.035084199 0.667 -0.050287351 1.2443088e-38 350 283
0.036416732 0.67000002 -0.050513536 1.2350892e-38 351 283
0.037591465 0.67000002 -0.050513536 1.2167933e-38 352 283
0.038824059 0.671 -0.050588924 1.2260128e-38 353 283
0.040000543 0.671 -0.050588924 1.2260126e-38 354 283
0.041177034 0.671 -0.050588924 1.2444157e-38 355 283
0.042416636 0.67199999 -0.050664317 1.2535989e-38 356 283
0.043594878 0.67199999 -0.050664317 1.2535989e-38 357 283
0.044906374 0.67400002 -0.050815105 1.2628185e-38 358 283
0.0461565 0.67500001 -0.050890498 1.2628185e-38 359 283
0.047410134 0.676 -0.050965894 1.2536708e-38 360 283
0.048739154 0.67799997 -0.051116679 1.2628904e-38 361 283
0.050001562 0.67900002 -0.051192071 1.253779e-38 362 283
0.051267464 0.68000001 -0.051267464 1.2721823e-38 363 283
0.052614026 0.68199998 -0.051418249 1.2538879e-38 364 283
0.053888701 0.68300003 -0.051493648 1.2631075e-38 365 283
0.055328183 0.68599999 -0.051719822 1.2539617e-38 366 283
0.056530971 0.68599999 -0.051719822 1.2447422e-38 367 283
0.057733759 0.68599999 -0.051719822 1.1802445e-38 368 283
-0.10720405 0.68699998 -0.052999757 1.2902234e-38 231 284
-0.10599951 0.68699998 -0.052999757 1.2717472e-38 232 284
-0.10464244 0.68599999 -0.05292261 1.2717472e-38 233 284
-0.10313808 0.68400002 -0.05276832 1.2533796e-38 234 284
-0.10178977 0.68300003 -0.052691177 1.2349765e-38 235 284
-0.10059224 0.68300003 -0.052691177 1.2349765e-38 236 284
-0.099249184 0.68199998 -0.052614026 1.2257568e-38 237 284
-0.09776587 0.68000001 -0.052459732 1.2165738e-38 238 284
-0.096431576 0.67900002 -0.052382588 1.2165738e-38 239 284
-0.09510079 0.67799997 -0.052305438 1.2165385e-38 240 284
-0.093912028 0.67799997 -0.052305438 1.2165385e-38 241 284
-0.092449754 0.676 -0.052151144 1.2257933e-38 242 284
-0.091264501 0.676 -0.052151144 1.2350128e-38 243 284
-0.090079248 0.676 -0.052151144 1.253415e-38 244 284
-0.088893995 0.676 -0.052151144 1.2626345e-38 245 284
-0.087708741 0.676 -0.052151144 1.2626345e-38 246 284
-0.086395502 0.67500001 -0.052074 1.2718541e-38 247 284
-0.085085757 0.67400002 -0.051996857 1.2810736e-38 248 284
-0.083655037 0.67199999 -0.051842555 1.2810736e-38 249 284
-0.082354069 0.671 -0.051765412 1.2994405e-38 250 284
-0.081177577 0.671 -0.051765412 1.2902209e-38 251 284
-0.079881869 0.67000002 -0.051688269 1.2993689e-38 252 284
-0.078707129 0.67000002 -0.051688269 1.2993689e-38 253 284
-0.077532403 0.67000002 -0.051688269 1.2900771e-38 254 284
-0.076129727 0.66799998 -0.051533967 1.2900771e-38 255 284
-0.074958503 0.66799998 -0.051533967 1.3176629e-38 256 284
-0.073787279 0.66799998 -0.051533967 1.3268825e-38 257 284
-0.072507344 0.667 -0.051456824 1.3545758e-38 258 284
-0.071337871 0.667 -0.051456824 1.3177336e-38 259 284
-0.070063196 0.66600001 -0.051379681 1.3363165e-38 260 284
-0.068895474 0.66600001 -0.051379681 1.3547557e-38 261 284
-0.067524366 0.66399997 -0.051225383 1.3640112e-38 262 284
-0.066260219 0.66299999 -0.051148236 1.3732307e-38 263 284
-0.065097757 0.66299999 -0.051148236 1.3823777e-38 264 284
-0.063838862 0.662 -0.051071092 1.3915973e-38 265 284
-0.062678158 0.662 -0.051071092 1.400924e-38 266 284
-0.061517447 0.662 -0.051071092 1.4193633e-38 267 284
-0.060356744 0.662 -0.051071092 1.437803e-38 268 284
-0.05919604 0.662 -0.051071092 1.4746454e-38 269 284
-0.058035329 0.662 -0.051071092 1.4838302e-38 270 284
-0.056788713 0.66100001 -0.050993945 1.5022693e-38 271 284
-0.05562976 0.66100001 -0.050993945 1.5206356e-38 272 284
-0.054470807 0.66100001 -0.050993945 1.4930129e-38 273 284
-0.053311851 0.66100001 -0.050993945 1.5114147e-38 274 284
-0.051995095 0.65899998 -0.050839648 1.5114147e-38 275 284
-0.050762504 0.65799999 -0.050762504 1.5204911e-38 276 284
-0.049608808 0.65799999 -0.050762504 1.5389302e-38 277 284
-0.048455119 0.65799999 -0.050762504 1.5388602e-38 278 284
-0.04722954 0.65700001 -0.050685361 1.5480797e-38 279 284
-0.046077598 0.65700001 -0.050685361 1.5297135e-38 280 284
-0.04492566 0.65700001 -0.050685361 1.5573361e-38 281 284
-0.043773718 0.65700001 -0.050685361 1.5390046e-38 282 284
-0.04262178 0.65700001 -0.050685361 1.5482602e-38 283 284
-0.041469838 0.65700001 -0.050685361 1.5391122e-38 284 284
-0.0403179 0.65700001 -0.050685361 1.5391122e-38 285 284
-0.039165959 0.65700001 -0.050685361 1.5207807e-38 286 284
-0.038014017 0.65700001 -0.050685361 1.5300003e-38 287 284
-0.036862079 0.65700001 -0.050685361 1.5483318e-38 288 284
-0.035710141 0.65700001 -0.050685361 1.5483318e-38 289 284
-0.034558199 0.65700001 -0.050685361 1.5575514e-38 290 284
-0.033406258 0.65700001 -0.050685361 1.5575514e-38 291 284
-0.032156132 0.65499997 -0.050531063 1.5758473e-38 292 284
-0.031007698 0.65499997 -0.050531063 1.5758473e-38 293 284
-0.029859263 0.65499997 -0.050531063 1.5758476e-38 294 284
-0.028710833 0.65499997 -0.050531063 1.5850671e-38 295 284
-0.027562398 0.65499997 -0.050531063 1.5758826e-38 296 284
-0.026413966 0.65499997 -0.050531063 1.5758826e-38 297 284
-0.025265532 0.65499997 -0.050531063 1.5667709e-38 298 284
-0.024117097 0.65499997 -0.050531063 1.5667709e-38 299 284
-0.022933599 0.65399998 -0.050453916 1.5576235e-38 300 284
-0.021786919 0.65399998 -0.050453916 1.5391846e-38 301 284
-0.020608678 0.653 -0.050376773 1.5575882e-38 302 284
-0.019463753 0.653 -0.050376773 1.5575882e-38 303 284
-0.018318826 0.653 -0.050376773 1.5667728e-38 304 284
-0.017173899 0.653 -0.050376773 1.5575532e-38 305 284
-0.01605352 0.65399998 -0.050453916 1.5759204e-38 306 284
-0.014906839 0.65399998 -0.050453916 1.5759204e-38 307 284
-0.013760159 0.65399998 -0.050453916 1.5758123e-38 308 284
-0.012613479 0.65399998 -0.050453916 1.5574091e-38 309 284
-0.011466799 0.65399998 -0.050453916 1.5482612e-38 310 284
-0.010335899 0.65499997 -0.050531063 1.5482612e-38 311 284
-0.0091874655 0.65499997 -0.050531063 1.5299302e-38 312 284
-0.008039033 0.65499997 -0.050531063 1.5299302e-38 313 284
-0.0068905996 0.65499997 -0.050531063 1.5206751e-38 314 284
-0.0057333997 0.65399998 -0.050453916 1.5206751e-38 315 284
-0.0045867199 0.65399998 -0.050453916 1.5114558e-38 316 284
-0.0034400397 0.65399998 -0.050453916 1.5298949e-38 317 284
-0.00229336 0.65399998 -0.050453916 1.5114921e-38 318 284
-0.00114668 0.65399998 -0.050453916 1.5207117e-38 319 284
0 0.65399998 -0.050453916 1.5207472e-38 320 284
0.0011484332 0.65499997 -0.050531063 1.5299668e-38 321 284
0.0022968664 0.65499997 -0.050531063 1.5299668e-38 322 284
0.0034452998 0.65499997 -0.050531063 1.5299668e-38 323 284
0.0045937328 0.65499997 -0.050531063 1.5207117e-38 324 284
0.0057421662 0.65499997 -0.050531063 1.5207117e-38 325 284
0.0068905996 0.65499997 -0.050531063 1.5207117e-38 326 284
0.008039033 0.65499997 -0.050531063 1.5207117e-38 327 284
0.0091874655 0.65499997 -0.050531063 1.5206754e-38 328 284
0.010335899 0.65499997 -0.050531063 1.5114558e-38 329 284
0.011484332 0.65499997 -0.050531063 1.447134e-38 330 284
0.012632766 0.65499997 -0.050531063 1.447134e-38 331 284
0.013781199 0.65499997 -0.050531063 1.4562453e-38 332 284
0.01497522 0.65700001 -0.050685361 1.4286227e-38 333 284
0.016151706 0.65799999 -0.050762504 1.3919235e-38 334 284
0.017331699 0.65899998 -0.050839648 1.3642289e-38 335 284
0.018487146 0.65899998 -0.050839648 1.3548301e-38 336 284
0.019642593 0.65899998 -0.050839648 1.3456106e-38 337 284
0.02086116 0.66100001 -0.050993945 1.327244e-38 338 284
0.022020113 0.66100001 -0.050993945 1.327244e-38 339 284
0.023179067 0.66100001 -0.050993945 1.3180248e-38 340 284
0.024374841 0.662 -0.051071092 1.3180248e-38 341 284
0.025535546 0.662 -0.051071092 1.2996951e-38 342 284
0.026696252 0.662 -0.051071092 1.2904396e-38 343 284
0.027899038 0.66299999 -0.051148236 1.2995166e-38 344 284
0.029061496 0.66299999 -0.051148236 1.2811134e-38 345 284
0.030269546 0.66399997 -0.051225383 1.2627106e-38 346 284
0.031433757 0.66399997 -0.051225383 1.2443075e-38 347 284
0.032696161 0.66600001 -0.051379681 1.2442725e-38 348 284
0.03386388 0.66600001 -0.051379681 1.2350528e-38 349 284
0.035084199 0.667 -0.051456824 1.1983184e-38 350 284
0.036416732 0.67000002 -0.051688269 1.1983184e-38 351 284
0.037591465 0.67000002 -0.051688269 1.1983184e-38 352 284
0.038824059 0.671 -0.051765412 1.1983184e-38 353 284
0.040000543 0.671 -0.051765412 1.2167933e-38 354 284
0.041177034 0.671 -0.051765412 1.2260128e-38 355 284
0.042416636 0.67199999 -0.051842555 1.244416e-38 356 284
0.043594878 0.67199999 -0.051842555 1.2536355e-38 357 284
0.044906374 0.67400002 -0.051996857 1.2536711e-38 358 284
0.0461565 0.67500001 -0.052074 1.2628907e-38 359 284
0.047410134 0.676 -0.052151144 1.2445592e-38 360 284
0.048595384 0.676 -0.052151144 1.2537787e-38 361 284
0.050001562 0.67900002 -0.052382588 1.253851e-38 362 284
0.051267464 0.68000001 -0.052459732 1.2722902e-38 363 284
0.052614026 0.68199998 -0.052614026 1.2539958e-38 364 284
0.053888701 0.68300003 -0.052691177 1.2539958e-38 365 284
0.055086225 0.68300003 -0.052691177 1.2078646e-38 366 284
0.056283753 0.68300003 -0.052691177 1.1433277e-38 367 284
-0.10720405 0.68699998 -0.054204296 1.2810431e-38 231 285
-0.10599951 0.68699998 -0.054204296 1.2993704e-38 232 285
-0.10464244 0.68599999 -0.054125395 1.290115e-38 233 285
-0.10313808 0.68400002 -0.053967599 1.2626348e-38 234 285
-0.1019388 0.68400002 -0.053967599 1.2533794e-38 235 285
-0.10059224 0.68300003 -0.053888701 1.2349762e-38 236 285
-0.099394716 0.68300003 -0.053888701 1.2257565e-38 237 285
-0.098053411 0.68199998 -0.053809796 1.2165738e-38 238 285
-0.096431576 0.67900002 -0.053573098 1.2165738e-38 239 285
-0.09510079 0.67799997 -0.053494196 1.1981718e-38 240 285
-0.093912028 0.67799997 -0.053494196 1.1981718e-38 241 285
-0.092449754 0.676 -0.053336397 1.1982073e-38 242 285
-0.091264501 0.676 -0.053336397 1.207427e-38 243 285
-0.090079248 0.676 -0.053336397 1.2257933e-38 244 285
-0.088893995 0.676 -0.053336397 1.2257933e-38 245 285
-0.087708741 0.676 -0.053336397 1.2167172e-38 246 285
-0.086523488 0.676 -0.053336397 1.2351203e-38 247 285
-0.085085757 0.67400002 -0.053178601 1.2351203e-38 248 285
-0.083655037 0.67199999 -0.053020798 1.2351203e-38 249 285
-0.082476802 0.67199999 -0.053020798 1.2626342e-38 250 285
-0.081177577 0.671 -0.052941896 1.2626342e-38 251 285
-0.079881869 0.67000002 -0.052863002 1.2718175e-38 252 285
-0.078707129 0.67000002 -0.052863002 1.2718175e-38 253 285
-0.077532403 0.67000002 -0.052863002 1.253415e-38 254 285
-0.076129727 0.66799998 -0.052705199 1.2626345e-38 255 285
-0.074958503 0.66799998 -0.052705199 1.2625629e-38 256 285
-0.073787279 0.66799998 -0.052705199 1.2717825e-38 257 285
-0.072507344 0.667 -0.052626297 1.2901856e-38 258 285
-0.071337871 0.667 -0.052626297 1.2717825e-38 259 285
-0.070063196 0.66600001 -0.052547399 1.2627071e-38 260 285
-0.068895474 0.66600001 -0.052547399 1.2627071e-38 261 285
-0.067524366 0.66399997 -0.052389596 1.2995132e-38 262 285
-0.066260219 0.66299999 -0.052310698 1.2810739e-38 263 285
-0.065097757 0.66299999 -0.052310698 1.2902209e-38 264 285
-0.063838862 0.662 -0.0522318 1.2902209e-38 265 285
-0.062678158 0.662 -0.0522318 1.290436e-38 266 285
-0.061517447 0.662 -0.0522318 1.3088753e-38 267 285
-0.060356744 0.662 -0.0522318 1.3456812e-38 268 285
-0.05919604 0.662 -0.0522318 1.3641203e-38 269 285
-0.058035329 0.662 -0.0522318 1.400997e-38 270 285
-0.056788713 0.66100001 -0.052152898 1.4102166e-38 271 285
-0.05562976 0.66100001 -0.052152898 1.4469147e-38 272 285
-0.054470807 0.66100001 -0.052152898 1.4561342e-38 273 285
-0.053311851 0.66100001 -0.052152898 1.4286194e-38 274 285
-0.051995095 0.65899998 -0.051995095 1.4286194e-38 275 285
-0.050762504 0.65799999 -0.051916201 1.4561342e-38 276 285
-0.049608808 0.65799999 -0.051916201 1.4653538e-38 277 285
-0.048455119 0.65799999 -0.051916201 1.4653187e-38 278 285
-0.04722954 0.65700001 -0.051837299 1.4745383e-38 279 285
-0.046077598 0.65700001 -0.051837299 1.474575e-38 280 285
-0.04492566 0.65700001 -0.051837299 1.4837946e-38 281 285
-0.043773718 0.65700001 -0.051837299 1.4930497e-38 282 285
-0.04262178 0.65700001 -0.051837299 1.4930497e-38 283 285
-0.041469838 0.65700001 -0.051837299 1.4930495e-38 284 285
-0.0403179 0.65700001 -0.051837299 1.4930495e-38 285 285
-0.039165959 0.65700001 -0.051837299 1.4747548e-38 286 285
-0.038014017 0.65700001 -0.051837299 1.4839744e-38 287 285
-0.036862079 0.65700001 -0.051837299 1.5023409e-38 288 285
-0.035710141 0.65700001 -0.051837299 1.5023409e-38 289 285
-0.034452997 0.65499997 -0.051679496 1.5115963e-38 290 285
-0.033304565 0.65499997 -0.051679496 1.5115963e-38 291 285
-0.032156132 0.65499997 -0.051679496 1.4931595e-38 292 285
-0.031007698 0.65499997 -0.051679496 1.5115627e-38 293 285
-0.029859263 0.65499997 -0.051679496 1.4931609e-38 294 285
-0.028710833 0.65499997 -0.051679496 1.4931609e-38 295 285
-0.027562398 0.65499997 -0.051679496 1.4931962e-38 296 285
-0.02637364 0.65399998 -0.051600594 1.4839766e-38 297 285
-0.025226958 0.65399998 -0.051600594 1.4932312e-38 298 285
-0.024080278 0.65399998 -0.051600594 1.4932312e-38 299 285
-0.022933599 0.65399998 -0.051600594 1.511598e-38 300 285
-0.021786919 0.65399998 -0.051600594 1.511598e-38 301 285
-0.020608678 0.653 -0.0515217 1.4930887e-38 302 285
-0.019463753 0.653 -0.0515217 1.5115277e-38 303 285
-0.018318826 0.653 -0.0515217 1.5207472e-38 304 285
-0.017173899 0.653 -0.0515217 1.5115277e-38 305 285
-0.016028972 0.653 -0.0515217 1.52993e-38 306 285
-0.014884046 0.653 -0.0515217 1.52993e-38 307 285
-0.013760159 0.65399998 -0.051600594 1.5389696e-38 308 285
-0.012613479 0.65399998 -0.051600594 1.52975e-38 309 285
-0.011466799 0.65399998 -0.051600594 1.5207101e-38 310 285
-0.01032012 0.65399998 -0.051600594 1.5114904e-38 311 285
-0.0091874655 0.65499997 -0.051679496 1.5298216e-38 312 285
-0.008039033 0.65499997 -0.051679496 1.5114185e-38 313 285
-0.0068905996 0.65499997 -0.051679496 1.4654296e-38 314 285
-0.0057333997 0.65399998 -0.051600594 1.4654296e-38 315 285
-0.0045867199 0.65399998 -0.051600594 1.4286958e-38 316 285
-0.0034400397 0.65399998 -0.051600594 1.4471349e-38 317 285
-0.00229336 0.65399998 -0.051600594 1.4747216e-38 318 285
-0.00114668 0.65399998 -0.051600594 1.4563185e-38 319 285
0 0.65399998 -0.051600594 1.4563179e-38 320 285
0.0011484332 0.65499997 -0.051679496 1.4563179e-38 321 285
0.0022968664 0.65499997 -0.051679496 1.474685e-38 322 285
0.0034452998 0.65499997 -0.051679496 1.474685e-38 323 285
0.0045937328 0.65499997 -0.051679496 1.4470636e-38 324 285
0.0057421662 0.65499997 -0.051679496 1.4470636e-38 325 285
0.0068905996 0.65499997 -0.051679496 1.4378435e-38 326 285
0.008039033 0.65499997 -0.051679496 1.4378435e-38 327 285
0.0091874655 0.65499997 -0.051679496 1.4470258e-38 328 285
0.010335899 0.65499997 -0.051679496 1.4286227e-38 329 285
0.011484332 0.65499997 -0.051679496 1.3918516e-38 330 285
0.012632766 0.65499997 -0.051679496 1.382632e-38 331 285
0.013781199 0.65499997 -0.051679496 1.3734125e-38 332 285
0.01497522 0.65700001 -0.051837299 1.364157e-38 333 285
0.01612716 0.65700001 -0.051837299 1.3366081e-38 334 285
0.017305398 0.65799999 -0.051916201 1.3273885e-38 335 285
0.018459093 0.65799999 -0.051916201 1.2904402e-38 336 285
0.019642593 0.65899998 -0.051995095 1.2812206e-38 337 285
0.020798039 0.65899998 -0.051995095 1.2995519e-38 338 285
0.022020113 0.66100001 -0.052152898 1.2995519e-38 339 285
0.023179067 0.66100001 -0.052152898 1.2811485e-38 340 285
0.02433802 0.66100001 -0.052152898 1.2811485e-38 341 285
0.025535546 0.662 -0.0522318 1.2719652e-38 342 285
0.026696252 0.662 -0.0522318 1.2627456e-38 343 285
0.027899038 0.66299999 -0.052310698 1.2443425e-38 344 285
0.02910533 0.66399997 -0.052389596 1.2443425e-38 345 285
0.030269546 0.66399997 -0.052389596 1.2259396e-38 346 285
0.031433757 0.66399997 -0.052389596 1.2259396e-38 347 285
0.032696161 0.66600001 -0.052547399 1.1982463e-38 348 285
0.03386388 0.66600001 -0.052547399 1.1982463e-38 349 285
0.035136797 0.66799998 -0.052705199 1.1431815e-38 350 285
0.036416732 0.67000002 -0.052863002 1.1431815e-38 351 285
0.037591465 0.67000002 -0.052863002 1.179844e-38 352 285
0.038824059 0.671 -0.052941896 1.1982831e-38 353 285
0.040000543 0.671 -0.052941896 1.1892068e-38 354 285
0.041177034 0.671 -0.052941896 1.2168296e-38 355 285
0.042416636 0.67199999 -0.053020798 1.2260847e-38 356 285
0.043594878 0.67199999 -0.053020798 1.2445239e-38 357 285
0.044906374 0.67400002 -0.053178601 1.2445592e-38 358 285
0.0461565 0.67500001 -0.053257499 1.2445592e-38 359 285
0.047410134 0.676 -0.053336397 1.2446311e-38 360 285
0.048595384 0.676 -0.053336397 1.2538508e-38 361 285
0.050001562 0.67900002 -0.053573098 1.2355561e-38 362 285
0.051267464 0.68000001 -0.053652 1.2355561e-38 363 285
0.052459732 0.68000001 -0.053652 1.2447053e-38 364 285
0.053652 0.68000001 -0.053652 1.2170466e-38 365 285
-0.10736011 0.68800002 -0.055489492 1.3087772e-38 231 286
-0.10599951 0.68699998 -0.055408835 1.28115e-38 232 286
-0.10479497 0.68699998 -0.055408835 1.2350522e-38 233 286
-0.10313808 0.68400002 -0.055166878 1.2443046e-38 234 286
-0.1019388 0.68400002 -0.055166878 1.235085e-38 235 286
-0.10059224 0.68300003 -0.055086225 1.2350481e-38 236 286
-0.099249184 0.68199998 -0.055005573 1.2258286e-38 237 286
-0.098053411 0.68199998 -0.055005573 1.198242e-38 238 286
-0.096573599 0.68000001 -0.054844268 1.1890225e-38 239 286
-0.095241062 0.67900002 -0.054763615 1.1982426e-38 240 286
-0.093912028 0.67799997 -0.054682959 1.1889872e-38 241 286
-0.092723273 0.67799997 -0.054682959 1.1981704e-38 242 286
-0.091264501 0.676 -0.054521654 1.1981704e-38 243 286
-0.090079248 0.676 -0.054521654 1.2257565e-38 244 286
-0.088893995 0.676 -0.054521654 1.216537e-38 245 286
-0.087708741 0.676 -0.054521654 1.2441231e-38 246 286
-0.086395502 0.67500001 -0.054441001 1.2533428e-38 247 286
-0.085085757 0.67400002 -0.054360349 1.2350118e-38 248 286
-0.083655037 0.67199999 -0.054199036 1.2350118e-38 249 286
-0.082476802 0.67199999 -0.054199036 1.2809294e-38 250 286
-0.081177577 0.671 -0.054118387 1.2809294e-38 251 286
-0.079881869 0.67000002 -0.054037735 1.2809294e-38 252 286
-0.078707129 0.67000002 -0.054037735 1.271674e-38 253 286
-0.077532403 0.67000002 -0.054037735 1.2533428e-38 254 286
-0.076129727 0.66799998 -0.053876422 1.2625623e-38 255 286
-0.074958503 0.66799998 -0.053876422 1.2533431e-38 256 286
-0.073787279 0.66799998 -0.053876422 1.2625626e-38 257 286
-0.072507344 0.667 -0.05379577 1.2901134e-38 258 286
-0.071337871 0.667 -0.05379577 1.2901134e-38 259 286
-0.070168398 0.667 -0.05379577 1.2626698e-38 260 286
-0.068895474 0.66600001 -0.053715117 1.2626698e-38 261 286
-0.067524366 0.66399997 -0.053553808 1.2993686e-38 262 286
-0.066260219 0.66299999 -0.053473156 1.290149e-38 263 286
-0.065097757 0.66299999 -0.053473156 1.3084452e-38 264 286
-0.063838862 0.662 -0.053392503 1.2900421e-38 265 286
-0.062678158 0.662 -0.053392503 1.2258286e-38 266 286
-0.061517447 0.662 -0.053392503 1.2350481e-38 267 286
-0.060356744 0.662 -0.053392503 1.2718175e-38 268 286
-0.059106622 0.66100001 -0.053311851 1.3086597e-38 269 286
-0.057947662 0.66100001 -0.053311851 1.2995108e-38 270 286
-0.056788713 0.66100001 -0.053311851 1.3087304e-38 271 286
-0.05562976 0.66100001 -0.053311851 1.317985e-38 272 286
-0.054305989 0.65899998 -0.053150542 1.317985e-38 273 286
-0.053150542 0.65899998 -0.053150542 1.317985e-38 274 286
-0.051916201 0.65799999 -0.05306989 1.317985e-38 275 286
-0.050762504 0.65799999 -0.05306989 1.3363521e-38 276 286
-0.049533416 0.65700001 -0.052989237 1.3179131e-38 277 286
-0.048381478 0.65700001 -0.052989237 1.327025e-38 278 286
-0.04722954 0.65700001 -0.052989237 1.3454641e-38 279 286
-0.046077598 0.65700001 -0.052989237 1.354756e-38 280 286
-0.04492566 0.65700001 -0.052989237 1.3639756e-38 281 286
-0.043773718 0.65700001 -0.052989237 1.3824506e-38 282 286
-0.04262178 0.65700001 -0.052989237 1.4008537e-38 283 286
-0.041469838 0.65700001 -0.052989237 1.4007099e-38 284 286
-0.0403179 0.65700001 -0.052989237 1.419113e-38 285 286
-0.039046731 0.65499997 -0.052827932 1.3458964e-38 286 286
-0.037898298 0.65499997 -0.052827932 1.3642996e-38 287 286
-0.036749862 0.65499997 -0.052827932 1.410181e-38 288 286
-0.03560143 0.65499997 -0.052827932 1.42862e-38 289 286
-0.034452997 0.65499997 -0.052827932 1.437804e-38 290 286
-0.033304565 0.65499997 -0.052827932 1.4562791e-38 291 286
-0.032156132 0.65499997 -0.052827932 1.5020189e-38 292 286
-0.031007698 0.65499997 -0.052827932 1.5020189e-38 293 286
-0.029859263 0.65499997 -0.052827932 1.4379138e-38 294 286
-0.028710833 0.65499997 -0.052827932 1.4286943e-38 295 286
-0.027520318 0.65399998 -0.052747279 1.4470611e-38 296 286
-0.02637364 0.65399998 -0.052747279 1.4562807e-38 297 286
-0.025226958 0.65399998 -0.052747279 1.4837951e-38 298 286
-0.024080278 0.65399998 -0.052747279 1.46532e-38 299 286
-0.022898532 0.653 -0.052666627 1.4011433e-38 300 286
-0.021720294 0.65200001 -0.052585974 1.410363e-38 301 286
-0.02057712 0.65200001 -0.052585974 1.474505e-38 302 286
-0.019433947 0.65200001 -0.052585974 1.4837245e-38 303 286
-0.018318826 0.653 -0.052666627 1.4562088e-38 304 286
-0.017173899 0.653 -0.052666627 1.4469891e-38 305 286
-0.016028972 0.653 -0.052666627 1.4194377e-38 306 286
-0.014884046 0.653 -0.052666627 1.4194377e-38 307 286
-0.013760159 0.65399998 -0.052747279 1.4377689e-38 308 286
-0.012613479 0.65399998 -0.052747279 1.4285494e-38 309 286
-0.011466799 0.65399998 -0.052747279 1.4468087e-38 310 286
-0.01032012 0.65399998 -0.052747279 1.4375892e-38 311 286
-0.0091734398 0.65399998 -0.052747279 1.4099663e-38 312 286
-0.0080267601 0.65399998 -0.052747279 1.3730522e-38 313 286
-0.0068800794 0.65399998 -0.052747279 1.2995482e-38 314 286
-0.0057333997 0.65399998 -0.052747279 1.281109e-38 315 286
-0.0045867199 0.65399998 -0.052747279 1.2720343e-38 316 286
-0.0034400397 0.65399998 -0.052747279 1.299657e-38 317 286
-0.00229336 0.65399998 -0.052747279 1.3090217e-38 318 286
-0.00114668 0.65399998 -0.052747279 1.3366804e-38 319 286
0 0.65399998 -0.052747279 1.3639071e-38 320 286
0.0011484332 0.65499997 -0.052827932 1.3731266e-38 321 286
0.0022968664 0.65499997 -0.052827932 1.3548301e-38 322 286
0.0034452998 0.65499997 -0.052827932 1.3456106e-38 323 286
0.0045937328 0.65499997 -0.052827932 1.3640148e-38 324 286
0.0057421662 0.65499997 -0.052827932 1.3547951e-38 325 286
0.0068905996 0.65499997 -0.052827932 1.3180245e-38 326 286
0.008039033 0.65499997 -0.052827932 1.3180245e-38 327 286
0.0091874655 0.65499997 -0.052827932 1.364122e-38 328 286
0.010335899 0.65499997 -0.052827932 1.3456827e-38 329 286
0.011484332 0.65499997 -0.052827932 1.308985e-38 330 286
0.012632766 0.65499997 -0.052827932 1.2997654e-38 331 286
0.013781199 0.65499997 -0.052827932 1.2996572e-38 332 286
0.01497522 0.65700001 -0.052989237 1.3088768e-38 333 286
0.01612716 0.65700001 -0.052989237 1.3179894e-38 334 286
0.017305398 0.65799999 -0.05306989 1.3179894e-38 335 286
0.018459093 0.65799999 -0.05306989 1.2995513e-38 336 286
0.019642593 0.65899998 -0.053150542 1.2811482e-38 337 286
0.020798039 0.65899998 -0.053150542 1.2720008e-38 338 286
0.022020113 0.66100001 -0.053311851 1.2720008e-38 339 286
