# .PCD v.7 - Point Cloud Data file format
FIELDS x y z rgb imX imY
SIZE 4 4 4 4 4 4
TYPE F F F F F F
COUNT 1 1 1 1 1 1
WIDTH 842
HEIGHT 1
VIEWPOINT 0 0 0 1 0 0 0
POINTS 842
DATA ascii
0.099603355 0.78899997 -0.011067039 1.3270292e-38 392 248
0.10098673 0.78899997 -0.011067039 1.2532727e-38 393 248
0.10249986 0.79000002 -0.011081067 1.2166892e-38 394 248
0.066486403 0.79000002 -0.0124662 1.2539254e-38 368 249
0.067785613 0.78899997 -0.012450419 1.2999874e-38 369 249
0.069168992 0.78899997 -0.012450419 1.400969e-38 370 249
0.070552371 0.78899997 -0.012450419 1.4101886e-38 371 249
0.071935758 0.78899997 -0.012450419 1.4562495e-38 372 249
0.073133282 0.787 -0.01241886 1.5115668e-38 373 249
0.074323803 0.78500003 -0.0123873 1.5484076e-38 374 249
0.075700171 0.78500003 -0.0123873 1.5853217e-38 375 249
0.076880157 0.78299999 -0.012355739 1.5854284e-38 376 249
0.078253016 0.78299999 -0.012355739 1.594684e-38 377 249
0.079625882 0.78299999 -0.012355739 1.6039398e-38 378 249
0.080998734 0.78299999 -0.012355739 1.6316344e-38 379 249
0.082161196 0.78100002 -0.01232418 1.6316361e-38 380 249
0.083530553 0.78100002 -0.01232418 1.6408556e-38 381 249
0.084899902 0.78100002 -0.01232418 1.6774818e-38 382 249
0.086269259 0.78100002 -0.01232418 1.649859e-38 383 249
0.087638609 0.78100002 -0.01232418 1.6497136e-38 384 249
0.089007966 0.78100002 -0.01232418 1.6036517e-38 385 249
0.090377316 0.78100002 -0.01232418 1.5574813e-38 386 249
0.091746673 0.78100002 -0.01232418 1.5113835e-38 387 249
0.092996791 0.77999997 -0.012308398 1.4561737e-38 388 249
0.094364397 0.77999997 -0.012308398 1.428479e-38 389 249
0.095854737 0.78100002 -0.01232418 1.4099677e-38 390 249
0.097971 0.787 -0.01241886 1.3639058e-38 391 249
0.099350877 0.787 -0.01241886 1.3361406e-38 392 249
0.10073075 0.787 -0.01241886 1.2716037e-38 393 249
0.10249986 0.79000002 -0.0124662 1.216617e-38 394 249
0.066486403 0.79000002 -0.013851333 1.2539254e-38 368 250
0.067785613 0.78899997 -0.013833799 1.2999874e-38 369 250
0.069168992 0.78899997 -0.013833799 1.4010043e-38 370 250
0.070373543 0.787 -0.013798732 1.4102239e-38 371 250
0.071753412 0.787 -0.013798732 1.4745455e-38 372 250
0.073133282 0.787 -0.013798732 1.50224e-38 373 250
0.074323803 0.78500003 -0.013763667 1.5575559e-38 374 250
0.075507298 0.78299999 -0.013728599 1.5851785e-38 375 250
0.076880157 0.78299999 -0.013728599 1.5945038e-38 376 250
0.078253016 0.78299999 -0.013728599 1.6129429e-38 377 250
0.079625882 0.78299999 -0.013728599 1.6222347e-38 378 250
0.080791846 0.78100002 -0.013693534 1.6498934e-38 379 250
0.082161196 0.78100002 -0.013693534 1.6499676e-38 380 250
0.083530553 0.78100002 -0.013693534 1.6499676e-38 381 250
0.084899902 0.78100002 -0.013693534 1.6865591e-38 382 250
0.086269259 0.78100002 -0.013693534 1.6681198e-38 383 250
0.087526396 0.77999997 -0.013675999 1.6313124e-38 384 250
0.088893995 0.77999997 -0.013675999 1.5943981e-38 385 250
0.090261593 0.77999997 -0.013675999 1.5390797e-38 386 250
0.091629192 0.77999997 -0.013675999 1.5113852e-38 387 250
0.092996791 0.77999997 -0.013675999 1.465358e-38 388 250
0.094364397 0.77999997 -0.013675999 1.4284437e-38 389 250
0.095854737 0.78100002 -0.013693534 1.4191157e-38 390 250
0.097722031 0.78500003 -0.013763667 1.391421e-38 391 250
0.099098399 0.78500003 -0.013763667 1.3453242e-38 392 250
0.10047477 0.78500003 -0.013763667 1.2900068e-38 393 250
0.10185113 0.78500003 -0.013763667 1.244239e-38 394 250
0.066402234 0.78899997 -0.015217179 1.2538175e-38 368 251
0.067613788 0.787 -0.015178605 1.3183545e-38 369 251
0.068993665 0.787 -0.015178605 1.4010396e-38 370 251
0.070373543 0.787 -0.015178605 1.4102592e-38 371 251
0.071753412 0.787 -0.015178605 1.4928402e-38 372 251
0.072947428 0.78500003 -0.015140033 1.5297545e-38 373 251
0.074323803 0.78500003 -0.015140033 1.5483362e-38 374 251
0.075507298 0.78299999 -0.01510146 1.5943981e-38 375 251
0.076880157 0.78299999 -0.01510146 1.5853924e-38 376 251
0.078053139 0.78100002 -0.015062887 1.6130152e-38 377 251
0.079422489 0.78100002 -0.015062887 1.6314543e-38 378 251
0.080791846 0.78100002 -0.015062887 1.6406739e-38 379 251
0.082161196 0.78100002 -0.015062887 1.6682621e-38 380 251
0.083530553 0.78100002 -0.015062887 1.6682621e-38 381 251
0.084791191 0.77999997 -0.0150436 1.6681198e-38 382 251
0.086158797 0.77999997 -0.0150436 1.6312417e-38 383 251
0.08730197 0.778 -0.015005025 1.6311687e-38 384 251
0.088666067 0.778 -0.015005025 1.603546e-38 385 251
0.090030156 0.778 -0.015005025 1.5207848e-38 386 251
0.091629192 0.77999997 -0.0150436 1.4838707e-38 387 251
0.092996791 0.77999997 -0.0150436 1.4654301e-38 388 251
0.094364397 0.77999997 -0.0150436 1.4193323e-38 389 251
0.095854737 0.78100002 -0.015062887 1.4191523e-38 390 251
0.097473055 0.78299999 -0.01510146 1.3730903e-38 391 251
0.099098399 0.78500003 -0.015140033 1.3269939e-38 392 251
0.10047477 0.78500003 -0.015140033 1.2716765e-38 393 251
0.10185113 0.78500003 -0.015140033 1.2534229e-38 394 251
0.1032275 0.78500003 -0.015140033 1.4193751e-38 395 251
0.066402234 0.78899997 -0.016600559 1.2721848e-38 368 252
0.067613788 0.787 -0.01655848 1.3367217e-38 369 252
0.068993665 0.787 -0.01655848 1.4102589e-38 370 252
0.070194699 0.78500003 -0.016516401 1.4194785e-38 371 252
0.071571067 0.78500003 -0.016516401 1.4837287e-38 372 252
0.072947428 0.78500003 -0.016516401 1.520571e-38 373 252
0.074134432 0.78299999 -0.01647432 1.5392256e-38 374 252
0.075507298 0.78299999 -0.01647432 1.5668842e-38 375 252
0.076683782 0.78100002 -0.016432239 1.5853936e-38 376 252
0.078053139 0.78100002 -0.016432239 1.6038329e-38 377 252
0.079320796 0.77999997 -0.016411198 1.631419e-38 378 252
0.080688395 0.77999997 -0.016411198 1.649894e-38 379 252
0.082055993 0.77999997 -0.016411198 1.6497881e-38 380 252
0.083423592 0.77999997 -0.016411198 1.6405685e-38 381 252
0.084573783 0.778 -0.016369121 1.6312417e-38 382 252
0.08593788 0.778 -0.016369121 1.5851079e-38 383 252
0.087077543 0.77600002 -0.01632704 1.5668123e-38 384 252
0.088438138 0.77600002 -0.01632704 1.5575927e-38 385 252
0.090030156 0.778 -0.016369121 1.539116e-38 386 252
0.091394253 0.778 -0.016369121 1.4930184e-38 387 252
0.092758343 0.778 -0.016369121 1.4837245e-38 388 252
0.094364397 0.77999997 -0.016411198 1.4468463e-38 389 252
0.095854737 0.78100002 -0.016432239 1.4190804e-38 390 252
0.097473055 0.78299999 -0.01647432 1.382202e-38 391 252
0.098845914 0.78299999 -0.01647432 1.3361412e-38 392 252
0.10021878 0.78299999 -0.01647432 1.2900434e-38 393 252
0.10159164 0.78299999 -0.01647432 1.2442387e-38 394 252
0.10296449 0.78299999 -0.01647432 1.3825321e-38 395 252
0.066402234 0.78899997 -0.017983939 1.2995908e-38 368 253
0.067613788 0.787 -0.017938353 1.3826028e-38 369 253
0.068993665 0.787 -0.017938353 1.4102592e-38 370 253
0.070194699 0.78500003 -0.017892767 1.4194788e-38 371 253
0.071571067 0.78500003 -0.017892767 1.4745443e-38 372 253
0.07276158 0.78299999 -0.017847179 1.5298258e-38 373 253
0.074134432 0.78299999 -0.017847179 1.548301e-38 374 253
0.075314432 0.78100002 -0.017801592 1.6036182e-38 375 253
0.076585598 0.77999997 -0.017778799 1.6220928e-38 376 253
0.077953197 0.77999997 -0.017778799 1.6497155e-38 377 253
0.079320796 0.77999997 -0.017778799 1.6406035e-38 378 253
0.080481507 0.778 -0.017733213 1.6406035e-38 379 253
0.081845596 0.778 -0.017733213 1.6220572e-38 380 253
0.083209693 0.778 -0.017733213 1.6036179e-38 381 253
0.084573783 0.778 -0.017733213 1.5573406e-38 382 253
0.085716955 0.77600002 -0.017687626 1.5388656e-38 383 253
0.087077543 0.77600002 -0.017687626 1.5757799e-38 384 253
0.088438138 0.77600002 -0.017687626 1.594183e-38 385 253
0.089798726 0.77600002 -0.017687626 1.5483359e-38 386 253
0.091394253 0.778 -0.017733213 1.4930186e-38 387 253
0.092758343 0.778 -0.017733213 1.4746144e-38 388 253
0.094122432 0.778 -0.017733213 1.4285167e-38 389 253
0.095854737 0.78100002 -0.017801592 1.4007504e-38 390 253
0.097224087 0.78100002 -0.017801592 1.3730916e-38 391 253
0.098845914 0.78299999 -0.017847179 1.3269589e-38 392 253
0.10021878 0.78299999 -0.017847179 1.3085198e-38 393 253
0.10133215 0.78100002 -0.017801592 1.2166526e-38 394 253
0.1027015 0.78100002 -0.017801592 1.3180318e-38 395 253
0.066402234 0.78899997 -0.019367319 1.2720769e-38 368 254
0.067613788 0.787 -0.019318225 1.3458334e-38 369 254
0.068818331 0.78500003 -0.019269135 1.382745e-38 370 254
0.070194699 0.78500003 -0.019269135 1.3919646e-38 371 254
0.071388714 0.78299999 -0.019220039 1.4562495e-38 372 254
0.07276158 0.78299999 -0.019220039 1.5023472e-38 373 254
0.073945075 0.78100002 -0.019170946 1.5300779e-38 374 254
0.075314432 0.78100002 -0.019170946 1.5577725e-38 375 254
0.076585598 0.77999997 -0.0191464 1.585395e-38 376 254
0.077953197 0.77999997 -0.0191464 1.5946505e-38 377 254
0.07911741 0.778 -0.019097306 1.6406035e-38 378 254
0.080481507 0.778 -0.019097306 1.631384e-38 379 254
0.081845596 0.778 -0.019097306 1.6220572e-38 380 254
0.082995787 0.77600002 -0.019048214 1.5206419e-38 381 254
0.084356368 0.77600002 -0.019048214 1.4928756e-38 382 254
0.085716955 0.77600002 -0.019048214 1.4559974e-38 383 254
0.087077543 0.77600002 -0.019048214 1.4654691e-38 384 254
0.088438138 0.77600002 -0.019048214 1.530006e-38 385 254
0.089798726 0.77600002 -0.019048214 1.5023104e-38 386 254
0.091629192 0.77999997 -0.0191464 1.4838712e-38 387 254
0.092758343 0.778 -0.019097306 1.4653583e-38 388 254
0.094122432 0.778 -0.019097306 1.4376636e-38 389 254
0.095854737 0.78100002 -0.019170946 1.409933e-38 390 254
0.097224087 0.78100002 -0.019170946 1.3730547e-38 391 254
0.098593444 0.78100002 -0.019170946 1.3452901e-38 392 254
0.099962793 0.78100002 -0.019170946 1.3360705e-38 393 254
0.10133215 0.78100002 -0.019170946 1.2257643e-38 394 254
0.1027015 0.78100002 -0.019170946 1.2810815e-38 395 254
0.066402234 0.78899997 -0.0207507 1.226124e-38 368 255
0.067613788 0.787 -0.0206981 1.3182836e-38 369 255
0.068818331 0.78500003 -0.020645501 1.3643785e-38 370 255
0.070194699 0.78500003 -0.020645501 1.4012208e-38 371 255
0.071388714 0.78299999 -0.0205929 1.4655766e-38 372 255
0.07276158 0.78299999 -0.0205929 1.502455e-38 373 255
0.073945075 0.78100002 -0.020540299 1.5392609e-38 374 255
0.075217992 0.77999997 -0.020513998 1.576139e-38 375 255
0.076389223 0.778 -0.020461399 1.6129095e-38 376 255
0.07775332 0.778 -0.020461399 1.6313487e-38 377 255
0.07911741 0.778 -0.020461399 1.631384e-38 378 255
0.080274612 0.77600002 -0.0204088 1.6221644e-38 379 255
0.081635199 0.77600002 -0.0204088 1.5393328e-38 380 255
0.082995787 0.77600002 -0.0204088 1.3641611e-38 381 255
0.084138952 0.77399999 -0.020356199 1.3820607e-38 382 255
0.085496038 0.77399999 -0.020356199 1.3544381e-38 383 255
0.086853117 0.77399999 -0.020356199 1.4100791e-38 384 255
0.088210195 0.77399999 -0.020356199 1.4746161e-38 385 255
0.089567274 0.77399999 -0.020356199 1.4929833e-38 386 255
0.091394253 0.778 -0.020461399 1.4837638e-38 387 255
0.092758343 0.778 -0.020461399 1.4561397e-38 388 255
0.094122432 0.778 -0.020461399 1.4192973e-38 389 255
0.095731996 0.77999997 -0.020513998 1.3915662e-38 390 255
0.097099595 0.77999997 -0.020513998 1.3454684e-38 391 255
0.098593444 0.78100002 -0.020540299 1.3177743e-38 392 255
0.099834792 0.77999997 -0.020513998 1.3085546e-38 393 255
0.10120239 0.77999997 -0.020513998 1.2625319e-38 394 255
0.1027015 0.78100002 -0.020540299 1.2809352e-38 395 255
0.066486403 0.79000002 -0.022162134 1.2078296e-38 368 256
0.067613788 0.787 -0.022077972 1.2723665e-38 369 256
0.068993665 0.787 -0.022077972 1.3643431e-38 370 256
0.070015855 0.78299999 -0.021965759 1.4011855e-38 371 256
0.071388714 0.78299999 -0.021965759 1.4564293e-38 372 256
0.07276158 0.78299999 -0.021965759 1.4933076e-38 373 256
0.073945075 0.78100002 -0.021909652 1.5484452e-38 374 256
0.075217992 0.77999997 -0.021881599 1.5761037e-38 375 256
0.076389223 0.778 -0.021825492 1.6129098e-38 376 256
0.07775332 0.778 -0.021825492 1.6221294e-38 377 256
0.07911741 0.778 -0.021825492 1.6221644e-38 378 256
0.080274612 0.77600002 -0.021769386 1.5576275e-38 379 256
0.081635199 0.77600002 -0.021769386 1.4472448e-38 380 256
0.082781881 0.77399999 -0.021713279 1.2444144e-38 381 256
0.084138952 0.77399999 -0.021713279 1.2899733e-38 382 256
0.085496038 0.77399999 -0.021713279 1.2807537e-38 383 256
0.086853117 0.77399999 -0.021713279 1.3639097e-38 384 256
0.088210195 0.77399999 -0.021713279 1.4560693e-38 385 256
0.089567274 0.77399999 -0.021713279 1.4745441e-38 386 256
0.091159306 0.77600002 -0.021769386 1.4653245e-38 387 256
0.092519894 0.77600002 -0.021769386 1.4561753e-38 388 256
0.093880482 0.77600002 -0.021769386 1.4100775e-38 389 256
0.095486529 0.778 -0.021825492 1.3916015e-38 390 256
0.097099595 0.77999997 -0.021881599 1.3455037e-38 391 256
0.098467186 0.77999997 -0.021881599 1.3178099e-38 392 256
0.099834792 0.77999997 -0.021881599 1.2993348e-38 393 256
0.10120239 0.77999997 -0.021881599 1.2532768e-38 394 256
0.1027015 0.78100002 -0.021909652 1.2440572e-38 395 256
0.066486403 0.79000002 -0.023547266 1.2263403e-38 368 257
0.067613788 0.787 -0.023457846 1.2724381e-38 369 257
0.068818331 0.78500003 -0.023398234 1.3828176e-38 370 257
0.070015855 0.78299999 -0.02333862 1.4012208e-38 371 257
0.071388714 0.78299999 -0.02333862 1.4656492e-38 372 257
0.072575726 0.78100002 -0.023279008 1.493272e-38 373 257
0.073850393 0.77999997 -0.023249198 1.5484452e-38 374 257
0.075217992 0.77999997 -0.023249198 1.5761037e-38 375 257
0.076192856 0.77600002 -0.023129974 1.585323e-38 376 257
0.077553444 0.77600002 -0.023129974 1.6037981e-38 377 257
0.078914031 0.77600002 -0.023129974 1.5945783e-38 378 257
0.080274612 0.77600002 -0.023129974 1.474724e-38 379 257
0.081635199 0.77600002 -0.023129974 1.3916403e-38 380 257
0.082781881 0.77399999 -0.02307036 1.2164686e-38 381 257
0.084138952 0.77399999 -0.02307036 1.2346203e-38 382 257
0.085496038 0.77399999 -0.02307036 1.2530955e-38 383 257
0.086853117 0.77399999 -0.02307036 1.3636942e-38 384 257
0.088210195 0.77399999 -0.02307036 1.4467063e-38 385 257
0.089567274 0.77399999 -0.02307036 1.4653245e-38 386 257
0.090924352 0.77399999 -0.02307036 1.4561049e-38 387 257
0.092281438 0.77399999 -0.02307036 1.4469201e-38 388 257
0.093880482 0.77600002 -0.023129974 1.4100777e-38 389 257
0.095241062 0.77600002 -0.023129974 1.3823819e-38 390 257
0.09660165 0.77600002 -0.023129974 1.3362841e-38 391 257
0.097962238 0.77600002 -0.023129974 1.3085544e-38 392 257
0.099322826 0.77600002 -0.023129974 1.2901152e-38 393 257
0.10068341 0.77600002 -0.023129974 1.2531686e-38 394 257
0.102044 0.77600002 -0.023129974 1.2255459e-38 395 257
0.066486403 0.79000002 -0.024932399 1.2815505e-38 368 258
0.067613788 0.787 -0.024837719 1.3092091e-38 369 258
0.068818331 0.78500003 -0.0247746 1.4012211e-38 370 258
0.070015855 0.78299999 -0.024711479 1.4104407e-38 371 258
0.071206369 0.78100002 -0.024648361 1.4564293e-38 372 258
0.072575726 0.78100002 -0.024648361 1.4933076e-38 373 258
0.073850393 0.77999997 -0.024616797 1.5575924e-38 374 258
0.075025134 0.778 -0.024553679 1.5760316e-38 375 258
0.076192856 0.77600002 -0.024490559 1.5853586e-38 376 258
0.077553444 0.77600002 -0.024490559 1.6037979e-38 377 258
0.078914031 0.77600002 -0.024490559 1.585395e-38 378 258
0.080274612 0.77600002 -0.024490559 1.3549418e-38 379 258
0.081424795 0.77399999 -0.02442744 1.3083771e-38 380 258
0.082781881 0.77399999 -0.02442744 1.1885229e-38 381 258
0.084138952 0.77399999 -0.02442744 1.2803591e-38 382 258
0.085496038 0.77399999 -0.02442744 1.2803591e-38 383 258
0.086853117 0.77399999 -0.02442744 1.3269241e-38 384 258
0.088210195 0.77399999 -0.02442744 1.437523e-38 385 258
0.089567274 0.77399999 -0.02442744 1.4285185e-38 386 258
0.090924352 0.77399999 -0.02442744 1.4285185e-38 387 258
0.092281438 0.77399999 -0.02442744 1.4375932e-38 388 258
0.093638517 0.77399999 -0.02442744 1.400751e-38 389 258
0.095241062 0.77600002 -0.024490559 1.3730913e-38 390 258
0.09660165 0.77600002 -0.024490559 1.3362491e-38 391 258
0.097962238 0.77600002 -0.024490559 1.3085551e-38 392 258
0.099322826 0.77600002 -0.024490559 1.2900799e-38 393 258
0.10042392 0.77399999 -0.02442744 1.2348008e-38 394 258
0.101781 0.77399999 -0.02442744 1.2071061e-38 395 258
0.066654719 0.792 -0.02638416 1.3367235e-38 368 259
0.067785613 0.78899997 -0.026284218 1.3459431e-38 369 259
0.068818331 0.78500003 -0.026150968 1.4286997e-38 370 259
0.069837019 0.78100002 -0.026017714 1.4471747e-38 371 259
0.071206369 0.78100002 -0.026017714 1.4656492e-38 372 259
0.072296947 0.778 -0.025917772 1.493272e-38 373 259
0.073471673 0.77600002 -0.025851147 1.5301135e-38 374 259
0.074832268 0.77600002 -0.025851147 1.5485527e-38 375 259
0.075996473 0.77399999 -0.025784519 1.5761034e-38 376 259
0.077353559 0.77399999 -0.025784519 1.585323e-38 377 259
0.078710638 0.77399999 -0.025784519 1.5668138e-38 378 259
0.080067717 0.77399999 -0.025784519 1.2994465e-38 379 259
0.081424795 0.77399999 -0.025784519 1.1700153e-38 380 259
0.082781881 0.77399999 -0.025784519 1.1700153e-38 381 259
0.084138952 0.77399999 -0.025784519 1.2435919e-38 382 259
0.085496038 0.77399999 -0.025784519 1.2804702e-38 383 259
0.086853117 0.77399999 -0.025784519 1.3454721e-38 384 259
0.088210195 0.77399999 -0.025784519 1.4284482e-38 385 259
0.089567274 0.77399999 -0.025784519 1.4284464e-38 386 259
0.090924352 0.77399999 -0.025784519 1.4468854e-38 387 259
0.092281438 0.77399999 -0.025784519 1.4100424e-38 388 259
0.093638517 0.77399999 -0.025784519 1.3915674e-38 389 259
0.094995596 0.77399999 -0.025784519 1.3638717e-38 390 259
0.096352674 0.77399999 -0.025784519 1.3270295e-38 391 259
0.09770976 0.77399999 -0.025784519 1.3267787e-38 392 259
0.099066831 0.77399999 -0.025784519 1.3083395e-38 393 259
0.10029417 0.773 -0.025751207 1.1979961e-38 394 259
0.10164949 0.773 -0.025751207 1.1703373e-38 395 259
0.067270137 0.78299999 -0.027457198 1.3827139e-38 369 260
0.068467662 0.78100002 -0.027387068 1.4379552e-38 370 260
0.069837019 0.78100002 -0.027387068 1.4563943e-38 371 260
0.071206369 0.78100002 -0.027387068 1.4840154e-38 372 260
0.072296947 0.778 -0.027281865 1.5208937e-38 373 260
0.073471673 0.77600002 -0.027211733 1.5484076e-38 374 260
0.074639395 0.77399999 -0.027141599 1.5668826e-38 375 260
0.075996473 0.77399999 -0.027141599 1.5668836e-38 376 260
0.077353559 0.77399999 -0.027141599 1.5392609e-38 377 260
0.078710638 0.77399999 -0.027141599 1.4746902e-38 378 260
0.080067717 0.77399999 -0.027141599 1.1059437e-38 379 260
0.081424795 0.77399999 -0.027141599 1.031865e-38 380 260
0.082781881 0.77399999 -0.027141599 1.1240247e-38 381 260
0.084138952 0.77399999 -0.027141599 1.1975281e-38 382 260
0.085496038 0.77399999 -0.027141599 1.2896878e-38 383 260
0.086853117 0.77399999 -0.027141599 1.4557456e-38 384 260
0.088210195 0.77399999 -0.027141599 1.5202826e-38 385 260
0.089567274 0.77399999 -0.027141599 1.4286257e-38 386 260
0.090924352 0.77399999 -0.027141599 1.3917476e-38 387 260
0.092281438 0.77399999 -0.027141599 1.382563e-38 388 260
0.093638517 0.77399999 -0.027141599 1.3457207e-38 389 260
0.094995596 0.77399999 -0.027141599 1.3271743e-38 390 260
0.096352674 0.77399999 -0.027141599 1.2994797e-38 391 260
0.09770976 0.77399999 -0.027141599 1.2992645e-38 392 260
0.099066831 0.77399999 -0.027141599 1.2716418e-38 393 260
0.10029417 0.773 -0.027106533 1.2255459e-38 394 260
0.10164949 0.773 -0.027106533 1.1978512e-38 395 260
0.067270137 0.78299999 -0.028830061 1.3734943e-38 369 261
0.068467662 0.78100002 -0.028756421 1.4471745e-38 370 261
0.069837019 0.78100002 -0.028756421 1.456394e-38 371 261
0.071115196 0.77999997 -0.028719598 1.4932356e-38 372 261
0.072296947 0.778 -0.028645959 1.5024553e-38 373 261
0.073471673 0.77600002 -0.028572321 1.5392609e-38 374 261
0.074639395 0.77399999 -0.028498679 1.5484805e-38 375 261
0.075996473 0.77399999 -0.028498679 1.5759962e-38 376 261
0.077353559 0.77399999 -0.028498679 1.5114593e-38 377 261
0.078710638 0.77399999 -0.028498679 1.3548009e-38 378 261
0.080067717 0.77399999 -0.028498679 1.0321162e-38 379 261
0.081424795 0.77399999 -0.028498679 9.3048684e-39 380 261
0.082781881 0.77399999 -0.028498679 1.0411215e-38 381 261
0.084138952 0.77399999 -0.028498679 1.2067841e-38 382 261
0.085496038 0.77399999 -0.028498679 1.335858e-38 383 261
0.086853117 0.77399999 -0.028498679 1.4468135e-38 384 261
0.088210195 0.77399999 -0.028498679 1.5297895e-38 385 261
0.089567274 0.77399999 -0.028498679 1.4470283e-38 386 261
0.090924352 0.77399999 -0.028498679 1.4193337e-38 387 261
0.092281438 0.77399999 -0.028498679 1.4008579e-38 388 261
0.093638517 0.77399999 -0.028498679 1.3639798e-38 389 261
0.094995596 0.77399999 -0.028498679 1.3362854e-38 390 261
0.096352674 0.77399999 -0.028498679 1.2994431e-38 391 261
0.09770976 0.77399999 -0.028498679 1.2717137e-38 392 261
0.099066831 0.77399999 -0.028498679 1.225616e-38 393 261
0.10042392 0.77399999 -0.028498679 1.1518991e-38 394 261
0.101781 0.77399999 -0.028498679 1.1242046e-38 395 261
0.067098312 0.78100002 -0.030125774 1.3827139e-38 369 262
0.068379998 0.77999997 -0.030087199 1.4747611e-38 370 262
0.069747597 0.77999997 -0.030087199 1.4839807e-38 371 262
0.07093285 0.778 -0.03001005 1.4932356e-38 372 262
0.072111093 0.77600002 -0.029932907 1.5208584e-38 373 262
0.073282316 0.77399999 -0.029855758 1.5575924e-38 374 262
0.074639395 0.77399999 -0.029855758 1.5760316e-38 375 262
0.075898297 0.773 -0.029817186 1.5760687e-38 376 262
0.077253617 0.773 -0.029817186 1.4285198e-38 377 262
0.078608945 0.773 -0.029817186 1.2624261e-38 378 262
0.079964265 0.773 -0.029817186 9.8583911e-39 379 262
0.0813196 0.773 -0.029817186 9.3041384e-39 380 262
0.082674921 0.773 -0.029817186 1.0226096e-38 381 262
0.084030248 0.773 -0.029817186 1.2069266e-38 382 262
0.085385576 0.773 -0.029817186 1.4005374e-38 383 262
0.086853117 0.77399999 -0.029855758 1.4653245e-38 384 262
0.088210195 0.77399999 -0.029855758 1.4837638e-38 385 262
0.089567274 0.77399999 -0.029855758 1.4378087e-38 386 262
0.090924352 0.77399999 -0.029855758 1.410114e-38 387 262
0.092281438 0.77399999 -0.029855758 1.3732715e-38 388 262
0.093638517 0.77399999 -0.029855758 1.3548324e-38 389 262
0.094995596 0.77399999 -0.029855758 1.3179541e-38 390 262
0.096352674 0.77399999 -0.029855758 1.2902954e-38 391 262
0.09770976 0.77399999 -0.029855758 1.2441629e-38 392 262
0.099066831 0.77399999 -0.029855758 1.1980651e-38 393 262
0.10042392 0.77399999 -0.029855758 1.1425361e-38 394 262
0.101781 0.77399999 -0.029855758 1.1517557e-38 395 262
0.067012392 0.77999997 -0.031454798 1.3919334e-38 369 263
0.068204664 0.778 -0.031374145 1.4656495e-38 370 263
0.069568761 0.778 -0.031374145 1.4840526e-38 371 263
0.07093285 0.778 -0.031374145 1.5024553e-38 372 263
0.072111093 0.77600002 -0.031293493 1.5300779e-38 373 263
0.073282316 0.77399999 -0.031212838 1.5392256e-38 374 263
0.074639395 0.77399999 -0.031212838 1.5668842e-38 375 263
0.075898297 0.773 -0.03117251 1.5852884e-38 376 263
0.077253617 0.773 -0.03117251 1.3732383e-38 377 263
0.078608945 0.773 -0.03117251 1.1609384e-38 378 263
0.079964265 0.773 -0.03117251 9.7658298e-39 379 263
0.0813196 0.773 -0.03117251 9.4874352e-39 380 263
0.082674921 0.773 -0.03117251 1.1147317e-38 381 263
0.084030248 0.773 -0.03117251 1.2806462e-38 382 263
0.085385576 0.773 -0.03117251 1.4742571e-38 383 263
0.086740904 0.773 -0.03117251 1.4469577e-38 384 263
0.088096231 0.773 -0.03117251 1.4561772e-38 385 263
0.089451559 0.773 -0.03117251 1.4378087e-38 386 263
0.090924352 0.77399999 -0.031212838 1.3917109e-38 387 263
0.092281438 0.77399999 -0.031212838 1.364052e-38 388 263
0.093638517 0.77399999 -0.031212838 1.3456127e-38 389 263
0.094995596 0.77399999 -0.031212838 1.3087349e-38 390 263
0.096352674 0.77399999 -0.031212838 1.2810403e-38 391 263
0.09770976 0.77399999 -0.031212838 1.234908e-38 392 263
0.099066831 0.77399999 -0.031212838 1.1888102e-38 393 263
0.10042392 0.77399999 -0.031212838 1.0966203e-38 394 263
0.101781 0.77399999 -0.031212838 1.1150594e-38 395 263
0.067012392 0.77999997 -0.032822397 1.3643471e-38 369 264
0.068204664 0.778 -0.032738242 1.4472466e-38 370 264
0.069568761 0.778 -0.032738242 1.4749054e-38 371 264
0.070750505 0.77600002 -0.032654081 1.5024199e-38 372 264
0.072111093 0.77600002 -0.032654081 1.5208231e-38 373 264
0.073282316 0.77399999 -0.032569919 1.5483378e-38 374 264
0.074542962 0.773 -0.032527838 1.566777e-38 375 264
0.075898297 0.773 -0.032527838 1.5392272e-38 376 264
0.077253617 0.773 -0.032527838 1.2810794e-38 377 264
0.078608945 0.773 -0.032527838 1.0503405e-38 378 264
0.079964265 0.773 -0.032527838 9.7658396e-39 379 264
0.0813196 0.773 -0.032527838 1.0225353e-38 380 264
0.082674921 0.773 -0.032527838 1.2069266e-38 381 264
0.084030248 0.773 -0.032527838 1.3453257e-38 382 264
0.085385576 0.773 -0.032527838 1.5112778e-38 383 264
0.086740904 0.773 -0.032527838 1.4562849e-38 384 264
0.088096231 0.773 -0.032527838 1.4378097e-38 385 264
0.089451559 0.773 -0.032527838 1.4193693e-38 386 264
0.090924352 0.77399999 -0.032569919 1.3824911e-38 387 264
0.092281438 0.77399999 -0.032569919 1.3548324e-38 388 264
0.093638517 0.77399999 -0.032569919 1.3179541e-38 389 264
0.094995596 0.77399999 -0.032569919 1.2902599e-38 390 264
0.096352674 0.77399999 -0.032569919 1.262637e-38 391 264
0.09770976 0.77399999 -0.032569919 1.2164333e-38 392 264
0.099066831 0.77399999 -0.032569919 1.1150181e-38 393 264
0.10042392 0.77399999 -0.032569919 9.1276784e-39 394 264
0.101781 0.77399999 -0.032569919 1.0234027e-38 395 264
0.066840574 0.778 -0.034102332 1.3368682e-38 369 265
0.068029337 0.77600002 -0.034014668 1.4839451e-38 370 265
0.069389917 0.77600002 -0.034014668 1.4931646e-38 371 265
0.070750505 0.77600002 -0.034014668 1.5115312e-38 372 265
0.071925238 0.77399999 -0.033927001 1.5300063e-38 373 265
0.073282316 0.77399999 -0.033927001 1.5483376e-38 374 265
0.074542962 0.773 -0.033883166 1.5483376e-38 375 265
0.075701922 0.77100003 -0.033795502 1.4839807e-38 376 265
0.077053741 0.77100003 -0.033795502 1.1705155e-38 377 265
0.078405559 0.77100003 -0.033795502 9.4885296e-39 378 265
0.079757385 0.77100003 -0.033795502 9.7654766e-39 379 265
0.081109203 0.77100003 -0.033795502 1.1420309e-38 380 265
0.082461022 0.77100003 -0.033795502 1.3909233e-38 381 265
0.08381284 0.77100003 -0.033795502 1.4007157e-38 382 265
0.085164659 0.77100003 -0.033795502 1.52057e-38 383 265
0.086740904 0.773 -0.033883166 1.4379536e-38 384 265
0.087868303 0.77100003 -0.033795502 1.4194785e-38 385 265
0.089220122 0.77100003 -0.033795502 1.4102221e-38 386 265
0.090806887 0.773 -0.033883166 1.3456851e-38 387 265
0.092162207 0.773 -0.033883166 1.3456127e-38 388 265
0.093638517 0.77399999 -0.033927001 1.3087346e-38 389 265
0.094995596 0.77399999 -0.033927001 1.2719286e-38 390 265
0.096352674 0.77399999 -0.033927001 1.2442698e-38 391 265
0.09770976 0.77399999 -0.033927001 1.152148e-38 392 265
0.099066831 0.77399999 -0.033927001 9.7697646e-39 393 265
0.10042392 0.77399999 -0.033927001 8.1153286e-39 394 265
0.102044 0.77600002 -0.034014668 1.0235468e-38 395 265
0.066668749 0.77600002 -0.035375252 1.3644543e-38 369 266
0.068029337 0.77600002 -0.035375252 1.4656857e-38 370 266
0.069389917 0.77600002 -0.035375252 1.4564662e-38 371 266
0.070568159 0.77399999 -0.03528408 1.4932367e-38 372 266
0.071925238 0.77399999 -0.03528408 1.5024921e-38 373 266
0.073187642 0.773 -0.035238493 1.5300416e-38 374 266
0.074542962 0.773 -0.035238493 1.5115665e-38 375 266
0.075701922 0.77100003 -0.03514732 1.4837987e-38 376 266
0.077053741 0.77100003 -0.03514732 1.2164313e-38 377 266
0.078405559 0.77100003 -0.03514732 9.3952242e-39 378 266
0.079757385 0.77100003 -0.03514732 1.0132789e-38 379 266
0.081109203 0.77100003 -0.03514732 1.1699042e-38 380 266
0.082461022 0.77100003 -0.03514732 1.4372715e-38 381 266
0.08381284 0.77100003 -0.03514732 1.4285185e-38 382 266
0.085164659 0.77100003 -0.03514732 1.4561772e-38 383 266
0.086516477 0.77100003 -0.03514732 1.4378453e-38 384 266
0.087868303 0.77100003 -0.03514732 1.4286257e-38 385 266
0.089220122 0.77100003 -0.03514732 1.4100775e-38 386 266
0.09057194 0.77100003 -0.03514732 1.3823829e-38 387 266
0.091923758 0.77100003 -0.03514732 1.336321e-38 388 266
0.093517542 0.773 -0.035238493 1.317846e-38 389 266
0.094872862 0.773 -0.035238493 1.2809683e-38 390 266
0.096352674 0.77399999 -0.03528408 1.225651e-38 391 266
0.09770976 0.77399999 -0.03528408 1.1885969e-38 392 266
0.099066831 0.77399999 -0.03528408 1.0411199e-38 393 266
0.10042392 0.77399999 -0.03528408 9.1262687e-39 394 266
0.066668749 0.77600002 -0.036735836 1.3552347e-38 369 267
0.068029337 0.77600002 -0.036735836 1.4747611e-38 370 267
0.069211073 0.77399999 -0.036641158 1.4932002e-38 371 267
0.070476986 0.773 -0.036593821 1.5115317e-38 372 267
0.071832314 0.773 -0.036593821 1.5207515e-38 373 267
0.073187642 0.773 -0.036593821 1.530006e-38 374 267
0.074350104 0.77100003 -0.036499143 1.5207865e-38 375 267
0.075701922 0.77100003 -0.036499143 1.5114571e-38 376 267
0.076853856 0.76899999 -0.036404461 1.2994431e-38 377 267
0.078202173 0.76899999 -0.036404461 1.1519317e-38 378 267
0.079550482 0.76899999 -0.036404461 1.1980295e-38 379 267
0.080898799 0.76899999 -0.036404461 1.3266017e-38 380 267
0.082247108 0.76899999 -0.036404461 1.4832984e-38 381 267
0.083595425 0.76899999 -0.036404461 1.3826375e-38 382 267
0.084943734 0.76899999 -0.036404461 1.4195156e-38 383 267
0.086292051 0.76899999 -0.036404461 1.437918e-38 384 267
0.087640367 0.76899999 -0.036404461 1.4010396e-38 385 267
0.088988677 0.76899999 -0.036404461 1.4101143e-38 386 267
0.090336986 0.76899999 -0.036404461 1.3271743e-38 387 267
0.091923758 0.77100003 -0.036499143 1.3362854e-38 388 267
0.093517542 0.773 -0.036593821 1.2994431e-38 389 267
0.094872862 0.773 -0.036593821 1.2350146e-38 390 267
0.09622819 0.773 -0.036593821 1.1796973e-38 391 267
0.09770976 0.77399999 -0.036641158 1.1057988e-38 392 267
0.099066831 0.77399999 -0.036641158 9.6750537e-39 393 267
0.10042392 0.77399999 -0.036641158 8.7567505e-39 394 267
0.065139838 0.77399999 -0.037998237 1.4382458e-38 368 268
0.066496916 0.77399999 -0.037998237 1.3552697e-38 369 268
0.067854002 0.77399999 -0.037998237 1.4564296e-38 370 268
0.069211073 0.77399999 -0.037998237 1.4564296e-38 371 268
0.070294641 0.77100003 -0.037850961 1.5022769e-38 372 268
0.071646459 0.77100003 -0.037850961 1.5114964e-38 373 268
0.072998285 0.77100003 -0.037850961 1.5207512e-38 374 268
0.074350104 0.77100003 -0.037850961 1.5115315e-38 375 268
0.07550554 0.76899999 -0.03775277 1.4930905e-38 376 268
0.076853856 0.76899999 -0.03775277 1.4285536e-38 377 268
0.078202173 0.76899999 -0.03775277 1.317956e-38 378 268
0.079550482 0.76899999 -0.03775277 1.3363952e-38 379 268
0.080898799 0.76899999 -0.03775277 1.3731674e-38 380 268
0.082247108 0.76899999 -0.03775277 1.4377043e-38 381 268
0.083595425 0.76899999 -0.03775277 1.4468873e-38 382 268
0.084943734 0.76899999 -0.03775277 1.4561069e-38 383 268
0.086292051 0.76899999 -0.03775277 1.446958e-38 384 268
0.087640367 0.76899999 -0.03775277 1.4100438e-38 385 268
0.088988677 0.76899999 -0.03775277 1.3732362e-38 386 268
0.090336986 0.76899999 -0.03775277 1.3271743e-38 387 268
0.091685303 0.76899999 -0.03775277 1.299515e-38 388 268
0.093033619 0.76899999 -0.03775277 1.2626368e-38 389 268
0.094872862 0.773 -0.037949149 1.216468e-38 390 268
0.09622819 0.773 -0.037949149 1.1150887e-38 391 268
0.09758351 0.773 -0.037949149 1.0046007e-38 392 268
0.099066831 0.77399999 -0.037998237 8.5708767e-39 393 268
0.10042392 0.77399999 -0.037998237 8.8485972e-39 394 268
0.065055676 0.773 -0.039304473 1.4290265e-38 368 269
0.066411003 0.773 -0.039304473 1.3644896e-38 369 269
0.067766331 0.773 -0.039304473 1.4655057e-38 370 269
0.069121659 0.773 -0.039304473 1.4747611e-38 371 269
0.070294641 0.77100003 -0.03920278 1.4838738e-38 372 269
0.071646459 0.77100003 -0.03920278 1.5114964e-38 373 269
0.072998285 0.77100003 -0.03920278 1.5207159e-38 374 269
0.074157231 0.76899999 -0.039101087 1.5207159e-38 375 269
0.07550554 0.76899999 -0.039101087 1.4839435e-38 376 269
0.076853856 0.76899999 -0.039101087 1.474724e-38 377 269
0.078202173 0.76899999 -0.039101087 1.4839801e-38 378 269
0.079550482 0.76899999 -0.039101087 1.4839801e-38 379 269
0.080898799 0.76899999 -0.039101087 1.4563593e-38 380 269
0.082247108 0.76899999 -0.039101087 1.4563593e-38 381 269
0.083595425 0.76899999 -0.039101087 1.4286277e-38 382 269
0.084943734 0.76899999 -0.039101087 1.400969e-38 383 269
0.086292051 0.76899999 -0.039101087 1.4375586e-38 384 269
0.087640367 0.76899999 -0.039101087 1.4006804e-38 385 269
0.088988677 0.76899999 -0.039101087 1.3639094e-38 386 269
0.090336986 0.76899999 -0.039101087 1.327031e-38 387 269
0.091685303 0.76899999 -0.039101087 1.2350872e-38 388 269
0.093033619 0.76899999 -0.039101087 1.2074285e-38 389 269
0.094627403 0.77100003 -0.03920278 1.1520764e-38 390 269
0.095979221 0.77100003 -0.03920278 1.0137471e-38 391 269
0.09733104 0.77100003 -0.03920278 9.3077355e-39 392 269
0.099066831 0.77399999 -0.039355319 8.9389516e-39 393 269
0.10042392 0.77399999 -0.039355319 9.0333514e-39 394 269
0.063535534 0.77100003 -0.040554602 1.4385034e-38 367 270
0.064887367 0.77100003 -0.040554602 1.4105515e-38 368 270
0.066411003 0.773 -0.0406598 1.3644896e-38 369 270
0.067766331 0.773 -0.0406598 1.4562861e-38 370 270
0.068942823 0.77100003 -0.040554602 1.4655057e-38 371 270
0.070112288 0.76899999 -0.0404494 1.4654706e-38 372 270
0.071460605 0.76899999 -0.0404494 1.4839456e-38 373 270
0.072808921 0.76899999 -0.0404494 1.4931646e-38 374 270
0.074157231 0.76899999 -0.0404494 1.5024202e-38 375 270
0.07550554 0.76899999 -0.0404494 1.484051e-38 376 270
0.076853856 0.76899999 -0.0404494 1.4747956e-38 377 270
0.078202173 0.76899999 -0.0404494 1.465576e-38 378 270
0.079550482 0.76899999 -0.0404494 1.465576e-38 379 270
0.080898799 0.76899999 -0.0404494 1.4562498e-38 380 270
0.082247108 0.76899999 -0.0404494 1.4377747e-38 381 270
0.083595425 0.76899999 -0.0404494 1.3917129e-38 382 270
0.084943734 0.76899999 -0.0404494 1.3732377e-38 383 270
0.086067624 0.76700002 -0.040344197 1.4006804e-38 384 270
0.087412432 0.76700002 -0.040344197 1.3730217e-38 385 270
0.088757239 0.76700002 -0.040344197 1.3362506e-38 386 270
0.090336986 0.76899999 -0.0404494 1.2901529e-38 387 270
0.091685303 0.76899999 -0.0404494 1.2074288e-38 388 270
0.093033619 0.76899999 -0.0404494 1.1521114e-38 389 270
0.094136469 0.76700002 -0.040344197 1.1057635e-38 390 270
0.095481269 0.76700002 -0.040344197 9.8590918e-39 391 270
0.096826084 0.76700002 -0.040344197 8.7552876e-39 392 270
0.099066831 0.77399999 -0.040712398 8.7552876e-39 393 270
0.062183715 0.77100003 -0.04190642 1.6413343e-38 366 271
0.063535534 0.77100003 -0.04190642 1.4016257e-38 367 271
0.064887367 0.77100003 -0.04190642 1.3737457e-38 368 271
0.066239186 0.77100003 -0.04190642 1.327648e-38 369 271
0.067591004 0.77100003 -0.04190642 1.41948e-38 370 271
0.068763971 0.76899999 -0.041797712 1.4286997e-38 371 271
0.070112288 0.76899999 -0.041797712 1.419553e-38 372 271
0.071460605 0.76899999 -0.041797712 1.4472116e-38 373 271
0.072808921 0.76899999 -0.041797712 1.4472113e-38 374 271
0.074157231 0.76899999 -0.041797712 1.4656504e-38 375 271
0.07550554 0.76899999 -0.041797712 1.4564296e-38 376 271
0.076853856 0.76899999 -0.041797712 1.44721e-38 377 271
0.078202173 0.76899999 -0.041797712 1.4286981e-38 378 271
0.079550482 0.76899999 -0.041797712 1.4102589e-38 379 271
0.080898799 0.76899999 -0.041797712 1.4101873e-38 380 271
0.082247108 0.76899999 -0.041797712 1.3824926e-38 381 271
0.083595425 0.76899999 -0.041797712 1.3639819e-38 382 271
0.084943734 0.76899999 -0.041797712 1.3455069e-38 383 271
0.086067624 0.76700002 -0.041689005 1.3454349e-38 384 271
0.087412432 0.76700002 -0.041689005 1.3362153e-38 385 271
0.088757239 0.76700002 -0.041689005 1.2718939e-38 386 271
0.090102047 0.76700002 -0.041689005 1.2441992e-38 387 271
0.091685303 0.76899999 -0.041797712 1.1796625e-38 388 271
0.093033619 0.76899999 -0.041797712 1.105906e-38 389 271
0.094136469 0.76700002 -0.041689005 9.769064e-39 390 271
0.095356777 0.76599997 -0.041634649 9.0314989e-39 391 271
0.096699834 0.76599997 -0.041634649 8.5709131e-39 392 271
0.099066831 0.77399999 -0.042069476 8.5709131e-39 393 271
0.062183715 0.77100003 -0.043258239 1.6688488e-38 366 272
0.063535534 0.77100003 -0.043258239 1.4014456e-38 367 272
0.064887367 0.77100003 -0.043258239 1.3369032e-38 368 272
0.066239186 0.77100003 -0.043258239 1.3184639e-38 369 272
0.067415662 0.76899999 -0.043146025 1.4194437e-38 370 272
0.068763971 0.76899999 -0.043146025 1.4194437e-38 371 272
0.070112288 0.76899999 -0.043146025 1.4286633e-38 372 272
0.071460605 0.76899999 -0.043146025 1.4562861e-38 373 272
0.072808921 0.76899999 -0.043146025 1.4654338e-38 374 272
0.073964365 0.76700002 -0.043033812 1.4746892e-38 375 272
0.075309172 0.76700002 -0.043033812 1.4563214e-38 376 272
0.07665398 0.76700002 -0.043033812 1.4286986e-38 377 272
0.077998787 0.76700002 -0.043033812 1.4285902e-38 378 272
0.079343595 0.76700002 -0.043033812 1.3917479e-38 379 272
0.080688395 0.76700002 -0.043033812 1.3732365e-38 380 272
0.08203321 0.76700002 -0.043033812 1.3547974e-38 381 272
0.083378009 0.76700002 -0.043033812 1.3455422e-38 382 272
0.084722824 0.76700002 -0.043033812 1.3179194e-38 383 272
0.086067624 0.76700002 -0.043033812 1.327031e-38 384 272
0.087412432 0.76700002 -0.043033812 1.3178115e-38 385 272
0.088757239 0.76700002 -0.043033812 1.2625664e-38 386 272
0.090102047 0.76700002 -0.043033812 1.1980295e-38 387 272
0.091685303 0.76899999 -0.043146025 1.0874676e-38 388 272
0.093033619 0.76899999 -0.043146025 1.0044556e-38 389 272
0.094136469 0.76700002 -0.043033812 9.1229785e-39 390 272
0.095356777 0.76599997 -0.042977702 8.9382271e-39 391 272
0.096699834 0.76599997 -0.042977702 8.4787161e-39 392 272
0.062183715 0.77100003 -0.044610061 1.6504087e-38 366 273
0.063535534 0.77100003 -0.044610061 1.3738218e-38 367 273
0.064887367 0.77100003 -0.044610061 1.3734926e-38 368 273
0.066067353 0.76899999 -0.044494338 1.3642372e-38 369 273
0.067415662 0.76899999 -0.044494338 1.3918574e-38 370 273
0.068763971 0.76899999 -0.044494338 1.3826378e-38 371 273
0.070112288 0.76899999 -0.044494338 1.3826746e-38 372 273
0.07127475 0.76700002 -0.04437862 1.3918942e-38 373 273
0.072619557 0.76700002 -0.04437862 1.3918942e-38 374 273
0.073964365 0.76700002 -0.04437862 1.4011138e-38 375 273
0.075309172 0.76700002 -0.04437862 1.3919292e-38 376 273
0.07665398 0.76700002 -0.04437862 1.3734901e-38 377 273
0.077998787 0.76700002 -0.04437862 1.3733814e-38 378 273
0.079343595 0.76700002 -0.04437862 1.3456867e-38 379 273
0.080688395 0.76700002 -0.04437862 1.3364671e-38 380 273
0.08203321 0.76700002 -0.04437862 1.2996247e-38 381 273
0.083378009 0.76700002 -0.04437862 1.3087364e-38 382 273
0.084722824 0.76700002 -0.04437862 1.2995168e-38 383 273
0.086067624 0.76700002 -0.04437862 1.2351598e-38 384 273
0.087412432 0.76700002 -0.04437862 1.2259401e-38 385 273
0.088757239 0.76700002 -0.04437862 1.1705153e-38 386 273
0.090102047 0.76700002 -0.04437862 1.0967588e-38 387 273
0.091685303 0.76899999 -0.044494338 9.8616155e-39 388 273
0.093033619 0.76899999 -0.044494338 9.3084417e-39 389 273
0.094136469 0.76700002 -0.04437862 8.7549345e-39 390 273
0.095481269 0.76700002 -0.04437862 8.2939563e-39 391 273
0.062022414 0.76899999 -0.045842651 1.6411526e-38 366 274
0.063370727 0.76899999 -0.045842651 1.3645657e-38 367 274
0.064887367 0.77100003 -0.045961879 1.3827477e-38 368 274
0.066067353 0.76899999 -0.045842651 1.355053e-38 369 274
0.067415662 0.76899999 -0.045842651 1.3641981e-38 370 274
0.068763971 0.76899999 -0.045842651 1.3549784e-38 371 274
0.070112288 0.76899999 -0.045842651 1.3641981e-38 372 274
0.07127475 0.76700002 -0.045723427 1.3734177e-38 373 274
0.072619557 0.76700002 -0.045723427 1.4009322e-38 374 274
0.073964365 0.76700002 -0.045723427 1.4009322e-38 375 274
0.075309172 0.76700002 -0.045723427 1.3917479e-38 376 274
0.07665398 0.76700002 -0.045723427 1.3825282e-38 377 274
0.077998787 0.76700002 -0.045723427 1.3457576e-38 378 274
0.079343595 0.76700002 -0.045723427 1.3272826e-38 379 274
0.080688395 0.76700002 -0.045723427 1.3179913e-38 380 274
0.08203321 0.76700002 -0.045723427 1.2995163e-38 381 274
0.083378009 0.76700002 -0.045723427 1.2627459e-38 382 274
0.084722824 0.76700002 -0.045723427 1.2258677e-38 383 274
0.086067624 0.76700002 -0.045723427 1.2074283e-38 384 274
0.087412432 0.76700002 -0.045723427 1.1521468e-38 385 274
0.088757239 0.76700002 -0.045723427 1.0139978e-38 386 274
0.090102047 0.76700002 -0.045723427 9.4946084e-39 387 274
0.091446854 0.76700002 -0.045723427 8.6637884e-39 388 274
0.093033619 0.76899999 -0.045842651 8.4793971e-39 389 274
0.094136469 0.76700002 -0.045723427 8.3854289e-39 390 274
0.095481269 0.76700002 -0.045723427 8.108842e-39 391 274
0.061861109 0.76700002 -0.047068235 1.5308405e-38 366 275
0.063205913 0.76700002 -0.047068235 1.2542178e-38 367 275
0.064719036 0.76899999 -0.047190964 1.355088e-38 368 275
0.066067353 0.76899999 -0.047190964 1.3182456e-38 369 275
0.067415662 0.76899999 -0.047190964 1.3274276e-38 370 275
0.068763971 0.76899999 -0.047190964 1.3182081e-38 371 275
0.070112288 0.76899999 -0.047190964 1.33654e-38 372 275
0.07127475 0.76700002 -0.047068235 1.33654e-38 373 275
0.072619557 0.76700002 -0.047068235 1.33654e-38 374 275
0.073964365 0.76700002 -0.047068235 1.33654e-38 375 275
0.075309172 0.76700002 -0.047068235 1.3182081e-38 376 275
0.07665398 0.76700002 -0.047068235 1.2905495e-38 377 275
0.077998787 0.76700002 -0.047068235 1.2996965e-38 378 275
0.079343595 0.76700002 -0.047068235 1.2812572e-38 379 275
0.080688395 0.76700002 -0.047068235 1.2628541e-38 380 275
0.08203321 0.76700002 -0.047068235 1.2351595e-38 381 275
0.083378009 0.76700002 -0.047068235 1.1983172e-38 382 275
0.084722824 0.76700002 -0.047068235 1.1614029e-38 383 275
0.086067624 0.76700002 -0.047068235 1.096866e-38 384 275
0.087412432 0.76700002 -0.047068235 1.0507683e-38 385 275
0.088757239 0.76700002 -0.047068235 9.585372e-39 386 275
0.090102047 0.76700002 -0.047068235 9.1243952e-39 387 275
0.091446854 0.76700002 -0.047068235 8.4790468e-39 388 275
0.093033619 0.76899999 -0.047190964 8.1102643e-39 389 275
0.094381928 0.76899999 -0.047190964 7.8333467e-39 390 275
0.061861109 0.76700002 -0.048413042 1.4569023e-38 366 276
0.063205913 0.76700002 -0.048413042 1.2171576e-38 367 276
0.064719036 0.76899999 -0.048539277 1.3090961e-38 368 276
0.066067353 0.76899999 -0.048539277 1.290657e-38 369 276
0.067415662 0.76899999 -0.048539277 1.2905848e-38 370 276
0.068763971 0.76899999 -0.048539277 1.2813653e-38 371 276
0.06992995 0.76700002 -0.048413042 1.2996968e-38 372 276
0.07127475 0.76700002 -0.048413042 1.2996968e-38 373 276
0.072619557 0.76700002 -0.048413042 1.2996968e-38 374 276
0.073964365 0.76700002 -0.048413042 1.2996968e-38 375 276
0.075309172 0.76700002 -0.048413042 1.2721455e-38 376 276
0.07665398 0.76700002 -0.048413042 1.262926e-38 377 276
0.077998787 0.76700002 -0.048413042 1.2444513e-38 378 276
0.079343595 0.76700002 -0.048413042 1.2167927e-38 379 276
0.080688395 0.76700002 -0.048413042 1.1800575e-38 380 276
0.08203321 0.76700002 -0.048413042 1.1615825e-38 381 276
0.083378009 0.76700002 -0.048413042 1.1521465e-38 382 276
0.084722824 0.76700002 -0.048413042 1.0876095e-38 383 276
0.086067624 0.76700002 -0.048413042 9.5868055e-39 384 276
0.087412432 0.76700002 -0.048413042 9.3098585e-39 385 276
0.088757239 0.76700002 -0.048413042 8.2950101e-39 386 276
0.090102047 0.76700002 -0.048413042 8.2950101e-39 387 276
0.091446854 0.76700002 -0.048413042 8.1091951e-39 388 276
0.093033619 0.76899999 -0.048539277 7.9248038e-39 389 276
0.062022414 0.76899999 -0.04988759 1.3829284e-38 366 277
0.063370727 0.76899999 -0.04988759 1.244635e-38 367 277
0.06455072 0.76700002 -0.049757849 1.3182431e-38 368 277
0.065895528 0.76700002 -0.049757849 1.2905845e-38 369 277
0.067240335 0.76700002 -0.049757849 1.2538143e-38 370 277
0.068585135 0.76700002 -0.049757849 1.2445589e-38 371 277
0.06992995 0.76700002 -0.049757849 1.2536706e-38 372 277
0.07127475 0.76700002 -0.049757849 1.2536706e-38 373 277
0.072619557 0.76700002 -0.049757849 1.2628538e-38 374 277
0.073964365 0.76700002 -0.049757849 1.2536343e-38 375 277
0.075210981 0.76599997 -0.04969297 1.2260476e-38 376 277
0.076554038 0.76599997 -0.04969297 1.2076083e-38 377 277
0.077998787 0.76700002 -0.049757849 1.1523277e-38 378 277
0.079343595 0.76700002 -0.049757849 1.1431081e-38 379 277
0.080688395 0.76700002 -0.049757849 1.0509837e-38 380 277
0.08203321 0.76700002 -0.049757849 1.0048498e-38 381 277
0.083378009 0.76700002 -0.049757849 9.770824e-39 382 277
0.084722824 0.76700002 -0.049757849 9.2176502e-39 383 277
0.086067624 0.76700002 -0.049757849 8.388628e-39 384 277
0.087412432 0.76700002 -0.049757849 8.2964324e-39 385 277
0.088757239 0.76700002 -0.049757849 8.3847044e-39 386 277
0.090102047 0.76700002 -0.049757849 8.2003117e-39 387 277
0.091446854 0.76700002 -0.049757849 7.6485897e-39 388 277
0.061861109 0.76700002 -0.051102653 1.2908034e-38 366 278
0.063205913 0.76700002 -0.051102653 1.2539252e-38 367 278
0.06455072 0.76700002 -0.051102653 1.2539226e-38 368 278
0.065895528 0.76700002 -0.051102653 1.2262998e-38 369 278
0.067240335 0.76700002 -0.051102653 1.2261914e-38 370 278
0.068585135 0.76700002 -0.051102653 1.2077883e-38 371 278
0.06992995 0.76700002 -0.051102653 1.198569e-38 372 278
0.071181826 0.76599997 -0.051036026 1.198569e-38 373 278
0.072524875 0.76599997 -0.051036026 1.1617273e-38 374 278
0.073867925 0.76599997 -0.051036026 1.1525077e-38 375 278
0.075210981 0.76599997 -0.051036026 1.1615462e-38 376 278
0.076554038 0.76599997 -0.051036026 1.1338515e-38 377 278
0.077998787 0.76700002 -0.051102653 1.0786051e-38 378 278
0.079343595 0.76700002 -0.051102653 1.0325074e-38 379 278
0.080688395 0.76700002 -0.051102653 9.5871586e-39 380 278
0.08203321 0.76700002 -0.051102653 9.218016e-39 381 278
0.083378009 0.76700002 -0.051102653 8.2056871e-39 382 278
0.084722824 0.76700002 -0.051102653 7.9287415e-39 383 278
0.086067624 0.76700002 -0.051102653 7.5592611e-39 384 278
0.087412432 0.76700002 -0.051102653 7.4670655e-39 385 278
0.088757239 0.76700002 -0.051102653 7.6493058e-39 386 278
0.090102047 0.76700002 -0.051102653 7.5571101e-39 387 278
0.061861109 0.76700002 -0.052447457 1.3366839e-38 366 279
0.063205913 0.76700002 -0.052447457 1.2998415e-38 367 279
0.06455072 0.76700002 -0.052447457 1.2355914e-38 368 279
0.065895528 0.76700002 -0.052447457 1.2171522e-38 369 279
0.067240335 0.76700002 -0.052447457 1.1895292e-38 370 279
0.068585135 0.76700002 -0.052447457 1.1618346e-38 371 279
0.06992995 0.76700002 -0.052447457 1.1801294e-38 372 279
0.071181826 0.76599997 -0.052379075 1.1340318e-38 373 279
0.072524875 0.76599997 -0.052379075 1.1614026e-38 374 279
0.073867925 0.76599997 -0.052379075 1.0600234e-38 375 279
0.075210981 0.76599997 -0.052379075 9.5878747e-39 376 279
0.076554038 0.76599997 -0.052379075 8.9425053e-39 377 279
0.077897087 0.76599997 -0.052379075 8.1138208e-39 378 279
0.079240143 0.76599997 -0.052379075 7.4684514e-39 379 279
0.080583192 0.76599997 -0.052379075 6.9156517e-39 380 279
0.08203321 0.76700002 -0.052447457 7.0078474e-39 381 279
0.083378009 0.76700002 -0.052447457 7.8344005e-39 382 279
0.084722824 0.76700002 -0.052447457 7.7422048e-39 383 279
0.086067624 0.76700002 -0.052447457 7.5571073e-39 384 279
0.087412432 0.76700002 -0.052447457 7.5571073e-39 385 279
0.054561976 0.759 -0.053231198 1.6227878e-38 361 280
0.055892758 0.759 -0.053231198 1.5488843e-38 362 280
0.058940053 0.764 -0.053581864 1.3365066e-38 364 280
0.0602796 0.764 -0.053581864 1.3457262e-38 365 280
0.061619148 0.764 -0.053581864 1.3458316e-38 366 280
0.062958695 0.764 -0.053581864 1.3089532e-38 367 280
0.064298242 0.764 -0.053581864 1.2355195e-38 368 280
0.06563779 0.764 -0.053581864 1.2170803e-38 369 280
0.067152664 0.76599997 -0.053722132 1.1710548e-38 370 280
0.068495713 0.76599997 -0.053722132 1.1433601e-38 371 280
0.069838762 0.76599997 -0.053722132 1.1155206e-38 372 280
0.071181826 0.76599997 -0.053722132 1.0417641e-38 373 280
0.072524875 0.76599997 -0.053722132 1.0230726e-38 374 280
0.073867925 0.76599997 -0.053722132 9.4931609e-39 375 280
0.075210981 0.76599997 -0.053722132 8.3882805e-39 376 280
0.076554038 0.76599997 -0.053722132 8.1113349e-39 377 280
0.077897087 0.76599997 -0.053722132 7.3755957e-39 378 280
