# .PCD v.7 - Point Cloud Data file format
FIELDS x y z rgb imX imY
SIZE 4 4 4 4 4 4
TYPE F F F F F F
COUNT 1 1 1 1 1 1
WIDTH 835
HEIGHT 1
VIEWPOINT 0 0 0 1 0 0 0
POINTS 835
DATA ascii
0.055731449 0.69099998 -0.035135046 1.4932367e-38 366 269
0.056942999 0.69099998 -0.035135046 1.4563943e-38 367 269
0.058322877 0.69300002 -0.035236739 1.3735624e-38 368 269
0.05953794 0.69300002 -0.035236739 1.3459037e-38 369 269
0.0081372196 0.66299999 -0.034873798 1.806415e-38 327 270
0.0092996797 0.66299999 -0.034873798 1.8247427e-38 328 270
0.01058838 0.671 -0.0352946 1.8155231e-38 329 270
0.011764866 0.671 -0.0352946 1.8339953e-38 330 270
0.012922067 0.67000002 -0.035241999 1.8432149e-38 331 270
0.014096799 0.67000002 -0.035241999 1.8616543e-38 332 270
0.015225946 0.66799998 -0.035136797 1.8800936e-38 333 270
0.016397171 0.66799998 -0.035136797 1.861691e-38 334 270
0.017620999 0.67000002 -0.035241999 1.8709106e-38 335 270
0.018795732 0.67000002 -0.035241999 1.8709109e-38 336 270
0.020000271 0.671 -0.0352946 1.8801304e-38 337 270
0.021176759 0.671 -0.0352946 1.8709109e-38 338 270
0.022353247 0.671 -0.0352946 1.8801304e-38 339 270
0.023529733 0.671 -0.0352946 1.8616913e-38 340 270
0.024706218 0.671 -0.0352946 1.8616913e-38 341 270
0.025921278 0.67199999 -0.035347197 1.8432524e-38 342 270
0.027099518 0.67199999 -0.035347197 1.8432524e-38 343 270
0.02836192 0.67400002 -0.035452399 1.8340329e-38 344 270
0.029543666 0.67400002 -0.035452399 1.8248133e-38 345 270
0.030725412 0.67400002 -0.035452399 1.7788228e-38 346 270
0.03190716 0.67400002 -0.035452399 1.7788228e-38 347 270
0.033137999 0.67500001 -0.035505001 1.7696031e-38 348 270
0.034321502 0.67500001 -0.035505001 1.7603836e-38 349 270
0.035557602 0.676 -0.035557602 1.7235426e-38 350 270
0.036742851 0.676 -0.035557602 1.714323e-38 351 270
0.038040318 0.67799997 -0.0356628 1.7141802e-38 352 270
0.039229076 0.67799997 -0.0356628 1.7049607e-38 353 270
0.040477451 0.67900002 -0.035715401 1.6774095e-38 354 270
0.041729335 0.68000001 -0.035767999 1.6589703e-38 355 270
0.043047838 0.68199998 -0.035873197 1.6498587e-38 356 270
0.044243611 0.68199998 -0.035873197 1.6314196e-38 357 270
0.045506012 0.68300003 -0.035925802 1.6038697e-38 358 270
0.046771921 0.68400002 -0.035978399 1.5946502e-38 359 270
0.0479712 0.68400002 -0.035978399 1.5853953e-38 360 270
0.049314249 0.68599999 -0.036083598 1.5392975e-38 361 270
0.050517038 0.68599999 -0.036083598 1.4839801e-38 362 270
0.051795214 0.68699998 -0.036136195 1.4747606e-38 363 270
0.053076908 0.68800002 -0.0361888 1.4564293e-38 364 270
0.054283202 0.68800002 -0.0361888 1.4656489e-38 365 270
0.055731449 0.69099998 -0.036346599 1.4472466e-38 366 270
0.056942999 0.69099998 -0.036346599 1.4195881e-38 367 270
0.058322877 0.69300002 -0.036451802 1.3643794e-38 368 270
0.05953794 0.69300002 -0.036451802 1.3551599e-38 369 270
0.060752999 0.69300002 -0.036451802 1.3183189e-38 370 270
0.0011852533 0.676 -0.036742851 1.7881228e-38 321 271
0.0023705065 0.676 -0.036742851 1.8155252e-38 322 271
0.0069852793 0.66399997 -0.036090612 1.833925e-38 326 271
0.0081372196 0.66299999 -0.036036257 1.8523641e-38 327 271
0.0092996797 0.66299999 -0.036036257 1.843288e-38 328 271
0.010477919 0.66399997 -0.036090612 1.843288e-38 329 271
0.011642133 0.66399997 -0.036090612 1.8709093e-38 330 271
0.012806346 0.66399997 -0.036090612 1.8801289e-38 331 271
0.014012639 0.66600001 -0.03619932 1.8801642e-38 332 271
0.01518036 0.66600001 -0.03619932 1.8801642e-38 333 271
0.016397171 0.66799998 -0.036308024 1.8709815e-38 334 271
0.017620999 0.67000002 -0.036416732 1.8709815e-38 335 271
0.018795732 0.67000002 -0.036416732 1.8709111e-38 336 271
0.019970467 0.67000002 -0.036416732 1.8709111e-38 337 271
0.0211452 0.67000002 -0.036416732 1.8525446e-38 338 271
0.022319933 0.67000002 -0.036416732 1.8525446e-38 339 271
0.023494666 0.67000002 -0.036416732 1.8341048e-38 340 271
0.024706218 0.671 -0.036471087 1.8341048e-38 341 271
0.025882706 0.671 -0.036471087 1.8340329e-38 342 271
0.027099518 0.67199999 -0.036525436 1.8248133e-38 343 271
0.02827776 0.67199999 -0.036525436 1.7972991e-38 344 271
0.029455997 0.67199999 -0.036525436 1.77886e-38 345 271
0.030634239 0.67199999 -0.036525436 1.7328694e-38 346 271
0.031812478 0.67199999 -0.036525436 1.7328694e-38 347 271
0.033088908 0.67400002 -0.036634147 1.714466e-38 348 271
0.034270655 0.67400002 -0.036634147 1.6960268e-38 349 271
0.035505001 0.67500001 -0.036688499 1.6958841e-38 350 271
0.036688499 0.67500001 -0.036688499 1.6866645e-38 351 271
0.037928104 0.676 -0.036742851 1.6682618e-38 352 271
0.039229076 0.67799997 -0.036851559 1.6682618e-38 353 271
0.040417835 0.67799997 -0.036851559 1.6406757e-38 354 271
0.041667968 0.67900002 -0.036905911 1.6314561e-38 355 271
0.042921599 0.68000001 -0.036960267 1.6130174e-38 356 271
0.044113863 0.68000001 -0.036960267 1.6037979e-38 357 271
0.045439381 0.68199998 -0.037068974 1.585395e-38 358 271
0.04670354 0.68300003 -0.037123326 1.5669918e-38 359 271
0.047901068 0.68300003 -0.037123326 1.5485527e-38 360 271
0.049170479 0.68400002 -0.037177678 1.5208581e-38 361 271
0.050369758 0.68400002 -0.037177678 1.437918e-38 362 271
0.051719822 0.68599999 -0.037286382 1.4194788e-38 363 271
0.052999757 0.68699998 -0.037340738 1.4101889e-38 364 271
0.054283202 0.68800002 -0.037395094 1.428628e-38 365 271
0.055489492 0.68800002 -0.037395094 1.4011858e-38 366 271
0.056942999 0.69099998 -0.03755815 1.3827825e-38 367 271
0.058154557 0.69099998 -0.03755815 1.3551246e-38 368 271
0.059366114 0.69099998 -0.03755815 1.3551246e-38 369 271
0.060577665 0.69099998 -0.03755815 1.2999526e-38 370 271
-0.0011817467 0.67400002 -0.037815895 1.8155645e-38 319 272
0 0.67400002 -0.037815895 1.8063784e-38 320 272
0.0011834999 0.67500001 -0.037871998 1.815598e-38 321 272
0.0023669999 0.67500001 -0.037871998 1.8431098e-38 322 272
0.0058210664 0.66399997 -0.037254825 1.8432152e-38 325 272
0.0069852793 0.66399997 -0.037254825 1.8524698e-38 326 272
0.0081372196 0.66299999 -0.037198719 1.8616893e-38 327 272
0.0092996797 0.66299999 -0.037198719 1.8709093e-38 328 272
0.01046214 0.66299999 -0.037198719 1.8801289e-38 329 272
0.011642133 0.66399997 -0.037254825 1.8801289e-38 330 272
0.012806346 0.66399997 -0.037254825 1.898532e-38 331 272
0.014012639 0.66600001 -0.037367038 1.8985323e-38 332 272
0.01518036 0.66600001 -0.037367038 1.8709096e-38 333 272
0.016372627 0.667 -0.037423145 1.8892052e-38 334 272
0.017568398 0.66799998 -0.037479252 1.8892052e-38 335 272
0.018795732 0.67000002 -0.037591465 1.8799505e-38 336 272
0.019970467 0.67000002 -0.037591465 1.8799505e-38 337 272
0.0211452 0.67000002 -0.037591465 1.8432527e-38 338 272
0.022319933 0.67000002 -0.037591465 1.8340332e-38 339 272
0.023494666 0.67000002 -0.037591465 1.8248136e-38 340 272
0.024669399 0.67000002 -0.037591465 1.8155582e-38 341 272
0.025882706 0.671 -0.037647571 1.7972625e-38 342 272
0.027059194 0.671 -0.037647571 1.788043e-38 343 272
0.028235679 0.671 -0.037647571 1.797119e-38 344 272
0.029412165 0.671 -0.037647571 1.7694962e-38 345 272
0.030634239 0.67199999 -0.037703678 1.7143228e-38 346 272
0.031812478 0.67199999 -0.037703678 1.7143228e-38 347 272
0.03299072 0.67199999 -0.037703678 1.7142506e-38 348 272
0.034168959 0.67199999 -0.037703678 1.6958113e-38 349 272
0.035452399 0.67400002 -0.037815895 1.6865562e-38 350 272
0.036634147 0.67400002 -0.037815895 1.6681531e-38 351 272
0.037928104 0.676 -0.037928104 1.6406388e-38 352 272
0.039113361 0.676 -0.037928104 1.6314193e-38 353 272
0.040417835 0.67799997 -0.038040318 1.631384e-38 354 272
0.041606598 0.67799997 -0.038040318 1.6129448e-38 355 272
0.042858478 0.67900002 -0.038096428 1.6129448e-38 356 272
0.044048995 0.67900002 -0.038096428 1.6037251e-38 357 272
0.045439381 0.68199998 -0.038264744 1.5853217e-38 358 272
0.046635158 0.68199998 -0.038264744 1.5761022e-38 359 272
0.047830928 0.68199998 -0.038264744 1.5761741e-38 360 272
0.049098592 0.68300003 -0.038320854 1.539296e-38 361 272
0.05029612 0.68300003 -0.038320854 1.4564646e-38 362 272
0.051569041 0.68400002 -0.038376961 1.4287701e-38 363 272
0.052999757 0.68699998 -0.038545277 1.4011125e-38 364 272
0.054283202 0.68800002 -0.038601387 1.3918571e-38 365 272
0.055489492 0.68800002 -0.038601387 1.3643429e-38 366 272
0.056942999 0.69099998 -0.038769703 1.3551233e-38 367 272
0.058154557 0.69099998 -0.038769703 1.3367214e-38 368 272
0.059366114 0.69099998 -0.038769703 1.3367214e-38 369 272
0.060577665 0.69099998 -0.038769703 1.3182841e-38 370 272
-0.0058035329 0.662 -0.038303319 1.7603522e-38 315 273
-0.0046428265 0.662 -0.038303319 1.7970472e-38 316 273
-0.00347686 0.66100001 -0.038245458 1.8062667e-38 317 273
-0.0023179066 0.66100001 -0.038245458 1.8154489e-38 318 273
-0.0011589533 0.66100001 -0.038245458 1.8154489e-38 319 273
0 0.67400002 -0.038997639 1.8339237e-38 320 273
0.0011764866 0.671 -0.038824059 1.8523628e-38 321 273
0.0023354399 0.66600001 -0.03853476 1.8799492e-38 322 273
0.0034926396 0.66399997 -0.038419038 1.8799492e-38 323 273
0.0046568532 0.66399997 -0.038419038 1.870801e-38 324 273
0.0058210664 0.66399997 -0.038419038 1.8800206e-38 325 273
0.0069747595 0.66299999 -0.038361177 1.8708013e-38 326 273
0.0081372196 0.66299999 -0.038361177 1.8892405e-38 327 273
0.0092996797 0.66299999 -0.038361177 1.8708743e-38 328 273
0.01046214 0.66299999 -0.038361177 1.8800938e-38 329 273
0.0116246 0.66299999 -0.038361177 1.8800941e-38 330 273
0.012787059 0.66299999 -0.038361177 1.8800941e-38 331 273
0.013970559 0.66399997 -0.038419038 1.861691e-38 332 273
0.01518036 0.66600001 -0.03853476 1.861691e-38 333 273
0.016348081 0.66600001 -0.03853476 1.8340685e-38 334 273
0.017515799 0.66600001 -0.03853476 1.843288e-38 335 273
0.018739626 0.66799998 -0.038650475 1.8248855e-38 336 273
0.019910853 0.66799998 -0.038650475 1.8156301e-38 337 273
0.021082079 0.66799998 -0.038650475 1.8248502e-38 338 273
0.022253305 0.66799998 -0.038650475 1.7972275e-38 339 273
0.023424532 0.66799998 -0.038650475 1.7605282e-38 340 273
0.024669399 0.67000002 -0.038766202 1.7513086e-38 341 273
0.025844134 0.67000002 -0.038766202 1.7604919e-38 342 273
0.027059194 0.671 -0.038824059 1.7327972e-38 343 273
0.028235679 0.671 -0.038824059 1.6959565e-38 344 273
0.029412165 0.671 -0.038824059 1.6959565e-38 345 273
0.030588651 0.671 -0.038824059 1.6774818e-38 346 273
0.031765141 0.671 -0.038824059 1.6682621e-38 347 273
0.032941625 0.671 -0.038824059 1.6682618e-38 348 273
0.034118112 0.671 -0.038824059 1.6406391e-38 349 273
0.0352946 0.671 -0.038824059 1.631384e-38 350 273
0.036525436 0.67199999 -0.03888192 1.631384e-38 351 273
0.037815895 0.67400002 -0.038997639 1.6130527e-38 352 273
0.039055496 0.67500001 -0.039055496 1.6038332e-38 353 273
0.040298611 0.676 -0.039113361 1.6038332e-38 354 273
0.041483864 0.676 -0.039113361 1.5853939e-38 355 273
0.042795356 0.67799997 -0.039229076 1.5761388e-38 356 273
0.044048995 0.67900002 -0.039286941 1.5669192e-38 357 273
0.045306131 0.68000001 -0.039344799 1.5301483e-38 358 273
0.046635158 0.68199998 -0.039460517 1.5301483e-38 359 273
0.047830928 0.68199998 -0.039460517 1.4842307e-38 360 273
0.049026705 0.68199998 -0.039460517 1.4657914e-38 361 273
0.05029612 0.68300003 -0.039518382 1.4472463e-38 362 273
0.051569041 0.68400002 -0.03957624 1.4104041e-38 363 273
0.05292261 0.68599999 -0.039691959 1.3551236e-38 364 273
0.054204296 0.68699998 -0.039749816 1.3458681e-38 365 273
0.055489492 0.68800002 -0.039807681 1.3275375e-38 366 273
0.056942999 0.69099998 -0.039981257 1.3275375e-38 367 273
0.058154557 0.69099998 -0.039981257 1.3274666e-38 368 273
0.059366114 0.69099998 -0.039981257 1.336722e-38 369 273
0.060577665 0.69099998 -0.039981257 1.3183567e-38 370 273
-0.0092295464 0.65799999 -0.039225571 1.8155603e-38 312 274
-0.0080758529 0.65799999 -0.039225571 1.8339995e-38 313 274
-0.00695372 0.66100001 -0.039404415 1.8432178e-38 314 274
-0.0057947668 0.66100001 -0.039404415 1.8339981e-38 315 274
-0.0046358132 0.66100001 -0.039404415 1.8523997e-38 316 274
-0.00347686 0.66100001 -0.039404415 1.8616193e-38 317 274
-0.0023108933 0.65899998 -0.039285187 1.8433234e-38 318 274
-0.0011554466 0.65899998 -0.039285187 1.8340679e-38 319 274
0 0.65899998 -0.039285187 1.8433228e-38 320 274
0.0011554466 0.65899998 -0.039285187 1.8709815e-38 321 274
0.0023354399 0.66600001 -0.039702479 1.8800211e-38 322 274
0.0034926396 0.66399997 -0.039583251 1.8892408e-38 323 274
0.0046358132 0.66100001 -0.039404415 1.8799855e-38 324 274
0.0057947668 0.66100001 -0.039404415 1.8892052e-38 325 274
0.0069642398 0.662 -0.039464023 1.8708743e-38 326 274
0.0081372196 0.66299999 -0.039523639 1.8708743e-38 327 274
0.0092996797 0.66299999 -0.039523639 1.8708743e-38 328 274
0.01046214 0.66299999 -0.039523639 1.8708743e-38 329 274
0.011607066 0.662 -0.039464023 1.8708387e-38 330 274
0.012767773 0.662 -0.039464023 1.861619e-38 331 274
0.013949519 0.66299999 -0.039523639 1.8616193e-38 332 274
0.015134773 0.66399997 -0.039583251 1.8523997e-38 333 274
0.016348081 0.66600001 -0.039702479 1.8248133e-38 334 274
0.017515799 0.66600001 -0.039702479 1.8155938e-38 335 274
0.018683519 0.66600001 -0.039702479 1.8155572e-38 336 274
0.019881045 0.667 -0.039762091 1.7878625e-38 337 274
0.021050518 0.667 -0.039762091 1.7695315e-38 338 274
0.022219993 0.667 -0.039762091 1.7695315e-38 339 274
0.023424532 0.66799998 -0.039821707 1.7418723e-38 340 274
0.02459576 0.66799998 -0.039821707 1.723433e-38 341 274
0.025766984 0.66799998 -0.039821707 1.7050296e-38 342 274
0.027018867 0.67000002 -0.039940935 1.7234327e-38 343 274
0.028193599 0.67000002 -0.039940935 1.7049957e-38 344 274
0.029368332 0.67000002 -0.039940935 1.6865564e-38 345 274
0.030588651 0.671 -0.040000543 1.6406388e-38 346 274
0.031765141 0.671 -0.040000543 1.6406388e-38 347 274
0.032941625 0.671 -0.040000543 1.6497861e-38 348 274
0.034118112 0.671 -0.040000543 1.6313471e-38 349 274
0.0352946 0.671 -0.040000543 1.6129802e-38 350 274
0.036471087 0.671 -0.040000543 1.6129802e-38 351 274
0.037815895 0.67400002 -0.040179387 1.6129799e-38 352 274
0.039055496 0.67500001 -0.040238999 1.6129799e-38 353 274
0.040238999 0.67500001 -0.040238999 1.5854289e-38 354 274
0.041483864 0.676 -0.040298611 1.5669539e-38 355 274
0.042795356 0.67799997 -0.040417835 1.5485155e-38 356 274
0.043984115 0.67799997 -0.040417835 1.539296e-38 357 274
0.045306131 0.68000001 -0.040537067 1.4657195e-38 358 274
0.046635158 0.68199998 -0.040656291 1.4472804e-38 359 274
0.047830928 0.68199998 -0.040656291 1.4747959e-38 360 274
0.049026705 0.68199998 -0.040656291 1.4379536e-38 361 274
0.05029612 0.68300003 -0.040715907 1.3827094e-38 362 274
0.051493648 0.68300003 -0.040715907 1.3827094e-38 363 274
0.05292261 0.68599999 -0.040894743 1.3550161e-38 364 274
0.054204296 0.68699998 -0.040954359 1.3457965e-38 365 274
0.055650797 0.69 -0.041133199 1.3366491e-38 366 274
0.0568606 0.69 -0.041133199 1.3366491e-38 367 274
0.058154557 0.69099998 -0.041192811 1.3183542e-38 368 274
0.059366114 0.69099998 -0.041192811 1.3275738e-38 369 274
0.060752999 0.69300002 -0.041312039 1.327648e-38 370 274
-0.019612785 0.65799999 -0.040379263 1.8340758e-38 303 275
-0.018374931 0.65499997 -0.040195163 1.8065232e-38 304 275
-0.017331699 0.65899998 -0.04044063 1.7973036e-38 305 275
-0.016176252 0.65899998 -0.04044063 1.8155234e-38 306 275
-0.015020805 0.65899998 -0.04044063 1.7786453e-38 307 275
-0.013865359 0.65899998 -0.04044063 1.8247039e-38 308 275
-0.012709912 0.65899998 -0.04044063 1.8154842e-38 309 275
-0.011554466 0.65899998 -0.04044063 1.8339232e-38 310 275
-0.010399019 0.65899998 -0.04044063 1.8339232e-38 311 275
-0.0092295464 0.65799999 -0.040379263 1.83396e-38 312 275
-0.0080758529 0.65799999 -0.040379263 1.852435e-38 313 275
-0.00695372 0.66100001 -0.040563367 1.8707306e-38 314 275
-0.0057947668 0.66100001 -0.040563367 1.8707306e-38 315 275
-0.0046358132 0.66100001 -0.040563367 1.8707662e-38 316 275
-0.0034663398 0.65899998 -0.04044063 1.8523631e-38 317 275
-0.0023108933 0.65899998 -0.04044063 1.8339247e-38 318 275
-0.0011536933 0.65799999 -0.040379263 1.8339247e-38 319 275
0 0.65799999 -0.040379263 1.8707309e-38 320 275
0.0011554466 0.65899998 -0.04044063 1.8799505e-38 321 275
0.0023108933 0.65899998 -0.04044063 1.8891335e-38 322 275
0.00347686 0.66100001 -0.040563367 1.8891335e-38 323 275
0.0046358132 0.66100001 -0.040563367 1.852435e-38 324 275
0.0057947668 0.66100001 -0.040563367 1.8616546e-38 325 275
0.0069642398 0.662 -0.04062473 1.852435e-38 326 275
0.0081249457 0.662 -0.04062473 1.852435e-38 327 275
0.009285653 0.662 -0.04062473 1.8523994e-38 328 275
0.01044636 0.662 -0.04062473 1.8523994e-38 329 275
0.011607066 0.662 -0.04062473 1.8340329e-38 330 275
0.012767773 0.662 -0.04062473 1.8248133e-38 331 275
0.01392848 0.662 -0.04062473 1.7972269e-38 332 275
0.015134773 0.66399997 -0.040747464 1.7880074e-38 333 275
0.016298985 0.66399997 -0.040747464 1.7512014e-38 334 275
0.0174632 0.66399997 -0.040747464 1.7419817e-38 335 275
0.018627413 0.66399997 -0.040747464 1.7511637e-38 336 275
0.019851239 0.66600001 -0.040870197 1.7235411e-38 337 275
0.02101896 0.66600001 -0.040870197 1.7143578e-38 338 275
0.02218668 0.66600001 -0.040870197 1.6959547e-38 339 275
0.023389466 0.667 -0.040931564 1.6958466e-38 340 275
0.024558939 0.667 -0.040931564 1.6866271e-38 341 275
0.025766984 0.66799998 -0.040992931 1.6682237e-38 342 275
0.026938211 0.66799998 -0.040992931 1.6682237e-38 343 275
0.028109439 0.66799998 -0.040992931 1.6406388e-38 344 275
0.029368332 0.67000002 -0.041115668 1.6314193e-38 345 275
0.030588651 0.671 -0.041177034 1.6037976e-38 346 275
0.031765141 0.671 -0.041177034 1.6037976e-38 347 275
0.032892533 0.67000002 -0.041115668 1.5946133e-38 348 275
0.034067266 0.67000002 -0.041115668 1.5946133e-38 349 275
0.035241999 0.67000002 -0.041115668 1.5853933e-38 350 275
0.036471087 0.671 -0.041177034 1.5853933e-38 351 275
0.037703678 0.67199999 -0.041238401 1.5853936e-38 352 275
0.038997639 0.67400002 -0.041361131 1.5669545e-38 353 275
0.040179387 0.67400002 -0.041361131 1.5485161e-38 354 275
0.041422497 0.67500001 -0.041422497 1.5392606e-38 355 275
0.042669121 0.676 -0.041483864 1.4933069e-38 356 275
0.043854371 0.676 -0.041483864 1.4840873e-38 357 275
0.045172878 0.67799997 -0.041606598 1.4380618e-38 358 275
0.046498399 0.68000001 -0.041729335 1.4012194e-38 359 275
0.047690667 0.68000001 -0.041729335 1.3551939e-38 360 275
0.049026705 0.68199998 -0.041852064 1.3551939e-38 361 275
0.050222475 0.68199998 -0.041852064 1.3366839e-38 362 275
0.051418249 0.68199998 -0.041852064 1.3182806e-38 363 275
0.05276832 0.68400002 -0.041974798 1.3089907e-38 364 275
0.054204296 0.68699998 -0.042158898 1.2997712e-38 365 275
0.055489492 0.68800002 -0.042220265 1.2998075e-38 366 275
0.056695789 0.68800002 -0.042220265 1.3182826e-38 367 275
0.058154557 0.69099998 -0.042404365 1.2999874e-38 368 275
0.059366114 0.69099998 -0.042404365 1.3184624e-38 369 275
0.060752999 0.69300002 -0.042527102 1.3093174e-38 370 275
-0.021920172 0.65799999 -0.04153296 1.8154868e-38 301 276
-0.02076648 0.65799999 -0.04153296 1.8338549e-38 302 276
-0.019612785 0.65799999 -0.04153296 1.8430745e-38 303 276
-0.018374931 0.65499997 -0.041343596 1.8339628e-38 304 276
-0.017226499 0.65499997 -0.041343596 1.8615856e-38 305 276
-0.016176252 0.65899998 -0.041596077 1.8615844e-38 306 276
-0.015020805 0.65899998 -0.041596077 1.8523647e-38 307 276
-0.01384432 0.65799999 -0.04153296 1.8708016e-38 308 276
-0.012690626 0.65799999 -0.04153296 1.8708016e-38 309 276
-0.011554466 0.65899998 -0.041596077 1.8708013e-38 310 276
-0.01038324 0.65799999 -0.04153296 1.8708013e-38 311 276
-0.0092295464 0.65799999 -0.04153296 1.870766e-38 312 276
-0.0080758529 0.65799999 -0.04153296 1.870766e-38 313 276
-0.0069326796 0.65899998 -0.041596077 1.870766e-38 314 276
-0.0057772328 0.65899998 -0.041596077 1.8523628e-38 315 276
-0.0046217865 0.65899998 -0.041596077 1.8614748e-38 316 276
-0.0034610799 0.65799999 -0.04153296 1.8245965e-38 317 276
-0.0023073866 0.65799999 -0.04153296 1.8244183e-38 318 276
-0.0011536933 0.65799999 -0.04153296 1.8336379e-38 319 276
0 0.65799999 -0.04153296 1.8521493e-38 320 276
0.0011536933 0.65799999 -0.04153296 1.8705884e-38 321 276
0.0023073866 0.65799999 -0.04153296 1.8706237e-38 322 276
0.0034663398 0.65899998 -0.041596077 1.8706237e-38 323 276
0.0046358132 0.66100001 -0.04172232 1.8431801e-38 324 276
0.0057947668 0.66100001 -0.04172232 1.8431801e-38 325 276
0.0069642398 0.662 -0.041785441 1.8339603e-38 326 276
0.0081249457 0.662 -0.041785441 1.8339603e-38 327 276
0.009285653 0.662 -0.041785441 1.83396e-38 328 276
0.01044636 0.662 -0.041785441 1.8155569e-38 329 276
0.011589534 0.66100001 -0.04172232 1.8063371e-38 330 276
0.012748486 0.66100001 -0.04172232 1.7971174e-38 331 276
0.01392848 0.662 -0.041785441 1.7695666e-38 332 276
0.015089186 0.662 -0.041785441 1.741872e-38 333 276
0.016274439 0.66299999 -0.041848559 1.7143215e-38 334 276
0.017436899 0.66299999 -0.041848559 1.7050659e-38 335 276
0.018599359 0.66299999 -0.041848559 1.7050662e-38 336 276
0.019791625 0.66399997 -0.041911677 1.6866271e-38 337 276
0.020955838 0.66399997 -0.041911677 1.6682605e-38 338 276
0.02218668 0.66600001 -0.042037919 1.6682605e-38 339 276
0.023354398 0.66600001 -0.042037919 1.6498564e-38 340 276
0.02452212 0.66600001 -0.042037919 1.6129782e-38 341 276
0.025728412 0.667 -0.042101037 1.6129785e-38 342 276
0.026897885 0.667 -0.042101037 1.6314177e-38 343 276
0.028109439 0.66799998 -0.042164158 1.6129446e-38 344 276
0.029280664 0.66799998 -0.042164158 1.6037249e-38 345 276
0.030543067 0.67000002 -0.042290401 1.6037251e-38 346 276
0.0317178 0.67000002 -0.042290401 1.6037251e-38 347 276
0.032892533 0.67000002 -0.042290401 1.6037249e-38 348 276
0.034067266 0.67000002 -0.042290401 1.6037249e-38 349 276
0.035241999 0.67000002 -0.042290401 1.5762094e-38 350 276
0.036416732 0.67000002 -0.042290401 1.5762094e-38 351 276
0.037647571 0.671 -0.042353518 1.5668823e-38 352 276
0.03888192 0.67199999 -0.042416636 1.5484432e-38 353 276
0.040060159 0.67199999 -0.042416636 1.5116368e-38 354 276
0.041361131 0.67400002 -0.042542879 1.5024173e-38 355 276
0.042606 0.67500001 -0.042606 1.4656111e-38 356 276
0.043854371 0.676 -0.042669121 1.4563915e-38 357 276
0.045039624 0.676 -0.042669121 1.4012189e-38 358 276
0.046498399 0.68000001 -0.042921599 1.3735602e-38 359 276
0.047690667 0.68000001 -0.042921599 1.3090608e-38 360 276
0.049026705 0.68199998 -0.043047838 1.3090608e-38 361 276
0.050222475 0.68199998 -0.043047838 1.2997706e-38 362 276
0.051418249 0.68199998 -0.043047838 1.2997706e-38 363 276
0.05276832 0.68400002 -0.043174081 1.2812962e-38 364 276
0.054204296 0.68699998 -0.043363437 1.2812962e-38 365 276
0.055489492 0.68800002 -0.043426562 1.2905876e-38 366 276
0.056695789 0.68800002 -0.043426562 1.3090628e-38 367 276
-0.056273226 0.65499997 -0.042492028 1.7051833e-38 271 277
-0.055124797 0.65499997 -0.042492028 1.7052914e-38 272 277
-0.053976361 0.65499997 -0.042492028 1.7421336e-38 273 277
-0.052747279 0.65399998 -0.04242716 1.8064911e-38 274 277
-0.051600594 0.65399998 -0.04242716 1.8064911e-38 275 277
-0.050531063 0.65499997 -0.042492028 1.8156738e-38 276 277
-0.049382631 0.65499997 -0.042492028 1.8064541e-38 277 277
-0.048381478 0.65700001 -0.04262178 1.8340758e-38 278 277
-0.047301427 0.65799999 -0.042686652 1.8340758e-38 279 277
-0.046077598 0.65700001 -0.04262178 1.8248559e-38 280 277
-0.04492566 0.65700001 -0.04262178 1.7972332e-38 281 277
-0.043773718 0.65700001 -0.04262178 1.8155998e-38 282 277
-0.042881273 0.66100001 -0.042881273 1.8248193e-38 283 277
-0.04172232 0.66100001 -0.042881273 1.8156348e-38 284 277
-0.04044063 0.65899998 -0.042751525 1.8156348e-38 285 277
-0.039285187 0.65899998 -0.042751525 1.8248178e-38 286 277
-0.038071878 0.65799999 -0.042686652 1.8155982e-38 287 277
-0.036918186 0.65799999 -0.042686652 1.8156343e-38 288 277
-0.035710141 0.65700001 -0.04262178 1.8156343e-38 289 277
-0.034558199 0.65700001 -0.04262178 1.8064147e-38 290 277
-0.033406258 0.65700001 -0.04262178 1.8064147e-38 291 277
-0.03225432 0.65700001 -0.04262178 1.8247445e-38 292 277
-0.03110238 0.65700001 -0.04262178 1.8247445e-38 293 277
-0.026655925 0.66100001 -0.042881273 1.8247389e-38 297 277
-0.025419824 0.65899998 -0.042751525 1.8522883e-38 298 277
-0.024264378 0.65899998 -0.042751525 1.8430687e-38 299 277
-0.023108931 0.65899998 -0.042751525 1.8523253e-38 300 277
-0.021920172 0.65799999 -0.042686652 1.8707644e-38 301 277
-0.020671798 0.65499997 -0.042492028 1.8432149e-38 302 277
-0.019523365 0.65499997 -0.042492028 1.8432149e-38 303 277
-0.018374931 0.65499997 -0.042492028 1.8616546e-38 304 277
-0.017226499 0.65499997 -0.042492028 1.8616546e-38 305 277
-0.016078066 0.65499997 -0.042492028 1.8708743e-38 306 277
-0.014929632 0.65499997 -0.042492028 1.8616546e-38 307 277
-0.013781199 0.65499997 -0.042492028 1.8800211e-38 308 277
-0.012632766 0.65499997 -0.042492028 1.8800211e-38 309 277
-0.011536933 0.65799999 -0.042686652 1.8892408e-38 310 277
-0.01036746 0.65700001 -0.04262178 1.8800211e-38 311 277
-0.0092155198 0.65700001 -0.04262178 1.870766e-38 312 277
-0.0080758529 0.65799999 -0.042686652 1.870766e-38 313 277
-0.0069221598 0.65799999 -0.042686652 1.870766e-38 314 277
-0.0057684663 0.65799999 -0.042686652 1.8431433e-38 315 277
-0.0046147732 0.65799999 -0.042686652 1.8338884e-38 316 277
-0.0034610799 0.65799999 -0.042686652 1.8061937e-38 317 277
-0.0023073866 0.65799999 -0.042686652 1.824418e-38 318 277
-0.0011536933 0.65799999 -0.042686652 1.824418e-38 319 277
0 0.65700001 -0.04262178 1.8338531e-38 320 277
0.00115194 0.65700001 -0.04262178 1.8246335e-38 321 277
0.0023038799 0.65700001 -0.04262178 1.8338884e-38 322 277
0.0034610799 0.65799999 -0.042686652 1.8338884e-38 323 277
0.0046217865 0.65899998 -0.042751525 1.8063376e-38 324 277
0.0057772328 0.65899998 -0.042751525 1.8063376e-38 325 277
0.00695372 0.66100001 -0.042881273 1.7971176e-38 326 277
0.0081126727 0.66100001 -0.042881273 1.7971176e-38 327 277
0.0092716264 0.66100001 -0.042881273 1.769531e-38 328 277
0.01043058 0.66100001 -0.042881273 1.7603114e-38 329 277
0.011589534 0.66100001 -0.042881273 1.741872e-38 330 277
0.012748486 0.66100001 -0.042881273 1.7234327e-38 331 277
0.01390744 0.66100001 -0.042881273 1.6866618e-38 332 277
0.015066394 0.66100001 -0.042881273 1.6682587e-38 333 277
0.016225345 0.66100001 -0.042881273 1.6590036e-38 334 277
0.017410601 0.662 -0.042946145 1.649784e-38 335 277
0.018571306 0.662 -0.042946145 1.6314899e-38 336 277
0.019761819 0.66299999 -0.043011017 1.6222345e-38 337 277
0.020924279 0.66299999 -0.043011017 1.6313824e-38 338 277
0.022120051 0.66399997 -0.043075889 1.6221629e-38 339 277
0.023284266 0.66399997 -0.043075889 1.6037949e-38 340 277
0.024448479 0.66399997 -0.043075889 1.5761722e-38 341 277
0.025612691 0.66399997 -0.043075889 1.6037236e-38 342 277
0.026857559 0.66600001 -0.043205637 1.6037236e-38 343 277
0.028025279 0.66600001 -0.043205637 1.5853217e-38 344 277
0.029236831 0.667 -0.04327051 1.5853217e-38 345 277
0.030451892 0.66799998 -0.043335386 1.603653e-38 346 277
0.031623118 0.66799998 -0.043335386 1.5944334e-38 347 277
0.032794341 0.66799998 -0.043335386 1.5669542e-38 348 277
0.034067266 0.67000002 -0.043465134 1.5669542e-38 349 277
0.035241999 0.67000002 -0.043465134 1.5669539e-38 350 277
0.036416732 0.67000002 -0.043465134 1.5485508e-38 351 277
0.037647571 0.671 -0.043530006 1.5208564e-38 352 277
0.038824059 0.671 -0.043530006 1.465575e-38 353 277
0.040060159 0.67199999 -0.043594878 1.4655748e-38 354 277
0.041238401 0.67199999 -0.043594878 1.4286605e-38 355 277
0.042542879 0.67400002 -0.043724626 1.3827429e-38 356 277
0.043789499 0.67500001 -0.043789499 1.3919625e-38 357 277
0.045039624 0.676 -0.043854371 1.3734886e-38 358 277
0.046361636 0.67799997 -0.043984115 1.3550134e-38 359 277
0.047690667 0.68000001 -0.044113863 1.3090608e-38 360 277
0.048882935 0.68000001 -0.044113863 1.2998412e-38 361 277
0.050222475 0.68199998 -0.044243611 1.2813315e-38 362 277
0.051493648 0.68300003 -0.044308487 1.2813315e-38 363 277
0.05276832 0.68400002 -0.04437336 1.2537454e-38 364 277
0.054204296 0.68699998 -0.044567976 1.2537454e-38 365 277
0.055408835 0.68699998 -0.044567976 1.2539252e-38 366 277
0.056613375 0.68699998 -0.044567976 1.300023e-38 367 277
0.057817914 0.68699998 -0.044567976 1.3092794e-38 368 277
-0.057596996 0.65700001 -0.043773718 1.7049963e-38 270 278
-0.056273226 0.65499997 -0.043640465 1.7049963e-38 271 278
-0.055124797 0.65499997 -0.043640465 1.6774451e-38 272 278
-0.053893957 0.65399998 -0.043573838 1.7142874e-38 273 278
-0.052747279 0.65399998 -0.043573838 1.7694959e-38 274 278
-0.051600594 0.65399998 -0.043573838 1.7602764e-38 275 278
-0.050531063 0.65499997 -0.043640465 1.7878262e-38 276 278
-0.049382631 0.65499997 -0.043640465 1.7878262e-38 277 278
-0.048381478 0.65700001 -0.043773718 1.7878262e-38 278 278
-0.04722954 0.65700001 -0.043773718 1.8062293e-38 279 278
-0.046077598 0.65700001 -0.043773718 1.8154135e-38 280 278
-0.044788897 0.65499997 -0.043640465 1.8154135e-38 281 278
-0.043640465 0.65499997 -0.043640465 1.8246335e-38 282 278
-0.04262178 0.65700001 -0.043773718 1.8246335e-38 283 278
-0.041596077 0.65899998 -0.043906972 1.8246686e-38 284 278
-0.04044063 0.65899998 -0.043906972 1.8246686e-38 285 278
-0.039225571 0.65799999 -0.043840345 1.8522184e-38 286 278
-0.038071878 0.65799999 -0.043840345 1.8429628e-38 287 278
-0.036918186 0.65799999 -0.043840345 1.8339237e-38 288 278
-0.035710141 0.65700001 -0.043773718 1.8523628e-38 289 278
-0.034558199 0.65700001 -0.043773718 1.8431799e-38 290 278
-0.033406258 0.65700001 -0.043773718 1.8431799e-38 291 278
-0.03225432 0.65700001 -0.043773718 1.8523641e-38 292 278
-0.03110238 0.65700001 -0.043773718 1.8616195e-38 293 278
-0.02995044 0.65700001 -0.043773718 1.8707309e-38 294 278
-0.028798498 0.65700001 -0.043773718 1.8707309e-38 295 278
-0.027646558 0.65700001 -0.043773718 1.870801e-38 296 278
-0.026534945 0.65799999 -0.043840345 1.8523979e-38 297 278
-0.025342681 0.65700001 -0.043773718 1.8707641e-38 298 278
-0.024190739 0.65700001 -0.043773718 1.8800196e-38 299 278
-0.023073865 0.65799999 -0.043840345 1.8800561e-38 300 278
-0.021886859 0.65700001 -0.043773718 1.8892759e-38 301 278
-0.020671798 0.65499997 -0.043640465 1.8709093e-38 302 278
-0.019523365 0.65499997 -0.043640465 1.8709093e-38 303 278
-0.01834688 0.65399998 -0.043573838 1.8892405e-38 304 278
-0.017200198 0.65399998 -0.043573838 1.8892405e-38 305 278
-0.016078066 0.65499997 -0.043640465 1.8709096e-38 306 278
-0.014929632 0.65499997 -0.043640465 1.8709096e-38 307 278
-0.013760159 0.65399998 -0.043573838 1.8708743e-38 308 278
-0.012613479 0.65399998 -0.043573838 1.8708743e-38 309 278
-0.011484332 0.65499997 -0.043640465 1.8616546e-38 310 278
-0.010335899 0.65499997 -0.043640465 1.852435e-38 311 278
-0.0091874655 0.65499997 -0.043640465 1.8523631e-38 312 278
-0.0080635799 0.65700001 -0.043773718 1.8431077e-38 313 278
-0.0069116396 0.65700001 -0.043773718 1.8339247e-38 314 278
-0.0057596997 0.65700001 -0.043773718 1.8155216e-38 315 278
-0.0046077599 0.65700001 -0.043773718 1.8063376e-38 316 278
-0.0034558198 0.65700001 -0.043773718 1.797082e-38 317 278
-0.0023038799 0.65700001 -0.043773718 1.7878981e-38 318 278
-0.00115194 0.65700001 -0.043773718 1.7878981e-38 319 278
0 0.65700001 -0.043773718 1.797082e-38 320 278
0.00115194 0.65700001 -0.043773718 1.7878625e-38 321 278
0.0023038799 0.65700001 -0.043773718 1.8154839e-38 322 278
0.0034558198 0.65700001 -0.043773718 1.8154839e-38 323 278
0.0046147732 0.65799999 -0.043840345 1.7787483e-38 324 278
0.0057684663 0.65799999 -0.043840345 1.7695287e-38 325 278
0.0069326796 0.65899998 -0.043906972 1.7694587e-38 326 278
0.0080881258 0.65899998 -0.043906972 1.7694587e-38 327 278
0.0092435731 0.65899998 -0.043906972 1.7326174e-38 328 278
0.010399019 0.65899998 -0.043906972 1.7233977e-38 329 278
0.011554466 0.65899998 -0.043906972 1.704994e-38 330 278
0.012709912 0.65899998 -0.043906972 1.6773353e-38 331 278
0.013865359 0.65899998 -0.043906972 1.6222331e-38 332 278
0.015020805 0.65899998 -0.043906972 1.6222331e-38 333 278
0.016225345 0.66100001 -0.044040225 1.6129429e-38 334 278
0.0173843 0.66100001 -0.044040225 1.6129429e-38 335 278
0.018543253 0.66100001 -0.044040225 1.5761741e-38 336 278
0.019732011 0.662 -0.044106852 1.5761741e-38 337 278
0.020892721 0.662 -0.044106852 1.6036886e-38 338 278
0.022053426 0.662 -0.044106852 1.5944331e-38 339 278
0.023214132 0.662 -0.044106852 1.5668821e-38 340 278
0.024411658 0.66299999 -0.044173479 1.5668821e-38 341 278
0.025574118 0.66299999 -0.044173479 1.5668823e-38 342 278
0.026776904 0.66399997 -0.044240102 1.5668823e-38 343 278
0.027941117 0.66399997 -0.044240102 1.566847e-38 344 278
0.02910533 0.66399997 -0.044240102 1.566847e-38 345 278
0.030360719 0.66600001 -0.04437336 1.5485158e-38 346 278
0.03157578 0.667 -0.044439986 1.5485158e-38 347 278
0.032745253 0.667 -0.044439986 1.5118171e-38 348 278
0.033965573 0.66799998 -0.044506609 1.5118171e-38 349 278
0.035241999 0.67000002 -0.044639867 1.5209284e-38 350 278
0.036416732 0.67000002 -0.044639867 1.5025252e-38 351 278
0.037591465 0.67000002 -0.044639867 1.4840861e-38 352 278
0.038824059 0.671 -0.044706494 1.4195491e-38 353 278
0.040000543 0.671 -0.044706494 1.401147e-38 354 278
0.041238401 0.67199999 -0.044773117 1.3734883e-38 355 278
0.042542879 0.67400002 -0.044906374 1.3458316e-38 356 278
0.043789499 0.67500001 -0.044972997 1.3458316e-38 357 278
0.045039624 0.676 -0.045039624 1.3366119e-38 358 278
0.046224877 0.676 -0.045039624 1.3273923e-38 359 278
0.047690667 0.68000001 -0.045306131 1.2998412e-38 360 278
0.048882935 0.68000001 -0.045306131 1.2906217e-38 361 278
0.050222475 0.68199998 -0.045439381 1.2721472e-38 362 278
0.051493648 0.68300003 -0.045506012 1.2721472e-38 363 278
0.053888701 0.68300003 -0.045506012 1.2630724e-38 365 278
-0.063163824 0.65499997 -0.044788897 1.7971546e-38 265 279
-0.062015396 0.65499997 -0.044788897 1.8063376e-38 266 279
-0.061052818 0.65700001 -0.04492566 1.797082e-38 267 279
-0.05990088 0.65700001 -0.04492566 1.7971176e-38 268 279
-0.058748938 0.65700001 -0.04492566 1.7878981e-38 269 279
-0.057421666 0.65499997 -0.044788897 1.7971174e-38 270 279
-0.056273226 0.65499997 -0.044788897 1.7971174e-38 271 279
-0.055124797 0.65499997 -0.044788897 1.7971174e-38 272 279
-0.053893957 0.65399998 -0.044720516 1.8339956e-38 273 279
-0.052747279 0.65399998 -0.044720516 1.843143e-38 274 279
-0.051679496 0.65499997 -0.044788897 1.843143e-38 275 279
-0.050531063 0.65499997 -0.044788897 1.8339585e-38 276 279
-0.049382631 0.65499997 -0.044788897 1.843178e-38 277 279
-0.048234195 0.65499997 -0.044788897 1.8432136e-38 278 279
-0.04722954 0.65700001 -0.04492566 1.8432136e-38 279 279
-0.04593733 0.65499997 -0.044788897 1.8156991e-38 280 279
-0.044788897 0.65499997 -0.044788897 1.79726e-38 281 279
-0.043640465 0.65499997 -0.044788897 1.8338513e-38 282 279
-0.042492028 0.65499997 -0.044788897 1.8338513e-38 283 279
-0.041343596 0.65499997 -0.044788897 1.8339588e-38 284 279
-0.0403179 0.65700001 -0.04492566 1.8339588e-38 285 279
-0.039165959 0.65700001 -0.04492566 1.8890956e-38 286 279
-0.038014017 0.65700001 -0.04492566 1.8706925e-38 287 279
-0.036862079 0.65700001 -0.04492566 1.8524332e-38 288 279
-0.035710141 0.65700001 -0.04492566 1.8708363e-38 289 279
-0.034558199 0.65700001 -0.04492566 1.8617249e-38 290 279
-0.033406258 0.65700001 -0.04492566 1.8617249e-38 291 279
-0.03225432 0.65700001 -0.04492566 1.8524698e-38 292 279
-0.031007698 0.65499997 -0.044788897 1.8524698e-38 293 279
-0.029859263 0.65499997 -0.044788897 1.8616893e-38 294 279
-0.028710833 0.65499997 -0.044788897 1.8524698e-38 295 279
-0.027562398 0.65499997 -0.044788897 1.8707647e-38 296 279
-0.026413966 0.65499997 -0.044788897 1.8799843e-38 297 279
-0.025265532 0.65499997 -0.044788897 1.8892038e-38 298 279
-0.024117097 0.65499997 -0.044788897 1.8799843e-38 299 279
-0.022968665 0.65499997 -0.044788897 1.8616893e-38 300 279
-0.021820232 0.65499997 -0.044788897 1.8616893e-38 301 279
-0.020640239 0.65399998 -0.044720516 1.8616896e-38 302 279
-0.019493559 0.65399998 -0.044720516 1.8616896e-38 303 279
-0.01834688 0.65399998 -0.044720516 1.8799136e-38 304 279
-0.017200198 0.65399998 -0.044720516 1.8799136e-38 305 279
-0.01605352 0.65399998 -0.044720516 1.8799492e-38 306 279
-0.014929632 0.65499997 -0.044788897 1.8799492e-38 307 279
-0.013760159 0.65399998 -0.044720516 1.8800211e-38 308 279
-0.012613479 0.65399998 -0.044720516 1.8708016e-38 309 279
-0.011484332 0.65499997 -0.044788897 1.8614742e-38 310 279
-0.010335899 0.65499997 -0.044788897 1.8614742e-38 311 279
-0.0091874655 0.65499997 -0.044788897 1.8522903e-38 312 279
-0.008039033 0.65499997 -0.044788897 1.8338513e-38 313 279
-0.0069116396 0.65700001 -0.04492566 1.8247039e-38 314 279
-0.0057596997 0.65700001 -0.04492566 1.8247039e-38 315 279
-0.0046077599 0.65700001 -0.04492566 1.7971894e-38 316 279
-0.0034558198 0.65700001 -0.04492566 1.7695666e-38 317 279
-0.0022968664 0.65499997 -0.044788897 1.7786426e-38 318 279
-0.0011484332 0.65499997 -0.044788897 1.7694231e-38 319 279
0 0.65700001 -0.04492566 1.778571e-38 320 279
0.00115194 0.65700001 -0.04492566 1.7693515e-38 321 279
0.0023038799 0.65700001 -0.04492566 1.7234681e-38 322 279
0.0034558198 0.65700001 -0.04492566 1.7050649e-38 323 279
0.0046077599 0.65700001 -0.04492566 1.7142116e-38 324 279
0.0057684663 0.65799999 -0.044994038 1.7049921e-38 325 279
0.0069221598 0.65799999 -0.044994038 1.6865534e-38 326 279
0.0080758529 0.65799999 -0.044994038 1.6773338e-38 327 279
0.0092295464 0.65799999 -0.044994038 1.6865536e-38 328 279
0.01038324 0.65799999 -0.044994038 1.6496394e-38 329 279
0.011536933 0.65799999 -0.044994038 1.6312726e-38 330 279
0.012690626 0.65799999 -0.044994038 1.640528e-38 331 279
0.01384432 0.65799999 -0.044994038 1.6312731e-38 332 279
0.014998012 0.65799999 -0.044994038 1.6127981e-38 333 279
0.016176252 0.65899998 -0.045062415 1.6220182e-38 334 279
0.017331699 0.65899998 -0.045062415 1.6127987e-38 335 279
0.018543253 0.66100001 -0.045199182 1.585177e-38 336 279
0.019702207 0.66100001 -0.045199182 1.585177e-38 337 279
0.02086116 0.66100001 -0.045199182 1.5759571e-38 338 279
0.022020113 0.66100001 -0.045199182 1.5759571e-38 339 279
0.023214132 0.662 -0.04526756 1.5759571e-38 340 279
0.024374841 0.662 -0.04526756 1.5759571e-38 341 279
0.025535546 0.662 -0.04526756 1.5484429e-38 342 279
0.026736578 0.66299999 -0.045335937 1.5484429e-38 343 279
0.027899038 0.66299999 -0.045335937 1.5576262e-38 344 279
0.029061496 0.66299999 -0.045335937 1.5576262e-38 345 279
0.030269546 0.66399997 -0.045404319 1.5484059e-38 346 279
0.031528439 0.66600001 -0.045541082 1.5391864e-38 347 279
0.032696161 0.66600001 -0.045541082 1.5024879e-38 348 279
0.033914726 0.667 -0.045609459 1.4748294e-38 349 279
0.035084199 0.667 -0.045609459 1.4931611e-38 350 279
0.036308024 0.66799998 -0.045677837 1.4470633e-38 351 279
0.037591465 0.67000002 -0.0458146 1.3827432e-38 352 279
0.038766202 0.67000002 -0.0458146 1.3735236e-38 353 279
0.040000543 0.671 -0.045882981 1.373453e-38 354 279
0.041238401 0.67199999 -0.045951359 1.3550137e-38 355 279
0.042542879 0.67400002 -0.046088122 1.3365756e-38 356 279
0.043789499 0.67500001 -0.0461565 1.3365756e-38 357 279
0.045039624 0.676 -0.046224877 1.3090611e-38 358 279
0.046224877 0.676 -0.046224877 1.3090611e-38 359 279
0.047690667 0.68000001 -0.046498399 1.2999134e-38 360 279
0.048882935 0.68000001 -0.046498399 1.2630353e-38 361 279
0.050222475 0.68199998 -0.046635158 1.2537804e-38 362 279
0.051493648 0.68300003 -0.04670354 1.2445607e-38 363 279
0.052691177 0.68300003 -0.04670354 1.2538526e-38 364 279
-0.080088757 0.662 -0.046428263 1.7326935e-38 251 280
-0.078928046 0.662 -0.046428263 1.7693878e-38 252 280
-0.077767342 0.662 -0.046428263 1.7417651e-38 253 280
-0.076606639 0.662 -0.046428263 1.787753e-38 254 280
-0.075445928 0.662 -0.046428263 1.787753e-38 255 280
-0.074173011 0.66100001 -0.046358135 1.7969363e-38 256 280
-0.073014058 0.66100001 -0.046358135 1.824559e-38 257 280
-0.07163769 0.65899998 -0.046217863 1.8154839e-38 258 280
-0.07026834 0.65700001 -0.046077598 1.8154839e-38 259 280
-0.069116399 0.65700001 -0.046077598 1.8062646e-38 260 280
-0.067964457 0.65700001 -0.046077598 1.8247039e-38 261 280
-0.066609129 0.65499997 -0.04593733 1.8155569e-38 262 280
-0.065360755 0.65399998 -0.045867197 1.83396e-38 263 280
-0.064214081 0.65399998 -0.045867197 1.8063736e-38 264 280
-0.063067392 0.65399998 -0.045867197 1.8063736e-38 265 280
-0.061920714 0.65399998 -0.045867197 1.7971541e-38 266 280
-0.060774036 0.65399998 -0.045867197 1.7971541e-38 267 280
-0.059718527 0.65499997 -0.04593733 1.8246683e-38 268 280
-0.058570094 0.65499997 -0.04593733 1.8246683e-38 269 280
-0.057421666 0.65499997 -0.04593733 1.8247392e-38 270 280
-0.056273226 0.65499997 -0.04593733 1.8339588e-38 271 280
-0.055124797 0.65499997 -0.04593733 1.8339588e-38 272 280
-0.053976361 0.65499997 -0.04593733 1.8431783e-38 273 280
-0.052827932 0.65499997 -0.04593733 1.8339585e-38 274 280
-0.051679496 0.65499997 -0.04593733 1.843178e-38 275 280
-0.050531063 0.65499997 -0.04593733 1.8707641e-38 276 280
-0.049382631 0.65499997 -0.04593733 1.8615446e-38 277 280
-0.048234195 0.65499997 -0.04593733 1.8524329e-38 278 280
-0.047085766 0.65499997 -0.04593733 1.8524329e-38 279 280
-0.04593733 0.65499997 -0.04593733 1.8522897e-38 280 280
-0.044788897 0.65499997 -0.04593733 1.8522897e-38 281 280
-0.043640465 0.65499997 -0.04593733 1.8154842e-38 282 280
-0.042492028 0.65499997 -0.04593733 1.8339234e-38 283 280
-0.041343596 0.65499997 -0.04593733 1.8155922e-38 284 280
-0.040195163 0.65499997 -0.04593733 1.8432149e-38 285 280
-0.039046731 0.65499997 -0.04593733 1.8708013e-38 286 280
-0.037898298 0.65499997 -0.04593733 1.8708013e-38 287 280
-0.036749862 0.65499997 -0.04593733 1.8616893e-38 288 280
-0.03560143 0.65499997 -0.04593733 1.8616893e-38 289 280
-0.034452997 0.65499997 -0.04593733 1.870801e-38 290 280
-0.033304565 0.65499997 -0.04593733 1.870801e-38 291 280
-0.032156132 0.65499997 -0.04593733 1.8524345e-38 292 280
-0.030960357 0.65399998 -0.045867197 1.8524345e-38 293 280
-0.029813679 0.65399998 -0.045867197 1.8524347e-38 294 280
-0.028710833 0.65499997 -0.04593733 1.8432152e-38 295 280
-0.027562398 0.65499997 -0.04593733 1.8523626e-38 296 280
-0.02637364 0.65399998 -0.045867197 1.8523626e-38 297 280
-0.025226958 0.65399998 -0.045867197 1.8524345e-38 298 280
-0.024043459 0.653 -0.045797065 1.8524345e-38 299 280
-0.022898532 0.653 -0.045797065 1.8340679e-38 300 280
-0.021820232 0.65499997 -0.04593733 1.8248484e-38 301 280
-0.020640239 0.65399998 -0.045867197 1.8340685e-38 302 280
-0.019493559 0.65399998 -0.045867197 1.824813e-38 303 280
-0.018318826 0.653 -0.045797065 1.8339247e-38 304 280
-0.017173899 0.653 -0.045797065 1.8431801e-38 305 280
-0.016028972 0.653 -0.045797065 1.843143e-38 306 280
-0.014906839 0.65399998 -0.045867197 1.843143e-38 307 280
-0.013739119 0.653 -0.045797065 1.8247036e-38 308 280
-0.012594193 0.653 -0.045797065 1.8247036e-38 309 280
-0.011466799 0.65399998 -0.045867197 1.7788579e-38 310 280
-0.01032012 0.65399998 -0.045867197 1.7696382e-38 311 280
-0.0091734398 0.65399998 -0.045867197 1.8154123e-38 312 280
-0.008039033 0.65499997 -0.04593733 1.8061927e-38 313 280
-0.0068905996 0.65499997 -0.04593733 1.7694937e-38 314 280
-0.0057421662 0.65499997 -0.04593733 1.7510906e-38 315 280
-0.0045937328 0.65499997 -0.04593733 1.7694568e-38 316 280
-0.0034452998 0.65499997 -0.04593733 1.7510176e-38 317 280
-0.00229336 0.65399998 -0.045867197 1.7050647e-38 318 280
-0.00114668 0.65399998 -0.045867197 1.7050647e-38 319 280
0 0.65399998 -0.045867197 1.704994e-38 320 280
0.00114668 0.65399998 -0.045867197 1.6957745e-38 321 280
0.0022968664 0.65499997 -0.04593733 1.6865196e-38 322 280
0.0034452998 0.65499997 -0.04593733 1.6865196e-38 323 280
0.0046077599 0.65700001 -0.046077598 1.6406739e-38 324 280
0.0057596997 0.65700001 -0.046077598 1.6222347e-38 325 280
0.0069116396 0.65700001 -0.046077598 1.6588961e-38 326 280
0.0080635799 0.65700001 -0.046077598 1.6312375e-38 327 280
0.0092155198 0.65700001 -0.046077598 1.6313444e-38 328 280
0.01036746 0.65700001 -0.046077598 1.6037218e-38 329 280
0.011519399 0.65700001 -0.046077598 1.5945035e-38 330 280
0.01267134 0.65700001 -0.046077598 1.5945035e-38 331 280
0.013823279 0.65700001 -0.046077598 1.5576978e-38 332 280
0.014998012 0.65799999 -0.04614773 1.5576978e-38 333 280
0.016151706 0.65799999 -0.04614773 1.5392235e-38 334 280
0.017331699 0.65899998 -0.046217863 1.5484432e-38 335 280
0.018487146 0.65899998 -0.046217863 1.5391526e-38 336 280
0.019702207 0.66100001 -0.046358135 1.5391526e-38 337 280
0.02086116 0.66100001 -0.046358135 1.520857e-38 338 280
0.022020113 0.66100001 -0.046358135 1.520857e-38 339 280
0.023179067 0.66100001 -0.046358135 1.5024899e-38 340 280
0.024374841 0.662 -0.046428263 1.4932703e-38 341 280
0.025535546 0.662 -0.046428263 1.5024902e-38 342 280
0.026696252 0.662 -0.046428263 1.484051e-38 343 280
0.027899038 0.66299999 -0.046498399 1.502417e-38 344 280
0.029061496 0.66299999 -0.046498399 1.4747943e-38 345 280
0.030269546 0.66399997 -0.046568532 1.4931589e-38 346 280
0.031433757 0.66399997 -0.046568532 1.4839393e-38 347 280
0.032696161 0.66600001 -0.046708796 1.4378788e-38 348 280
0.03386388 0.66600001 -0.046708796 1.4378788e-38 349 280
0.035084199 0.667 -0.046778932 1.3827797e-38 350 280
0.036308024 0.66799998 -0.046849065 1.3551571e-38 351 280
0.037591465 0.67000002 -0.046989333 1.3183157e-38 352 280
0.038766202 0.67000002 -0.046989333 1.3367189e-38 353 280
0.040000543 0.671 -0.047059465 1.318316e-38 354 280
0.041238401 0.67199999 -0.047129598 1.3090964e-38 355 280
0.042542879 0.67400002 -0.047269866 1.3273923e-38 356 280
0.043789499 0.67500001 -0.047339998 1.3273923e-38 357 280
0.045039624 0.676 -0.047410134 1.3090255e-38 358 280
0.046224877 0.676 -0.047410134 1.2998059e-38 359 280
0.047550395 0.67799997 -0.047550395 1.2906582e-38 360 280
0.048882935 0.68000001 -0.047690667 1.2630356e-38 361 280
0.050222475 0.68199998 -0.047830928 1.2630356e-38 362 280
0.051493648 0.68300003 -0.047901068 1.2630356e-38 363 280
0.052691177 0.68300003 -0.047901068 1.2722917e-38 364 280
-0.090808637 0.66399997 -0.047732744 1.7883046e-38 242 281
-0.089644417 0.66399997 -0.047732744 1.7513903e-38 243 281
-0.088480204 0.66399997 -0.047732744 1.7512073e-38 244 281
-0.087315999 0.66399997 -0.047732744 1.6866704e-38 245 281
-0.085762545 0.66100001 -0.047517084 1.7325493e-38 246 281
-0.084603593 0.66100001 -0.047517084 1.7233297e-38 247 281
-0.083570883 0.662 -0.047588971 1.7509868e-38 248 281
-0.082410172 0.662 -0.047588971 1.7602063e-38 249 281
-0.081249461 0.662 -0.047588971 1.7878274e-38 250 281
-0.080088757 0.662 -0.047588971 1.7970472e-38 251 281
-0.078928046 0.662 -0.047588971 1.8154489e-38 252 281
-0.077767342 0.662 -0.047588971 1.8154489e-38 253 281
-0.076606639 0.662 -0.047588971 1.8339588e-38 254 281
-0.075331964 0.66100001 -0.047517084 1.8339588e-38 255 281
-0.074173011 0.66100001 -0.047517084 1.8339585e-38 256 281
-0.073014058 0.66100001 -0.047517084 1.8155192e-38 257 281
-0.071528979 0.65799999 -0.047301427 1.8155192e-38 258 281
-0.07026834 0.65700001 -0.04722954 1.8155192e-38 259 281
-0.069116399 0.65700001 -0.04722954 1.8155189e-38 260 281
-0.067757562 0.65499997 -0.047085766 1.8155189e-38 261 281
-0.066609129 0.65499997 -0.047085766 1.8155545e-38 262 281
-0.065360755 0.65399998 -0.047013879 1.8155545e-38 263 281
-0.064214081 0.65399998 -0.047013879 1.8155192e-38 264 281
-0.063067392 0.65399998 -0.047013879 1.7878965e-38 265 281
-0.061920714 0.65399998 -0.047013879 1.8061924e-38 266 281
-0.060774036 0.65399998 -0.047013879 1.8061924e-38 267 281
-0.059718527 0.65499997 -0.047085766 1.824559e-38 268 281
-0.058570094 0.65499997 -0.047085766 1.824559e-38 269 281
-0.057421666 0.65499997 -0.047085766 1.8337783e-38 270 281
-0.056445058 0.65700001 -0.04722954 1.8337783e-38 271 281
-0.055124797 0.65499997 -0.047085766 1.8339222e-38 272 281
-0.053976361 0.65499997 -0.047085766 1.8339222e-38 273 281
-0.052827932 0.65499997 -0.047085766 1.8339219e-38 274 281
-0.051600594 0.65399998 -0.047013879 1.8339219e-38 275 281
-0.050453916 0.65399998 -0.047013879 1.852325e-38 276 281
-0.049307238 0.65399998 -0.047013879 1.852325e-38 277 281
