# .PCD v.7 - Point Cloud Data file format
FIELDS x y z rgb imX imY
SIZE 4 4 4 4 4 4
TYPE F F F F F F
COUNT 1 1 1 1 1 1
WIDTH 837
HEIGHT 1
VIEWPOINT 0 0 0 1 0 0 0
POINTS 837
DATA ascii
0.033043321 0.69800001 -0.061191335 1.2887521e-38 347 290
0.034267146 0.69800001 -0.061191335 1.2888604e-38 348 290
0.035592664 0.69999999 -0.061366666 1.3349581e-38 349 290
0.036977798 0.70300001 -0.061629668 1.3352464e-38 350 290
0.038264744 0.704 -0.061717331 1.3352464e-38 351 290
0.039499093 0.704 -0.061717331 1.372055e-38 352 290
0.040733438 0.704 -0.061717331 1.7961189e-38 353 290
0.041967787 0.704 -0.061717331 1.7327371e-38 354 290
0.043202132 0.704 -0.061717331 1.8525914e-38 355 290
-0.033516716 0.708 -0.063309364 1.7424621e-38 293 291
-0.032229774 0.70700002 -0.063219935 1.5664956e-38 294 291
-0.030946331 0.70599997 -0.063130513 1.2530306e-38 295 291
-0.029708479 0.70599997 -0.063130513 1.2613477e-38 296 291
-0.028389972 0.704 -0.062951677 1.2244695e-38 297 291
-0.027117053 0.70300001 -0.062862262 1.1690798e-38 298 291
-0.025884461 0.70300001 -0.062862262 1.1229821e-38 299 291
-0.024581732 0.70099998 -0.062683418 1.0859599e-38 300 291
-0.023319334 0.69999999 -0.062593997 1.0859599e-38 301 291
-0.02202888 0.69800001 -0.062415157 1.0675201e-38 302 291
-0.020805053 0.69800001 -0.062415157 1.0675201e-38 303 291
-0.019525118 0.69599998 -0.062236317 1.0950346e-38 304 291
-0.0182522 0.69400001 -0.06205748 1.0950346e-38 305 291
-0.017035386 0.69400001 -0.06205748 1.0950343e-38 306 291
-0.015818574 0.69400001 -0.06205748 1.0858148e-38 307 291
-0.014580719 0.69300002 -0.061968062 1.0396819e-38 308 291
-0.01336566 0.69300002 -0.061968062 1.0120232e-38 309 291
-0.012150601 0.69300002 -0.061968062 9.4759544e-39 310 291
-0.01090398 0.69099998 -0.061789215 9.4759544e-39 311 291
-0.0096783992 0.69 -0.061699796 9.2940784e-39 312 291
-0.0084686 0.69 -0.061699796 9.4788284e-39 313 291
-0.0072377604 0.68800002 -0.06152096 1.0397888e-38 314 291
-0.0060314666 0.68800002 -0.06152096 1.058264e-38 315 291
-0.0048251734 0.68800002 -0.06152096 1.0948911e-38 316 291
-0.0036188802 0.68800002 -0.06152096 1.0672684e-38 317 291
-0.0024125867 0.68800002 -0.06152096 1.0396116e-38 318 291
-0.0012045399 0.68699998 -0.061431535 1.0672702e-38 319 291
0 0.68699998 -0.061431535 1.1225153e-38 320 291
0.0012045399 0.68699998 -0.061431535 1.1685773e-38 321 291
0.0024090798 0.68699998 -0.061431535 1.1870507e-38 322 291
0.0036136196 0.68699998 -0.061431535 1.1778312e-38 323 291
0.0048181596 0.68699998 -0.061431535 1.2144568e-38 324 291
0.0060226996 0.68699998 -0.061431535 1.2144568e-38 325 291
0.0072272392 0.68699998 -0.061431535 1.1961608e-38 326 291
0.0084317802 0.68699998 -0.061431535 1.1961608e-38 327 291
0.0096363192 0.68699998 -0.061431535 1.177793e-38 328 291
0.010840859 0.68699998 -0.061431535 1.177793e-38 329 291
0.012045399 0.68699998 -0.061431535 1.1869407e-38 330 291
0.013269227 0.68800002 -0.06152096 1.1869407e-38 331 291
0.014475521 0.68800002 -0.06152096 1.1869413e-38 332 291
0.015681813 0.68800002 -0.06152096 1.1961608e-38 333 291
0.016888106 0.68800002 -0.06152096 1.1961608e-38 334 291
0.0180944 0.68800002 -0.06152096 1.2053804e-38 335 291
0.019356798 0.69 -0.061699796 1.1961608e-38 336 291
0.020566599 0.69 -0.061699796 1.2237835e-38 337 291
0.021776399 0.69 -0.061699796 1.2147072e-38 338 291
0.023019511 0.69099998 -0.061789215 1.2147072e-38 339 291
0.024301201 0.69300002 -0.061968062 1.2330737e-38 340 291
0.02551626 0.69300002 -0.061968062 1.2422933e-38 341 291
0.026769891 0.69400001 -0.06205748 1.2147425e-38 342 291
0.027986705 0.69400001 -0.06205748 1.2423652e-38 343 291
0.029287677 0.69599998 -0.062236317 1.2148871e-38 344 291
0.030551834 0.69700003 -0.062325738 1.2609848e-38 345 291
0.03177391 0.69700003 -0.062325738 1.2519095e-38 346 291
0.033043321 0.69800001 -0.062415157 1.2795322e-38 347 291
0.034267146 0.69800001 -0.062415157 1.3071916e-38 348 291
0.035643511 0.70099998 -0.062683418 1.3532893e-38 349 291
0.036977798 0.70300001 -0.062862262 1.344466e-38 350 291
0.038264744 0.704 -0.062951677 1.344466e-38 351 291
0.039499093 0.704 -0.062951677 1.4181171e-38 352 291
0.040733438 0.704 -0.062951677 1.8698757e-38 353 291
0.041967787 0.704 -0.062951677 1.7512848e-38 354 291
0.043202132 0.704 -0.062951677 1.8158217e-38 355 291
-0.033516716 0.708 -0.06455072 1.67814e-38 293 292
-0.032229774 0.70700002 -0.064459547 1.5207216e-38 294 292
-0.030946331 0.70599997 -0.064368367 1.2072923e-38 295 292
-0.029708479 0.70599997 -0.064368367 1.2615278e-38 296 292
-0.028389972 0.704 -0.064186029 1.2338332e-38 297 292
-0.027155625 0.704 -0.064186029 1.2426565e-38 298 292
-0.025884461 0.70300001 -0.064094849 1.1504969e-38 299 292
-0.024581732 0.70099998 -0.063912503 1.1135826e-38 300 292
-0.023319334 0.69999999 -0.063821331 1.0674848e-38 301 292
-0.02202888 0.69800001 -0.063638985 1.0582649e-38 302 292
-0.020805053 0.69800001 -0.063638985 1.0675204e-38 303 292
-0.019525118 0.69599998 -0.063456632 1.0950346e-38 304 292
-0.0182522 0.69400001 -0.063274294 1.0950346e-38 305 292
-0.017035386 0.69400001 -0.063274294 1.085815e-38 306 292
-0.015818574 0.69400001 -0.063274294 1.0765596e-38 307 292
-0.014580719 0.69300002 -0.063183114 1.0487936e-38 308 292
-0.01336566 0.69300002 -0.063183114 1.0119513e-38 309 292
-0.012115533 0.69099998 -0.063000768 9.2933596e-39 310 292
-0.01090398 0.69099998 -0.063000768 9.2011625e-39 311 292
-0.0096783992 0.69 -0.062909603 9.0185677e-39 312 292
-0.0084686 0.69 -0.062909603 9.4795445e-39 313 292
-0.0072377604 0.68800002 -0.06272725 1.0305339e-38 314 292
-0.0060314666 0.68800002 -0.06272725 1.0305339e-38 315 292
-0.0048251734 0.68800002 -0.06272725 1.0396822e-38 316 292
-0.0036188802 0.68800002 -0.06272725 1.0304626e-38 317 292
-0.0024125867 0.68800002 -0.06272725 1.0304992e-38 318 292
-0.0012062934 0.68800002 -0.06272725 1.058158e-38 319 292
0 0.68699998 -0.062636077 1.1134754e-38 320 292
0.0012045399 0.68699998 -0.062636077 1.122695e-38 321 292
0.0024090798 0.68699998 -0.062636077 1.1685763e-38 322 292
0.0036136196 0.68699998 -0.062636077 1.1685763e-38 323 292
0.0048181596 0.68699998 -0.062636077 1.177723e-38 324 292
0.0060226996 0.68699998 -0.062636077 1.1869425e-38 325 292
0.0072272392 0.68699998 -0.062636077 1.1686463e-38 326 292
0.0084317802 0.68699998 -0.062636077 1.1686463e-38 327 292
0.0096363192 0.68699998 -0.062636077 1.1869407e-38 328 292
0.010856641 0.68800002 -0.06272725 1.1869407e-38 329 292
0.012062933 0.68800002 -0.06272725 1.1961603e-38 330 292
0.013269227 0.68800002 -0.06272725 1.1869407e-38 331 292
0.014475521 0.68800002 -0.06272725 1.1869413e-38 332 292
0.015681813 0.68800002 -0.06272725 1.1961608e-38 333 292
0.016888106 0.68800002 -0.06272725 1.2053448e-38 334 292
0.018146999 0.69 -0.062909603 1.2053448e-38 335 292
0.019356798 0.69 -0.062909603 1.1961608e-38 336 292
0.020596405 0.69099998 -0.063000768 1.2237835e-38 337 292
0.021807959 0.69099998 -0.063000768 1.2054876e-38 338 292
0.023019511 0.69099998 -0.063000768 1.2147072e-38 339 292
0.024301201 0.69300002 -0.063183114 1.2055592e-38 340 292
0.02551626 0.69300002 -0.063183114 1.2055592e-38 341 292
0.026769891 0.69400001 -0.063274294 1.1964475e-38 342 292
0.028067358 0.69599998 -0.063456632 1.2056672e-38 343 292
0.029287677 0.69599998 -0.063456632 1.2241785e-38 344 292
0.030551834 0.69700003 -0.06354782 1.2518012e-38 345 292
0.031819493 0.69800001 -0.063638985 1.2611291e-38 346 292
0.033043321 0.69800001 -0.063638985 1.2887877e-38 347 292
0.034365334 0.69999999 -0.063821331 1.3072638e-38 348 292
0.035745207 0.70300001 -0.064094849 1.3533976e-38 349 292
0.037030395 0.704 -0.064186029 1.3170595e-38 350 292
0.038264744 0.704 -0.064186029 1.3631572e-38 351 292
0.039499093 0.704 -0.064186029 1.4552482e-38 352 292
0.040733438 0.704 -0.064186029 1.9162263e-38 353 292
0.041967787 0.704 -0.064186029 1.7881992e-38 354 292
0.043202132 0.704 -0.064186029 1.7881992e-38 355 292
-0.032229774 0.70700002 -0.065699153 1.3922244e-38 294 293
-0.030990168 0.70700002 -0.065699153 1.1709548e-38 295 293
-0.029750559 0.70700002 -0.065699153 1.2341226e-38 296 293
-0.028470624 0.70599997 -0.065606222 1.2156835e-38 297 293
-0.027155625 0.704 -0.065420374 1.2152146e-38 298 293
-0.025884461 0.70300001 -0.065327443 1.1414581e-38 299 293
-0.024581732 0.70099998 -0.065141588 1.095288e-38 300 293
-0.023319334 0.69999999 -0.065048665 1.0676653e-38 301 293
-0.02202888 0.69800001 -0.06486281 1.0674851e-38 302 293
-0.020805053 0.69800001 -0.06486281 1.0674851e-38 303 293
-0.019525118 0.69599998 -0.064676955 1.0950712e-38 304 293
-0.0182522 0.69400001 -0.064491108 1.0858516e-38 305 293
-0.017035386 0.69400001 -0.064491108 1.0857797e-38 306 293
-0.015818574 0.69400001 -0.064491108 1.0580852e-38 307 293
-0.014580719 0.69300002 -0.064398177 1.030427e-38 308 293
-0.01336566 0.69300002 -0.064398177 1.0027683e-38 309 293
-0.012115533 0.69099998 -0.06421233 9.0178531e-39 310 293
-0.01090398 0.69099998 -0.06421233 9.2018856e-39 311 293
-0.0096783992 0.69 -0.064119399 9.5695793e-39 312 293
-0.0084686 0.69 -0.064119399 9.6617749e-39 313 293
-0.0072587994 0.69 -0.064119399 1.0122027e-38 314 293
-0.0060314666 0.68800002 -0.063933544 1.0029832e-38 315 293
-0.0048251734 0.68800002 -0.063933544 1.048722e-38 316 293
-0.0036188802 0.68800002 -0.063933544 1.0579415e-38 317 293
-0.0024125867 0.68800002 -0.063933544 1.0397542e-38 318 293
-0.0012062934 0.68800002 -0.063933544 1.1042912e-38 319 293
0 0.68699998 -0.06384062 1.0861031e-38 320 293
0.0012045399 0.68699998 -0.06384062 1.0861031e-38 321 293
0.0024090798 0.68699998 -0.06384062 1.168611e-38 322 293
0.0036136196 0.68699998 -0.06384062 1.1593915e-38 323 293
0.0048181596 0.68699998 -0.06384062 1.177758e-38 324 293
0.0060226996 0.68699998 -0.06384062 1.177758e-38 325 293
0.0072272392 0.68699998 -0.06384062 1.177758e-38 326 293
0.0084317802 0.68699998 -0.06384062 1.177758e-38 327 293
0.0096363192 0.68699998 -0.06384062 1.1960172e-38 328 293
0.010856641 0.68800002 -0.063933544 1.1960172e-38 329 293
0.012062933 0.68800002 -0.063933544 1.186941e-38 330 293
0.013269227 0.68800002 -0.063933544 1.186941e-38 331 293
0.014475521 0.68800002 -0.063933544 1.1869407e-38 332 293
0.015727401 0.69 -0.064119399 1.1869407e-38 333 293
0.0169372 0.69 -0.064119399 1.2144921e-38 334 293
0.018146999 0.69 -0.064119399 1.2144921e-38 335 293
0.019384852 0.69099998 -0.06421233 1.2144921e-38 336 293
0.020596405 0.69099998 -0.06421233 1.2237116e-38 337 293
0.021807959 0.69099998 -0.06421233 1.2238188e-38 338 293
0.023019511 0.69099998 -0.06421233 1.2238188e-38 339 293
0.024301201 0.69300002 -0.064398177 1.1964473e-38 340 293
0.025553079 0.69400001 -0.064491108 1.1964473e-38 341 293
0.026769891 0.69400001 -0.064491108 1.1964473e-38 342 293
0.028067358 0.69599998 -0.064676955 1.2057027e-38 343 293
0.02932976 0.69700003 -0.064769886 1.2425098e-38 344 293
0.030595668 0.69800001 -0.06486281 1.2702045e-38 345 293
0.031819493 0.69800001 -0.06486281 1.2702764e-38 346 293
0.033043321 0.69800001 -0.06486281 1.3255936e-38 347 293
0.034414422 0.70099998 -0.065141588 1.3074067e-38 348 293
0.035745207 0.70300001 -0.065327443 1.3627241e-38 349 293
0.037030395 0.704 -0.065420374 1.3445013e-38 350 293
0.038264744 0.704 -0.065420374 1.4366971e-38 351 293
0.039499093 0.704 -0.065420374 1.5109616e-38 352 293
0.040733438 0.704 -0.065420374 1.9074028e-38 353 293
0.041967787 0.704 -0.065420374 1.7974558e-38 354 293
-0.030990168 0.70700002 -0.066938758 1.5023203e-38 295 294
-0.029708479 0.70599997 -0.066844068 1.4091869e-38 296 294
-0.028389972 0.704 -0.066654719 1.2616739e-38 297 294
-0.027117053 0.70300001 -0.066560037 1.2062118e-38 298 294
-0.025884461 0.70300001 -0.066560037 1.1324553e-38 299 294
-0.024581732 0.70099998 -0.066370681 1.1412065e-38 300 294
-0.023319334 0.69999999 -0.066275999 1.1042924e-38 301 294
-0.02202888 0.69800001 -0.066086642 1.0859596e-38 302 294
-0.020805053 0.69800001 -0.066086642 1.0859596e-38 303 294
-0.019553173 0.69700003 -0.06599196 1.122657e-38 304 294
-0.0182522 0.69400001 -0.065707922 1.1042539e-38 305 294
-0.017035386 0.69400001 -0.065707922 1.0673047e-38 306 294
-0.015818574 0.69400001 -0.065707922 1.0396819e-38 307 294
-0.01460176 0.69400001 -0.065707922 9.9372856e-39 308 294
-0.01336566 0.69300002 -0.06561324 9.7525356e-39 309 294
-0.012115533 0.69099998 -0.065423876 9.3844776e-39 310 294
-0.01090398 0.69099998 -0.065423876 9.3844776e-39 311 294
-0.0096924258 0.69099998 -0.065423876 9.3859111e-39 312 294
-0.0084686 0.69 -0.065329194 9.8468879e-39 313 294
-0.0072587994 0.69 -0.065329194 1.0580487e-38 314 294
-0.0060314666 0.68800002 -0.065139838 1.0580487e-38 315 294
-0.0048251734 0.68800002 -0.065139838 1.0579062e-38 316 294
-0.0036188802 0.68800002 -0.065139838 1.0579062e-38 317 294
-0.0024125867 0.68800002 -0.065139838 1.0673779e-38 318 294
-0.0012062934 0.68800002 -0.065139838 1.1042561e-38 319 294
0 0.68800002 -0.065139838 1.1228019e-38 320 294
0.0012045399 0.68699998 -0.065045156 1.1228019e-38 321 294
0.0024090798 0.68699998 -0.065045156 1.1593917e-38 322 294
0.0036136196 0.68699998 -0.065045156 1.1593917e-38 323 294
0.0048181596 0.68699998 -0.065045156 1.1593915e-38 324 294
0.0060226996 0.68699998 -0.065045156 1.168611e-38 325 294
0.0072377604 0.68800002 -0.065139838 1.1686466e-38 326 294
0.0084440531 0.68800002 -0.065139838 1.1501715e-38 327 294
0.0096503468 0.68800002 -0.065139838 1.177686e-38 328 294
0.010856641 0.68800002 -0.065139838 1.177686e-38 329 294
0.012062933 0.68800002 -0.065139838 1.1593901e-38 330 294
0.013269227 0.68800002 -0.065139838 1.1593901e-38 331 294
0.014517599 0.69 -0.065329194 1.1961606e-38 332 294
0.015727401 0.69 -0.065329194 1.1961606e-38 333 294
0.0169372 0.69 -0.065329194 1.1870132e-38 334 294
0.0181733 0.69099998 -0.065423876 1.1870132e-38 335 294
0.019384852 0.69099998 -0.065423876 1.1870132e-38 336 294
0.020596405 0.69099998 -0.065423876 1.2054523e-38 337 294
0.021871079 0.69300002 -0.06561324 1.1779728e-38 338 294
0.02308614 0.69300002 -0.06561324 1.1871924e-38 339 294
0.024301201 0.69300002 -0.06561324 1.1780081e-38 340 294
0.025553079 0.69400001 -0.065707922 1.1964473e-38 341 294
0.026769891 0.69400001 -0.065707922 1.1965199e-38 342 294
0.028107686 0.69700003 -0.06599196 1.214959e-38 343 294
0.02932976 0.69700003 -0.06599196 1.23347e-38 344 294
0.030595668 0.69800001 -0.066086642 1.2611647e-38 345 294
0.031910665 0.69999999 -0.066275999 1.2796757e-38 346 294
0.033137999 0.69999999 -0.066275999 1.3072985e-38 347 294
0.034414422 0.70099998 -0.066370681 1.3167349e-38 348 294
0.035745207 0.70300001 -0.066560037 1.3444294e-38 349 294
0.037030395 0.704 -0.066654719 1.3812003e-38 350 294
0.038264744 0.704 -0.066654719 1.5748112e-38 351 294
0.039499093 0.704 -0.066654719 1.5940817e-38 352 294
0.040733438 0.704 -0.066654719 1.8799241e-38 353 294
-0.029708479 0.70599997 -0.06808193 1.5291864e-38 296 295
-0.028389972 0.704 -0.067889065 1.2617832e-38 297 295
-0.027117053 0.70300001 -0.067792632 1.197137e-38 298 295
-0.025884461 0.70300001 -0.067792632 1.1694424e-38 299 295
-0.024581732 0.70099998 -0.067599766 1.1229839e-38 300 295
-0.023319334 0.69999999 -0.067503333 1.0861057e-38 301 295
-0.02202888 0.69800001 -0.06731046 1.0952158e-38 302 295
-0.020805053 0.69800001 -0.06731046 1.0952158e-38 303 295
-0.019553173 0.69700003 -0.067214034 1.113546e-38 304 295
-0.018304799 0.69599998 -0.067117594 1.0950709e-38 305 295
-0.017035386 0.69400001 -0.066924736 1.0581931e-38 306 295
-0.015818574 0.69400001 -0.066924736 1.0305342e-38 307 295
-0.01460176 0.69400001 -0.066924736 9.8461634e-39 308 295
-0.01336566 0.69300002 -0.066828303 9.6617721e-39 309 295
-0.012150601 0.69300002 -0.066828303 9.4770278e-39 310 295
-0.01090398 0.69099998 -0.06663543 9.4770278e-39 311 295
-0.0096924258 0.69099998 -0.06663543 9.5699423e-39 312 295
-0.0084686 0.69 -0.066538997 9.8468879e-39 313 295
-0.0072587994 0.69 -0.066538997 1.0489735e-38 314 295
-0.0060314666 0.68800002 -0.066346131 1.0489735e-38 315 295
-0.0048251734 0.68800002 -0.066346131 1.0580857e-38 316 295
-0.0036188802 0.68800002 -0.066346131 1.0673053e-38 317 295
-0.0024125867 0.68800002 -0.066346131 1.094964e-38 318 295
-0.0012062934 0.68800002 -0.066346131 1.1410618e-38 319 295
0 0.68800002 -0.066346131 1.1319854e-38 320 295
0.0012045399 0.68699998 -0.066249698 1.1135104e-38 321 295
0.0024090798 0.68699998 -0.066249698 1.1318049e-38 322 295
0.0036136196 0.68699998 -0.066249698 1.1225854e-38 323 295
0.0048181596 0.68699998 -0.066249698 1.1501715e-38 324 295
0.0060314666 0.68800002 -0.066346131 1.1501715e-38 325 295
0.0072377604 0.68800002 -0.066346131 1.1502071e-38 326 295
0.0084440531 0.68800002 -0.066346131 1.1502071e-38 327 295
0.0096503468 0.68800002 -0.066346131 1.1684664e-38 328 295
0.010856641 0.68800002 -0.066346131 1.177686e-38 329 295
0.012062933 0.68800002 -0.066346131 1.1593545e-38 330 295
0.0133078 0.69 -0.066538997 1.1777577e-38 331 295
0.014517599 0.69 -0.066538997 1.186941e-38 332 295
0.015727401 0.69 -0.066538997 1.1961606e-38 333 295
0.0169372 0.69 -0.066538997 1.1870129e-38 334 295
0.0181733 0.69099998 -0.06663543 1.1870129e-38 335 295
0.019384852 0.69099998 -0.06663543 1.1503502e-38 336 295
0.020596405 0.69099998 -0.06663543 1.1779728e-38 337 295
0.021871079 0.69300002 -0.066828303 1.1779731e-38 338 295
0.02308614 0.69300002 -0.066828303 1.1779731e-38 339 295
0.024301201 0.69300002 -0.066828303 1.1872643e-38 340 295
0.025553079 0.69400001 -0.066924736 1.1688612e-38 341 295
0.026769891 0.69400001 -0.066924736 1.1965199e-38 342 295
0.028107686 0.69700003 -0.067214034 1.2241785e-38 343 295
0.029371841 0.69800001 -0.06731046 1.2519098e-38 344 295
0.030595668 0.69800001 -0.06731046 1.2795325e-38 345 295
0.031910665 0.69999999 -0.067503333 1.2796774e-38 346 295
0.033137999 0.69999999 -0.067503333 1.307372e-38 347 295
0.034512613 0.70300001 -0.067792632 1.3259197e-38 348 295
0.035796054 0.704 -0.067889065 1.3628338e-38 349 295
0.037030395 0.704 -0.067889065 1.3996777e-38 350 295
0.038264744 0.704 -0.067889065 1.667045e-38 351 295
0.039499093 0.704 -0.067889065 1.6312493e-38 352 295
0.040849157 0.70599997 -0.06808193 1.787982e-38 353 295
-0.029708479 0.70599997 -0.069319785 1.6032313e-38 296 296
-0.028349647 0.70300001 -0.069025226 1.2897662e-38 297 296
-0.027117053 0.70300001 -0.069025226 1.1789127e-38 298 296
-0.025884461 0.70300001 -0.069025226 1.1512181e-38 299 296
-0.024581732 0.70099998 -0.068828844 1.1875909e-38 300 296
-0.023319334 0.69999999 -0.068730667 1.1322735e-38 301 296
-0.02202888 0.69800001 -0.068534292 1.123017e-38 302 296
-0.020805053 0.69800001 -0.068534292 1.1045779e-38 303 296
-0.019581227 0.69800001 -0.068534292 1.1227653e-38 304 296
-0.018304799 0.69599998 -0.068337917 1.104326e-38 305 296
-0.017084479 0.69599998 -0.068337917 1.0767747e-38 306 296
-0.015818574 0.69400001 -0.068141542 1.0583356e-38 307 296
-0.01460176 0.69400001 -0.068141542 1.0123099e-38 308 296
-0.01336566 0.69300002 -0.068043359 9.8468725e-39 309 296
-0.012150601 0.69300002 -0.068043359 9.7525356e-39 310 296
-0.01090398 0.69099998 -0.067846984 9.7525356e-39 311 296
-0.0096924258 0.69099998 -0.067846984 9.1107662e-39 312 296
-0.0084686 0.69 -0.0677488 9.5717429e-39 313 296
-0.0072587994 0.69 -0.0677488 1.0490088e-38 314 296
-0.0060314666 0.68800002 -0.067552425 1.0674479e-38 315 296
-0.0048251734 0.68800002 -0.067552425 1.0858148e-38 316 296
-0.0036188802 0.68800002 -0.067552425 1.1042539e-38 317 296
-0.0024125867 0.68800002 -0.067552425 1.0859596e-38 318 296
-0.0012062934 0.68800002 -0.067552425 1.1135823e-38 319 296
0 0.68800002 -0.067552425 1.1227303e-38 320 296
0.0012045399 0.68699998 -0.067454241 1.1042912e-38 321 296
0.0024090798 0.68699998 -0.067454241 1.1226573e-38 322 296
0.0036136196 0.68699998 -0.067454241 1.1226573e-38 323 296
0.0048181596 0.68699998 -0.067454241 1.122657e-38 324 296
0.0060314666 0.68800002 -0.067552425 1.122657e-38 325 296
0.0072377604 0.68800002 -0.067552425 1.1318403e-38 326 296
0.0084440531 0.68800002 -0.067552425 1.1226207e-38 327 296
0.0096503468 0.68800002 -0.067552425 1.1501352e-38 328 296
0.010856641 0.68800002 -0.067552425 1.1593548e-38 329 296
0.012062933 0.68800002 -0.067552425 1.1594621e-38 330 296
0.0133078 0.69 -0.0677488 1.1594621e-38 331 296
0.014517599 0.69 -0.0677488 1.1777933e-38 332 296
0.015727401 0.69 -0.0677488 1.1777933e-38 333 296
0.0169372 0.69 -0.0677488 1.1503502e-38 334 296
0.0181733 0.69099998 -0.067846984 1.1687533e-38 335 296
0.019384852 0.69099998 -0.067846984 1.150422e-38 336 296
0.020656019 0.69300002 -0.068043359 1.1596416e-38 337 296
0.021871079 0.69300002 -0.068043359 1.1596419e-38 338 296
0.02308614 0.69300002 -0.068043359 1.1688614e-38 339 296
0.024301201 0.69300002 -0.068043359 1.1688259e-38 340 296
0.025553079 0.69400001 -0.068141542 1.1872648e-38 341 296
0.026769891 0.69400001 -0.068141542 1.2149237e-38 342 296
0.028107686 0.69700003 -0.068436109 1.2333628e-38 343 296
0.029371841 0.69800001 -0.068534292 1.2794609e-38 344 296
0.030595668 0.69800001 -0.068534292 1.2979e-38 345 296
0.031910665 0.69999999 -0.068730667 1.2981171e-38 346 296
0.033280019 0.70300001 -0.069025226 1.3349593e-38 347 296
0.034512613 0.70300001 -0.069025226 1.3351758e-38 348 296
0.035796054 0.704 -0.06912341 1.4089682e-38 349 296
0.037030395 0.704 -0.06912341 1.4460286e-38 350 296
0.038264744 0.704 -0.06912341 1.6857012e-38 351 296
0.039499093 0.704 -0.06912341 1.6314664e-38 352 296
-0.028349647 0.70300001 -0.070257813 1.3638469e-38 297 297
-0.027117053 0.70300001 -0.070257813 1.2066802e-38 298 297
-0.025884461 0.70300001 -0.070257813 1.1513629e-38 299 297
-0.024581732 0.70099998 -0.070057929 1.1787665e-38 300 297
-0.023319334 0.69999999 -0.069957994 1.1326688e-38 301 297
-0.02202888 0.69800001 -0.069758117 1.1691498e-38 302 297
-0.020805053 0.69800001 -0.069758117 1.1323076e-38 303 297
-0.019581227 0.69800001 -0.069758117 1.1596785e-38 304 297
-0.018331099 0.69700003 -0.069658175 1.1320558e-38 305 297
-0.017109027 0.69700003 -0.069658175 1.113688e-38 306 297
-0.015864158 0.69599998 -0.069558233 1.0768097e-38 307 297
-0.01460176 0.69400001 -0.069358356 1.0675188e-38 308 297
-0.013384946 0.69400001 -0.069358356 1.0398241e-38 309 297
-0.012150601 0.69300002 -0.069258414 9.9372828e-39 310 297
-0.01090398 0.69099998 -0.069058537 9.8450872e-39 311 297
-0.0096924258 0.69099998 -0.069058537 9.5699451e-39 312 297
-0.0084686 0.69 -0.068958595 9.8465319e-39 313 297
-0.0072587994 0.69 -0.068958595 1.039969e-38 314 297
-0.0060314666 0.68800002 -0.068758719 1.0675917e-38 315 297
-0.0048251734 0.68800002 -0.068758719 1.122657e-38 316 297
-0.0036188802 0.68800002 -0.068758719 1.1319126e-38 317 297
-0.0024125867 0.68800002 -0.068758719 1.1135826e-38 318 297
-0.0012062934 0.68800002 -0.068758719 1.104363e-38 319 297
0 0.68800002 -0.068758719 1.1135104e-38 320 297
0.0012062934 0.68800002 -0.068758719 1.1042909e-38 321 297
0.0024125867 0.68800002 -0.068758719 1.1226573e-38 322 297
0.0036188802 0.68800002 -0.068758719 1.1226573e-38 323 297
0.0048251734 0.68800002 -0.068758719 1.1043614e-38 324 297
0.0060314666 0.68800002 -0.068758719 1.1043614e-38 325 297
0.0072377604 0.68800002 -0.068758719 1.1226923e-38 326 297
0.0084440531 0.68800002 -0.068758719 1.1042892e-38 327 297
0.0096503468 0.68800002 -0.068758719 1.1502065e-38 328 297
0.010856641 0.68800002 -0.068758719 1.1502065e-38 329 297
0.012062933 0.68800002 -0.068758719 1.1411303e-38 330 297
0.0133078 0.69 -0.068958595 1.1411303e-38 331 297
0.014517599 0.69 -0.068958595 1.1594615e-38 332 297
0.015727401 0.69 -0.068958595 1.168717e-38 333 297
0.016961746 0.69099998 -0.069058537 1.1504218e-38 334 297
0.0181733 0.69099998 -0.069058537 1.1504218e-38 335 297
0.01944096 0.69300002 -0.069258414 1.150422e-38 336 297
0.020656019 0.69300002 -0.069258414 1.1596416e-38 337 297
0.021871079 0.69300002 -0.069258414 1.1596785e-38 338 297
0.02308614 0.69300002 -0.069258414 1.1596785e-38 339 297
0.024301201 0.69300002 -0.069258414 1.1688627e-38 340 297
0.025553079 0.69400001 -0.069358356 1.1873378e-38 341 297
0.026847038 0.69599998 -0.069558233 1.2149956e-38 342 297
0.028107686 0.69700003 -0.069658175 1.2334347e-38 343 297
0.029371841 0.69800001 -0.069758117 1.2611297e-38 344 297
0.030595668 0.69800001 -0.069758117 1.3071916e-38 345 297
0.031956252 0.70099998 -0.070057929 1.307301e-38 346 297
0.033280019 0.70300001 -0.070257813 1.3533989e-38 347 297
0.034512613 0.70300001 -0.070257813 1.3444687e-38 348 297
0.035796054 0.704 -0.070357755 1.4458837e-38 349 297
0.037030395 0.704 -0.070357755 1.4464618e-38 350 297
-0.027117053 0.70300001 -0.071490414 1.317351e-38 298 298
-0.025884461 0.70300001 -0.071490414 1.2158998e-38 299 298
-0.024581732 0.70099998 -0.071287021 1.2340853e-38 300 298
-0.023319334 0.69999999 -0.071185328 1.1879875e-38 301 298
-0.022091998 0.69999999 -0.071185328 1.1877344e-38 302 298
-0.020864666 0.69999999 -0.071185328 1.1416006e-38 303 298
-0.019637333 0.69999999 -0.071185328 1.1506038e-38 304 298
-0.0183574 0.69800001 -0.07098195 1.1321286e-38 305 298
-0.017109027 0.69700003 -0.070880257 1.1413472e-38 306 298
-0.015864158 0.69599998 -0.070778556 1.1136527e-38 307 298
-0.01460176 0.69400001 -0.07057517 1.0859943e-38 308 298
-0.013384946 0.69400001 -0.07057517 1.049116e-38 309 298
-0.012150601 0.69300002 -0.070473477 1.00302e-38 310 298
-0.010935539 0.69300002 -0.070473477 9.7536146e-39 311 298
-0.0097204801 0.69300002 -0.070473477 9.7536146e-39 312 298
-0.0084686 0.69 -0.070168398 1.0122397e-38 313 298
-0.0072587994 0.69 -0.070168398 1.0583003e-38 314 298
-0.0060489997 0.69 -0.070168398 1.0767753e-38 315 298
-0.0048251734 0.68800002 -0.06996502 1.1135457e-38 316 298
-0.0036188802 0.68800002 -0.06996502 1.1227653e-38 317 298
-0.0024125867 0.68800002 -0.06996502 1.1135823e-38 318 298
-0.0012062934 0.68800002 -0.06996502 1.1043628e-38 319 298
0 0.68800002 -0.06996502 1.1135104e-38 320 298
0.0012062934 0.68800002 -0.06996502 1.1042909e-38 321 298
0.0024125867 0.68800002 -0.06996502 1.104326e-38 322 298
0.0036188802 0.68800002 -0.06996502 1.0951065e-38 323 298
0.0048251734 0.68800002 -0.06996502 1.122657e-38 324 298
0.0060314666 0.68800002 -0.06996502 1.122657e-38 325 298
0.0072377604 0.68800002 -0.06996502 1.1135808e-38 326 298
0.0084440531 0.68800002 -0.06996502 1.1043611e-38 327 298
0.0096503468 0.68800002 -0.06996502 1.1318756e-38 328 298
0.010856641 0.68800002 -0.06996502 1.1410953e-38 329 298
0.012062933 0.68800002 -0.06996502 1.141095e-38 330 298
0.0133078 0.69 -0.070168398 1.141095e-38 331 298
0.014517599 0.69 -0.070168398 1.1319473e-38 332 298
0.015727401 0.69 -0.070168398 1.1504223e-38 333 298
0.016961746 0.69099998 -0.070270091 1.1503867e-38 334 298
0.0181733 0.69099998 -0.070270091 1.1596063e-38 335 298
0.01944096 0.69300002 -0.070473477 1.1504589e-38 336 298
0.020656019 0.69300002 -0.070473477 1.1596785e-38 337 298
0.021871079 0.69300002 -0.070473477 1.1688627e-38 338 298
0.023119451 0.69400001 -0.07057517 1.1688627e-38 339 298
0.024336265 0.69400001 -0.07057517 1.168935e-38 340 298
0.025553079 0.69400001 -0.07057517 1.1873741e-38 341 298
0.026847038 0.69599998 -0.070778556 1.2149956e-38 342 298
0.028107686 0.69700003 -0.070880257 1.2334347e-38 343 298
0.029371841 0.69800001 -0.07098195 1.2611297e-38 344 298
0.030683333 0.69999999 -0.071185328 1.3071916e-38 345 298
0.031956252 0.70099998 -0.071287021 1.3256681e-38 346 298
0.033280019 0.70300001 -0.071490414 1.3809496e-38 347 298
0.034561705 0.704 -0.071592107 1.3628365e-38 348 298
0.035796054 0.704 -0.071592107 1.4919103e-38 349 298
0.037030395 0.704 -0.071592107 1.4466785e-38 350 298
-0.025884461 0.70300001 -0.072723009 1.252886e-38 299 299
-0.024581732 0.70099998 -0.072516106 1.2985131e-38 300 299
-0.023319334 0.69999999 -0.072412662 1.2524151e-38 301 299
-0.022091998 0.69999999 -0.072412662 1.2796404e-38 302 299
-0.020864666 0.69999999 -0.072412662 1.2335067e-38 303 299
-0.019637333 0.69999999 -0.072412662 1.2241785e-38 304 299
-0.0183574 0.69800001 -0.072205767 1.214959e-38 305 299
-0.017133573 0.69800001 -0.072205767 1.1781879e-38 306 299
-0.015886955 0.69700003 -0.072102323 1.1597488e-38 307 299
-0.014643839 0.69599998 -0.071998879 1.1319824e-38 308 299
-0.013384946 0.69400001 -0.071791984 1.1043595e-38 309 299
-0.012150601 0.69300002 -0.07168854 1.1041091e-38 310 299
-0.010935539 0.69300002 -0.07168854 1.0948896e-38 311 299
-0.0097204801 0.69300002 -0.07168854 1.0490085e-38 312 299
-0.0084686 0.69 -0.071378194 1.058264e-38 313 299
-0.0072587994 0.69 -0.071378194 1.0858866e-38 314 299
-0.0060489997 0.69 -0.071378194 1.0951062e-38 315 299
-0.0048251734 0.68800002 -0.071171306 1.1318773e-38 316 299
-0.0036188802 0.68800002 -0.071171306 1.1318773e-38 317 299
-0.0024125867 0.68800002 -0.071171306 1.1410615e-38 318 299
-0.0012062934 0.68800002 -0.071171306 1.1318419e-38 319 299
0 0.68800002 -0.071171306 1.1410965e-38 320 299
0.0012062934 0.68800002 -0.071171306 1.131877e-38 321 299
0.0024125867 0.68800002 -0.071171306 1.13184e-38 322 299
0.0036188802 0.68800002 -0.071171306 1.13184e-38 323 299
0.0048251734 0.68800002 -0.071171306 1.1226923e-38 324 299
0.0060314666 0.68800002 -0.071171306 1.131912e-38 325 299
0.0072587994 0.69 -0.071378194 1.1410953e-38 326 299
0.0084440531 0.68800002 -0.071171306 1.1410953e-38 327 299
0.0096503468 0.68800002 -0.071171306 1.1319476e-38 328 299
0.010856641 0.68800002 -0.071171306 1.1319476e-38 329 299
0.012097999 0.69 -0.071378194 1.1135811e-38 330 299
0.013327086 0.69099998 -0.071481638 1.1135811e-38 331 299
0.014538639 0.69099998 -0.071481638 1.1045413e-38 332 299
0.015750192 0.69099998 -0.071481638 1.1045413e-38 333 299
0.016961746 0.69099998 -0.071481638 1.1596782e-38 334 299
0.018225901 0.69300002 -0.07168854 1.1596782e-38 335 299
0.01944096 0.69300002 -0.07168854 1.1688977e-38 336 299
0.020656019 0.69300002 -0.07168854 1.1781533e-38 337 299
0.021902639 0.69400001 -0.071791984 1.178118e-38 338 299
0.023119451 0.69400001 -0.071791984 1.178118e-38 339 299
0.024336265 0.69400001 -0.071791984 1.1965574e-38 340 299
0.025626717 0.69599998 -0.071998879 1.2149605e-38 341 299
0.026885614 0.69700003 -0.072102323 1.2058842e-38 342 299
0.028148014 0.69800001 -0.072205767 1.233507e-38 343 299
0.029455997 0.69999999 -0.072412662 1.2611662e-38 344 299
0.030727165 0.70099998 -0.072516106 1.2888251e-38 345 299
0.032047424 0.70300001 -0.072723009 1.3165931e-38 346 299
0.03332736 0.704 -0.072826453 1.362655e-38 347 299
0.034561705 0.704 -0.072826453 1.3355023e-38 348 299
0.035796054 0.704 -0.072826453 1.4369535e-38 349 299
0.037135597 0.70599997 -0.07303334 1.3823582e-38 350 299
-0.024651866 0.70300001 -0.073955595 1.3814184e-38 300 300
-0.023352645 0.70099998 -0.073745191 1.3168814e-38 301 300
-0.022123558 0.70099998 -0.073745191 1.2615625e-38 302 300
-0.020894472 0.70099998 -0.073745191 1.2154648e-38 303 300
-0.019637333 0.69999999 -0.073639996 1.2153205e-38 304 300
-0.018409999 0.69999999 -0.073639996 1.1784062e-38 305 300
-0.017133573 0.69800001 -0.073429599 1.1783697e-38 306 300
-0.015909746 0.69800001 -0.073429599 1.132272e-38 307 300
-0.01466488 0.69700003 -0.073324397 1.1413119e-38 308 300
-0.013423519 0.69599998 -0.073219195 1.1228728e-38 309 300
-0.012168133 0.69400001 -0.073008798 1.1043981e-38 310 300
-0.01095132 0.69400001 -0.073008798 1.0859948e-38 311 300
-0.0097345067 0.69400001 -0.073008798 1.0859945e-38 312 300
-0.0085054198 0.69300002 -0.072903603 1.0859945e-38 313 300
-0.0072693196 0.69099998 -0.072693199 1.122657e-38 314 300
-0.0060489997 0.69 -0.072587997 1.1319126e-38 315 300
-0.0048391996 0.69 -0.072587997 1.1410247e-38 316 300
-0.0036293997 0.69 -0.072587997 1.1502801e-38 317 300
-0.0024195998 0.69 -0.072587997 1.1318773e-38 318 300
-0.0012097999 0.69 -0.072587997 1.1410968e-38 319 300
0 0.69 -0.072587997 1.1320205e-38 320 300
0.0012097999 0.69 -0.072587997 1.1228009e-38 321 300
0.0024195998 0.69 -0.072587997 1.1411319e-38 322 300
0.0036293997 0.69 -0.072587997 1.1319123e-38 323 300
0.0048391996 0.69 -0.072587997 1.1411674e-38 324 300
0.0060489997 0.69 -0.072587997 1.1411674e-38 325 300
0.0072587994 0.69 -0.072587997 1.150387e-38 326 300
0.0084440531 0.68800002 -0.0723776 1.150387e-38 327 300
0.0096503468 0.68800002 -0.0723776 1.1136529e-38 328 300
0.010888199 0.69 -0.072587997 1.1044334e-38 329 300
0.012097999 0.69 -0.072587997 1.0951065e-38 330 300
0.013327086 0.69099998 -0.072693199 1.104326e-38 331 300
0.014538639 0.69099998 -0.072693199 1.113546e-38 332 300
0.015750192 0.69099998 -0.072693199 1.1596078e-38 333 300
0.01701084 0.69300002 -0.072903603 1.1596429e-38 334 300
0.018225901 0.69300002 -0.072903603 1.178118e-38 335 300
0.019469013 0.69400001 -0.073008798 1.1691135e-38 336 300
0.020685827 0.69400001 -0.073008798 1.1691135e-38 337 300
0.021902639 0.69400001 -0.073008798 1.1691133e-38 338 300
0.023119451 0.69400001 -0.073008798 1.1783328e-38 339 300
0.024336265 0.69400001 -0.073008798 1.2058839e-38 340 300
0.025626717 0.69599998 -0.073219195 1.2058839e-38 341 300
0.026885614 0.69700003 -0.073324397 1.233507e-38 342 300
0.028148014 0.69800001 -0.073429599 1.2519461e-38 343 300
0.029455997 0.69999999 -0.073639996 1.2703858e-38 344 300
0.030727165 0.70099998 -0.073745191 1.3164836e-38 345 300
0.032047424 0.70300001 -0.073955595 1.3073732e-38 346 300
0.03332736 0.704 -0.07406079 1.3626906e-38 347 300
0.034561705 0.704 -0.07406079 1.2711456e-38 348 300
0.035796054 0.704 -0.07406079 1.3449021e-38 349 300
-0.024651866 0.70300001 -0.07518819 1.4368451e-38 300 301
-0.023419274 0.70300001 -0.07518819 1.3170266e-38 301 301
-0.02218668 0.70300001 -0.07518819 1.3627609e-38 302 301
-0.020954086 0.70300001 -0.07518819 1.298224e-38 303 301
-0.019665385 0.70099998 -0.074974284 1.2705278e-38 304 301
-0.018409999 0.69999999 -0.07486733 1.2336855e-38 305 301
-0.017133573 0.69800001 -0.074653424 1.2335053e-38 306 301
-0.015909746 0.69800001 -0.074653424 1.1966272e-38 307 301
-0.01466488 0.69700003 -0.074546471 1.1781528e-38 308 301
-0.013442807 0.69700003 -0.074546471 1.1689331e-38 309 301
-0.0122032 0.69599998 -0.074439511 1.1596419e-38 310 301
-0.01095132 0.69400001 -0.074225612 1.1596419e-38 311 301
-0.0097345067 0.69400001 -0.074225612 1.168718e-38 312 301
-0.0085054198 0.69300002 -0.074118659 1.168718e-38 313 301
-0.0072693196 0.69099998 -0.073904753 1.1686466e-38 314 301
-0.0060577663 0.69099998 -0.073904753 1.1778662e-38 315 301
-0.0048391996 0.69 -0.0737978 1.1503514e-38 316 301
-0.0036293997 0.69 -0.0737978 1.1411319e-38 317 301
-0.0024195998 0.69 -0.0737978 1.1503514e-38 318 301
-0.0012097999 0.69 -0.0737978 1.1503514e-38 319 301
0 0.69099998 -0.073904753 1.1687182e-38 320 301
0.0012097999 0.69 -0.0737978 1.1687182e-38 321 301
0.0024195998 0.69 -0.0737978 1.1779728e-38 322 301
0.0036293997 0.69 -0.0737978 1.1779728e-38 323 301
0.0048391996 0.69 -0.0737978 1.1596416e-38 324 301
0.0060577663 0.69099998 -0.073904753 1.150422e-38 325 301
0.0072587994 0.69 -0.0737978 1.1503504e-38 326 301
0.0084686 0.69 -0.0737978 1.1687535e-38 327 301
0.0096783992 0.69 -0.0737978 1.1135811e-38 328 301
0.010888199 0.69 -0.0737978 1.0951059e-38 329 301
0.012115533 0.69099998 -0.073904753 1.0767044e-38 330 301
0.01336566 0.69300002 -0.074118659 1.0767044e-38 331 301
0.014580719 0.69300002 -0.074118659 1.0859962e-38 332 301
0.015795778 0.69300002 -0.074118659 1.1136908e-38 333 301
0.01701084 0.69300002 -0.074118659 1.1322367e-38 334 301
0.018225901 0.69300002 -0.074118659 1.1414921e-38 335 301
0.019469013 0.69400001 -0.074225612 1.1874445e-38 336 301
0.020685827 0.69400001 -0.074225612 1.196664e-38 337 301
0.021902639 0.69400001 -0.074225612 1.2241785e-38 338 301
0.023119451 0.69400001 -0.074225612 1.2333981e-38 339 301
0.0244064 0.69599998 -0.074439511 1.2333981e-38 340 301
0.025626717 0.69599998 -0.074439511 1.2610568e-38 341 301
0.026885614 0.69700003 -0.074546471 1.2519098e-38 342 301
0.028148014 0.69800001 -0.074653424 1.2795325e-38 343 301
0.029455997 0.69999999 -0.07486733 1.2796777e-38 344 301
0.030727165 0.70099998 -0.074974284 1.2981168e-38 345 301
0.032093015 0.704 -0.075295143 1.2707124e-38 346 301
0.03332736 0.704 -0.075295143 1.279932e-38 347 301
0.034561705 0.704 -0.075295143 1.1607642e-38 348 301
-0.023419274 0.70300001 -0.076420791 1.3081327e-38 301 302
-0.02218668 0.70300001 -0.076420791 1.344504e-38 302 302
-0.020983893 0.704 -0.076529488 1.2983701e-38 303 302
-0.019721493 0.70300001 -0.076420791 1.2707448e-38 304 302
-0.018436298 0.70099998 -0.076203369 1.224647e-38 305 302
-0.017182667 0.69999999 -0.076094657 1.2337221e-38 306 302
-0.015955333 0.69999999 -0.076094657 1.1876243e-38 307 302
-0.01468592 0.69800001 -0.075877249 1.1966646e-38 308 302
-0.013462093 0.69800001 -0.075877249 1.16897e-38 309 302
-0.0122032 0.69599998 -0.075659841 1.1780824e-38 310 302
-0.01095132 0.69400001 -0.075442426 1.1780824e-38 311 302
-0.0097345067 0.69400001 -0.075442426 1.1872295e-38 312 302
-0.0085176928 0.69400001 -0.075442426 1.1872295e-38 313 302
-0.0072903596 0.69300002 -0.075333714 1.1688261e-38 314 302
-0.0060753003 0.69300002 -0.075333714 1.1688261e-38 315 302
-0.0048391996 0.69 -0.075007595 1.1596063e-38 316 302
-0.0036293997 0.69 -0.075007595 1.1596063e-38 317 302
-0.0024195998 0.69 -0.075007595 1.1504586e-38 318 302
-0.0012097999 0.69 -0.075007595 1.1504586e-38 319 302
0 0.69099998 -0.075116299 1.1779731e-38 320 302
0.0012115532 0.69099998 -0.075116299 1.1779731e-38 321 302
0.0024231065 0.69099998 -0.075116299 1.1688968e-38 322 302
0.0036346598 0.69099998 -0.075116299 1.1872999e-38 323 302
0.0048462129 0.69099998 -0.075116299 1.1688612e-38 324 302
0.0060577663 0.69099998 -0.075116299 1.1596416e-38 325 302
0.0072693196 0.69099998 -0.075116299 1.1779375e-38 326 302
0.008480873 0.69099998 -0.075116299 1.1779375e-38 327 302
0.0096924258 0.69099998 -0.075116299 1.1411321e-38 328 302
0.010935539 0.69300002 -0.075333714 1.122657e-38 329 302
0.012150601 0.69300002 -0.075333714 1.0675204e-38 330 302
0.01336566 0.69300002 -0.075333714 1.0767399e-38 331 302
0.014580719 0.69300002 -0.075333714 1.104363e-38 332 302
0.015818574 0.69400001 -0.075442426 1.1412413e-38 333 302
0.017035386 0.69400001 -0.075442426 1.132237e-38 334 302
0.0182522 0.69400001 -0.075442426 1.1691151e-38 335 302
0.019469013 0.69400001 -0.075442426 1.1966646e-38 336 302
0.020745439 0.69599998 -0.075659841 1.2151037e-38 337 302
0.021965759 0.69599998 -0.075659841 1.23347e-38 338 302
0.023186078 0.69599998 -0.075659841 1.2426897e-38 339 302
0.0244064 0.69599998 -0.075659841 1.2610564e-38 340 302
0.025663542 0.69700003 -0.075768545 1.2702761e-38 341 302
0.026885614 0.69700003 -0.075768545 1.2795328e-38 342 302
0.028148014 0.69800001 -0.075877249 1.2887523e-38 343 302
0.029455997 0.69999999 -0.076094657 1.2613108e-38 344 302
0.030727165 0.70099998 -0.076203369 1.2705304e-38 345 302
0.032093015 0.704 -0.076529488 1.2246865e-38 346 302
0.03332736 0.704 -0.076529488 1.2339061e-38 347 302
-0.023452586 0.704 -0.077763841 1.2625038e-38 301 303
-0.022218239 0.704 -0.077763841 1.3447203e-38 302 303
-0.021043506 0.70599997 -0.07798475 1.2801834e-38 303 303
-0.019749546 0.704 -0.077763841 1.3075508e-38 304 303
-0.018488899 0.70300001 -0.077653378 1.2706726e-38 305 303
-0.017207211 0.70099998 -0.077432454 1.2521965e-38 306 303
-0.015978126 0.70099998 -0.077432454 1.2060988e-38 307 303
-0.014727999 0.69999999 -0.077321991 1.2058839e-38 308 303
-0.013500666 0.69999999 -0.077321991 1.1782252e-38 309 303
-0.012220734 0.69700003 -0.076990619 1.1964495e-38 310 303
-0.01099866 0.69700003 -0.076990619 1.1964495e-38 311 303
-0.0097345067 0.69400001 -0.07665924 1.1964492e-38 312 303
-0.0085176928 0.69400001 -0.07665924 1.1964492e-38 313 303
-0.0073008798 0.69400001 -0.07665924 1.1872292e-38 314 303
-0.0060753003 0.69300002 -0.076548778 1.1872292e-38 315 303
-0.00486024 0.69300002 -0.076548778 1.1872648e-38 316 303
-0.0036451798 0.69300002 -0.076548778 1.1688259e-38 317 303
-0.00243012 0.69300002 -0.076548778 1.1596782e-38 318 303
-0.00121506 0.69300002 -0.076548778 1.1504586e-38 319 303
0 0.69099998 -0.076327853 1.1779731e-38 320 303
0.0012115532 0.69099998 -0.076327853 1.1871927e-38 321 303
0.00243012 0.69300002 -0.076548778 1.1964478e-38 322 303
0.0036451798 0.69300002 -0.076548778 1.2056675e-38 323 303
0.00486024 0.69300002 -0.076548778 1.1964478e-38 324 303
0.0060840664 0.69400001 -0.07665924 1.1964478e-38 325 303
0.0072903596 0.69300002 -0.076548778 1.2055239e-38 326 303
0.0085054198 0.69300002 -0.076548778 1.2055239e-38 327 303
0.0097204801 0.69300002 -0.076548778 1.1503148e-38 328 303
0.010935539 0.69300002 -0.076548778 1.1503148e-38 329 303
0.012168133 0.69400001 -0.07665924 1.0768471e-38 330 303
0.013384946 0.69400001 -0.07665924 1.0768471e-38 331 303
0.01460176 0.69400001 -0.07665924 1.0860678e-38 332 303
0.015818574 0.69400001 -0.07665924 1.1137624e-38 333 303
0.017084479 0.69599998 -0.076880157 1.1323091e-38 334 303
0.018304799 0.69599998 -0.076880157 1.1507483e-38 335 303
0.019553173 0.69700003 -0.076990619 1.2058842e-38 336 303
0.020775247 0.69700003 -0.076990619 1.233507e-38 337 303
0.02199732 0.69700003 -0.076990619 1.2426897e-38 338 303
0.023219392 0.69700003 -0.076990619 1.2519451e-38 339 303
0.024441468 0.69700003 -0.076990619 1.2702408e-38 340 303
0.025663542 0.69700003 -0.076990619 1.2794603e-38 341 303
0.026885614 0.69700003 -0.076990619 1.2519464e-38 342 303
0.028148014 0.69800001 -0.077101074 1.2703855e-38 343 303
0.029455997 0.69999999 -0.077321991 1.2428366e-38 344 303
0.030814834 0.70300001 -0.077653378 1.2520561e-38 345 303
-0.023519212 0.70599997 -0.079222605 1.2626838e-38 301 304
-0.022281358 0.70599997 -0.079222605 1.3449737e-38 302 304
-0.021043506 0.70599997 -0.079222605 1.2712172e-38 303 304
-0.019805651 0.70599997 -0.079222605 1.2984405e-38 304 304
-0.018488899 0.70300001 -0.078885972 1.2615981e-38 305 304
-0.017207211 0.70099998 -0.078661539 1.2706361e-38 306 304
-0.015978126 0.70099998 -0.078661539 1.2337218e-38 307 304
-0.014727999 0.69999999 -0.078549333 1.2518015e-38 308 304
-0.013500666 0.69999999 -0.078549333 1.2241788e-38 309 304
-0.012238266 0.69800001 -0.078324907 1.2057044e-38 310 304
-0.01099866 0.69700003 -0.078212693 1.2057044e-38 311 304
-0.0097765867 0.69700003 -0.078212693 1.1873373e-38 312 304
-0.0085422397 0.69599998 -0.078100473 1.1965927e-38 313 304
-0.0073008798 0.69400001 -0.077876054 1.2057038e-38 314 304
-0.0060840664 0.69400001 -0.077876054 1.2057038e-38 315 304
-0.0048672534 0.69400001 -0.077876054 1.2057394e-38 316 304
-0.0036504399 0.69400001 -0.077876054 1.1965199e-38 317 304
-0.0024336267 0.69400001 -0.077876054 1.1872643e-38 318 304
-0.0012168133 0.69400001 -0.077876054 1.1872643e-38 319 304
0 0.69300002 -0.077763841 1.2147791e-38 320 304
0.00121506 0.69300002 -0.077763841 1.2147791e-38 321 304
0.00243012 0.69300002 -0.077763841 1.2056675e-38 322 304
0.0036451798 0.69300002 -0.077763841 1.2148871e-38 323 304
0.00486024 0.69300002 -0.077763841 1.2239988e-38 324 304
0.0060840664 0.69400001 -0.077876054 1.2239988e-38 325 304
0.0073008798 0.69400001 -0.077876054 1.2056672e-38 326 304
0.0085176928 0.69400001 -0.077876054 1.187228e-38 327 304
0.0097345067 0.69400001 -0.077876054 1.1779728e-38 328 304
0.01095132 0.69400001 -0.077876054 1.1687533e-38 329 304
0.012168133 0.69400001 -0.077876054 1.1228003e-38 330 304
0.013384946 0.69400001 -0.077876054 1.1320558e-38 331 304
0.01460176 0.69400001 -0.077876054 1.1321289e-38 332 304
0.015864158 0.69599998 -0.078100473 1.1505682e-38 333 304
0.017109027 0.69700003 -0.078212693 1.1965937e-38 334 304
0.018331099 0.69700003 -0.078212693 1.2058133e-38 335 304
0.019581227 0.69800001 -0.078324907 1.2151037e-38 336 304
0.020805053 0.69800001 -0.078324907 1.233507e-38 337 304
0.02202888 0.69800001 -0.078324907 1.2518742e-38 338 304
0.023252707 0.69800001 -0.078324907 1.2518742e-38 339 304
0.024476532 0.69800001 -0.078324907 1.2518745e-38 340 304
0.025700359 0.69800001 -0.078324907 1.2518745e-38 341 304
0.026924185 0.69800001 -0.078324907 1.224325e-38 342 304
0.028148014 0.69800001 -0.078324907 1.2335445e-38 343 304
0.029455997 0.69999999 -0.078549333 1.1784808e-38 344 304
-0.022312919 0.70700002 -0.080574431 1.308493e-38 302 305
-0.021043506 0.70599997 -0.080460466 1.243956e-38 303 305
-0.019805651 0.70599997 -0.080460466 1.2802557e-38 304 305
-0.018488899 0.70300001 -0.080118567 1.2249383e-38 305 305
-0.017207211 0.70099998 -0.079890631 1.2524148e-38 306 305
-0.015978126 0.70099998 -0.079890631 1.1970975e-38 307 305
-0.014727999 0.69999999 -0.079776667 1.2519467e-38 308 305
-0.013500666 0.69999999 -0.079776667 1.2150684e-38 309 305
-0.012238266 0.69800001 -0.079548739 1.1966293e-38 310 305
-0.01099866 0.69700003 -0.079434767 1.1966293e-38 311 305
-0.0097765867 0.69700003 -0.079434767 1.1967009e-38 312 305
-0.0085545136 0.69700003 -0.079434767 1.1782978e-38 313 305
-0.0073008798 0.69400001 -0.079092868 1.2241788e-38 314 305
-0.0060840664 0.69400001 -0.079092868 1.2241788e-38 315 305
-0.0048672534 0.69400001 -0.079092868 1.2241785e-38 316 305
-0.0036504399 0.69400001 -0.079092868 1.2057394e-38 317 305
-0.0024336267 0.69400001 -0.079092868 1.1965199e-38 318 305
-0.0012168133 0.69400001 -0.079092868 1.1965199e-38 319 305
0 0.69300002 -0.078978904 1.1873726e-38 320 305
0.00121506 0.69300002 -0.078978904 1.178153e-38 321 305
0.00243012 0.69300002 -0.078978904 1.2148518e-38 322 305
0.0036451798 0.69300002 -0.078978904 1.2148518e-38 323 305
0.00486024 0.69300002 -0.078978904 1.2148874e-38 324 305
0.0060840664 0.69400001 -0.079092868 1.2148874e-38 325 305
0.0073008798 0.69400001 -0.079092868 1.2057394e-38 326 305
0.0085176928 0.69400001 -0.079092868 1.1872643e-38 327 305
0.0097345067 0.69400001 -0.079092868 1.1872643e-38 328 305
0.01095132 0.69400001 -0.079092868 1.1688612e-38 329 305
0.0122032 0.69599998 -0.079320796 1.1596782e-38 330 305
0.013423519 0.69599998 -0.079320796 1.1688977e-38 331 305
0.014643839 0.69599998 -0.079320796 1.1506035e-38 332 305
0.015886955 0.69700003 -0.079434767 1.1690426e-38 333 305
0.017133573 0.69800001 -0.079548739 1.2149605e-38 334 305
0.0183574 0.69800001 -0.079548739 1.2241801e-38 335 305
0.019581227 0.69800001 -0.079548739 1.2334352e-38 336 305
0.020805053 0.69800001 -0.079548739 1.2426549e-38 337 305
0.02202888 0.69800001 -0.079548739 1.2426549e-38 338 305
0.023252707 0.69800001 -0.079548739 1.2426549e-38 339 305
0.024476532 0.69800001 -0.079548739 1.2150687e-38 340 305
0.025700359 0.69800001 -0.079548739 1.2150687e-38 341 305
0.026924185 0.69800001 -0.079548739 1.1783716e-38 342 305
0.028148014 0.69800001 -0.079548739 1.1783716e-38 343 305
0.029371841 0.69800001 -0.079548739 1.1141606e-38 344 305
-0.021043506 0.70599997 -0.081698313 1.2901255e-38 303 306
-0.019805651 0.70599997 -0.081698313 1.262213e-38 304 306
-0.017207211 0.70099998 -0.081119716 1.26167e-38 306 306
-0.015978126 0.70099998 -0.081119716 1.2247919e-38 307 306
-0.014727999 0.69999999 -0.081004001 1.2704206e-38 308 306
-0.013500666 0.69999999 -0.081004001 1.2427619e-38 309 306
-0.012238266 0.69800001 -0.080772556 1.233435e-38 310 306
-0.01099866 0.69700003 -0.080656841 1.233435e-38 311 306
-0.0097765867 0.69700003 -0.080656841 1.2334347e-38 312 306
-0.0085545136 0.69700003 -0.080656841 1.2426903e-38 313 306
-0.0073219193 0.69599998 -0.080541112 1.23347e-38 314 306
-0.0060840664 0.69400001 -0.080309682 1.23347e-38 315 306
-0.0048672534 0.69400001 -0.080309682 1.2517646e-38 316 306
-0.0036504399 0.69400001 -0.080309682 1.2425451e-38 317 306
-0.0024336267 0.69400001 -0.080309682 1.2425451e-38 318 306
-0.0012168133 0.69400001 -0.080309682 1.2425451e-38 319 306
0 0.69300002 -0.080193959 1.2333255e-38 320 306
0.00121506 0.69300002 -0.080193959 1.2333255e-38 321 306
0.00243012 0.69300002 -0.080193959 1.2424379e-38 322 306
0.0036451798 0.69300002 -0.080193959 1.2424379e-38 323 306
0.0048672534 0.69400001 -0.080309682 1.2332905e-38 324 306
0.0060840664 0.69400001 -0.080309682 1.2148874e-38 325 306
0.0073219193 0.69599998 -0.080541112 1.2332183e-38 326 306
0.0085422397 0.69599998 -0.080541112 1.2239988e-38 327 306
0.0097625591 0.69599998 -0.080541112 1.2056675e-38 328 306
0.010982879 0.69599998 -0.080541112 1.1964478e-38 329 306
0.0122032 0.69599998 -0.080541112 1.178153e-38 330 306
0.013442807 0.69700003 -0.080656841 1.1873726e-38 331 306
0.01466488 0.69700003 -0.080656841 1.1965924e-38 332 306
0.015909746 0.69800001 -0.080772556 1.2149956e-38 333 306
