# .PCD v.7 - Point Cloud Data file format
FIELDS x y z rgb imX imY
SIZE 4 4 4 4 4 4
TYPE F F F F F F
COUNT 1 1 1 1 1 1
WIDTH 835
HEIGHT 1
VIEWPOINT 0 0 0 1 0 0 0
POINTS 835
DATA ascii
0.048071139 0.70300001 -0.036977798 1.352784e-38 359 270
0.049303733 0.70300001 -0.036977798 1.3618602e-38 360 270
0.050608214 0.704 -0.037030395 1.3526406e-38 361 270
0.051842559 0.704 -0.037030395 1.2700611e-38 362 270
0.053227689 0.70599997 -0.037135597 1.251658e-38 363 270
0.054619838 0.708 -0.0372408 1.2332555e-38 364 270
0.055861197 0.708 -0.0372408 1.242475e-38 365 270
0.057263866 0.70999998 -0.037345998 1.196629e-38 366 270
0.058591139 0.71100003 -0.037398599 9.9379863e-39 367 270
0.059837762 0.71100003 -0.037398599 9.4892933e-39 368 270
-0.010043093 0.71600002 -0.038916986 1.9177411e-38 312 271
-0.0087877065 0.71600002 -0.038916986 1.4844575e-38 313 271
-0.0075112795 0.71399999 -0.038808275 1.6210885e-38 314 271
-0.0062593995 0.71399999 -0.038808275 1.4920146e-38 315 271
-0.0050005065 0.713 -0.038753927 1.7400733e-38 316 271
-0.0037398601 0.71100003 -0.038645219 1.7216702e-38 317 271
-0.0024932399 0.71100003 -0.038645219 1.7399658e-38 318 271
-0.0012448666 0.70999998 -0.038590867 1.7399658e-38 319 271
0 0.708 -0.038482159 1.7491859e-38 320 271
0.0012396066 0.70700002 -0.038427804 1.7952838e-38 321 271
0.0024757064 0.70599997 -0.038373452 1.7771336e-38 322 271
0.0037135598 0.70599997 -0.038373452 1.8508902e-38 323 271
0.0049373866 0.704 -0.038264744 1.8326672e-38 324 271
0.0061454331 0.70099998 -0.038101684 1.8050445e-38 325 271
0.0073639993 0.69999999 -0.038047329 1.8141192e-38 326 271
0.0085913334 0.69999999 -0.038047329 1.7864605e-38 327 271
0.0098186666 0.69999999 -0.038047329 1.7679844e-38 328 271
0.011045999 0.69999999 -0.038047329 1.7495094e-38 329 271
0.012238266 0.69800001 -0.037938625 1.7402531e-38 330 271
0.013442807 0.69700003 -0.037884273 1.7310335e-38 331 271
0.01466488 0.69700003 -0.037884273 1.7309982e-38 332 271
0.015886955 0.69700003 -0.037884273 1.7309982e-38 333 271
0.017109027 0.69700003 -0.037884273 1.7125964e-38 334 271
0.018331099 0.69700003 -0.037884273 1.6941572e-38 335 271
0.019525118 0.69599998 -0.037829921 1.7216014e-38 336 271
0.020745439 0.69599998 -0.037829921 1.7123818e-38 337 271
0.021965759 0.69599998 -0.037829921 1.6940163e-38 338 271
0.023186078 0.69599998 -0.037829921 1.7032717e-38 339 271
0.0244064 0.69599998 -0.037829921 1.6757219e-38 340 271
0.025626717 0.69599998 -0.037829921 1.6757219e-38 341 271
0.026847038 0.69599998 -0.037829921 1.6755055e-38 342 271
0.028067358 0.69599998 -0.037829921 1.6386273e-38 343 271
0.029287677 0.69599998 -0.037829921 1.62026e-38 344 271
0.030507999 0.69599998 -0.037829921 1.5741622e-38 345 271
0.031728316 0.69599998 -0.037829921 1.5281001e-38 346 271
0.032853961 0.69400001 -0.037721213 1.4911859e-38 347 271
0.034070771 0.69400001 -0.037721213 1.4543436e-38 348 271
0.035287585 0.69400001 -0.037721213 1.4635632e-38 349 271
0.036504399 0.69400001 -0.037721213 1.4819666e-38 350 271
0.037829921 0.69599998 -0.037829921 1.4358688e-38 351 271
0.039050236 0.69599998 -0.037829921 1.4262899e-38 352 271
0.040270556 0.69599998 -0.037829921 1.3986312e-38 353 271
0.041610107 0.69800001 -0.037938625 1.3710451e-38 354 271
0.042833932 0.69800001 -0.037938625 1.3802647e-38 355 271
0.04405776 0.69800001 -0.037938625 1.3620407e-38 356 271
0.04541133 0.69999999 -0.038047329 1.3620407e-38 357 271
0.046638668 0.69999999 -0.038047329 1.3528205e-38 358 271
0.048071139 0.70300001 -0.038210396 1.3528205e-38 359 271
0.049303733 0.70300001 -0.038210396 1.343601e-38 360 271
0.050608214 0.704 -0.038264744 1.3343813e-38 361 271
0.051842559 0.704 -0.038264744 1.3067952e-38 362 271
0.053227689 0.70599997 -0.038373452 1.2883202e-38 363 271
0.054542694 0.70700002 -0.038427804 1.2332552e-38 364 271
0.055782299 0.70700002 -0.038427804 1.2332552e-38 365 271
0.057021905 0.70700002 -0.038427804 1.1782978e-38 366 271
0.058343921 0.708 -0.038482159 1.0860663e-38 367 271
0.06025856 0.71600002 -0.038916986 1.0678483e-38 368 271
0.061513945 0.71600002 -0.038916986 1.4642895e-38 369 271
0.062769331 0.71600002 -0.038916986 1.5859832e-38 370 271
-0.010043093 0.71600002 -0.040172372 1.8716415e-38 312 272
-0.0087877065 0.71600002 -0.040172372 1.3276874e-38 313 272
-0.0075112795 0.71399999 -0.040060159 1.6206553e-38 314 272
-0.0062506334 0.713 -0.040004052 1.6021803e-38 315 272
-0.0049864799 0.71100003 -0.039891839 1.7307813e-38 316 272
-0.0037345996 0.70999998 -0.039835732 1.7307813e-38 317 272
-0.0024897333 0.70999998 -0.039835732 1.7307816e-38 318 272
-0.0012396066 0.70700002 -0.039667413 1.7307816e-38 319 272
0 0.70599997 -0.039611302 1.7307818e-38 320 272
0.0012378532 0.70599997 -0.039611302 1.7768437e-38 321 272
0.0024686933 0.704 -0.039499093 1.8045396e-38 322 272
0.0037030398 0.704 -0.039499093 1.8967713e-38 323 272
0.0049163462 0.70099998 -0.039330769 1.8419945e-38 324 272
0.0061366665 0.69999999 -0.039274666 1.8235555e-38 325 272
0.0073639993 0.69999999 -0.039274666 1.8050442e-38 326 272
0.0085913334 0.69999999 -0.039274666 1.786605e-38 327 272
0.0098186666 0.69999999 -0.039274666 1.7772406e-38 328 272
0.011045999 0.69999999 -0.039274666 1.7496178e-38 329 272
0.012238266 0.69800001 -0.039162453 1.749545e-38 330 272
0.013442807 0.69700003 -0.039106347 1.7311418e-38 331 272
0.014643839 0.69599998 -0.039050236 1.712739e-38 332 272
0.015864158 0.69599998 -0.039050236 1.6758608e-38 333 272
0.017109027 0.69700003 -0.039106347 1.7216714e-38 334 272
0.018304799 0.69599998 -0.039050236 1.7032323e-38 335 272
0.019525118 0.69599998 -0.039050236 1.7122366e-38 336 272
0.020745439 0.69599998 -0.039050236 1.6938335e-38 337 272
0.021965759 0.69599998 -0.039050236 1.6570291e-38 338 272
0.023186078 0.69599998 -0.039050236 1.6570291e-38 339 272
0.0244064 0.69599998 -0.039050236 1.6570307e-38 340 272
0.025626717 0.69599998 -0.039050236 1.629408e-38 341 272
0.026847038 0.69599998 -0.039050236 1.5924218e-38 342 272
0.028067358 0.69599998 -0.039050236 1.5371045e-38 343 272
0.029287677 0.69599998 -0.039050236 1.5186651e-38 344 272
0.030420333 0.69400001 -0.038938027 1.4818228e-38 345 272
0.031637147 0.69400001 -0.038938027 1.4726026e-38 346 272
0.032853961 0.69400001 -0.038938027 1.463383e-38 347 272
0.034070771 0.69400001 -0.038938027 1.4449792e-38 348 272
0.035287585 0.69400001 -0.038938027 1.4449792e-38 349 272
0.036504399 0.69400001 -0.038938027 1.454019e-38 350 272
0.037829921 0.69599998 -0.039050236 1.3618233e-38 351 272
0.039050236 0.69599998 -0.039050236 1.3984147e-38 352 272
0.040270556 0.69599998 -0.039050236 1.3891952e-38 353 272
0.041550495 0.69700003 -0.039106347 1.3433857e-38 354 272
0.042833932 0.69800001 -0.039162453 1.361825e-38 355 272
0.04405776 0.69800001 -0.039162453 1.3527487e-38 356 272
0.045281585 0.69800001 -0.039162453 1.3527487e-38 357 272
0.046638668 0.69999999 -0.039274666 1.3710802e-38 358 272
0.047865998 0.69999999 -0.039274666 1.3802997e-38 359 272
0.049163464 0.70099998 -0.039330769 1.3344896e-38 360 272
0.050536323 0.70300001 -0.039442986 1.3344896e-38 361 272
0.051768921 0.70300001 -0.039442986 1.3160868e-38 362 272
0.053076904 0.704 -0.039499093 1.2792085e-38 363 272
0.054465543 0.70599997 -0.039611302 1.2149239e-38 364 272
0.055782299 0.70700002 -0.039667413 1.2149239e-38 365 272
0.057021905 0.70700002 -0.039667413 1.1965937e-38 366 272
0.058343921 0.708 -0.039723519 1.1781546e-38 367 272
0.060006075 0.713 -0.040004052 1.0585564e-38 368 272
0.061256204 0.713 -0.040004052 1.2429477e-38 369 272
0.062769331 0.71600002 -0.040172372 1.484531e-38 370 272
0.064024724 0.71600002 -0.040172372 1.7980321e-38 371 272
-0.01005712 0.71700001 -0.041485619 1.8068864e-38 312 273
-0.0087877065 0.71600002 -0.041427758 1.2628961e-38 313 273
-0.00753232 0.71600002 -0.041427758 1.6204007e-38 314 273
-0.0062506334 0.713 -0.041254178 1.6572791e-38 315 273
-0.0049864799 0.71100003 -0.041138459 1.6849712e-38 316 273
-0.0037345996 0.70999998 -0.041080594 1.6757515e-38 317 273
-0.00248272 0.708 -0.040964879 1.7124506e-38 318 273
-0.0012396066 0.70700002 -0.040907022 1.7124506e-38 319 273
0 0.70599997 -0.040849157 1.7309616e-38 320 273
0.0012343467 0.704 -0.040733438 1.7585843e-38 321 273
0.0024581731 0.70099998 -0.040559858 1.7771683e-38 322 273
0.0036872597 0.70099998 -0.040559858 1.8417053e-38 323 273
0.0049163462 0.70099998 -0.040559858 1.7960766e-38 324 273
0.0061366665 0.69999999 -0.040502001 1.786857e-38 325 273
0.0073639993 0.69999999 -0.040502001 1.7958612e-38 326 273
0.0085913334 0.69999999 -0.040502001 1.7590189e-38 327 273
0.0098186666 0.69999999 -0.040502001 1.7496541e-38 328 273
0.01101444 0.69800001 -0.040386278 1.731215e-38 329 273
0.012238266 0.69800001 -0.040386278 1.7128472e-38 330 273
0.013442807 0.69700003 -0.040328421 1.7035918e-38 331 273
0.014643839 0.69599998 -0.040270556 1.7033765e-38 332 273
0.015864158 0.69599998 -0.040270556 1.6849374e-38 333 273
0.017084479 0.69599998 -0.040270556 1.64806e-38 334 273
0.018304799 0.69599998 -0.040270556 1.629585e-38 335 273
0.019469013 0.69400001 -0.040154841 1.6294783e-38 336 273
0.020685827 0.69400001 -0.040154841 1.6110033e-38 337 273
0.021902639 0.69400001 -0.040154841 1.610933e-38 338 273
0.023119451 0.69400001 -0.040154841 1.6017134e-38 339 273
0.024336265 0.69400001 -0.040154841 1.5926018e-38 340 273
0.025626717 0.69599998 -0.040270556 1.5557234e-38 341 273
0.026769891 0.69400001 -0.040154841 1.5462514e-38 342 273
0.027986705 0.69400001 -0.040154841 1.4263971e-38 343 273
0.029203519 0.69400001 -0.040154841 1.3897008e-38 344 273
0.030420333 0.69400001 -0.040154841 1.4265789e-38 345 273
0.031637147 0.69400001 -0.040154841 1.4173237e-38 346 273
0.032853961 0.69400001 -0.040154841 1.389701e-38 347 273
0.034070771 0.69400001 -0.040154841 1.3344893e-38 348 273
0.035287585 0.69400001 -0.040154841 1.3068305e-38 349 273
0.036504399 0.69400001 -0.040154841 1.3066501e-38 350 273
0.037721213 0.69400001 -0.040154841 1.2698078e-38 351 273
0.039050236 0.69599998 -0.040270556 1.2422582e-38 352 273
0.040270556 0.69599998 -0.040270556 1.2514779e-38 353 273
0.041490879 0.69599998 -0.040270556 1.2423675e-38 354 273
0.042772565 0.69700003 -0.040328421 1.2700261e-38 355 273
0.043994639 0.69700003 -0.040328421 1.2883933e-38 356 273
0.045281585 0.69800001 -0.040386278 1.2883933e-38 357 273
0.046505414 0.69800001 -0.040386278 1.2976133e-38 358 273
0.047865998 0.69999999 -0.040502001 1.325236e-38 359 273
0.049093332 0.69999999 -0.040502001 1.3161947e-38 360 273
0.050392549 0.70099998 -0.040559858 1.3069751e-38 361 273
0.051768921 0.70300001 -0.040675577 1.3160501e-38 362 273
0.053076904 0.704 -0.040733438 1.2975751e-38 363 273
0.054465543 0.70599997 -0.040849157 1.2424031e-38 364 273
0.055703394 0.70599997 -0.040849157 1.2424031e-38 365 273
0.056941248 0.70599997 -0.040849157 1.1690079e-38 366 273
0.058179103 0.70599997 -0.040849157 1.2058501e-38 367 273
0.059753593 0.70999998 -0.041080594 1.0861422e-38 368 273
0.061084379 0.71100003 -0.041138459 1.0769227e-38 369 273
0.062506333 0.713 -0.041254178 1.4102336e-38 370 273
0.064024724 0.71600002 -0.041427758 1.8619922e-38 371 273
0.06528011 0.71600002 -0.041427758 1.8071088e-38 372 273
-0.010043093 0.71600002 -0.042683143 1.7606439e-38 312 274
-0.0087877065 0.71600002 -0.042683143 1.2443484e-38 313 274
-0.0075112795 0.71399999 -0.042563915 1.6571711e-38 314 274
-0.0062330998 0.71100003 -0.042385083 1.6756462e-38 315 274
-0.0049864799 0.71100003 -0.042385083 1.6756445e-38 316 274
-0.0037345996 0.70999998 -0.042325463 1.7032674e-38 317 274
-0.00248272 0.708 -0.042206239 1.7124506e-38 318 274
-0.0012396066 0.70700002 -0.042146627 1.7400733e-38 319 274
0 0.70599997 -0.042087011 1.721814e-38 320 274
0.0012325933 0.70300001 -0.041908171 1.7586924e-38 321 274
0.0024581731 0.70099998 -0.041788943 1.7772039e-38 322 274
0.0036872597 0.70099998 -0.041788943 1.8325213e-38 323 274
0.0049163462 0.70099998 -0.041788943 1.7958601e-38 324 274
0.0061366665 0.69999999 -0.041729331 1.7866405e-38 325 274
0.0073639993 0.69999999 -0.041729331 1.7771336e-38 326 274
0.0085913334 0.69999999 -0.041729331 1.767914e-38 327 274
0.0098186666 0.69999999 -0.041729331 1.7494743e-38 328 274
0.01101444 0.69800001 -0.041610107 1.7218517e-38 329 274
0.012238266 0.69800001 -0.041610107 1.7034121e-38 330 274
0.013462093 0.69800001 -0.041610107 1.684973e-38 331 274
0.014643839 0.69599998 -0.041490879 1.6940125e-38 332 274
0.015864158 0.69599998 -0.041490879 1.6571701e-38 333 274
0.017084479 0.69599998 -0.041490879 1.6385882e-38 334 274
0.018304799 0.69599998 -0.041490879 1.6201489e-38 335 274
0.019469013 0.69400001 -0.041371655 1.6015317e-38 336 274
0.020685827 0.69400001 -0.041371655 1.6015317e-38 337 274
0.021902639 0.69400001 -0.041371655 1.583237e-38 338 274
0.023119451 0.69400001 -0.041371655 1.583237e-38 339 274
0.024336265 0.69400001 -0.041371655 1.5923121e-38 340 274
0.025553079 0.69400001 -0.041371655 1.5646893e-38 341 274
0.026769891 0.69400001 -0.041371655 1.527559e-38 342 274
0.027986705 0.69400001 -0.041371655 1.4537666e-38 343 274
0.029203519 0.69400001 -0.041371655 1.4263603e-38 344 274
0.030420333 0.69400001 -0.041371655 1.4263603e-38 345 274
0.031637147 0.69400001 -0.041371655 1.4079211e-38 346 274
0.032853961 0.69400001 -0.041371655 1.3526038e-38 347 274
0.034070771 0.69400001 -0.041371655 1.1682844e-38 348 274
0.035287585 0.69400001 -0.041371655 1.1498453e-38 349 274
0.036504399 0.69400001 -0.041371655 1.0856701e-38 350 274
0.037721213 0.69400001 -0.041371655 1.0948898e-38 351 274
0.038938027 0.69400001 -0.041371655 1.1591759e-38 352 274
0.040154841 0.69400001 -0.041371655 1.1868707e-38 353 274
0.041490879 0.69599998 -0.041490879 1.2146365e-38 354 274
0.042711195 0.69599998 -0.041490879 1.2238561e-38 355 274
0.043994639 0.69700003 -0.041550495 1.2789218e-38 356 274
0.045281585 0.69800001 -0.041610107 1.2881414e-38 357 274
0.046505414 0.69800001 -0.041610107 1.2882135e-38 358 274
0.047865998 0.69999999 -0.041729331 1.3343114e-38 359 274
0.049093332 0.69999999 -0.041729331 1.3252344e-38 360 274
0.050320663 0.69999999 -0.041729331 1.3528571e-38 361 274
0.051621638 0.70099998 -0.041788943 1.2977555e-38 362 274
0.053001512 0.70300001 -0.041908171 1.288536e-38 363 274
0.054465543 0.70599997 -0.042087011 1.2240729e-38 364 274
0.055545598 0.704 -0.041967787 1.2148533e-38 365 274
0.056779943 0.704 -0.041967787 1.1873038e-38 366 274
0.058179103 0.70599997 -0.042087011 1.1965234e-38 367 274
0.059753593 0.70999998 -0.042325463 1.1597174e-38 368 274
0.061084379 0.71100003 -0.042385083 1.0859609e-38 369 274
0.062331002 0.71100003 -0.042385083 1.3087448e-38 370 274
0.063756458 0.713 -0.042504307 1.8250403e-38 371 274
0.06528011 0.71600002 -0.042683143 1.8439144e-38 372 274
-0.01129848 0.71600002 -0.043938532 1.7701574e-38 311 275
-0.010043093 0.71600002 -0.043938532 1.7050743e-38 312 275
-0.0087631596 0.71399999 -0.043815799 1.2717547e-38 313 275
-0.0074797203 0.71100003 -0.043631699 1.6205086e-38 314 275
-0.0062243328 0.70999998 -0.043570329 1.657351e-38 315 275
-0.0049794666 0.70999998 -0.043570329 1.65735e-38 316 275
-0.0037345996 0.70999998 -0.043570329 1.6757531e-38 317 275
-0.00248272 0.708 -0.043447599 1.6941557e-38 318 275
-0.0012378532 0.70599997 -0.043324865 1.7217784e-38 319 275
0 0.70599997 -0.043324865 1.7218864e-38 320 275
0.0012325933 0.70300001 -0.043140765 1.749545e-38 321 275
0.0024581731 0.70099998 -0.043018032 1.7680209e-38 322 275
0.0036819996 0.69999999 -0.042956665 1.7864602e-38 323 275
0.0049093333 0.69999999 -0.042956665 1.7681658e-38 324 275
0.0061366665 0.69999999 -0.042956665 1.7496908e-38 325 275
0.0073639993 0.69999999 -0.042956665 1.7312153e-38 326 275
0.0085667865 0.69800001 -0.042833932 1.7127763e-38 327 275
0.0097906133 0.69800001 -0.042833932 1.7033768e-38 328 275
0.01101444 0.69800001 -0.042833932 1.6572791e-38 329 275
0.012220734 0.69700003 -0.042772565 1.6572794e-38 330 275
0.013442807 0.69700003 -0.042772565 1.6480597e-38 331 275
0.014643839 0.69599998 -0.042711195 1.6388036e-38 332 275
0.015864158 0.69599998 -0.042711195 1.6203286e-38 333 275
0.017084479 0.69599998 -0.042711195 1.6017821e-38 334 275
0.0182522 0.69400001 -0.042588469 1.5741234e-38 335 275
0.019469013 0.69400001 -0.042588469 1.5463945e-38 336 275
0.020685827 0.69400001 -0.042588469 1.5463945e-38 337 275
0.021902639 0.69400001 -0.042588469 1.5464664e-38 338 275
0.023119451 0.69400001 -0.042588469 1.5372468e-38 339 275
0.024336265 0.69400001 -0.042588469 1.5555416e-38 340 275
0.025553079 0.69400001 -0.042588469 1.5186635e-38 341 275
0.026769891 0.69400001 -0.042588469 1.5184836e-38 342 275
0.027986705 0.69400001 -0.042588469 1.4908249e-38 343 275
0.029203519 0.69400001 -0.042588469 1.4173562e-38 344 275
0.030420333 0.69400001 -0.042588469 1.3988811e-38 345 275
0.031637147 0.69400001 -0.042588469 1.3803701e-38 346 275
0.032853961 0.69400001 -0.042588469 1.3434558e-38 347 275
0.034021679 0.69300002 -0.042527102 1.2603012e-38 348 275
0.035236739 0.69300002 -0.042527102 1.2142034e-38 349 275
0.036504399 0.69400001 -0.042588469 1.1315901e-38 350 275
0.037721213 0.69400001 -0.042588469 1.1223706e-38 351 275
0.038938027 0.69400001 -0.042588469 1.094964e-38 352 275
0.040154841 0.69400001 -0.042588469 1.1318422e-38 353 275
0.041371655 0.69400001 -0.042588469 1.1871574e-38 354 275
0.042588469 0.69400001 -0.042588469 1.1963769e-38 355 275
0.043931518 0.69599998 -0.042711195 1.2422952e-38 356 275
0.045151837 0.69599998 -0.042711195 1.2422952e-38 357 275
0.046372157 0.69599998 -0.042711195 1.2424044e-38 358 275
0.047729239 0.69800001 -0.042833932 1.2608435e-38 359 275
0.048953064 0.69800001 -0.042833932 1.2976849e-38 360 275
0.050320663 0.69999999 -0.042956665 1.3069045e-38 361 275
0.051547997 0.69999999 -0.042956665 1.3069395e-38 362 275
0.052775331 0.69999999 -0.042956665 1.2792807e-38 363 275
0.054311249 0.704 -0.043202132 1.2331848e-38 364 275
0.055545598 0.704 -0.043202132 1.2147817e-38 365 275
0.056779943 0.704 -0.043202132 1.1597177e-38 366 275
0.058179103 0.70599997 -0.043324865 1.1689373e-38 367 275
0.059753593 0.70999998 -0.043570329 1.1320963e-38 368 275
0.060998458 0.70999998 -0.043570329 1.0491201e-38 369 275
0.062331002 0.71100003 -0.043631699 1.2531772e-38 370 275
0.063577622 0.71100003 -0.043631699 1.7509977e-38 371 275
0.064824238 0.71100003 -0.043631699 1.7887772e-38 372 275
-0.012553867 0.71600002 -0.045193922 1.9453651e-38 310 276
-0.01129848 0.71600002 -0.045193922 1.7240956e-38 311 276
-0.01001504 0.71399999 -0.045067675 1.6679073e-38 312 276
-0.0087263398 0.71100003 -0.044878319 1.3083084e-38 313 276
-0.0074797203 0.71100003 -0.044878319 1.6113963e-38 314 276
-0.0062243328 0.70999998 -0.044815198 1.6206158e-38 315 276
-0.0049794666 0.70999998 -0.044815198 1.64813e-38 316 276
-0.0037345996 0.70999998 -0.044815198 1.6757529e-38 317 276
-0.00248272 0.708 -0.044688959 1.6941557e-38 318 276
-0.0012378532 0.70599997 -0.044562716 1.7309979e-38 319 276
0 0.704 -0.044436477 1.7218864e-38 320 276
0.0012290865 0.70099998 -0.044247117 1.749545e-38 321 276
0.0024546667 0.69999999 -0.044183996 1.740398e-38 322 276
0.0036819996 0.69999999 -0.044183996 1.7496175e-38 323 276
0.0049093333 0.69999999 -0.044183996 1.7313582e-38 324 276
0.0061366665 0.69999999 -0.044183996 1.7221386e-38 325 276
0.0073429602 0.69800001 -0.04405776 1.7037345e-38 326 276
0.0085667865 0.69800001 -0.04405776 1.6852594e-38 327 276
0.0097906133 0.69800001 -0.04405776 1.6757166e-38 328 276
0.01099866 0.69700003 -0.043994639 1.601924e-38 329 276
0.0122032 0.69599998 -0.043931518 1.6110723e-38 330 276
0.013423519 0.69599998 -0.043931518 1.6386951e-38 331 276
0.01460176 0.69400001 -0.043805279 1.6112162e-38 332 276
0.015818574 0.69400001 -0.043805279 1.5835575e-38 333 276
0.017035386 0.69400001 -0.043805279 1.5651187e-38 334 276
0.0182522 0.69400001 -0.043805279 1.5190208e-38 335 276
0.019469013 0.69400001 -0.043805279 1.5464647e-38 336 276
0.020685827 0.69400001 -0.043805279 1.5280256e-38 337 276
0.021902639 0.69400001 -0.043805279 1.5554697e-38 338 276
0.023119451 0.69400001 -0.043805279 1.5462502e-38 339 276
0.024336265 0.69400001 -0.043805279 1.5369947e-38 340 276
0.025553079 0.69400001 -0.043805279 1.5185556e-38 341 276
0.02673132 0.69300002 -0.043742158 1.49104e-38 342 276
0.027946379 0.69300002 -0.043742158 1.472565e-38 343 276
0.029161438 0.69300002 -0.043742158 1.4357228e-38 344 276
0.030420333 0.69400001 -0.043805279 1.4265031e-38 345 276
0.031591557 0.69300002 -0.043742158 1.4265025e-38 346 276
0.03280662 0.69300002 -0.043742158 1.3619656e-38 347 276
0.034021679 0.69300002 -0.043742158 1.3249434e-38 348 276
0.035236739 0.69300002 -0.043742158 1.2788457e-38 349 276
0.036451802 0.69300002 -0.043742158 1.1684296e-38 350 276
0.037666857 0.69300002 -0.043742158 1.1499904e-38 351 276
0.03888192 0.69300002 -0.043742158 1.1409516e-38 352 276
0.04009698 0.69300002 -0.043742158 1.1686463e-38 353 276
0.041371655 0.69400001 -0.043805279 1.2057027e-38 354 276
0.042588469 0.69400001 -0.043805279 1.2057027e-38 355 276
0.043931518 0.69599998 -0.043931518 1.2515495e-38 356 276
0.045151837 0.69599998 -0.043931518 1.2607691e-38 357 276
0.046372157 0.69599998 -0.043931518 1.2424394e-38 358 276
0.047660861 0.69700003 -0.043994639 1.2701341e-38 359 276
0.048953064 0.69800001 -0.04405776 1.2884651e-38 360 276
0.050176892 0.69800001 -0.04405776 1.3069401e-38 361 276
0.051547997 0.69999999 -0.044183996 1.2977202e-38 362 276
0.052775331 0.69999999 -0.044183996 1.2700255e-38 363 276
0.054079808 0.70099998 -0.044247117 1.2331848e-38 364 276
0.0554667 0.70300001 -0.04437336 1.2147817e-38 365 276
0.056779943 0.704 -0.044436477 1.1688291e-38 366 276
0.058179103 0.70599997 -0.044562716 1.1780845e-38 367 276
0.059585281 0.708 -0.044688959 1.1504628e-38 368 276
0.060998458 0.70999998 -0.044815198 1.0767063e-38 369 276
0.062243331 0.70999998 -0.044815198 1.2069349e-38 370 276
0.063488193 0.70999998 -0.044815198 1.6402185e-38 371 276
0.064733058 0.70999998 -0.044815198 1.7427515e-38 372 276
-0.013809253 0.71600002 -0.046449307 1.9361102e-38 309 277
-0.012553867 0.71600002 -0.046449307 1.9454004e-38 310 277
-0.01129848 0.71600002 -0.046449307 1.7056557e-38 311 277
-0.01001504 0.71399999 -0.046319555 1.6400681e-38 312 277
-0.0087263398 0.71100003 -0.046124939 1.3358227e-38 313 277
-0.0074797203 0.71100003 -0.046124939 1.6021764e-38 314 277
-0.0062243328 0.70999998 -0.046060063 1.611396e-38 315 277
-0.0049794666 0.70999998 -0.046060063 1.6389099e-38 316 277
-0.00372408 0.708 -0.045930319 1.6573851e-38 317 277
-0.0024792133 0.70700002 -0.045865446 1.6849712e-38 318 277
-0.0012343467 0.704 -0.045670826 1.7218134e-38 319 277
0 0.70099998 -0.045476202 1.7035897e-38 320 277
0.0012273333 0.69999999 -0.04541133 1.7128092e-38 321 277
0.0024546667 0.69999999 -0.04541133 1.6944424e-38 322 277
0.0036714801 0.69800001 -0.045281585 1.7036621e-38 323 277
0.0048953067 0.69800001 -0.045281585 1.7128819e-38 324 277
0.006119133 0.69800001 -0.045281585 1.7036624e-38 325 277
0.0073429602 0.69800001 -0.045281585 1.6944427e-38 326 277
0.0085667865 0.69800001 -0.045281585 1.6667481e-38 327 277
0.0097906133 0.69800001 -0.045281585 1.6204711e-38 328 277
0.010982879 0.69599998 -0.045151837 1.5467146e-38 329 277
0.0122032 0.69599998 -0.045151837 1.5742661e-38 330 277
0.013384946 0.69400001 -0.045022093 1.5926692e-38 331 277
0.01460176 0.69400001 -0.045022093 1.5743735e-38 332 277
0.015818574 0.69400001 -0.045022093 1.5558985e-38 333 277
0.017035386 0.69400001 -0.045022093 1.5466793e-38 334 277
0.0182522 0.69400001 -0.045022093 1.509801e-38 335 277
0.019469013 0.69400001 -0.045022093 1.5280253e-38 336 277
0.020656019 0.69300002 -0.044957221 1.5095862e-38 337 277
0.021871079 0.69300002 -0.044957221 1.5278105e-38 338 277
0.02308614 0.69300002 -0.044957221 1.5278105e-38 339 277
0.024301201 0.69300002 -0.044957221 1.5185189e-38 340 277
0.02551626 0.69300002 -0.044957221 1.5185189e-38 341 277
0.02673132 0.69300002 -0.044957221 1.4818199e-38 342 277
0.027946379 0.69300002 -0.044957221 1.4541972e-38 343 277
0.029161438 0.69300002 -0.044957221 1.454054e-38 344 277
0.030420333 0.69400001 -0.045022093 1.4264312e-38 345 277
0.031591557 0.69300002 -0.044957221 1.4264306e-38 346 277
0.03280662 0.69300002 -0.044957221 1.3987719e-38 347 277
0.034021679 0.69300002 -0.044957221 1.3435617e-38 348 277
0.035236739 0.69300002 -0.044957221 1.2882444e-38 349 277
0.036451802 0.69300002 -0.044957221 1.2145977e-38 350 277
0.037666857 0.69300002 -0.044957221 1.2145977e-38 351 277
0.03888192 0.69300002 -0.044957221 1.1687167e-38 352 277
0.04009698 0.69300002 -0.044957221 1.2055589e-38 353 277
0.041312039 0.69300002 -0.044957221 1.2240336e-38 354 277
0.042588469 0.69400001 -0.045022093 1.2332534e-38 355 277
0.043805279 0.69400001 -0.045022093 1.2699527e-38 356 277
0.045151837 0.69599998 -0.045151837 1.2975753e-38 357 277
0.046372157 0.69599998 -0.045151837 1.2609141e-38 358 277
0.047660861 0.69700003 -0.045216713 1.2701338e-38 359 277
0.048953064 0.69800001 -0.045281585 1.2793534e-38 360 277
0.050176892 0.69800001 -0.045281585 1.2793534e-38 361 277
0.051400717 0.69800001 -0.045281585 1.2701338e-38 362 277
0.052775331 0.69999999 -0.04541133 1.2516946e-38 363 277
0.054002665 0.69999999 -0.04541133 1.2148536e-38 364 277
0.0554667 0.70300001 -0.04560595 1.205634e-38 365 277
0.056779943 0.704 -0.045670826 1.1597527e-38 366 277
0.058179103 0.70599997 -0.04580057 1.1689723e-38 367 277
0.059501119 0.70700002 -0.045865446 1.1504984e-38 368 277
0.060740728 0.70700002 -0.045865446 1.0859615e-38 369 277
0.062068 0.708 -0.045930319 1.142146e-38 370 277
0.063488193 0.70999998 -0.046060063 1.5569903e-38 371 277
0.064733058 0.70999998 -0.046060063 1.7518264e-38 372 277
-0.013809253 0.71600002 -0.047704693 1.9361458e-38 309 278
-0.012553867 0.71600002 -0.047704693 1.9638391e-38 310 278
-0.01129848 0.71600002 -0.047704693 1.6780328e-38 311 278
-0.01001504 0.71399999 -0.047571439 1.6215215e-38 312 278
-0.0087508867 0.713 -0.047504812 1.3633737e-38 313 278
-0.0074797203 0.71100003 -0.047371563 1.6020689e-38 314 278
-0.0062243328 0.70999998 -0.047304932 1.6205439e-38 315 278
-0.0049654399 0.708 -0.047171678 1.620579e-38 316 278
-0.00372408 0.708 -0.047171678 1.6389821e-38 317 278
-0.0024757064 0.70599997 -0.047038425 1.6574567e-38 318 278
-0.0012343467 0.704 -0.046905171 1.6758958e-38 319 278
0 0.70099998 -0.046705291 1.6667837e-38 320 278
0.0012273333 0.69999999 -0.046638668 1.6760033e-38 321 278
0.0024546667 0.69999999 -0.046638668 1.6852231e-38 322 278
0.0036714801 0.69800001 -0.046505414 1.6852231e-38 323 278
0.0048953067 0.69800001 -0.046505414 1.6851522e-38 324 278
0.006119133 0.69800001 -0.046505414 1.6759326e-38 325 278
0.0073429602 0.69800001 -0.046505414 1.6576017e-38 326 278
0.0085545136 0.69700003 -0.046438783 1.6022843e-38 327 278
0.0097765867 0.69700003 -0.046438783 1.6111443e-38 328 278
0.010982879 0.69599998 -0.046372157 1.5650465e-38 329 278
0.012168133 0.69400001 -0.046238903 1.5558991e-38 330 278
0.013384946 0.69400001 -0.046238903 1.5466437e-38 331 278
0.01460176 0.69400001 -0.046238903 1.5466437e-38 332 278
0.015795778 0.69300002 -0.04617228 1.5190208e-38 333 278
0.01701084 0.69300002 -0.04617228 1.5280972e-38 334 278
0.018225901 0.69300002 -0.04617228 1.5096941e-38 335 278
0.01944096 0.69300002 -0.04617228 1.5095865e-38 336 278
0.020656019 0.69300002 -0.04617228 1.4819279e-38 337 278
0.021871079 0.69300002 -0.04617228 1.5186258e-38 338 278
0.02308614 0.69300002 -0.04617228 1.5002227e-38 339 278
0.024231065 0.69099998 -0.046039023 1.500223e-38 340 278
0.025442619 0.69099998 -0.046039023 1.4909676e-38 341 278
0.026654173 0.69099998 -0.046039023 1.4726006e-38 342 278
0.027865725 0.69099998 -0.046039023 1.444942e-38 343 278
0.029077278 0.69099998 -0.046039023 1.4723135e-38 344 278
0.0303765 0.69300002 -0.04617228 1.4446549e-38 345 278
0.031637147 0.69400001 -0.046238903 1.4262155e-38 346 278
0.03280662 0.69300002 -0.04617228 1.4169959e-38 347 278
0.034021679 0.69300002 -0.04617228 1.3527097e-38 348 278
0.035236739 0.69300002 -0.04617228 1.3342347e-38 349 278
0.036451802 0.69300002 -0.04617228 1.2882446e-38 350 278
0.037666857 0.69300002 -0.04617228 1.2605861e-38 351 278
0.03888192 0.69300002 -0.04617228 1.2605876e-38 352 278
0.04009698 0.69300002 -0.04617228 1.2698072e-38 353 278
0.041312039 0.69300002 -0.04617228 1.2698445e-38 354 278
0.042527102 0.69300002 -0.04617228 1.279064e-38 355 278
0.043805279 0.69400001 -0.046238903 1.2699173e-38 356 278
0.045022093 0.69400001 -0.046238903 1.29754e-38 357 278
0.046238903 0.69400001 -0.046238903 1.2609141e-38 358 278
0.047592476 0.69599998 -0.046372157 1.2701338e-38 359 278
0.048882935 0.69700003 -0.046438783 1.2609862e-38 360 278
0.050176892 0.69800001 -0.046505414 1.2609862e-38 361 278
0.051400717 0.69800001 -0.046505414 1.2609144e-38 362 278
0.052624546 0.69800001 -0.046505414 1.2424394e-38 363 278
0.054002665 0.69999999 -0.046638668 1.2332201e-38 364 278
0.055308893 0.70099998 -0.046705291 1.214817e-38 365 278
0.056699295 0.70300001 -0.046838548 1.1597883e-38 366 278
0.058014292 0.704 -0.046905171 1.1505329e-38 367 278
0.059416957 0.70599997 -0.047038425 1.1504628e-38 368 278
0.060740728 0.70700002 -0.047105055 1.0951454e-38 369 278
0.062068 0.708 -0.047171678 1.0959758e-38 370 278
0.063488193 0.70999998 -0.047304932 1.4831974e-38 371 278
0.064733058 0.70999998 -0.047304932 1.7426066e-38 372 278
-0.013809253 0.71600002 -0.048960082 1.9269978e-38 309 279
-0.012518799 0.71399999 -0.048823316 1.9638388e-38 310 279
-0.011266919 0.71399999 -0.048823316 1.6595934e-38 311 279
-0.010001013 0.713 -0.048754938 1.6121947e-38 312 279
-0.0087263398 0.71100003 -0.048618179 1.4185839e-38 313 279
-0.0074691991 0.70999998 -0.048549797 1.629585e-38 314 279
-0.0062243328 0.70999998 -0.048549797 1.6388045e-38 315 279
-0.0049654399 0.708 -0.048413038 1.6296906e-38 316 279
-0.0037188199 0.70700002 -0.048344657 1.6389102e-38 317 279
-0.0024757064 0.70599997 -0.048276275 1.6665316e-38 318 279
-0.0012343467 0.704 -0.048139516 1.6757512e-38 319 279
0 0.70099998 -0.047934376 1.6574197e-38 320 279
0.0012273333 0.69999999 -0.047865998 1.6758588e-38 321 279
0.0024546667 0.69999999 -0.047865998 1.6850781e-38 322 279
0.0036714801 0.69800001 -0.047729239 1.6850781e-38 323 279
0.0048953067 0.69800001 -0.047729239 1.6574923e-38 324 279
0.0061103669 0.69700003 -0.047660861 1.6482367e-38 325 279
0.00733244 0.69700003 -0.047660861 1.620579e-38 326 279
0.0085422397 0.69599998 -0.047592476 1.5928844e-38 327 279
0.0097625591 0.69599998 -0.047592476 1.5926329e-38 328 279
0.01095132 0.69400001 -0.047455717 1.5649383e-38 329 279
0.012168133 0.69400001 -0.047455717 1.5649383e-38 330 279
0.013384946 0.69400001 -0.047455717 1.5373155e-38 331 279
0.01460176 0.69400001 -0.047455717 1.5280957e-38 332 279
0.015795778 0.69300002 -0.047387339 1.5096565e-38 333 279
0.01701084 0.69300002 -0.047387339 1.5096215e-38 334 279
0.018225901 0.69300002 -0.047387339 1.4819628e-38 335 279
0.01944096 0.69300002 -0.047387339 1.5001877e-38 336 279
0.020656019 0.69300002 -0.047387339 1.4909681e-38 337 279
0.021871079 0.69300002 -0.047387339 1.5092991e-38 338 279
0.023019511 0.69099998 -0.047250576 1.5000795e-38 339 279
0.024231065 0.69099998 -0.047250576 1.4818552e-38 340 279
0.025442619 0.69099998 -0.047250576 1.4818552e-38 341 279
0.026654173 0.69099998 -0.047250576 1.490895e-38 342 279
0.027825398 0.69 -0.047182199 1.4632722e-38 343 279
0.029035198 0.69 -0.047182199 1.4630215e-38 344 279
0.030244999 0.69 -0.047182199 1.4445823e-38 345 279
0.031454802 0.69 -0.047182199 1.4169239e-38 346 279
0.032711938 0.69099998 -0.047250576 1.3892652e-38 347 279
0.033923492 0.69099998 -0.047250576 1.3710059e-38 348 279
0.035135046 0.69099998 -0.047250576 1.3617505e-38 349 279
0.036451802 0.69300002 -0.047387339 1.3066133e-38 350 279
0.037666857 0.69300002 -0.047387339 1.2973936e-38 351 279
0.03888192 0.69300002 -0.047387339 1.2789191e-38 352 279
0.04009698 0.69300002 -0.047387339 1.2973583e-38 353 279
0.041312039 0.69300002 -0.047387339 1.2972867e-38 354 279
0.042527102 0.69300002 -0.047387339 1.2972867e-38 355 279
0.043742158 0.69300002 -0.047387339 1.2789922e-38 356 279
0.045022093 0.69400001 -0.047455717 1.3066148e-38 357 279
0.046238903 0.69400001 -0.047455717 1.2883202e-38 358 279
0.047592476 0.69599998 -0.047592476 1.2975756e-38 359 279
0.048882935 0.69700003 -0.047660861 1.2700255e-38 360 279
0.050105009 0.69700003 -0.047660861 1.2516224e-38 361 279
0.051400717 0.69800001 -0.047729239 1.2516943e-38 362 279
0.052624546 0.69800001 -0.047729239 1.2516943e-38 363 279
0.054002665 0.69999999 -0.047865998 1.2149602e-38 364 279
0.055229999 0.69999999 -0.047865998 1.1965571e-38 365 279
0.056537982 0.70099998 -0.047934376 1.1780477e-38 366 279
0.058014292 0.704 -0.048139516 1.1688281e-38 367 279
0.059416957 0.70599997 -0.048276275 1.141243e-38 368 279
0.060740728 0.70700002 -0.048344657 1.1320233e-38 369 279
0.062068 0.708 -0.048413038 1.0591329e-38 370 279
0.063309364 0.708 -0.048413038 1.3725981e-38 371 279
0.06455072 0.708 -0.048413038 1.7240953e-38 372 279
-0.013809253 0.71600002 -0.050215468 1.9361455e-38 309 280
-0.012518799 0.71399999 -0.050075196 1.9636947e-38 310 280
-0.011266919 0.71399999 -0.050075196 1.6317905e-38 311 280
-0.0099729598 0.71100003 -0.049864799 1.6027952e-38 312 280
-0.0087263398 0.71100003 -0.049864799 1.4553182e-38 313 280
-0.0074691991 0.70999998 -0.049794663 1.6020705e-38 314 280
-0.0062067998 0.708 -0.049654398 1.6020705e-38 315 280
-0.0049584266 0.70700002 -0.049584266 1.6021045e-38 316 280
-0.0037188199 0.70700002 -0.049584266 1.6205437e-38 317 280
-0.0024757064 0.70599997 -0.04951413 1.6113957e-38 318 280
-0.0012343467 0.704 -0.049373865 1.6298708e-38 319 280
0 0.70099998 -0.049163464 1.6023196e-38 320 280
0.0012273333 0.69999999 -0.049093332 1.6207229e-38 321 280
0.0024546667 0.69999999 -0.049093332 1.6207229e-38 322 280
0.0036714801 0.69800001 -0.048953064 1.6207229e-38 323 280
0.0048953067 0.69800001 -0.048953064 1.5839171e-38 324 280
0.0061103669 0.69700003 -0.048882935 1.5562585e-38 325 280
0.0073219193 0.69599998 -0.048812799 1.5652986e-38 326 280
0.0085422397 0.69599998 -0.048812799 1.5376039e-38 327 280
0.0097625591 0.69599998 -0.048812799 1.5190929e-38 328 280
0.01095132 0.69400001 -0.048672531 1.5098732e-38 329 280
0.012168133 0.69400001 -0.048672531 1.509801e-38 330 280
0.013384946 0.69400001 -0.048672531 1.5005814e-38 331 280
0.01460176 0.69400001 -0.048672531 1.491325e-38 332 280
0.015795778 0.69300002 -0.048602402 1.491325e-38 333 280
0.01701084 0.69300002 -0.048602402 1.4820704e-38 334 280
0.018225901 0.69300002 -0.048602402 1.4728507e-38 335 280
0.01944096 0.69300002 -0.048602402 1.4818202e-38 336 280
0.020656019 0.69300002 -0.048602402 1.4818202e-38 337 280
0.021807959 0.69099998 -0.04846213 1.4818202e-38 338 280
0.023019511 0.69099998 -0.04846213 1.4818202e-38 339 280
0.024231065 0.69099998 -0.04846213 1.463524e-38 340 280
0.025442619 0.69099998 -0.04846213 1.4543044e-38 341 280
0.026615599 0.69 -0.048391998 1.4449774e-38 342 280
0.027825398 0.69 -0.048391998 1.4265381e-38 343 280
0.029035198 0.69 -0.048391998 1.4079562e-38 344 280
0.030244999 0.69 -0.048391998 1.389517e-38 345 280
0.031454802 0.69 -0.048391998 1.361894e-38 346 280
0.032711938 0.69099998 -0.04846213 1.3526744e-38 347 280
0.033923492 0.69099998 -0.04846213 1.3434548e-38 348 280
0.035135046 0.69099998 -0.04846213 1.3434548e-38 349 280
0.036346599 0.69099998 -0.04846213 1.3249804e-38 350 280
0.037666857 0.69300002 -0.048602402 1.3065413e-38 351 280
0.03888192 0.69300002 -0.048602402 1.2880668e-38 352 280
0.04009698 0.69300002 -0.048602402 1.2880668e-38 353 280
0.041312039 0.69300002 -0.048602402 1.2697725e-38 354 280
0.042527102 0.69300002 -0.048602402 1.2697725e-38 355 280
0.043742158 0.69300002 -0.048602402 1.2697741e-38 356 280
0.044957221 0.69300002 -0.048602402 1.2697741e-38 357 280
0.04617228 0.69300002 -0.048602402 1.2331483e-38 358 280
0.047455717 0.69400001 -0.048672531 1.2423678e-38 359 280
0.048812799 0.69599998 -0.048812799 1.2241082e-38 360 280
0.050105009 0.69700003 -0.048882935 1.2241082e-38 361 280
0.051400717 0.69800001 -0.048953064 1.2516943e-38 362 280
0.052624546 0.69800001 -0.048953064 1.2609139e-38 363 280
0.054002665 0.69999999 -0.049093332 1.2424745e-38 364 280
0.055229999 0.69999999 -0.049093332 1.2332549e-38 365 280
0.056457333 0.69999999 -0.049093332 1.1780121e-38 366 280
0.057931885 0.70300001 -0.049303733 1.1503532e-38 367 280
0.059248637 0.704 -0.049373865 1.0953258e-38 368 280
0.060740728 0.70700002 -0.049584266 1.113729e-38 369 280
0.062068 0.708 -0.049654398 1.0131071e-38 370 280
0.063309364 0.708 -0.049654398 1.2435961e-38 371 280
0.06455072 0.708 -0.049654398 1.6963643e-38 372 280
0.065792084 0.708 -0.049654398 1.8438773e-38 373 280
-0.013809253 0.71600002 -0.051470853 1.9269259e-38 309 281
-0.012518799 0.71399999 -0.05132708 1.9362161e-38 310 281
-0.011266919 0.71399999 -0.05132708 1.5858367e-38 311 281
-0.0099729598 0.71100003 -0.051111419 1.5844643e-38 312 281
-0.0087263398 0.71100003 -0.051111419 1.46461e-38 313 281
-0.0074691991 0.70999998 -0.051039528 1.6205819e-38 314 281
-0.0062067998 0.708 -0.050895758 1.6021788e-38 315 281
-0.0049584266 0.70700002 -0.050823875 1.6113241e-38 316 281
-0.0037188199 0.70700002 -0.050823875 1.6113241e-38 317 281
-0.0024757064 0.70599997 -0.050751984 1.6022112e-38 318 281
-0.0012343467 0.704 -0.050608214 1.6022112e-38 319 281
0 0.70300001 -0.050536323 1.6113942e-38 320 281
0.0012273333 0.69999999 -0.050320663 1.6113942e-38 321 281
0.0024546667 0.69999999 -0.050320663 1.6205061e-38 322 281
0.0036714801 0.69800001 -0.050176892 1.6205061e-38 323 281
0.0048953067 0.69800001 -0.050176892 1.5653333e-38 324 281
0.0061103669 0.69700003 -0.050105009 1.5468941e-38 325 281
0.0073219193 0.69599998 -0.050033119 1.5283478e-38 326 281
0.0085422397 0.69599998 -0.050033119 1.5191282e-38 327 281
0.0097625591 0.69599998 -0.050033119 1.4822499e-38 328 281
0.01095132 0.69400001 -0.049889345 1.4730304e-38 329 281
0.012168133 0.69400001 -0.049889345 1.5005449e-38 330 281
0.013384946 0.69400001 -0.049889345 1.4913253e-38 331 281
0.01460176 0.69400001 -0.049889345 1.5004723e-38 332 281
0.015795778 0.69300002 -0.049817458 1.4820332e-38 333 281
0.01701084 0.69300002 -0.049817458 1.4911454e-38 334 281
0.018225901 0.69300002 -0.049817458 1.4819258e-38 335 281
0.01944096 0.69300002 -0.049817458 1.4726356e-38 336 281
0.020656019 0.69300002 -0.049817458 1.4542325e-38 337 281
0.021807959 0.69099998 -0.049673684 1.4450492e-38 338 281
0.023019511 0.69099998 -0.049673684 1.4450492e-38 339 281
0.024231065 0.69099998 -0.049673684 1.4450495e-38 340 281
0.025442619 0.69099998 -0.049673684 1.4357941e-38 341 281
0.026615599 0.69 -0.049601797 1.4265025e-38 342 281
0.027825398 0.69 -0.049601797 1.4080634e-38 343 281
0.029035198 0.69 -0.049601797 1.389517e-38 344 281
0.030244999 0.69 -0.049601797 1.3618942e-38 345 281
0.031454802 0.69 -0.049601797 1.3618589e-38 346 281
0.032664597 0.69 -0.049601797 1.3526394e-38 347 281
0.033923492 0.69099998 -0.049673684 1.3434198e-38 348 281
0.035135046 0.69099998 -0.049673684 1.3341644e-38 349 281
0.036346599 0.69099998 -0.049673684 1.3065062e-38 350 281
0.037666857 0.69300002 -0.049817458 1.3065062e-38 351 281
0.038769703 0.69099998 -0.049673684 1.2788838e-38 352 281
0.039981257 0.69099998 -0.049673684 1.2788838e-38 353 281
0.041312039 0.69300002 -0.049817458 1.2513328e-38 354 281
0.042527102 0.69300002 -0.049817458 1.2513328e-38 355 281
0.043742158 0.69300002 -0.049817458 1.2420784e-38 356 281
0.044957221 0.69300002 -0.049817458 1.251298e-38 357 281
0.04617228 0.69300002 -0.049817458 1.2329678e-38 358 281
0.047455717 0.69400001 -0.049889345 1.2606625e-38 359 281
0.048812799 0.69599998 -0.050033119 1.2148165e-38 360 281
0.050105009 0.69700003 -0.050105009 1.242475e-38 361 281
0.051327083 0.69700003 -0.050105009 1.233435e-38 362 281
0.052624546 0.69800001 -0.050176892 1.2518742e-38 363 281
0.053848371 0.69800001 -0.050176892 1.2150681e-38 364 281
0.055229999 0.69999999 -0.050320663 1.196629e-38 365 281
0.056457333 0.69999999 -0.050320663 1.1413136e-38 366 281
0.057767071 0.70099998 -0.050392549 1.1320939e-38 367 281
0.059248637 0.704 -0.050608214 1.0952179e-38 368 281
0.060740728 0.70700002 -0.050823875 1.1044374e-38 369 281
0.062068 0.708 -0.050895758 1.0129638e-38 370 281
0.063309364 0.708 -0.050895758 1.2065746e-38 371 281
0.06455072 0.708 -0.050895758 1.6778896e-38 372 281
0.065977924 0.70999998 -0.051039528 1.8530971e-38 373 281
-0.013809253 0.71600002 -0.052726239 1.9269262e-38 309 282
-0.012518799 0.71399999 -0.052578956 1.936288e-38 310 282
-0.011266919 0.71399999 -0.052578956 1.5582859e-38 311 282
-0.0099729598 0.71100003 -0.052358042 1.5752094e-38 312 282
-0.0087263398 0.71100003 -0.052358042 1.4830138e-38 313 282
-0.0074691991 0.70999998 -0.052284397 1.6389497e-38 314 282
-0.0062067998 0.708 -0.052137118 1.611255e-38 315 282
-0.0049584266 0.70700002 -0.05206348 1.6021411e-38 316 282
-0.0037135598 0.70599997 -0.051989835 1.583738e-38 317 282
-0.0024686933 0.704 -0.051842559 1.5745535e-38 318 282
-0.0012343467 0.704 -0.051842559 1.5745535e-38 319 282
0 0.70099998 -0.051621638 1.5928847e-38 320 282
0.0012273333 0.69999999 -0.051547997 1.5928847e-38 321 282
0.0024476533 0.69800001 -0.051400717 1.5836651e-38 322 282
0.0036714801 0.69800001 -0.051400717 1.5744454e-38 323 282
0.0048953067 0.69800001 -0.051400717 1.5376392e-38 324 282
0.0061103669 0.69700003 -0.051327083 1.5100165e-38 325 282
0.0073219193 0.69599998 -0.051253434 1.4915417e-38 326 282
0.0085422397 0.69599998 -0.051253434 1.4731025e-38 327 282
0.0097625591 0.69599998 -0.051253434 1.4454443e-38 328 282
0.01095132 0.69400001 -0.051106159 1.4454443e-38 329 282
0.012168133 0.69400001 -0.051106159 1.4821067e-38 330 282
0.013384946 0.69400001 -0.051106159 1.4637036e-38 331 282
0.01460176 0.69400001 -0.051106159 1.4819984e-38 332 282
0.015795778 0.69300002 -0.051032521 1.4635593e-38 333 282
0.01701084 0.69300002 -0.051032521 1.4726353e-38 334 282
0.018225901 0.69300002 -0.051032521 1.4542322e-38 335 282
0.01944096 0.69300002 -0.051032521 1.4449776e-38 336 282
0.020656019 0.69300002 -0.051032521 1.4357581e-38 337 282
0.021807959 0.69099998 -0.050885238 1.4173915e-38 338 282
0.023019511 0.69099998 -0.050885238 1.4173915e-38 339 282
0.024231065 0.69099998 -0.050885238 1.408136e-38 340 282
0.025442619 0.69099998 -0.050885238 1.408136e-38 341 282
0.026615599 0.69 -0.050811596 1.3804773e-38 342 282
0.027825398 0.69 -0.050811596 1.3528546e-38 343 282
0.029035198 0.69 -0.050811596 1.3619305e-38 344 282
0.030244999 0.69 -0.050811596 1.3434914e-38 345 282
0.031454802 0.69 -0.050811596 1.3251249e-38 346 282
0.032664597 0.69 -0.050811596 1.3159053e-38 347 282
0.0338744 0.69 -0.050811596 1.325053e-38 348 282
0.035084199 0.69 -0.050811596 1.3158334e-38 349 282
0.036346599 0.69099998 -0.050885238 1.2973586e-38 350 282
0.03755815 0.69099998 -0.050885238 1.2789194e-38 351 282
0.038769703 0.69099998 -0.050885238 1.2605882e-38 352 282
0.039981257 0.69099998 -0.050885238 1.2605882e-38 353 282
0.041192811 0.69099998 -0.050885238 1.2422567e-38 354 282
0.042527102 0.69300002 -0.051032521 1.2237817e-38 355 282
0.043742158 0.69300002 -0.051032521 1.2053804e-38 356 282
0.044957221 0.69300002 -0.051032521 1.1961608e-38 357 282
0.04617228 0.69300002 -0.051032521 1.1870507e-38 358 282
0.047455717 0.69400001 -0.051106159 1.2054538e-38 359 282
0.048672531 0.69400001 -0.051106159 1.1873025e-38 360 282
0.050105009 0.69700003 -0.051327083 1.2149252e-38 361 282
0.051327083 0.69700003 -0.051327083 1.2058489e-38 362 282
0.052624546 0.69800001 -0.051400717 1.2150684e-38 363 282
0.053848371 0.69800001 -0.051400717 1.2058852e-38 364 282
0.055229999 0.69999999 -0.051547997 1.1690429e-38 365 282
0.056457333 0.69999999 -0.051547997 1.1595378e-38 366 282
0.057767071 0.70099998 -0.051621638 1.1319151e-38 367 282
0.059164476 0.70300001 -0.051768921 1.040117e-38 368 282
0.060482983 0.704 -0.051842559 1.0493366e-38 369 282
0.061980337 0.70700002 -0.05206348 1.0221473e-38 370 282
0.063309364 0.708 -0.052137118 1.2249777e-38 371 282
0.06455072 0.708 -0.052137118 1.6777812e-38 372 282
0.065977924 0.70999998 -0.052284397 1.8713921e-38 373 282
0.067222796 0.70999998 -0.052284397 1.761046e-38 374 282
-0.012553867 0.71600002 -0.053981625 1.9453275e-38 310 283
-0.011266919 0.71399999 -0.053830836 1.5858004e-38 311 283
-0.0099729598 0.71100003 -0.053604662 1.5934332e-38 312 283
-0.0087140659 0.70999998 -0.053529263 1.5288962e-38 313 283
-0.0074691991 0.70999998 -0.053529263 1.6389866e-38 314 283
-0.0061980332 0.70700002 -0.053303085 1.6021085e-38 315 283
-0.0049584266 0.70700002 -0.053303085 1.5745547e-38 316 283
-0.0037135598 0.70599997 -0.053227689 1.5653352e-38 317 283
-0.0024686933 0.704 -0.053076904 1.5836295e-38 318 283
-0.0012325933 0.70300001 -0.053001512 1.5836295e-38 319 283
0 0.70099998 -0.052850723 1.5744454e-38 320 283
0.0012273333 0.69999999 -0.052775331 1.5744454e-38 321 283
0.0024476533 0.69800001 -0.052624546 1.5468944e-38 322 283
0.0036714801 0.69800001 -0.052624546 1.5376748e-38 323 283
0.0048953067 0.69800001 -0.052624546 1.5191279e-38 324 283
0.0061103669 0.69700003 -0.052549154 1.4915051e-38 325 283
0.0073219193 0.69599998 -0.052473757 1.4730304e-38 326 283
0.0085422397 0.69599998 -0.052473757 1.4638108e-38 327 283
0.0097345067 0.69400001 -0.052322973 1.4545559e-38 328 283
0.01095132 0.69400001 -0.052322973 1.4545559e-38 329 283
0.012168133 0.69400001 -0.052322973 1.4727802e-38 330 283
0.01336566 0.69300002 -0.05224758 1.4727802e-38 331 283
0.014580719 0.69300002 -0.05224758 1.463524e-38 332 283
0.015795778 0.69300002 -0.05224758 1.4543044e-38 333 283
0.01701084 0.69300002 -0.05224758 1.454232e-38 334 283
0.018225901 0.69300002 -0.05224758 1.4450124e-38 335 283
0.019384852 0.69099998 -0.052096792 1.4540886e-38 336 283
0.020596405 0.69099998 -0.052096792 1.4264659e-38 337 283
0.021807959 0.69099998 -0.052096792 1.4172832e-38 338 283
0.023019511 0.69099998 -0.052096792 1.4265028e-38 339 283
0.024195999 0.69 -0.052021399 1.4080281e-38 340 283
0.025405798 0.69 -0.052021399 1.3896249e-38 341 283
0.026615599 0.69 -0.052021399 1.3804057e-38 342 283
0.027825398 0.69 -0.052021399 1.3619305e-38 343 283
0.029035198 0.69 -0.052021399 1.352711e-38 344 283
0.030244999 0.69 -0.052021399 1.3250883e-38 345 283
0.031454802 0.69 -0.052021399 1.3250883e-38 346 283
0.032664597 0.69 -0.052021399 1.3158687e-38 347 283
0.0338744 0.69 -0.052021399 1.3158334e-38 348 283
0.035084199 0.69 -0.052021399 1.3066138e-38 349 283
0.036293998 0.69 -0.052021399 1.2973588e-38 350 283
0.03755815 0.69099998 -0.052096792 1.2788838e-38 351 283
0.038769703 0.69099998 -0.052096792 1.2513684e-38 352 283
0.039981257 0.69099998 -0.052096792 1.2513684e-38 353 283
0.041192811 0.69099998 -0.052096792 1.2238536e-38 354 283
0.042404365 0.69099998 -0.052096792 1.2054505e-38 355 283
0.043615919 0.69099998 -0.052096792 1.1870129e-38 356 283
0.044957221 0.69300002 -0.05224758 1.1777933e-38 357 283
0.04617228 0.69300002 -0.05224758 1.1501369e-38 358 283
0.047387339 0.69300002 -0.05224758 1.1777956e-38 359 283
0.048672531 0.69400001 -0.052322973 1.1687208e-38 360 283
0.050033119 0.69599998 -0.052473757 1.2055631e-38 361 283
0.051327083 0.69700003 -0.052549154 1.1965943e-38 362 283
0.052549154 0.69700003 -0.052549154 1.2058138e-38 363 283
0.053848371 0.69800001 -0.052624546 1.1965587e-38 364 283
0.055229999 0.69999999 -0.052775331 1.1689e-38 365 283
0.056457333 0.69999999 -0.052775331 1.1227318e-38 366 283
0.05768466 0.69999999 -0.052775331 1.1135123e-38 367 283
0.058996156 0.70099998 -0.052850723 1.0401523e-38 368 283
0.060482983 0.704 -0.053076904 1.0493719e-38 369 283
0.061980337 0.70700002 -0.053303085 1.0406938e-38 370 283
0.063309364 0.708 -0.053378478 1.2711468e-38 371 283
0.06455072 0.708 -0.053378478 1.7329185e-38 372 283
0.065977924 0.70999998 -0.053529263 1.8896511e-38 373 283
0.067222796 0.70999998 -0.053529263 1.7426068e-38 374 283
-0.011266919 0.71399999 -0.05508272 1.6226428e-38 311 284
-0.0099729598 0.71100003 -0.054851279 1.6303473e-38 312 284
-0.0087140659 0.70999998 -0.054774132 1.5196765e-38 313 284
-0.0074691991 0.70999998 -0.054774132 1.6206198e-38 314 284
-0.0061980332 0.70700002 -0.054542694 1.5929611e-38 315 284
-0.0049584266 0.70700002 -0.054542694 1.5470405e-38 316 284
