# .PCD v.7 - Point Cloud Data file format
FIELDS x y z rgb imX imY
SIZE 4 4 4 4 4 4
TYPE F F F F F F
COUNT 1 1 1 1 1 1
WIDTH 832
HEIGHT 1
VIEWPOINT 0 0 0 1 0 0 0
POINTS 832
DATA ascii
-0.010935539 0.69300002 -0.069258414 1.288534e-38 311 297
-0.0096924258 0.69099998 -0.069058537 1.2607328e-38 312 297
-0.008480873 0.69099998 -0.069058537 1.2422935e-38 313 297
-0.0072587994 0.69 -0.068958595 1.2147435e-38 314 297
-0.0060314666 0.68800002 -0.068758719 1.2055239e-38 315 297
-0.0048251734 0.68800002 -0.068758719 1.2055239e-38 316 297
-0.0036136196 0.68699998 -0.068658777 1.1779012e-38 317 297
-0.0024090798 0.68699998 -0.068658777 1.1411674e-38 318 297
-0.0012027866 0.68599999 -0.068558842 1.1042892e-38 319 297
0 0.68400002 -0.068358958 9.8461634e-39 320 297
0.00119928 0.68400002 -0.068358958 9.8461634e-39 321 297
0.0023985601 0.68400002 -0.068358958 9.6617876e-39 322 297
0.0035925799 0.68300003 -0.068259016 9.6617876e-39 323 297
0.0047901068 0.68300003 -0.068259016 9.4791942e-39 324 297
0.0059876335 0.68300003 -0.068259016 9.3869985e-39 325 297
0.0071851597 0.68300003 -0.068259016 9.3869985e-39 326 297
0.0083826864 0.68300003 -0.068259016 9.2029674e-39 327 297
0.0095802136 0.68300003 -0.068259016 9.6614372e-39 328 297
0.01077774 0.68300003 -0.068259016 9.6614372e-39 329 297
0.011975267 0.68300003 -0.068259016 9.4784879e-39 330 297
0.013153506 0.68199998 -0.068159081 9.5706835e-39 331 297
0.01434928 0.68199998 -0.068159081 9.9383815e-39 332 297
0.015545053 0.68199998 -0.068159081 9.9383815e-39 333 297
0.016740825 0.68199998 -0.068159081 9.9383787e-39 334 297
0.017936599 0.68199998 -0.068159081 9.753986e-39 335 297
0.019132372 0.68199998 -0.068159081 9.2937281e-39 336 297
0.020328145 0.68199998 -0.068159081 9.0175e-39 337 297
0.021523919 0.68199998 -0.068159081 8.9253043e-39 338 297
0.022719691 0.68199998 -0.068159081 8.9253043e-39 339 297
0.023915464 0.68199998 -0.068159081 8.741276e-39 340 297
0.025111238 0.68199998 -0.068159081 8.3724949e-39 341 297
0.026345588 0.68300003 -0.068259016 8.2795818e-39 342 297
0.027543113 0.68300003 -0.068259016 8.2795818e-39 343 297
0.028740639 0.68300003 -0.068259016 8.5561631e-39 344 297
0.029938167 0.68300003 -0.068259016 8.6483587e-39 345 297
0.031135695 0.68300003 -0.068259016 8.7401914e-39 346 297
0.032380559 0.68400002 -0.068358958 8.7401914e-39 347 297
0.033678025 0.68599999 -0.068558842 8.4650464e-39 348 297
0.034880809 0.68599999 -0.068558842 8.5572421e-39 349 297
0.036083598 0.68599999 -0.068558842 8.6505125e-39 350 297
0.037340738 0.68699998 -0.068658777 8.8349052e-39 351 297
0.038545277 0.68699998 -0.068658777 9.1111193e-39 352 297
0.039749816 0.68699998 -0.068658777 9.3873461e-39 353 297
0.040954359 0.68699998 -0.068658777 9.572096e-39 354 297
0.042220265 0.68800002 -0.068758719 9.6642931e-39 355 297
0.043426562 0.68800002 -0.068758719 1.0031999e-38 356 297
0.0447626 0.69 -0.068958595 1.0492978e-38 357 297
0.046039023 0.69099998 -0.069058537 1.0585899e-38 358 297
0.047387339 0.69300002 -0.069258414 1.1046877e-38 359 297
0.048672531 0.69400001 -0.069358356 1.1875559e-38 360 297
0.050105009 0.69700003 -0.069658175 1.2520928e-38 361 297
0.051400717 0.69800001 -0.069758117 1.3261387e-38 362 297
-0.018488899 0.70300001 -0.071490414 1.6037351e-38 305 298
-0.017207211 0.70099998 -0.071287021 1.4826178e-38 306 298
-0.015978126 0.70099998 -0.071287021 1.4273004e-38 307 298
-0.014727999 0.69999999 -0.071185328 1.4455922e-38 308 298
-0.013462093 0.69800001 -0.07098195 1.3534325e-38 309 298
-0.012168133 0.69400001 -0.07057517 1.343961e-38 310 298
-0.010935539 0.69300002 -0.070473477 1.2978271e-38 311 298
-0.0096924258 0.69099998 -0.070270091 1.2699536e-38 312 298
-0.0084686 0.69 -0.070168398 1.2515145e-38 313 298
-0.0072587994 0.69 -0.070168398 1.1963769e-38 314 298
-0.0060314666 0.68800002 -0.06996502 1.1871574e-38 315 298
-0.0048251734 0.68800002 -0.06996502 1.1779375e-38 316 298
-0.0036136196 0.68699998 -0.069863312 1.1503148e-38 317 298
-0.0024090798 0.68699998 -0.069863312 1.122657e-38 318 298
-0.0012027866 0.68599999 -0.069761619 1.0858148e-38 319 298
0 0.68599999 -0.069761619 1.012203e-38 320 298
0.00119928 0.68400002 -0.06955824 9.93728e-39 321 298
0.0023985601 0.68400002 -0.06955824 9.2036807e-39 322 298
0.0035925799 0.68300003 -0.069456547 9.2958763e-39 323 298
0.0047901068 0.68300003 -0.069456547 9.0203684e-39 324 298
0.0059876335 0.68300003 -0.069456547 8.9281728e-39 325 298
0.0071851597 0.68300003 -0.069456547 9.2015297e-39 326 298
0.0083826864 0.68300003 -0.069456547 9.2015297e-39 327 298
0.0095802136 0.68300003 -0.069456547 9.0178671e-39 328 298
0.01077774 0.68300003 -0.069456547 9.1100627e-39 329 298
0.011975267 0.68300003 -0.069456547 9.2029828e-39 330 298
0.013153506 0.68199998 -0.069354847 9.2951785e-39 331 298
0.01434928 0.68199998 -0.069354847 9.5710395e-39 332 298
0.015545053 0.68199998 -0.069354847 9.5710395e-39 333 298
0.016740825 0.68199998 -0.069354847 9.478841e-39 334 298
0.017936599 0.68199998 -0.069354847 9.2026143e-39 335 298
0.019132372 0.68199998 -0.069354847 9.017151e-39 336 298
0.020328145 0.68199998 -0.069354847 8.8323996e-39 337 298
0.021523919 0.68199998 -0.069354847 8.8327556e-39 338 298
0.022719691 0.68199998 -0.069354847 8.8327556e-39 339 298
0.023915464 0.68199998 -0.069354847 8.4654122e-39 340 298
0.025111238 0.68199998 -0.069354847 8.1891854e-39 341 298
0.026345588 0.68300003 -0.069456547 8.2803021e-39 342 298
0.027543113 0.68300003 -0.069456547 8.3724977e-39 343 298
0.028740639 0.68300003 -0.069456547 8.3735669e-39 344 298
0.029938167 0.68300003 -0.069456547 8.1895357e-39 345 298
0.031135695 0.68300003 -0.069456547 8.6479958e-39 346 298
0.032380559 0.68400002 -0.06955824 8.6479958e-39 347 298
0.033678025 0.68599999 -0.069761619 8.3728508e-39 348 298
0.034880809 0.68599999 -0.069761619 8.4650464e-39 349 298
0.036136195 0.68699998 -0.069863312 8.7416291e-39 350 298
0.037340738 0.68699998 -0.069863312 8.9260204e-39 351 298
0.038545277 0.68699998 -0.069863312 9.1111221e-39 352 298
0.039749816 0.68699998 -0.069863312 9.3873489e-39 353 298
0.041013971 0.68800002 -0.06996502 9.4809752e-39 354 298
0.042220265 0.68800002 -0.06996502 9.8497563e-39 355 298
0.043426562 0.68800002 -0.06996502 1.0309662e-38 356 298
0.0447626 0.69 -0.070168398 1.0586249e-38 357 298
0.04617228 0.69300002 -0.070473477 1.0954682e-38 358 298
0.047455717 0.69400001 -0.07057517 1.1231268e-38 359 298
0.048672531 0.69400001 -0.07057517 1.187484e-38 360 298
0.050105009 0.69700003 -0.070880257 1.3257774e-38 361 298
0.051400717 0.69800001 -0.07098195 1.4646845e-38 362 298
-0.018488899 0.70300001 -0.072723009 1.6867479e-38 305 299
-0.017207211 0.70099998 -0.072516106 1.5013087e-38 306 299
-0.015978126 0.70099998 -0.072516106 1.3998576e-38 307 299
-0.014749039 0.70099998 -0.072516106 1.4363007e-38 308 299
-0.013500666 0.69999999 -0.072412662 1.390203e-38 309 299
-0.012168133 0.69400001 -0.071791984 1.3715474e-38 310 299
-0.010935539 0.69300002 -0.07168854 1.3070104e-38 311 299
-0.0096924258 0.69099998 -0.071481638 1.2975753e-38 312 299
-0.0084686 0.69 -0.071378194 1.2606972e-38 313 299
-0.0072587994 0.69 -0.071378194 1.2056319e-38 314 299
-0.0060314666 0.68800002 -0.071171306 1.1871927e-38 315 299
-0.0048251734 0.68800002 -0.071171306 1.1503151e-38 316 299
-0.0036136196 0.68699998 -0.071067855 1.1226204e-38 317 299
-0.0024090798 0.68699998 -0.071067855 1.0583003e-38 318 299
-0.0012027866 0.68599999 -0.070964411 1.0398611e-38 319 299
0 0.68599999 -0.070964411 9.7546866e-39 320 299
0.00119928 0.68400002 -0.070757523 9.7546866e-39 321 299
0.0023985601 0.68400002 -0.070757523 9.2965854e-39 322 299
0.0035925799 0.68300003 -0.070654072 9.2965854e-39 323 299
0.0047901068 0.68300003 -0.070654072 9.2033177e-39 324 299
0.0059876335 0.68300003 -0.070654072 9.0185677e-39 325 299
0.0071851597 0.68300003 -0.070654072 8.834908e-39 326 299
0.0083826864 0.68300003 -0.070654072 8.7423522e-39 327 299
0.0095802136 0.68300003 -0.070654072 8.5594127e-39 328 299
0.01077774 0.68300003 -0.070654072 8.5594127e-39 329 299
0.011975267 0.68300003 -0.070654072 8.651974e-39 330 299
0.013172794 0.68300003 -0.070654072 8.7441697e-39 331 299
0.014370319 0.68300003 -0.070654072 8.7445228e-39 332 299
0.015567848 0.68300003 -0.070654072 8.7445228e-39 333 299
0.016765373 0.68300003 -0.070654072 9.1107844e-39 334 299
0.017962901 0.68300003 -0.070654072 8.8341989e-39 335 299
0.019160427 0.68300003 -0.070654072 8.7409229e-39 336 299
0.020328145 0.68199998 -0.070550621 8.5568917e-39 337 299
0.021523919 0.68199998 -0.070550621 8.3742984e-39 338 299
0.022719691 0.68199998 -0.070550621 8.2821027e-39 339 299
0.023915464 0.68199998 -0.070550621 8.3724977e-39 340 299
0.02514806 0.68300003 -0.070654072 8.3724977e-39 341 299
0.026345588 0.68300003 -0.070654072 8.1895386e-39 342 299
0.027543113 0.68300003 -0.070654072 8.3735697e-39 343 299
0.028740639 0.68300003 -0.070654072 8.280651e-39 344 299
0.029938167 0.68300003 -0.070654072 8.280651e-39 345 299
0.031135695 0.68300003 -0.070654072 8.3717788e-39 346 299
0.032333218 0.68300003 -0.070654072 8.3717788e-39 347 299
0.033579841 0.68400002 -0.070757523 8.2803021e-39 348 299
0.034880809 0.68599999 -0.070964411 8.3724977e-39 349 299
0.036136195 0.68699998 -0.071067855 8.1902574e-39 350 299
0.037340738 0.68699998 -0.071067855 8.4668443e-39 351 299
0.038545277 0.68699998 -0.071067855 8.8359771e-39 352 299
0.039749816 0.68699998 -0.071067855 9.2965952e-39 353 299
0.041013971 0.68800002 -0.071171306 9.7572076e-39 354 299
0.042220265 0.68800002 -0.071171306 1.012635e-38 355 299
0.043552797 0.69 -0.071378194 1.0586252e-38 356 299
0.0447626 0.69 -0.071378194 1.0954676e-38 357 299
0.04617228 0.69300002 -0.07168854 1.1322385e-38 358 299
0.047455717 0.69400001 -0.071791984 1.1783363e-38 359 299
0.048672531 0.69400001 -0.071791984 1.2059234e-38 360 299
0.050105009 0.69700003 -0.072102323 1.3718395e-38 361 299
-0.018488899 0.70300001 -0.073955595 1.751393e-38 305 300
-0.017256306 0.70300001 -0.073955595 1.5293281e-38 306 300
-0.016023712 0.70300001 -0.073955595 1.3818151e-38 307 300
-0.014791119 0.70300001 -0.073955595 1.418043e-38 308 300
-0.013500666 0.69999999 -0.073639996 1.3903845e-38 309 300
-0.0122032 0.69599998 -0.073219195 1.3442143e-38 310 300
-0.01095132 0.69400001 -0.073008798 1.2981165e-38 311 300
-0.0096924258 0.69099998 -0.072693199 1.2701704e-38 312 300
-0.0084686 0.69 -0.072587997 1.233328e-38 313 300
-0.0072587994 0.69 -0.072587997 1.2055616e-38 314 300
-0.0060314666 0.68800002 -0.0723776 1.1871223e-38 315 300
-0.0048251734 0.68800002 -0.0723776 1.1410249e-38 316 300
-0.0036136196 0.68699998 -0.07227239 1.1133661e-38 317 300
-0.0024090798 0.68699998 -0.07227239 1.0581931e-38 318 300
-0.0012027866 0.68599999 -0.072167195 1.0213147e-38 319 300
0 0.68599999 -0.072167195 9.6621407e-39 320 300
0.00119928 0.68400002 -0.071956798 9.3859139e-39 321 300
0.0023985601 0.68400002 -0.071956798 9.5699451e-39 322 300
0.0035925799 0.68300003 -0.071851604 9.6621407e-39 323 300
0.0047901068 0.68300003 -0.071851604 9.2029646e-39 324 300
0.0059876335 0.68300003 -0.071851604 8.9260176e-39 325 300
0.0071851597 0.68300003 -0.071851604 8.742355e-39 326 300
0.0083826864 0.68300003 -0.071851604 8.742355e-39 327 300
0.0095802136 0.68300003 -0.071851604 8.5597658e-39 328 300
0.01077774 0.68300003 -0.071851604 8.5597658e-39 329 300
0.011975267 0.68300003 -0.071851604 8.5601287e-39 330 300
0.013172794 0.68300003 -0.071851604 8.5601287e-39 331 300
0.014370319 0.68300003 -0.071851604 9.018586e-39 332 300
0.015567848 0.68300003 -0.071851604 9.018586e-39 333 300
0.016765373 0.68300003 -0.071851604 9.293375e-39 334 300
0.017962901 0.68300003 -0.071851604 9.0171468e-39 335 300
0.019160427 0.68300003 -0.071851604 8.6501622e-39 336 300
0.020357953 0.68300003 -0.071851604 8.5576078e-39 337 300
0.021523919 0.68199998 -0.071746394 8.465415e-39 338 300
0.022719691 0.68199998 -0.071746394 8.465415e-39 339 300
0.023915464 0.68199998 -0.071746394 8.1891882e-39 340 300
0.02514806 0.68300003 -0.071851604 8.1891882e-39 341 300
0.026345588 0.68300003 -0.071851604 8.1899015e-39 342 300
0.027543113 0.68300003 -0.071851604 8.1899015e-39 343 300
0.028740639 0.68300003 -0.071851604 8.3717746e-39 344 300
0.029938167 0.68300003 -0.071851604 8.3717746e-39 345 300
0.031135695 0.68300003 -0.071851604 8.46325e-39 346 300
0.032333218 0.68300003 -0.071851604 8.5554456e-39 347 300
0.033579841 0.68400002 -0.071956798 8.2802978e-39 348 300
0.034880809 0.68599999 -0.072167195 8.1881022e-39 349 300
0.036136195 0.68699998 -0.07227239 8.4650492e-39 350 300
0.037340738 0.68699998 -0.07227239 8.8334716e-39 351 300
0.038545277 0.68699998 -0.07227239 8.92817e-39 352 300
0.039807681 0.68800002 -0.0723776 9.2969511e-39 353 300
0.041013971 0.68800002 -0.0723776 9.8490375e-39 354 300
0.042220265 0.68800002 -0.0723776 1.0310014e-38 355 300
0.043552797 0.69 -0.072587997 1.0770283e-38 356 300
0.044827472 0.69099998 -0.072693199 1.104723e-38 357 300
0.04617228 0.69300002 -0.072903603 1.141423e-38 358 300
0.047455717 0.69400001 -0.073008798 1.1598622e-38 359 300
0.048672531 0.69400001 -0.073008798 1.2149644e-38 360 300
0.049889345 0.69400001 -0.073008798 1.5100263e-38 361 300
-0.018488899 0.70300001 -0.07518819 1.760721e-38 305 301
-0.017256306 0.70300001 -0.07518819 1.6125931e-38 306 301
-0.016023712 0.70300001 -0.07518819 1.4189823e-38 307 301
-0.014791119 0.70300001 -0.07518819 1.4274428e-38 308 301
-0.013519952 0.70099998 -0.074974284 1.381345e-38 309 301
-0.012238266 0.69800001 -0.074653424 1.3810553e-38 310 301
-0.01095132 0.69400001 -0.074225612 1.3257379e-38 311 301
-0.0097345067 0.69400001 -0.074225612 1.3162666e-38 312 301
-0.0085054198 0.69300002 -0.074118659 1.2517296e-38 313 301
-0.0072587994 0.69 -0.0737978 1.2055972e-38 314 301
-0.0060489997 0.69 -0.0737978 1.1779025e-38 315 301
-0.0048251734 0.68800002 -0.073583893 1.1501365e-38 316 301
-0.0036188802 0.68800002 -0.073583893 1.1040388e-38 317 301
-0.0024090798 0.68699998 -0.073476933 1.0121677e-38 318 301
-0.0012045399 0.68699998 -0.073476933 9.8447313e-39 319 301
0 0.68599999 -0.073369987 9.2933652e-39 320 301
0.0012027866 0.68599999 -0.073369987 9.2933652e-39 321 301
0.0023985601 0.68400002 -0.073156074 9.0178643e-39 322 301
0.00359784 0.68400002 -0.073156074 9.1104187e-39 323 301
0.0047971201 0.68400002 -0.073156074 9.293012e-39 324 301
0.0059876335 0.68300003 -0.073049128 9.293012e-39 325 301
0.0071851597 0.68300003 -0.073049128 8.7430753e-39 326 301
0.0083826864 0.68300003 -0.073049128 8.7430753e-39 327 301
0.0095802136 0.68300003 -0.073049128 8.6505265e-39 328 301
0.01077774 0.68300003 -0.073049128 8.6505265e-39 329 301
0.011975267 0.68300003 -0.073049128 8.4672171e-39 330 301
0.013172794 0.68300003 -0.073049128 8.4672171e-39 331 301
0.014370319 0.68300003 -0.073049128 8.6501734e-39 332 301
0.015567848 0.68300003 -0.073049128 8.6501734e-39 333 301
0.016765373 0.68300003 -0.073049128 8.6505293e-39 334 301
0.017962901 0.68300003 -0.073049128 8.6505293e-39 335 301
0.019160427 0.68300003 -0.073049128 8.3750144e-39 336 301
0.020357953 0.68300003 -0.073049128 8.2828188e-39 337 301
0.02155548 0.68300003 -0.073049128 8.3742984e-39 338 301
0.022753006 0.68300003 -0.073049128 8.2821027e-39 339 301
0.023950534 0.68300003 -0.073049128 8.1899043e-39 340 301
0.02514806 0.68300003 -0.073049128 8.2820999e-39 341 301
0.026345588 0.68300003 -0.073049128 8.2824502e-39 342 301
0.027543113 0.68300003 -0.073049128 8.3746459e-39 343 301
0.028740639 0.68300003 -0.073049128 8.5575952e-39 344 301
0.029938167 0.68300003 -0.073049128 8.5575952e-39 345 301
0.031135695 0.68300003 -0.073049128 8.4653996e-39 346 301
0.032380559 0.68400002 -0.073156074 8.4653996e-39 347 301
0.033579841 0.68400002 -0.073156074 8.4650436e-39 348 301
0.034880809 0.68599999 -0.073369987 8.4650436e-39 349 301
0.036136195 0.68699998 -0.073476933 8.5583141e-39 350 301
0.037340738 0.68699998 -0.073476933 9.0192922e-39 351 301
0.038601387 0.68800002 -0.073583893 9.1129172e-39 352 301
0.039807681 0.68800002 -0.073583893 9.4816997e-39 353 301
0.041013971 0.68800002 -0.073583893 1.0217463e-38 354 301
0.042342998 0.69 -0.0737978 1.0586605e-38 355 301
0.043615919 0.69099998 -0.073904753 1.0771364e-38 356 301
0.044957221 0.69300002 -0.074118659 1.1140145e-38 357 301
0.046238903 0.69400001 -0.074225612 1.1322035e-38 358 301
0.047455717 0.69400001 -0.074225612 1.1506426e-38 359 301
0.048672531 0.69400001 -0.074225612 1.3445071e-38 360 301
-0.018515198 0.704 -0.076529488 1.7239153e-38 305 302
-0.017256306 0.70300001 -0.076420791 1.6404691e-38 306 302
-0.016023712 0.70300001 -0.076420791 1.4837007e-38 307 302
-0.014812159 0.704 -0.076529488 1.4643582e-38 308 302
-0.013558527 0.70300001 -0.076420791 1.3998212e-38 309 302
-0.012273333 0.69999999 -0.076094657 1.3629053e-38 310 302
-0.01095132 0.69400001 -0.075442426 1.2983683e-38 311 302
-0.0097345067 0.69400001 -0.075442426 1.2888253e-38 312 302
-0.0085054198 0.69300002 -0.075333714 1.2426915e-38 313 302
-0.0072693196 0.69099998 -0.075116299 1.2147817e-38 314 302
-0.0060489997 0.69 -0.075007595 1.187087e-38 315 302
-0.0048391996 0.69 -0.075007595 1.1318417e-38 316 302
-0.0036188802 0.68800002 -0.074790187 1.0857797e-38 317 302
-0.0024090798 0.68699998 -0.074681476 1.0121677e-38 318 302
-0.0012045399 0.68699998 -0.074681476 9.7525356e-39 319 302
0 0.68599999 -0.074572764 9.3841245e-39 320 302
0.0012027866 0.68599999 -0.074572764 9.3841245e-39 321 302
0.0023985601 0.68400002 -0.074355356 9.0171468e-39 322 302
0.00359784 0.68400002 -0.074355356 9.2011794e-39 323 302
0.0047971201 0.68400002 -0.074355356 9.0185832e-39 324 302
0.0059876335 0.68300003 -0.074246652 9.0185832e-39 325 302
0.0071851597 0.68300003 -0.074246652 8.8352709e-39 326 302
0.0083826864 0.68300003 -0.074246652 8.8352709e-39 327 302
0.0095802136 0.68300003 -0.074246652 8.7430781e-39 328 302
0.01077774 0.68300003 -0.074246652 8.7430781e-39 329 302
0.011975267 0.68300003 -0.074246652 8.7423578e-39 330 302
0.013172794 0.68300003 -0.074246652 8.7423578e-39 331 302
0.014370319 0.68300003 -0.074246652 8.650881e-39 332 302
0.015567848 0.68300003 -0.074246652 8.4664912e-39 333 302
0.016765373 0.68300003 -0.074246652 8.4664968e-39 334 302
0.017962901 0.68300003 -0.074246652 8.4664968e-39 335 302
0.019160427 0.68300003 -0.074246652 8.2824657e-39 336 302
0.020357953 0.68300003 -0.074246652 8.3746613e-39 337 302
0.02155548 0.68300003 -0.074246652 8.3750172e-39 338 302
0.022753006 0.68300003 -0.074246652 8.3750172e-39 339 302
0.023950534 0.68300003 -0.074246652 8.3742955e-39 340 302
0.02514806 0.68300003 -0.074246652 8.4664912e-39 341 302
0.026345588 0.68300003 -0.074246652 8.3753675e-39 342 302
0.027543113 0.68300003 -0.074246652 8.4675632e-39 343 302
0.028740639 0.68300003 -0.074246652 8.4679163e-39 344 302
0.029938167 0.68300003 -0.074246652 8.3757207e-39 345 302
0.03118128 0.68400002 -0.074355356 8.2846012e-39 346 302
0.032380559 0.68400002 -0.074355356 8.1924056e-39 347 302
0.033678025 0.68599999 -0.074572764 8.4679163e-39 348 302
0.034931656 0.68699998 -0.074681476 8.3757207e-39 349 302
0.036136195 0.68699998 -0.074681476 8.8363401e-39 350 302
0.037395094 0.68800002 -0.074790187 9.0210901e-39 351 302
0.038601387 0.68800002 -0.074790187 9.664656e-39 352 302
0.0399234 0.69 -0.075007595 9.9416016e-39 353 302
0.041133199 0.69 -0.075007595 1.0677366e-38 354 302
0.042404365 0.69099998 -0.075116299 1.0954312e-38 355 302
0.043615919 0.69099998 -0.075116299 1.1139789e-38 356 302
0.044957221 0.69300002 -0.075333714 1.1324539e-38 357 302
0.046372157 0.69599998 -0.075659841 1.1414233e-38 358 302
0.047592476 0.69599998 -0.075659841 1.1598624e-38 359 302
0.048812799 0.69599998 -0.075659841 1.3726343e-38 360 302
-0.017256306 0.70300001 -0.077653378 1.6589453e-38 306 303
-0.016023712 0.70300001 -0.077653378 1.5298714e-38 307 303
-0.014812159 0.704 -0.077763841 1.4830858e-38 308 303
-0.013558527 0.70300001 -0.077653378 1.39089e-38 309 303
-0.012290866 0.70099998 -0.077432454 1.427226e-38 310 303
-0.01101444 0.69800001 -0.077101074 1.362689e-38 311 303
-0.0097345067 0.69400001 -0.07665924 1.3164114e-38 312 303
-0.0085054198 0.69300002 -0.076548778 1.2610941e-38 313 303
-0.0072903596 0.69300002 -0.076548778 1.2331845e-38 314 303
-0.0060577663 0.69099998 -0.076327853 1.1871226e-38 315 303
-0.0048391996 0.69 -0.076217398 1.1135104e-38 316 303
-0.0036188802 0.68800002 -0.075996481 1.0674485e-38 317 303
-0.0024125867 0.68800002 -0.075996481 1.00302e-38 318 303
-0.0012045399 0.68699998 -0.075886011 9.661419e-39 319 303
0 0.68699998 -0.075886011 9.0178643e-39 320 303
0.0012045399 0.68699998 -0.075886011 8.9256673e-39 321 303
0.0024055731 0.68599999 -0.075775556 8.7430781e-39 322 303
0.00360836 0.68599999 -0.075775556 8.8352737e-39 323 303
0.0048111463 0.68599999 -0.075775556 8.8363457e-39 324 303
0.0059964 0.68400002 -0.075554639 8.9285413e-39 325 303
0.0071956799 0.68400002 -0.075554639 9.2033303e-39 326 303
0.0083826864 0.68300003 -0.075444184 9.1111347e-39 327 303
0.0095802136 0.68300003 -0.075444184 9.1111347e-39 328 303
0.01077774 0.68300003 -0.075444184 9.0189391e-39 329 303
0.011975267 0.68300003 -0.075444184 8.7430753e-39 330 303
0.01319208 0.68400002 -0.075554639 8.7430753e-39 331 303
0.014370319 0.68300003 -0.075444184 8.2838978e-39 332 303
0.015567848 0.68300003 -0.075444184 8.1917022e-39 333 303
0.016789921 0.68400002 -0.075554639 8.0991506e-39 334 303
0.017962901 0.68300003 -0.075444184 8.0991506e-39 335 303
0.019160427 0.68300003 -0.075444184 8.0991534e-39 336 303
0.020357953 0.68300003 -0.075444184 8.191349e-39 337 303
0.02155548 0.68300003 -0.075444184 8.3746613e-39 338 303
0.022753006 0.68300003 -0.075444184 8.4672171e-39 339 303
0.023950534 0.68300003 -0.075444184 8.5597658e-39 340 303
0.02514806 0.68300003 -0.075444184 8.5597658e-39 341 303
0.026345588 0.68300003 -0.075444184 8.5597602e-39 342 303
0.027543113 0.68300003 -0.075444184 8.5597602e-39 343 303
0.02878272 0.68400002 -0.075554639 8.652309e-39 344 303
0.029982001 0.68400002 -0.075554639 8.5601133e-39 345 303
0.03118128 0.68400002 -0.075554639 8.5601105e-39 346 303
0.032475237 0.68599999 -0.075775556 8.5601105e-39 347 303
0.033678025 0.68599999 -0.075775556 8.8359771e-39 348 303
0.034931656 0.68699998 -0.075886011 8.9281728e-39 349 303
0.036136195 0.68699998 -0.075886011 9.1132829e-39 350 303
0.037395094 0.68800002 -0.075996481 9.2980343e-39 351 303
0.038601387 0.68800002 -0.075996481 9.849406e-39 352 303
0.0399234 0.69 -0.076217398 1.0125994e-38 353 303
0.041192811 0.69099998 -0.076327853 1.0770283e-38 354 303
0.042527102 0.69300002 -0.076548778 1.104723e-38 355 303
0.043742158 0.69300002 -0.076548778 1.14153e-38 356 303
0.045022093 0.69400001 -0.07665924 1.1600051e-38 357 303
0.046438783 0.69700003 -0.076990619 1.1600066e-38 358 303
0.047660861 0.69700003 -0.076990619 1.1876653e-38 359 303
0.049093332 0.69999999 -0.077321991 1.3175696e-38 360 303
-0.016046507 0.704 -0.078998186 1.557602e-38 307 304
-0.014812159 0.704 -0.078998186 1.5202886e-38 308 304
-0.013558527 0.70300001 -0.078885972 1.4004343e-38 309 304
-0.012290866 0.70099998 -0.078661539 1.4550289e-38 310 304
-0.011045999 0.69999999 -0.078549333 1.3812724e-38 311 304
-0.0097345067 0.69400001 -0.077876054 1.4083543e-38 312 304
-0.0085054198 0.69300002 -0.077763841 1.3345978e-38 313 304
-0.0072903596 0.69300002 -0.077763841 1.2700258e-38 314 304
-0.0060577663 0.69099998 -0.077539407 1.2147084e-38 315 304
-0.0048462129 0.69099998 -0.077539407 1.1502445e-38 316 304
-0.0036293997 0.69 -0.077427194 1.1225857e-38 317 304
-0.0024125867 0.68800002 -0.077202775 1.049081e-38 318 304
-0.0012062934 0.68800002 -0.077202775 1.0029832e-38 319 304
0 0.68699998 -0.077090554 9.2940784e-39 320 304
0.0012045399 0.68699998 -0.077090554 9.2018828e-39 321 304
0.0024055731 0.68599999 -0.076978341 9.1111319e-39 322 304
0.00360836 0.68599999 -0.076978341 9.2036863e-39 323 304
0.0048111463 0.68599999 -0.076978341 9.3873517e-39 324 304
0.0060139326 0.68599999 -0.076978341 9.5717429e-39 325 304
0.0072167199 0.68599999 -0.076978341 9.8465319e-39 326 304
0.0083949603 0.68400002 -0.076753922 9.7543363e-39 327 304
0.0095942402 0.68400002 -0.076753922 9.4788284e-39 328 304
0.01077774 0.68300003 -0.076641709 9.4788284e-39 329 304
0.011975267 0.68300003 -0.076641709 9.1114878e-39 330 304
0.01319208 0.68400002 -0.076753922 9.0192922e-39 331 304
0.01439136 0.68400002 -0.076753922 8.5597602e-39 332 304
0.01559064 0.68400002 -0.076753922 8.5597602e-39 333 304
0.016789921 0.68400002 -0.076753922 8.4675632e-39 334 304
0.017962901 0.68300003 -0.076641709 8.3753675e-39 335 304
0.019160427 0.68300003 -0.076641709 8.4672142e-39 336 304
0.020357953 0.68300003 -0.076641709 8.4672142e-39 337 304
0.02155548 0.68300003 -0.076641709 8.7427221e-39 338 304
0.022753006 0.68300003 -0.076641709 8.8349178e-39 339 304
0.023950534 0.68300003 -0.076641709 8.9274693e-39 340 304
0.02514806 0.68300003 -0.076641709 8.9274693e-39 341 304
0.026345588 0.68300003 -0.076641709 8.9278225e-39 342 304
0.027543113 0.68300003 -0.076641709 8.9278225e-39 343 304
0.02886688 0.68599999 -0.076978341 8.8363401e-39 344 304
0.030069664 0.68599999 -0.076978341 8.652309e-39 345 304
0.031272452 0.68599999 -0.076978341 8.7434284e-39 346 304
0.032522578 0.68699998 -0.077090554 8.7434284e-39 347 304
0.033727121 0.68699998 -0.077090554 8.8356268e-39 348 304
0.034931656 0.68699998 -0.077090554 9.1122137e-39 349 304
0.0361888 0.68800002 -0.077202775 9.4809906e-39 350 304
0.037503798 0.69 -0.077427194 9.6657406e-39 351 304
0.038769703 0.69099998 -0.077539407 1.0309309e-38 352 304
0.039981257 0.69099998 -0.077539407 1.0585896e-38 353 304
0.041312039 0.69300002 -0.077763841 1.1137991e-38 354 304
0.042527102 0.69300002 -0.077763841 1.1414937e-38 355 304
0.043805279 0.69400001 -0.077876054 1.1507498e-38 356 304
0.045151837 0.69599998 -0.078100473 1.1784445e-38 357 304
0.046505414 0.69800001 -0.078324907 1.1693707e-38 358 304
0.047729239 0.69800001 -0.078324907 1.2154685e-38 359 304
0.049093332 0.69999999 -0.078549333 1.2347375e-38 360 304
-0.013558527 0.70300001 -0.080118567 1.4742644e-38 309 305
-0.012290866 0.70099998 -0.079890631 1.4553548e-38 310 305
-0.011045999 0.69999999 -0.079776667 1.3539755e-38 311 305
-0.0097345067 0.69400001 -0.079092868 1.3809852e-38 312 305
-0.0085054198 0.69300002 -0.078978904 1.3256679e-38 313 305
-0.0072903596 0.69300002 -0.078978904 1.2425843e-38 314 305
-0.0060577663 0.69099998 -0.078750968 1.1965224e-38 315 305
-0.0048462129 0.69099998 -0.078750968 1.1412413e-38 316 305
-0.0036293997 0.69 -0.078636996 1.104363e-38 317 305
-0.0024195998 0.69 -0.078636996 1.0216747e-38 318 305
-0.0012097999 0.69 -0.078636996 9.939801e-39 319 305
0 0.68800002 -0.078409068 9.2036835e-39 320 305
0.0012045399 0.68699998 -0.078295097 9.1114878e-39 321 305
0.0024090798 0.68699998 -0.078295097 9.295526e-39 322 305
0.00360836 0.68599999 -0.078181133 9.3877216e-39 323 305
0.0048111463 0.68599999 -0.078181133 9.6632225e-39 324 305
0.0060139326 0.68599999 -0.078181133 9.9394506e-39 325 305
0.0072167199 0.68599999 -0.078181133 1.0031999e-38 326 305
0.0084195063 0.68599999 -0.078181133 9.9398038e-39 327 305
0.0095942402 0.68400002 -0.077953197 9.8472522e-39 328 305
0.01079352 0.68400002 -0.077953197 9.6632197e-39 329 305
0.012027865 0.68599999 -0.078181133 9.2033303e-39 330 305
0.013230653 0.68599999 -0.078181133 9.2033303e-39 331 305
0.01439136 0.68400002 -0.077953197 8.6519586e-39 332 305
0.01559064 0.68400002 -0.077953197 8.6519586e-39 333 305
0.016789921 0.68400002 -0.077953197 8.5604819e-39 334 305
0.0179892 0.68400002 -0.077953197 8.4682862e-39 335 305
0.01918848 0.68400002 -0.077953197 8.4679303e-39 336 305
0.020387759 0.68400002 -0.077953197 8.5601259e-39 337 305
0.02158704 0.68400002 -0.077953197 8.9274721e-39 338 305
0.022786319 0.68400002 -0.077953197 9.1118634e-39 339 305
0.0239856 0.68400002 -0.077953197 9.1118606e-39 340 305
0.025184879 0.68400002 -0.077953197 9.1118606e-39 341 305
0.02638416 0.68400002 -0.077953197 9.1125696e-39 342 305
0.027583439 0.68400002 -0.077953197 9.1125696e-39 343 305
0.028908957 0.68699998 -0.078295097 8.9285385e-39 344 305
0.030113498 0.68699998 -0.078295097 8.6523118e-39 345 305
0.031318039 0.68699998 -0.078295097 8.7430781e-39 346 305
0.032522578 0.68699998 -0.078295097 8.650881e-39 347 305
0.033727121 0.68699998 -0.078295097 8.834552e-39 348 305
0.03498251 0.68800002 -0.078409068 9.2955288e-39 349 305
0.0361888 0.68800002 -0.078409068 9.7568544e-39 350 305
0.037503798 0.69 -0.078636996 1.0125997e-38 351 305
0.03888192 0.69300002 -0.078978904 1.0677366e-38 352 305
0.04009698 0.69300002 -0.078978904 1.0954312e-38 353 305
0.041312039 0.69300002 -0.078978904 1.1322738e-38 354 305
0.042588469 0.69400001 -0.079092868 1.1507129e-38 355 305
0.043805279 0.69400001 -0.079092868 1.1598975e-38 356 305
0.045151837 0.69599998 -0.079320796 1.1967757e-38 357 305
0.046505414 0.69800001 -0.079548739 1.1601511e-38 358 305
0.047729239 0.69800001 -0.079548739 1.1785904e-38 359 305
-0.013519952 0.70099998 -0.081119716 1.5114316e-38 309 306
-0.012290866 0.70099998 -0.081119716 1.4833027e-38 310 306
-0.011045999 0.69999999 -0.081004001 1.3450093e-38 311 306
-0.0097765867 0.69700003 -0.080656841 1.3628702e-38 312 306
-0.0085176928 0.69400001 -0.080309682 1.279894e-38 313 306
-0.0073008798 0.69400001 -0.080309682 1.3162315e-38 314 306
-0.0060753003 0.69300002 -0.080193959 1.2516946e-38 315 306
-0.0048462129 0.69099998 -0.079962514 1.2057038e-38 316 306
-0.0036346598 0.69099998 -0.079962514 1.1596419e-38 317 306
-0.0024231065 0.69099998 -0.079962514 1.1043245e-38 318 306
-0.0012115532 0.69099998 -0.079962514 1.0766299e-38 319 306
0 0.68800002 -0.079615362 1.0030548e-38 320 306
0.0012062934 0.68800002 -0.079615362 1.0030548e-38 321 306
0.0024125867 0.68800002 -0.079615362 1.0122394e-38 322 306
0.0036136196 0.68699998 -0.079499632 1.0307144e-38 323 306
0.0048181596 0.68699998 -0.079499632 1.0858513e-38 324 306
0.0060226996 0.68699998 -0.079499632 1.0858513e-38 325 306
0.0072272392 0.68699998 -0.079499632 1.0857794e-38 326 306
0.0084195063 0.68599999 -0.079383917 1.0765599e-38 327 306
0.0096222926 0.68599999 -0.079383917 1.0489738e-38 328 306
0.010825079 0.68599999 -0.079383917 1.0397542e-38 329 306
0.012027865 0.68599999 -0.079383917 1.0029844e-38 330 306
0.013230653 0.68599999 -0.079383917 1.0029844e-38 331 306
0.01443344 0.68599999 -0.079383917 9.4795473e-39 332 306
0.015636226 0.68599999 -0.079383917 9.3873517e-39 333 306
0.016789921 0.68400002 -0.07915248 9.2036835e-39 334 306
0.0179892 0.68400002 -0.07915248 9.2036835e-39 335 306
0.01918848 0.68400002 -0.07915248 8.9274665e-39 336 306
0.020387759 0.68400002 -0.07915248 9.1122165e-39 337 306
0.02158704 0.68400002 -0.07915248 9.1118606e-39 338 306
0.022786319 0.68400002 -0.07915248 9.1118606e-39 339 306
0.0239856 0.68400002 -0.07915248 9.020737e-39 340 306
0.025184879 0.68400002 -0.07915248 9.020737e-39 341 306
0.02638416 0.68400002 -0.07915248 9.1129298e-39 342 306
0.027704418 0.68699998 -0.079499632 9.0207341e-39 343 306
0.028908957 0.68699998 -0.079499632 8.9278225e-39 344 306
0.030113498 0.68699998 -0.079499632 8.7430725e-39 345 306
0.031363625 0.68800002 -0.079615362 9.0178643e-39 346 306
0.032569919 0.68800002 -0.079615362 9.0178643e-39 347 306
0.033776212 0.68800002 -0.079615362 9.4784753e-39 348 306
0.03498251 0.68800002 -0.079615362 9.9394534e-39 349 306
0.036346599 0.69099998 -0.079962514 1.0124914e-38 350 306
0.037666857 0.69300002 -0.080193959 1.0401861e-38 351 306
0.03888192 0.69300002 -0.080193959 1.1045072e-38 352 306
0.04009698 0.69300002 -0.080193959 1.1229824e-38 353 306
0.041371655 0.69400001 -0.080309682 1.1139073e-38 354 306
0.042588469 0.69400001 -0.080309682 1.14153e-38 355 306
0.043805279 0.69400001 -0.080309682 1.1324556e-38 356 306
0.045151837 0.69599998 -0.080541112 1.1508947e-38 357 306
0.046505414 0.69800001 -0.080772556 1.0592045e-38 358 306
-0.013519952 0.70099998 -0.082348801 1.5116483e-38 309 307
-0.012290866 0.70099998 -0.082348801 1.5203985e-38 310 307
-0.011045999 0.69999999 -0.082231328 1.3451908e-38 311 307
-0.0097906133 0.69800001 -0.081996389 1.363015e-38 312 307
-0.0085422397 0.69599998 -0.081761435 1.2708194e-38 313 307
-0.0073008798 0.69400001 -0.081526496 1.2981171e-38 314 307
-0.0060753003 0.69300002 -0.081409015 1.2704224e-38 315 307
-0.00486024 0.69300002 -0.081409015 1.1967739e-38 316 307
-0.0036451798 0.69300002 -0.081409015 1.1414565e-38 317 307
-0.0024231065 0.69099998 -0.081174068 1.0862464e-38 318 307
-0.0012115532 0.69099998 -0.081174068 1.030929e-38 319 307
0 0.69099998 -0.081174068 9.9412303e-39 320 307
0.0012097999 0.69 -0.081056595 1.012562e-38 321 307
0.0024195998 0.69 -0.081056595 1.0310014e-38 322 307
0.0036188802 0.68800002 -0.080821648 1.0494407e-38 323 307
0.0048251734 0.68800002 -0.080821648 1.0952508e-38 324 307
0.0060226996 0.68699998 -0.080704175 1.0952508e-38 325 307
0.0072272392 0.68699998 -0.080704175 1.1043628e-38 326 307
0.0084317802 0.68699998 -0.080704175 1.0859596e-38 327 307
0.0096363192 0.68699998 -0.080704175 1.0491536e-38 328 307
0.010840859 0.68699998 -0.080704175 1.039934e-38 329 307
0.012045399 0.68699998 -0.080704175 9.9398038e-39 330 307
0.013249939 0.68699998 -0.080704175 9.8476081e-39 331 307
0.014454478 0.68699998 -0.080704175 9.4806277e-39 332 307
0.015659019 0.68699998 -0.080704175 9.3884307e-39 333 307
0.016839013 0.68599999 -0.080586702 9.1125696e-39 334 307
0.018041799 0.68599999 -0.080586702 9.0200153e-39 335 307
0.019244585 0.68599999 -0.080586702 9.0200209e-39 336 307
0.020447372 0.68599999 -0.080586702 9.0200209e-39 337 307
0.02158704 0.68400002 -0.080351762 9.2033303e-39 338 307
0.022786319 0.68400002 -0.080351762 9.295526e-39 339 307
0.0239856 0.68400002 -0.080351762 9.0207341e-39 340 307
0.025258519 0.68599999 -0.080586702 9.0207341e-39 341 307
0.026461305 0.68599999 -0.080586702 9.0200153e-39 342 307
0.027704418 0.68699998 -0.080704175 8.9278197e-39 343 307
0.028908957 0.68699998 -0.080704175 9.0182202e-39 344 307
0.030157333 0.68800002 -0.080821648 9.0182202e-39 345 307
0.031363625 0.68800002 -0.080821648 9.1104187e-39 346 307
0.032569919 0.68800002 -0.080821648 9.478841e-39 347 307
0.0338744 0.69 -0.081056595 9.4802746e-39 348 307
0.035135046 0.69099998 -0.081174068 9.9412513e-39 349 307
0.036451802 0.69300002 -0.081409015 1.0401858e-38 350 307
0.037666857 0.69300002 -0.081409015 1.0494054e-38 351 307
0.038938027 0.69400001 -0.081526496 1.1136905e-38 352 307
0.040154841 0.69400001 -0.081526496 1.1320936e-38 353 307
0.041371655 0.69400001 -0.081526496 1.1229473e-38 354 307
0.042588469 0.69400001 -0.081526496 1.1413865e-38 355 307
0.043931518 0.69599998 -0.081761435 1.0773546e-38 356 307
0.045151837 0.69599998 -0.081761435 1.0957938e-38 357 307
-0.013519952 0.70099998 -0.083577886 1.5115767e-38 309 308
-0.012290866 0.70099998 -0.083577886 1.4745893e-38 310 308
-0.011061779 0.70099998 -0.083577886 1.3362959e-38 311 308
-0.0097765867 0.69700003 -0.083100989 1.3633037e-38 312 308
-0.0085545136 0.69700003 -0.083100989 1.2526689e-38 313 308
-0.0073008798 0.69400001 -0.082743309 1.3441423e-38 314 308
-0.0060840664 0.69400001 -0.082743309 1.2888251e-38 315 308
-0.00486024 0.69300002 -0.082624078 1.2794956e-38 316 308
-0.0036451798 0.69300002 -0.082624078 1.2334337e-38 317 308
-0.00243012 0.69300002 -0.082624078 1.2057021e-38 318 308
-0.00121506 0.69300002 -0.082624078 1.1688239e-38 319 308
0 0.69300002 -0.082624078 1.1229782e-38 320 308
0.0012115532 0.69099998 -0.082385622 1.1137586e-38 321 308
0.0024231065 0.69099998 -0.082385622 1.1321627e-38 322 308
0.0036188802 0.68800002 -0.082027942 1.1413823e-38 323 308
0.0048251734 0.68800002 -0.082027942 1.1596782e-38 324 308
0.0060226996 0.68699998 -0.081908718 1.1596782e-38 325 308
0.0072272392 0.68699998 -0.081908718 1.1596066e-38 326 308
0.0084317802 0.68699998 -0.081908718 1.1411674e-38 327 308
0.0096363192 0.68699998 -0.081908718 1.1135811e-38 328 308
0.010840859 0.68699998 -0.081908718 1.1043614e-38 329 308
0.012045399 0.68699998 -0.081908718 1.0675917e-38 330 308
0.013249939 0.68699998 -0.081908718 1.0491886e-38 331 308
0.014454478 0.68699998 -0.081908718 1.0307139e-38 332 308
0.015659019 0.68699998 -0.081908718 1.0122747e-38 333 308
0.01686356 0.68699998 -0.081908718 9.6639372e-39 334 308
0.018068098 0.68699998 -0.081908718 9.5717401e-39 335 308
0.019272638 0.68699998 -0.081908718 9.1125668e-39 336 308
0.020477179 0.68699998 -0.081908718 9.0203712e-39 337 308
0.021650158 0.68599999 -0.081789486 8.9274665e-39 338 308
0.022852944 0.68599999 -0.081789486 8.8352709e-39 339 308
0.024055731 0.68599999 -0.081789486 8.5604819e-39 340 308
0.025258519 0.68599999 -0.081789486 8.5604819e-39 341 308
0.026461305 0.68599999 -0.081789486 8.6519586e-39 342 308
0.027704418 0.68699998 -0.081908718 8.559763e-39 343 308
0.028908957 0.68699998 -0.081908718 8.7423578e-39 344 308
0.030157333 0.68800002 -0.082027942 9.018586e-39 345 308
0.031363625 0.68800002 -0.082027942 9.479197e-39 346 308
0.032569919 0.68800002 -0.082027942 9.7557853e-39 347 308
0.033923492 0.69099998 -0.082385622 1.0492257e-38 348 308
0.035135046 0.69099998 -0.082385622 1.0584454e-38 349 308
0.036451802 0.69300002 -0.082624078 1.0860678e-38 350 308
0.037721213 0.69400001 -0.082743309 1.0953233e-38 351 308
0.038938027 0.69400001 -0.082743309 1.1045078e-38 352 308
0.040154841 0.69400001 -0.082743309 1.1045078e-38 353 308
0.041371655 0.69400001 -0.082743309 1.0403324e-38 354 308
0.042588469 0.69400001 -0.082743309 1.0679912e-38 355 308
0.043931518 0.69599998 -0.082981758 9.9473946e-39 356 308
-0.012045399 0.68699998 -0.083113261 1.400977e-38 310 309
-0.010825079 0.68599999 -0.082992278 1.3272205e-38 311 309
-0.0096222926 0.68599999 -0.082992278 1.3544809e-38 312 309
-0.0085545136 0.69700003 -0.084323063 1.2346266e-38 313 309
-0.00733244 0.69700003 -0.084323063 1.3168799e-38 314 309
-0.0060840664 0.69400001 -0.083960123 1.252343e-38 315 309
-0.0048672534 0.69400001 -0.083960123 1.2889673e-38 316 309
-0.0036504399 0.69400001 -0.083960123 1.2336499e-38 317 309
-0.0024336267 0.69400001 -0.083960123 1.2059189e-38 318 309
-0.0012168133 0.69400001 -0.083960123 1.1782602e-38 319 309
0 0.69300002 -0.083839141 1.1323423e-38 320 309
0.00121506 0.69300002 -0.083839141 1.1231226e-38 321 309
0.00243012 0.69300002 -0.083839141 1.1414541e-38 322 309
0.0036346598 0.69099998 -0.083597176 1.1506739e-38 323 309
0.0048462129 0.69099998 -0.083597176 1.16897e-38 324 309
0.0060489997 0.69 -0.083476201 1.16897e-38 325 309
0.0072377604 0.68800002 -0.083234236 1.1872295e-38 326 309
0.0084440531 0.68800002 -0.083234236 1.1688264e-38 327 309
0.0096503468 0.68800002 -0.083234236 1.1228725e-38 328 309
0.010856641 0.68800002 -0.083234236 1.1136529e-38 329 309
0.012062933 0.68800002 -0.083234236 1.0676997e-38 330 309
0.013269227 0.68800002 -0.083234236 1.05848e-38 331 309
0.014475521 0.68800002 -0.083234236 1.0309295e-38 332 309
0.015681813 0.68800002 -0.083234236 1.0124545e-38 333 309
0.016888106 0.68800002 -0.083234236 9.6650091e-39 334 309
0.0180944 0.68800002 -0.083234236 9.388781e-39 335 309
0.019300694 0.68800002 -0.083234236 9.112564e-39 336 309
0.020506985 0.68800002 -0.083234236 9.0203684e-39 337 309
0.021713281 0.68800002 -0.083234236 9.1111347e-39 338 309
0.022919573 0.68800002 -0.083234236 8.834908e-39 339 309
0.024125867 0.68800002 -0.083234236 8.4679303e-39 340 309
0.02533216 0.68800002 -0.083234236 8.5601259e-39 341 309
0.026615599 0.69 -0.083476201 8.8352737e-39 342 309
0.027744746 0.68800002 -0.083234236 8.7430781e-39 343 309
0.028951041 0.68800002 -0.083234236 8.834552e-39 344 309
0.030244999 0.69 -0.083476201 9.1111375e-39 345 309
0.031363625 0.68800002 -0.083234236 9.571387e-39 346 309
0.032569919 0.68800002 -0.083234236 9.9405296e-39 347 309
0.033923492 0.69099998 -0.083597176 1.0584098e-38 348 309
0.035236739 0.69300002 -0.083839141 1.0676653e-38 349 309
0.036451802 0.69300002 -0.083839141 1.0860684e-38 350 309
0.037721213 0.69400001 -0.083960123 1.0860684e-38 351 309
0.038938027 0.69400001 -0.083960123 1.0494069e-38 352 309
0.040154841 0.69400001 -0.083960123 1.0586265e-38 353 309
0.041371655 0.69400001 -0.083960123 9.945231e-39 354 309
0.042588469 0.69400001 -0.083960123 1.0129622e-38 355 309
-0.012045399 0.68699998 -0.084317796 1.3824307e-38 310 310
-0.010825079 0.68599999 -0.084195063 1.3455523e-38 311 310
-0.0096222926 0.68599999 -0.084195063 1.3545902e-38 312 310
-0.0084195063 0.68599999 -0.084195063 1.2900533e-38 313 310
-0.0072903596 0.69300002 -0.085054204 1.3080213e-38 314 310
-0.0060753003 0.69300002 -0.085054204 1.2250452e-38 315 310
-0.00486024 0.69300002 -0.085054204 1.2706726e-38 316 310
-0.0036504399 0.69400001 -0.085176937 1.2153553e-38 317 310
-0.0024336267 0.69400001 -0.085176937 1.2335775e-38 318 310
-0.0012168133 0.69400001 -0.085176937 1.1966994e-38 319 310
0 0.69400001 -0.085176937 1.1874082e-38 320 310
0.0012168133 0.69400001 -0.085176937 1.1781528e-38 321 310
0.00243012 0.69300002 -0.085054204 1.1782252e-38 322 310
0.0036451798 0.69300002 -0.085054204 1.1782252e-38 323 310
0.0048462129 0.69099998 -0.08480873 1.1782252e-38 324 310
0.0060489997 0.69 -0.084685996 1.1782252e-38 325 310
0.0072377604 0.68800002 -0.084440529 1.1781533e-38 326 310
0.0084440531 0.68800002 -0.084440529 1.1688977e-38 327 310
0.0096503468 0.68800002 -0.084440529 1.1504589e-38 328 310
0.010856641 0.68800002 -0.084440529 1.1504589e-38 329 310
0.012097999 0.69 -0.084685996 1.095358e-38 330 310
0.0133078 0.69 -0.084685996 1.0861385e-38 331 310
0.014517599 0.69 -0.084685996 1.0860666e-38 332 310
0.015727401 0.69 -0.084685996 1.0676273e-38 333 310
0.0169372 0.69 -0.084685996 1.0124545e-38 334 310
0.0180944 0.68800002 -0.084440529 9.9401541e-39 335 310
0.019300694 0.68800002 -0.084440529 9.2958791e-39 336 310
0.020506985 0.68800002 -0.084440529 9.1114878e-39 337 310
0.021713281 0.68800002 -0.084440529 8.8352709e-39 338 310
0.022919573 0.68800002 -0.084440529 8.6508782e-39 339 310
0.024125867 0.68800002 -0.084440529 8.6519614e-39 340 310
0.02533216 0.68800002 -0.084440529 8.5597658e-39 341 310
0.026615599 0.69 -0.084685996 8.8352709e-39 342 310
0.027825398 0.69 -0.084685996 8.8352709e-39 343 310
0.029035198 0.69 -0.084685996 9.1111319e-39 344 310
0.030244999 0.69 -0.084685996 9.3880775e-39 345 310
0.031363625 0.68800002 -0.084440529 9.8483312e-39 346 310
0.032569919 0.68800002 -0.084440529 1.0124917e-38 347 310
0.034021679 0.69300002 -0.085054204 1.0767049e-38 348 310
0.035236739 0.69300002 -0.085054204 1.0859246e-38 349 310
0.036504399 0.69400001 -0.085176937 1.0401155e-38 350 310
0.037721213 0.69400001 -0.085176937 1.049335e-38 351 310
0.038938027 0.69400001 -0.085176937 9.7601167e-39 352 310
0.040154841 0.69400001 -0.085176937 9.8523123e-39 353 310
0.041371655 0.69400001 -0.085176937 9.2116316e-39 354 310
-0.010840859 0.68699998 -0.085522331 1.3547e-38 311 311
-0.0096222926 0.68599999 -0.085397847 1.3545549e-38 312 311
-0.0084195063 0.68599999 -0.085397847 1.3361157e-38 313 311
-0.0072903596 0.69300002 -0.086269259 1.3267144e-38 314 311
-0.0060753003 0.69300002 -0.086269259 1.2345547e-38 315 311
-0.00486024 0.69300002 -0.086269259 1.2433029e-38 316 311
-0.0036504399 0.69400001 -0.086393744 1.1879857e-38 317 311
-0.0024336267 0.69400001 -0.086393744 1.2520165e-38 318 311
-0.0012168133 0.69400001 -0.086393744 1.2059545e-38 319 311
0 0.69400001 -0.086393744 1.2149234e-38 320 311
0.0012168133 0.69400001 -0.086393744 1.2057038e-38 321 311
0.0024336267 0.69400001 -0.086393744 1.2057038e-38 322 311
0.0036451798 0.69300002 -0.086269259 1.2149234e-38 323 311
0.00486024 0.69300002 -0.086269259 1.1873726e-38 324 311
0.0060753003 0.69300002 -0.086269259 1.1873726e-38 325 311
0.0072587994 0.69 -0.085895799 1.1781533e-38 326 311
0.0084440531 0.68800002 -0.08564683 1.1688977e-38 327 311
0.0096503468 0.68800002 -0.08564683 1.1596785e-38 328 311
0.010888199 0.69 -0.085895799 1.1596785e-38 329 311
0.012115533 0.69099998 -0.086020276 1.1228728e-38 330 311
0.013327086 0.69099998 -0.086020276 1.1136174e-38 331 311
0.014538639 0.69099998 -0.086020276 1.1043981e-38 332 311
0.015750192 0.69099998 -0.086020276 1.0859948e-38 333 311
0.0169372 0.69 -0.085895799 1.0491533e-38 334 311
0.018146999 0.69 -0.085895799 1.0214946e-38 335 311
0.019356798 0.69 -0.085895799 9.938729e-39 336 311
0.020566599 0.69 -0.085895799 9.6621407e-39 337 311
0.021776399 0.69 -0.085895799 9.2026143e-39 338 311
0.022986198 0.69 -0.085895799 9.1104187e-39 339 311
0.024195999 0.69 -0.085895799 8.7430781e-39 340 311
0.025405798 0.69 -0.085895799 8.8352737e-39 341 311
0.026615599 0.69 -0.085895799 9.0189391e-39 342 311
0.027825398 0.69 -0.085895799 9.1111347e-39 343 311
0.029035198 0.69 -0.085895799 9.2036835e-39 344 311
0.030244999 0.69 -0.085895799 9.6646616e-39 345 311
0.031454802 0.69 -0.085895799 9.8490501e-39 346 311
0.032664597 0.69 -0.085895799 9.8490501e-39 347 311
0.034021679 0.69300002 -0.086269259 9.9412513e-39 348 311
0.037721213 0.69400001 -0.086393744 9.5757226e-39 351 311
0.038938027 0.69400001 -0.086393744 9.0257984e-39 352 311
0.040154841 0.69400001 -0.086393744 9.394581e-39 353 311
-0.0096222926 0.68599999 -0.086600631 1.3270054e-38 312 312
-0.0084195063 0.68599999 -0.086600631 1.3177858e-38 313 312
-0.00366622 0.69700003 -0.087989278 1.2341231e-38 317 312
-0.0024441467 0.69700003 -0.087989278 1.2429082e-38 318 312
-0.0012220733 0.69700003 -0.087989278 1.1968105e-38 319 312
0 0.69700003 -0.087989278 1.22436e-38 320 312
0.0012220733 0.69700003 -0.087989278 1.1967012e-38 321 312
0.0024441467 0.69700003 -0.087989278 1.2149958e-38 322 312
0.0036451798 0.69300002 -0.087484315 1.2149958e-38 323 312
0.00486024 0.69300002 -0.087484315 1.1965924e-38 324 312
0.0060753003 0.69300002 -0.087484315 1.1965924e-38 325 312
0.0072903596 0.69300002 -0.087484315 1.1873729e-38 326 312
0.008480873 0.69099998 -0.087231837 1.1873729e-38 327 312
0.0096924258 0.69099998 -0.087231837 1.168898e-38 328 312
0.010935539 0.69300002 -0.087484315 1.1596785e-38 329 312
0.012150601 0.69300002 -0.087484315 1.1504233e-38 330 312
0.01336566 0.69300002 -0.087484315 1.1228006e-38 331 312
0.014580719 0.69300002 -0.087484315 1.1227653e-38 332 312
0.015795778 0.69300002 -0.087484315 1.104326e-38 333 312
0.01701084 0.69300002 -0.087484315 1.0675923e-38 334 312
0.0181733 0.69099998 -0.087231837 1.0399337e-38 335 312
0.019384852 0.69099998 -0.087231837 9.8472522e-39 336 312
0.020596405 0.69099998 -0.087231837 9.5710241e-39 337 312
0.021776399 0.69 -0.087105595 9.2033303e-39 338 312
0.022986198 0.69 -0.087105595 9.1111347e-39 339 312
0.024231065 0.69099998 -0.087231837 8.8345548e-39 340 312
0.025442619 0.69099998 -0.087231837 8.8345548e-39 341 312
0.026654173 0.69099998 -0.087231837 9.1111375e-39 342 312
0.027865725 0.69099998 -0.087231837 9.2955288e-39 343 312
0.029035198 0.69 -0.087105595 9.3887978e-39 344 312
0.030244999 0.69 -0.087105595 9.6653847e-39 345 312
0.031454802 0.69 -0.087105595 9.7565069e-39 346 312
0.032664597 0.69 -0.087105595 9.9408982e-39 347 312
-0.0024476533 0.69800001 -0.089339346 1.1882396e-38 318 313
-0.0012238267 0.69800001 -0.089339346 1.1329222e-38 319 313
0 0.69800001 -0.089339346 1.1785496e-38 320 313
0.0012238267 0.69800001 -0.089339346 1.1601103e-38 321 313
0.0024441467 0.69700003 -0.089211352 1.1507836e-38 322 313
0.0036504399 0.69400001 -0.088827372 1.1507836e-38 323 313
0.0048672534 0.69400001 -0.088827372 1.1781543e-38 324 313
0.0060840664 0.69400001 -0.088827372 1.1781543e-38 325 313
0.0072903596 0.69300002 -0.088699378 1.1689347e-38 326 313
0.0085054198 0.69300002 -0.088699378 1.1505315e-38 327 313
0.0097345067 0.69400001 -0.088827372 1.1505318e-38 328 313
0.01095132 0.69400001 -0.088827372 1.1320568e-38 329 313
0.012168133 0.69400001 -0.088827372 1.1410965e-38 330 313
0.013384946 0.69400001 -0.088827372 1.1410965e-38 331 313
0.01460176 0.69400001 -0.088827372 1.113546e-38 332 313
0.015795778 0.69300002 -0.088699378 1.1042905e-38 333 313
0.01701084 0.69300002 -0.088699378 1.0951065e-38 334 313
0.018225901 0.69300002 -0.088699378 1.0674479e-38 335 313
0.019384852 0.69099998 -0.088443391 1.0490807e-38 336 313
0.020596405 0.69099998 -0.088443391 1.0214579e-38 337 313
0.021871079 0.69300002 -0.088699378 9.8461662e-39 338 313
0.023019511 0.69099998 -0.088443391 9.6617749e-39 339 313
0.024231065 0.69099998 -0.088443391 9.3859237e-39 340 313
0.02551626 0.69300002 -0.088699378 9.2937281e-39 341 313
