# .PCD v.7 - Point Cloud Data file format
FIELDS x y z rgb imX imY
SIZE 4 4 4 4 4 4
TYPE F F F F F F
COUNT 1 1 1 1 1 1
WIDTH 854
HEIGHT 1
VIEWPOINT 0 0 0 1 0 0 0
POINTS 854
DATA ascii
-0.0092909131 0.75700003 0.0026545466 1.648351e-38 313 238
-0.0079636406 0.75700003 0.0026545466 1.6943034e-38 314 238
-0.0066363667 0.75700003 0.0026545466 1.6850838e-38 315 238
-0.0053090933 0.75700003 0.0026545466 1.6756475e-38 316 238
-0.0039818203 0.75700003 0.0026545466 1.6203301e-38 317 238
-0.0026545466 0.75700003 0.0026545466 1.5927443e-38 318 238
-0.0013272733 0.75700003 0.0026545466 1.6111834e-38 319 238
0 0.75700003 0.0026545466 1.6204397e-38 320 238
0.0013272733 0.75700003 0.0026545466 1.5743777e-38 321 238
0.00266156 0.759 0.00266156 1.5831654e-38 322 238
0.0039923396 0.759 0.00266156 1.5555066e-38 323 238
0.0053231199 0.759 0.00266156 1.5187004e-38 324 238
0.0066363667 0.75700003 0.0026545466 1.5002612e-38 325 238
0.0079636406 0.75700003 0.0026545466 1.4727455e-38 326 238
0.0092909131 0.75700003 0.0026545466 1.4266477e-38 327 238
0.010618187 0.75700003 0.0026545466 1.4632738e-38 328 238
0.01197702 0.759 0.00266156 1.4540543e-38 329 238
0.0133078 0.759 0.00266156 1.407993e-38 330 238
0.014638579 0.759 0.00266156 1.407993e-38 331 238
0.016011439 0.76099998 0.0026685731 1.3621105e-38 332 238
0.017345725 0.76099998 0.0026685731 1.3621105e-38 333 238
0.018680012 0.76099998 0.0026685731 1.3528909e-38 334 238
0.020014299 0.76099998 0.0026685731 1.3344516e-38 335 238
0.02137664 0.76200002 0.00267208 1.3434564e-38 336 238
0.02271268 0.76200002 0.00267208 1.3157978e-38 337 238
0.024111839 0.764 0.0026790933 1.2973237e-38 338 238
0.025451386 0.764 0.0026790933 1.2788844e-38 339 238
0.026861066 0.76599997 0.0026861064 1.2512624e-38 340 238
0.028314579 0.76899999 0.0026966266 1.2420429e-38 341 238
0.02966289 0.76899999 0.0026966266 1.1686113e-38 342 238
0.031091858 0.77100003 0.0027036399 1.1686113e-38 343 238
0.032569919 0.77399999 0.0027141599 1.095181e-38 344 238
0.033927001 0.77399999 0.0027141599 1.1044006e-38 345 238
0.035375252 0.77600002 0.0027211732 1.0684246e-38 346 238
0.036830518 0.778 0.0027281865 1.4003289e-38 347 238
0.038194612 0.778 0.0027281865 1.760686e-38 348 238
0.039558705 0.778 0.0027281865 1.760686e-38 349 238
-0.040712398 0.77399999 0.0013570799 1.8346224e-38 290 239
-0.039355319 0.77399999 0.0013570799 1.7516463e-38 291 239
-0.037998237 0.77399999 0.0013570799 1.4468934e-38 292 239
-0.036593821 0.773 0.0013553266 1.327039e-38 293 239
-0.035238493 0.773 0.0013553266 1.5375362e-38 294 239
-0.033883166 0.773 0.0013553266 1.5190969e-38 295 239
-0.032527838 0.773 0.0013553266 1.592526e-38 296 239
-0.03117251 0.773 0.0013553266 1.5648313e-38 297 239
-0.029585747 0.76700002 0.0013448066 1.5923458e-38 298 239
-0.02824094 0.76700002 0.0013448066 1.6015655e-38 299 239
-0.026861066 0.76599997 0.0013430532 1.6016376e-38 300 239
-0.025351444 0.76099998 0.0013342865 1.5924181e-38 301 239
-0.024017159 0.76099998 0.0013342865 1.6015657e-38 302 239
-0.02262326 0.759 0.00133078 1.6015657e-38 303 239
-0.02129248 0.759 0.00133078 1.6291884e-38 304 239
-0.0199617 0.759 0.00133078 1.638408e-38 305 239
-0.01863092 0.759 0.00133078 1.6475562e-38 306 239
-0.017300138 0.759 0.00133078 1.6659593e-38 307 239
-0.015969358 0.759 0.00133078 1.6383732e-38 308 239
-0.014638579 0.759 0.00133078 1.6383732e-38 309 239
-0.013272733 0.75700003 0.0013272733 1.629298e-38 310 239
-0.01194546 0.75700003 0.0013272733 1.647773e-38 311 239
-0.01064624 0.759 0.00133078 1.6295502e-38 312 239
-0.0092909131 0.75700003 0.0013272733 1.6387698e-38 313 239
-0.0079636406 0.75700003 0.0013272733 1.6479898e-38 314 239
-0.0066363667 0.75700003 0.0013272733 1.6295146e-38 315 239
-0.0052950666 0.755 0.0013237667 1.6293702e-38 316 239
-0.0039712996 0.755 0.0013237667 1.6017473e-38 317 239
-0.0026545466 0.75700003 0.0013272733 1.6017118e-38 318 239
-0.0013272733 0.75700003 0.0013272733 1.6293346e-38 319 239
0 0.75700003 0.0013272733 1.6110036e-38 320 239
0.0013272733 0.75700003 0.0013272733 1.5556862e-38 321 239
0.0026545466 0.75700003 0.0013272733 1.5095161e-38 322 239
0.0039818203 0.75700003 0.0013272733 1.5095161e-38 323 239
0.0053231199 0.759 0.00133078 1.4820004e-38 324 239
0.0066363667 0.75700003 0.0013272733 1.4727449e-38 325 239
0.0079636406 0.75700003 0.0013272733 1.4542335e-38 326 239
0.00931546 0.759 0.00133078 1.4357944e-38 327 239
0.01064624 0.759 0.00133078 1.4264312e-38 328 239
0.01197702 0.759 0.00133078 1.4171757e-38 329 239
0.0133078 0.759 0.00133078 1.3803704e-38 330 239
0.014638579 0.759 0.00133078 1.3803704e-38 331 239
0.016011439 0.76099998 0.0013342865 1.3711508e-38 332 239
0.017345725 0.76099998 0.0013342865 1.3711508e-38 333 239
0.018680012 0.76099998 0.0013342865 1.3618952e-38 334 239
0.020014299 0.76099998 0.0013342865 1.3526756e-38 335 239
0.021348584 0.76099998 0.0013342865 1.3434208e-38 336 239
0.02271268 0.76200002 0.00133604 1.3250177e-38 337 239
0.02404872 0.76200002 0.00133604 1.2789922e-38 338 239
0.025451386 0.764 0.0013395466 1.2697725e-38 339 239
0.026790932 0.764 0.0013395466 1.2237113e-38 340 239
0.02824094 0.76700002 0.0013448066 1.2237113e-38 341 239
0.02966289 0.76899999 0.0013483133 1.1502798e-38 342 239
0.031091858 0.77100003 0.00135182 1.1502798e-38 343 239
0.032569919 0.77399999 0.0013570799 1.0952524e-38 344 239
0.033927001 0.77399999 0.0013570799 1.1137274e-38 345 239
0.035375252 0.77600002 0.0013605866 1.0591329e-38 346 239
0.036830518 0.778 0.0013640933 1.4002207e-38 347 239
0.038194612 0.778 0.0013640933 1.7330633e-38 348 239
0.039660398 0.77999997 0.0013675999 1.7330633e-38 349 239
-0.0406598 0.773 -0 1.8345858e-38 290 240
-0.039304473 0.773 -0 1.7331705e-38 291 240
-0.037949149 0.773 -0 1.4559682e-38 292 240
-0.036593821 0.773 -0 1.3268943e-38 293 240
-0.035238493 0.773 -0 1.5376071e-38 294 240
-0.033883166 0.773 -0 1.5283515e-38 295 240
-0.032443684 0.77100003 -0 1.5741228e-38 296 240
-0.031011207 0.76899999 -0 1.5465e-38 297 240
-0.029585747 0.76700002 -0 1.5647959e-38 298 240
-0.02824094 0.76700002 -0 1.5647959e-38 299 240
-0.026861066 0.76599997 -0 1.5740515e-38 300 240
-0.025351444 0.76099998 -0 1.5647959e-38 301 240
-0.024017159 0.76099998 -0 1.5831628e-38 302 240
-0.02262326 0.759 -0 1.5923825e-38 303 240
-0.02129248 0.759 -0 1.5831279e-38 304 240
-0.0199617 0.759 -0 1.601567e-38 305 240
-0.01863092 0.759 -0 1.6105717e-38 306 240
-0.017300138 0.759 -0 1.6290109e-38 307 240
-0.015969358 0.759 -0 1.619756e-38 308 240
-0.014638579 0.759 -0 1.6290114e-38 309 240
-0.013272733 0.75700003 -0 1.574018e-38 310 240
-0.01194546 0.75700003 -0 1.5924572e-38 311 240
-0.010618187 0.75700003 -0 1.5741625e-38 312 240
-0.0092909131 0.75700003 -0 1.5741625e-38 313 240
-0.0079636406 0.75700003 -0 1.5834894e-38 314 240
-0.0066363667 0.75700003 -0 1.5558307e-38 315 240
-0.0052950666 0.755 -0 1.564978e-38 316 240
-0.0039712996 0.755 -0 1.5465388e-38 317 240
-0.0026545466 0.75700003 -0 1.5465035e-38 318 240
-0.0013272733 0.75700003 -0 1.5557231e-38 319 240
0 0.75700003 -0 1.5465386e-38 320 240
0.0013272733 0.75700003 -0 1.5096603e-38 321 240
0.0026545466 0.75700003 -0 1.5187707e-38 322 240
0.0039818203 0.75700003 -0 1.5003316e-38 323 240
0.0053090933 0.75700003 -0 1.4728157e-38 324 240
0.0066363667 0.75700003 -0 1.4451571e-38 325 240
0.0079636406 0.75700003 -0 1.4818902e-38 326 240
0.0092909131 0.75700003 -0 1.4542675e-38 327 240
0.010618187 0.75700003 -0 1.4356855e-38 328 240
0.01197702 0.759 -0 1.4172464e-38 329 240
0.0133078 0.759 -0 1.3527837e-38 330 240
0.014638579 0.759 -0 1.3527837e-38 331 240
0.015969358 0.759 -0 1.3343813e-38 332 240
0.017300138 0.759 -0 1.3343813e-38 333 240
0.018680012 0.76099998 -0 1.3343091e-38 334 240
0.020014299 0.76099998 -0 1.3343091e-38 335 240
0.021348584 0.76099998 -0 1.3067936e-38 336 240
0.022682872 0.76099998 -0 1.2883186e-38 337 240
0.02404872 0.76200002 -0 1.279027e-38 338 240
0.025451386 0.764 -0 1.2605879e-38 339 240
0.026790932 0.764 -0 1.2330018e-38 340 240
0.02824094 0.76700002 -0 1.2145268e-38 341 240
0.02966289 0.76899999 -0 1.1686466e-38 342 240
0.03117251 0.773 -0 1.1686466e-38 343 240
0.032569919 0.77399999 -0 1.1136918e-38 344 240
0.033927001 0.77399999 -0 1.1413865e-38 345 240
0.035375252 0.77600002 -0 1.086684e-38 346 240
0.036830518 0.778 -0 1.4001491e-38 347 240
0.038292799 0.77999997 -0 1.7146239e-38 348 240
0.039660398 0.77999997 -0 1.7146239e-38 349 240
-0.042015124 0.773 -0.0013553266 1.8070363e-38 289 241
-0.0406598 0.773 -0.0013553266 1.8253663e-38 290 241
-0.039304473 0.773 -0.0013553266 1.6962924e-38 291 241
-0.037949149 0.773 -0.0013553266 1.4742984e-38 292 241
-0.036593821 0.773 -0.0013553266 1.3452245e-38 293 241
-0.035238493 0.773 -0.0013553266 1.5283868e-38 294 241
-0.033795502 0.77100003 -0.00135182 1.5099477e-38 295 241
-0.032443684 0.77100003 -0.00135182 1.5649033e-38 296 241
-0.031011207 0.76899999 -0.0013483133 1.5372805e-38 297 241
-0.029585747 0.76700002 -0.0013448066 1.5555401e-38 298 241
-0.02824094 0.76700002 -0.0013448066 1.5555401e-38 299 241
-0.026861066 0.76599997 -0.0013430532 1.573871e-38 300 241
-0.025451386 0.764 -0.0013395466 1.5646515e-38 301 241
-0.024017159 0.76099998 -0.0013342865 1.5738347e-38 302 241
-0.022682872 0.76099998 -0.0013342865 1.5738347e-38 303 241
-0.021348584 0.76099998 -0.0013342865 1.5738347e-38 304 241
-0.0199617 0.759 -0.00133078 1.5738347e-38 305 241
-0.01863092 0.759 -0.00133078 1.5920944e-38 306 241
-0.017300138 0.759 -0.00133078 1.6013139e-38 307 241
-0.015927281 0.75700003 -0.0013272733 1.5921662e-38 308 241
-0.014600007 0.75700003 -0.0013272733 1.5921662e-38 309 241
-0.013272733 0.75700003 -0.0013272733 1.5739066e-38 310 241
-0.01194546 0.75700003 -0.0013272733 1.5739066e-38 311 241
-0.010618187 0.75700003 -0.0013272733 1.5831625e-38 312 241
-0.0092909131 0.75700003 -0.0013272733 1.5647594e-38 313 241
-0.0079636406 0.75700003 -0.0013272733 1.5740512e-38 314 241
-0.0066188332 0.755 -0.0013237667 1.5648315e-38 315 241
-0.0052950666 0.755 -0.0013237667 1.555612e-38 316 241
-0.0039712996 0.755 -0.0013237667 1.5463924e-38 317 241
-0.0026545466 0.75700003 -0.0013272733 1.5463568e-38 318 241
-0.0013272733 0.75700003 -0.0013272733 1.5463568e-38 319 241
0 0.75700003 -0.0013272733 1.5462849e-38 320 241
0.0013272733 0.75700003 -0.0013272733 1.5370654e-38 321 241
0.0026545466 0.75700003 -0.0013272733 1.5095143e-38 322 241
0.0039818203 0.75700003 -0.0013272733 1.5002946e-38 323 241
0.0053090933 0.75700003 -0.0013272733 1.4727435e-38 324 241
0.0066363667 0.75700003 -0.0013272733 1.4727435e-38 325 241
0.0079636406 0.75700003 -0.0013272733 1.4451922e-38 326 241
0.0092909131 0.75700003 -0.0013272733 1.4359726e-38 327 241
0.010618187 0.75700003 -0.0013272733 1.4082782e-38 328 241
0.01194546 0.75700003 -0.0013272733 1.371436e-38 329 241
0.0133078 0.759 -0.00133078 1.3712574e-38 330 241
0.014638579 0.759 -0.00133078 1.334415e-38 331 241
0.015969358 0.759 -0.00133078 1.3251602e-38 332 241
0.017300138 0.759 -0.00133078 1.3159406e-38 333 241
0.018680012 0.76099998 -0.0013342865 1.315905e-38 334 241
0.020014299 0.76099998 -0.0013342865 1.315905e-38 335 241
0.021348584 0.76099998 -0.0013342865 1.3067934e-38 336 241
0.022682872 0.76099998 -0.0013342865 1.2883542e-38 337 241
0.02404872 0.76200002 -0.00133604 1.2606595e-38 338 241
0.025451386 0.764 -0.0013395466 1.2422564e-38 339 241
0.026790932 0.764 -0.0013395466 1.1962312e-38 340 241
0.02824094 0.76700002 -0.0013448066 1.1869756e-38 341 241
0.02966289 0.76899999 -0.0013483133 1.1410953e-38 342 241
0.031091858 0.77100003 -0.00135182 1.1503148e-38 343 241
0.032569919 0.77399999 -0.0013570799 1.0860684e-38 344 241
0.033927001 0.77399999 -0.0013570799 1.1137271e-38 345 241
0.035375252 0.77600002 -0.0013605866 1.1052307e-38 346 241
0.036925197 0.77999997 -0.0013675999 1.4279154e-38 347 241
0.038292799 0.77999997 -0.0013675999 1.7238435e-38 348 241
-0.042015124 0.773 -0.0027106532 1.8162917e-38 289 242
-0.0406598 0.773 -0.0027106532 1.8529524e-38 290 242
-0.039304473 0.773 -0.0027106532 1.7054394e-38 291 242
-0.037949149 0.773 -0.0027106532 1.455787e-38 292 242
-0.036593821 0.773 -0.0027106532 1.3451522e-38 293 242
-0.035238493 0.773 -0.0027106532 1.5284945e-38 294 242
-0.033795502 0.77100003 -0.0027036399 1.4916162e-38 295 242
-0.032443684 0.77100003 -0.0027036399 1.5373521e-38 296 242
-0.031011207 0.76899999 -0.0026966266 1.5005098e-38 297 242
-0.029585747 0.76700002 -0.0026896133 1.5371723e-38 298 242
-0.02824094 0.76700002 -0.0026896133 1.5187692e-38 299 242
-0.026861066 0.76599997 -0.0026861064 1.5371004e-38 300 242
-0.025451386 0.764 -0.0026790933 1.5371004e-38 301 242
-0.024017159 0.76099998 -0.0026685731 1.5371007e-38 302 242
-0.022682872 0.76099998 -0.0026685731 1.5371007e-38 303 242
-0.021348584 0.76099998 -0.0026685731 1.5370651e-38 304 242
-0.0199617 0.759 -0.00266156 1.5370651e-38 305 242
-0.01863092 0.759 -0.00266156 1.5369932e-38 306 242
-0.017300138 0.759 -0.00266156 1.5277735e-38 307 242
-0.015927281 0.75700003 -0.0026545466 1.55536e-38 308 242
-0.014600007 0.75700003 -0.0026545466 1.55536e-38 309 242
-0.013272733 0.75700003 -0.0026545466 1.5554322e-38 310 242
-0.01194546 0.75700003 -0.0026545466 1.5554322e-38 311 242
-0.010618187 0.75700003 -0.0026545466 1.5371375e-38 312 242
-0.0092663663 0.755 -0.0026475333 1.5186985e-38 313 242
-0.0079425992 0.755 -0.0026475333 1.5371375e-38 314 242
-0.0066188332 0.755 -0.0026475333 1.5371375e-38 315 242
-0.0052950666 0.755 -0.0026475333 1.5370656e-38 316 242
-0.0039712996 0.755 -0.0026475333 1.5370656e-38 317 242
-0.0026545466 0.75700003 -0.0026545466 1.5003316e-38 318 242
-0.0013272733 0.75700003 -0.0026545466 1.5003316e-38 319 242
0 0.75700003 -0.0026545466 1.5002244e-38 320 242
0.0013272733 0.75700003 -0.0026545466 1.4910047e-38 321 242
0.0026545466 0.75700003 -0.0026545466 1.4451221e-38 322 242
0.0039818203 0.75700003 -0.0026545466 1.4635252e-38 323 242
0.0053090933 0.75700003 -0.0026545466 1.4452643e-38 324 242
0.0066363667 0.75700003 -0.0026545466 1.4360448e-38 325 242
0.0079636406 0.75700003 -0.0026545466 1.4452275e-38 326 242
0.0092909131 0.75700003 -0.0026545466 1.4267884e-38 327 242
0.010618187 0.75700003 -0.0026545466 1.4082416e-38 328 242
0.01194546 0.75700003 -0.0026545466 1.3898025e-38 329 242
0.0133078 0.759 -0.00266156 1.3528896e-38 330 242
0.014638579 0.759 -0.00266156 1.3436699e-38 331 242
0.015969358 0.759 -0.00266156 1.2976454e-38 332 242
0.017345725 0.76099998 -0.0026685731 1.2884258e-38 333 242
0.018680012 0.76099998 -0.0026685731 1.2883908e-38 334 242
0.020014299 0.76099998 -0.0026685731 1.2883908e-38 335 242
0.021348584 0.76099998 -0.0026685731 1.2607325e-38 336 242
0.02271268 0.76200002 -0.00267208 1.2515128e-38 337 242
0.02404872 0.76200002 -0.00267208 1.2330734e-38 338 242
0.025451386 0.764 -0.0026790933 1.2238539e-38 339 242
0.026790932 0.764 -0.0026790933 1.1961956e-38 340 242
0.02824094 0.76700002 -0.0026896133 1.1777563e-38 341 242
0.02966289 0.76899999 -0.0026966266 1.14106e-38 342 242
0.031091858 0.77100003 -0.0027036399 1.1502795e-38 343 242
0.032527838 0.773 -0.0027106532 1.095288e-38 344 242
0.033927001 0.77399999 -0.0027141599 1.1137271e-38 345 242
0.035375252 0.77600002 -0.0027211732 1.1420011e-38 346 242
0.036925197 0.77999997 -0.0027351999 1.4646858e-38 347 242
0.038292799 0.77999997 -0.0027351999 1.7054043e-38 348 242
-0.042015124 0.773 -0.0040659797 1.8070719e-38 289 243
-0.0406598 0.773 -0.0040659797 1.8346214e-38 290 243
-0.039304473 0.773 -0.0040659797 1.696328e-38 291 243
-0.037949149 0.773 -0.0040659797 1.4466037e-38 292 243
-0.036593821 0.773 -0.0040659797 1.3452245e-38 293 243
-0.035238493 0.773 -0.0040659797 1.5101279e-38 294 243
-0.033883166 0.773 -0.0040659797 1.4732137e-38 295 243
-0.032443684 0.77100003 -0.0040554604 1.5097297e-38 296 243
-0.031011207 0.76899999 -0.0040449398 1.4912547e-38 297 243
-0.029585747 0.76700002 -0.00403442 1.509514e-38 298 243
-0.02824094 0.76700002 -0.00403442 1.509514e-38 299 243
-0.026861066 0.76599997 -0.0040291594 1.509514e-38 300 243
-0.025451386 0.764 -0.0040186401 1.5002943e-38 301 243
-0.02404872 0.76200002 -0.0040081199 1.5186255e-38 302 243
-0.022682872 0.76099998 -0.0040028598 1.5278811e-38 303 243
-0.021348584 0.76099998 -0.0040028598 1.5186255e-38 304 243
-0.020014299 0.76099998 -0.0040028598 1.5186255e-38 305 243
-0.01863092 0.759 -0.0039923396 1.5186611e-38 306 243
-0.017300138 0.759 -0.0039923396 1.500258e-38 307 243
-0.015927281 0.75700003 -0.0039818203 1.5185171e-38 308 243
-0.014600007 0.75700003 -0.0039818203 1.5369202e-38 309 243
-0.013272733 0.75700003 -0.0039818203 1.5278091e-38 310 243
-0.01194546 0.75700003 -0.0039818203 1.5185537e-38 311 243
-0.010618187 0.75700003 -0.0039818203 1.5186262e-38 312 243
-0.0092663663 0.755 -0.0039712996 1.5186262e-38 313 243
-0.0079425992 0.755 -0.0039712996 1.5186262e-38 314 243
-0.0066188332 0.755 -0.0039712996 1.5186262e-38 315 243
-0.0052950666 0.755 -0.0039712996 1.500295e-38 316 243
-0.0039712996 0.755 -0.0039712996 1.4910394e-38 317 243
-0.0026475333 0.755 -0.0039712996 1.4910397e-38 318 243
-0.0013272733 0.75700003 -0.0039818203 1.4818202e-38 319 243
0 0.75700003 -0.0039818203 1.472565e-38 320 243
0.0013272733 0.75700003 -0.0039818203 1.472565e-38 321 243
0.0026545466 0.75700003 -0.0039818203 1.4359023e-38 322 243
0.0039818203 0.75700003 -0.0039818203 1.4451218e-38 323 243
0.0053090933 0.75700003 -0.0039818203 1.4268249e-38 324 243
0.0066363667 0.75700003 -0.0039818203 1.4268249e-38 325 243
0.0079636406 0.75700003 -0.0039818203 1.4267881e-38 326 243
0.0092909131 0.75700003 -0.0039818203 1.4267881e-38 327 243
0.010618187 0.75700003 -0.0039818203 1.3807271e-38 328 243
0.01194546 0.75700003 -0.0039818203 1.362288e-38 329 243
0.0133078 0.759 -0.0039923396 1.33463e-38 330 243
0.014638579 0.759 -0.0039923396 1.3254104e-38 331 243
0.016011439 0.76099998 -0.0040028598 1.288569e-38 332 243
0.017345725 0.76099998 -0.0040028598 1.2701299e-38 333 243
0.018680012 0.76099998 -0.0040028598 1.2883911e-38 334 243
0.020014299 0.76099998 -0.0040028598 1.2699521e-38 335 243
0.021348584 0.76099998 -0.0040028598 1.2514777e-38 336 243
0.02271268 0.76200002 -0.0040081199 1.242258e-38 337 243
0.024111839 0.764 -0.0040186401 1.2330381e-38 338 243
0.025518013 0.76599997 -0.0040291594 1.2054154e-38 339 243
0.026861066 0.76599997 -0.0040291594 1.1869407e-38 340 243
0.02824094 0.76700002 -0.00403442 1.177721e-38 341 243
0.02966289 0.76899999 -0.0040449398 1.1409519e-38 342 243
0.031091858 0.77100003 -0.0040554604 1.1593912e-38 343 243
0.032527838 0.773 -0.0040659797 1.1044353e-38 344 243
0.033927001 0.77399999 -0.0040712398 1.1044353e-38 345 243
0.035375252 0.77600002 -0.0040817601 1.1695872e-38 346 243
0.036830518 0.778 -0.0040922803 1.5014914e-38 347 243
0.038194612 0.778 -0.0040922803 1.6961846e-38 348 243
-0.042015124 0.773 -0.0054213065 1.7979242e-38 289 244
-0.0406598 0.773 -0.0054213065 1.8346933e-38 290 244
-0.039304473 0.773 -0.0054213065 1.7056194e-38 291 244
-0.037949149 0.773 -0.0054213065 1.4467119e-38 292 244
-0.036593821 0.773 -0.0054213065 1.3176381e-38 293 244
-0.035238493 0.773 -0.0054213065 1.4825778e-38 294 244
-0.033883166 0.773 -0.0054213065 1.4365159e-38 295 244
-0.032443684 0.77100003 -0.0054072798 1.5096944e-38 296 244
-0.031011207 0.76899999 -0.0053932532 1.4819998e-38 297 244
-0.029585747 0.76700002 -0.0053792265 1.5002943e-38 298 244
-0.02824094 0.76700002 -0.0053792265 1.5002943e-38 299 244
-0.026861066 0.76599997 -0.0053722127 1.5002224e-38 300 244
-0.025451386 0.764 -0.0053581866 1.4910029e-38 301 244
-0.02404872 0.76200002 -0.0053441599 1.4910029e-38 302 244
-0.022682872 0.76099998 -0.0053371461 1.5002224e-38 303 244
-0.021348584 0.76099998 -0.0053371461 1.5002577e-38 304 244
-0.020014299 0.76099998 -0.0053371461 1.5002577e-38 305 244
-0.01863092 0.759 -0.0053231199 1.5093694e-38 306 244
-0.017300138 0.759 -0.0053231199 1.5093694e-38 307 244
-0.015927281 0.75700003 -0.0053090933 1.5092978e-38 308 244
-0.014600007 0.75700003 -0.0053090933 1.5092978e-38 309 244
-0.013272733 0.75700003 -0.0053090933 1.518482e-38 310 244
-0.01194546 0.75700003 -0.0053090933 1.518482e-38 311 244
-0.010618187 0.75700003 -0.0053090933 1.4909676e-38 312 244
-0.0092663663 0.755 -0.0052950666 1.4909676e-38 313 244
-0.0079425992 0.755 -0.0052950666 1.4818199e-38 314 244
-0.0066188332 0.755 -0.0052950666 1.4818199e-38 315 244
-0.0052950666 0.755 -0.0052950666 1.4818199e-38 316 244
-0.0039712996 0.755 -0.0052950666 1.4726003e-38 317 244
-0.0026475333 0.755 -0.0052950666 1.4725287e-38 318 244
-0.0013272733 0.75700003 -0.0053090933 1.4725287e-38 319 244
0 0.75700003 -0.0053090933 1.4450139e-38 320 244
0.0013272733 0.75700003 -0.0053090933 1.4450139e-38 321 244
0.0026545466 0.75700003 -0.0053090933 1.4175703e-38 322 244
0.0039818203 0.75700003 -0.0053090933 1.4267899e-38 323 244
0.0053090933 0.75700003 -0.0053090933 1.4084934e-38 324 244
0.0066363667 0.75700003 -0.0053090933 1.417713e-38 325 244
0.0079636406 0.75700003 -0.0053090933 1.3993092e-38 326 244
0.0092909131 0.75700003 -0.0053090933 1.3808699e-38 327 244
0.010618187 0.75700003 -0.0053090933 1.3898391e-38 328 244
0.01197702 0.759 -0.0053231199 1.3622164e-38 329 244
0.0133078 0.759 -0.0053231199 1.3162275e-38 330 244
0.014638579 0.759 -0.0053231199 1.2978242e-38 331 244
0.016011439 0.76099998 -0.0053371461 1.2700946e-38 332 244
0.017345725 0.76099998 -0.0053371461 1.260875e-38 333 244
0.018680012 0.76099998 -0.0053371461 1.2608044e-38 334 244
0.020014299 0.76099998 -0.0053371461 1.2515849e-38 335 244
0.02137664 0.76200002 -0.0053441599 1.242258e-38 336 244
0.02271268 0.76200002 -0.0053441599 1.2238188e-38 337 244
0.02404872 0.76200002 -0.0053441599 1.1962324e-38 338 244
0.025518013 0.76599997 -0.0053722127 1.1870129e-38 339 244
0.026861066 0.76599997 -0.0053722127 1.1869413e-38 340 244
0.02824094 0.76700002 -0.0053792265 1.1776857e-38 341 244
0.02966289 0.76899999 -0.0053932532 1.1042539e-38 342 244
0.031091858 0.77100003 -0.0054072798 1.1319126e-38 343 244
0.032527838 0.773 -0.0054213065 1.0860678e-38 344 244
0.033927001 0.77399999 -0.0054283198 1.0676647e-38 345 244
0.03528408 0.77399999 -0.0054283198 1.1973535e-38 346 244
0.036735836 0.77600002 -0.0054423464 1.5200382e-38 347 244
0.038096428 0.77600002 -0.0054423464 1.6777456e-38 348 244
-0.042015124 0.773 -0.0067766332 1.7703378e-38 289 245
-0.0406598 0.773 -0.0067766332 1.8346933e-38 290 245
-0.039304473 0.773 -0.0067766332 1.7424618e-38 291 245
-0.037949149 0.773 -0.0067766332 1.4560032e-38 292 245
-0.036593821 0.773 -0.0067766332 1.2992705e-38 293 245
-0.035238493 0.773 -0.0067766332 1.4733937e-38 294 245
-0.033883166 0.773 -0.0067766332 1.4272961e-38 295 245
-0.032443684 0.77100003 -0.0067590997 1.4637405e-38 296 245
-0.031011207 0.76899999 -0.0067415666 1.4453013e-38 297 245
-0.029585747 0.76700002 -0.006724033 1.4635603e-38 298 245
-0.02824094 0.76700002 -0.006724033 1.4451571e-38 299 245
-0.026861066 0.76599997 -0.0067152665 1.472565e-38 300 245
-0.025451386 0.764 -0.006697733 1.472565e-38 301 245
-0.02404872 0.76200002 -0.0066801999 1.4726006e-38 302 245
-0.022682872 0.76099998 -0.0066714329 1.4726006e-38 303 245
-0.021348584 0.76099998 -0.0066714329 1.4817833e-38 304 245
-0.020014299 0.76099998 -0.0066714329 1.4817833e-38 305 245
-0.01863092 0.759 -0.0066538998 1.4541969e-38 306 245
-0.017300138 0.759 -0.0066538998 1.4726e-38 307 245
-0.015927281 0.75700003 -0.0066363667 1.4908597e-38 308 245
-0.014600007 0.75700003 -0.0066363667 1.4724565e-38 309 245
-0.013272733 0.75700003 -0.0066363667 1.4908243e-38 310 245
-0.01194546 0.75700003 -0.0066363667 1.4908243e-38 311 245
-0.010618187 0.75700003 -0.0066363667 1.4724931e-38 312 245
-0.0092909131 0.75700003 -0.0066363667 1.4724931e-38 313 245
-0.0079425992 0.755 -0.0066188332 1.4541972e-38 314 245
-0.0066188332 0.755 -0.0066188332 1.4541972e-38 315 245
-0.0052950666 0.755 -0.0066188332 1.4541972e-38 316 245
-0.0039818203 0.75700003 -0.0066363667 1.4541972e-38 317 245
-0.0026545466 0.75700003 -0.0066363667 1.444942e-38 318 245
-0.0013272733 0.75700003 -0.0066363667 1.444942e-38 319 245
0 0.75700003 -0.0066363667 1.3991316e-38 320 245
0.0013272733 0.75700003 -0.0066363667 1.4175347e-38 321 245
0.0026545466 0.75700003 -0.0066363667 1.3993104e-38 322 245
0.0039818203 0.75700003 -0.0066363667 1.40853e-38 323 245
0.0053090933 0.75700003 -0.0066363667 1.3810145e-38 324 245
0.0066363667 0.75700003 -0.0066363667 1.3810145e-38 325 245
0.0079636406 0.75700003 -0.0066363667 1.3900187e-38 326 245
0.0092909131 0.75700003 -0.0066363667 1.3623959e-38 327 245
0.010618187 0.75700003 -0.0066363667 1.3529984e-38 328 245
0.01194546 0.75700003 -0.0066363667 1.3161201e-38 329 245
0.0133078 0.759 -0.0066538998 1.2885703e-38 330 245
0.014638579 0.759 -0.0066538998 1.2701312e-38 331 245
0.016011439 0.76099998 -0.0066714329 1.2424729e-38 332 245
0.017345725 0.76099998 -0.0066714329 1.2332534e-38 333 245
0.018680012 0.76099998 -0.0066714329 1.2056319e-38 334 245
0.020014299 0.76099998 -0.0066714329 1.1964122e-38 335 245
0.02137664 0.76200002 -0.0066801999 1.2055242e-38 336 245
0.02271268 0.76200002 -0.0066801999 1.1686461e-38 337 245
0.02404872 0.76200002 -0.0066801999 1.1869776e-38 338 245
0.025518013 0.76599997 -0.0067152665 1.177758e-38 339 245
0.026861066 0.76599997 -0.0067152665 1.1502071e-38 340 245
0.02824094 0.76700002 -0.006724033 1.1502071e-38 341 245
0.02966289 0.76899999 -0.0067415666 1.1043258e-38 342 245
0.031091858 0.77100003 -0.0067590997 1.1228009e-38 343 245
0.032527838 0.773 -0.0067766332 1.0677722e-38 344 245
0.033883166 0.773 -0.0067766332 1.0492972e-38 345 245
0.03528408 0.77399999 -0.0067853997 1.2344112e-38 346 245
0.036641158 0.77399999 -0.0067853997 1.5294731e-38 347 245
0.037998237 0.77399999 -0.0067853997 1.6593421e-38 348 245
-0.040712398 0.77399999 -0.0081424797 1.8163265e-38 290 246
-0.039304473 0.773 -0.0081319595 1.7794122e-38 291 246
-0.037949149 0.773 -0.0081319595 1.4837348e-38 292 246
-0.036593821 0.773 -0.0081319595 1.2993435e-38 293 246
-0.035238493 0.773 -0.0081319595 1.4549919e-38 294 246
-0.033883166 0.773 -0.0081319595 1.3996746e-38 295 246
-0.032443684 0.77100003 -0.0081109209 1.4453739e-38 296 246
-0.031011207 0.76899999 -0.0080898795 1.4084597e-38 297 246
-0.029585747 0.76700002 -0.00806884 1.4726003e-38 298 246
-0.02824094 0.76700002 -0.00806884 1.4449776e-38 299 246
-0.026861066 0.76599997 -0.0080583189 1.4357944e-38 300 246
-0.025451386 0.764 -0.0080372803 1.4357944e-38 301 246
-0.02404872 0.76200002 -0.0080162399 1.4540526e-38 302 246
-0.022682872 0.76099998 -0.0080057196 1.4540526e-38 303 246
-0.021348584 0.76099998 -0.0080057196 1.4724188e-38 304 246
-0.020014299 0.76099998 -0.0080057196 1.4816384e-38 305 246
-0.01863092 0.759 -0.0079846792 1.4633072e-38 306 246
-0.017300138 0.759 -0.0079846792 1.4633072e-38 307 246
-0.015927281 0.75700003 -0.0079636406 1.4723833e-38 308 246
-0.014600007 0.75700003 -0.0079636406 1.4539801e-38 309 246
-0.013272733 0.75700003 -0.0079636406 1.4447253e-38 310 246
-0.01194546 0.75700003 -0.0079636406 1.4539807e-38 311 246
-0.010618187 0.75700003 -0.0079636406 1.4541242e-38 312 246
-0.0092909131 0.75700003 -0.0079636406 1.4633439e-38 313 246
-0.0079636406 0.75700003 -0.0079636406 1.4450127e-38 314 246
-0.0066188332 0.755 -0.0079425992 1.4450127e-38 315 246
-0.0052950666 0.755 -0.0079425992 1.4357574e-38 316 246
-0.0039818203 0.75700003 -0.0079636406 1.4357574e-38 317 246
-0.0026545466 0.75700003 -0.0079636406 1.4174266e-38 318 246
-0.0013272733 0.75700003 -0.0079636406 1.4358297e-38 319 246
0 0.75700003 -0.0079636406 1.4174982e-38 320 246
0.0013272733 0.75700003 -0.0079636406 1.4359373e-38 321 246
0.0026545466 0.75700003 -0.0079636406 1.399346e-38 322 246
0.0039818203 0.75700003 -0.0079636406 1.399346e-38 323 246
0.0053090933 0.75700003 -0.0079636406 1.3717947e-38 324 246
0.0066363667 0.75700003 -0.0079636406 1.3717947e-38 325 246
0.0079636406 0.75700003 -0.0079636406 1.3532479e-38 326 246
0.0092909131 0.75700003 -0.0079636406 1.3348088e-38 327 246
0.010618187 0.75700003 -0.0079636406 1.3161554e-38 328 246
0.01194546 0.75700003 -0.0079636406 1.3069359e-38 329 246
0.0133078 0.759 -0.0079846792 1.2793145e-38 330 246
0.014638579 0.759 -0.0079846792 1.2608395e-38 331 246
0.016011439 0.76099998 -0.0080057196 1.2240339e-38 332 246
0.017345725 0.76099998 -0.0080057196 1.2148144e-38 333 246
0.018680012 0.76099998 -0.0080057196 1.1964122e-38 334 246
0.020014299 0.76099998 -0.0080057196 1.1779731e-38 335 246
0.02137664 0.76200002 -0.0080162399 1.1962322e-38 336 246
0.02271268 0.76200002 -0.0080162399 1.1870126e-38 337 246
0.024111839 0.764 -0.0080372803 1.1594615e-38 338 246
0.025518013 0.76599997 -0.0080583189 1.1502418e-38 339 246
0.026896132 0.76700002 -0.00806884 1.122656e-38 340 246
0.02824094 0.76700002 -0.00806884 1.122656e-38 341 246
0.02966289 0.76899999 -0.0080898795 1.0859945e-38 342 246
0.031091858 0.77100003 -0.0081109209 1.1136174e-38 343 246
0.032527838 0.773 -0.0081319595 1.0677366e-38 344 246
0.033883166 0.773 -0.0081319595 1.0954312e-38 345 246
0.03528408 0.77399999 -0.0081424797 1.2898368e-38 346 246
0.036641158 0.77399999 -0.0081424797 1.5479846e-38 347 246
0.037998237 0.77399999 -0.0081424797 1.6686336e-38 348 246
-0.040712398 0.77399999 -0.0094995592 1.8438776e-38 290 247
-0.039304473 0.773 -0.0094872871 1.8162189e-38 291 247
-0.037949149 0.773 -0.0094872871 1.5022826e-38 292 247
-0.036593821 0.773 -0.0094872871 1.2810132e-38 293 247
-0.035238493 0.773 -0.0094872871 1.372197e-38 294 247
-0.033883166 0.773 -0.0094872871 1.3353546e-38 295 247
-0.032443684 0.77100003 -0.0094627403 1.4268998e-38 296 247
-0.031011207 0.76899999 -0.0094381925 1.3992051e-38 297 247
-0.029585747 0.76700002 -0.0094136465 1.4174634e-38 298 247
-0.02824094 0.76700002 -0.0094136465 1.408208e-38 299 247
-0.026861066 0.76599997 -0.0094013726 1.4173913e-38 300 247
-0.025451386 0.764 -0.0093768267 1.4081716e-38 301 247
-0.02404872 0.76200002 -0.0093522798 1.4081713e-38 302 247
-0.022682872 0.76099998 -0.0093400059 1.3989517e-38 303 247
-0.021348584 0.76099998 -0.0093400059 1.398952e-38 304 247
-0.020014299 0.76099998 -0.0093400059 1.4081716e-38 305 247
-0.01863092 0.759 -0.00931546 1.4265028e-38 306 247
-0.017300138 0.759 -0.00931546 1.4265028e-38 307 247
-0.015927281 0.75700003 -0.0092909131 1.4173185e-38 308 247
-0.014600007 0.75700003 -0.0092909131 1.4173185e-38 309 247
-0.013272733 0.75700003 -0.0092909131 1.398987e-38 310 247
-0.011913899 0.755 -0.0092663663 1.398987e-38 311 247
-0.010590133 0.755 -0.0092663663 1.4082785e-38 312 247
-0.0092663663 0.755 -0.0092663663 1.4174982e-38 313 247
-0.0079425992 0.755 -0.0092663663 1.4174266e-38 314 247
-0.0066188332 0.755 -0.0092663663 1.4082069e-38 315 247
-0.0053090933 0.75700003 -0.0092909131 1.3990239e-38 316 247
-0.0039923396 0.759 -0.00931546 1.3990239e-38 317 247
-0.00266156 0.759 -0.00931546 1.3990239e-38 318 247
-0.00133078 0.759 -0.00931546 1.4174631e-38 319 247
0 0.759 -0.00931546 1.389984e-38 320 247
0.00133078 0.759 -0.00931546 1.3992035e-38 321 247
0.0026545466 0.75700003 -0.0092909131 1.3717599e-38 322 247
0.0039818203 0.75700003 -0.0092909131 1.3717599e-38 323 247
0.0053090933 0.75700003 -0.0092909131 1.3625398e-38 324 247
0.0066363667 0.75700003 -0.0092909131 1.3441366e-38 325 247
0.0079636406 0.75700003 -0.0092909131 1.3532835e-38 326 247
0.0092909131 0.75700003 -0.0092909131 1.3164054e-38 327 247
0.010618187 0.75700003 -0.0092909131 1.2978592e-38 328 247
0.01194546 0.75700003 -0.0092909131 1.2793842e-38 329 247
0.0133078 0.759 -0.00931546 1.2425801e-38 330 247
0.014638579 0.759 -0.00931546 1.2149574e-38 331 247
0.016011439 0.76099998 -0.0093400059 1.1964475e-38 332 247
0.017345725 0.76099998 -0.0093400059 1.1964475e-38 333 247
0.018680012 0.76099998 -0.0093400059 1.1872999e-38 334 247
0.020014299 0.76099998 -0.0093400059 1.1596413e-38 335 247
0.02137664 0.76200002 -0.0093522798 1.1503855e-38 336 247
0.022772292 0.764 -0.0093768267 1.1411659e-38 337 247
0.024111839 0.764 -0.0093768267 1.1319109e-38 338 247
0.025518013 0.76599997 -0.0094013726 1.1226554e-38 339 247
0.026896132 0.76700002 -0.0094136465 1.0951059e-38 340 247
0.02824094 0.76700002 -0.0094136465 1.0951059e-38 341 247
0.029740039 0.77100003 -0.0094627403 1.0860315e-38 342 247
0.03117251 0.773 -0.0094872871 1.1044707e-38 343 247
0.032527838 0.773 -0.0094872871 1.0771013e-38 344 247
0.033883166 0.773 -0.0094872871 1.123199e-38 345 247
0.03528408 0.77399999 -0.0094995592 1.3452989e-38 346 247
0.036641158 0.77399999 -0.0094995592 1.5204348e-38 347 247
-0.039355319 0.77399999 -0.01085664 1.7979239e-38 291 248
-0.037998237 0.77399999 -0.01085664 1.5300136e-38 292 248
-0.036641158 0.77399999 -0.01085664 1.2718659e-38 293 248
-0.035238493 0.773 -0.010842613 1.3536508e-38 294 248
-0.033883166 0.773 -0.010842613 1.3536508e-38 295 248
-0.032359518 0.76899999 -0.010786506 1.4176092e-38 296 248
-0.030930554 0.76700002 -0.010758453 1.3715474e-38 297 248
-0.029585747 0.76700002 -0.010758453 1.4081362e-38 298 248
-0.028204117 0.76599997 -0.010744425 1.3989167e-38 299 248
-0.026861066 0.76599997 -0.010744425 1.398952e-38 300 248
-0.025451386 0.764 -0.010716373 1.398952e-38 301 248
-0.024017159 0.76099998 -0.010674292 1.3897321e-38 302 248
-0.022682872 0.76099998 -0.010674292 1.3805126e-38 303 248
-0.021348584 0.76099998 -0.010674292 1.3804051e-38 304 248
-0.020014299 0.76099998 -0.010674292 1.3896247e-38 305 248
-0.01863092 0.759 -0.01064624 1.4079199e-38 306 248
-0.017300138 0.759 -0.01064624 1.426323e-38 307 248
-0.015927281 0.75700003 -0.010618187 1.4079912e-38 308 248
-0.014600007 0.75700003 -0.010618187 1.4079912e-38 309 248
-0.013272733 0.75700003 -0.010618187 1.3896953e-38 310 248
-0.011913899 0.755 -0.010590133 1.4080984e-38 311 248
-0.010590133 0.755 -0.010590133 1.3990589e-38 312 248
-0.0092663663 0.755 -0.010590133 1.3990589e-38 313 248
-0.0079425992 0.755 -0.010590133 1.3990236e-38 314 248
-0.0066188332 0.755 -0.010590133 1.389804e-38 315 248
-0.0052950666 0.755 -0.010590133 1.3896968e-38 316 248
-0.0039923396 0.759 -0.01064624 1.3896968e-38 317 248
-0.00266156 0.759 -0.01064624 1.3896971e-38 318 248
-0.00133078 0.759 -0.01064624 1.4081362e-38 319 248
0 0.759 -0.01064624 1.3807294e-38 320 248
0.0013272733 0.75700003 -0.010618187 1.3991685e-38 321 248
0.0026545466 0.75700003 -0.010618187 1.3809086e-38 322 248
0.0039818203 0.75700003 -0.010618187 1.371689e-38 323 248
0.0053090933 0.75700003 -0.010618187 1.3625045e-38 324 248
0.0066363667 0.75700003 -0.010618187 1.3625045e-38 325 248
0.0079636406 0.75700003 -0.010618187 1.325769e-38 326 248
0.0092909131 0.75700003 -0.010618187 1.3165495e-38 327 248
0.010618187 0.75700003 -0.010618187 1.2796716e-38 328 248
0.01194546 0.75700003 -0.010618187 1.2612324e-38 329 248
0.0133078 0.759 -0.01064624 1.2150644e-38 330 248
0.014677152 0.76099998 -0.010674292 1.1874055e-38 331 248
0.016011439 0.76099998 -0.010674292 1.1872633e-38 332 248
0.017345725 0.76099998 -0.010674292 1.1872633e-38 333 248
0.01870456 0.76200002 -0.01068832 1.1596766e-38 334 248
0.0200406 0.76200002 -0.01068832 1.1504571e-38 335 248
0.02137664 0.76200002 -0.01068832 1.1503852e-38 336 248
0.022772292 0.764 -0.010716373 1.1319459e-38 337 248
0.024111839 0.764 -0.010716373 1.1410223e-38 338 248
0.025551327 0.76700002 -0.010758453 1.1226192e-38 339 248
0.026896132 0.76700002 -0.010758453 1.0768103e-38 340 248
0.02824094 0.76700002 -0.010758453 1.0860299e-38 341 248
0.029740039 0.77100003 -0.01081456 1.0861034e-38 342 248
0.03117251 0.773 -0.010842613 1.1137621e-38 343 248
0.032527838 0.773 -0.010842613 1.0679181e-38 344 248
0.033883166 0.773 -0.010842613 1.0956126e-38 345 248
0.035238493 0.773 -0.010842613 1.3546271e-38 346 248
0.036641158 0.77399999 -0.01085664 1.5021401e-38 347 248
-0.039355319 0.77399999 -0.01221372 1.8070716e-38 291 249
-0.037998237 0.77399999 -0.01221372 1.61299e-38 292 249
-0.036593821 0.773 -0.012197939 1.3179641e-38 293 249
-0.035238493 0.773 -0.012197939 1.3443957e-38 294 249
-0.033883166 0.773 -0.012197939 1.3351761e-38 295 249
-0.032359518 0.76899999 -0.012134819 1.3900586e-38 296 249
-0.030930554 0.76700002 -0.01210326 1.343961e-38 297 249
-0.029585747 0.76700002 -0.01210326 1.3897337e-38 298 249
-0.028204117 0.76599997 -0.012087479 1.3713306e-38 299 249
-0.026861066 0.76599997 -0.012087479 1.4079209e-38 300 249
-0.025451386 0.764 -0.01205592 1.4079209e-38 301 249
-0.024017159 0.76099998 -0.012008579 1.3712221e-38 302 249
-0.022682872 0.76099998 -0.012008579 1.352819e-38 303 249
-0.021348584 0.76099998 -0.012008579 1.343564e-38 304 249
-0.020014299 0.76099998 -0.012008579 1.3527837e-38 305 249
-0.018680012 0.76099998 -0.012008579 1.3711508e-38 306 249
-0.017300138 0.759 -0.01197702 1.3618952e-38 307 249
-0.015969358 0.759 -0.01197702 1.3711858e-38 308 249
-0.014600007 0.75700003 -0.01194546 1.3711858e-38 309 249
-0.013272733 0.75700003 -0.01194546 1.3529265e-38 310 249
-0.011913899 0.755 -0.011913899 1.362146e-38 311 249
-0.010590133 0.755 -0.011913899 1.3621826e-38 312 249
-0.0092663663 0.755 -0.011913899 1.3621826e-38 313 249
-0.0079425992 0.755 -0.011913899 1.3529275e-38 314 249
-0.0066188332 0.755 -0.011913899 1.3345244e-38 315 249
-0.0052950666 0.755 -0.011913899 1.3345246e-38 316 249
-0.0039923396 0.759 -0.01197702 1.3345246e-38 317 249
-0.00266156 0.759 -0.01197702 1.352928e-38 318 249
-0.00133078 0.759 -0.01197702 1.3621476e-38 319 249
0 0.759 -0.01197702 1.3623628e-38 320 249
0.0013272733 0.75700003 -0.01194546 1.380802e-38 321 249
0.0026545466 0.75700003 -0.01194546 1.3624697e-38 322 249
0.0039818203 0.75700003 -0.01194546 1.3624697e-38 323 249
0.0053090933 0.75700003 -0.01194546 1.3440661e-38 324 249
0.0066363667 0.75700003 -0.01194546 1.3440661e-38 325 249
0.0079636406 0.75700003 -0.01194546 1.3165142e-38 326 249
0.0092909131 0.75700003 -0.01194546 1.298111e-38 327 249
0.010618187 0.75700003 -0.01194546 1.2979311e-38 328 249
0.01197702 0.759 -0.01197702 1.2702366e-38 329 249
0.0133078 0.759 -0.01197702 1.2149925e-38 330 249
0.014677152 0.76099998 -0.012008579 1.1965532e-38 331 249
0.016011439 0.76099998 -0.012008579 1.1871558e-38 332 249
0.01736852 0.76200002 -0.01202436 1.1779363e-38 333 249
0.01870456 0.76200002 -0.01202436 1.1503499e-38 334 249
0.0200406 0.76200002 -0.01202436 1.1503499e-38 335 249
0.02137664 0.76200002 -0.01202436 1.1594615e-38 336 249
0.022772292 0.764 -0.01205592 1.1410223e-38 337 249
0.024111839 0.764 -0.01205592 1.1134359e-38 338 249
0.025518013 0.76599997 -0.012087479 1.1226554e-38 339 249
0.026896132 0.76700002 -0.01210326 1.0860299e-38 340 249
0.028314579 0.76899999 -0.012134819 1.1044331e-38 341 249
0.029740039 0.77100003 -0.01216638 1.0769562e-38 342 249
0.03117251 0.773 -0.012197939 1.123054e-38 343 249
0.032527838 0.773 -0.012197939 1.0680265e-38 344 249
0.033883166 0.773 -0.012197939 1.1325635e-38 345 249
0.035238493 0.773 -0.012197939 1.3638469e-38 346 249
0.036641158 0.77399999 -0.01221372 1.5113599e-38 347 249
-0.0399234 0.759 -0.0133078 1.7978518e-38 290 250
-0.038592618 0.759 -0.0133078 1.7886322e-38 291 250
-0.03726184 0.759 -0.0133078 1.640721e-38 292 250
-0.036593821 0.773 -0.013553266 1.4010123e-38 293 250
-0.035238493 0.773 -0.013553266 1.3168449e-38 294 250
-0.033795502 0.77100003 -0.013518199 1.3076253e-38 295 250
-0.03227536 0.76700002 -0.013448066 1.3900584e-38 296 250
-0.030930554 0.76700002 -0.013448066 1.3439607e-38 297 250
-0.029585747 0.76700002 -0.013448066 1.3621829e-38 298 250
-0.028204117 0.76599997 -0.013430533 1.3345244e-38 299 250
-0.026861066 0.76599997 -0.013430533 1.3711152e-38 300 250
-0.025451386 0.764 -0.013395466 1.3618955e-38 301 250
-0.02404872 0.76200002 -0.0133604 1.3435287e-38 302 250
-0.022682872 0.76099998 -0.013342866 1.3435287e-38 303 250
-0.021348584 0.76099998 -0.013342866 1.3343091e-38 304 250
-0.020014299 0.76099998 -0.013342866 1.3343091e-38 305 250
-0.018680012 0.76099998 -0.013342866 1.3434561e-38 306 250
-0.017345725 0.76099998 -0.013342866 1.3526756e-38 307 250
-0.015969358 0.759 -0.0133078 1.352711e-38 308 250
-0.014600007 0.75700003 -0.013272733 1.3619305e-38 309 250
-0.013272733 0.75700003 -0.013272733 1.3435996e-38 310 250
-0.011913899 0.755 -0.013237666 1.3528193e-38 311 250
-0.010590133 0.755 -0.013237666 1.325377e-38 312 250
-0.0092909131 0.75700003 -0.013272733 1.2977183e-38 313 250
-0.0079425992 0.755 -0.013237666 1.3344166e-38 314 250
-0.0066188332 0.755 -0.013237666 1.3251612e-38 315 250
-0.0052950666 0.755 -0.013237666 1.3251612e-38 316 250
-0.0039923396 0.759 -0.0133078 1.3344166e-38 317 250
-0.00266156 0.759 -0.0133078 1.3252695e-38 318 250
-0.00133078 0.759 -0.0133078 1.352928e-38 319 250
0 0.759 -0.0133078 1.3255565e-38 320 250
0.0013272733 0.75700003 -0.013272733 1.3624347e-38 321 250
0.0026545466 0.75700003 -0.013272733 1.3348831e-38 322 250
0.0039818203 0.75700003 -0.013272733 1.3441385e-38 323 250
0.0053090933 0.75700003 -0.013272733 1.3256634e-38 324 250
0.0066363667 0.75700003 -0.013272733 1.3164438e-38 325 250
0.0079636406 0.75700003 -0.013272733 1.2888211e-38 326 250
0.0092909131 0.75700003 -0.013272733 1.2796016e-38 327 250
0.01064624 0.759 -0.0133078 1.2703094e-38 328 250
0.01197702 0.759 -0.0133078 1.2426507e-38 329 250
0.013342866 0.76099998 -0.013342866 1.2057728e-38 330 250
0.014677152 0.76099998 -0.013342866 1.1780782e-38 331 250
0.016011439 0.76099998 -0.013342866 1.1503852e-38 332 250
0.01736852 0.76200002 -0.0133604 1.1411655e-38 333 250
0.01870456 0.76200002 -0.0133604 1.1502421e-38 334 250
0.0200406 0.76200002 -0.0133604 1.1502421e-38 335 250
0.02137664 0.76200002 -0.0133604 1.1502065e-38 336 250
0.02271268 0.76200002 -0.0133604 1.140987e-38 337 250
0.024111839 0.764 -0.013395466 1.1042889e-38 338 250
0.025518013 0.76599997 -0.013430533 1.1227279e-38 339 250
0.026896132 0.76700002 -0.013448066 1.0585156e-38 340 250
0.028314579 0.76899999 -0.013483133 1.0861385e-38 341 250
0.029740039 0.77100003 -0.013518199 1.0862482e-38 342 250
0.03117251 0.773 -0.013553266 1.1231266e-38 343 250
0.032527838 0.773 -0.013553266 1.1049411e-38 344 250
0.033883166 0.773 -0.013553266 1.1879171e-38 345 250
0.035238493 0.773 -0.013553266 1.3731384e-38 346 250
0.036641158 0.77399999 -0.013570799 1.5114318e-38 347 250
-0.0399234 0.759 -0.014638579 1.7978521e-38 290 251
-0.038592618 0.759 -0.014638579 1.7701574e-38 291 251
-0.03726184 0.759 -0.014638579 1.6224263e-38 292 251
-0.035931058 0.759 -0.014638579 1.438035e-38 293 251
-0.035238493 0.773 -0.014908593 1.2985502e-38 294 251
-0.033795502 0.77100003 -0.01487002 1.2800752e-38 295 251
-0.03227536 0.76700002 -0.014792874 1.3808757e-38 296 251
-0.030930554 0.76700002 -0.014792874 1.3439975e-38 297 251
-0.029585747 0.76700002 -0.014792874 1.3530003e-38 298 251
-0.028204117 0.76599997 -0.014773586 1.3253416e-38 299 251
-0.026861066 0.76599997 -0.014773586 1.3343813e-38 300 251
-0.025451386 0.764 -0.014735013 1.3251617e-38 301 251
-0.02404872 0.76200002 -0.01469644 1.3251614e-38 302 251
-0.022682872 0.76099998 -0.014677152 1.3251614e-38 303 251
-0.021348584 0.76099998 -0.014677152 1.3159053e-38 304 251
-0.020014299 0.76099998 -0.014677152 1.3251249e-38 305 251
-0.018680012 0.76099998 -0.014677152 1.3251599e-38 306 251
-0.017345725 0.76099998 -0.014677152 1.3251599e-38 307 251
-0.015969358 0.759 -0.014638579 1.3251596e-38 308 251
-0.014638579 0.759 -0.014638579 1.31594e-38 309 251
-0.0133078 0.759 -0.014638579 1.3251599e-38 310 251
-0.01194546 0.75700003 -0.014600007 1.3251599e-38 311 251
-0.010618187 0.75700003 -0.014600007 1.2977533e-38 312 251
-0.0092909131 0.75700003 -0.014600007 1.2885337e-38 313 251
-0.0079636406 0.75700003 -0.014600007 1.306865e-38 314 251
-0.0066363667 0.75700003 -0.014600007 1.306865e-38 315 251
-0.0053090933 0.75700003 -0.014600007 1.3251249e-38 316 251
-0.0039923396 0.759 -0.014638579 1.3343444e-38 317 251
-0.00266156 0.759 -0.014638579 1.2977183e-38 318 251
-0.00133078 0.759 -0.014638579 1.3345965e-38 319 251
0 0.759 -0.014638579 1.3164441e-38 320 251
0.0013272733 0.75700003 -0.014600007 1.3256637e-38 321 251
0.0026545466 0.75700003 -0.014600007 1.325699e-38 322 251
0.0039818203 0.75700003 -0.014600007 1.325699e-38 323 251
0.0053090933 0.75700003 -0.014600007 1.2980404e-38 324 251
0.0066363667 0.75700003 -0.014600007 1.2980404e-38 325 251
0.0079636406 0.75700003 -0.014600007 1.279601e-38 326 251
0.0092909131 0.75700003 -0.014600007 1.2611618e-38 327 251
0.01064624 0.759 -0.014638579 1.2518703e-38 328 251
0.01197702 0.759 -0.014638579 1.2149922e-38 329 251
0.013342866 0.76099998 -0.014677152 1.1873334e-38 330 251
0.014677152 0.76099998 -0.014677152 1.1688942e-38 331 251
0.016011439 0.76099998 -0.014677152 1.122798e-38 332 251
0.01736852 0.76200002 -0.01469644 1.1043948e-38 333 251
0.01870456 0.76200002 -0.01469644 1.1410225e-38 334 251
0.0200406 0.76200002 -0.01469644 1.1410225e-38 335 251
0.02137664 0.76200002 -0.01469644 1.1225838e-38 336 251
0.02271268 0.76200002 -0.01469644 1.1225838e-38 337 251
0.024174958 0.76599997 -0.014773586 1.0675904e-38 338 251
0.025518013 0.76599997 -0.014773586 1.07681e-38 339 251
0.026966266 0.76899999 -0.014831445 1.0677353e-38 340 251
0.028314579 0.76899999 -0.014831445 1.095358e-38 341 251
0.029740039 0.77100003 -0.01487002 1.0772083e-38 342 251
0.031091858 0.77100003 -0.01487002 1.0956474e-38 343 251
0.032443684 0.77100003 -0.01487002 1.1695859e-38 344 251
0.033795502 0.77100003 -0.01487002 1.2709651e-38 345 251
0.03514732 0.77100003 -0.01487002 1.3548439e-38 346 251
-0.0399234 0.759 -0.015969358 1.7885969e-38 290 252
-0.038592618 0.759 -0.015969358 1.7517545e-38 291 252
-0.03726184 0.759 -0.015969358 1.6316827e-38 292 252
-0.035931058 0.759 -0.015969358 1.4933893e-38 293 252
-0.03528408 0.77399999 -0.016284959 1.3356457e-38 294 252
-0.033795502 0.77100003 -0.016221842 1.2618892e-38 295 252
-0.03227536 0.76700002 -0.01613768 1.3533976e-38 296 252
-0.030930554 0.76700002 -0.01613768 1.3257029e-38 297 252
-0.029585747 0.76700002 -0.01613768 1.3255217e-38 298 252
-0.028204117 0.76599997 -0.016116638 1.279424e-38 299 252
-0.026861066 0.76599997 -0.016116638 1.288464e-38 300 252
-0.025451386 0.764 -0.016074561 1.2792085e-38 301 252
-0.02404872 0.76200002 -0.01603248 1.269989e-38 302 252
-0.022682872 0.76099998 -0.016011439 1.269989e-38 303 252
-0.021348584 0.76099998 -0.016011439 1.2882839e-38 304 252
-0.020014299 0.76099998 -0.016011439 1.2975034e-38 305 252
-0.018680012 0.76099998 -0.016011439 1.2884261e-38 306 252
-0.017345725 0.76099998 -0.016011439 1.2884261e-38 307 252
-0.015969358 0.759 -0.015969358 1.2883539e-38 308 252
-0.014638579 0.759 -0.015969358 1.2791344e-38 309 252
-0.0133078 0.759 -0.015969358 1.2883189e-38 310 252
-0.01194546 0.75700003 -0.015927281 1.2975385e-38 311 252
-0.010618187 0.75700003 -0.015927281 1.2701312e-38 312 252
-0.0092909131 0.75700003 -0.015927281 1.2793507e-38 313 252
-0.0079636406 0.75700003 -0.015927281 1.2793507e-38 314 252
-0.0066363667 0.75700003 -0.015927281 1.2701312e-38 315 252
-0.0053090933 0.75700003 -0.015927281 1.2976106e-38 316 252
-0.0039923396 0.759 -0.015969358 1.3068302e-38 317 252
-0.00266156 0.759 -0.015969358 1.2794593e-38 318 252
-0.00133078 0.759 -0.015969358 1.307082e-38 319 252
0 0.759 -0.015969358 1.2980773e-38 320 252
0.00133078 0.759 -0.015969358 1.2980773e-38 321 252
0.00266156 0.759 -0.015969358 1.2981126e-38 322 252
0.0039923396 0.759 -0.015969358 1.288893e-38 323 252
0.0053090933 0.75700003 -0.015927281 1.2612345e-38 324 252
0.0066363667 0.75700003 -0.015927281 1.2612345e-38 325 252
0.0079636406 0.75700003 -0.015927281 1.2427949e-38 326 252
0.0092909131 0.75700003 -0.015927281 1.2243558e-38 327 252
0.01064624 0.759 -0.015969358 1.2150644e-38 328 252
0.012008579 0.76099998 -0.016011439 1.1874055e-38 329 252
0.013342866 0.76099998 -0.016011439 1.1505274e-38 330 252
0.014677152 0.76099998 -0.016011439 1.1320881e-38 331 252
0.016011439 0.76099998 -0.016011439 1.1043948e-38 332 252
0.01736852 0.76200002 -0.01603248 1.0951753e-38 333 252
0.01870456 0.76200002 -0.01603248 1.0858854e-38 334 252
0.0200406 0.76200002 -0.01603248 1.0858854e-38 335 252
0.021432746 0.764 -0.016074561 1.0675188e-38 336 252
0.022772292 0.764 -0.016074561 1.0675188e-38 337 252
0.024174958 0.76599997 -0.016116638 1.040076e-38 338 252
0.025551327 0.76700002 -0.01613768 1.0492955e-38 339 252
0.027036399 0.77100003 -0.016221842 1.0585524e-38 340 252
