# .PCD v.7 - Point Cloud Data file format
FIELDS x y z rgb imX imY
SIZE 4 4 4 4 4 4
TYPE F F F F F F
COUNT 1 1 1 1 1 1
WIDTH 855
HEIGHT 1
VIEWPOINT 0 0 0 1 0 0 0
POINTS 855
DATA ascii
-0.0026475333 0.755 -0.011913899 1.2883171e-38 318 249
-0.0013237667 0.755 -0.011913899 1.2790974e-38 319 249
0 0.755 -0.011913899 1.2606583e-38 320 249
0.0013237667 0.755 -0.011913899 1.2145605e-38 321 249
0.0026475333 0.755 -0.011913899 1.196051e-38 322 249
0.0039712996 0.755 -0.011913899 1.1407336e-38 323 249
0.0052880533 0.75400001 -0.01189812 1.0485405e-38 324 249
0.0066100666 0.75400001 -0.01189812 1.0669436e-38 325 249
0.00793208 0.75400001 -0.01189812 1.0212778e-38 326 249
0.0092540924 0.75400001 -0.01189812 1.0397169e-38 327 249
0.010590133 0.755 -0.011913899 1.0949252e-38 328 249
0.011913899 0.755 -0.011913899 1.1041447e-38 329 249
0.013272733 0.75700003 -0.01194546 1.10418e-38 330 249
0.014600007 0.75700003 -0.01194546 1.0949246e-38 331 249
0.015927281 0.75700003 -0.01194546 1.0581191e-38 332 249
0.017345725 0.76099998 -0.012008579 1.0581191e-38 333 249
0.018680012 0.76099998 -0.012008579 1.0029829e-38 334 249
0.020014299 0.76099998 -0.012008579 9.8454375e-39 335 249
0.02137664 0.76200002 -0.01202436 9.7528916e-39 336 249
0.022772292 0.764 -0.01205592 9.5688605e-39 337 249
0.024111839 0.764 -0.01205592 9.0182174e-39 338 249
0.025518013 0.76599997 -0.012087479 8.9260204e-39 339 249
0.026896132 0.76700002 -0.01210326 8.5590596e-39 340 249
0.02824094 0.76700002 -0.01210326 8.6512552e-39 341 249
0.029585747 0.76700002 -0.01210326 8.1935323e-39 342 249
0.030930554 0.76700002 -0.01210326 9.1158487e-39 343 249
0.032527838 0.773 -0.012197939 1.3546647e-38 344 249
-0.044725779 0.773 -0.013553266 1.8070719e-38 287 250
-0.043370452 0.773 -0.013553266 1.8068902e-38 288 250
-0.04190642 0.77100003 -0.013518199 1.6132793e-38 289 250
-0.040554602 0.77100003 -0.013518199 1.5018126e-38 290 250
-0.03920278 0.77100003 -0.013518199 1.3082018e-38 291 250
-0.03775277 0.76899999 -0.013483133 1.4183279e-38 292 250
-0.036309779 0.76700002 -0.013448066 1.3722661e-38 293 250
-0.034964975 0.76700002 -0.013448066 1.4181101e-38 294 250
-0.033576332 0.76599997 -0.013430533 1.4181101e-38 295 250
-0.032233275 0.76599997 -0.013430533 1.4547723e-38 296 250
-0.030809574 0.764 -0.013395466 1.4271496e-38 297 250
-0.029354304 0.76099998 -0.013342866 1.4455164e-38 298 250
-0.028020019 0.76099998 -0.013342866 1.4455164e-38 299 250
-0.026685731 0.76099998 -0.013342866 1.436261e-38 300 250
-0.025284819 0.759 -0.0133078 1.4270414e-38 301 250
-0.023954039 0.759 -0.0133078 1.4086382e-38 302 250
-0.02262326 0.759 -0.0133078 1.3994186e-38 303 250
-0.02129248 0.759 -0.0133078 1.3717243e-38 304 250
-0.019909101 0.75700003 -0.013272733 1.3625048e-38 305 250
-0.018532733 0.755 -0.013237666 1.3531782e-38 306 250
-0.017208965 0.755 -0.013237666 1.3531782e-38 307 250
-0.015885198 0.755 -0.013237666 1.3897687e-38 308 250
-0.014561433 0.755 -0.013237666 1.3713656e-38 309 250
-0.013237666 0.755 -0.013237666 1.3621458e-38 310 250
-0.01189812 0.75400001 -0.013220133 1.3529262e-38 311 250
-0.010576107 0.75400001 -0.013220133 1.3435993e-38 312 250
-0.0092540924 0.75400001 -0.013220133 1.3435993e-38 313 250
-0.00793208 0.75400001 -0.013220133 1.3435996e-38 314 250
-0.0066188332 0.755 -0.013237666 1.3343441e-38 315 250
-0.0052950666 0.755 -0.013237666 1.3434914e-38 316 250
-0.0039712996 0.755 -0.013237666 1.3250883e-38 317 250
-0.0026475333 0.755 -0.013237666 1.2882821e-38 318 250
-0.0013237667 0.755 -0.013237666 1.2698428e-38 319 250
0 0.755 -0.013237666 1.2789545e-38 320 250
0.0013237667 0.755 -0.013237666 1.2420763e-38 321 250
0.0026475333 0.755 -0.013237666 1.2052703e-38 322 250
0.0039712996 0.755 -0.013237666 1.1592085e-38 323 250
0.0052950666 0.755 -0.013237666 1.1406983e-38 324 250
0.0066100666 0.75400001 -0.013220133 1.1406983e-38 325 250
0.00793208 0.75400001 -0.013220133 1.0857052e-38 326 250
0.0092540924 0.75400001 -0.013220133 1.0949249e-38 327 250
0.010590133 0.755 -0.013237666 1.0949249e-38 328 250
0.011913899 0.755 -0.013237666 1.0949249e-38 329 250
0.013272733 0.75700003 -0.013272733 1.0765581e-38 330 250
0.014600007 0.75700003 -0.013272733 1.0673384e-38 331 250
0.015927281 0.75700003 -0.013272733 1.0397523e-38 332 250
0.017300138 0.759 -0.0133078 1.0213131e-38 333 250
0.018680012 0.76099998 -0.013342866 9.8454375e-39 334 250
0.020014299 0.76099998 -0.013342866 9.8454375e-39 335 250
0.02137664 0.76200002 -0.0133604 9.5692234e-39 336 250
0.022772292 0.764 -0.013395466 9.4770278e-39 337 250
0.024111839 0.764 -0.013395466 8.9260232e-39 338 250
0.025518013 0.76599997 -0.013430533 8.9260232e-39 339 250
0.026896132 0.76700002 -0.013448066 8.2831957e-39 340 250
0.02824094 0.76700002 -0.013448066 8.6519769e-39 341 250
0.029585747 0.76700002 -0.013448066 8.1953315e-39 342 250
0.030930554 0.76700002 -0.013448066 9.9470471e-39 343 250
0.032569919 0.77399999 -0.013570799 1.4192732e-38 344 250
-0.044725779 0.773 -0.014908593 1.8161836e-38 287 251
-0.043370452 0.773 -0.014908593 1.8069988e-38 288 251
-0.04190642 0.77100003 -0.01487002 1.6779249e-38 289 251
-0.040554602 0.77100003 -0.01487002 1.5111406e-38 290 251
-0.03920278 0.77100003 -0.01487002 1.2806876e-38 291 251
-0.03775277 0.76899999 -0.014831445 1.3722308e-38 292 251
-0.036309779 0.76700002 -0.014792874 1.3630111e-38 293 251
-0.034964975 0.76700002 -0.014792874 1.3996357e-38 294 251
-0.033620168 0.76700002 -0.014792874 1.3903802e-38 295 251
-0.032233275 0.76599997 -0.014773586 1.4362616e-38 296 251
-0.030809574 0.764 -0.014735013 1.427042e-38 297 251
-0.029354304 0.76099998 -0.014677152 1.427042e-38 298 251
-0.028020019 0.76099998 -0.014677152 1.408603e-38 299 251
-0.026615599 0.759 -0.014638579 1.3994189e-38 300 251
-0.025284819 0.759 -0.014638579 1.3994189e-38 301 251
-0.023954039 0.759 -0.014638579 1.3901991e-38 302 251
-0.02262326 0.759 -0.014638579 1.3717599e-38 303 251
-0.02129248 0.759 -0.014638579 1.3531776e-38 304 251
-0.0199617 0.759 -0.014638579 1.3347385e-38 305 251
-0.018532733 0.755 -0.014561433 1.353106e-38 306 251
-0.017208965 0.755 -0.014561433 1.353106e-38 307 251
-0.015885198 0.755 -0.014561433 1.3621458e-38 308 251
-0.014561433 0.755 -0.014561433 1.3529262e-38 309 251
-0.013237666 0.755 -0.014561433 1.3528543e-38 310 251
-0.011913899 0.755 -0.014561433 1.3436346e-38 311 251
-0.010590133 0.755 -0.014561433 1.3343441e-38 312 251
-0.0092663663 0.755 -0.014561433 1.3343441e-38 313 251
-0.0079425992 0.755 -0.014561433 1.3343444e-38 314 251
-0.0066188332 0.755 -0.014561433 1.3343444e-38 315 251
-0.0052950666 0.755 -0.014561433 1.3434558e-38 316 251
-0.0039712996 0.755 -0.014561433 1.3158331e-38 317 251
-0.0026475333 0.755 -0.014561433 1.2973939e-38 318 251
-0.0013237667 0.755 -0.014561433 1.2789189e-38 319 251
0 0.755 -0.014561433 1.2696274e-38 320 251
0.0013237667 0.755 -0.014561433 1.2511881e-38 321 251
0.0026475333 0.755 -0.014561433 1.2236018e-38 322 251
0.0039712996 0.755 -0.014561433 1.1959791e-38 323 251
0.0052950666 0.755 -0.014561433 1.1499899e-38 324 251
0.0066100666 0.75400001 -0.014542146 1.1499899e-38 325 251
0.00793208 0.75400001 -0.014542146 1.1224038e-38 326 251
0.0092663663 0.755 -0.014561433 1.1224038e-38 327 251
0.010590133 0.755 -0.014561433 1.0948531e-38 328 251
0.01194546 0.75700003 -0.014600007 1.0948531e-38 329 251
0.013272733 0.75700003 -0.014600007 1.0855983e-38 330 251
0.014600007 0.75700003 -0.014600007 1.0763428e-38 331 251
0.015927281 0.75700003 -0.014600007 1.0396446e-38 332 251
0.017300138 0.759 -0.014638579 1.0303892e-38 333 251
0.018680012 0.76099998 -0.014677152 9.8447187e-39 334 251
0.020014299 0.76099998 -0.014677152 9.9369143e-39 335 251
0.02137664 0.76200002 -0.01469644 9.3859083e-39 336 251
0.022772292 0.764 -0.014735013 9.2937127e-39 337 251
0.024111839 0.764 -0.014735013 8.9260232e-39 338 251
0.025518013 0.76599997 -0.014773586 8.8338276e-39 339 251
0.026896132 0.76700002 -0.014792874 8.2839146e-39 340 251
0.02824094 0.76700002 -0.014792874 8.3761102e-39 341 251
0.029585747 0.76700002 -0.014792874 8.3807948e-39 342 251
0.030930554 0.76700002 -0.014792874 1.1054468e-38 343 251
0.032359518 0.76899999 -0.014831445 1.4470398e-38 344 251
-0.043370452 0.773 -0.016263919 1.8254384e-38 288 252
-0.042015124 0.773 -0.016263919 1.7240232e-38 289 252
-0.040554602 0.77100003 -0.016221842 1.5114653e-38 290 252
-0.03920278 0.77100003 -0.016221842 1.2533176e-38 291 252
-0.03775277 0.76899999 -0.016179759 1.3722676e-38 292 252
-0.036309779 0.76700002 -0.01613768 1.3446089e-38 293 252
-0.034964975 0.76700002 -0.01613768 1.3903452e-38 294 252
-0.033620168 0.76700002 -0.01613768 1.3811257e-38 295 252
-0.032233275 0.76599997 -0.016116638 1.3810891e-38 296 252
-0.030809574 0.764 -0.016074561 1.3626498e-38 297 252
-0.029354304 0.76099998 -0.016011439 1.3718694e-38 298 252
-0.028020019 0.76099998 -0.016011439 1.3533944e-38 299 252
-0.026615599 0.759 -0.015969358 1.3625776e-38 300 252
-0.025284819 0.759 -0.015969358 1.3533581e-38 301 252
-0.023954039 0.759 -0.015969358 1.3441029e-38 302 252
-0.02262326 0.759 -0.015969358 1.3256637e-38 303 252
-0.02129248 0.759 -0.015969358 1.3071171e-38 304 252
-0.019909101 0.75700003 -0.015927281 1.3071171e-38 305 252
-0.018532733 0.755 -0.015885198 1.3070452e-38 306 252
-0.017208965 0.755 -0.015885198 1.3162647e-38 307 252
-0.015885198 0.755 -0.015885198 1.3254117e-38 308 252
-0.014561433 0.755 -0.015885198 1.3161921e-38 309 252
-0.013237666 0.755 -0.015885198 1.3161204e-38 310 252
-0.011913899 0.755 -0.015885198 1.306865e-38 311 252
-0.010590133 0.755 -0.015885198 1.3068652e-38 312 252
-0.0092663663 0.755 -0.015885198 1.3068652e-38 313 252
-0.0079425992 0.755 -0.015885198 1.3068652e-38 314 252
-0.0066188332 0.755 -0.015885198 1.2976457e-38 315 252
-0.0052950666 0.755 -0.015885198 1.3158697e-38 316 252
-0.0039712996 0.755 -0.015885198 1.288247e-38 317 252
-0.0026475333 0.755 -0.015885198 1.2698078e-38 318 252
-0.0013237667 0.755 -0.015885198 1.2513328e-38 319 252
0 0.755 -0.015885198 1.2237101e-38 320 252
0.0013237667 0.755 -0.015885198 1.2144904e-38 321 252
0.0026475333 0.755 -0.015885198 1.1777563e-38 322 252
0.0039712996 0.755 -0.015885198 1.1685368e-38 323 252
0.0052950666 0.755 -0.015885198 1.1408785e-38 324 252
0.0066188332 0.755 -0.015885198 1.1224394e-38 325 252
0.0079425992 0.755 -0.015885198 1.1131841e-38 326 252
0.0092663663 0.755 -0.015885198 1.1131841e-38 327 252
0.010590133 0.755 -0.015885198 1.1039295e-38 328 252
0.01194546 0.75700003 -0.015927281 1.0763068e-38 329 252
0.013272733 0.75700003 -0.015927281 1.0395021e-38 330 252
0.014638579 0.759 -0.015969358 1.0395021e-38 331 252
0.015969358 0.759 -0.015969358 9.8447215e-39 332 252
0.017345725 0.76099998 -0.016011439 9.8447215e-39 333 252
0.018680012 0.76099998 -0.016011439 9.5699268e-39 334 252
0.020014299 0.76099998 -0.016011439 9.5699268e-39 335 252
0.02137664 0.76200002 -0.01603248 9.2944344e-39 336 252
0.022772292 0.764 -0.016074561 9.0178475e-39 337 252
0.024111839 0.764 -0.016074561 8.8334744e-39 338 252
0.025518013 0.76599997 -0.016116638 9.0178671e-39 339 252
0.026896132 0.76700002 -0.01613768 8.1013212e-39 340 252
0.02824094 0.76700002 -0.01613768 8.2857125e-39 341 252
0.029585747 0.76700002 -0.01613768 9.1179969e-39 342 252
0.030930554 0.76700002 -0.01613768 1.2344844e-38 343 252
-0.040554602 0.77100003 -0.01757366 1.5945506e-38 290 253
-0.03920278 0.77100003 -0.01757366 1.3364028e-38 291 253
-0.037850961 0.77100003 -0.01757366 1.3999636e-38 292 253
-0.036404461 0.76899999 -0.017528072 1.3446462e-38 293 253
-0.034964975 0.76700002 -0.017482487 1.3812701e-38 294 253
-0.033620168 0.76700002 -0.017482487 1.3259886e-38 295 253
-0.032233275 0.76599997 -0.017459691 1.3626498e-38 296 253
-0.030809574 0.764 -0.017414106 1.3441748e-38 297 253
-0.029354304 0.76099998 -0.017345725 1.3624695e-38 298 253
-0.028020019 0.76099998 -0.017345725 1.3624695e-38 299 253
-0.026615599 0.759 -0.017300138 1.3348466e-38 300 253
-0.025284819 0.759 -0.017300138 1.3256271e-38 301 253
-0.023954039 0.759 -0.017300138 1.3163003e-38 302 253
-0.02262326 0.759 -0.017300138 1.3070808e-38 303 253
-0.02129248 0.759 -0.017300138 1.2977533e-38 304 253
-0.019909101 0.75700003 -0.017254554 1.3161924e-38 305 253
-0.018532733 0.755 -0.017208965 1.3161924e-38 306 253
-0.017208965 0.755 -0.017208965 1.3161924e-38 307 253
-0.015885198 0.755 -0.017208965 1.3161201e-38 308 253
-0.014561433 0.755 -0.017208965 1.3069006e-38 309 253
-0.013237666 0.755 -0.017208965 1.3069006e-38 310 253
-0.011913899 0.755 -0.017208965 1.3069006e-38 311 253
-0.010590133 0.755 -0.017208965 1.3067931e-38 312 253
-0.0092663663 0.755 -0.017208965 1.3067931e-38 313 253
-0.0079425992 0.755 -0.017208965 1.3068655e-38 314 253
-0.0066188332 0.755 -0.017208965 1.2883905e-38 315 253
-0.0052950666 0.755 -0.017208965 1.2883192e-38 316 253
-0.0039712996 0.755 -0.017208965 1.2606245e-38 317 253
-0.0026475333 0.755 -0.017208965 1.251333e-38 318 253
-0.0013237667 0.755 -0.017208965 1.2237104e-38 319 253
0 0.755 -0.017208965 1.2053073e-38 320 253
0.0013237667 0.755 -0.017208965 1.1776844e-38 321 253
0.0026475333 0.755 -0.017208965 1.1776847e-38 322 253
0.0039712996 0.755 -0.017208965 1.1684293e-38 323 253
0.0052950666 0.755 -0.017208965 1.1407709e-38 324 253
0.0066188332 0.755 -0.017208965 1.1315153e-38 325 253
0.0079425992 0.755 -0.017208965 1.113149e-38 326 253
0.0092663663 0.755 -0.017208965 1.1039295e-38 327 253
0.010618187 0.75700003 -0.017254554 1.0763431e-38 328 253
0.01194546 0.75700003 -0.017254554 1.057904e-38 329 253
0.0133078 0.759 -0.017300138 1.0210624e-38 330 253
0.014638579 0.759 -0.017300138 1.0118427e-38 331 253
0.015969358 0.759 -0.017300138 9.7514496e-39 332 253
0.017345725 0.76099998 -0.017345725 9.9354822e-39 333 253
0.018680012 0.76099998 -0.017345725 9.5688605e-39 334 253
0.020014299 0.76099998 -0.017345725 9.5688605e-39 335 253
0.02137664 0.76200002 -0.01736852 9.2933596e-39 336 253
0.022772292 0.764 -0.017414106 9.1089669e-39 337 253
0.024111839 0.764 -0.017414106 8.6501594e-39 338 253
0.025518013 0.76599997 -0.017459691 8.742355e-39 339 253
0.026896132 0.76700002 -0.017482487 8.1034694e-39 340 253
0.028314579 0.76899999 -0.017528072 8.0112738e-39 341 253
0.02966289 0.76899999 -0.017528072 9.9473946e-39 342 253
-0.03920278 0.77100003 -0.018925481 1.4010842e-38 291 254
-0.037850961 0.77100003 -0.018925481 1.40922e-38 292 254
-0.036499143 0.77100003 -0.018925481 1.3262441e-38 293 254
-0.035056144 0.76899999 -0.018876385 1.3719787e-38 294 254
-0.033620168 0.76700002 -0.018827293 1.3443198e-38 295 254
-0.03227536 0.76700002 -0.018827293 1.3350631e-38 296 254
-0.030809574 0.764 -0.018753653 1.316624e-38 297 254
-0.029354304 0.76099998 -0.018680012 1.3165165e-38 298 254
-0.028020019 0.76099998 -0.018680012 1.3072968e-38 299 254
-0.026615599 0.759 -0.01863092 1.2980054e-38 300 254
-0.025284819 0.759 -0.01863092 1.2795663e-38 301 254
-0.023954039 0.759 -0.01863092 1.2703114e-38 302 254
-0.02262326 0.759 -0.01863092 1.2610917e-38 303 254
-0.02129248 0.759 -0.01863092 1.2609842e-38 304 254
-0.019909101 0.75700003 -0.018581826 1.2702396e-38 305 254
-0.018581826 0.75700003 -0.018581826 1.2977183e-38 306 254
-0.017254554 0.75700003 -0.018581826 1.2977183e-38 307 254
-0.015885198 0.755 -0.018532733 1.2792789e-38 308 254
-0.014561433 0.755 -0.018532733 1.2792789e-38 309 254
-0.013237666 0.755 -0.018532733 1.2700596e-38 310 254
-0.011913899 0.755 -0.018532733 1.2700596e-38 311 254
-0.010590133 0.755 -0.018532733 1.2700243e-38 312 254
-0.0092663663 0.755 -0.018532733 1.2700243e-38 313 254
-0.0079425992 0.755 -0.018532733 1.2424379e-38 314 254
-0.0066188332 0.755 -0.018532733 1.2424379e-38 315 254
-0.0052950666 0.755 -0.018532733 1.24233e-38 316 254
-0.0039712996 0.755 -0.018532733 1.2147072e-38 317 254
-0.0026475333 0.755 -0.018532733 1.2237467e-38 318 254
-0.0013237667 0.755 -0.018532733 1.2053075e-38 319 254
0 0.755 -0.018532733 1.1960876e-38 320 254
0.0013237667 0.755 -0.018532733 1.1776844e-38 321 254
0.0026475333 0.755 -0.018532733 1.1592819e-38 322 254
0.0039712996 0.755 -0.018532733 1.1408788e-38 323 254
0.0052950666 0.755 -0.018532733 1.1223687e-38 324 254
0.0066188332 0.755 -0.018532733 1.1039295e-38 325 254
0.0079425992 0.755 -0.018532733 1.1038939e-38 326 254
0.0092663663 0.755 -0.018532733 1.0946743e-38 327 254
0.010618187 0.75700003 -0.018581826 1.0670516e-38 328 254
0.01197702 0.759 -0.01863092 1.0578321e-38 329 254
0.0133078 0.759 -0.01863092 9.8425691e-39 330 254
0.014638579 0.759 -0.01863092 9.6578191e-39 331 254
0.015969358 0.759 -0.01863092 9.0157021e-39 332 254
0.017345725 0.76099998 -0.018680012 9.0157021e-39 333 254
0.018680012 0.76099998 -0.018680012 9.2000905e-39 334 254
0.020014299 0.76099998 -0.018680012 9.4766774e-39 335 254
0.02137664 0.76200002 -0.01870456 9.4766774e-39 336 254
0.022772292 0.764 -0.018753653 9.1078949e-39 337 254
0.024111839 0.764 -0.018753653 8.6501622e-39 338 254
0.025451386 0.764 -0.018753653 9.1107816e-39 339 254
0.026966266 0.76899999 -0.018876385 8.0119926e-39 340 254
0.028388219 0.77100003 -0.018925481 8.2889397e-39 341 254
0.029740039 0.77100003 -0.018925481 1.0592045e-38 342 254
-0.03920278 0.77100003 -0.020277301 1.4748777e-38 291 255
-0.037850961 0.77100003 -0.020277301 1.4092573e-38 292 255
-0.036499143 0.77100003 -0.020277301 1.3355008e-38 293 255
-0.035056144 0.76899999 -0.0202247 1.3627957e-38 294 255
-0.033707831 0.76899999 -0.0202247 1.3259533e-38 295 255
-0.03227536 0.76700002 -0.020172099 1.3258439e-38 296 255
-0.030809574 0.764 -0.020093199 1.2889656e-38 297 255
-0.029354304 0.76099998 -0.020014299 1.3164088e-38 298 255
-0.028020019 0.76099998 -0.020014299 1.2887861e-38 299 255
-0.026685731 0.76099998 -0.020014299 1.2702394e-38 300 255
-0.025284819 0.759 -0.0199617 1.2610198e-38 301 255
-0.023954039 0.759 -0.0199617 1.2518002e-38 302 255
-0.02262326 0.759 -0.0199617 1.2518002e-38 303 255
-0.02129248 0.759 -0.0199617 1.2700243e-38 304 255
-0.0199617 0.759 -0.0199617 1.2700243e-38 305 255
-0.018581826 0.75700003 -0.019909101 1.2975388e-38 306 255
-0.017254554 0.75700003 -0.019909101 1.2975388e-38 307 255
-0.015927281 0.75700003 -0.019909101 1.2883186e-38 308 255
-0.014561433 0.755 -0.0198565 1.2883186e-38 309 255
-0.013237666 0.755 -0.0198565 1.2607676e-38 310 255
-0.011913899 0.755 -0.0198565 1.2607676e-38 311 255
-0.010590133 0.755 -0.0198565 1.2607678e-38 312 255
-0.0092663663 0.755 -0.0198565 1.2515481e-38 313 255
-0.0079425992 0.755 -0.0198565 1.2423656e-38 314 255
-0.0066188332 0.755 -0.0198565 1.2239264e-38 315 255
-0.0052950666 0.755 -0.0198565 1.2330381e-38 316 255
-0.0039712996 0.755 -0.0198565 1.2054154e-38 317 255
-0.0026475333 0.755 -0.0198565 1.1961956e-38 318 255
-0.0013237667 0.755 -0.0198565 1.1777563e-38 319 255
0 0.755 -0.0198565 1.1776847e-38 320 255
0.0013237667 0.755 -0.0198565 1.1592097e-38 321 255
0.0026475333 0.755 -0.0198565 1.1499904e-38 322 255
0.0039712996 0.755 -0.0198565 1.1407709e-38 323 255
0.0053090933 0.75700003 -0.019909101 1.113149e-38 324 255
0.0066363667 0.75700003 -0.019909101 1.0947099e-38 325 255
0.0079636406 0.75700003 -0.019909101 1.0671238e-38 326 255
0.0092909131 0.75700003 -0.019909101 1.0486488e-38 327 255
0.01064624 0.759 -0.0199617 1.0486491e-38 328 255
0.01197702 0.759 -0.0199617 1.0117708e-38 329 255
0.0133078 0.759 -0.0199617 9.382314e-39 330 255
0.014677152 0.76099998 -0.020014299 9.0135315e-39 331 255
0.016011439 0.76099998 -0.020014299 8.8291528e-39 332 255
0.017345725 0.76099998 -0.020014299 9.0139028e-39 333 255
0.018680012 0.76099998 -0.020014299 9.1993675e-39 334 255
0.0200406 0.76200002 -0.0200406 9.5681514e-39 335 255
0.02137664 0.76200002 -0.0200406 9.2933596e-39 336 255
0.022772292 0.764 -0.020093199 9.2011625e-39 337 255
0.024111839 0.764 -0.020093199 8.7430753e-39 338 255
0.025451386 0.764 -0.020093199 8.9274665e-39 339 255
0.026966266 0.76899999 -0.0202247 8.5644447e-39 340 255
0.028314579 0.76899999 -0.0202247 9.0254229e-39 341 255
-0.037949149 0.773 -0.021685226 1.4004343e-38 292 256
-0.036593821 0.773 -0.021685226 1.2989832e-38 293 256
-0.035238493 0.773 -0.021685226 1.3536843e-38 294 256
-0.033795502 0.77100003 -0.021629119 1.31677e-38 295 256
-0.03227536 0.76700002 -0.021516906 1.3258086e-38 296 256
-0.030890226 0.76599997 -0.021488851 1.2797107e-38 297 256
-0.029392879 0.76200002 -0.02137664 1.2796031e-38 298 256
-0.028020019 0.76099998 -0.021348584 1.2519446e-38 299 256
-0.026685731 0.76099998 -0.021348584 1.2517646e-38 300 256
-0.025284819 0.759 -0.02129248 1.2425451e-38 301 256
-0.023954039 0.759 -0.02129248 1.2425451e-38 302 256
-0.02262326 0.759 -0.02129248 1.2333255e-38 303 256
-0.02129248 0.759 -0.02129248 1.2515495e-38 304 256
-0.0199617 0.759 -0.02129248 1.2515495e-38 305 256
-0.018581826 0.75700003 -0.021236373 1.279064e-38 306 256
-0.017254554 0.75700003 -0.021236373 1.279064e-38 307 256
-0.015927281 0.75700003 -0.021236373 1.2607678e-38 308 256
-0.014561433 0.755 -0.021180267 1.2515481e-38 309 256
-0.013237666 0.755 -0.021180267 1.2515479e-38 310 256
-0.011913899 0.755 -0.021180267 1.2423283e-38 311 256
-0.010590133 0.755 -0.021180267 1.2239618e-38 312 256
-0.0092663663 0.755 -0.021180267 1.2239618e-38 313 256
-0.0079425992 0.755 -0.021180267 1.2147069e-38 314 256
-0.0066188332 0.755 -0.021180267 1.2147069e-38 315 256
-0.0052950666 0.755 -0.021180267 1.2054873e-38 316 256
-0.0039712996 0.755 -0.021180267 1.1962678e-38 317 256
-0.0026475333 0.755 -0.021180267 1.1778286e-38 318 256
-0.0013237667 0.755 -0.021180267 1.1501699e-38 319 256
0 0.755 -0.021180267 1.15921e-38 320 256
0.0013237667 0.755 -0.021180267 1.1499904e-38 321 256
0.0026475333 0.755 -0.021180267 1.1224041e-38 322 256
0.0039818203 0.75700003 -0.021236373 1.1039648e-38 323 256
0.0053090933 0.75700003 -0.021236373 1.0762712e-38 324 256
0.0066363667 0.75700003 -0.021236373 1.0670516e-38 325 256
0.0079636406 0.75700003 -0.021236373 1.030246e-38 326 256
0.0092909131 0.75700003 -0.021236373 1.0209904e-38 327 256
0.01064624 0.759 -0.02129248 9.658175e-39 328 256
0.01197702 0.759 -0.02129248 9.3819483e-39 329 256
0.0133078 0.759 -0.02129248 8.9217044e-39 330 256
0.014677152 0.76099998 -0.021348584 8.6454776e-39 331 256
0.016011439 0.76099998 -0.021348584 8.2781469e-39 332 256
0.017345725 0.76099998 -0.021348584 8.4628968e-39 333 256
0.01870456 0.76200002 -0.02137664 8.9242225e-39 334 256
0.0200406 0.76200002 -0.02137664 9.2008094e-39 335 256
0.021432746 0.764 -0.021432746 9.4770278e-39 336 256
0.022772292 0.764 -0.021432746 9.4770278e-39 337 256
0.024174958 0.76599997 -0.021488851 8.6519614e-39 338 256
0.025518013 0.76599997 -0.021488851 8.9281882e-39 339 256
0.026861066 0.76599997 -0.021488851 8.3807822e-39 340 256
0.028314579 0.76899999 -0.021573013 1.0039943e-38 341 256
-0.037949149 0.773 -0.023040552 1.400723e-38 292 257
-0.036593821 0.773 -0.023040552 1.2900883e-38 293 257
-0.03514732 0.77100003 -0.02298094 1.3353897e-38 294 257
-0.033795502 0.77100003 -0.02298094 1.3076951e-38 295 257
-0.03227536 0.76700002 -0.022861714 1.3074417e-38 296 257
-0.030890226 0.76599997 -0.022831906 1.2705633e-38 297 257
-0.029470026 0.764 -0.022772292 1.2611641e-38 298 257
-0.028020019 0.76099998 -0.022682872 1.2335053e-38 299 257
-0.026685731 0.76099998 -0.022682872 1.2333608e-38 300 257
-0.025351444 0.76099998 -0.022682872 1.2149218e-38 301 257
-0.023954039 0.759 -0.02262326 1.1874432e-38 302 257
-0.02262326 0.759 -0.02262326 1.1874432e-38 303 257
-0.02129248 0.759 -0.02262326 1.1964478e-38 304 257
-0.020014299 0.76099998 -0.022682872 1.1964478e-38 305 257
-0.01863092 0.759 -0.02262326 1.2239264e-38 306 257
-0.017300138 0.759 -0.02262326 1.2423656e-38 307 257
-0.015969358 0.759 -0.02262326 1.2239974e-38 308 257
-0.014600007 0.75700003 -0.022563647 1.2055224e-38 309 257
-0.013272733 0.75700003 -0.022563647 1.2055226e-38 310 257
-0.011913899 0.755 -0.022504034 1.2055226e-38 311 257
-0.010590133 0.755 -0.022504034 1.1871924e-38 312 257
-0.0092663663 0.755 -0.022504034 1.1871924e-38 313 257
-0.0079425992 0.755 -0.022504034 1.1779731e-38 314 257
-0.0066188332 0.755 -0.022504034 1.1779731e-38 315 257
-0.0052950666 0.755 -0.022504034 1.1503148e-38 316 257
-0.0039712996 0.755 -0.022504034 1.1318756e-38 317 257
-0.0026475333 0.755 -0.022504034 1.1409516e-38 318 257
-0.0013237667 0.755 -0.022504034 1.113329e-38 319 257
0 0.755 -0.022504034 1.1223687e-38 320 257
0.0013237667 0.755 -0.022504034 1.113149e-38 321 257
0.0026545466 0.75700003 -0.022563647 1.0855627e-38 322 257
0.0039818203 0.75700003 -0.022563647 1.0671235e-38 323 257
0.0053090933 0.75700003 -0.022563647 1.0302456e-38 324 257
0.0066363667 0.75700003 -0.022563647 1.0118064e-38 325 257
0.0079846792 0.759 -0.02262326 9.6571002e-39 326 257
0.00931546 0.759 -0.02262326 9.4727076e-39 327 257
0.010674292 0.76099998 -0.022682872 8.9220575e-39 328 257
0.012008579 0.76099998 -0.022682872 8.8295032e-39 329 257
0.013342866 0.76099998 -0.022682872 8.094822e-39 330 257
0.014677152 0.76099998 -0.022682872 8.0026264e-39 331 257
0.016011439 0.76099998 -0.022682872 8.0029921e-39 332 257
0.01736852 0.76200002 -0.02271268 8.279579e-39 333 257
0.01870456 0.76200002 -0.02271268 8.7409103e-39 334 257
0.020093199 0.764 -0.022772292 9.0174971e-39 335 257
0.021432746 0.764 -0.022772292 9.2933624e-39 336 257
0.022772292 0.764 -0.022772292 9.2933624e-39 337 257
0.024174958 0.76599997 -0.022831906 8.6523272e-39 338 257
0.025451386 0.764 -0.022772292 8.7445228e-39 339 257
0.026790932 0.764 -0.022772292 8.2907543e-39 340 257
-0.037949149 0.773 -0.024395877 1.4100871e-38 292 258
-0.036593821 0.773 -0.024395877 1.3086718e-38 293 258
-0.03514732 0.77100003 -0.02433276 1.3446106e-38 294 258
-0.033795502 0.77100003 -0.02433276 1.2985487e-38 295 258
-0.032359518 0.76899999 -0.024269639 1.2798922e-38 296 258
-0.030930554 0.76700002 -0.024206521 1.2430138e-38 297 258
-0.029470026 0.764 -0.024111839 1.2244304e-38 298 258
-0.028020019 0.76099998 -0.024017159 1.2059911e-38 299 258
-0.026685731 0.76099998 -0.024017159 1.2057744e-38 300 258
-0.025351444 0.76099998 -0.024017159 1.2057744e-38 301 258
-0.024017159 0.76099998 -0.024017159 1.1782232e-38 302 258
-0.022682872 0.76099998 -0.024017159 1.1690037e-38 303 258
-0.021348584 0.76099998 -0.024017159 1.1872633e-38 304 258
-0.020014299 0.76099998 -0.024017159 1.1872633e-38 305 258
-0.018680012 0.76099998 -0.024017159 1.2055945e-38 306 258
-0.017300138 0.759 -0.023954039 1.2055945e-38 307 258
-0.015969358 0.759 -0.023954039 1.1963028e-38 308 258
-0.014638579 0.759 -0.023954039 1.1870832e-38 309 258
-0.013272733 0.75700003 -0.02389092 1.168717e-38 310 258
-0.01194546 0.75700003 -0.02389092 1.1594615e-38 311 258
-0.010618187 0.75700003 -0.02389092 1.1594268e-38 312 258
-0.0092909131 0.75700003 -0.02389092 1.1594268e-38 313 258
-0.0079636406 0.75700003 -0.02389092 1.1410956e-38 314 258
-0.0066363667 0.75700003 -0.02389092 1.13184e-38 315 258
-0.0053090933 0.75700003 -0.02389092 1.1226204e-38 316 258
-0.0039712996 0.755 -0.023827799 1.1041813e-38 317 258
-0.0026475333 0.755 -0.023827799 1.1224056e-38 318 258
-0.0013272733 0.75700003 -0.02389092 1.0947828e-38 319 258
0 0.75700003 -0.02389092 1.1130418e-38 320 258
0.0013272733 0.75700003 -0.02389092 1.1038223e-38 321 258
0.0026545466 0.75700003 -0.02389092 1.0671235e-38 322 258
0.0039818203 0.75700003 -0.02389092 1.0302453e-38 323 258
0.0053231199 0.759 -0.023954039 9.93332e-39 324 258
0.0066538998 0.759 -0.023954039 9.5645374e-39 325 258
0.0079846792 0.759 -0.023954039 8.9220575e-39 326 258
0.00931546 0.759 -0.023954039 8.645472e-39 327 258
0.010674292 0.76099998 -0.024017159 8.2781342e-39 328 258
0.012008579 0.76099998 -0.024017159 8.2781342e-39 329 258
0.013342866 0.76099998 -0.024017159 7.4519693e-39 330 258
0.014677152 0.76099998 -0.024017159 7.5441663e-39 331 258
0.016011439 0.76099998 -0.024017159 7.7282003e-39 332 258
0.01736852 0.76200002 -0.02404872 8.0973415e-39 333 258
0.01870456 0.76200002 -0.02404872 8.7401914e-39 334 258
0.020093199 0.764 -0.024111839 9.1086138e-39 335 258
0.021432746 0.764 -0.024111839 8.9260204e-39 336 258
0.022772292 0.764 -0.024111839 9.110413e-39 337 258
0.024111839 0.764 -0.024111839 8.5615735e-39 338 258
0.025451386 0.764 -0.024111839 8.6541292e-39 339 258
0.026790932 0.764 -0.024111839 8.4758617e-39 340 258
-0.036593821 0.773 -0.025751207 1.2997047e-38 293 259
-0.035238493 0.773 -0.025751207 1.3448273e-38 294 259
-0.033883166 0.773 -0.025751207 1.2710708e-38 295 259
-0.032359518 0.76899999 -0.025617953 1.3074783e-38 296 259
-0.030930554 0.76700002 -0.025551327 1.2521968e-38 297 259
-0.029547172 0.76599997 -0.025518013 1.233685e-38 298 259
-0.028130481 0.764 -0.025451386 1.1968066e-38 299 259
-0.026790932 0.764 -0.025451386 1.1966628e-38 300 259
-0.02538476 0.76200002 -0.02538476 1.1874432e-38 301 259
-0.024017159 0.76099998 -0.025351444 1.1873349e-38 302 259
-0.022682872 0.76099998 -0.025351444 1.1873349e-38 303 259
-0.021348584 0.76099998 -0.025351444 1.1596769e-38 304 259
-0.020014299 0.76099998 -0.025351444 1.1596769e-38 305 259
-0.018680012 0.76099998 -0.025351444 1.1504223e-38 306 259
-0.017300138 0.759 -0.025284819 1.1504223e-38 307 259
-0.015969358 0.759 -0.025284819 1.141095e-38 308 259
-0.014638579 0.759 -0.025284819 1.1318753e-38 309 259
-0.013342866 0.76099998 -0.025351444 1.1409516e-38 310 259
-0.01194546 0.75700003 -0.025218192 1.1409516e-38 311 259
-0.010618187 0.75700003 -0.025218192 1.1318405e-38 312 259
-0.0092909131 0.75700003 -0.025218192 1.1133655e-38 313 259
-0.0079636406 0.75700003 -0.025218192 1.0950696e-38 314 259
-0.0066363667 0.75700003 -0.025218192 1.0858501e-38 315 259
-0.0053090933 0.75700003 -0.025218192 1.0949617e-38 316 259
-0.0039712996 0.755 -0.025151566 1.0765586e-38 317 259
-0.0026475333 0.755 -0.025151566 1.0580484e-38 318 259
-0.0013272733 0.75700003 -0.025218192 1.0488289e-38 319 259
0 0.75700003 -0.025218192 1.048757e-38 320 259
0.0013272733 0.75700003 -0.025218192 1.0395374e-38 321 259
0.0026545466 0.75700003 -0.025218192 9.935471e-39 322 259
0.0039818203 0.75700003 -0.025218192 9.750721e-39 323 259
0.0053231199 0.759 -0.025284819 9.3819455e-39 324 259
0.0066538998 0.759 -0.025284819 9.1049984e-39 325 259
0.0079846792 0.759 -0.025284819 8.5543512e-39 326 259
0.00931546 0.759 -0.025284819 8.4617968e-39 327 259
0.010674292 0.76099998 -0.025351444 7.9111468e-39 328 259
0.012008579 0.76099998 -0.025351444 7.9111468e-39 329 259
0.013342866 0.76099998 -0.025351444 7.4519693e-39 330 259
0.01469644 0.76200002 -0.02538476 7.5441663e-39 331 259
0.01603248 0.76200002 -0.02538476 7.8203987e-39 332 259
0.01736852 0.76200002 -0.02538476 7.9125943e-39 333 259
0.018753653 0.764 -0.025451386 8.5572449e-39 334 259
0.020093199 0.764 -0.025451386 8.8334716e-39 335 259
0.021432746 0.764 -0.025451386 8.5597658e-39 336 259
0.022772292 0.764 -0.025451386 8.8359926e-39 337 259
0.024111839 0.764 -0.025451386 8.2867873e-39 338 259
0.025451386 0.764 -0.025451386 8.7474067e-39 339 259
0.026790932 0.764 -0.025451386 8.3851164e-39 340 259
-0.03528408 0.77399999 -0.027141599 1.3359691e-38 294 260
-0.033883166 0.773 -0.027106533 1.2345898e-38 295 260
-0.032527838 0.773 -0.027106533 1.2708544e-38 296 260
-0.030930554 0.76700002 -0.026896132 1.2339761e-38 297 260
-0.029547172 0.76599997 -0.026861066 1.2245398e-38 298 260
-0.028204117 0.76599997 -0.026861066 1.1968811e-38 299 260
-0.026790932 0.764 -0.026790932 1.1967715e-38 300 260
-0.02538476 0.76200002 -0.0267208 1.169113e-38 301 260
-0.024017159 0.76099998 -0.026685731 1.1782235e-38 302 260
-0.022682872 0.76099998 -0.026685731 1.1597485e-38 303 260
-0.021348584 0.76099998 -0.026685731 1.150422e-38 304 260
-0.020014299 0.76099998 -0.026685731 1.1412025e-38 305 260
-0.018680012 0.76099998 -0.026685731 1.1411672e-38 306 260
-0.017345725 0.76099998 -0.026685731 1.1319476e-38 307 260
-0.016011439 0.76099998 -0.026685731 1.1410953e-38 308 260
-0.014677152 0.76099998 -0.026685731 1.1318756e-38 309 260
-0.013342866 0.76099998 -0.026685731 1.1225841e-38 310 260
-0.012008579 0.76099998 -0.026685731 1.1225841e-38 311 260
-0.010674292 0.76099998 -0.026685731 1.1134359e-38 312 260
-0.00931546 0.759 -0.026615599 1.1134359e-38 313 260
-0.0079846792 0.759 -0.026615599 1.104216e-38 314 260
-0.0066538998 0.759 -0.026615599 1.0949965e-38 315 260
-0.0053090933 0.75700003 -0.026545467 1.0765936e-38 316 260
-0.0039818203 0.75700003 -0.026545467 1.0581185e-38 317 260
-0.0026545466 0.75700003 -0.026545467 1.0305327e-38 318 260
-0.00133078 0.759 -0.026615599 1.0120936e-38 319 260
0 0.759 -0.026615599 1.0304248e-38 320 260
0.00133078 0.759 -0.026615599 1.0120217e-38 321 260
0.0026545466 0.75700003 -0.026545467 9.7518e-39 322 260
0.0039818203 0.75700003 -0.026545467 9.5674087e-39 323 260
0.0053231199 0.759 -0.026615599 8.8316555e-39 324 260
0.0066538998 0.759 -0.026615599 8.7394585e-39 325 260
0.0080057196 0.76099998 -0.026685731 8.3706858e-39 326 260
0.0093400059 0.76099998 -0.026685731 8.2781314e-39 327 260
0.010674292 0.76099998 -0.026685731 7.7274786e-39 328 260
0.012008579 0.76099998 -0.026685731 7.7274786e-39 329 260
0.0133604 0.76200002 -0.0267208 7.3615729e-39 330 260
0.01469644 0.76200002 -0.0267208 7.3615729e-39 331 260
0.01603248 0.76200002 -0.0267208 7.8196798e-39 332 260
0.01736852 0.76200002 -0.0267208 8.2802978e-39 333 260
0.018753653 0.764 -0.026790932 8.7405571e-39 334 260
0.020093199 0.764 -0.026790932 8.9249484e-39 335 260
0.021432746 0.764 -0.026790932 8.4682834e-39 336 260
0.022831906 0.76599997 -0.026861066 8.6526747e-39 337 260
0.024174958 0.76599997 -0.026861066 8.1967412e-39 338 260
0.025518013 0.76599997 -0.026861066 8.6573592e-39 339 260
-0.033927001 0.77399999 -0.028498679 1.262322e-38 295 261
-0.032527838 0.773 -0.028461859 1.3077695e-38 296 261
-0.030930554 0.76700002 -0.02824094 1.2432326e-38 297 261
-0.029547172 0.76599997 -0.028204117 1.2706008e-38 298 261
-0.028204117 0.76599997 -0.028204117 1.2337224e-38 299 261
-0.026861066 0.76599997 -0.028204117 1.2336125e-38 300 261
-0.025451386 0.764 -0.028130481 1.205954e-38 301 261
-0.02404872 0.76200002 -0.028056841 1.2149574e-38 302 261
-0.02271268 0.76200002 -0.028056841 1.1965182e-38 303 261
-0.02137664 0.76200002 -0.028056841 1.1504218e-38 304 261
-0.0200406 0.76200002 -0.028056841 1.1412022e-38 305 261
-0.01870456 0.76200002 -0.028056841 1.1135811e-38 306 261
-0.01736852 0.76200002 -0.028056841 1.1135811e-38 307 261
-0.016011439 0.76099998 -0.028020019 1.0860299e-38 308 261
-0.014677152 0.76099998 -0.028020019 1.0768103e-38 309 261
-0.013342866 0.76099998 -0.028020019 1.0951412e-38 310 261
-0.012008579 0.76099998 -0.028020019 1.0859217e-38 311 261
-0.010674292 0.76099998 -0.028020019 1.0951049e-38 312 261
-0.0093400059 0.76099998 -0.028020019 1.0951049e-38 313 261
-0.0079846792 0.759 -0.027946379 1.0858851e-38 314 261
-0.0066538998 0.759 -0.027946379 1.067446e-38 315 261
-0.0053231199 0.759 -0.027946379 1.0673384e-38 316 261
-0.0039923396 0.759 -0.027946379 1.0581188e-38 317 261
-0.00266156 0.759 -0.027946379 9.9379835e-39 318 261
-0.00133078 0.759 -0.027946379 9.7535922e-39 319 261
0 0.759 -0.027946379 9.569924e-39 320 261
0.00133078 0.759 -0.027946379 9.3855314e-39 321 261
0.0026545466 0.75700003 -0.027872739 9.3844594e-39 322 261
0.0039818203 0.75700003 -0.027872739 9.2000681e-39 323 261
0.0053231199 0.759 -0.027946379 8.923491e-39 324 261
0.0066714329 0.76099998 -0.028020019 8.7387396e-39 325 261
0.0080057196 0.76099998 -0.028020019 8.4628814e-39 326 261
0.0093400059 0.76099998 -0.028020019 8.2781314e-39 327 261
0.010674292 0.76099998 -0.028020019 8.095538e-39 328 261
0.012008579 0.76099998 -0.028020019 8.095538e-39 329 261
0.0133604 0.76200002 -0.028056841 7.912223e-39 330 261
0.01469644 0.76200002 -0.028056841 8.0966128e-39 331 261
0.01603248 0.76200002 -0.028056841 8.0051431e-39 332 261
0.017414106 0.764 -0.028130481 8.3735669e-39 333 261
0.018753653 0.764 -0.028130481 8.6501594e-39 334 261
0.020093199 0.764 -0.028130481 8.834552e-39 335 261
0.021488851 0.76599997 -0.028204117 8.6523244e-39 336 261
0.022831906 0.76599997 -0.028204117 8.92927e-39 337 261
0.024174958 0.76599997 -0.028204117 8.3807822e-39 338 261
0.025518013 0.76599997 -0.028204117 8.7492059e-39 339 261
-0.032569919 0.77399999 -0.029855758 1.2987667e-38 296 262
-0.03117251 0.773 -0.029817186 1.2434493e-38 297 262
-0.029585747 0.76700002 -0.029585747 1.2615978e-38 298 262
-0.028204117 0.76599997 -0.029547172 1.2339033e-38 299 262
-0.026861066 0.76599997 -0.029547172 1.2429048e-38 300 262
-0.025451386 0.764 -0.029470026 1.215246e-38 301 262
-0.024111839 0.764 -0.029470026 1.2150659e-38 302 262
-0.022772292 0.764 -0.029470026 1.1782235e-38 303 262
-0.021432746 0.764 -0.029470026 1.1504583e-38 304 262
-0.020093199 0.764 -0.029470026 1.1228357e-38 305 262
-0.01870456 0.76200002 -0.029392879 1.1135455e-38 306 262
-0.01736852 0.76200002 -0.029392879 1.1135455e-38 307 262
-0.01603248 0.76200002 -0.029392879 1.076775e-38 308 262
-0.01469644 0.76200002 -0.029392879 1.0675554e-38 309 262
-0.013342866 0.76099998 -0.029354304 1.0675551e-38 310 262
-0.012008579 0.76099998 -0.029354304 1.0675551e-38 311 262
-0.010674292 0.76099998 -0.029354304 1.0492236e-38 312 262
-0.0093400059 0.76099998 -0.029354304 1.0492236e-38 313 262
-0.0080057196 0.76099998 -0.029354304 1.0583353e-38 314 262
-0.0066714329 0.76099998 -0.029354304 1.0491157e-38 315 262
-0.0053371461 0.76099998 -0.029354304 1.0581556e-38 316 262
-0.0039923396 0.759 -0.029277159 1.030533e-38 317 262
-0.00266156 0.759 -0.029277159 9.8454347e-39 318 262
-0.00133078 0.759 -0.029277159 9.5692066e-39 319 262
0 0.759 -0.029277159 9.3855342e-39 320 262
0.00133078 0.759 -0.029277159 9.2015031e-39 321 262
0.00266156 0.759 -0.029277159 9.2922666e-39 322 262
0.0039923396 0.759 -0.029277159 9.2922666e-39 323 262
0.0053371461 0.76099998 -0.029354304 8.9242099e-39 324 262
0.0066714329 0.76099998 -0.029354304 8.8316555e-39 325 262
0.0080057196 0.76099998 -0.029354304 8.4635975e-39 326 262
0.0093400059 0.76099998 -0.029354304 8.4635975e-39 327 262
0.010674292 0.76099998 -0.029354304 8.280288e-39 328 262
0.01202436 0.76200002 -0.029392879 8.3724837e-39 329 262
0.0133604 0.76200002 -0.029392879 8.1895329e-39 330 262
0.01469644 0.76200002 -0.029392879 8.1895329e-39 331 262
0.016074561 0.764 -0.029470026 8.1902546e-39 332 262
0.017414106 0.764 -0.029470026 8.4672002e-39 333 262
0.018753653 0.764 -0.029470026 8.6519586e-39 334 262
0.020093199 0.764 -0.029470026 8.8359898e-39 335 262
0.021488851 0.76599997 -0.029547172 8.7452389e-39 336 262
0.022831906 0.76599997 -0.029547172 9.0221859e-39 337 262
0.024174958 0.76599997 -0.029547172 8.5648133e-39 338 262
-0.031212838 0.77399999 -0.031212838 1.1885643e-38 297 263
-0.029817186 0.773 -0.03117251 1.280109e-38 298 263
-0.02824094 0.76700002 -0.030930554 1.2524502e-38 299 263
-0.026896132 0.76700002 -0.030930554 1.2797473e-38 300 263
-0.025518013 0.76599997 -0.030890226 1.2429051e-38 301 263
-0.024174958 0.76599997 -0.030890226 1.2151741e-38 302 263
-0.022772292 0.764 -0.030809574 1.17826e-38 303 263
-0.021432746 0.764 -0.030809574 1.1597135e-38 304 263
-0.020145798 0.76599997 -0.030890226 1.1320908e-38 305 263
-0.018802745 0.76599997 -0.030890226 1.0953212e-38 306 263
-0.017414106 0.764 -0.030809574 1.0861016e-38 307 263
-0.01603248 0.76200002 -0.030728921 1.067627e-38 308 263
-0.01469644 0.76200002 -0.030728921 1.0492239e-38 309 263
-0.0133604 0.76200002 -0.030728921 1.0492242e-38 310 263
-0.01202436 0.76200002 -0.030728921 1.0492242e-38 311 263
-0.01068832 0.76200002 -0.030728921 1.0400762e-38 312 263
-0.0093400059 0.76099998 -0.030688593 1.0308567e-38 313 263
-0.0080057196 0.76099998 -0.030688593 1.0400043e-38 314 263
-0.0066714329 0.76099998 -0.030688593 1.0215293e-38 315 263
-0.0053371461 0.76099998 -0.030688593 1.0398244e-38 316 263
-0.0040028598 0.76099998 -0.030688593 1.0213494e-38 317 263
-0.0026685731 0.76099998 -0.030688593 9.7532391e-39 318 263
-0.0013342865 0.76099998 -0.030688593 9.5692066e-39 319 263
0 0.759 -0.030607941 9.0185509e-39 320 263
0.00133078 0.759 -0.030607941 8.9263553e-39 321 263
0.0026685731 0.76099998 -0.030688593 9.0171188e-39 322 263
0.0040028598 0.76099998 -0.030688593 9.1096732e-39 323 263
0.0053371461 0.76099998 -0.030688593 9.1085984e-39 324 263
0.0066714329 0.76099998 -0.030688593 9.1085984e-39 325 263
0.0080057196 0.76099998 -0.030688593 8.9249288e-39 326 263
0.0093400059 0.76099998 -0.030688593 8.7405389e-39 327 263
0.010674292 0.76099998 -0.030688593 8.5579483e-39 328 263
0.01202436 0.76200002 -0.030728921 8.5579483e-39 329 263
0.0133604 0.76200002 -0.030728921 8.3753549e-39 330 263
0.014735013 0.764 -0.030809574 8.3753549e-39 331 263
0.016074561 0.764 -0.030809574 8.4671974e-39 332 263
0.017414106 0.764 -0.030809574 8.6512286e-39 333 263
0.018753653 0.764 -0.030809574 8.6526775e-39 334 263
0.020093199 0.764 -0.030809574 8.8370688e-39 335 263
0.021432746 0.764 -0.030809574 8.9299903e-39 336 263
0.022831906 0.76599997 -0.030890226 9.1143815e-39 337 263
-0.028461859 0.773 -0.032527838 1.2066424e-38 299 264
-0.027106533 0.773 -0.032527838 1.2706729e-38 300 264
-0.025617953 0.76899999 -0.032359518 1.2429782e-38 301 264
-0.024206521 0.76700002 -0.03227536 1.2244659e-38 302 264
-0.022831906 0.76599997 -0.032233275 1.1783681e-38 303 264
-0.021488851 0.76599997 -0.032233275 1.1690407e-38 304 264
-0.020145798 0.76599997 -0.032233275 1.141382e-38 305 264
-0.018827293 0.76700002 -0.03227536 1.1046835e-38 306 264
-0.017414106 0.764 -0.032149121 1.0862085e-38 307 264
-0.016074561 0.764 -0.032149121 1.0768816e-38 308 264
-0.014735013 0.764 -0.032149121 1.0676621e-38 309 264
-0.013395466 0.764 -0.032149121 1.0492239e-38 310 264
-0.01202436 0.76200002 -0.032064959 1.0492239e-38 311 264
-0.01068832 0.76200002 -0.032064959 1.0400762e-38 312 264
-0.0093400059 0.76099998 -0.032022879 1.0400762e-38 313 264
-0.0080057196 0.76099998 -0.032022879 1.0400043e-38 314 264
-0.0066801999 0.76200002 -0.032064959 1.0215293e-38 315 264
-0.0053371461 0.76099998 -0.032022879 1.0123096e-38 316 264
-0.0040028598 0.76099998 -0.032022879 9.8468697e-39 317 264
-0.0026685731 0.76099998 -0.032022879 9.9379835e-39 318 264
-0.0013342865 0.76099998 -0.032022879 9.7535922e-39 319 264
0 0.76099998 -0.032022879 9.3869649e-39 320 264
0.0013342865 0.76099998 -0.032022879 9.2947679e-39 321 264
0.0026685731 0.76099998 -0.032022879 9.3855342e-39 322 264
0.0040028598 0.76099998 -0.032022879 9.4777298e-39 323 264
0.0053371461 0.76099998 -0.032022879 9.3851811e-39 324 264
0.0066714329 0.76099998 -0.032022879 9.4773781e-39 325 264
0.0080162399 0.76200002 -0.032064959 9.2018688e-39 326 264
0.0093522798 0.76200002 -0.032064959 9.2018688e-39 327 264
0.01068832 0.76200002 -0.032064959 8.9267238e-39 328 264
0.01205592 0.764 -0.032149121 9.0189209e-39 329 264
0.013395466 0.764 -0.032149121 8.7437759e-39 330 264
0.014735013 0.764 -0.032149121 8.7437759e-39 331 264
0.016074561 0.764 -0.032149121 8.8352583e-39 332 264
0.017414106 0.764 -0.032149121 9.111485e-39 333 264
0.018753653 0.764 -0.032149121 9.0203838e-39 334 264
0.020093199 0.764 -0.032149121 9.2973308e-39 335 264
0.021432746 0.764 -0.032149121 9.0225516e-39 336 264
-0.027106533 0.773 -0.033883166 1.2432682e-38 300 265
-0.02568458 0.77100003 -0.033795502 1.2155736e-38 301 265
-0.024269639 0.76899999 -0.033707831 1.2153924e-38 302 265
-0.022861714 0.76700002 -0.033620168 1.1692947e-38 303 265
-0.021516906 0.76700002 -0.033620168 1.1508186e-38 304 265
-0.020172099 0.76700002 -0.033620168 1.1139043e-38 305 265
-0.018827293 0.76700002 -0.033620168 1.0955368e-38 306 265
-0.017459691 0.76599997 -0.033576332 1.0862814e-38 307 265
-0.016116638 0.76599997 -0.033576332 1.0678425e-38 308 265
-0.014735013 0.764 -0.033488665 1.0585871e-38 309 265
-0.013395466 0.764 -0.033488665 1.0585154e-38 310 265
-0.01202436 0.76200002 -0.033401001 1.0492958e-38 311 265
-0.01068832 0.76200002 -0.033401001 1.0309646e-38 312 265
-0.0093400059 0.76099998 -0.033357166 1.0309646e-38 313 265
-0.0080057196 0.76099998 -0.033357166 1.0400406e-38 314 265
-0.0066801999 0.76200002 -0.033401001 1.0308211e-38 315 265
-0.0053441599 0.76200002 -0.033401001 1.0216018e-38 316 265
-0.0040028598 0.76099998 -0.033357166 9.939431e-39 317 265
-0.0026685731 0.76099998 -0.033357166 9.8483102e-39 318 265
-0.0013342865 0.76099998 -0.033357166 9.4795291e-39 319 265
0 0.76200002 -0.033401001 9.4795291e-39 320 265
0.00133604 0.76200002 -0.033401001 9.3873334e-39 321 265
0.0026685731 0.76099998 -0.033357166 9.3869775e-39 322 265
0.0040028598 0.76099998 -0.033357166 9.3869775e-39 323 265
0.0053441599 0.76200002 -0.033401001 9.4791759e-39 324 265
0.0066801999 0.76200002 -0.033401001 9.4791759e-39 325 265
0.0080162399 0.76200002 -0.033401001 9.4788228e-39 326 265
0.0093522798 0.76200002 -0.033401001 9.4788228e-39 327 265
0.010716373 0.764 -0.033488665 9.3873489e-39 328 265
0.012087479 0.76599997 -0.033576332 9.3873489e-39 329 265
0.013430533 0.76599997 -0.033576332 9.0207215e-39 330 265
0.014773586 0.76599997 -0.033576332 9.1129172e-39 331 265
0.016116638 0.76599997 -0.033576332 9.0210873e-39 332 265
0.017459691 0.76599997 -0.033576332 9.1132829e-39 333 265
0.018802745 0.76599997 -0.033576332 9.022539e-39 334 265
0.020145798 0.76599997 -0.033576332 9.2069303e-39 335 265
-0.025751207 0.773 -0.035238493 1.1606518e-38 301 266
-0.02433276 0.77100003 -0.03514732 1.2155352e-38 302 266
-0.022921326 0.76899999 -0.035056144 1.1970959e-38 303 266
-0.021573013 0.76899999 -0.035056144 1.1876593e-38 304 266
-0.0202247 0.76899999 -0.035056144 1.1600006e-38 305 266
-0.018876385 0.76899999 -0.035056144 1.1415972e-38 306 266
-0.017482487 0.76700002 -0.034964975 1.123158e-38 307 266
-0.01613768 0.76700002 -0.034964975 1.1138312e-38 308 266
-0.014773586 0.76599997 -0.034919381 1.1046116e-38 309 266
-0.013430533 0.76599997 -0.034919381 1.1044328e-38 310 266
-0.012087479 0.76599997 -0.034919381 1.0860296e-38 311 266
-0.010744425 0.76599997 -0.034919381 1.0860299e-38 312 266
-0.0093768267 0.764 -0.034828212 1.0860299e-38 313 266
-0.0080372803 0.764 -0.034828212 1.0768103e-38 314 266
-0.006697733 0.764 -0.034828212 1.0768103e-38 315 266
-0.0053581866 0.764 -0.034828212 1.040076e-38 316 266
-0.0040186401 0.764 -0.034828212 1.0308564e-38 317 266
-0.00267208 0.76200002 -0.034737039 1.0307842e-38 318 266
-0.00133604 0.76200002 -0.034737039 1.012345e-38 319 266
0 0.76200002 -0.034737039 1.0031254e-38 320 266
0.00133604 0.76200002 -0.034737039 1.0031254e-38 321 266
0.00267208 0.76200002 -0.034737039 1.0030901e-38 322 266
0.0040081199 0.76200002 -0.034737039 1.0123096e-38 323 266
0.0053441599 0.76200002 -0.034737039 9.939787e-39 324 266
0.0066801999 0.76200002 -0.034737039 9.939787e-39 325 266
0.0080162399 0.76200002 -0.034737039 9.8476025e-39 326 266
0.0093768267 0.764 -0.034828212 9.9401569e-39 327 266
0.010758453 0.76700002 -0.034964975 9.8476025e-39 328 266
0.01210326 0.76700002 -0.034964975 9.8476025e-39 329 266
0.013483133 0.76899999 -0.035056144 9.6653651e-39 330 266
0.014831445 0.76899999 -0.035056144 9.6653651e-39 331 266
0.01613768 0.76700002 -0.034964975 9.4824157e-39 332 266
0.017482487 0.76700002 -0.034964975 9.4824157e-39 333 266
0.018827293 0.76700002 -0.034964975 8.8399428e-39 334 266
-0.022921326 0.76899999 -0.036404461 1.1604736e-38 303 267
-0.021573013 0.76899999 -0.036404461 1.1602915e-38 304 267
-0.0202247 0.76899999 -0.036404461 1.1234493e-38 305 267
-0.018876385 0.76899999 -0.036404461 1.1142643e-38 306 267
-0.017528072 0.76899999 -0.036404461 1.0681667e-38 307 267
-0.016179759 0.76899999 -0.036404461 1.1047578e-38 308 267
-0.014792874 0.76700002 -0.036309779 1.0863185e-38 309 267
-0.013448066 0.76700002 -0.036309779 1.1045425e-38 310 267
-0.01210326 0.76700002 -0.036309779 1.095323e-38 311 267
-0.010758453 0.76700002 -0.036309779 1.095323e-38 312 267
-0.0094013726 0.76599997 -0.036262438 1.0861034e-38 313 267
-0.0080583189 0.76599997 -0.036262438 1.0677003e-38 314 267
-0.0067152665 0.76599997 -0.036262438 1.0677003e-38 315 267
-0.0053722127 0.76599997 -0.036262438 1.030966e-38 316 267
-0.0040291594 0.76599997 -0.036262438 1.0217463e-38 317 267
-0.0026861064 0.76599997 -0.036262438 1.0124911e-38 318 267
-0.0013430532 0.76599997 -0.036262438 9.94088e-39 319 267
0 0.764 -0.036167759 1.0124192e-38 320 267
0.0013395466 0.764 -0.036167759 1.0031997e-38 321 267
0.0026790933 0.764 -0.036167759 9.8486843e-39 322 267
0.0040186401 0.764 -0.036167759 9.8486843e-39 323 267
