# .PCD v.7 - Point Cloud Data file format
FIELDS x y z rgb imX imY
SIZE 4 4 4 4 4 4
TYPE F F F F F F
COUNT 1 1 1 1 1 1
WIDTH 862
HEIGHT 1
VIEWPOINT 0 0 0 1 0 0 0
POINTS 862
DATA ascii
0 0.76700002 0.021516906 1.6016376e-38 320 224
0.0013448066 0.76700002 0.021516906 1.5647594e-38 321 224
0.0026896133 0.76700002 0.021516906 1.5463571e-38 322 224
0.0040449398 0.76899999 0.021573013 1.509479e-38 323 224
0.0053932532 0.76899999 0.021573013 1.5003316e-38 324 224
0.0067415666 0.76899999 0.021573013 1.5095512e-38 325 224
0.0080898795 0.76899999 0.021573013 1.5095156e-38 326 224
0.0094381925 0.76899999 0.021573013 1.5095156e-38 327 224
0.010758453 0.76700002 0.021516906 1.4818581e-38 328 224
0.01210326 0.76700002 0.021516906 1.4357243e-38 329 224
-0.032443684 0.77100003 0.020277301 1.6950985e-38 296 225
-0.031091858 0.77100003 0.020277301 1.5476213e-38 297 225
-0.02966289 0.76899999 0.0202247 1.7583349e-38 298 225
-0.028314579 0.76899999 0.0202247 1.7767739e-38 299 225
-0.026966266 0.76899999 0.0202247 1.7951036e-38 300 225
-0.025617953 0.76899999 0.0202247 1.7951036e-38 301 225
-0.024269639 0.76899999 0.0202247 1.7860988e-38 302 225
-0.022861714 0.76700002 0.020172099 1.7953185e-38 303 225
-0.021516906 0.76700002 0.020172099 1.7953188e-38 304 225
-0.020172099 0.76700002 0.020172099 1.7953188e-38 305 225
-0.018827293 0.76700002 0.020172099 1.7769888e-38 306 225
-0.017482487 0.76700002 0.020172099 1.7862084e-38 307 225
-0.01613768 0.76700002 0.020172099 1.7769891e-38 308 225
-0.014792874 0.76700002 0.020172099 1.7862087e-38 309 225
-0.013448066 0.76700002 0.020172099 1.7952484e-38 310 225
-0.01210326 0.76700002 0.020172099 1.7952484e-38 311 225
-0.010758453 0.76700002 0.020172099 1.7951412e-38 312 225
-0.0094381925 0.76899999 0.0202247 1.7951412e-38 313 225
-0.00806884 0.76700002 0.020172099 1.7216361e-38 314 225
-0.0067152665 0.76599997 0.020145798 1.6939774e-38 315 225
-0.0053722127 0.76599997 0.020145798 1.6937254e-38 316 225
-0.0040291594 0.76599997 0.020145798 1.6845058e-38 317 225
-0.0026861064 0.76599997 0.020145798 1.6295481e-38 318 225
-0.0013448066 0.76700002 0.020172099 1.5926697e-38 319 225
0 0.76700002 0.020172099 1.5650112e-38 320 225
0.0013448066 0.76700002 0.020172099 1.5004742e-38 321 225
0.0026896133 0.76700002 0.020172099 1.5185906e-38 322 225
0.00403442 0.76700002 0.020172099 1.4909678e-38 323 225
0.0053792265 0.76700002 0.020172099 1.4908972e-38 324 225
0.006724033 0.76700002 0.020172099 1.5185559e-38 325 225
0.00806884 0.76700002 0.020172099 1.4818932e-38 326 225
0.0094136465 0.76700002 0.020172099 1.4818932e-38 327 225
0.010758453 0.76700002 0.020172099 1.4910044e-38 328 225
0.01210326 0.76700002 0.020172099 1.4817848e-38 329 225
0.013448066 0.76700002 0.020172099 1.4448369e-38 330 225
0.014792874 0.76700002 0.020172099 1.4356174e-38 331 225
-0.033795502 0.77100003 0.018925481 1.6314289e-38 295 226
-0.032443684 0.77100003 0.018925481 1.6483157e-38 296 226
-0.031091858 0.77100003 0.018925481 1.6390962e-38 297 226
-0.02966289 0.76899999 0.018876385 1.785958e-38 298 226
-0.028314579 0.76899999 0.018876385 1.7583352e-38 299 226
-0.026966266 0.76899999 0.018876385 1.8043231e-38 300 226
-0.025617953 0.76899999 0.018876385 1.8135428e-38 301 226
-0.024206521 0.76700002 0.018827293 1.8136133e-38 302 226
-0.022861714 0.76700002 0.018827293 1.822833e-38 303 226
-0.021488851 0.76599997 0.018802745 1.8045381e-38 304 226
-0.020145798 0.76599997 0.018802745 1.8045381e-38 305 226
-0.018827293 0.76700002 0.018827293 1.78628e-38 306 226
-0.017459691 0.76599997 0.018802745 1.78628e-38 307 226
-0.016116638 0.76599997 0.018802745 1.7954282e-38 308 226
-0.014773586 0.76599997 0.018802745 1.7954282e-38 309 226
-0.013430533 0.76599997 0.018802745 1.7861017e-38 310 226
-0.012087479 0.76599997 0.018802745 1.7768463e-38 311 226
-0.010744425 0.76599997 0.018802745 1.7951059e-38 312 226
-0.0094013726 0.76599997 0.018802745 1.7766667e-38 313 226
-0.00806884 0.76700002 0.018827293 1.7398241e-38 314 226
-0.0067152665 0.76599997 0.018802745 1.7121294e-38 315 226
-0.0053581866 0.764 0.018753653 1.6753591e-38 316 226
-0.0040186401 0.764 0.018753653 1.6661395e-38 317 226
-0.0026790933 0.764 0.018753653 1.6386603e-38 318 226
-0.0013430532 0.76599997 0.018802745 1.6017821e-38 319 226
0 0.76599997 0.018802745 1.5371375e-38 320 226
0.0013430532 0.76599997 0.018802745 1.4910397e-38 321 226
0.0026861064 0.76599997 0.018802745 1.4816779e-38 322 226
0.0040291594 0.76599997 0.018802745 1.4724584e-38 323 226
0.0053722127 0.76599997 0.018802745 1.4816429e-38 324 226
0.006724033 0.76700002 0.018827293 1.4908625e-38 325 226
0.00806884 0.76700002 0.018827293 1.4908975e-38 326 226
0.0094136465 0.76700002 0.018827293 1.5001171e-38 327 226
0.010758453 0.76700002 0.018827293 1.4908972e-38 328 226
0.01210326 0.76700002 0.018827293 1.4816776e-38 329 226
0.013448066 0.76700002 0.018827293 1.4356893e-38 330 226
0.014831445 0.76899999 0.018876385 1.3895915e-38 331 226
0.016179759 0.76899999 0.018876385 1.279175e-38 332 226
-0.035238493 0.773 0.017619247 1.6491824e-38 294 227
-0.033883166 0.773 0.017619247 1.5385477e-38 295 227
-0.032443684 0.77100003 0.01757366 1.7397901e-38 296 227
-0.031091858 0.77100003 0.01757366 1.7858879e-38 297 227
-0.02966289 0.76899999 0.017528072 1.8042528e-38 298 227
-0.02824094 0.76700002 0.017482487 1.7950332e-38 299 227
-0.026896132 0.76700002 0.017482487 1.8043958e-38 300 227
-0.025617953 0.76899999 0.017528072 1.8043958e-38 301 227
-0.024206521 0.76700002 0.017482487 1.822799e-38 302 227
-0.022831906 0.76599997 0.017459691 1.822799e-38 303 227
-0.021488851 0.76599997 0.017459691 1.7952482e-38 304 227
-0.020145798 0.76599997 0.017459691 1.8136873e-38 305 227
-0.018802745 0.76599997 0.017459691 1.7862087e-38 306 227
-0.017414106 0.764 0.017414106 1.7954282e-38 307 227
-0.016074561 0.764 0.017414106 1.7953932e-38 308 227
-0.014735013 0.764 0.017414106 1.7953932e-38 309 227
-0.013395466 0.764 0.017414106 1.8044693e-38 310 227
-0.01205592 0.764 0.017414106 1.7768466e-38 311 227
-0.010716373 0.764 0.017414106 1.7858865e-38 312 227
-0.0093768267 0.764 0.017414106 1.7674115e-38 313 227
-0.0080372803 0.764 0.017414106 1.7306058e-38 314 227
-0.006697733 0.764 0.017414106 1.684508e-38 315 227
-0.0053581866 0.764 0.017414106 1.647774e-38 316 227
-0.0040186401 0.764 0.017414106 1.6385544e-38 317 227
-0.0026790933 0.764 0.017414106 1.610932e-38 318 227
-0.0013395466 0.764 0.017414106 1.5371395e-38 319 227
0 0.764 0.017414106 1.4723877e-38 320 227
0.0013395466 0.764 0.017414106 1.4816073e-38 321 227
0.0026861064 0.76599997 0.017459691 1.4816792e-38 322 227
0.0040291594 0.76599997 0.017459691 1.4816792e-38 323 227
0.0053722127 0.76599997 0.017459691 1.4817145e-38 324 227
0.0067152665 0.76599997 0.017459691 1.4909341e-38 325 227
0.0080583189 0.76599997 0.017459691 1.4909325e-38 326 227
0.0094013726 0.76599997 0.017459691 1.481713e-38 327 227
0.010744425 0.76599997 0.017459691 1.4632373e-38 328 227
0.012087479 0.76599997 0.017459691 1.4632373e-38 329 227
0.013448066 0.76700002 0.017482487 1.4354722e-38 330 227
0.014792874 0.76700002 0.017482487 1.4262526e-38 331 227
0.016179759 0.76899999 0.017528072 1.4078879e-38 332 227
0.017528072 0.76899999 0.017528072 1.4171075e-38 333 227
-0.036593821 0.773 0.016263919 1.6040951e-38 293 228
-0.035238493 0.773 0.016263919 1.6761183e-38 294 228
-0.033883166 0.773 0.016263919 1.6023617e-38 295 228
-0.032443684 0.77100003 0.016221842 1.7491153e-38 296 228
-0.031011207 0.76899999 0.016179759 1.7583349e-38 297 228
-0.029585747 0.76700002 0.01613768 1.7859569e-38 298 228
-0.02824094 0.76700002 0.01613768 1.7951766e-38 299 228
-0.026896132 0.76700002 0.01613768 1.8228345e-38 300 228
-0.025551327 0.76700002 0.01613768 1.8228345e-38 301 228
-0.024174958 0.76599997 0.016116638 1.822799e-38 302 228
-0.022831906 0.76599997 0.016116638 1.822799e-38 303 228
-0.021432746 0.764 0.016074561 1.804468e-38 304 228
-0.020093199 0.764 0.016074561 1.8136876e-38 305 228
-0.018753653 0.764 0.016074561 1.7861734e-38 306 228
-0.017414106 0.764 0.016074561 1.7953929e-38 307 228
-0.016074561 0.764 0.016074561 1.7678787e-38 308 228
-0.014735013 0.764 0.016074561 1.7586591e-38 309 228
-0.013395466 0.764 0.016074561 1.7310009e-38 310 228
-0.01205592 0.764 0.016074561 1.6940866e-38 311 228
-0.010716373 0.764 0.016074561 1.712239e-38 312 228
-0.0093768267 0.764 0.016074561 1.6937999e-38 313 228
-0.0080372803 0.764 0.016074561 1.6386623e-38 314 228
-0.006697733 0.764 0.016074561 1.6202232e-38 315 228
-0.0053581866 0.764 0.016074561 1.5835247e-38 316 228
-0.0040186401 0.764 0.016074561 1.555866e-38 317 228
-0.0026790933 0.764 0.016074561 1.5648705e-38 318 228
-0.0013395466 0.764 0.016074561 1.5279921e-38 319 228
0 0.764 0.016074561 1.5370316e-38 320 228
0.0013395466 0.764 0.016074561 1.5094089e-38 321 228
0.0026790933 0.764 0.016074561 1.5094442e-38 322 228
0.0040186401 0.764 0.016074561 1.5002247e-38 323 228
0.0053581866 0.764 0.016074561 1.5001524e-38 324 228
0.0067152665 0.76599997 0.016116638 1.5001524e-38 325 228
0.0080583189 0.76599997 0.016116638 1.4726e-38 326 228
0.0094013726 0.76599997 0.016116638 1.4265381e-38 327 228
0.010744425 0.76599997 0.016116638 1.4079915e-38 328 228
0.012087479 0.76599997 0.016116638 1.3987719e-38 329 228
0.013430533 0.76599997 0.016116638 1.3618606e-38 330 228
0.014792874 0.76700002 0.01613768 1.3618606e-38 331 228
0.01613768 0.76700002 0.01613768 1.3249839e-38 332 228
0.017482487 0.76700002 0.01613768 1.3157643e-38 333 228
0.018827293 0.76700002 0.01613768 1.1963439e-38 334 228
-0.038096428 0.77600002 0.014966453 1.6497944e-38 292 229
-0.036735836 0.77600002 0.014966453 1.5760379e-38 293 229
-0.03528408 0.77399999 0.014927879 1.6940872e-38 294 229
-0.033883166 0.773 0.014908593 1.6756122e-38 295 229
-0.032443684 0.77100003 0.01487002 1.7674453e-38 296 229
-0.031011207 0.76899999 0.014831445 1.795068e-38 297 229
-0.029585747 0.76700002 0.014792874 1.8043234e-38 298 229
-0.02824094 0.76700002 0.014792874 1.8227627e-38 299 229
-0.026896132 0.76700002 0.014792874 1.8137229e-38 300 229
-0.025551327 0.76700002 0.014792874 1.8229424e-38 301 229
-0.024174958 0.76599997 0.014773586 1.8229424e-38 302 229
-0.022772292 0.764 0.014735013 1.8137229e-38 303 229
-0.021432746 0.764 0.014735013 1.8044677e-38 304 229
-0.020093199 0.764 0.014735013 1.8044677e-38 305 229
-0.018753653 0.764 0.014735013 1.7861015e-38 306 229
-0.01736852 0.76200002 0.01469644 1.8045046e-38 307 229
-0.01603248 0.76200002 0.01469644 1.7586235e-38 308 229
-0.01469644 0.76200002 0.01469644 1.7310009e-38 309 229
-0.0133604 0.76200002 0.01469644 1.721638e-38 310 229
-0.01202436 0.76200002 0.01469644 1.6386979e-38 311 229
-0.01068832 0.76200002 0.01469644 1.5834891e-38 312 229
-0.0093522798 0.76200002 0.01469644 1.5927087e-38 313 229
-0.0080162399 0.76200002 0.01469644 1.5284238e-38 314 229
-0.0066801999 0.76200002 0.01469644 1.4915815e-38 315 229
-0.0053581866 0.764 0.014735013 1.4915461e-38 316 229
-0.0040081199 0.76200002 0.01469644 1.4823266e-38 317 229
-0.00267208 0.76200002 0.01469644 1.5281367e-38 318 229
-0.00133604 0.76200002 0.01469644 1.5096976e-38 319 229
0 0.76200002 0.01469644 1.5280274e-38 320 229
0.00133604 0.76200002 0.01469644 1.5003689e-38 321 229
0.00267208 0.76200002 0.01469644 1.5187357e-38 322 229
0.0040186401 0.764 0.014735013 1.4818576e-38 323 229
0.0053581866 0.764 0.014735013 1.4908972e-38 324 229
0.0067152665 0.76599997 0.014773586 1.4632385e-38 325 229
0.0080583189 0.76599997 0.014773586 1.3896252e-38 326 229
0.0094013726 0.76599997 0.014773586 1.3434914e-38 327 229
0.010744425 0.76599997 0.014773586 1.2882117e-38 328 229
0.012087479 0.76599997 0.014773586 1.2882117e-38 329 229
0.013430533 0.76599997 0.014773586 1.3247322e-38 330 229
0.014792874 0.76700002 0.014792874 1.3155125e-38 331 229
0.01613768 0.76700002 0.014792874 1.2785994e-38 332 229
0.017482487 0.76700002 0.014792874 1.2785994e-38 333 229
-0.039457016 0.77600002 0.013605867 1.5948771e-38 291 230
-0.038096428 0.77600002 0.013605867 1.6397095e-38 292 230
-0.036735836 0.77600002 0.013605867 1.5567333e-38 293 230
-0.03528408 0.77399999 0.013570799 1.6755739e-38 294 230
-0.033883166 0.773 0.013553266 1.7031967e-38 295 230
-0.032359518 0.76899999 0.013483133 1.7674803e-38 296 230
-0.031011207 0.76899999 0.013483133 1.7951389e-38 297 230
-0.029585747 0.76700002 0.013448066 1.8043584e-38 298 230
-0.028204117 0.76599997 0.013430533 1.8227977e-38 299 230
-0.026861066 0.76599997 0.013430533 1.795463e-38 300 230
-0.025518013 0.76599997 0.013430533 1.8047184e-38 301 230
-0.024111839 0.764 0.013395466 1.8230141e-38 302 230
-0.022772292 0.764 0.013395466 1.8137945e-38 303 230
-0.02137664 0.76200002 0.0133604 1.7861365e-38 304 230
-0.0200406 0.76200002 0.0133604 1.7769169e-38 305 230
-0.01870456 0.76200002 0.0133604 1.7769535e-38 306 230
-0.01736852 0.76200002 0.0133604 1.7861731e-38 307 230
-0.01603248 0.76200002 0.0133604 1.7493677e-38 308 230
-0.01469644 0.76200002 0.0133604 1.7308926e-38 309 230
-0.0133604 0.76200002 0.0133604 1.6665005e-38 310 230
-0.01202436 0.76200002 0.0133604 1.5559016e-38 311 230
-0.01068832 0.76200002 0.0133604 1.3814503e-38 312 230
-0.0093522798 0.76200002 0.0133604 1.4643904e-38 313 230
-0.0080162399 0.76200002 0.0133604 1.3634441e-38 314 230
-0.0066801999 0.76200002 0.0133604 1.3173821e-38 315 230
-0.0053441599 0.76200002 0.0133604 1.3813447e-38 316 230
-0.0040081199 0.76200002 0.0133604 1.3721251e-38 317 230
-0.00267208 0.76200002 0.0133604 1.4821111e-38 318 230
-0.00133604 0.76200002 0.0133604 1.5005503e-38 319 230
0 0.76200002 0.0133604 1.5371751e-38 320 230
0.00133604 0.76200002 0.0133604 1.5279555e-38 321 230
0.00267208 0.76200002 0.0133604 1.5186282e-38 322 230
0.0040081199 0.76200002 0.0133604 1.4817498e-38 323 230
0.0053441599 0.76200002 0.0133604 1.4539836e-38 324 230
0.006697733 0.764 0.013395466 1.3894467e-38 325 230
0.0080583189 0.76599997 0.013430533 1.3157981e-38 326 230
0.0094013726 0.76599997 0.013430533 1.2420416e-38 327 230
0.010744425 0.76599997 0.013430533 1.2695223e-38 328 230
0.012087479 0.76599997 0.013430533 1.2695223e-38 329 230
0.013430533 0.76599997 0.013430533 1.2694517e-38 330 230
0.014773586 0.76599997 0.013430533 1.2694517e-38 331 230
0.01613768 0.76700002 0.013448066 1.2510126e-38 332 230
0.017482487 0.76700002 0.013448066 1.2326095e-38 333 230
0.018876385 0.76899999 0.013483133 1.1408463e-38 334 230
0.0202247 0.76899999 0.013483133 1.1132236e-38 335 230
0.021713279 0.77399999 0.013570799 1.0215354e-38 336 230
0.02307036 0.77399999 0.013570799 1.1137669e-38 337 230
0.024490559 0.77600002 0.013605867 1.0053312e-38 338 230
-0.039457016 0.77600002 0.01224528 1.5948049e-38 291 231
-0.038096428 0.77600002 0.01224528 1.6392775e-38 292 231
-0.036641158 0.77399999 0.01221372 1.5563014e-38 293 231
-0.03528408 0.77399999 0.01221372 1.6849011e-38 294 231
-0.033883166 0.773 0.012197939 1.6941207e-38 295 231
-0.032359518 0.76899999 0.012134819 1.7583326e-38 296 231
-0.031011207 0.76899999 0.012134819 1.7767718e-38 297 231
-0.029585747 0.76700002 0.01210326 1.7860991e-38 298 231
-0.028204117 0.76599997 0.012087479 1.8045384e-38 299 231
-0.026861066 0.76599997 0.012087479 1.7863153e-38 300 231
-0.025518013 0.76599997 0.012087479 1.7955349e-38 301 231
-0.024111839 0.764 0.01205592 1.7954635e-38 302 231
-0.02271268 0.76200002 0.01202436 1.7862081e-38 303 231
-0.02137664 0.76200002 0.01202436 1.7769169e-38 304 231
-0.0200406 0.76200002 0.01202436 1.7769169e-38 305 231
-0.01870456 0.76200002 0.01202436 1.7676623e-38 306 231
-0.01736852 0.76200002 0.01202436 1.7768819e-38 307 231
-0.01603248 0.76200002 0.01202436 1.7676633e-38 308 231
-0.01469644 0.76200002 0.01202436 1.7308209e-38 309 231
-0.0133604 0.76200002 0.01202436 1.6755033e-38 310 231
-0.01202436 0.76200002 0.01202436 1.5648685e-38 311 231
-0.01068832 0.76200002 0.01202436 1.2986888e-38 312 231
-0.0093522798 0.76200002 0.01202436 1.4277627e-38 313 231
-0.0080162399 0.76200002 0.01202436 1.2994465e-38 314 231
-0.0066801999 0.76200002 0.01202436 1.2349095e-38 315 231
-0.0053371461 0.76099998 0.012008579 1.2711788e-38 316 231
-0.0040028598 0.76099998 0.012008579 1.2527395e-38 317 231
-0.00267208 0.76200002 0.01202436 1.3994244e-38 318 231
-0.00133604 0.76200002 0.01202436 1.4363026e-38 319 231
0 0.76200002 0.01202436 1.5096609e-38 320 231
0.00133604 0.76200002 0.01202436 1.5004054e-38 321 231
0.00267208 0.76200002 0.01202436 1.5001538e-38 322 231
0.0040081199 0.76200002 0.01202436 1.4448723e-38 323 231
0.0053441599 0.76200002 0.01202436 1.4354016e-38 324 231
0.006697733 0.764 0.01205592 1.3801201e-38 325 231
0.0080162399 0.76200002 0.01202436 1.3431341e-38 326 231
0.0093522798 0.76200002 0.01202436 1.2693774e-38 327 231
0.010716373 0.764 0.01205592 1.2142771e-38 328 231
0.012087479 0.76599997 0.012087479 1.2234967e-38 329 231
0.013430533 0.76599997 0.012087479 1.2143498e-38 330 231
0.014773586 0.76599997 0.012087479 1.2143498e-38 331 231
0.016116638 0.76599997 0.012087479 1.2234964e-38 332 231
0.017482487 0.76700002 0.01210326 1.2142768e-38 333 231
0.018876385 0.76899999 0.012134819 1.1315901e-38 334 231
0.0202247 0.76899999 0.012134819 1.1408097e-38 335 231
0.021713279 0.77399999 0.01221372 1.0765638e-38 336 231
0.02307036 0.77399999 0.01221372 1.0396854e-38 337 231
0.024490559 0.77600002 0.01224528 7.5604144e-39 338 231
0.025851147 0.77600002 0.01224528 1.3829716e-38 339 231
-0.039457016 0.77600002 0.010884693 1.438035e-38 291 232
-0.037998237 0.77399999 0.01085664 1.5931068e-38 292 232
-0.036641158 0.77399999 0.01085664 1.5654841e-38 293 232
-0.035238493 0.773 0.010842613 1.7124522e-38 294 232
-0.033883166 0.773 0.010842613 1.7031967e-38 295 232
-0.032359518 0.76899999 0.010786506 1.7583326e-38 296 232
-0.030930554 0.76700002 0.010758453 1.7675522e-38 297 232
-0.029585747 0.76700002 0.010758453 1.7860266e-38 298 232
-0.028204117 0.76599997 0.010744425 1.8045018e-38 299 232
-0.026861066 0.76599997 0.010744425 1.7955349e-38 300 232
-0.025518013 0.76599997 0.010744425 1.7955349e-38 301 232
-0.024111839 0.764 0.010716373 1.7954645e-38 302 232
-0.022682872 0.76099998 0.010674292 1.7678418e-38 303 232
-0.021348584 0.76099998 0.010674292 1.7768819e-38 304 232
-0.0200406 0.76200002 0.01068832 1.7584068e-38 305 232
-0.018680012 0.76099998 0.010674292 1.7491875e-38 306 232
-0.017345725 0.76099998 0.010674292 1.7491875e-38 307 232
-0.016011439 0.76099998 0.010674292 1.758407e-38 308 232
-0.014677152 0.76099998 0.010674292 1.758407e-38 309 232
-0.013342866 0.76099998 0.010674292 1.6755386e-38 310 232
-0.012008579 0.76099998 0.010674292 1.5741234e-38 311 232
-0.010674292 0.76099998 0.010674292 1.3080527e-38 312 232
-0.0093400059 0.76099998 0.010674292 1.409468e-38 313 232
-0.0080057196 0.76099998 0.010674292 1.2537454e-38 314 232
-0.0066714329 0.76099998 0.010674292 1.1615137e-38 315 232
-0.0053371461 0.76099998 0.010674292 1.206714e-38 316 232
-0.0040028598 0.76099998 0.010674292 1.1606162e-38 317 232
-0.0026685731 0.76099998 0.010674292 1.3071931e-38 318 232
-0.0013342865 0.76099998 0.010674292 1.3809496e-38 319 232
0 0.76099998 0.010674292 1.5186656e-38 320 232
0.0013342865 0.76099998 0.010674292 1.5278852e-38 321 232
0.00267208 0.76200002 0.01068832 1.463348e-38 322 232
0.0040081199 0.76200002 0.01068832 1.4080307e-38 323 232
0.0053441599 0.76200002 0.01068832 1.3985959e-38 324 232
0.006697733 0.764 0.010716373 1.3709732e-38 325 232
0.0080162399 0.76200002 0.01068832 1.3065801e-38 326 232
0.0093522798 0.76200002 0.01068832 1.2604823e-38 327 232
0.010716373 0.764 0.010716373 1.2052369e-38 328 232
0.01205592 0.764 0.010716373 1.2052369e-38 329 232
0.013395466 0.764 0.010716373 1.1960528e-38 330 232
0.014735013 0.764 0.010716373 1.1960528e-38 331 232
0.016116638 0.76599997 0.010744425 1.2052002e-38 332 232
0.017482487 0.76700002 0.010758453 1.1867611e-38 333 232
0.018827293 0.76700002 0.010758453 1.1040388e-38 334 232
0.0202247 0.76899999 0.010786506 1.0948192e-38 335 232
0.021713279 0.77399999 0.01085664 1.0673776e-38 336 232
0.02307036 0.77399999 0.01085664 1.0489385e-38 337 232
0.02442744 0.77399999 0.01085664 8.7467032e-39 338 232
0.025784519 0.77399999 0.01085664 1.3080258e-38 339 232
0.027141599 0.77399999 0.01085664 1.4290362e-38 340 232
-0.0408176 0.77600002 0.009524107 1.5484878e-38 290 233
-0.039355319 0.77399999 0.0094995592 1.3364378e-38 291 233
-0.037998237 0.77399999 0.0094995592 1.6114355e-38 292 233
-0.036641158 0.77399999 0.0094995592 1.6206551e-38 293 233
-0.035238493 0.773 0.0094872871 1.6756462e-38 294 233
-0.033883166 0.773 0.0094872871 1.6848658e-38 295 233
-0.032359518 0.76899999 0.0094381925 1.7124519e-38 296 233
-0.030930554 0.76700002 0.0094136465 1.7216714e-38 297 233
-0.029585747 0.76700002 0.0094136465 1.7584777e-38 298 233
-0.028204117 0.76599997 0.0094013726 1.7861365e-38 299 233
-0.026861066 0.76599997 0.0094013726 1.7403992e-38 300 233
-0.025518013 0.76599997 0.0094013726 1.7496188e-38 301 233
-0.024111839 0.764 0.0093768267 1.7862096e-38 302 233
-0.022682872 0.76099998 0.0093400059 1.758587e-38 303 233
-0.021348584 0.76099998 0.0093400059 1.7400402e-38 304 233
-0.0200406 0.76200002 0.0093522798 1.7308207e-38 305 233
-0.018680012 0.76099998 0.0093400059 1.7216014e-38 306 233
-0.017345725 0.76099998 0.0093400059 1.7308209e-38 307 233
-0.016011439 0.76099998 0.0093400059 1.7309279e-38 308 233
-0.014677152 0.76099998 0.0093400059 1.7033052e-38 309 233
-0.013342866 0.76099998 0.0093400059 1.638912e-38 310 233
-0.012008579 0.76099998 0.0093400059 1.537497e-38 311 233
-0.010674292 0.76099998 0.0093400059 1.3264569e-38 312 233
-0.00931546 0.759 0.00931546 1.4002134e-38 313 233
-0.0079846792 0.759 0.00931546 1.3177431e-38 314 233
-0.0066714329 0.76099998 0.0093400059 1.1886692e-38 315 233
-0.0053371461 0.76099998 0.0093400059 1.1238821e-38 316 233
-0.0040028598 0.76099998 0.0093400059 1.0778202e-38 317 233
-0.0026685731 0.76099998 0.0093400059 1.2704248e-38 318 233
-0.0013342865 0.76099998 0.0093400059 1.3165226e-38 319 233
0 0.76099998 0.0093400059 1.4634944e-38 320 233
0.0013342865 0.76099998 0.0093400059 1.4266522e-38 321 233
0.0026685731 0.76099998 0.0093400059 1.4540212e-38 322 233
0.0040028598 0.76099998 0.0093400059 1.4171428e-38 323 233
0.0053371461 0.76099998 0.0093400059 1.4078142e-38 324 233
0.0066801999 0.76200002 0.0093522798 1.389375e-38 325 233
0.0080162399 0.76200002 0.0093522798 1.3433126e-38 326 233
0.0093522798 0.76200002 0.0093522798 1.3156179e-38 327 233
0.01068832 0.76200002 0.0093522798 1.2695561e-38 328 233
0.01205592 0.764 0.0093768267 1.251081e-38 329 233
0.013395466 0.764 0.0093768267 1.2052002e-38 330 233
0.014735013 0.764 0.0093768267 1.1959806e-38 331 233
0.016074561 0.764 0.0093768267 1.14088e-38 332 233
0.017459691 0.76599997 0.0094013726 1.1316605e-38 333 233
0.018827293 0.76700002 0.0094136465 1.0855997e-38 334 233
0.020172099 0.76700002 0.0094136465 1.0855997e-38 335 233
0.021685226 0.773 0.0094872871 1.0214245e-38 336 233
0.023040552 0.773 0.0094872871 1.0306441e-38 337 233
0.02442744 0.77399999 0.0094995592 9.1115271e-39 338 233
0.025784519 0.77399999 0.0094995592 1.0863243e-38 339 233
0.027141599 0.77399999 0.0094995592 1.0883776e-38 340 233
0.028498679 0.77399999 0.0094995592 1.3003915e-38 341 233
-0.040712398 0.77399999 0.0081424797 1.5205038e-38 290 234
-0.039355319 0.77399999 0.0081424797 1.3452961e-38 291 234
-0.037949149 0.773 0.0081319595 1.6480964e-38 292 234
-0.036593821 0.773 0.0081319595 1.6204736e-38 293 234
-0.035238493 0.773 0.0081319595 1.6847209e-38 294 234
-0.033795502 0.77100003 0.0081109209 1.6939405e-38 295 234
-0.03227536 0.76700002 0.00806884 1.712415e-38 296 234
-0.030930554 0.76700002 0.00806884 1.7216346e-38 297 234
-0.029585747 0.76700002 0.00806884 1.7492578e-38 298 234
-0.028204117 0.76599997 0.0080583189 1.7676971e-38 299 234
-0.026861066 0.76599997 0.0080583189 1.7403629e-38 300 234
-0.025518013 0.76599997 0.0080583189 1.7403629e-38 301 234
-0.024111839 0.764 0.0080372803 1.7678068e-38 302 234
-0.022682872 0.76099998 0.0080057196 1.7493677e-38 303 234
-0.021348584 0.76099998 0.0080057196 1.7400405e-38 304 234
-0.020014299 0.76099998 0.0080057196 1.7216014e-38 305 234
-0.018680012 0.76099998 0.0080057196 1.7123097e-38 306 234
-0.017345725 0.76099998 0.0080057196 1.7399323e-38 307 234
-0.016011439 0.76099998 0.0080057196 1.712561e-38 308 234
-0.014638579 0.759 0.0079846792 1.7033415e-38 309 234
-0.0133078 0.759 0.0079846792 1.6113607e-38 310 234
-0.01197702 0.759 0.0079846792 1.4638477e-38 311 234
-0.01064624 0.759 0.0079846792 1.2706319e-38 312 234
-0.0092909131 0.75700003 0.0079636406 1.0678029e-38 313 234
-0.0079636406 0.75700003 0.0079636406 9.7586145e-39 314 234
-0.0066538998 0.759 0.0079846792 1.049618e-38 315 234
-0.0053231199 0.759 0.0079846792 1.1230187e-38 316 234
-0.0039923396 0.759 0.0079846792 1.178336e-38 317 234
-0.00266156 0.759 0.0079846792 1.3346358e-38 318 234
-0.00133078 0.759 0.0079846792 1.389953e-38 319 234
0 0.759 0.0079846792 1.4449817e-38 320 234
0.00133078 0.759 0.0079846792 1.4265067e-38 321 234
0.0026685731 0.76099998 0.0080057196 1.4355465e-38 322 234
0.0040028598 0.76099998 0.0080057196 1.4263269e-38 323 234
0.0053371461 0.76099998 0.0080057196 1.3802644e-38 324 234
0.0066714329 0.76099998 0.0080057196 1.3618253e-38 325 234
0.0080057196 0.76099998 0.0080057196 1.3340946e-38 326 234
0.0093522798 0.76200002 0.0080162399 1.306436e-38 327 234
0.01068832 0.76200002 0.0080162399 1.2512624e-38 328 234
0.01202436 0.76200002 0.0080162399 1.2236397e-38 329 234
0.013395466 0.764 0.0080372803 1.1960528e-38 330 234
0.014735013 0.764 0.0080372803 1.1776138e-38 331 234
0.016074561 0.764 0.0080372803 1.1316608e-38 332 234
0.017414106 0.764 0.0080372803 1.1224053e-38 333 234
0.018802745 0.76599997 0.0080583189 1.067268e-38 334 234
0.020172099 0.76700002 0.00806884 1.0580484e-38 335 234
0.021629119 0.77100003 0.0081109209 1.012275e-38 336 234
0.02298094 0.77100003 0.0081109209 1.0307142e-38 337 234
0.024395877 0.773 0.0081319595 1.0398649e-38 338 234
0.025751207 0.773 0.0081319595 9.2926617e-39 339 234
0.027106533 0.773 0.0081319595 7.7502007e-39 340 234
0.028461859 0.773 0.0081319595 1.1714613e-38 341 234
0.029817186 0.773 0.0081319595 1.3273685e-38 342 234
-0.040712398 0.77399999 0.0067853997 1.5018479e-38 290 235
-0.039304473 0.773 0.0067766332 1.3635185e-38 291 235
-0.037949149 0.773 0.0067766332 1.6480594e-38 292 235
-0.036593821 0.773 0.0067766332 1.6388399e-38 293 235
-0.035056144 0.76899999 0.0067415666 1.6571695e-38 294 235
-0.033707831 0.76899999 0.0067415666 1.6756445e-38 295 235
-0.03227536 0.76700002 0.006724033 1.6849005e-38 296 235
-0.030930554 0.76700002 0.006724033 1.7033755e-38 297 235
-0.029585747 0.76700002 0.006724033 1.7033765e-38 298 235
-0.028204117 0.76599997 0.0067152665 1.712632e-38 299 235
-0.026861066 0.76599997 0.0067152665 1.6943021e-38 300 235
-0.025518013 0.76599997 0.0067152665 1.6943021e-38 301 235
-0.024017159 0.76099998 0.0066714329 1.7217457e-38 302 235
-0.022682872 0.76099998 0.0066714329 1.7033064e-38 303 235
-0.021348584 0.76099998 0.0066714329 1.694015e-38 304 235
-0.020014299 0.76099998 0.0066714329 1.6847954e-38 305 235
-0.01863092 0.759 0.0066538998 1.6756478e-38 306 235
-0.017300138 0.759 0.0066538998 1.6848673e-38 307 235
-0.015969358 0.759 0.0066538998 1.7032699e-38 308 235
-0.014638579 0.759 0.0066538998 1.6940503e-38 309 235
-0.0133078 0.759 0.0066538998 1.6938688e-38 310 235
-0.01197702 0.759 0.0066538998 1.6201123e-38 311 235
-0.01064624 0.759 0.0066538998 1.5002928e-38 312 235
-0.0092909131 0.75700003 0.0066363667 1.3712189e-38 313 235
-0.0079636406 0.75700003 0.0066363667 1.2605876e-38 314 235
-0.0066363667 0.75700003 0.0066363667 1.2882823e-38 315 235
-0.0053090933 0.75700003 0.0066363667 1.2976849e-38 316 235
-0.0039923396 0.759 0.0066538998 1.3714414e-38 317 235
-0.00266156 0.759 0.0066538998 1.4175022e-38 318 235
-0.00133078 0.759 0.0066538998 1.4267219e-38 319 235
0 0.759 0.0066538998 1.3989556e-38 320 235
0.00133078 0.759 0.0066538998 1.3805165e-38 321 235
0.00266156 0.759 0.0066538998 1.3712615e-38 322 235
0.0039923396 0.759 0.0066538998 1.3620419e-38 323 235
0.0053371461 0.76099998 0.0066714329 1.3710449e-38 324 235
0.0066714329 0.76099998 0.0066714329 1.343386e-38 325 235
0.0080057196 0.76099998 0.0066714329 1.3523536e-38 326 235
0.0093400059 0.76099998 0.0066714329 1.3339144e-38 327 235
0.010674292 0.76099998 0.0066714329 1.2512258e-38 328 235
0.01202436 0.76200002 0.0066801999 1.2327867e-38 329 235
0.013395466 0.764 0.006697733 1.1776138e-38 330 235
0.014735013 0.764 0.006697733 1.1591747e-38 331 235
0.016074561 0.764 0.006697733 1.0948911e-38 332 235
0.017414106 0.764 0.006697733 1.076488e-38 333 235
0.018802745 0.76599997 0.0067152665 1.0580487e-38 334 235
0.020172099 0.76700002 0.006724033 1.0580487e-38 335 235
0.021516906 0.76700002 0.006724033 1.021423e-38 336 235
0.022921326 0.76899999 0.0067415666 1.0490457e-38 337 235
0.024395877 0.773 0.0067766332 1.030716e-38 338 235
0.025751207 0.773 0.0067766332 9.2008122e-39 339 235
0.027106533 0.773 0.0067766332 9.1165647e-39 340 235
0.028388219 0.77100003 0.0067590997 1.4924889e-38 341 235
0.029740039 0.77100003 0.0067590997 1.4657328e-38 342 235
-0.040712398 0.77399999 0.0054283198 1.501523e-38 290 236
-0.039304473 0.773 0.0054213065 1.4093632e-38 291 236
-0.03775277 0.76899999 0.0053932532 1.64813e-38 292 236
-0.036404461 0.76899999 0.0053932532 1.6296909e-38 293 236
-0.034964975 0.76700002 0.0053792265 1.647985e-38 294 236
-0.033620168 0.76700002 0.0053792265 1.6756796e-38 295 236
-0.03227536 0.76700002 0.0053792265 1.6849358e-38 296 236
-0.030890226 0.76599997 0.0053722127 1.703375e-38 297 236
-0.029547172 0.76599997 0.0053722127 1.7034118e-38 298 236
-0.028204117 0.76599997 0.0053722127 1.7034118e-38 299 236
-0.026861066 0.76599997 0.0053722127 1.7125966e-38 300 236
-0.025451386 0.764 0.0053581866 1.7125966e-38 301 236
-0.024017159 0.76099998 0.0053371461 1.7125616e-38 302 236
-0.022682872 0.76099998 0.0053371461 1.6940866e-38 303 236
-0.021348584 0.76099998 0.0053371461 1.6847598e-38 304 236
-0.020014299 0.76099998 0.0053371461 1.6755403e-38 305 236
-0.01863092 0.759 0.0053231199 1.6755406e-38 306 236
-0.017300138 0.759 0.0053231199 1.6847601e-38 307 236
-0.015927281 0.75700003 0.0053090933 1.7031264e-38 308 236
-0.014600007 0.75700003 0.0053090933 1.7123818e-38 309 236
-0.013272733 0.75700003 0.0053090933 1.7123447e-38 310 236
-0.01194546 0.75700003 0.0053090933 1.6939054e-38 311 236
-0.010618187 0.75700003 0.0053090933 1.6476631e-38 312 236
-0.0092663663 0.755 0.0052950666 1.6199686e-38 313 236
-0.0079425992 0.755 0.0052950666 1.5464298e-38 314 236
-0.0066363667 0.75700003 0.0053090933 1.5095156e-38 315 236
-0.0053090933 0.75700003 0.0053090933 1.500441e-38 316 236
-0.0039923396 0.759 0.0053231199 1.5096606e-38 317 236
-0.00266156 0.759 0.0053231199 1.4728897e-38 318 236
-0.0013272733 0.75700003 0.0053090933 1.3991332e-38 319 236
0 0.75700003 0.0053090933 1.3896633e-38 320 236
0.0013272733 0.75700003 0.0053090933 1.3435657e-38 321 236
0.00266156 0.759 0.0053231199 1.352643e-38 322 236
0.0039923396 0.759 0.0053231199 1.3434234e-38 323 236
0.0053371461 0.76099998 0.0053371461 1.343351e-38 324 236
0.0066714329 0.76099998 0.0053371461 1.324912e-38 325 236
0.0080057196 0.76099998 0.0053371461 1.3247678e-38 326 236
0.0093400059 0.76099998 0.0053371461 1.3155481e-38 327 236
0.010674292 0.76099998 0.0053371461 1.2420075e-38 328 236
0.01202436 0.76200002 0.0053441599 1.2143849e-38 329 236
0.0133604 0.76200002 0.0053441599 1.1684311e-38 330 236
0.014735013 0.764 0.0053581866 1.1315889e-38 331 236
0.016074561 0.764 0.0053581866 1.076488e-38 332 236
0.017459691 0.76599997 0.0053722127 1.076488e-38 333 236
0.018827293 0.76700002 0.0053792265 1.0397891e-38 334 236
0.020172099 0.76700002 0.0053792265 1.0397891e-38 335 236
0.021516906 0.76700002 0.0053792265 1.0214227e-38 336 236
0.022861714 0.76700002 0.0053792265 1.0214227e-38 337 236
0.02433276 0.77100003 0.0054072798 1.0214242e-38 338 236
0.02568458 0.77100003 0.0054072798 9.6610687e-39 339 236
0.027036399 0.77100003 0.0054072798 9.1158459e-39 340 236
0.028388219 0.77100003 0.0054072798 1.4370997e-38 341 236
0.029740039 0.77100003 0.0054072798 1.5580008e-38 342 236
0.031091858 0.77100003 0.0054072798 1.7700507e-38 343 236
-0.0406598 0.773 0.0040659797 1.5381121e-38 290 237
-0.039304473 0.773 0.0040659797 1.4920143e-38 291 237
-0.037654586 0.76700002 0.00403442 1.6389821e-38 292 237
-0.036309779 0.76700002 0.00403442 1.620579e-38 293 237
-0.034964975 0.76700002 0.00403442 1.6572765e-38 294 237
-0.033620168 0.76700002 0.00403442 1.6849712e-38 295 237
-0.032233275 0.76599997 0.0040291594 1.6666765e-38 296 237
-0.030890226 0.76599997 0.0040291594 1.6851156e-38 297 237
-0.029547172 0.76599997 0.0040291594 1.6850453e-38 298 237
-0.028204117 0.76599997 0.0040291594 1.6850453e-38 299 237
-0.026861066 0.76599997 0.0040291594 1.6850105e-38 300 237
-0.025351444 0.76099998 0.0040028598 1.6850105e-38 301 237
-0.023954039 0.759 0.0039923396 1.6666077e-38 302 237
-0.02262326 0.759 0.0039923396 1.6666077e-38 303 237
-0.02129248 0.759 0.0039923396 1.6572807e-38 304 237
-0.0199617 0.759 0.0039923396 1.6480611e-38 305 237
-0.01863092 0.759 0.0039923396 1.6572091e-38 306 237
-0.017300138 0.759 0.0039923396 1.6756122e-38 307 237
-0.015927281 0.75700003 0.0039818203 1.6940503e-38 308 237
-0.014600007 0.75700003 0.0039818203 1.7032699e-38 309 237
-0.013237666 0.755 0.0039712996 1.6849377e-38 310 237
-0.011913899 0.755 0.0039712996 1.6480594e-38 311 237
-0.010590133 0.755 0.0039712996 1.6293332e-38 312 237
-0.0092663663 0.755 0.0039712996 1.6201136e-38 313 237
-0.0079425992 0.755 0.0039712996 1.5557934e-38 314 237
-0.0066188332 0.755 0.0039712996 1.5189153e-38 315 237
-0.0052950666 0.755 0.0039712996 1.5280269e-38 316 237
-0.0039818203 0.75700003 0.0039818203 1.5280269e-38 317 237
-0.00266156 0.759 0.0039923396 1.500261e-38 318 237
-0.0013272733 0.75700003 0.0039818203 1.4173209e-38 319 237
0 0.75700003 0.0039818203 1.3803366e-38 320 237
0.0013272733 0.75700003 0.0039818203 1.3434585e-38 321 237
0.0026545466 0.75700003 0.0039818203 1.3067246e-38 322 237
0.0039923396 0.759 0.0039923396 1.3067246e-38 323 237
0.0053231199 0.759 0.0039923396 1.3157643e-38 324 237
0.0066538998 0.759 0.0039923396 1.2789221e-38 325 237
0.0079846792 0.759 0.0039923396 1.3155125e-38 326 237
0.00931546 0.759 0.0039923396 1.2970734e-38 327 237
0.01064624 0.759 0.0039923396 1.2420075e-38 328 237
0.01202436 0.76200002 0.0040081199 1.2143849e-38 329 237
0.0133604 0.76200002 0.0040081199 1.1684311e-38 330 237
0.01469644 0.76200002 0.0040081199 1.1408084e-38 331 237
0.016074561 0.764 0.0040186401 1.0765599e-38 332 237
0.017414106 0.764 0.0040186401 1.0673403e-38 333 237
0.018827293 0.76700002 0.00403442 1.0397895e-38 334 237
0.020172099 0.76700002 0.00403442 1.0305339e-38 335 237
0.021516906 0.76700002 0.00403442 1.0304989e-38 336 237
0.022861714 0.76700002 0.00403442 1.0212794e-38 337 237
0.024269639 0.76899999 0.0040449398 1.0120971e-38 338 237
0.025617953 0.76899999 0.0040449398 1.0120971e-38 339 237
0.027036399 0.77100003 0.0040554604 9.1129746e-39 340 237
0.028461859 0.773 0.0040659797 1.1786648e-38 341 237
0.029740039 0.77100003 0.0040554604 1.3372352e-38 342 237
0.031091858 0.77100003 0.0040554604 1.696798e-38 343 237
-0.041797712 0.76899999 0.0026966266 1.318036e-38 289 238
-0.040344197 0.76700002 0.0026896133 1.593248e-38 290 238
-0.038999394 0.76700002 0.0026896133 1.5563699e-38 291 238
-0.037654586 0.76700002 0.0026896133 1.6390174e-38 292 238
-0.036309779 0.76700002 0.0026896133 1.6390174e-38 293 238
-0.034964975 0.76700002 0.0026896133 1.6574197e-38 294 238
-0.033576332 0.76599997 0.0026861064 1.6850784e-38 295 238
-0.032233275 0.76599997 0.0026861064 1.675968e-38 296 238
-0.030890226 0.76599997 0.0026861064 1.6851875e-38 297 238
-0.029547172 0.76599997 0.0026861064 1.6850456e-38 298 238
-0.028204117 0.76599997 0.0026861064 1.6850456e-38 299 238
-0.026790932 0.764 0.0026790933 1.6758626e-38 300 238
-0.025351444 0.76099998 0.0026685731 1.6758626e-38 301 238
-0.023954039 0.759 0.00266156 1.6758623e-38 302 238
-0.02262326 0.759 0.00266156 1.6666427e-38 303 238
-0.02129248 0.759 0.00266156 1.6573516e-38 304 238
-0.0199617 0.759 0.00266156 1.6573516e-38 305 238
-0.01863092 0.759 0.00266156 1.657316e-38 306 238
-0.017300138 0.759 0.00266156 1.6665355e-38 307 238
-0.015927281 0.75700003 0.0026545466 1.6849024e-38 308 238
-0.014600007 0.75700003 0.0026545466 1.6849024e-38 309 238
-0.013237666 0.755 0.0026475333 1.6848307e-38 310 238
-0.011913899 0.755 0.0026475333 1.657136e-38 311 238
-0.010590133 0.755 0.0026475333 1.6568847e-38 312 238
-0.0092663663 0.755 0.0026475333 1.6200064e-38 313 238
-0.0079425992 0.755 0.0026475333 1.5739812e-38 314 238
-0.0066188332 0.755 0.0026475333 1.5647616e-38 315 238
-0.0052950666 0.755 0.0026475333 1.5463951e-38 316 238
-0.0039818203 0.75700003 0.0026545466 1.5279199e-38 317 238
-0.0026545466 0.75700003 0.0026545466 1.5001171e-38 318 238
-0.0013272733 0.75700003 0.0026545466 1.4539834e-38 319 238
0 0.75700003 0.0026545466 1.3896262e-38 320 238
0.0013272733 0.75700003 0.0026545466 1.352784e-38 321 238
0.0026545466 0.75700003 0.0026545466 1.3435287e-38 322 238
0.0039818203 0.75700003 0.0026545466 1.3343091e-38 323 238
0.0053231199 0.759 0.00266156 1.3066154e-38 324 238
0.0066363667 0.75700003 0.0026545466 1.2697371e-38 325 238
0.0079636406 0.75700003 0.0026545466 1.2880333e-38 326 238
0.00931546 0.759 0.00266156 1.2511911e-38 327 238
0.01064624 0.759 0.00266156 1.2419357e-38 328 238
0.01202436 0.76200002 0.00267208 1.2234964e-38 329 238
0.0133604 0.76200002 0.00267208 1.1684311e-38 330 238
0.01469644 0.76200002 0.00267208 1.1592115e-38 331 238
0.01603248 0.76200002 0.00267208 1.085815e-38 332 238
0.01736852 0.76200002 0.00267208 1.0765596e-38 333 238
0.018802745 0.76599997 0.0026861064 1.012203e-38 334 238
0.020145798 0.76599997 0.0026861064 9.93728e-39 335 238
0.021516906 0.76700002 0.0026896133 9.8447369e-39 336 238
0.022861714 0.76700002 0.0026896133 9.9369325e-39 337 238
0.024269639 0.76899999 0.0026966266 9.8451152e-39 338 238
0.025617953 0.76899999 0.0026966266 1.0213539e-38 339 238
0.027036399 0.77100003 0.0027036399 9.5721535e-39 340 238
0.028461859 0.773 0.0027106532 9.8487418e-39 341 238
0.029740039 0.77100003 0.0027036399 1.2351712e-38 342 238
0.031091858 0.77100003 0.0027036399 1.7330636e-38 343 238
-0.041797712 0.76899999 0.0013483133 1.3088151e-38 289 239
-0.040344197 0.76700002 0.0013448066 1.6116153e-38 290 239
-0.038999394 0.76700002 0.0013448066 1.6023957e-38 291 239
-0.037654586 0.76700002 0.0013448066 1.6299427e-38 292 239
-0.036309779 0.76700002 0.0013448066 1.6299427e-38 293 239
-0.034919381 0.76599997 0.0013430532 1.6391605e-38 294 239
-0.033576332 0.76599997 0.0013430532 1.6667831e-38 295 239
-0.032233275 0.76599997 0.0013430532 1.6759677e-38 296 239
-0.030890226 0.76599997 0.0013430532 1.6852231e-38 297 239
-0.029547172 0.76599997 0.0013430532 1.6851177e-38 298 239
-0.028130481 0.764 0.0013395466 1.6851177e-38 299 239
-0.026790932 0.764 0.0013395466 1.6576032e-38 300 239
-0.025351444 0.76099998 0.0013342865 1.6576032e-38 301 239
-0.023954039 0.759 0.00133078 1.657603e-38 302 239
-0.02262326 0.759 0.00133078 1.6299803e-38 303 239
-0.02129248 0.759 0.00133078 1.6390564e-38 304 239
-0.0199617 0.759 0.00133078 1.6206172e-38 305 239
-0.01863092 0.759 0.00133078 1.657316e-38 306 239
-0.017300138 0.759 0.00133078 1.6480964e-38 307 239
-0.015927281 0.75700003 0.0013272733 1.6939424e-38 308 239
-0.014600007 0.75700003 0.0013272733 1.6755033e-38 309 239
-0.013237666 0.755 0.0013237667 1.6938704e-38 310 239
-0.011913899 0.755 0.0013237667 1.6569923e-38 311 239
-0.010590133 0.755 0.0013237667 1.6385181e-38 312 239
-0.0092663663 0.755 0.0013237667 1.620043e-38 313 239
-0.0079425992 0.755 0.0013237667 1.5739105e-38 314 239
-0.0066188332 0.755 0.0013237667 1.564691e-38 315 239
-0.0052950666 0.755 0.0013237667 1.5371401e-38 316 239
-0.0039712996 0.755 0.0013237667 1.5186651e-38 317 239
-0.0026475333 0.755 0.0013237667 1.5002612e-38 318 239
-0.0013237667 0.755 0.0013237667 1.4449439e-38 319 239
0 0.755 0.0013237667 1.399313e-38 320 239
0.0013237667 0.755 0.0013237667 1.3624347e-38 321 239
0.0026545466 0.75700003 0.0013272733 1.3529277e-38 322 239
0.0039818203 0.75700003 0.0013272733 1.3068299e-38 323 239
0.0053231199 0.759 0.00133078 1.2881767e-38 324 239
0.0066363667 0.75700003 0.0013272733 1.2697374e-38 325 239
0.0079636406 0.75700003 0.0013272733 1.2695576e-38 326 239
0.0092909131 0.75700003 0.0013272733 1.2695576e-38 327 239
0.01064624 0.759 0.00133078 1.2327161e-38 328 239
0.012008579 0.76099998 0.0013342865 1.2234964e-38 329 239
0.013342866 0.76099998 0.0013342865 1.1500646e-38 330 239
0.014677152 0.76099998 0.0013342865 1.140845e-38 331 239
0.01603248 0.76200002 0.00133604 1.0675204e-38 332 239
0.01736852 0.76200002 0.00133604 1.0398258e-38 333 239
0.01870456 0.76200002 0.00133604 9.8468851e-39 334 239
0.020145798 0.76599997 0.0013430532 9.5702982e-39 335 239
0.021488851 0.76599997 0.0013430532 9.661419e-39 336 239
0.022861714 0.76700002 0.0013448066 9.661419e-39 337 239
0.024269639 0.76899999 0.0013483133 9.7536146e-39 338 239
0.025617953 0.76899999 0.0013483133 1.00302e-38 339 239
0.027036399 0.77100003 0.00135182 1.0216056e-38 340 239
0.028388219 0.77100003 0.00135182 9.8476334e-39 341 239
0.029740039 0.77100003 0.00135182 1.096769e-38 342 239
0.031091858 0.77100003 0.00135182 1.6499067e-38 343 239
-0.041797712 0.76899999 -0 1.2810836e-38 289 240
-0.040344197 0.76700002 -0 1.6114705e-38 290 240
-0.038999394 0.76700002 -0 1.6206901e-38 291 240
-0.037654586 0.76700002 -0 1.6299427e-38 292 240
-0.036262438 0.76599997 -0 1.6299427e-38 293 240
-0.034919381 0.76599997 -0 1.6483806e-38 294 240
-0.033576332 0.76599997 -0 1.6667837e-38 295 240
-0.032233275 0.76599997 -0 1.648454e-38 296 240
-0.030809574 0.764 -0 1.648454e-38 297 240
-0.029470026 0.764 -0 1.6575676e-38 298 240
-0.028130481 0.764 -0 1.6575676e-38 299 240
-0.0267208 0.76200002 -0 1.6300887e-38 300 240
-0.025351444 0.76099998 -0 1.6300887e-38 301 240
-0.023954039 0.759 -0 1.6483831e-38 302 240
-0.02262326 0.759 -0 1.6483831e-38 303 240
-0.02129248 0.759 -0 1.6390919e-38 304 240
-0.0199617 0.759 -0 1.6206169e-38 305 240
-0.01863092 0.759 -0 1.6388415e-38 306 240
-0.017300138 0.759 -0 1.6388415e-38 307 240
-0.015885198 0.755 -0 1.6570291e-38 308 240
-0.014561433 0.755 -0 1.6662487e-38 309 240
-0.013237666 0.755 -0 1.656957e-38 310 240
-0.011913899 0.755 -0 1.6477374e-38 311 240
-0.010590133 0.755 -0 1.6475945e-38 312 240
-0.0092663663 0.755 -0 1.6107162e-38 313 240
-0.0079425992 0.755 -0 1.5647632e-38 314 240
-0.0066188332 0.755 -0 1.5371045e-38 315 240
-0.0052950666 0.755 -0 1.5279565e-38 316 240
-0.0039712996 0.755 -0 1.5003338e-38 317 240
-0.0026475333 0.755 -0 1.5003316e-38 318 240
-0.0013237667 0.755 -0 1.4726729e-38 319 240
0 0.755 -0 1.4266824e-38 320 240
0.0013237667 0.755 -0 1.389804e-38 321 240
0.0026475333 0.755 -0 1.3618955e-38 322 240
0.0039818203 0.75700003 -0 1.3250533e-38 323 240
0.0053090933 0.75700003 -0 1.2789568e-38 324 240
0.0066363667 0.75700003 -0 1.2605176e-38 325 240
0.0079636406 0.75700003 -0 1.269522e-38 326 240
0.0092909131 0.75700003 -0 1.2603025e-38 327 240
0.01064624 0.759 -0 1.2234967e-38 328 240
0.012008579 0.76099998 -0 1.2142771e-38 329 240
0.013342866 0.76099998 -0 1.140845e-38 330 240
0.014677152 0.76099998 -0 1.1316254e-38 331 240
0.01603248 0.76200002 -0 1.0581931e-38 332 240
0.01736852 0.76200002 -0 1.0489735e-38 333 240
0.01870456 0.76200002 -0 9.7546894e-39 334 240
0.020093199 0.764 -0 9.6624938e-39 335 240
0.021432746 0.764 -0 9.2033149e-39 336 240
0.022831906 0.76599997 -0 9.2033149e-39 337 240
0.024206521 0.76700002 -0 9.3866426e-39 338 240
0.025617953 0.76899999 -0 9.5713926e-39 339 240
0.027036399 0.77100003 -0 9.1140312e-39 340 240
0.028388219 0.77100003 -0 8.7448885e-39 341 240
0.029740039 0.77100003 -0 1.0504184e-38 342 240
0.031091858 0.77100003 -0 1.5759335e-38 343 240
0.032527838 0.773 -0 1.6413003e-38 344 240
-0.041797712 0.76899999 -0.0013483133 1.2901585e-38 289 241
-0.040344197 0.76700002 -0.0013448066 1.5746995e-38 290 241
-0.038999394 0.76700002 -0.0013448066 1.5839192e-38 291 241
-0.037654586 0.76700002 -0.0013448066 1.6390904e-38 292 241
-0.036262438 0.76599997 -0.0013430532 1.6298708e-38 293 241
-0.034919381 0.76599997 -0.0013430532 1.6482723e-38 294 241
-0.033488665 0.764 -0.0013395466 1.6482723e-38 295 241
-0.032149121 0.764 -0.0013395466 1.6482367e-38 296 241
-0.030728921 0.76200002 -0.00133604 1.6574923e-38 297 241
-0.029392879 0.76200002 -0.00133604 1.6391273e-38 298 241
-0.028020019 0.76099998 -0.0013342865 1.6391273e-38 299 241
-0.026685731 0.76099998 -0.0013342865 1.62998e-38 300 241
-0.025351444 0.76099998 -0.0013342865 1.6207604e-38 301 241
-0.023954039 0.759 -0.00133078 1.6207604e-38 302 241
-0.02262326 0.759 -0.00133078 1.6115409e-38 303 241
-0.02129248 0.759 -0.00133078 1.6204736e-38 304 241
-0.0199617 0.759 -0.00133078 1.6019986e-38 305 241
-0.018581826 0.75700003 -0.0013272733 1.6202582e-38 306 241
-0.017254554 0.75700003 -0.0013272733 1.6110387e-38 307 241
-0.015885198 0.755 -0.0013237667 1.6293336e-38 308 241
-0.014561433 0.755 -0.0013237667 1.6293336e-38 309 241
-0.013237666 0.755 -0.0013237667 1.629298e-38 310 241
-0.011913899 0.755 -0.0013237667 1.6200783e-38 311 241
-0.010590133 0.755 -0.0013237667 1.6108237e-38 312 241
-0.0092663663 0.755 -0.0013237667 1.5831651e-38 313 241
-0.0079425992 0.755 -0.0013237667 1.5463966e-38 314 241
-0.0066188332 0.755 -0.0013237667 1.5279216e-38 315 241
-0.0052950666 0.755 -0.0013237667 1.4820392e-38 316 241
-0.0039712996 0.755 -0.0013237667 1.4728196e-38 317 241
-0.0026475333 0.755 -0.0013237667 1.4453036e-38 318 241
-0.0013237667 0.755 -0.0013237667 1.4084252e-38 319 241
0 0.755 -0.0013237667 1.4081376e-38 320 241
0.0013237667 0.755 -0.0013237667 1.3528561e-38 321 241
0.0026475333 0.755 -0.0013237667 1.352569e-38 322 241
0.0039712996 0.755 -0.0013237667 1.3248744e-38 323 241
0.0053090933 0.75700003 -0.0013272733 1.2605179e-38 324 241
0.0066363667 0.75700003 -0.0013272733 1.2512624e-38 325 241
0.0079636406 0.75700003 -0.0013272733 1.2511911e-38 326 241
0.0092909131 0.75700003 -0.0013272733 1.2327161e-38 327 241
0.010618187 0.75700003 -0.0013272733 1.2234611e-38 328 241
0.01197702 0.759 -0.00133078 1.2142415e-38 329 241
0.0133078 0.759 -0.00133078 1.1225135e-38 330 241
0.014677152 0.76099998 -0.0013342865 1.1132939e-38 331 241
0.016011439 0.76099998 -0.0013342865 1.0489735e-38 332 241
0.01736852 0.76200002 -0.00133604 1.0305342e-38 333 241
0.01870456 0.76200002 -0.00133604 9.6621407e-39 334 241
0.0200406 0.76200002 -0.00133604 9.5699451e-39 335 241
0.021432746 0.764 -0.0013395466 9.111841e-39 336 241
0.022831906 0.76599997 -0.0013430532 9.2040366e-39 337 241
0.024206521 0.76700002 -0.0013448066 9.2029618e-39 338 241
0.025617953 0.76899999 -0.0013483133 9.3873517e-39 339 241
0.027036399 0.77100003 -0.00135182 9.2047793e-39 340 241
0.028388219 0.77100003 -0.00135182 8.6516055e-39 341 241
0.029817186 0.773 -0.0013553266 9.7677019e-39 342 241
0.03117251 0.773 -0.0013553266 1.465371e-38 343 241
0.032527838 0.773 -0.0013553266 1.5676516e-38 344 241
-0.043370452 0.773 -0.0027106532 1.6034436e-38 288 242
-0.041797712 0.76899999 -0.0026966266 1.3452959e-38 289 242
-0.040344197 0.76700002 -0.0026896133 1.5748071e-38 290 242
-0.038999394 0.76700002 -0.0026896133 1.5748071e-38 291 242
-0.037654586 0.76700002 -0.0026896133 1.602284e-38 292 242
-0.036262438 0.76599997 -0.0026861064 1.602284e-38 293 242
-0.034919381 0.76599997 -0.0026861064 1.6206856e-38 294 242
-0.033488665 0.764 -0.0026790933 1.6206856e-38 295 242
-0.032149121 0.764 -0.0026790933 1.5931351e-38 296 242
-0.030728921 0.76200002 -0.00267208 1.5931351e-38 297 242
-0.029392879 0.76200002 -0.00267208 1.5930648e-38 298 242
-0.028020019 0.76099998 -0.0026685731 1.5930648e-38 299 242
-0.026685731 0.76099998 -0.0026685731 1.602249e-38 300 242
-0.025351444 0.76099998 -0.0026685731 1.5930294e-38 301 242
-0.023954039 0.759 -0.00266156 1.5929941e-38 302 242
-0.02262326 0.759 -0.00266156 1.574555e-38 303 242
-0.02129248 0.759 -0.00266156 1.5835242e-38 304 242
-0.0199617 0.759 -0.00266156 1.5743046e-38 305 242
-0.018581826 0.75700003 -0.0026545466 1.5741973e-38 306 242
