# .PCD v.7 - Point Cloud Data file format
FIELDS x y z rgb imX imY
SIZE 4 4 4 4 4 4
TYPE F F F F F F
COUNT 1 1 1 1 1 1
WIDTH 842
HEIGHT 1
VIEWPOINT 0 0 0 1 0 0 0
POINTS 842
DATA ascii
0.019917866 0.70999998 -0.024897331 1.7675875e-38 336 260
0.021162732 0.70999998 -0.024897331 1.7307451e-38 337 260
0.022407599 0.70999998 -0.024897331 1.6387304e-38 338 260
0.023652466 0.70999998 -0.024897331 1.4820337e-38 339 260
0.024897331 0.70999998 -0.024897331 1.4454811e-38 340 260
0.026142199 0.70999998 -0.024897331 1.5561159e-38 341 260
0.027387066 0.70999998 -0.024897331 1.5929241e-38 342 260
0.028631933 0.70999998 -0.024897331 1.6021438e-38 343 260
0.02979264 0.708 -0.024827199 1.7120932e-38 344 260
0.031034 0.708 -0.024827199 1.7028736e-38 345 260
0.03227536 0.708 -0.024827199 1.6569194e-38 346 260
0.033516716 0.708 -0.024827199 1.5923825e-38 347 260
0.034758076 0.708 -0.024827199 1.6014951e-38 348 260
0.036101133 0.70999998 -0.024897331 1.5830558e-38 349 260
0.037345998 0.70999998 -0.024897331 1.5645458e-38 350 260
0.038590867 0.70999998 -0.024897331 1.5369231e-38 351 260
0.039835732 0.70999998 -0.024897331 1.5275236e-38 352 260
0.041138459 0.71100003 -0.024932399 1.5275236e-38 353 260
0.042504307 0.713 -0.025002534 1.463418e-38 354 260
0.043754432 0.713 -0.025002534 1.4449789e-38 355 260
0.045067675 0.71399999 -0.025037598 1.4632385e-38 356 260
0.046319555 0.71399999 -0.025037598 1.4632385e-38 357 260
0.047571439 0.71399999 -0.025037598 1.4081029e-38 358 260
0.048960082 0.71600002 -0.025107734 1.3712246e-38 359 260
0.050215468 0.71600002 -0.025107734 1.012783e-38 360 260
-0.0062857 0.71700001 -0.02639994 1.3368347e-38 315 261
-0.0050285598 0.71700001 -0.02639994 1.6755759e-38 316 261
-0.0037714199 0.71700001 -0.02639994 1.6663563e-38 317 261
-0.0025107733 0.71600002 -0.026363119 1.7768071e-38 318 261
-0.0012553866 0.71600002 -0.026363119 1.8045018e-38 319 261
0 0.71600002 -0.026363119 1.8413806e-38 320 261
0.00125188 0.71399999 -0.026289478 1.850636e-38 321 261
0.0025002533 0.713 -0.026252659 1.8691103e-38 322 261
0.0037398601 0.71100003 -0.026179021 1.8691103e-38 323 261
0.0049864799 0.71100003 -0.026179021 1.8874062e-38 324 261
0.0062243328 0.70999998 -0.026142199 1.8690031e-38 325 261
0.0074691991 0.70999998 -0.026142199 1.8506737e-38 326 261
0.0087140659 0.70999998 -0.026142199 1.8782964e-38 327 261
0.0099589331 0.70999998 -0.026142199 1.8600745e-38 328 261
0.01117224 0.708 -0.026068559 1.8969526e-38 329 261
0.0124136 0.708 -0.026068559 1.9153921e-38 330 261
0.013654959 0.708 -0.026068559 1.9246117e-38 331 261
0.01489632 0.708 -0.026068559 1.9429061e-38 332 261
0.01613768 0.708 -0.026068559 1.9336864e-38 333 261
0.017379038 0.708 -0.026068559 1.8874791e-38 334 261
0.0186204 0.708 -0.026068559 1.8506009e-38 335 261
0.01986176 0.708 -0.026068559 1.8229049e-38 336 261
0.021103119 0.708 -0.026068559 1.7860266e-38 337 261
0.022344479 0.708 -0.026068559 1.7585462e-38 338 261
0.023585839 0.708 -0.026068559 1.6755701e-38 339 261
0.024827199 0.708 -0.026068559 1.5930648e-38 340 261
0.026068559 0.708 -0.026068559 1.6852245e-38 341 261
0.027309919 0.708 -0.026068559 1.7308577e-38 342 261
0.02855128 0.708 -0.026068559 1.6755403e-38 343 261
0.029750559 0.70700002 -0.02603174 1.730531e-38 344 261
0.030990168 0.70700002 -0.02603174 1.7029083e-38 345 261
0.032229774 0.70700002 -0.02603174 1.6845045e-38 346 261
0.033469379 0.70700002 -0.02603174 1.6476263e-38 347 261
0.034758076 0.708 -0.026068559 1.6199323e-38 348 261
0.03599944 0.708 -0.026068559 1.6107126e-38 349 261
0.0372408 0.708 -0.026068559 1.5738007e-38 350 261
0.038590867 0.70999998 -0.026142199 1.5185192e-38 351 261
0.039835732 0.70999998 -0.026142199 1.4908246e-38 352 261
0.041080594 0.70999998 -0.026142199 1.5092637e-38 353 261
0.042385083 0.71100003 -0.026179021 1.4817846e-38 354 261
0.043631699 0.71100003 -0.026179021 1.472565e-38 355 261
0.044878319 0.71100003 -0.026179021 1.4539834e-38 356 261
0.046254687 0.713 -0.026252659 1.4355801e-38 357 261
0.047571439 0.71399999 -0.026289478 1.3989179e-38 358 261
0.048823316 0.71399999 -0.026289478 1.3896984e-38 359 261
0.050215468 0.71600002 -0.026363119 1.1687558e-38 360 261
0.051542737 0.71700001 -0.02639994 1.205634e-38 361 261
0.052799881 0.71700001 -0.02639994 1.1340068e-38 362 261
-0.0062857 0.71700001 -0.027657079 1.363699e-38 315 262
-0.0050285598 0.71700001 -0.027657079 1.7399311e-38 316 262
-0.00376616 0.71600002 -0.027618507 1.7583702e-38 317 262
-0.0025037599 0.71399999 -0.02754136 1.7860636e-38 318 262
-0.00125188 0.71399999 -0.02754136 1.8137582e-38 319 262
0 0.71399999 -0.02754136 1.8414889e-38 320 262
0.0012501266 0.713 -0.027502786 1.878367e-38 321 262
0.0024932399 0.71100003 -0.027425639 1.8875144e-38 322 262
0.0037398601 0.71100003 -0.027425639 1.8782949e-38 323 262
0.0049794666 0.70999998 -0.027387066 1.8874065e-38 324 262
0.0062243328 0.70999998 -0.027387066 1.8597837e-38 325 262
0.0074691991 0.70999998 -0.027387066 1.8689328e-38 326 262
0.008689519 0.708 -0.027309919 1.8873359e-38 327 262
0.0099308798 0.708 -0.027309919 1.8691141e-38 328 262
0.011156459 0.70700002 -0.027271347 1.9059924e-38 329 262
0.012396066 0.70700002 -0.027271347 1.9152491e-38 330 262
0.013635674 0.70700002 -0.027271347 1.9244686e-38 331 262
0.01487528 0.70700002 -0.027271347 1.9429429e-38 332 262
0.016114887 0.70700002 -0.027271347 1.9337234e-38 333 262
0.017354494 0.70700002 -0.027271347 1.9151754e-38 334 262
0.018594101 0.70700002 -0.027271347 1.8874806e-38 335 262
0.019833706 0.70700002 -0.027271347 1.8782242e-38 336 262
0.021103119 0.708 -0.027309919 1.8597851e-38 337 262
0.022344479 0.708 -0.027309919 1.8505653e-38 338 262
0.023585839 0.708 -0.027309919 1.8229424e-38 339 262
0.024827199 0.708 -0.027309919 1.7956094e-38 340 262
0.026068559 0.708 -0.027309919 1.8324875e-38 341 262
0.027309919 0.708 -0.027309919 1.8046848e-38 342 262
0.028510952 0.70700002 -0.027271347 1.7493674e-38 343 262
0.029750559 0.70700002 -0.027271347 1.7492575e-38 344 262
0.030990168 0.70700002 -0.027271347 1.7124153e-38 345 262
0.032184184 0.70599997 -0.027232772 1.6939402e-38 346 262
0.033422034 0.70599997 -0.027232772 1.6386588e-38 347 262
0.034659892 0.70599997 -0.027232772 1.6199691e-38 348 262
0.035948593 0.70700002 -0.027271347 1.6015301e-38 349 262
0.0372408 0.708 -0.027309919 1.5555048e-38 350 262
0.038482159 0.708 -0.027309919 1.5185906e-38 351 262
0.039723519 0.708 -0.027309919 1.4907878e-38 352 262
0.041080594 0.70999998 -0.027387066 1.5000073e-38 353 262
0.042325463 0.70999998 -0.027387066 1.4542338e-38 354 262
0.043570329 0.70999998 -0.027387066 1.4357946e-38 355 262
0.044815198 0.70999998 -0.027387066 1.4171773e-38 356 262
0.046124939 0.71100003 -0.027425639 1.3895546e-38 357 262
0.047504812 0.713 -0.027502786 1.3620404e-38 358 262
0.048823316 0.71399999 -0.02754136 1.3620404e-38 359 262
0.050075196 0.71399999 -0.02754136 1.334454e-38 360 262
0.051542737 0.71700001 -0.027657079 1.2699171e-38 361 262
0.052799881 0.71700001 -0.027657079 9.7644327e-39 362 262
0.054207806 0.71899998 -0.027734226 1.3268227e-38 363 262
-0.00753232 0.71600002 -0.028873893 1.6671504e-38 314 263
-0.0062769335 0.71600002 -0.028873893 1.4920146e-38 315 263
-0.0050215465 0.71600002 -0.028873893 1.7767004e-38 316 263
-0.00376616 0.71600002 -0.028873893 1.8135428e-38 317 263
-0.0025002533 0.713 -0.028752912 1.8228343e-38 318 263
-0.0012501266 0.713 -0.028752912 1.8505288e-38 319 263
0 0.71399999 -0.028793238 1.8690397e-38 320 263
0.0012501266 0.713 -0.028752912 1.9059178e-38 321 263
0.0024932399 0.71100003 -0.028672259 1.9150655e-38 322 263
0.0037345996 0.70999998 -0.028631933 1.9058459e-38 323 263
0.0049654399 0.708 -0.02855128 1.8873715e-38 324 263
0.0061980332 0.70700002 -0.028510952 1.8597488e-38 325 263
0.0074376399 0.70700002 -0.028510952 1.8504582e-38 326 263
0.008677247 0.70700002 -0.028510952 1.8596779e-38 327 263
0.0099168532 0.70700002 -0.028510952 1.8505678e-38 328 263
0.011140679 0.70599997 -0.028470624 1.8782263e-38 329 263
0.012378532 0.70599997 -0.028470624 1.8600763e-38 330 263
0.013635674 0.70700002 -0.028510952 1.8785154e-38 331 263
0.01487528 0.70700002 -0.028510952 1.9428357e-38 332 263
0.016092092 0.70599997 -0.028470624 1.9428357e-38 333 263
0.017329946 0.70599997 -0.028470624 1.8968454e-38 334 263
0.018594101 0.70700002 -0.028510952 1.8784063e-38 335 263
0.019833706 0.70700002 -0.028510952 1.8691497e-38 336 263
0.021073313 0.70700002 -0.028510952 1.8507106e-38 337 263
0.022312919 0.70700002 -0.028510952 1.8414542e-38 338 263
0.023552528 0.70700002 -0.028510952 1.8321987e-38 339 263
0.024792133 0.70700002 -0.028510952 1.8046125e-38 340 263
0.02603174 0.70700002 -0.028510952 1.8046125e-38 341 263
0.027271347 0.70700002 -0.028510952 1.7954998e-38 342 263
0.028510952 0.70700002 -0.028510952 1.7862803e-38 343 263
0.029708479 0.70599997 -0.028470624 1.767769e-38 344 263
0.030946331 0.70599997 -0.028470624 1.7216712e-38 345 263
0.032184184 0.70599997 -0.028470624 1.7124872e-38 346 263
0.033422034 0.70599997 -0.028470624 1.6663894e-38 347 263
0.034659892 0.70599997 -0.028470624 1.647591e-38 348 263
0.035948593 0.70700002 -0.028510952 1.6199323e-38 349 263
0.037188202 0.70700002 -0.028510952 1.5646162e-38 350 263
0.038427804 0.70700002 -0.028510952 1.5185542e-38 351 263
0.039723519 0.708 -0.02855128 1.5000798e-38 352 263
0.041080594 0.70999998 -0.028631933 1.4908243e-38 353 263
0.042325463 0.70999998 -0.028631933 1.4264677e-38 354 263
0.043570329 0.70999998 -0.028631933 1.3803701e-38 355 263
0.044815198 0.70999998 -0.028631933 1.3618253e-38 356 263
0.046124939 0.71100003 -0.028672259 1.3249829e-38 357 263
0.047504812 0.713 -0.028752912 1.3066883e-38 358 263
0.048754938 0.713 -0.028752912 1.3527502e-38 359 263
0.050075196 0.71399999 -0.028793238 1.3253414e-38 360 263
0.051470853 0.71600002 -0.028873893 1.3253414e-38 361 263
0.052799881 0.71700001 -0.028914221 1.2058135e-38 362 263
0.054207806 0.71899998 -0.028994869 1.2703505e-38 363 263
0.055468451 0.71899998 -0.028994869 1.1527698e-38 364 263
-0.0087999795 0.71700001 -0.030171359 1.3368341e-38 313 264
-0.00753232 0.71600002 -0.03012928 1.6388794e-38 314 264
-0.0062769335 0.71600002 -0.03012928 1.6388794e-38 315 264
-0.0050075199 0.71399999 -0.030045118 1.7767017e-38 316 264
-0.0037556398 0.71399999 -0.030045118 1.795141e-38 317 264
-0.0025002533 0.713 -0.030003037 1.8228345e-38 318 264
-0.0012501266 0.713 -0.030003037 1.8504932e-38 319 264
0 0.713 -0.030003037 1.8414536e-38 320 264
0.00124662 0.71100003 -0.029918881 1.8783317e-38 321 264
0.0024897333 0.70999998 -0.029876797 1.8875513e-38 322 264
0.0037345996 0.70999998 -0.029876797 1.8875513e-38 323 264
0.0049654399 0.708 -0.02979264 1.8965913e-38 324 264
0.0061980332 0.70700002 -0.029750559 1.8597132e-38 325 264
0.0074271196 0.70599997 -0.029708479 1.8595699e-38 326 264
0.0086649731 0.70599997 -0.029708479 1.8411668e-38 327 264
0.0099028256 0.70599997 -0.029708479 1.8412399e-38 328 264
0.011140679 0.70599997 -0.029708479 1.859715e-38 329 264
0.012378532 0.70599997 -0.029708479 1.8415653e-38 330 264
0.013616386 0.70599997 -0.029708479 1.8600044e-38 331 264
0.014854239 0.70599997 -0.029708479 1.8876276e-38 332 264
0.016092092 0.70599997 -0.029708479 1.8968472e-38 333 264
0.017329946 0.70599997 -0.029708479 1.8784075e-38 334 264
0.018567799 0.70599997 -0.029708479 1.8600044e-38 335 264
0.019805651 0.70599997 -0.029708479 1.8691514e-38 336 264
0.021043506 0.70599997 -0.029708479 1.8599318e-38 337 264
0.022281358 0.70599997 -0.029708479 1.8323087e-38 338 264
0.023519212 0.70599997 -0.029708479 1.8046142e-38 339 264
0.024757065 0.70599997 -0.029708479 1.8045428e-38 340 264
0.02592128 0.704 -0.029624319 1.8045428e-38 341 264
0.027155625 0.704 -0.029624319 1.777135e-38 342 264
0.028389972 0.704 -0.029624319 1.777135e-38 343 264
0.029708479 0.70599997 -0.029708479 1.7492968e-38 344 264
0.030946331 0.70599997 -0.029708479 1.6940153e-38 345 264
0.032184184 0.70599997 -0.029708479 1.6848673e-38 346 264
0.033422034 0.70599997 -0.029708479 1.6387695e-38 347 264
0.034659892 0.70599997 -0.029708479 1.6200414e-38 348 264
0.035897743 0.70599997 -0.029708479 1.5923827e-38 349 264
0.037135597 0.70599997 -0.029708479 1.5553969e-38 350 264
0.038427804 0.70700002 -0.029750559 1.5092991e-38 351 264
0.039667413 0.70700002 -0.029750559 1.4724215e-38 352 264
0.040964879 0.708 -0.02979264 1.4632019e-38 353 264
0.042325463 0.70999998 -0.029876797 1.4078858e-38 354 264
0.043570329 0.70999998 -0.029876797 1.3525685e-38 355 264
0.044815198 0.70999998 -0.029876797 1.3063657e-38 356 264
0.046124939 0.71100003 -0.029918881 1.2879264e-38 357 264
0.047504812 0.713 -0.030003037 1.2698117e-38 358 264
0.048754938 0.713 -0.030003037 1.3066898e-38 359 264
0.050075196 0.71399999 -0.030045118 1.3161947e-38 360 264
0.05132708 0.71399999 -0.030045118 1.3530729e-38 361 264
0.052726239 0.71600002 -0.03012928 1.343961e-38 362 264
0.054057021 0.71700001 -0.030171359 1.2425098e-38 363 264
0.055314157 0.71700001 -0.030171359 9.3067013e-39 364 264
0.056571297 0.71700001 -0.030171359 1.4654048e-38 365 264
-0.010085173 0.71899998 -0.031516165 1.723478e-38 312 265
-0.0087999795 0.71700001 -0.031428497 1.3086337e-38 313 265
-0.0075428397 0.71700001 -0.031428497 1.6938349e-38 314 265
-0.0062769335 0.71600002 -0.031384666 1.7491522e-38 315 265
-0.0050075199 0.71399999 -0.031296998 1.7767736e-38 316 265
-0.0037503797 0.713 -0.031253166 1.7859933e-38 317 265
-0.0024932399 0.71100003 -0.031165501 1.8045033e-38 318 265
-0.00124662 0.71100003 -0.031165501 1.8229424e-38 319 265
0 0.71100003 -0.031165501 1.8595336e-38 320 265
0.0012448666 0.70999998 -0.031121666 1.8871924e-38 321 265
0.0024897333 0.70999998 -0.031121666 1.9057756e-38 322 265
0.00372408 0.708 -0.031034 1.9242148e-38 323 265
0.0049584266 0.70700002 -0.030990168 1.8782245e-38 324 265
0.0061980332 0.70700002 -0.030990168 1.8690049e-38 325 265
0.0074271196 0.70599997 -0.030946331 1.8412021e-38 326 265
0.0086649731 0.70599997 -0.030946331 1.8319825e-38 327 265
0.0098747732 0.704 -0.030858666 1.8319469e-38 328 265
0.011109119 0.704 -0.030858666 1.868825e-38 329 265
0.012343466 0.704 -0.030858666 1.8414201e-38 330 265
0.013616386 0.70599997 -0.030946331 1.8598592e-38 331 265
0.014854239 0.70599997 -0.030946331 1.878264e-38 332 265
0.016046507 0.704 -0.030858666 1.9058867e-38 333 265
0.017280852 0.704 -0.030858666 1.8783359e-38 334 265
0.018515198 0.704 -0.030858666 1.8691164e-38 335 265
0.019749546 0.704 -0.030858666 1.8507846e-38 336 265
0.020983893 0.704 -0.030858666 1.8231257e-38 337 265
0.022218239 0.704 -0.030858666 1.7770999e-38 338 265
0.023452586 0.704 -0.030858666 1.7678804e-38 339 265
0.024686933 0.704 -0.030858666 1.7861399e-38 340 265
0.02592128 0.704 -0.030858666 1.7861399e-38 341 265
0.027155625 0.704 -0.030858666 1.7770637e-38 342 265
0.028389972 0.704 -0.030858666 1.7770637e-38 343 265
0.029624319 0.704 -0.030858666 1.7675567e-38 344 265
0.030858666 0.704 -0.030858666 1.7030197e-38 345 265
0.032093015 0.704 -0.030858666 1.6847598e-38 346 265
0.03332736 0.704 -0.030858666 1.6110033e-38 347 265
0.034659892 0.70599997 -0.030946331 1.6015301e-38 348 265
0.035897743 0.70599997 -0.030946331 1.5830909e-38 349 265
0.037135597 0.70599997 -0.030946331 1.5277386e-38 350 265
0.038373452 0.70599997 -0.030946331 1.4724212e-38 351 265
0.039667413 0.70700002 -0.030990168 1.4722431e-38 352 265
0.040907022 0.70700002 -0.030990168 1.45384e-38 353 265
0.042206239 0.708 -0.031034 1.3527855e-38 354 265
0.043447599 0.708 -0.031034 1.2882486e-38 355 265
0.044688959 0.708 -0.031034 1.2419728e-38 356 265
0.046060063 0.70999998 -0.031121666 1.2235697e-38 357 265
0.047371563 0.71100003 -0.031165501 1.2328255e-38 358 265
0.048754938 0.713 -0.031253166 1.3342407e-38 359 265
0.050005067 0.713 -0.031253166 1.3528574e-38 360 265
0.05132708 0.71399999 -0.031296998 1.3989912e-38 361 265
0.052578956 0.71399999 -0.031296998 1.3715468e-38 362 265
0.053830836 0.71399999 -0.031296998 1.3162653e-38 363 265
0.05508272 0.71399999 -0.031296998 1.1413512e-38 364 265
0.056492399 0.71600002 -0.031384666 1.3718401e-38 365 265
0.057747785 0.71600002 -0.031384666 1.3740408e-38 366 265
-0.010085173 0.71899998 -0.032776814 1.6398161e-38 312 266
-0.0088245263 0.71899998 -0.032776814 1.4001434e-38 313 266
-0.0075428397 0.71700001 -0.032685637 1.7397859e-38 314 266
-0.0062769335 0.71600002 -0.032640055 1.7674806e-38 315 266
-0.0050075199 0.71399999 -0.032548878 1.7492225e-38 316 266
-0.0037503797 0.713 -0.032503292 1.7769172e-38 317 266
-0.0024932399 0.71100003 -0.032412119 1.7861015e-38 318 266
-0.00124662 0.71100003 -0.032412119 1.7861015e-38 319 266
0 0.71100003 -0.032412119 1.8412399e-38 320 266
0.0012448666 0.70999998 -0.032366529 1.8504955e-38 321 266
0.00248272 0.708 -0.03227536 1.8690062e-38 322 266
0.0037188199 0.70700002 -0.032229774 1.8782258e-38 323 266
0.0049514128 0.70599997 -0.032184184 1.8873365e-38 324 266
0.0061892662 0.70599997 -0.032184184 1.8504582e-38 325 266
0.0074060797 0.704 -0.032093015 1.8411668e-38 326 266
0.0086404262 0.704 -0.032093015 1.8135081e-38 327 266
0.0098747732 0.704 -0.032093015 1.8043977e-38 328 266
0.011109119 0.704 -0.032093015 1.8228368e-38 329 266
0.012343466 0.704 -0.032093015 1.7954677e-38 330 266
0.013577812 0.704 -0.032093015 1.8230904e-38 331 266
0.014812159 0.704 -0.032093015 1.8139804e-38 332 266
0.016046507 0.704 -0.032093015 1.8232e-38 333 266
0.017280852 0.704 -0.032093015 1.8141958e-38 334 266
0.018515198 0.704 -0.032093015 1.7957208e-38 335 266
0.019749546 0.704 -0.032093015 1.8230901e-38 336 266
0.020983893 0.704 -0.032093015 1.7862479e-38 337 266
0.022218239 0.704 -0.032093015 1.7494771e-38 338 266
0.023452586 0.704 -0.032093015 1.7310021e-38 339 266
0.024686933 0.704 -0.032093015 1.731039e-38 340 266
0.02592128 0.704 -0.032093015 1.731039e-38 341 266
0.027117053 0.70300001 -0.032047424 1.7034885e-38 342 266
0.028349647 0.70300001 -0.032047424 1.6850135e-38 343 266
0.029624319 0.704 -0.032093015 1.6847251e-38 344 266
0.030858666 0.704 -0.032093015 1.6755055e-38 345 266
0.032093015 0.704 -0.032093015 1.6569572e-38 346 266
0.03332736 0.704 -0.032093015 1.6108234e-38 347 266
0.034561705 0.704 -0.032093015 1.6106424e-38 348 266
0.035897743 0.70599997 -0.032184184 1.5645446e-38 349 266
0.037135597 0.70599997 -0.032184184 1.518412e-38 350 266
0.038373452 0.70599997 -0.032184184 1.4814979e-38 351 266
0.039611302 0.70599997 -0.032184184 1.4263252e-38 352 266
0.040907022 0.70700002 -0.032229774 1.4355448e-38 353 266
0.042146627 0.70700002 -0.032229774 1.4078495e-38 354 266
0.043447599 0.708 -0.03227536 1.3709353e-38 355 266
0.044688959 0.708 -0.03227536 1.3248382e-38 356 266
0.046060063 0.70999998 -0.032366529 1.2971435e-38 357 266
0.047304932 0.70999998 -0.032366529 1.3155481e-38 358 266
0.048618179 0.71100003 -0.032412119 1.3708296e-38 359 266
0.049864799 0.71100003 -0.032412119 1.3620416e-38 360 266
0.051255193 0.713 -0.032503292 1.3805168e-38 361 266
0.052505318 0.713 -0.032503292 1.3989559e-38 362 266
0.053830836 0.71399999 -0.032548878 1.3805168e-38 363 266
0.05508272 0.71399999 -0.032548878 1.2515521e-38 364 266
0.0563346 0.71399999 -0.032548878 1.2054182e-38 365 266
0.057586476 0.71399999 -0.032548878 1.0970911e-38 366 266
0.058838356 0.71399999 -0.032548878 1.7793028e-38 367 266
-0.01134582 0.71899998 -0.03403746 1.4015175e-38 311 267
-0.010085173 0.71899998 -0.03403746 1.5930702e-38 312 267
-0.0088245263 0.71899998 -0.03403746 1.5654115e-38 313 267
-0.0075428397 0.71700001 -0.033942781 1.7490415e-38 314 267
-0.0062769335 0.71600002 -0.03389544 1.7490415e-38 315 267
-0.0050075199 0.71399999 -0.033800758 1.758261e-38 316 267
-0.0037398601 0.71100003 -0.033658739 1.7767002e-38 317 267
-0.0024932399 0.71100003 -0.033658739 1.7952116e-38 318 267
-0.00124662 0.71100003 -0.033658739 1.8320538e-38 319 267
0 0.70999998 -0.033611398 1.8320188e-38 320 267
0.00124136 0.708 -0.033516716 1.8412384e-38 321 267
0.00248272 0.708 -0.033516716 1.8596782e-38 322 267
0.0037135598 0.70599997 -0.033422034 1.8873009e-38 323 267
0.0049514128 0.70599997 -0.033422034 1.8597135e-38 324 267
0.0061717331 0.704 -0.03332736 1.7951766e-38 325 267
0.0074060797 0.704 -0.03332736 1.7582961e-38 326 267
0.0086404262 0.704 -0.03332736 1.7490764e-38 327 267
0.0098747732 0.704 -0.03332736 1.7766999e-38 328 267
0.011109119 0.704 -0.03332736 1.813578e-38 329 267
0.012343466 0.704 -0.03332736 1.8043974e-38 330 267
0.013577812 0.704 -0.03332736 1.8412755e-38 331 267
0.014812159 0.704 -0.03332736 1.8045426e-38 332 267
0.016046507 0.704 -0.03332736 1.8229457e-38 333 267
0.017280852 0.704 -0.03332736 1.7770997e-38 334 267
0.018488899 0.70300001 -0.033280019 1.7494769e-38 335 267
0.019665385 0.70099998 -0.03318534 1.7218179e-38 336 267
0.020894472 0.70099998 -0.03318534 1.7218179e-38 337 267
0.02218668 0.70300001 -0.033280019 1.7127062e-38 338 267
0.023419274 0.70300001 -0.033280019 1.7127062e-38 339 267
0.024581732 0.70099998 -0.03318534 1.7035232e-38 340 267
0.025810819 0.70099998 -0.03318534 1.6943037e-38 341 267
0.027039904 0.70099998 -0.03318534 1.7033081e-38 342 267
0.028268991 0.70099998 -0.03318534 1.7033081e-38 343 267
0.029582238 0.70300001 -0.033280019 1.6112556e-38 344 267
0.030814834 0.70300001 -0.033280019 1.5559383e-38 345 267
0.032093015 0.704 -0.03332736 1.555686e-38 346 267
0.03332736 0.704 -0.03332736 1.5372468e-38 347 267
0.034561705 0.704 -0.03332736 1.5830205e-38 348 267
0.035796054 0.704 -0.03332736 1.5553618e-38 349 267
0.037030395 0.704 -0.03332736 1.4816779e-38 350 267
0.038373452 0.70599997 -0.033422034 1.4632388e-38 351 267
0.039611302 0.70599997 -0.033422034 1.4171776e-38 352 267
0.040849157 0.70599997 -0.033422034 1.4171776e-38 353 267
0.042146627 0.70700002 -0.033469379 1.4081732e-38 354 267
0.043386232 0.70700002 -0.033469379 1.3989535e-38 355 267
0.044625837 0.70700002 -0.033469379 1.3988816e-38 356 267
0.046060063 0.70999998 -0.033611398 1.3711871e-38 357 267
0.047304932 0.70999998 -0.033611398 1.3253414e-38 358 267
0.048549797 0.70999998 -0.033611398 1.3253414e-38 359 267
0.049864799 0.71100003 -0.033658739 1.3621123e-38 360 267
0.051111419 0.71100003 -0.033658739 1.3897711e-38 361 267
0.052358042 0.71100003 -0.033658739 1.3897711e-38 362 267
0.053755447 0.713 -0.033753417 1.3805514e-38 363 267
0.055005573 0.713 -0.033753417 1.3345625e-38 364 267
0.056255698 0.713 -0.033753417 1.214744e-38 365 267
0.057586476 0.71399999 -0.033800758 1.1234901e-38 366 267
0.058838356 0.71399999 -0.033800758 1.7043224e-38 367 267
0.060090236 0.71399999 -0.033800758 1.6781792e-38 368 267
-0.012606465 0.71899998 -0.035298105 1.779446e-38 310 268
-0.01134582 0.71899998 -0.035298105 1.3460905e-38 311 268
-0.010085173 0.71899998 -0.035298105 1.6019651e-38 312 268
-0.0087999795 0.71700001 -0.035199918 1.6388794e-38 313 268
-0.0075428397 0.71700001 -0.035199918 1.7214199e-38 314 268
-0.0062593995 0.71399999 -0.035052639 1.7214199e-38 315 268
-0.0050075199 0.71399999 -0.035052639 1.7214919e-38 316 268
-0.0037398601 0.71100003 -0.034905359 1.7307115e-38 317 268
-0.0024932399 0.71100003 -0.034905359 1.7491156e-38 318 268
-0.0012448666 0.70999998 -0.034856264 1.7767383e-38 319 268
0 0.70999998 -0.034856264 1.7951781e-38 320 268
0.00124136 0.708 -0.034758076 1.8043977e-38 321 268
0.0024792133 0.70700002 -0.034708988 1.8136891e-38 322 268
0.0037135598 0.70599997 -0.034659892 1.8321284e-38 323 268
0.0049514128 0.70599997 -0.034659892 1.8137244e-38 324 268
0.0061717331 0.704 -0.034561705 1.7676267e-38 325 268
0.0074060797 0.704 -0.034561705 1.7765207e-38 326 268
0.0086404262 0.704 -0.034561705 1.7765207e-38 327 268
0.0098747732 0.704 -0.034561705 1.7489694e-38 328 268
0.011109119 0.704 -0.034561705 1.7858118e-38 329 268
0.012343466 0.704 -0.034561705 1.7491522e-38 330 268
0.013558527 0.70300001 -0.034512613 1.7675914e-38 331 268
0.014791119 0.70300001 -0.034512613 1.7217463e-38 332 268
0.016023712 0.70300001 -0.034512613 1.7217463e-38 333 268
0.017256306 0.70300001 -0.034512613 1.7033785e-38 334 268
0.018436298 0.70099998 -0.034414422 1.7033785e-38 335 268
0.019665385 0.70099998 -0.034414422 1.6850119e-38 336 268
0.020894472 0.70099998 -0.034414422 1.6942315e-38 337 268
0.022091998 0.69999999 -0.034365334 1.694339e-38 338 268
0.023319334 0.69999999 -0.034365334 1.7035585e-38 339 268
0.024546666 0.69999999 -0.034365334 1.6944466e-38 340 268
0.025773998 0.69999999 -0.034365334 1.6760075e-38 341 268
0.027039904 0.70099998 -0.034414422 1.7033785e-38 342 268
0.028268991 0.70099998 -0.034414422 1.6572807e-38 343 268
0.029498078 0.70099998 -0.034414422 1.6388051e-38 344 268
0.030814834 0.70300001 -0.034512613 1.5834879e-38 345 268
0.032047424 0.70300001 -0.034512613 1.5740528e-38 346 268
0.033280019 0.70300001 -0.034512613 1.5372104e-38 347 268
0.034512613 0.70300001 -0.034512613 1.5463218e-38 348 268
0.035796054 0.704 -0.034561705 1.5094437e-38 349 268
0.037030395 0.704 -0.034561705 1.5092275e-38 350 268
0.038264744 0.704 -0.034561705 1.4907525e-38 351 268
0.039611302 0.70599997 -0.034659892 1.4540543e-38 352 268
0.040849157 0.70599997 -0.034659892 1.4540543e-38 353 268
0.042087011 0.70599997 -0.034659892 1.4357581e-38 354 268
0.043386232 0.70700002 -0.034708988 1.4357581e-38 355 268
0.044625837 0.70700002 -0.034708988 1.4541239e-38 356 268
0.045865446 0.70700002 -0.034708988 1.4265012e-38 357 268
0.047304932 0.70999998 -0.034856264 1.398987e-38 358 268
0.048549797 0.70999998 -0.034856264 1.398987e-38 359 268
0.049794663 0.70999998 -0.034856264 1.3622908e-38 360 268
0.051111419 0.71100003 -0.034905359 1.3806941e-38 361 268
0.052358042 0.71100003 -0.034905359 1.3806237e-38 362 268
0.053755447 0.713 -0.035003547 1.3530009e-38 363 268
0.055005573 0.713 -0.035003547 1.3162668e-38 364 268
0.056255698 0.713 -0.035003547 1.2148518e-38 365 268
0.057586476 0.71399999 -0.035052639 1.0951107e-38 366 268
0.058838356 0.71399999 -0.035052639 1.5376138e-38 367 268
0.060090236 0.71399999 -0.035052639 1.5122264e-38 368 268
0.061342116 0.71399999 -0.035052639 1.8072884e-38 369 268
-0.012606465 0.71899998 -0.036558751 1.696181e-38 310 269
-0.01134582 0.71899998 -0.036558751 1.3273983e-38 311 269
-0.010085173 0.71899998 -0.036558751 1.6110752e-38 312 269
-0.0087999795 0.71700001 -0.036457058 1.6479895e-38 313 269
-0.0075428397 0.71700001 -0.036457058 1.7030153e-38 314 269
-0.0062593995 0.71399999 -0.036304519 1.7030153e-38 315 269
-0.0050075199 0.71399999 -0.036304519 1.7030155e-38 316 269
-0.0037398601 0.71100003 -0.036151983 1.7214547e-38 317 269
-0.0024932399 0.71100003 -0.036151983 1.7489708e-38 318 269
-0.0012448666 0.70999998 -0.036101133 1.7766295e-38 319 269
0 0.708 -0.03599944 1.7766301e-38 320 269
0.0012396066 0.70700002 -0.035948593 1.8042528e-38 321 269
0.0024792133 0.70700002 -0.035948593 1.7951062e-38 322 269
0.0037135598 0.70599997 -0.035897743 1.8319485e-38 323 269
0.0049373866 0.704 -0.035796054 1.7768463e-38 324 269
0.0061717331 0.704 -0.035796054 1.7491875e-38 325 269
0.0073955595 0.70300001 -0.035745207 1.758261e-38 326 269
0.0086281532 0.70300001 -0.035745207 1.7397859e-38 327 269
0.0098607466 0.70300001 -0.035745207 1.73053e-38 328 269
0.01109334 0.70300001 -0.035745207 1.7397496e-38 329 269
0.012325933 0.70300001 -0.035745207 1.7213843e-38 330 269
0.013558527 0.70300001 -0.035745207 1.7398595e-38 331 269
0.014791119 0.70300001 -0.035745207 1.6756475e-38 332 269
0.016023712 0.70300001 -0.035745207 1.6572444e-38 333 269
0.017207211 0.70099998 -0.035643511 1.6204383e-38 334 269
0.018436298 0.70099998 -0.035643511 1.6388415e-38 335 269
0.019637333 0.69999999 -0.035592664 1.6665355e-38 336 269
0.020864666 0.69999999 -0.035592664 1.675791e-38 337 269
0.022091998 0.69999999 -0.035592664 1.6758623e-38 338 269
0.023319334 0.69999999 -0.035592664 1.6943374e-38 339 269
0.024546666 0.69999999 -0.035592664 1.6853342e-38 340 269
0.025773998 0.69999999 -0.035592664 1.6761147e-38 341 269
0.027001332 0.69999999 -0.035592664 1.6665355e-38 342 269
0.028228667 0.69999999 -0.035592664 1.6204736e-38 343 269
0.029498078 0.70099998 -0.035643511 1.6111812e-38 344 269
0.030727165 0.70099998 -0.035643511 1.5558638e-38 345 269
0.032047424 0.70300001 -0.035745207 1.5463924e-38 346 269
0.033280019 0.70300001 -0.035745207 1.5187339e-38 347 269
0.034512613 0.70300001 -0.035745207 1.5187704e-38 348 269
0.035745207 0.70300001 -0.035745207 1.5003313e-38 349 269
0.037030395 0.704 -0.035796054 1.5001874e-38 350 269
0.038264744 0.704 -0.035796054 1.4817483e-38 351 269
0.039499093 0.704 -0.035796054 1.444942e-38 352 269
0.040733438 0.704 -0.035796054 1.444942e-38 353 269
0.042087011 0.70599997 -0.035897743 1.4632733e-38 354 269
0.043324865 0.70599997 -0.035897743 1.4632733e-38 355 269
0.044562716 0.70599997 -0.035897743 1.4541619e-38 356 269
0.045865446 0.70700002 -0.035948593 1.4449423e-38 357 269
0.047171678 0.708 -0.03599944 1.3898768e-38 358 269
0.048549797 0.70999998 -0.036101133 1.3806571e-38 359 269
0.049794663 0.70999998 -0.036101133 1.3622908e-38 360 269
0.051039528 0.70999998 -0.036101133 1.3806941e-38 361 269
0.052358042 0.71100003 -0.036151983 1.3439607e-38 362 269
0.053604662 0.71100003 -0.036151983 1.334741e-38 363 269
0.055005573 0.713 -0.036253672 1.3161947e-38 364 269
0.0563346 0.71399999 -0.036304519 1.2424382e-38 365 269
0.057586476 0.71399999 -0.036304519 1.1502829e-38 366 269
0.059003171 0.71600002 -0.036406212 1.2332591e-38 367 269
0.06025856 0.71600002 -0.036406212 1.3643884e-38 368 269
0.061599858 0.71700001 -0.036457058 1.8345861e-38 369 269
-0.013867113 0.71899998 -0.037819397 1.7610457e-38 309 270
-0.012606465 0.71899998 -0.037819397 1.6681609e-38 310 270
-0.01134582 0.71899998 -0.037819397 1.3085981e-38 311 270
-0.010085173 0.71899998 -0.037819397 1.574196e-38 312 270
-0.0087999795 0.71700001 -0.037714198 1.6387329e-38 313 270
-0.0075428397 0.71700001 -0.037714198 1.6754289e-38 314 270
-0.0062769335 0.71600002 -0.037661601 1.6754289e-38 315 270
-0.0050075199 0.71399999 -0.037556399 1.7029081e-38 316 270
-0.0037398601 0.71100003 -0.037398599 1.7029081e-38 317 270
-0.0024932399 0.71100003 -0.037398599 1.7305313e-38 318 270
-0.0012448666 0.70999998 -0.037345998 1.758226e-38 319 270
0 0.708 -0.0372408 1.7307112e-38 320 270
0.0012378532 0.70599997 -0.037135597 1.7399308e-38 321 270
0.0024757064 0.70599997 -0.037135597 1.7399313e-38 322 270
0.0037030398 0.704 -0.037030395 1.7491509e-38 323 270
0.0049373866 0.704 -0.037030395 1.7399313e-38 324 270
0.0061629666 0.70300001 -0.036977798 1.7306759e-38 325 270
0.0073745195 0.70099998 -0.036872596 1.7307465e-38 326 270
0.0086036054 0.70099998 -0.036872596 1.6846487e-38 327 270
0.0098607466 0.70300001 -0.036977798 1.6936888e-38 328 270
0.01109334 0.70300001 -0.036977798 1.7029083e-38 329 270
0.012290866 0.70099998 -0.036872596 1.6661395e-38 330 270
0.013519952 0.70099998 -0.036872596 1.6845787e-38 331 270
0.014749039 0.70099998 -0.036872596 1.6570642e-38 332 270
0.015978126 0.70099998 -0.036872596 1.6755033e-38 333 270
0.017207211 0.70099998 -0.036872596 1.6205089e-38 334 270
0.018436298 0.70099998 -0.036872596 1.638912e-38 335 270
0.019637333 0.69999999 -0.036819998 1.6390198e-38 336 270
0.020864666 0.69999999 -0.036819998 1.6482393e-38 337 270
0.022091998 0.69999999 -0.036819998 1.6390917e-38 338 270
0.023319334 0.69999999 -0.036819998 1.6851895e-38 339 270
0.024546666 0.69999999 -0.036819998 1.6668229e-38 340 270
0.025773998 0.69999999 -0.036819998 1.6299447e-38 341 270
0.027001332 0.69999999 -0.036819998 1.6204733e-38 342 270
0.028228667 0.69999999 -0.036819998 1.5835592e-38 343 270
0.029455997 0.69999999 -0.036819998 1.5650833e-38 344 270
0.030727165 0.70099998 -0.036872596 1.509766e-38 345 270
0.031956252 0.70099998 -0.036872596 1.4727082e-38 346 270
0.03318534 0.70099998 -0.036872596 1.4727082e-38 347 270
0.034414422 0.70099998 -0.036872596 1.5002594e-38 348 270
0.035745207 0.70300001 -0.036977798 1.4910397e-38 349 270
0.036977798 0.70300001 -0.036977798 1.4909676e-38 350 270
0.038264744 0.704 -0.037030395 1.4725284e-38 351 270
0.039499093 0.704 -0.037030395 1.4541972e-38 352 270
0.040733438 0.704 -0.037030395 1.4449776e-38 353 270
0.041967787 0.704 -0.037030395 1.4449776e-38 354 270
0.043324865 0.70599997 -0.037135597 1.4449776e-38 355 270
0.044562716 0.70599997 -0.037135597 1.444942e-38 356 270
0.04580057 0.70599997 -0.037135597 1.444942e-38 357 270
0.047171678 0.708 -0.0372408 1.3990963e-38 358 270
0.048413038 0.708 -0.0372408 1.3898768e-38 359 270
0.049654398 0.708 -0.0372408 1.3623272e-38 360 270
0.051039528 0.70999998 -0.037345998 1.3623272e-38 361 270
0.052284397 0.70999998 -0.037345998 1.334813e-38 362 270
0.053604662 0.71100003 -0.037398599 1.3255933e-38 363 270
0.055005573 0.713 -0.037503798 1.307047e-38 364 270
0.056255698 0.713 -0.037503798 1.2609492e-38 365 270
0.057586476 0.71399999 -0.037556399 1.0585896e-38 366 270
0.059003171 0.71600002 -0.037661601 1.0124917e-38 367 270
0.06025856 0.71600002 -0.037661601 1.2531769e-38 368 270
0.061513945 0.71600002 -0.037661601 1.8155702e-38 369 270
0.062769331 0.71600002 -0.037661601 1.8070732e-38 370 270
0.064114138 0.71700001 -0.037714198 1.8255124e-38 371 270
-0.013867113 0.71899998 -0.039080046 1.7240953e-38 309 271
-0.012606465 0.71899998 -0.039080046 1.5940073e-38 310 271
-0.01134582 0.71899998 -0.039080046 1.3082368e-38 311 271
-0.01005712 0.71700001 -0.038971342 1.6109644e-38 312 271
-0.0087999795 0.71700001 -0.038971342 1.6478428e-38 313 271
-0.00753232 0.71600002 -0.038916986 1.6479137e-38 314 271
-0.0062769335 0.71600002 -0.038916986 1.6386582e-38 315 271
-0.0050005065 0.713 -0.038753927 1.6844689e-38 316 271
-0.0037398601 0.71100003 -0.038645219 1.6936885e-38 317 271
-0.0024897333 0.70999998 -0.038590867 1.6753941e-38 318 271
-0.0012448666 0.70999998 -0.038590867 1.7122364e-38 319 271
0 0.708 -0.038482159 1.7031248e-38 320 271
0.0012378532 0.70599997 -0.038373452 1.7031248e-38 321 271
0.0024686933 0.704 -0.038264744 1.7122364e-38 322 271
0.0037030398 0.704 -0.038264744 1.6938333e-38 323 271
0.0049373866 0.704 -0.038264744 1.6939054e-38 324 271
0.0061629666 0.70300001 -0.038210396 1.6939054e-38 325 271
0.0073745195 0.70099998 -0.038101684 1.684614e-38 326 271
0.0086036054 0.70099998 -0.038101684 1.666139e-38 327 271
0.0098607466 0.70300001 -0.038210396 1.6752142e-38 328 271
0.01109334 0.70300001 -0.038210396 1.6752142e-38 329 271
0.012290866 0.70099998 -0.038101684 1.6476994e-38 330 271
0.013500666 0.69999999 -0.038047329 1.656955e-38 331 271
0.014727999 0.69999999 -0.038047329 1.6478433e-38 332 271
0.015955333 0.69999999 -0.038047329 1.675466e-38 333 271
0.017207211 0.70099998 -0.038101684 1.6205434e-38 334 271
0.018409999 0.69999999 -0.038047329 1.6389824e-38 335 271
0.019637333 0.69999999 -0.038047329 1.6206873e-38 336 271
0.020864666 0.69999999 -0.038047329 1.6299427e-38 337 271
0.022091998 0.69999999 -0.038047329 1.620832e-38 338 271
0.023319334 0.69999999 -0.038047329 1.6300875e-38 339 271
0.024546666 0.69999999 -0.038047329 1.6483118e-38 340 271
0.025773998 0.69999999 -0.038047329 1.602214e-38 341 271
0.027001332 0.69999999 -0.038047329 1.5835948e-38 342 271
0.028228667 0.69999999 -0.038047329 1.537497e-38 343 271
0.029455997 0.69999999 -0.038047329 1.5373524e-38 344 271
0.030727165 0.70099998 -0.038101684 1.4912547e-38 345 271
0.031956252 0.70099998 -0.038101684 1.4726003e-38 346 271
0.033137999 0.69999999 -0.038047329 1.4818199e-38 347 271
0.034365334 0.69999999 -0.038047329 1.4726006e-38 348 271
0.035643511 0.70099998 -0.038101684 1.4726006e-38 349 271
0.036977798 0.70300001 -0.038210396 1.4726006e-38 350 271
0.038210396 0.70300001 -0.038210396 1.4541616e-38 351 271
0.039499093 0.704 -0.038264744 1.4541969e-38 352 271
0.040733438 0.704 -0.038264744 1.4541969e-38 353 271
0.041967787 0.704 -0.038264744 1.4449774e-38 354 271
0.043202132 0.704 -0.038264744 1.4449774e-38 355 271
0.044562716 0.70599997 -0.038373452 1.426683e-38 356 271
0.04580057 0.70599997 -0.038373452 1.426683e-38 357 271
0.047105055 0.70700002 -0.038427804 1.3899133e-38 358 271
0.048344657 0.70700002 -0.038427804 1.3806938e-38 359 271
0.049584266 0.70700002 -0.038427804 1.3622552e-38 360 271
0.050895758 0.708 -0.038482159 1.3806585e-38 361 271
0.052284397 0.70999998 -0.038590867 1.3439607e-38 362 271
0.053529263 0.70999998 -0.038590867 1.334741e-38 363 271
0.054851279 0.71100003 -0.038645219 1.2977568e-38 364 271
0.056255698 0.713 -0.038753927 1.251659e-38 365 271
0.057586476 0.71399999 -0.038808275 1.0310031e-38 366 271
0.059003171 0.71600002 -0.038916986 9.6646616e-39 367 271
0.06025856 0.71600002 -0.038916986 1.2065027e-38 368 271
0.061513945 0.71600002 -0.038916986 1.7504928e-38 369 271
0.062769331 0.71600002 -0.038916986 1.7425715e-38 370 271
0.064114138 0.71700001 -0.038971342 1.8347673e-38 371 271
0.065644801 0.72000003 -0.039134402 1.7979965e-38 372 271
-0.013867113 0.71899998 -0.040340692 1.6318992e-38 309 272
-0.012606465 0.71899998 -0.040340692 1.5291819e-38 310 272
-0.01131426 0.71700001 -0.040228479 1.3908885e-38 311 272
-0.01005712 0.71700001 -0.040228479 1.6477347e-38 312 272
-0.0087999795 0.71700001 -0.040228479 1.6569544e-38 313 272
-0.00753232 0.71600002 -0.040172372 1.656953e-38 314 272
-0.0062593995 0.71399999 -0.040060159 1.6477335e-38 315 272
-0.0050005065 0.713 -0.040004052 1.6660294e-38 316 272
-0.0037398601 0.71100003 -0.039891839 1.675249e-38 317 272
-0.0024897333 0.70999998 -0.039835732 1.6843972e-38 318 272
-0.00124136 0.708 -0.039723519 1.71202e-38 319 272
0 0.70700002 -0.039667413 1.7120556e-38 320 272
0.0012378532 0.70599997 -0.039611302 1.7212752e-38 321 272
0.0024686933 0.704 -0.039499093 1.6845045e-38 322 272
0.0037030398 0.704 -0.039499093 1.675249e-38 323 272
0.0049373866 0.704 -0.039499093 1.6752845e-38 324 272
0.0061629666 0.70300001 -0.039442986 1.6752845e-38 325 272
0.0073745195 0.70099998 -0.039330769 1.6660294e-38 326 272
0.0086036054 0.70099998 -0.039330769 1.6476263e-38 327 272
0.0098326923 0.70099998 -0.039330769 1.6476266e-38 328 272
0.011045999 0.69999999 -0.039274666 1.6383711e-38 329 272
0.012273333 0.69999999 -0.039274666 1.6293667e-38 330 272
0.013500666 0.69999999 -0.039274666 1.6477698e-38 331 272
0.014727999 0.69999999 -0.039274666 1.6295462e-38 332 272
0.015955333 0.69999999 -0.039274666 1.6479853e-38 333 272
0.017182667 0.69999999 -0.039274666 1.6113947e-38 334 272
0.018409999 0.69999999 -0.039274666 1.6206143e-38 335 272
0.019637333 0.69999999 -0.039274666 1.5931361e-38 336 272
0.020864666 0.69999999 -0.039274666 1.6023917e-38 337 272
0.022091998 0.69999999 -0.039274666 1.6206879e-38 338 272
0.023319334 0.69999999 -0.039274666 1.6206879e-38 339 272
0.024546666 0.69999999 -0.039274666 1.6388754e-38 340 272
0.025773998 0.69999999 -0.039274666 1.6111809e-38 341 272
0.027001332 0.69999999 -0.039274666 1.5742663e-38 342 272
0.028228667 0.69999999 -0.039274666 1.5465718e-38 343 272
0.029455997 0.69999999 -0.039274666 1.5097291e-38 344 272
0.030683333 0.69999999 -0.039274666 1.49129e-38 345 272
0.031910665 0.69999999 -0.039274666 1.4544839e-38 346 272
0.033137999 0.69999999 -0.039274666 1.4175698e-38 347 272
0.034365334 0.69999999 -0.039274666 1.4542322e-38 348 272
0.035643511 0.70099998 -0.039330769 1.4450127e-38 349 272
0.036872596 0.70099998 -0.039330769 1.4633442e-38 350 272
0.038210396 0.70300001 -0.039442986 1.4633442e-38 351 272
0.039442986 0.70300001 -0.039442986 1.445049e-38 352 272
0.040733438 0.704 -0.039499093 1.445049e-38 353 272
0.041967787 0.704 -0.039499093 1.426718e-38 354 272
0.043202132 0.704 -0.039499093 1.4082789e-38 355 272
0.044436477 0.704 -0.039499093 1.4173559e-38 356 272
0.045670826 0.704 -0.039499093 1.4357591e-38 357 272
0.047038425 0.70599997 -0.039611302 1.3899139e-38 358 272
0.048276275 0.70599997 -0.039611302 1.3899139e-38 359 272
0.04951413 0.70599997 -0.039611302 1.3623638e-38 360 272
0.050823875 0.70700002 -0.039667413 1.334741e-38 361 272
0.052137118 0.708 -0.039723519 1.3255581e-38 362 272
0.053529263 0.70999998 -0.039835732 1.2979353e-38 363 272
0.054851279 0.71100003 -0.039891839 1.2608791e-38 364 272
0.056255698 0.713 -0.040004052 1.2331845e-38 365 272
0.057586476 0.71399999 -0.040060159 1.1503167e-38 366 272
0.059003171 0.71600002 -0.040172372 1.0949993e-38 367 272
0.060342718 0.71700001 -0.040228479 1.1692635e-38 368 272
0.061599858 0.71700001 -0.040228479 1.6579003e-38 369 272
0.062856995 0.71700001 -0.040228479 1.7148407e-38 370 272
0.064114138 0.71700001 -0.040228479 1.8623537e-38 371 272
0.065371275 0.71700001 -0.040228479 1.8162917e-38 372 272
-0.013867113 0.71899998 -0.041601337 1.5764008e-38 309 273
-0.012606465 0.71899998 -0.041601337 1.5195308e-38 310 273
-0.01131426 0.71700001 -0.041485619 1.473433e-38 311 273
-0.01005712 0.71700001 -0.041485619 1.6477727e-38 312 273
-0.0087999795 0.71700001 -0.041485619 1.6201139e-38 313 273
-0.00753232 0.71600002 -0.041427758 1.6201486e-38 314 273
-0.0062593995 0.71399999 -0.041312039 1.6201486e-38 315 273
-0.0050005065 0.713 -0.041254178 1.6201123e-38 316 273
-0.0037398601 0.71100003 -0.041138459 1.6201123e-38 317 273
-0.0024897333 0.70999998 -0.041080594 1.6384083e-38 318 273
-0.0012396066 0.70700002 -0.040907022 1.6476278e-38 319 273
0 0.70599997 -0.040849157 1.6568477e-38 320 273
0.0012343467 0.704 -0.040733438 1.6568477e-38 321 273
0.0024686933 0.704 -0.040733438 1.6659225e-38 322 273
0.0036977797 0.70300001 -0.040675577 1.6659225e-38 323 273
0.0049303733 0.70300001 -0.040675577 1.6201123e-38 324 273
0.0061454331 0.70099998 -0.040559858 1.6108569e-38 325 273
0.0073745195 0.70099998 -0.040559858 1.5832708e-38 326 273
0.0086036054 0.70099998 -0.040559858 1.5648315e-38 327 273
0.0098326923 0.70099998 -0.040559858 1.6016376e-38 328 273
0.011045999 0.69999999 -0.040502001 1.6016376e-38 329 273
0.012273333 0.69999999 -0.040502001 1.5926332e-38 330 273
0.013500666 0.69999999 -0.040502001 1.6018527e-38 331 273
0.014727999 0.69999999 -0.040502001 1.6112515e-38 332 273
0.015955333 0.69999999 -0.040502001 1.6112515e-38 333 273
0.017182667 0.69999999 -0.040502001 1.6021761e-38 334 273
0.018409999 0.69999999 -0.040502001 1.6206153e-38 335 273
0.019637333 0.69999999 -0.040502001 1.6022846e-38 336 273
0.020864666 0.69999999 -0.040502001 1.5930292e-38 337 273
0.022091998 0.69999999 -0.040502001 1.5929941e-38 338 273
0.023319334 0.69999999 -0.040502001 1.5653354e-38 339 273
0.024546666 0.69999999 -0.040502001 1.5745182e-38 340 273
0.025773998 0.69999999 -0.040502001 1.5283843e-38 341 273
0.027001332 0.69999999 -0.040502001 1.5100162e-38 342 273
0.028228667 0.69999999 -0.040502001 1.4823574e-38 343 273
0.029455997 0.69999999 -0.040502001 1.4822499e-38 344 273
0.030683333 0.69999999 -0.040502001 1.4545912e-38 345 273
0.031910665 0.69999999 -0.040502001 1.445335e-38 346 273
0.033137999 0.69999999 -0.040502001 1.42686e-38 347 273
0.034365334 0.69999999 -0.040502001 1.4267533e-38 348 273
0.035592664 0.69999999 -0.040502001 1.4174979e-38 349 273
0.036819998 0.69999999 -0.040502001 1.417391e-38 350 273
0.038101684 0.70099998 -0.040559858 1.4357941e-38 351 273
0.039330769 0.70099998 -0.040559858 1.426718e-38 352 273
0.040559858 0.70099998 -0.040559858 1.426718e-38 353 273
0.041908171 0.70300001 -0.040675577 1.4174631e-38 354 273
0.043140765 0.70300001 -0.040675577 1.3990239e-38 355 273
0.044436477 0.704 -0.040733438 1.3989535e-38 356 273
0.045670826 0.704 -0.040733438 1.4173928e-38 357 273
0.047038425 0.70599997 -0.040849157 1.3715474e-38 358 273
0.048276275 0.70599997 -0.040849157 1.3715474e-38 359 273
0.04951413 0.70599997 -0.040849157 1.3530722e-38 360 273
0.050823875 0.70700002 -0.040907022 1.3530722e-38 361 273
0.05206348 0.70700002 -0.040907022 1.3345981e-38 362 273
0.053529263 0.70999998 -0.041080594 1.2977199e-38 363 273
0.054851279 0.71100003 -0.041138459 1.1965224e-38 364 273
0.056255698 0.713 -0.041254178 1.1596081e-38 365 273
0.057586476 0.71399999 -0.041312039 1.1412419e-38 366 273
0.059003171 0.71600002 -0.041427758 1.0859246e-38 367 273
0.06025856 0.71600002 -0.041427758 1.1320978e-38 368 273
0.061513945 0.71600002 -0.041427758 1.5100999e-38 369 273
0.062856995 0.71700001 -0.041485619 1.6595233e-38 370 273
0.064114138 0.71700001 -0.041485619 1.8623537e-38 371 273
0.065371275 0.71700001 -0.041485619 1.7796296e-38 372 273
-0.013867113 0.71899998 -0.042861983 1.5486342e-38 309 274
-0.012606465 0.71899998 -0.042861983 1.5286782e-38 310 274
-0.01131426 0.71700001 -0.042742759 1.4825443e-38 311 274
-0.01005712 0.71700001 -0.042742759 1.6291537e-38 312 274
-0.0087877065 0.71600002 -0.042683143 1.6383732e-38 313 274
-0.00753232 0.71600002 -0.042683143 1.6199688e-38 314 274
-0.0062593995 0.71399999 -0.042563915 1.6199688e-38 315 274
-0.0050005065 0.713 -0.042504307 1.6108922e-38 316 274
-0.0037398601 0.71100003 -0.042385083 1.6108922e-38 317 274
-0.0024897333 0.70999998 -0.042325463 1.6384064e-38 318 274
-0.0012396066 0.70700002 -0.042146627 1.6384064e-38 319 274
0 0.70599997 -0.042087011 1.6475181e-38 320 274
0.0012343467 0.704 -0.041967787 1.6659931e-38 321 274
0.0024686933 0.704 -0.041967787 1.6292588e-38 322 274
0.0036977797 0.70300001 -0.041908171 1.6200392e-38 323 274
0.0049303733 0.70300001 -0.041908171 1.6016005e-38 324 274
0.0061454331 0.70099998 -0.041788943 1.5831612e-38 325 274
0.0073745195 0.70099998 -0.041788943 1.5555748e-38 326 274
0.0086036054 0.70099998 -0.041788943 1.5555748e-38 327 274
0.0098326923 0.70099998 -0.041788943 1.5831612e-38 328 274
0.011045999 0.69999999 -0.041729331 1.5923808e-38 329 274
0.012273333 0.69999999 -0.041729331 1.601708e-38 330 274
0.013462093 0.69800001 -0.041610107 1.6201471e-38 331 274
0.01468592 0.69800001 -0.041610107 1.6202187e-38 332 274
0.015909746 0.69800001 -0.041610107 1.6479134e-38 333 274
0.017133573 0.69800001 -0.041610107 1.6021393e-38 334 274
0.0183574 0.69800001 -0.041610107 1.6113947e-38 335 274
0.019581227 0.69800001 -0.041610107 1.6022115e-38 336 274
0.020805053 0.69800001 -0.041610107 1.5745888e-38 337 274
0.02202888 0.69800001 -0.041610107 1.5744449e-38 338 274
0.023252707 0.69800001 -0.041610107 1.5468222e-38 339 274
0.024546666 0.69999999 -0.041729331 1.5374575e-38 340 274
0.025773998 0.69999999 -0.041729331 1.4268587e-38 341 274
0.027001332 0.69999999 -0.041729331 1.44537e-38 342 274
0.028228667 0.69999999 -0.041729331 1.4822124e-38 343 274
0.029455997 0.69999999 -0.041729331 1.4637389e-38 344 274
0.030683333 0.69999999 -0.041729331 1.4452997e-38 345 274
0.031910665 0.69999999 -0.041729331 1.4359729e-38 346 274
0.033043321 0.69800001 -0.041610107 1.4174979e-38 347 274
0.034267146 0.69800001 -0.041610107 1.4358297e-38 348 274
0.035592664 0.69999999 -0.041729331 1.4174266e-38 349 274
0.036819998 0.69999999 -0.041729331 1.4265028e-38 350 274
0.038047329 0.69999999 -0.041729331 1.4357225e-38 351 274
0.039330769 0.70099998 -0.041788943 1.4173913e-38 352 274
0.040559858 0.70099998 -0.041788943 1.4173913e-38 353 274
0.041908171 0.70300001 -0.041908171 1.4173915e-38 354 274
0.043140765 0.70300001 -0.041908171 1.408136e-38 355 274
0.044436477 0.704 -0.041967787 1.3988811e-38 356 274
0.045670826 0.704 -0.041967787 1.4081365e-38 357 274
0.047038425 0.70599997 -0.042087011 1.3806585e-38 358 274
0.048276275 0.70599997 -0.042087011 1.3622552e-38 359 274
0.04951413 0.70599997 -0.042087011 1.3622199e-38 360 274
0.050751984 0.70599997 -0.042087011 1.3437808e-38 361 274
0.05206348 0.70700002 -0.042146627 1.3160512e-38 362 274
0.053378478 0.708 -0.042206239 1.2607697e-38 363 274
0.054774132 0.70999998 -0.042325463 1.1870151e-38 364 274
0.056097899 0.71100003 -0.042385083 1.1870151e-38 365 274
0.057586476 0.71399999 -0.042563915 1.1410618e-38 366 274
0.059003171 0.71600002 -0.042683143 1.1410618e-38 367 274
0.06025856 0.71600002 -0.042683143 1.0402252e-38 368 274
0.061513945 0.71600002 -0.042683143 1.215361e-38 369 274
0.062856995 0.71700001 -0.042742759 1.5395241e-38 370 274
0.064114138 0.71700001 -0.042742759 1.8714284e-38 371 274
0.065371275 0.71700001 -0.042742759 1.8163636e-38 372 274
-0.013828539 0.71700001 -0.043999899 1.5393784e-38 309 275
-0.0125714 0.71700001 -0.043999899 1.547045e-38 310 275
-0.01131426 0.71700001 -0.043999899 1.4732885e-38 311 275
-0.01005712 0.71700001 -0.043999899 1.5740162e-38 312 275
-0.0087877065 0.71600002 -0.043938532 1.5832358e-38 313 275
-0.0075112795 0.71399999 -0.043815799 1.5832711e-38 314 275
-0.0062506334 0.713 -0.043754432 1.5740515e-38 315 275
-0.0050005065 0.713 -0.043754432 1.5833058e-38 316 275
