# .PCD v.7 - Point Cloud Data file format
FIELDS x y z rgb imX imY
SIZE 4 4 4 4 4 4
TYPE F F F F F F
COUNT 1 1 1 1 1 1
WIDTH 837
HEIGHT 1
VIEWPOINT 0 0 0 1 0 0 0
POINTS 837
DATA ascii
0.01101444 0.69800001 -0.047729239 1.4264662e-38 329 279
0.012238266 0.69800001 -0.047729239 1.4080984e-38 330 279
0.013462093 0.69800001 -0.047729239 1.3896953e-38 331 279
0.01468592 0.69800001 -0.047729239 1.3622164e-38 332 279
0.015909746 0.69800001 -0.047729239 1.352961e-38 333 279
0.017133573 0.69800001 -0.047729239 1.3529615e-38 334 279
0.0183574 0.69800001 -0.047729239 1.3714006e-38 335 279
0.019637333 0.69999999 -0.047865998 1.3529981e-38 336 279
0.020864666 0.69999999 -0.047865998 1.334595e-38 337 279
0.022091998 0.69999999 -0.047865998 1.3529265e-38 338 279
0.023319334 0.69999999 -0.047865998 1.362146e-38 339 279
0.024546666 0.69999999 -0.047865998 1.3622179e-38 340 279
0.025810819 0.70099998 -0.047934376 1.3622179e-38 341 279
0.027039904 0.70099998 -0.047934376 1.3623256e-38 342 279
0.028389972 0.704 -0.048139516 1.3807288e-38 343 279
0.029624319 0.704 -0.048139516 1.3624332e-38 344 279
0.030858666 0.704 -0.048139516 1.3531776e-38 345 279
0.032184184 0.70599997 -0.048276275 1.3806571e-38 346 279
0.033422034 0.70599997 -0.048276275 1.3898768e-38 347 279
0.034708988 0.70700002 -0.048344657 1.3624697e-38 348 279
0.035948593 0.70700002 -0.048344657 1.3809089e-38 349 279
0.0372408 0.708 -0.048413038 1.3809442e-38 350 279
0.038482159 0.708 -0.048413038 1.3901637e-38 351 279
0.039835732 0.70999998 -0.048549797 1.3719044e-38 352 279
0.041080594 0.70999998 -0.048549797 1.3719044e-38 353 279
0.042385083 0.71100003 -0.048618179 1.3719058e-38 354 279
0.043754432 0.713 -0.048754938 1.3903808e-38 355 279
0.045004558 0.713 -0.048754938 1.3812721e-38 356 279
0.046319555 0.71399999 -0.048823316 1.445809e-38 357 279
0.047571439 0.71399999 -0.048823316 1.3814914e-38 358 279
0.048960082 0.71600002 -0.048960082 1.5105653e-38 359 279
-0.02262852 0.71700001 -0.0502856 1.4829046e-38 302 280
-0.021371379 0.71700001 -0.0502856 1.4644296e-38 303 280
-0.020114239 0.71700001 -0.0502856 1.5101274e-38 304 280
-0.018778199 0.71399999 -0.050075196 1.473249e-38 305 280
-0.017501773 0.713 -0.050005067 1.4732107e-38 306 280
-0.01620606 0.71100003 -0.049864799 1.4455162e-38 307 280
-0.014959441 0.71100003 -0.049864799 1.4637755e-38 308 280
-0.013693533 0.70999998 -0.049794663 1.4545559e-38 309 280
-0.012448666 0.70999998 -0.049794663 1.4453362e-38 310 280
-0.01117224 0.708 -0.049654398 1.4453362e-38 311 280
-0.0099028256 0.70599997 -0.04951413 1.4728504e-38 312 280
-0.0086649731 0.70599997 -0.04951413 1.4452278e-38 313 280
-0.0074060797 0.704 -0.049373865 1.4819258e-38 314 280
-0.0061717331 0.704 -0.049373865 1.4819258e-38 315 280
-0.0049303733 0.70300001 -0.049303733 1.463559e-38 316 280
-0.0036977797 0.70300001 -0.049303733 1.4543394e-38 317 280
-0.0024651866 0.70300001 -0.049303733 1.4359726e-38 318 280
-0.0012290865 0.70099998 -0.049163464 1.4175335e-38 319 280
0 0.70099998 -0.049163464 1.4174261e-38 320 280
0.0012290865 0.70099998 -0.049163464 1.4174261e-38 321 280
0.0024546667 0.69999999 -0.049093332 1.4082433e-38 322 280
0.0036819996 0.69999999 -0.049093332 1.4266824e-38 323 280
0.0049093333 0.69999999 -0.049093332 1.3992757e-38 324 280
0.0061366665 0.69999999 -0.049093332 1.3808726e-38 325 280
0.0073639993 0.69999999 -0.049093332 1.3808726e-38 326 280
0.0085667865 0.69800001 -0.048953064 1.3623976e-38 327 280
0.0097906133 0.69800001 -0.048953064 1.3990236e-38 328 280
0.01101444 0.69800001 -0.048953064 1.389804e-38 329 280
0.012238266 0.69800001 -0.048953064 1.3621811e-38 330 280
0.013462093 0.69800001 -0.048953064 1.3621811e-38 331 280
0.01468592 0.69800001 -0.048953064 1.3530334e-38 332 280
0.015909746 0.69800001 -0.048953064 1.3530334e-38 333 280
0.017133573 0.69800001 -0.048953064 1.3346669e-38 334 280
0.0183574 0.69800001 -0.048953064 1.3346669e-38 335 280
0.019637333 0.69999999 -0.049093332 1.3345597e-38 336 280
0.020864666 0.69999999 -0.049093332 1.3345597e-38 337 280
0.022091998 0.69999999 -0.049093332 1.3345962e-38 338 280
0.023319334 0.69999999 -0.049093332 1.3438158e-38 339 280
0.024581732 0.70099998 -0.049163464 1.3347037e-38 340 280
0.025810819 0.70099998 -0.049163464 1.3347037e-38 341 280
0.027039904 0.70099998 -0.049163464 1.3256637e-38 342 280
0.028349647 0.70300001 -0.049303733 1.3348834e-38 343 280
0.029624319 0.704 -0.049373865 1.3256634e-38 344 280
0.030858666 0.704 -0.049373865 1.3256634e-38 345 280
0.032184184 0.70599997 -0.04951413 1.3531428e-38 346 280
0.033422034 0.70599997 -0.04951413 1.3531428e-38 347 280
0.034708988 0.70700002 -0.049584266 1.3348481e-38 348 280
0.03599944 0.708 -0.049654398 1.3440676e-38 349 280
0.0372408 0.708 -0.049654398 1.3258083e-38 350 280
0.038482159 0.708 -0.049654398 1.3258083e-38 351 280
0.039835732 0.70999998 -0.049794663 1.3258804e-38 352 280
0.041080594 0.70999998 -0.049794663 1.3258804e-38 353 280
0.042385083 0.71100003 -0.049864799 1.3259897e-38 354 280
0.043631699 0.71100003 -0.049864799 1.3536843e-38 355 280
0.045004558 0.713 -0.050005067 1.3629774e-38 356 280
0.046319555 0.71399999 -0.050075196 1.4091113e-38 357 280
0.047571439 0.71399999 -0.050075196 1.3907826e-38 358 280
0.048960082 0.71600002 -0.050215468 1.547551e-38 359 280
-0.02262852 0.71700001 -0.051542737 1.4736142e-38 302 281
-0.021341572 0.71600002 -0.051470853 1.4643946e-38 303 281
-0.020086186 0.71600002 -0.051470853 1.4918343e-38 304 281
-0.018778199 0.71399999 -0.05132708 1.4365528e-38 305 281
-0.017501773 0.713 -0.051255193 1.4731415e-38 306 281
-0.01620606 0.71100003 -0.051111419 1.4362991e-38 307 281
-0.014959441 0.71100003 -0.051111419 1.4638126e-38 308 281
-0.013693533 0.70999998 -0.051039528 1.4361541e-38 309 281
-0.012448666 0.70999998 -0.051039528 1.4544486e-38 310 281
-0.011203799 0.70999998 -0.051039528 1.4544486e-38 311 281
-0.0099028256 0.70599997 -0.050751984 1.4727432e-38 312 281
-0.0086649731 0.70599997 -0.050751984 1.4727432e-38 313 281
-0.0074060797 0.704 -0.050608214 1.4726353e-38 314 281
-0.0061717331 0.704 -0.050608214 1.4726353e-38 315 281
-0.0049303733 0.70300001 -0.050536323 1.4450843e-38 316 281
-0.0036977797 0.70300001 -0.050536323 1.4450843e-38 317 281
-0.0024651866 0.70300001 -0.050536323 1.435865e-38 318 281
-0.0012290865 0.70099998 -0.050392549 1.435865e-38 319 281
0 0.70099998 -0.050392549 1.4174985e-38 320 281
0.0012290865 0.70099998 -0.050392549 1.4082789e-38 321 281
0.0024546667 0.69999999 -0.050320663 1.3898768e-38 322 281
0.0036819996 0.69999999 -0.050320663 1.3898768e-38 323 281
0.0049093333 0.69999999 -0.050320663 1.3715824e-38 324 281
0.0061366665 0.69999999 -0.050320663 1.3715824e-38 325 281
0.0073639993 0.69999999 -0.050320663 1.3806587e-38 326 281
0.0085667865 0.69800001 -0.050176892 1.3530359e-38 327 281
0.0097906133 0.69800001 -0.050176892 1.371295e-38 328 281
0.01101444 0.69800001 -0.050176892 1.3620754e-38 329 281
0.012238266 0.69800001 -0.050176892 1.3528912e-38 330 281
0.013462093 0.69800001 -0.050176892 1.3436716e-38 331 281
0.01468592 0.69800001 -0.050176892 1.3436716e-38 332 281
0.015909746 0.69800001 -0.050176892 1.3436716e-38 333 281
0.017182667 0.69999999 -0.050320663 1.3253045e-38 334 281
0.018409999 0.69999999 -0.050320663 1.3160848e-38 335 281
0.019637333 0.69999999 -0.050320663 1.3344163e-38 336 281
0.020864666 0.69999999 -0.050320663 1.3344163e-38 337 281
0.022091998 0.69999999 -0.050320663 1.3253045e-38 338 281
0.023319334 0.69999999 -0.050320663 1.3253045e-38 339 281
0.024581732 0.70099998 -0.050392549 1.3254473e-38 340 281
0.025810819 0.70099998 -0.050392549 1.3346669e-38 341 281
0.027039904 0.70099998 -0.050392549 1.3164791e-38 342 281
0.028349647 0.70300001 -0.050536323 1.3164791e-38 343 281
0.029624319 0.704 -0.050608214 1.3255915e-38 344 281
0.030858666 0.704 -0.050608214 1.3255915e-38 345 281
0.032184184 0.70599997 -0.050751984 1.3438158e-38 346 281
0.033422034 0.70599997 -0.050751984 1.3530354e-38 347 281
0.034659892 0.70599997 -0.050751984 1.334776e-38 348 281
0.03599944 0.708 -0.050895758 1.334776e-38 349 281
0.0372408 0.708 -0.050895758 1.3348836e-38 350 281
0.038590867 0.70999998 -0.051039528 1.3348836e-38 351 281
0.039835732 0.70999998 -0.051039528 1.325772e-38 352 281
0.041080594 0.70999998 -0.051039528 1.325772e-38 353 281
0.042385083 0.71100003 -0.051111419 1.3442124e-38 354 281
0.043631699 0.71100003 -0.051111419 1.3810906e-38 355 281
0.045004558 0.713 -0.051255193 1.3628688e-38 356 281
0.046319555 0.71399999 -0.05132708 1.3904917e-38 357 281
-0.02262852 0.71700001 -0.052799881 1.5197115e-38 302 282
-0.021371379 0.71700001 -0.052799881 1.4644302e-38 303 282
-0.020086186 0.71600002 -0.052726239 1.5102727e-38 304 282
-0.018778199 0.71399999 -0.052578956 1.4641389e-38 305 282
-0.017501773 0.713 -0.052505318 1.4731768e-38 306 282
-0.016251646 0.713 -0.052505318 1.4547375e-38 307 282
-0.014959441 0.71100003 -0.052358042 1.4454811e-38 308 282
-0.01371282 0.71100003 -0.052358042 1.427042e-38 309 282
-0.012448666 0.70999998 -0.052284397 1.4453009e-38 310 282
-0.011203799 0.70999998 -0.052284397 1.4268978e-38 311 282
-0.0099028256 0.70599997 -0.051989835 1.4451571e-38 312 282
-0.0086649731 0.70599997 -0.051989835 1.4359376e-38 313 282
-0.0074060797 0.704 -0.051842559 1.4359373e-38 314 282
-0.0061717331 0.704 -0.051842559 1.4359373e-38 315 282
-0.0049303733 0.70300001 -0.051768921 1.4267177e-38 316 282
-0.0036977797 0.70300001 -0.051768921 1.4174982e-38 317 282
-0.0024651866 0.70300001 -0.051768921 1.3899118e-38 318 282
-0.0012325933 0.70300001 -0.051768921 1.3899118e-38 319 282
0 0.70099998 -0.051621638 1.3806924e-38 320 282
0.0012273333 0.69999999 -0.051547997 1.3806924e-38 321 282
0.0024546667 0.69999999 -0.051547997 1.3807294e-38 322 282
0.0036819996 0.69999999 -0.051547997 1.3807294e-38 323 282
0.0049093333 0.69999999 -0.051547997 1.3623994e-38 324 282
0.006119133 0.69800001 -0.051400717 1.3347407e-38 325 282
0.0073429602 0.69800001 -0.051400717 1.3530725e-38 326 282
0.0085667865 0.69800001 -0.051400717 1.3161944e-38 327 282
0.0097906133 0.69800001 -0.051400717 1.3344893e-38 328 282
0.01101444 0.69800001 -0.051400717 1.3344893e-38 329 282
0.012238266 0.69800001 -0.051400717 1.3160498e-38 330 282
0.013462093 0.69800001 -0.051400717 1.3068302e-38 331 282
0.01468592 0.69800001 -0.051400717 1.3251614e-38 332 282
0.015909746 0.69800001 -0.051400717 1.3251614e-38 333 282
0.017182667 0.69999999 -0.051547997 1.3068302e-38 334 282
0.018409999 0.69999999 -0.051547997 1.3068302e-38 335 282
0.019637333 0.69999999 -0.051547997 1.3068302e-38 336 282
0.020864666 0.69999999 -0.051547997 1.3068302e-38 337 282
0.022091998 0.69999999 -0.051547997 1.3160851e-38 338 282
0.023319334 0.69999999 -0.051547997 1.3160851e-38 339 282
0.024581732 0.70099998 -0.051621638 1.2886412e-38 340 282
0.025810819 0.70099998 -0.051621638 1.2978609e-38 341 282
0.027039904 0.70099998 -0.051621638 1.2888211e-38 342 282
0.028349647 0.70300001 -0.051768921 1.2888211e-38 343 282
0.029624319 0.704 -0.051842559 1.2978978e-38 344 282
0.030858666 0.704 -0.051842559 1.3071173e-38 345 282
0.032184184 0.70599997 -0.051989835 1.3162297e-38 346 282
0.033422034 0.70599997 -0.051989835 1.3162297e-38 347 282
0.034659892 0.70599997 -0.051989835 1.307082e-38 348 282
0.03599944 0.708 -0.052137118 1.3163016e-38 349 282
0.0372408 0.708 -0.052137118 1.298042e-38 350 282
0.038590867 0.70999998 -0.052284397 1.3072974e-38 351 282
0.039835732 0.70999998 -0.052284397 1.3073338e-38 352 282
0.041080594 0.70999998 -0.052284397 1.325773e-38 353 282
0.042385083 0.71100003 -0.052358042 1.3166982e-38 354 282
0.043631699 0.71100003 -0.052358042 1.3535764e-38 355 282
0.045067675 0.71399999 -0.052578956 1.3353546e-38 356 282
0.046449307 0.71600002 -0.052726239 1.3629774e-38 357 282
-0.022723202 0.72000003 -0.054283202 1.5934685e-38 302 283
-0.021371379 0.71700001 -0.054057021 1.4828696e-38 303 283
-0.020086186 0.71600002 -0.053981625 1.5378956e-38 304 283
-0.018778199 0.71399999 -0.053830836 1.4825784e-38 305 283
-0.017501773 0.713 -0.053755447 1.473249e-38 306 283
-0.016251646 0.713 -0.053755447 1.4455904e-38 307 283
-0.014959441 0.71100003 -0.053604662 1.4547723e-38 308 283
-0.01371282 0.71100003 -0.053604662 1.4179301e-38 309 283
-0.012448666 0.70999998 -0.053529263 1.4269331e-38 310 283
-0.011203799 0.70999998 -0.053529263 1.4269331e-38 311 283
-0.0099028256 0.70599997 -0.053227689 1.4360092e-38 312 283
-0.0086649731 0.70599997 -0.053227689 1.4267896e-38 313 283
-0.0074060797 0.704 -0.053076904 1.4267899e-38 314 283
-0.0061717331 0.704 -0.053076904 1.4267899e-38 315 283
-0.0049373866 0.704 -0.053076904 1.3991672e-38 316 283
-0.0037030398 0.704 -0.053076904 1.3806921e-38 317 283
-0.0024686933 0.704 -0.053076904 1.3990236e-38 318 283
-0.0012325933 0.70300001 -0.053001512 1.389804e-38 319 283
0 0.70099998 -0.052850723 1.3623258e-38 320 283
0.0012273333 0.69999999 -0.052775331 1.3623258e-38 321 283
0.0024546667 0.69999999 -0.052775331 1.3531075e-38 322 283
0.0036819996 0.69999999 -0.052775331 1.3715468e-38 323 283
0.0049093333 0.69999999 -0.052775331 1.343961e-38 324 283
0.006119133 0.69800001 -0.052624546 1.3347413e-38 325 283
0.0073429602 0.69800001 -0.052624546 1.3530003e-38 326 283
0.0085667865 0.69800001 -0.052624546 1.3437808e-38 327 283
0.0097906133 0.69800001 -0.052624546 1.334489e-38 328 283
0.01101444 0.69800001 -0.052624546 1.3252695e-38 329 283
0.012238266 0.69800001 -0.052624546 1.3068299e-38 330 283
0.013462093 0.69800001 -0.052624546 1.3068299e-38 331 283
0.01468592 0.69800001 -0.052624546 1.306758e-38 332 283
0.015955333 0.69999999 -0.052775331 1.3251612e-38 333 283
0.017182667 0.69999999 -0.052775331 1.3068299e-38 334 283
0.018409999 0.69999999 -0.052775331 1.2976104e-38 335 283
0.019637333 0.69999999 -0.052775331 1.2976106e-38 336 283
0.020864666 0.69999999 -0.052775331 1.2976106e-38 337 283
0.022091998 0.69999999 -0.052775331 1.288499e-38 338 283
0.023319334 0.69999999 -0.052775331 1.2792794e-38 339 283
0.024581732 0.70099998 -0.052850723 1.2793861e-38 340 283
0.025810819 0.70099998 -0.052850723 1.2793861e-38 341 283
0.027039904 0.70099998 -0.052850723 1.2886409e-38 342 283
0.028349647 0.70300001 -0.053001512 1.2978606e-38 343 283
0.029624319 0.704 -0.053076904 1.2794944e-38 344 283
0.030858666 0.704 -0.053076904 1.2978975e-38 345 283
0.032184184 0.70599997 -0.053227689 1.2977906e-38 346 283
0.033422034 0.70599997 -0.053227689 1.3070101e-38 347 283
0.034659892 0.70599997 -0.053227689 1.316265e-38 348 283
0.035948593 0.70700002 -0.053303085 1.3346681e-38 349 283
0.0372408 0.708 -0.053378478 1.2797463e-38 350 283
0.038590867 0.70999998 -0.053529263 1.2889659e-38 351 283
0.039835732 0.70999998 -0.053529263 1.3165534e-38 352 283
0.041138459 0.71100003 -0.053604662 1.325773e-38 353 283
0.042385083 0.71100003 -0.053604662 1.3259181e-38 354 283
0.043631699 0.71100003 -0.053604662 1.3627604e-38 355 283
0.045067675 0.71399999 -0.053830836 1.3445387e-38 356 283
0.046449307 0.71600002 -0.053981625 1.3906364e-38 357 283
0.047704693 0.71600002 -0.053981625 1.5753186e-38 358 283
-0.022723202 0.72000003 -0.055545598 1.6764448e-38 302 284
-0.021460801 0.72000003 -0.055545598 1.482834e-38 303 284
-0.020114239 0.71700001 -0.055314157 1.5195285e-38 304 284
-0.0188308 0.71600002 -0.055237014 1.4642472e-38 305 284
-0.017526319 0.71399999 -0.05508272 1.4733572e-38 306 284
-0.016251646 0.713 -0.055005573 1.4456626e-38 307 284
-0.015001519 0.713 -0.055005573 1.4547729e-38 308 284
-0.01371282 0.71100003 -0.054851279 1.4178947e-38 309 284
-0.0124662 0.71100003 -0.054851279 1.4086738e-38 310 284
-0.011203799 0.70999998 -0.054774132 1.3994183e-38 311 284
-0.0099028256 0.70599997 -0.054465543 1.4267899e-38 312 284
-0.0086649731 0.70599997 -0.054465543 1.4175703e-38 313 284
-0.0074271196 0.70599997 -0.054465543 1.3992035e-38 314 284
-0.0061717331 0.704 -0.054311249 1.389984e-38 315 284
-0.0049373866 0.704 -0.054311249 1.3899124e-38 316 284
-0.0037030398 0.704 -0.054311249 1.3622177e-38 317 284
-0.0024686933 0.704 -0.054311249 1.3713656e-38 318 284
-0.0012325933 0.70300001 -0.054234106 1.362146e-38 319 284
0 0.70099998 -0.054079808 1.3438514e-38 320 284
0.0012290865 0.70099998 -0.054079808 1.3438514e-38 321 284
0.0024546667 0.69999999 -0.054002665 1.3255217e-38 322 284
0.0036819996 0.69999999 -0.054002665 1.3347413e-38 323 284
0.0049093333 0.69999999 -0.054002665 1.3347061e-38 324 284
0.006119133 0.69800001 -0.053848371 1.3347061e-38 325 284
0.0073429602 0.69800001 -0.053848371 1.3254864e-38 326 284
0.0085667865 0.69800001 -0.053848371 1.3162668e-38 327 284
0.0097906133 0.69800001 -0.053848371 1.3160865e-38 328 284
0.01101444 0.69800001 -0.053848371 1.2976834e-38 329 284
0.012238266 0.69800001 -0.053848371 1.3068299e-38 330 284
0.013462093 0.69800001 -0.053848371 1.2976104e-38 331 284
0.01468592 0.69800001 -0.053848371 1.2793145e-38 332 284
0.015955333 0.69999999 -0.054002665 1.2793145e-38 333 284
0.017182667 0.69999999 -0.054002665 1.2792789e-38 334 284
0.018409999 0.69999999 -0.054002665 1.2700593e-38 335 284
0.019637333 0.69999999 -0.054002665 1.270024e-38 336 284
0.020864666 0.69999999 -0.054002665 1.270024e-38 337 284
0.022091998 0.69999999 -0.054002665 1.2516928e-38 338 284
0.023319334 0.69999999 -0.054002665 1.2516928e-38 339 284
0.024581732 0.70099998 -0.054079808 1.2517281e-38 340 284
0.025810819 0.70099998 -0.054079808 1.2701312e-38 341 284
0.027117053 0.70300001 -0.054234106 1.2701668e-38 342 284
0.028349647 0.70300001 -0.054234106 1.2793863e-38 343 284
0.029624319 0.704 -0.054311249 1.2610195e-38 344 284
0.030858666 0.704 -0.054311249 1.2702391e-38 345 284
0.032093015 0.704 -0.054311249 1.2885706e-38 346 284
0.033422034 0.70599997 -0.054465543 1.2885706e-38 347 284
0.034659892 0.70599997 -0.054465543 1.2978975e-38 348 284
0.035948593 0.70700002 -0.054542694 1.3163366e-38 349 284
0.0372408 0.708 -0.054619838 1.2889659e-38 350 284
0.038590867 0.70999998 -0.054774132 1.3073691e-38 351 284
0.039835732 0.70999998 -0.054774132 1.307442e-38 352 284
0.041138459 0.71100003 -0.054851279 1.3258451e-38 353 284
0.042385083 0.71100003 -0.054851279 1.3259903e-38 354 284
0.043754432 0.713 -0.055005573 1.3352099e-38 355 284
0.045067675 0.71399999 -0.05508272 1.3629421e-38 356 284
0.046449307 0.71600002 -0.055237014 1.4274791e-38 357 284
0.047704693 0.71600002 -0.055237014 1.6308162e-38 358 284
-0.021460801 0.72000003 -0.056808002 1.4370958e-38 303 285
-0.020114239 0.71700001 -0.056571297 1.5104515e-38 304 285
-0.0188308 0.71600002 -0.056492399 1.4643538e-38 305 285
-0.017526319 0.71399999 -0.0563346 1.4917231e-38 306 285
-0.016274439 0.71399999 -0.0563346 1.473284e-38 307 285
-0.015001519 0.713 -0.056255698 1.4547357e-38 308 285
-0.01371282 0.71100003 -0.056097899 1.4455162e-38 309 285
-0.0124662 0.71100003 -0.056097899 1.43626e-38 310 285
-0.011203799 0.70999998 -0.056018997 1.4177849e-38 311 285
-0.0099308798 0.708 -0.055861197 1.4084584e-38 312 285
-0.008677247 0.70700002 -0.055782299 1.4084584e-38 313 285
-0.0074271196 0.70599997 -0.055703394 1.3992032e-38 314 285
-0.0061892662 0.70599997 -0.055703394 1.3899837e-38 315 285
-0.0049514128 0.70599997 -0.055703394 1.3806924e-38 316 285
-0.0037030398 0.704 -0.055545598 1.3622174e-38 317 285
-0.0024686933 0.704 -0.055545598 1.3622174e-38 318 285
-0.0012343467 0.704 -0.055545598 1.3529978e-38 319 285
0 0.70099998 -0.055308893 1.3253764e-38 320 285
0.0012290865 0.70099998 -0.055308893 1.3346318e-38 321 285
0.0024546667 0.69999999 -0.055229999 1.3070114e-38 322 285
0.0036819996 0.69999999 -0.055229999 1.3162668e-38 323 285
0.0049093333 0.69999999 -0.055229999 1.3163034e-38 324 285
0.006119133 0.69800001 -0.0550722 1.3163034e-38 325 285
0.0073429602 0.69800001 -0.0550722 1.2979e-38 326 285
0.0085667865 0.69800001 -0.0550722 1.2794609e-38 327 285
0.0097906133 0.69800001 -0.0550722 1.2977555e-38 328 285
0.01101444 0.69800001 -0.0550722 1.288536e-38 329 285
0.012238266 0.69800001 -0.0550722 1.2792789e-38 330 285
0.013462093 0.69800001 -0.0550722 1.2792789e-38 331 285
0.014727999 0.69999999 -0.055229999 1.2793142e-38 332 285
0.015955333 0.69999999 -0.055229999 1.2793142e-38 333 285
0.017182667 0.69999999 -0.055229999 1.2701312e-38 334 285
0.018409999 0.69999999 -0.055229999 1.2701312e-38 335 285
0.019637333 0.69999999 -0.055229999 1.2516928e-38 336 285
0.020864666 0.69999999 -0.055229999 1.2424732e-38 337 285
0.022123558 0.70099998 -0.055308893 1.2424732e-38 338 285
0.023352645 0.70099998 -0.055308893 1.2424732e-38 339 285
0.024581732 0.70099998 -0.055308893 1.2517284e-38 340 285
0.025810819 0.70099998 -0.055308893 1.2517284e-38 341 285
0.027117053 0.70300001 -0.0554667 1.2425448e-38 342 285
0.028349647 0.70300001 -0.0554667 1.2518002e-38 343 285
0.029624319 0.704 -0.055545598 1.2610198e-38 344 285
0.030858666 0.704 -0.055545598 1.2610198e-38 345 285
0.032093015 0.704 -0.055545598 1.2794944e-38 346 285
0.033422034 0.70599997 -0.055703394 1.2794944e-38 347 285
0.034659892 0.70599997 -0.055703394 1.2887855e-38 348 285
0.03599944 0.708 -0.055861197 1.3164441e-38 349 285
0.037345998 0.70999998 -0.056018997 1.2797829e-38 350 285
0.038590867 0.70999998 -0.056018997 1.2890026e-38 351 285
0.039835732 0.70999998 -0.056018997 1.2982234e-38 352 285
0.041138459 0.71100003 -0.056097899 1.3259181e-38 353 285
0.042385083 0.71100003 -0.056097899 1.3259194e-38 354 285
0.043754432 0.713 -0.056255698 1.353614e-38 355 285
0.045193922 0.71600002 -0.056492399 1.372162e-38 356 285
0.046449307 0.71600002 -0.056492399 1.4366989e-38 357 285
0.047704693 0.71600002 -0.056492399 1.6861698e-38 358 285
-0.020114239 0.71700001 -0.057828441 1.4736834e-38 304 286
-0.0188308 0.71600002 -0.057747785 1.4552084e-38 305 286
-0.017575413 0.71600002 -0.057747785 1.4826853e-38 306 286
-0.016274439 0.71399999 -0.057586476 1.4365875e-38 307 286
-0.015001519 0.713 -0.057505824 1.4548453e-38 308 286
-0.01371282 0.71100003 -0.057344519 1.436406e-38 309 286
-0.0124662 0.71100003 -0.057344519 1.4179301e-38 310 286
-0.011203799 0.70999998 -0.057263866 1.3994908e-38 311 286
-0.0099589331 0.70999998 -0.057263866 1.3901635e-38 312 286
-0.008689519 0.708 -0.057102561 1.3901635e-38 313 286
-0.0074376399 0.70700002 -0.057021905 1.3809439e-38 314 286
-0.0061892662 0.70599997 -0.056941248 1.3717243e-38 315 286
-0.0049514128 0.70599997 -0.056941248 1.3624329e-38 316 286
-0.0037135598 0.70599997 -0.056941248 1.3532132e-38 317 286
-0.0024686933 0.704 -0.056779943 1.3347385e-38 318 286
-0.0012343467 0.704 -0.056779943 1.3163354e-38 319 286
0 0.70300001 -0.056699295 1.3071524e-38 320 286
0.0012325933 0.70300001 -0.056699295 1.2979328e-38 321 286
0.0024581731 0.70099998 -0.056537982 1.2887861e-38 322 286
0.0036819996 0.69999999 -0.056457333 1.2980057e-38 323 286
0.0049093333 0.69999999 -0.056457333 1.2979706e-38 324 286
0.0061366665 0.69999999 -0.056457333 1.2979706e-38 325 286
0.0073429602 0.69800001 -0.056296028 1.307047e-38 326 286
0.0085667865 0.69800001 -0.056296028 1.2978274e-38 327 286
0.0097906133 0.69800001 -0.056296028 1.288536e-38 328 286
0.01101444 0.69800001 -0.056296028 1.288536e-38 329 286
0.012238266 0.69800001 -0.056296028 1.2793513e-38 330 286
0.013462093 0.69800001 -0.056296028 1.2700959e-38 331 286
0.014727999 0.69999999 -0.056457333 1.2792791e-38 332 286
0.015955333 0.69999999 -0.056457333 1.2700596e-38 333 286
0.017182667 0.69999999 -0.056457333 1.2883908e-38 334 286
0.018409999 0.69999999 -0.056457333 1.2699877e-38 335 286
0.019637333 0.69999999 -0.056457333 1.2424729e-38 336 286
0.020864666 0.69999999 -0.056457333 1.2332534e-38 337 286
0.022123558 0.70099998 -0.056537982 1.2425085e-38 338 286
0.023352645 0.70099998 -0.056537982 1.2425085e-38 339 286
0.024581732 0.70099998 -0.056537982 1.2242486e-38 340 286
0.025884461 0.70300001 -0.056699295 1.2242486e-38 341 286
0.027117053 0.70300001 -0.056699295 1.2425801e-38 342 286
0.028389972 0.704 -0.056779943 1.2517997e-38 343 286
0.029624319 0.704 -0.056779943 1.2610195e-38 344 286
0.030858666 0.704 -0.056779943 1.2702391e-38 345 286
0.032184184 0.70599997 -0.056941248 1.2703467e-38 346 286
0.033422034 0.70599997 -0.056941248 1.2795663e-38 347 286
0.034659892 0.70599997 -0.056941248 1.2795663e-38 348 286
0.03599944 0.708 -0.057102561 1.2980054e-38 349 286
0.037345998 0.70999998 -0.057263866 1.2890023e-38 350 286
0.038590867 0.70999998 -0.057263866 1.2982219e-38 351 286
0.039835732 0.70999998 -0.057263866 1.3074783e-38 352 286
0.041138459 0.71100003 -0.057344519 1.3167337e-38 353 286
0.042385083 0.71100003 -0.057344519 1.3351743e-38 354 286
0.043754432 0.713 -0.057505824 1.3536493e-38 355 286
0.045193922 0.71600002 -0.057747785 1.3908535e-38 356 286
0.046449307 0.71600002 -0.057747785 1.547586e-38 357 286
-0.020114239 0.71700001 -0.059085581 1.5565176e-38 304 287
-0.018857099 0.71700001 -0.059085581 1.5012361e-38 305 287
-0.017575413 0.71600002 -0.059003171 1.5194194e-38 306 287
-0.016320027 0.71600002 -0.059003171 1.4733216e-38 307 287
-0.015022559 0.71399999 -0.058838356 1.4732474e-38 308 287
-0.013751393 0.713 -0.058755953 1.4363692e-38 309 287
-0.0124662 0.71100003 -0.058591139 1.4179301e-38 310 287
-0.011203799 0.70999998 -0.058508728 1.3994908e-38 311 287
-0.0099589331 0.70999998 -0.058508728 1.3993833e-38 312 287
-0.008689519 0.708 -0.058343921 1.3809442e-38 313 287
-0.0074376399 0.70700002 -0.05826151 1.3992751e-38 314 287
-0.0061892662 0.70599997 -0.058179103 1.3716525e-38 315 287
-0.0049514128 0.70599997 -0.058179103 1.3624325e-38 316 287
-0.0037135598 0.70599997 -0.058179103 1.3532129e-38 317 287
-0.0024757064 0.70599997 -0.058179103 1.3347385e-38 318 287
-0.0012343467 0.704 -0.058014292 1.3163354e-38 319 287
0 0.704 -0.058014292 1.3071526e-38 320 287
0.0012325933 0.70300001 -0.057931885 1.2978972e-38 321 287
0.0024581731 0.70099998 -0.057767071 1.2978622e-38 322 287
0.0036872597 0.70099998 -0.057767071 1.3070817e-38 323 287
0.0049093333 0.69999999 -0.05768466 1.2887158e-38 324 287
0.0061366665 0.69999999 -0.05768466 1.2887158e-38 325 287
0.0073429602 0.69800001 -0.057519849 1.2978271e-38 326 287
0.0085667865 0.69800001 -0.057519849 1.2702045e-38 327 287
0.0097906133 0.69800001 -0.057519849 1.2702396e-38 328 287
0.01101444 0.69800001 -0.057519849 1.2609842e-38 329 287
0.012238266 0.69800001 -0.057519849 1.2792791e-38 330 287
0.013500666 0.69999999 -0.05768466 1.2700596e-38 331 287
0.014727999 0.69999999 -0.05768466 1.2517284e-38 332 287
0.015955333 0.69999999 -0.05768466 1.2517284e-38 333 287
0.017182667 0.69999999 -0.05768466 1.2424729e-38 334 287
0.018409999 0.69999999 -0.05768466 1.2424729e-38 335 287
0.019637333 0.69999999 -0.05768466 1.2515846e-38 336 287
0.020894472 0.70099998 -0.057767071 1.26084e-38 337 287
0.022123558 0.70099998 -0.057767071 1.2425438e-38 338 287
0.023352645 0.70099998 -0.057767071 1.2517634e-38 339 287
0.024651866 0.70300001 -0.057931885 1.2517631e-38 340 287
0.025884461 0.70300001 -0.057931885 1.2701662e-38 341 287
0.027117053 0.70300001 -0.057931885 1.2334687e-38 342 287
0.028389972 0.704 -0.058014292 1.2334687e-38 343 287
0.029624319 0.704 -0.058014292 1.2610561e-38 344 287
0.030946331 0.70599997 -0.058179103 1.2610561e-38 345 287
0.032184184 0.70599997 -0.058179103 1.261235e-38 346 287
0.033422034 0.70599997 -0.058179103 1.261235e-38 347 287
0.034708988 0.70700002 -0.05826151 1.2796379e-38 348 287
0.03599944 0.708 -0.058343921 1.2981129e-38 349 287
0.037345998 0.70999998 -0.058508728 1.2890023e-38 350 287
0.038590867 0.70999998 -0.058508728 1.2982219e-38 351 287
0.039835732 0.70999998 -0.058508728 1.3074786e-38 352 287
0.041138459 0.71100003 -0.058591139 1.3351733e-38 353 287
0.042385083 0.71100003 -0.058591139 1.3261345e-38 354 287
0.043631699 0.71100003 -0.058591139 1.3722323e-38 355 287
0.045193922 0.71600002 -0.059003171 1.4555352e-38 356 287
-0.020114239 0.71700001 -0.060342718 1.6028333e-38 304 288
-0.018857099 0.71700001 -0.060342718 1.5106018e-38 305 288
-0.017575413 0.71600002 -0.06025856 1.5378254e-38 306 288
-0.016320027 0.71600002 -0.06025856 1.4732885e-38 307 288
-0.015022559 0.71399999 -0.060090236 1.464067e-38 308 288
-0.013751393 0.713 -0.060006075 1.4363724e-38 309 288
-0.012501267 0.713 -0.060006075 1.4271514e-38 310 288
-0.01121958 0.71100003 -0.059837762 1.4086764e-38 311 288
-0.0099589331 0.70999998 -0.059753593 1.39942e-38 312 288
-0.008689519 0.708 -0.059585281 1.3902003e-38 313 288
-0.0074376399 0.70700002 -0.059501119 1.371689e-38 314 288
-0.0061892662 0.70599997 -0.059416957 1.371689e-38 315 288
-0.0049514128 0.70599997 -0.059416957 1.3624697e-38 316 288
-0.0037135598 0.70599997 -0.059416957 1.3348111e-38 317 288
-0.0024757064 0.70599997 -0.059416957 1.3347034e-38 318 288
-0.0012343467 0.704 -0.059248637 1.3070808e-38 319 288
0 0.704 -0.059248637 1.2978256e-38 320 288
0.0012343467 0.704 -0.059248637 1.3070452e-38 321 288
0.0024651866 0.70300001 -0.059164476 1.2794591e-38 322 288
0.0036872597 0.70099998 -0.058996156 1.2978622e-38 323 288
0.0049163462 0.70099998 -0.058996156 1.2794593e-38 324 288
0.0061366665 0.69999999 -0.058911994 1.2794593e-38 325 288
0.0073639993 0.69999999 -0.058911994 1.2794238e-38 326 288
0.0085913334 0.69999999 -0.058911994 1.2794238e-38 327 288
0.0098186666 0.69999999 -0.058911994 1.2702041e-38 328 288
0.011045999 0.69999999 -0.058911994 1.2609845e-38 329 288
0.012273333 0.69999999 -0.058911994 1.2793513e-38 330 288
0.013500666 0.69999999 -0.058911994 1.2700959e-38 331 288
0.014727999 0.69999999 -0.058911994 1.2517284e-38 332 288
0.015955333 0.69999999 -0.058911994 1.2517284e-38 333 288
0.017182667 0.69999999 -0.058911994 1.2517284e-38 334 288
0.018436298 0.70099998 -0.058996156 1.2517284e-38 335 288
0.019665385 0.70099998 -0.058996156 1.2424732e-38 336 288
0.020894472 0.70099998 -0.058996156 1.2700959e-38 337 288
0.022123558 0.70099998 -0.058996156 1.2518002e-38 338 288
0.023352645 0.70099998 -0.058996156 1.2610198e-38 339 288
0.024651866 0.70300001 -0.059164476 1.2610551e-38 340 288
0.025884461 0.70300001 -0.059164476 1.2610551e-38 341 288
0.027117053 0.70300001 -0.059164476 1.2334685e-38 342 288
0.028389972 0.704 -0.059248637 1.2518716e-38 343 288
0.029708479 0.70599997 -0.059416957 1.2610195e-38 344 288
0.030946331 0.70599997 -0.059416957 1.2794588e-38 345 288
0.032184184 0.70599997 -0.059416957 1.2795307e-38 346 288
0.033469379 0.70700002 -0.059501119 1.2980057e-38 347 288
0.034708988 0.70700002 -0.059501119 1.2980776e-38 348 288
0.03599944 0.708 -0.059585281 1.3072971e-38 349 288
0.037345998 0.70999998 -0.059753593 1.316589e-38 350 288
0.038590867 0.70999998 -0.059753593 1.316589e-38 351 288
0.039835732 0.70999998 -0.059753593 1.3074783e-38 352 288
0.041138459 0.71100003 -0.059837762 1.3259533e-38 353 288
0.042325463 0.70999998 -0.059753593 1.3446096e-38 354 288
0.043570329 0.70999998 -0.059753593 1.3906714e-38 355 288
0.044815198 0.70999998 -0.059753593 1.4925943e-38 356 288
-0.020114239 0.71700001 -0.061599858 1.5939748e-38 304 289
-0.018857099 0.71700001 -0.061599858 1.4925237e-38 305 289
-0.017575413 0.71600002 -0.061513945 1.5287503e-38 306 289
-0.016320027 0.71600002 -0.061513945 1.4642134e-38 307 289
-0.015022559 0.71399999 -0.061342116 1.4732865e-38 308 289
-0.013751393 0.713 -0.061256204 1.445592e-38 309 289
-0.012501267 0.713 -0.061256204 1.436371e-38 310 289
-0.01121958 0.71100003 -0.061084379 1.4179319e-38 311 289
-0.0099589331 0.70999998 -0.060998458 1.4086399e-38 312 289
-0.008689519 0.708 -0.060826641 1.3902006e-38 313 289
-0.0074481601 0.708 -0.060826641 1.3809089e-38 314 289
-0.0061980332 0.70700002 -0.060740728 1.3716893e-38 315 289
-0.0049514128 0.70599997 -0.060654808 1.3624697e-38 316 289
-0.0037135598 0.70599997 -0.060654808 1.3440666e-38 317 289
-0.0024757064 0.70599997 -0.060654808 1.3439227e-38 318 289
-0.0012343467 0.704 -0.060482983 1.3163e-38 319 289
0 0.704 -0.060482983 1.2978975e-38 320 289
0.0012343467 0.704 -0.060482983 1.2794944e-38 321 289
0.0024651866 0.70300001 -0.06039707 1.2795307e-38 322 289
0.0036977797 0.70300001 -0.06039707 1.2795307e-38 323 289
0.0049163462 0.70099998 -0.060225245 1.2978625e-38 324 289
0.0061366665 0.69999999 -0.060139328 1.2978625e-38 325 289
0.0073639993 0.69999999 -0.060139328 1.2794956e-38 326 289
0.0085913334 0.69999999 -0.060139328 1.2610564e-38 327 289
0.0098186666 0.69999999 -0.060139328 1.2794593e-38 328 289
0.011045999 0.69999999 -0.060139328 1.2702396e-38 329 289
0.012273333 0.69999999 -0.060139328 1.2702396e-38 330 289
0.013500666 0.69999999 -0.060139328 1.2609842e-38 331 289
0.014727999 0.69999999 -0.060139328 1.2518002e-38 332 289
0.015955333 0.69999999 -0.060139328 1.2518002e-38 333 289
0.017182667 0.69999999 -0.060139328 1.2610198e-38 334 289
0.018436298 0.70099998 -0.060225245 1.2518002e-38 335 289
0.019665385 0.70099998 -0.060225245 1.2701315e-38 336 289
0.020894472 0.70099998 -0.060225245 1.2885706e-38 337 289
0.02218668 0.70300001 -0.06039707 1.2610195e-38 338 289
0.023419274 0.70300001 -0.06039707 1.2702391e-38 339 289
0.024686933 0.704 -0.060482983 1.2702744e-38 340 289
0.02592128 0.704 -0.060482983 1.2702744e-38 341 289
0.027155625 0.704 -0.060482983 1.2702744e-38 342 289
0.028470624 0.70599997 -0.060654808 1.2702744e-38 343 289
0.029708479 0.70599997 -0.060654808 1.2702747e-38 344 289
0.030990168 0.70700002 -0.060740728 1.3071171e-38 345 289
0.032229774 0.70700002 -0.060740728 1.2980057e-38 346 289
0.033516716 0.708 -0.060826641 1.2980057e-38 347 289
0.034758076 0.708 -0.060826641 1.3072618e-38 348 289
0.03599944 0.708 -0.060826641 1.3164815e-38 349 289
0.037345998 0.70999998 -0.060998458 1.3257732e-38 350 289
0.038590867 0.70999998 -0.060998458 1.3257732e-38 351 289
0.039835732 0.70999998 -0.060998458 1.3259177e-38 352 289
0.041138459 0.71100003 -0.061084379 1.3535764e-38 353 289
0.042325463 0.70999998 -0.060998458 1.3721617e-38 354 289
0.043570329 0.70999998 -0.060998458 1.492016e-38 355 289
0.044815198 0.70999998 -0.060998458 1.483412e-38 356 289
-0.018857099 0.71700001 -0.062856995 1.5112152e-38 305 290
-0.017575413 0.71600002 -0.062769331 1.5196753e-38 306 290
-0.016320027 0.71600002 -0.062769331 1.4551383e-38 307 290
-0.015022559 0.71399999 -0.062593997 1.4733584e-38 308 290
-0.013751393 0.713 -0.062506333 1.4549193e-38 309 290
-0.012501267 0.713 -0.062506333 1.4548103e-38 310 290
-0.01121958 0.71100003 -0.062331002 1.436371e-38 311 290
-0.0099589331 0.70999998 -0.062243331 1.4179316e-38 312 290
-0.0087140659 0.70999998 -0.062243331 1.3903089e-38 313 290
-0.0074481601 0.708 -0.062068 1.3901287e-38 314 290
-0.0061980332 0.70700002 -0.061980337 1.3901287e-38 315 290
-0.0049584266 0.70700002 -0.061980337 1.3716893e-38 316 290
-0.0037135598 0.70599997 -0.061892662 1.3624697e-38 317 290
-0.0024757064 0.70599997 -0.061892662 1.3348464e-38 318 290
-0.0012378532 0.70599997 -0.061892662 1.3164072e-38 319 290
0 0.704 -0.061717331 1.3071877e-38 320 290
0.0012343467 0.704 -0.061717331 1.2979681e-38 321 290
0.0024651866 0.70300001 -0.061629668 1.2796016e-38 322 290
0.0036977797 0.70300001 -0.061629668 1.2796016e-38 323 290
0.0049303733 0.70300001 -0.061629668 1.2978975e-38 324 290
0.0061454331 0.70099998 -0.06145433 1.2978975e-38 325 290
0.0073639993 0.69999999 -0.061366666 1.2978978e-38 326 290
0.0085913334 0.69999999 -0.061366666 1.2978978e-38 327 290
0.0098186666 0.69999999 -0.061366666 1.2795307e-38 328 290
0.011045999 0.69999999 -0.061366666 1.2795307e-38 329 290
0.012273333 0.69999999 -0.061366666 1.2794591e-38 330 290
0.013500666 0.69999999 -0.061366666 1.2702394e-38 331 290
0.014727999 0.69999999 -0.061366666 1.2702394e-38 332 290
0.015955333 0.69999999 -0.061366666 1.2702394e-38 333 290
0.017182667 0.69999999 -0.061366666 1.2702394e-38 334 290
0.018436298 0.70099998 -0.06145433 1.2702394e-38 335 290
0.019665385 0.70099998 -0.06145433 1.2885706e-38 336 290
0.020894472 0.70099998 -0.06145433 1.2885706e-38 337 290
0.02218668 0.70300001 -0.061629668 1.2794591e-38 338 290
0.023452586 0.704 -0.061717331 1.2794591e-38 339 290
0.024686933 0.704 -0.061717331 1.2794944e-38 340 290
0.02592128 0.704 -0.061717331 1.2794944e-38 341 290
0.027155625 0.704 -0.061717331 1.2611264e-38 342 290
0.028470624 0.70599997 -0.061892662 1.2611264e-38 343 290
0.029750559 0.70700002 -0.061980337 1.279566e-38 344 290
0.030990168 0.70700002 -0.061980337 1.298041e-38 345 290
0.032229774 0.70700002 -0.061980337 1.2888224e-38 346 290
0.033516716 0.708 -0.062068 1.298042e-38 347 290
0.034758076 0.708 -0.062068 1.3072269e-38 348 290
0.036101133 0.70999998 -0.062243331 1.325666e-38 349 290
0.037398599 0.71100003 -0.062331002 1.3074067e-38 350 290
0.038645219 0.71100003 -0.062331002 1.3258098e-38 351 290
0.039891839 0.71100003 -0.062331002 1.335138e-38 352 290
0.041138459 0.71100003 -0.062331002 1.3627607e-38 353 290
0.042385083 0.71100003 -0.062331002 1.3630516e-38 354 290
0.043631699 0.71100003 -0.062331002 1.4736863e-38 355 290
-0.018857099 0.71700001 -0.064114138 1.5206515e-38 305 291
-0.017599959 0.71700001 -0.064114138 1.5291116e-38 306 291
-0.016320027 0.71600002 -0.064024724 1.4461355e-38 307 291
-0.015022559 0.71399999 -0.063845873 1.5009096e-38 308 291
-0.01377068 0.71399999 -0.063845873 1.4732868e-38 309 291
-0.012518799 0.71399999 -0.063845873 1.4549187e-38 310 291
-0.011251139 0.713 -0.063756458 1.4180765e-38 311 291
-0.0099729598 0.71100003 -0.063577622 1.4271161e-38 312 291
-0.0087140659 0.70999998 -0.063488193 1.4178966e-38 313 291
-0.0074691991 0.70999998 -0.063488193 1.3993853e-38 314 291
-0.0062243328 0.70999998 -0.063488193 1.3901656e-38 315 291
-0.0049654399 0.708 -0.063309364 1.3625423e-38 316 291
-0.0037188199 0.70700002 -0.063219935 1.3533228e-38 317 291
-0.0024757064 0.70599997 -0.063130513 1.3165519e-38 318 291
-0.0012378532 0.70599997 -0.063130513 1.3073322e-38 319 291
0 0.70599997 -0.063130513 1.2981123e-38 320 291
0.0012378532 0.70599997 -0.063130513 1.2796732e-38 321 291
0.0024686933 0.704 -0.062951677 1.2796735e-38 322 291
0.0037030398 0.704 -0.062951677 1.2796735e-38 323 291
0.0049373866 0.704 -0.062951677 1.3071171e-38 324 291
0.0061629666 0.70300001 -0.062862262 1.2978975e-38 325 291
0.0073745195 0.70099998 -0.062683418 1.3071526e-38 326 291
0.0086036054 0.70099998 -0.062683418 1.3163722e-38 327 291
0.0098326923 0.70099998 -0.062683418 1.2796379e-38 328 291
0.011061779 0.70099998 -0.062683418 1.2796379e-38 329 291
0.012290866 0.70099998 -0.062683418 1.2978978e-38 330 291
0.013519952 0.70099998 -0.062683418 1.2978978e-38 331 291
0.014749039 0.70099998 -0.062683418 1.2978622e-38 332 291
0.015978126 0.70099998 -0.062683418 1.2978622e-38 333 291
0.017207211 0.70099998 -0.062683418 1.2703114e-38 334 291
0.018488899 0.70300001 -0.062862262 1.2703114e-38 335 291
0.019721493 0.70300001 -0.062862262 1.2703114e-38 336 291
0.020954086 0.70300001 -0.062862262 1.279531e-38 337 291
0.022218239 0.704 -0.062951677 1.2795307e-38 338 291
0.023519212 0.70599997 -0.063130513 1.2795307e-38 339 291
0.024757065 0.70599997 -0.063130513 1.2795307e-38 340 291
0.025994917 0.70599997 -0.063130513 1.2703111e-38 341 291
0.027232772 0.70599997 -0.063130513 1.2795663e-38 342 291
0.028470624 0.70599997 -0.063130513 1.2795663e-38 343 291
0.029750559 0.70700002 -0.063219935 1.2796026e-38 344 291
0.030990168 0.70700002 -0.063219935 1.2980776e-38 345 291
0.03227536 0.708 -0.063309364 1.2889309e-38 346 291
0.033516716 0.708 -0.063309364 1.3073341e-38 347 291
0.034856264 0.70999998 -0.063488193 1.3165184e-38 348 291
0.036151983 0.71100003 -0.063577622 1.3165184e-38 349 291
0.037503798 0.713 -0.063756458 1.3258454e-38 350 291
0.038645219 0.71100003 -0.063577622 1.3258454e-38 351 291
0.039891839 0.71100003 -0.063577622 1.31677e-38 352 291
0.041138459 0.71100003 -0.063577622 1.3444647e-38 353 291
0.042385083 0.71100003 -0.063577622 1.3263165e-38 354 291
-0.018857099 0.71700001 -0.065371275 1.5392354e-38 305 292
-0.017599959 0.71700001 -0.065371275 1.5385479e-38 306 292
-0.016320027 0.71600002 -0.06528011 1.4463523e-38 307 292
-0.01506464 0.71600002 -0.06528011 1.5286758e-38 308 292
-0.013809253 0.71600002 -0.06528011 1.4917977e-38 309 292
-0.012518799 0.71399999 -0.065097757 1.4733569e-38 310 292
-0.011266919 0.71399999 -0.065097757 1.4456623e-38 311 292
-0.010001013 0.713 -0.065006584 1.4362994e-38 312 292
-0.0087263398 0.71100003 -0.064824238 1.4362994e-38 313 292
-0.0074691991 0.70999998 -0.064733058 1.4361909e-38 314 292
-0.0062243328 0.70999998 -0.064733058 1.4085683e-38 315 292
-0.0049654399 0.708 -0.06455072 1.399348e-38 316 292
-0.00372408 0.708 -0.06455072 1.3809089e-38 317 292
-0.0024792133 0.70700002 -0.064459547 1.3533578e-38 318 292
-0.0012396066 0.70700002 -0.064459547 1.3349187e-38 319 292
0 0.70599997 -0.064368367 1.3256984e-38 320 292
0.0012378532 0.70599997 -0.064368367 1.3164788e-38 321 292
0.0024757064 0.70599997 -0.064368367 1.3164791e-38 322 292
0.0037135598 0.70599997 -0.064368367 1.3164791e-38 323 292
0.0049373866 0.704 -0.064186029 1.3163719e-38 324 292
0.0061717331 0.704 -0.064186029 1.3163719e-38 325 292
0.0073955595 0.70300001 -0.064094849 1.3164075e-38 326 292
0.0086281532 0.70300001 -0.064094849 1.3256271e-38 327 292
0.0098607466 0.70300001 -0.064094849 1.3255915e-38 328 292
0.01109334 0.70300001 -0.064094849 1.3255915e-38 329 292
0.012325933 0.70300001 -0.064094849 1.3163722e-38 330 292
0.013558527 0.70300001 -0.064094849 1.3163722e-38 331 292
0.014791119 0.70300001 -0.064094849 1.3163003e-38 332 292
0.016023712 0.70300001 -0.064094849 1.3163003e-38 333 292
0.017256306 0.70300001 -0.064094849 1.3071173e-38 334 292
0.018515198 0.704 -0.064186029 1.2978978e-38 335 292
0.019749546 0.704 -0.064186029 1.2887861e-38 336 292
0.021043506 0.70599997 -0.064368367 1.2887861e-38 337 292
0.022281358 0.70599997 -0.064368367 1.2978978e-38 338 292
0.023519212 0.70599997 -0.064368367 1.2978978e-38 339 292
0.024792133 0.70700002 -0.064459547 1.279531e-38 340 292
0.02603174 0.70700002 -0.064459547 1.279531e-38 341 292
0.027271347 0.70700002 -0.064459547 1.2795307e-38 342 292
0.02855128 0.708 -0.06455072 1.2887861e-38 343 292
0.02979264 0.708 -0.06455072 1.2797107e-38 344 292
0.031034 0.708 -0.06455072 1.2889303e-38 345 292
0.03227536 0.708 -0.06455072 1.3073341e-38 346 292
0.033611398 0.70999998 -0.064733058 1.3073341e-38 347 292
0.034905359 0.71100003 -0.064824238 1.3072988e-38 348 292
0.036253672 0.713 -0.065006584 1.3257379e-38 349 292
0.037503798 0.713 -0.065006584 1.3074789e-38 350 292
0.038645219 0.71100003 -0.064824238 1.3166984e-38 351 292
0.039891839 0.71100003 -0.064824238 1.2983333e-38 352 292
0.041254178 0.713 -0.065006584 1.3075529e-38 353 292
-0.017599959 0.71700001 -0.066628419 1.5388366e-38 306 293
-0.016342819 0.71700001 -0.066628419 1.4374214e-38 307 293
-0.01506464 0.71600002 -0.066535495 1.4827597e-38 308 293
-0.013809253 0.71600002 -0.066535495 1.4643206e-38 309 293
-0.012553867 0.71600002 -0.066535495 1.4733584e-38 310 293
-0.01129848 0.71600002 -0.066535495 1.4364803e-38 311 293
-0.01001504 0.71399999 -0.066349633 1.436408e-38 312 293
-0.0087263398 0.71100003 -0.066070862 1.436408e-38 313 293
-0.0074797203 0.71100003 -0.066070862 1.4087849e-38 314 293
-0.0062243328 0.70999998 -0.065977924 1.3995653e-38 315 293
-0.0049794666 0.70999998 -0.065977924 1.3902733e-38 316 293
-0.00372408 0.708 -0.065792084 1.3718341e-38 317 293
-0.0024792133 0.70700002 -0.065699153 1.3533949e-38 318 293
-0.0012396066 0.70700002 -0.065699153 1.3441395e-38 319 293
0 0.70700002 -0.065699153 1.3166237e-38 320 293
0.0012396066 0.70700002 -0.065699153 1.2890009e-38 321 293
0.0024757064 0.70599997 -0.065606222 1.3165521e-38 322 293
0.0037135598 0.70599997 -0.065606222 1.3073324e-38 323 293
0.0049514128 0.70599997 -0.065606222 1.3164085e-38 324 293
0.0061892662 0.70599997 -0.065606222 1.3256281e-38 325 293
0.0074060797 0.704 -0.065420374 1.3256281e-38 326 293
0.0086404262 0.704 -0.065420374 1.3256281e-38 327 293
0.0098747732 0.704 -0.065420374 1.3255567e-38 328 293
0.011109119 0.704 -0.065420374 1.3347763e-38 329 293
0.012343466 0.704 -0.065420374 1.3072971e-38 330 293
0.013577812 0.704 -0.065420374 1.2980776e-38 331 293
0.014812159 0.704 -0.065420374 1.3255921e-38 332 293
0.016046507 0.704 -0.065420374 1.3163366e-38 333 293
0.017329946 0.70599997 -0.065606222 1.3164085e-38 334 293
0.018567799 0.70599997 -0.065606222 1.2980054e-38 335 293
0.019805651 0.70599997 -0.065606222 1.2887861e-38 336 293
0.021073313 0.70700002 -0.065699153 1.2887861e-38 337 293
0.022312919 0.70700002 -0.065699153 1.2978625e-38 338 293
0.023585839 0.708 -0.065792084 1.2978625e-38 339 293
0.024827199 0.708 -0.065792084 1.2978625e-38 340 293
0.026068559 0.708 -0.065792084 1.307082e-38 341 293
0.027309919 0.708 -0.065792084 1.2887508e-38 342 293
0.028631933 0.70999998 -0.065977924 1.2979704e-38 343 293
0.029876797 0.70999998 -0.065977924 1.2980422e-38 344 293
0.031121666 0.70999998 -0.065977924 1.3164815e-38 345 293
0.032366529 0.70999998 -0.065977924 1.3073341e-38 346 293
0.033658739 0.71100003 -0.066070862 1.3165537e-38 347 293
0.034905359 0.71100003 -0.066070862 1.3072985e-38 348 293
0.036253672 0.713 -0.066256717 1.3165181e-38 349 293
0.037503798 0.713 -0.066256717 1.3074786e-38 350 293
0.038645219 0.71100003 -0.066070862 1.3074786e-38 351 293
0.039891839 0.71100003 -0.066070862 1.2706745e-38 352 293
-0.016342819 0.71700001 -0.067885563 1.4559328e-38 307 294
-0.015022559 0.71399999 -0.067601517 1.4462059e-38 308 294
-0.01377068 0.71399999 -0.067601517 1.4093276e-38 309 294
-0.0125714 0.71700001 -0.067885563 1.4733581e-38 310 294
-0.01129848 0.71600002 -0.067790881 1.454919e-38 311 294
-0.010043093 0.71600002 -0.067790881 1.4548105e-38 312 294
-0.0087508867 0.713 -0.067506835 1.445591e-38 313 294
-0.0075007593 0.713 -0.067506835 1.4362988e-38 314 294
-0.0062330998 0.71100003 -0.067317478 1.4270793e-38 315 294
-0.0049864799 0.71100003 -0.067317478 1.4270067e-38 316 294
-0.0037345996 0.70999998 -0.067222796 1.399348e-38 317 294
-0.0024897333 0.70999998 -0.067222796 1.390164e-38 318 294
-0.00124136 0.708 -0.067033432 1.371689e-38 319 294
0 0.708 -0.067033432 1.344138e-38 320 294
0.00124136 0.708 -0.067033432 1.3349184e-38 321 294
0.0024792133 0.70700002 -0.066938758 1.3440664e-38 322 294
0.0037188199 0.70700002 -0.066938758 1.3440664e-38 323 294
0.0049584266 0.70700002 -0.066938758 1.3348111e-38 324 294
0.0061892662 0.70599997 -0.066844068 1.3440666e-38 325 294
0.0074271196 0.70599997 -0.066844068 1.3623623e-38 326 294
0.0086649731 0.70599997 -0.066844068 1.3623623e-38 327 294
0.0099028256 0.70599997 -0.066844068 1.3531072e-38 328 294
0.011140679 0.70599997 -0.066844068 1.3531072e-38 329 294
0.012378532 0.70599997 -0.066844068 1.3348113e-38 330 294
0.013616386 0.70599997 -0.066844068 1.3348113e-38 331 294
0.014854239 0.70599997 -0.066844068 1.343958e-38 332 294
0.016092092 0.70599997 -0.066844068 1.343958e-38 333 294
0.017354494 0.70700002 -0.066938758 1.3164072e-38 334 294
0.018594101 0.70700002 -0.066938758 1.3164072e-38 335 294
0.01986176 0.708 -0.067033432 1.3163003e-38 336 294
0.021103119 0.708 -0.067033432 1.3163003e-38 337 294
0.022344479 0.708 -0.067033432 1.3162653e-38 338 294
0.023585839 0.708 -0.067033432 1.3070099e-38 339 294
0.024897331 0.70999998 -0.067222796 1.2978622e-38 340 294
0.026142199 0.70999998 -0.067222796 1.3070817e-38 341 294
0.027387066 0.70999998 -0.067222796 1.3070817e-38 342 294
0.028631933 0.70999998 -0.067222796 1.3255567e-38 343 294
0.029876797 0.70999998 -0.067222796 1.2889303e-38 344 294
0.031165501 0.71100003 -0.067317478 1.3073336e-38 345 294
0.032412119 0.71100003 -0.067317478 1.3072985e-38 346 294
0.033753417 0.713 -0.067506835 1.3072985e-38 347 294
0.035003547 0.713 -0.067506835 1.270601e-38 348 294
0.036253672 0.713 -0.067506835 1.270601e-38 349 294
0.037503798 0.713 -0.067506835 1.2338319e-38 350 294
0.038753927 0.713 -0.067506835 1.2430515e-38 351 294
-0.015022559 0.71399999 -0.068853401 1.418764e-38 308 295
-0.01377068 0.71399999 -0.068853401 1.3911053e-38 309 295
-0.012553867 0.71600002 -0.069046266 1.4459522e-38 310 295
-0.01129848 0.71600002 -0.069046266 1.4182575e-38 311 295
-0.010043093 0.71600002 -0.069046266 1.4548474e-38 312 295
-0.0087631596 0.71399999 -0.068853401 1.445592e-38 313 295
-0.0075007593 0.713 -0.068756968 1.4363357e-38 314 295
-0.0062330998 0.71100003 -0.068564095 1.4271161e-38 315 295
-0.0049864799 0.71100003 -0.068564095 1.4178963e-38 316 295
-0.0037398601 0.71100003 -0.068564095 1.381054e-38 317 295
-0.0024897333 0.70999998 -0.068467662 1.381054e-38 318 295
