# .PCD v.7 - Point Cloud Data file format
FIELDS x y z rgb imX imY
SIZE 4 4 4 4 4 4
TYPE F F F F F F
COUNT 1 1 1 1 1 1
WIDTH 847
HEIGHT 1
VIEWPOINT 0 0 0 1 0 0 0
POINTS 847
DATA ascii
-0.013342866 0.76099998 0.0093400059 1.6205119e-38 310 233
-0.012008579 0.76099998 0.0093400059 1.638951e-38 311 233
-0.010674292 0.76099998 0.0093400059 1.666502e-38 312 233
-0.0093400059 0.76099998 0.0093400059 1.6849772e-38 313 233
-0.0080057196 0.76099998 0.0093400059 1.7217828e-38 314 233
-0.0066714329 0.76099998 0.0093400059 1.7494415e-38 315 233
-0.0053371461 0.76099998 0.0093400059 1.7679509e-38 316 233
-0.0040028598 0.76099998 0.0093400059 1.7310728e-38 317 233
-0.0026685731 0.76099998 0.0093400059 1.7402182e-38 318 233
-0.0013342865 0.76099998 0.0093400059 1.7402182e-38 319 233
0 0.76099998 0.0093400059 1.7036992e-38 320 233
0.0013342865 0.76099998 0.0093400059 1.666821e-38 321 233
0.00267208 0.76200002 0.0093522798 1.7216349e-38 322 233
0.0040028598 0.76099998 0.0093400059 1.6570979e-38 323 233
0.0053371461 0.76099998 0.0093400059 1.6751773e-38 324 233
0.0066801999 0.76200002 0.0093522798 1.6475187e-38 325 233
0.0080162399 0.76200002 0.0093522798 1.610677e-38 326 233
0.0093522798 0.76200002 0.0093522798 1.5830543e-38 327 233
0.01068832 0.76200002 0.0093522798 1.5463205e-38 328 233
0.01202436 0.76200002 0.0093522798 1.5370651e-38 329 233
0.0133604 0.76200002 0.0093522798 1.4820354e-38 330 233
0.01469644 0.76200002 0.0093522798 1.4820354e-38 331 233
0.016074561 0.764 0.0093768267 1.463883e-38 332 233
0.017414106 0.764 0.0093768267 1.4362244e-38 333 233
0.018802745 0.76599997 0.0094013726 1.4362951e-38 334 233
0.020172099 0.76700002 0.0094136465 1.4086004e-38 335 233
0.021516906 0.76700002 0.0094136465 1.3900543e-38 336 233
0.022921326 0.76899999 0.0094381925 1.3439565e-38 337 233
0.024395877 0.773 0.0094872871 1.3163356e-38 338 233
0.025751207 0.773 0.0094872871 1.3070802e-38 339 233
0.027141599 0.77399999 0.0094995592 1.2887508e-38 340 233
0.028572321 0.77600002 0.009524107 1.3163735e-38 341 233
0.029932907 0.77600002 0.009524107 1.2796774e-38 342 233
0.031374145 0.778 0.0095486529 1.2612381e-38 343 233
0.032822397 0.77999997 0.0095731998 1.2899087e-38 344 233
0.034233831 0.78100002 0.0095854728 1.5757153e-38 345 233
-0.039812941 0.78299999 0.0082371598 1.5763302e-38 291 234
-0.038341891 0.78100002 0.0082161194 1.3817431e-38 292 234
-0.036925197 0.77999997 0.0082055992 1.2711084e-38 293 234
-0.035557598 0.77999997 0.0082055992 1.5099124e-38 294 234
-0.034102332 0.778 0.0081845606 1.4638146e-38 295 234
-0.032569919 0.77399999 0.0081424797 1.5096944e-38 296 234
-0.031212838 0.77399999 0.0081424797 1.5004748e-38 297 234
-0.029817186 0.773 0.0081319595 1.5555398e-38 298 234
-0.028461859 0.773 0.0081319595 1.5555398e-38 299 234
-0.026966266 0.76899999 0.0080898795 1.5648315e-38 300 234
-0.025551327 0.76700002 0.00806884 1.5740512e-38 301 234
-0.024174958 0.76599997 0.0080583189 1.5833077e-38 302 234
-0.022772292 0.764 0.0080372803 1.6110024e-38 303 234
-0.02137664 0.76200002 0.0080162399 1.6112187e-38 304 234
-0.0200406 0.76200002 0.0080162399 1.6112187e-38 305 234
-0.018680012 0.76099998 0.0080057196 1.6019636e-38 306 234
-0.017345725 0.76099998 0.0080057196 1.592744e-38 307 234
-0.016011439 0.76099998 0.0080057196 1.5926724e-38 308 234
-0.014677152 0.76099998 0.0080057196 1.5834528e-38 309 234
-0.013342866 0.76099998 0.0080057196 1.629443e-38 310 234
-0.012008579 0.76099998 0.0080057196 1.6662854e-38 311 234
-0.010674292 0.76099998 0.0080057196 1.6665008e-38 312 234
-0.0093400059 0.76099998 0.0080057196 1.6757203e-38 313 234
-0.0080057196 0.76099998 0.0080057196 1.7308952e-38 314 234
-0.0066714329 0.76099998 0.0080057196 1.776993e-38 315 234
-0.0053371461 0.76099998 0.0080057196 1.7770646e-38 316 234
-0.0040028598 0.76099998 0.0080057196 1.7494418e-38 317 234
-0.00266156 0.759 0.0079846792 1.7311444e-38 318 234
-0.00133078 0.759 0.0079846792 1.7127413e-38 319 234
0 0.759 0.0079846792 1.7128487e-38 320 234
0.0013342865 0.76099998 0.0080057196 1.6851542e-38 321 234
0.0026685731 0.76099998 0.0080057196 1.703197e-38 322 234
0.0040028598 0.76099998 0.0080057196 1.6478796e-38 323 234
0.0053371461 0.76099998 0.0080057196 1.647591e-38 324 234
0.0066801999 0.76200002 0.0080162399 1.6199323e-38 325 234
0.0080162399 0.76200002 0.0080162399 1.6014577e-38 326 234
0.0093522798 0.76200002 0.0080162399 1.5830546e-38 327 234
0.01068832 0.76200002 0.0080162399 1.5186985e-38 328 234
0.01202436 0.76200002 0.0080162399 1.509479e-38 329 234
0.0133604 0.76200002 0.0080162399 1.4819998e-38 330 234
0.01469644 0.76200002 0.0080162399 1.4819998e-38 331 234
0.01603248 0.76200002 0.0080162399 1.4545559e-38 332 234
0.017414106 0.764 0.0080372803 1.4637755e-38 333 234
0.018753653 0.764 0.0080372803 1.4270765e-38 334 234
0.020093199 0.764 0.0080372803 1.3902341e-38 335 234
0.021488851 0.76599997 0.0080583189 1.3807996e-38 336 234
0.022861714 0.76700002 0.00806884 1.3347019e-38 337 234
0.02433276 0.77100003 0.0081109209 1.3070802e-38 338 234
0.025751207 0.773 0.0081319595 1.3070802e-38 339 234
0.027141599 0.77399999 0.0081424797 1.3070808e-38 340 234
0.028498679 0.77399999 0.0081424797 1.3070808e-38 341 234
0.029932907 0.77600002 0.0081635201 1.2979353e-38 342 234
0.031293493 0.77600002 0.0081635201 1.3163384e-38 343 234
0.032738242 0.778 0.0081845606 1.225227e-38 344 234
-0.0411858 0.78299999 0.0068642995 1.7239507e-38 290 235
-0.039711244 0.78100002 0.0068467669 1.5303398e-38 291 235
-0.038341891 0.78100002 0.0068467669 1.3815986e-38 292 235
-0.036925197 0.77999997 0.0068379994 1.2801834e-38 293 235
-0.035557598 0.77999997 0.0068379994 1.5006207e-38 294 235
-0.034102332 0.778 0.0068204664 1.4821814e-38 295 235
-0.032569919 0.77399999 0.0067853997 1.5005111e-38 296 235
-0.031212838 0.77399999 0.0067853997 1.4912915e-38 297 235
-0.029817186 0.773 0.0067766332 1.5463924e-38 298 235
-0.028388219 0.77100003 0.0067590997 1.555612e-38 299 235
-0.026966266 0.76899999 0.0067415666 1.5372098e-38 300 235
-0.025551327 0.76700002 0.006724033 1.5464654e-38 301 235
-0.024174958 0.76599997 0.0067152665 1.5740175e-38 302 235
-0.022682872 0.76099998 0.0066714329 1.601712e-38 303 235
-0.021348584 0.76099998 0.0066714329 1.5834891e-38 304 235
-0.0200406 0.76200002 0.0066801999 1.5927087e-38 305 235
-0.018680012 0.76099998 0.0066714329 1.5744125e-38 306 235
-0.017345725 0.76099998 0.0066714329 1.5744125e-38 307 235
-0.016011439 0.76099998 0.0066714329 1.5925641e-38 308 235
-0.014677152 0.76099998 0.0066714329 1.5925641e-38 309 235
-0.013342866 0.76099998 0.0066714329 1.601749e-38 310 235
-0.012008579 0.76099998 0.0066714329 1.6201882e-38 311 235
-0.010674292 0.76099998 0.0066714329 1.6387712e-38 312 235
-0.0093400059 0.76099998 0.0066714329 1.6572462e-38 313 235
-0.0079846792 0.759 0.0066538998 1.6849772e-38 314 235
-0.0066538998 0.759 0.0066538998 1.7034163e-38 315 235
-0.0053231199 0.759 0.0066538998 1.7310743e-38 316 235
-0.0039923396 0.759 0.0066538998 1.7310743e-38 317 235
-0.00266156 0.759 0.0066538998 1.7127415e-38 318 235
-0.00133078 0.759 0.0066538998 1.6942665e-38 319 235
0 0.759 0.0066538998 1.6942665e-38 320 235
0.00133078 0.759 0.0066538998 1.6666077e-38 321 235
0.00266156 0.759 0.0066538998 1.6937979e-38 322 235
0.0039923396 0.759 0.0066538998 1.629261e-38 323 235
0.0053371461 0.76099998 0.0066714329 1.619897e-38 324 235
0.0066714329 0.76099998 0.0066714329 1.6014577e-38 325 235
0.0080057196 0.76099998 0.0066714329 1.5737997e-38 326 235
0.0093400059 0.76099998 0.0066714329 1.5737997e-38 327 235
0.01068832 0.76200002 0.0066801999 1.5369935e-38 328 235
0.01202436 0.76200002 0.0066801999 1.5277739e-38 329 235
0.0133604 0.76200002 0.0066801999 1.4727805e-38 330 235
0.01469644 0.76200002 0.0066801999 1.4820001e-38 331 235
0.01603248 0.76200002 0.0066801999 1.4361897e-38 332 235
0.01736852 0.76200002 0.0066801999 1.4361897e-38 333 235
0.018753653 0.764 0.006697733 1.445336e-38 334 235
0.020093199 0.764 0.006697733 1.4177133e-38 335 235
0.021432746 0.764 0.006697733 1.389982e-38 336 235
0.022831906 0.76599997 0.0067152665 1.3715429e-38 337 235
0.024269639 0.76899999 0.0067415666 1.3347738e-38 338 235
0.02568458 0.77100003 0.0067590997 1.3071511e-38 339 235
0.027106533 0.773 0.0067766332 1.2885706e-38 340 235
0.028498679 0.77399999 0.0067853997 1.2885706e-38 341 235
0.029855758 0.77399999 0.0067853997 1.2519467e-38 342 235
0.031212838 0.77399999 0.0067853997 1.2796054e-38 343 235
0.032654081 0.77600002 0.0068029333 1.1606547e-38 344 235
-0.041080598 0.78100002 0.0054774131 1.7147311e-38 290 236
-0.039711244 0.78100002 0.0054774131 1.4934617e-38 291 236
-0.038292799 0.77999997 0.0054703997 1.3815264e-38 292 236
-0.036925197 0.77999997 0.0054703997 1.3169895e-38 293 236
-0.035466425 0.778 0.0054563731 1.5006207e-38 294 236
-0.034014668 0.77600002 0.0054423464 1.4729618e-38 295 236
-0.032569919 0.77399999 0.0054283198 1.5004392e-38 296 236
-0.031212838 0.77399999 0.0054283198 1.4912196e-38 297 236
-0.029817186 0.773 0.0054213065 1.537137e-38 298 236
-0.028388219 0.77100003 0.0054072798 1.537137e-38 299 236
-0.026966266 0.76899999 0.0053932532 1.5463571e-38 300 236
-0.025551327 0.76700002 0.0053792265 1.5463571e-38 301 236
-0.024174958 0.76599997 0.0053722127 1.5647966e-38 302 236
-0.022682872 0.76099998 0.0053371461 1.5832358e-38 303 236
-0.021348584 0.76099998 0.0053371461 1.5649414e-38 304 236
-0.0200406 0.76200002 0.0053441599 1.5925641e-38 305 236
-0.018680012 0.76099998 0.0053371461 1.5834523e-38 306 236
-0.017345725 0.76099998 0.0053371461 1.5834523e-38 307 236
-0.016011439 0.76099998 0.0053371461 1.5741963e-38 308 236
-0.014677152 0.76099998 0.0053371461 1.5649408e-38 309 236
-0.013342866 0.76099998 0.0053371461 1.5924203e-38 310 236
-0.012008579 0.76099998 0.0053371461 1.6292986e-38 311 236
-0.010674292 0.76099998 0.0053371461 1.6386623e-38 312 236
-0.00931546 0.759 0.0053231199 1.666321e-38 313 236
-0.0079846792 0.759 0.0053231199 1.6482061e-38 314 236
-0.0066538998 0.759 0.0053231199 1.6666454e-38 315 236
-0.0053231199 0.759 0.0053231199 1.6941967e-38 316 236
-0.0039923396 0.759 0.0053231199 1.7034163e-38 317 236
-0.0026545466 0.75700003 0.0053090933 1.6943039e-38 318 236
-0.0013272733 0.75700003 0.0053090933 1.6666454e-38 319 236
0 0.75700003 0.0053090933 1.6665724e-38 320 236
0.0013272733 0.75700003 0.0053090933 1.6205106e-38 321 236
0.0026545466 0.75700003 0.0053090933 1.6568847e-38 322 236
0.0039923396 0.759 0.0053231199 1.5923477e-38 323 236
0.0053371461 0.76099998 0.0053371461 1.6013868e-38 324 236
0.0066714329 0.76099998 0.0053371461 1.5829837e-38 325 236
0.0080057196 0.76099998 0.0053371461 1.5645446e-38 326 236
0.0093400059 0.76099998 0.0053371461 1.5645446e-38 327 236
0.010674292 0.76099998 0.0053371461 1.5186262e-38 328 236
0.01202436 0.76200002 0.0053441599 1.5186262e-38 329 236
0.0133604 0.76200002 0.0053441599 1.4451937e-38 330 236
0.01469644 0.76200002 0.0053441599 1.4544493e-38 331 236
0.01603248 0.76200002 0.0053441599 1.4361897e-38 332 236
0.01736852 0.76200002 0.0053441599 1.4454092e-38 333 236
0.018753653 0.764 0.0053581866 1.4362244e-38 334 236
0.020093199 0.764 0.0053581866 1.4177852e-38 335 236
0.021432746 0.764 0.0053581866 1.3809424e-38 336 236
0.022831906 0.76599997 0.0053722127 1.3625031e-38 337 236
0.024269639 0.76899999 0.0053932532 1.3348814e-38 338 236
0.02568458 0.77100003 0.0054072798 1.3164423e-38 339 236
0.027106533 0.773 0.0054213065 1.2977536e-38 340 236
0.028461859 0.773 0.0054213065 1.288534e-38 341 236
0.029817186 0.773 0.0054213065 1.2517665e-38 342 236
0.03117251 0.773 0.0054213065 1.2702057e-38 343 236
0.032654081 0.77600002 0.0054423464 1.1420361e-38 344 236
-0.041080598 0.78100002 0.0041080597 1.7146589e-38 290 237
-0.039711244 0.78100002 0.0041080597 1.5026088e-38 291 237
-0.038292799 0.77999997 0.0041027996 1.3906382e-38 292 237
-0.036830518 0.778 0.0040922803 1.335321e-38 293 237
-0.035466425 0.778 0.0040922803 1.500621e-38 294 237
-0.034014668 0.77600002 0.0040817601 1.4637067e-38 295 237
-0.032569919 0.77399999 0.0040712398 1.5187707e-38 296 237
-0.03117251 0.773 0.0040659797 1.5003316e-38 297 237
-0.029817186 0.773 0.0040659797 1.5095146e-38 298 237
-0.028314579 0.76899999 0.0040449398 1.5095146e-38 299 237
-0.026896132 0.76700002 0.00403442 1.5371373e-38 300 237
-0.025551327 0.76700002 0.00403442 1.5371373e-38 301 237
-0.024174958 0.76599997 0.0040291594 1.5372452e-38 302 237
-0.02271268 0.76200002 0.0040081199 1.564868e-38 303 237
-0.02137664 0.76200002 0.0040081199 1.5648332e-38 304 237
-0.020014299 0.76099998 0.0040028598 1.5648332e-38 305 237
-0.018680012 0.76099998 0.0040028598 1.5649414e-38 306 237
-0.017345725 0.76099998 0.0040028598 1.555686e-38 307 237
-0.016011439 0.76099998 0.0040028598 1.6016026e-38 308 237
-0.014638579 0.759 0.0039923396 1.6016026e-38 309 237
-0.0133078 0.759 0.0039923396 1.5924909e-38 310 237
-0.01197702 0.759 0.0039923396 1.6201136e-38 311 237
-0.01064624 0.759 0.0039923396 1.6111459e-38 312 237
-0.00931546 0.759 0.0039923396 1.629585e-38 313 237
-0.0079846792 0.759 0.0039923396 1.6480611e-38 314 237
-0.0066363667 0.75700003 0.0039818203 1.6388415e-38 315 237
-0.0053090933 0.75700003 0.0039818203 1.6571743e-38 316 237
-0.0039818203 0.75700003 0.0039818203 1.6755774e-38 317 237
-0.0026545466 0.75700003 0.0039818203 1.6664652e-38 318 237
-0.0013272733 0.75700003 0.0039818203 1.6480261e-38 319 237
0 0.75700003 0.0039818203 1.6387695e-38 320 237
0.0013272733 0.75700003 0.0039818203 1.5742326e-38 321 237
0.0026545466 0.75700003 0.0039818203 1.5923474e-38 322 237
0.0039923396 0.759 0.0039923396 1.5831279e-38 323 237
0.0053231199 0.759 0.0039923396 1.5830193e-38 324 237
0.0066538998 0.759 0.0039923396 1.5645443e-38 325 237
0.0079846792 0.759 0.0039923396 1.5553247e-38 326 237
0.0093400059 0.76099998 0.0040028598 1.5461051e-38 327 237
0.010674292 0.76099998 0.0040028598 1.500295e-38 328 237
0.01202436 0.76200002 0.0040081199 1.4910394e-38 329 237
0.0133604 0.76200002 0.0040081199 1.4268981e-38 330 237
0.01469644 0.76200002 0.0040081199 1.4453013e-38 331 237
0.01603248 0.76200002 0.0040081199 1.4270064e-38 332 237
0.01736852 0.76200002 0.0040081199 1.436226e-38 333 237
0.01870456 0.76200002 0.0040081199 1.436261e-38 334 237
0.020093199 0.764 0.0040186401 1.4086382e-38 335 237
0.021432746 0.764 0.0040186401 1.3810861e-38 336 237
0.022831906 0.76599997 0.0040291594 1.3534635e-38 337 237
0.024206521 0.76700002 0.00403442 1.3441368e-38 338 237
0.025617953 0.76899999 0.0040449398 1.3256618e-38 339 237
0.026966266 0.76899999 0.0040449398 1.2794588e-38 340 237
0.028388219 0.77100003 0.0040554604 1.2610195e-38 341 237
0.029740039 0.77100003 0.0040554604 1.2241804e-38 342 237
0.031091858 0.77100003 0.0040554604 1.2333999e-38 343 237
0.032569919 0.77399999 0.0040712398 1.178627e-38 344 237
0.033927001 0.77399999 0.0040712398 1.3077008e-38 345 237
-0.041080598 0.78100002 0.0027387065 1.7146589e-38 290 238
-0.039660398 0.77999997 0.0027351999 1.5026088e-38 291 238
-0.038292799 0.77999997 0.0027351999 1.3815267e-38 292 238
-0.036830518 0.778 0.0027281865 1.3169898e-38 293 238
-0.035375252 0.77600002 0.0027211732 1.4730346e-38 294 238
-0.033927001 0.77399999 0.0027141599 1.4453757e-38 295 238
-0.032569919 0.77399999 0.0027141599 1.4911846e-38 296 238
-0.03117251 0.773 0.0027106532 1.4727455e-38 297 238
-0.029740039 0.77100003 0.0027036399 1.5002597e-38 298 238
-0.028314579 0.76899999 0.0026966266 1.5094793e-38 299 238
-0.026896132 0.76700002 0.0026896133 1.5095865e-38 300 238
-0.025518013 0.76599997 0.0026861064 1.518806e-38 301 238
-0.024174958 0.76599997 0.0026861064 1.5280975e-38 302 238
-0.022772292 0.764 0.0026790933 1.5280975e-38 303 238
-0.02137664 0.76200002 0.00267208 1.5372104e-38 304 238
-0.020014299 0.76099998 0.0026685731 1.5372104e-38 305 238
-0.018680012 0.76099998 0.0026685731 1.5371751e-38 306 238
-0.017345725 0.76099998 0.0026685731 1.5463948e-38 307 238
-0.016011439 0.76099998 0.0026685731 1.5647613e-38 308 238
-0.014638579 0.759 0.00266156 1.5739809e-38 309 238
-0.0133078 0.759 0.00266156 1.5833077e-38 310 238
-0.01197702 0.759 0.00266156 1.5925272e-38 311 238
-0.01064624 0.759 0.00266156 1.5834523e-38 312 238
-0.00931546 0.759 0.00266156 1.5742326e-38 313 238
-0.0079636406 0.75700003 0.0026545466 1.5926368e-38 314 238
-0.0066363667 0.75700003 0.0026545466 1.5834172e-38 315 238
-0.0053090933 0.75700003 0.0026545466 1.6016781e-38 316 238
-0.0039818203 0.75700003 0.0026545466 1.6109336e-38 317 238
-0.0026545466 0.75700003 0.0026545466 1.6201178e-38 318 238
-0.0013272733 0.75700003 0.0026545466 1.6016787e-38 319 238
0 0.755 0.0026475333 1.5924925e-38 320 238
0.0013237667 0.755 0.0026475333 1.5463948e-38 321 238
0.0026545466 0.75700003 0.0026545466 1.5555401e-38 322 238
0.0039818203 0.75700003 0.0026545466 1.5555401e-38 323 238
0.0053231199 0.759 0.00266156 1.5370654e-38 324 238
0.0066538998 0.759 0.00266156 1.5278458e-38 325 238
0.0079846792 0.759 0.00266156 1.5278458e-38 326 238
0.0093400059 0.76099998 0.0026685731 1.5186262e-38 327 238
0.010674292 0.76099998 0.0026685731 1.491075e-38 328 238
0.01202436 0.76200002 0.00267208 1.491075e-38 329 238
0.013342866 0.76099998 0.0026685731 1.4268981e-38 330 238
0.014677152 0.76099998 0.0026685731 1.4453013e-38 331 238
0.01603248 0.76200002 0.00267208 1.4086399e-38 332 238
0.01736852 0.76200002 0.00267208 1.4178594e-38 333 238
0.01870456 0.76200002 0.00267208 1.4086749e-38 334 238
0.0200406 0.76200002 0.00267208 1.3994553e-38 335 238
0.02137664 0.76200002 0.00267208 1.3810511e-38 336 238
0.022772292 0.764 0.0026790933 1.3534284e-38 337 238
0.024206521 0.76700002 0.0026896133 1.3349533e-38 338 238
0.025551327 0.76700002 0.0026896133 1.298111e-38 339 238
0.026966266 0.76899999 0.0026966266 1.2979328e-38 340 238
0.028388219 0.77100003 0.0027036399 1.2702741e-38 341 238
0.029740039 0.77100003 0.0027036399 1.2058135e-38 342 238
0.031091858 0.77100003 0.0027036399 1.2426918e-38 343 238
0.032569919 0.77399999 0.0027141599 1.1418562e-38 344 238
0.033927001 0.77399999 0.0027141599 1.2340878e-38 345 238
-0.039660398 0.77999997 0.0013675999 1.5025732e-38 291 239
-0.038292799 0.77999997 0.0013675999 1.3724516e-38 292 239
-0.036735836 0.77600002 0.0013605866 1.2802201e-38 293 239
-0.03528408 0.77399999 0.0013570799 1.4731067e-38 294 239
-0.033927001 0.77399999 0.0013570799 1.4177894e-38 295 239
-0.032527838 0.773 0.0013553266 1.4818932e-38 296 239
-0.03117251 0.773 0.0013553266 1.463418e-38 297 239
-0.029740039 0.77100003 0.00135182 1.500223e-38 298 239
-0.028314579 0.76899999 0.0013483133 1.500223e-38 299 239
-0.026896132 0.76700002 0.0013448066 1.5003296e-38 300 239
-0.025518013 0.76599997 0.0013430532 1.5095493e-38 301 239
-0.024111839 0.764 0.0013395466 1.537136e-38 302 239
-0.022772292 0.764 0.0013395466 1.537136e-38 303 239
-0.02137664 0.76200002 0.00133604 1.5370651e-38 304 239
-0.0200406 0.76200002 0.00133604 1.5370651e-38 305 239
-0.018680012 0.76099998 0.0013342865 1.5186985e-38 306 239
-0.017345725 0.76099998 0.0013342865 1.5186985e-38 307 239
-0.016011439 0.76099998 0.0013342865 1.5554322e-38 308 239
-0.014677152 0.76099998 0.0013342865 1.5738713e-38 309 239
-0.0133078 0.759 0.00133078 1.5830909e-38 310 239
-0.01197702 0.759 0.00133078 1.5738713e-38 311 239
-0.01064624 0.759 0.00133078 1.5830912e-38 312 239
-0.00931546 0.759 0.00133078 1.5830912e-38 313 239
-0.0079636406 0.75700003 0.0013272733 1.5740162e-38 314 239
-0.0066363667 0.75700003 0.0013272733 1.5647966e-38 315 239
-0.0052950666 0.755 0.0013237667 1.5830926e-38 316 239
-0.0039712996 0.755 0.0013237667 1.5646893e-38 317 239
-0.0026475333 0.755 0.0013237667 1.5829842e-38 318 239
-0.0013237667 0.755 0.0013237667 1.5829842e-38 319 239
0 0.755 0.0013237667 1.5830193e-38 320 239
0.0013237667 0.755 0.0013237667 1.5645443e-38 321 239
0.0026475333 0.755 0.0013237667 1.5553597e-38 322 239
0.0039818203 0.75700003 0.0013272733 1.5553597e-38 323 239
0.0053231199 0.759 0.00133078 1.5278091e-38 324 239
0.0066538998 0.759 0.00133078 1.5185537e-38 325 239
0.0079846792 0.759 0.00133078 1.5002227e-38 326 239
0.0093400059 0.76099998 0.0013342865 1.5002227e-38 327 239
0.010674292 0.76099998 0.0013342865 1.4817836e-38 328 239
0.012008579 0.76099998 0.0013342865 1.4817836e-38 329 239
0.013342866 0.76099998 0.0013342865 1.4359379e-38 330 239
0.014677152 0.76099998 0.0013342865 1.4635605e-38 331 239
0.016011439 0.76099998 0.0013342865 1.4269701e-38 332 239
0.017345725 0.76099998 0.0013342865 1.4361897e-38 333 239
0.018680012 0.76099998 0.0013342865 1.4087105e-38 334 239
0.0200406 0.76200002 0.00133604 1.3902354e-38 335 239
0.02137664 0.76200002 0.00133604 1.362648e-38 336 239
0.02271268 0.76200002 0.00133604 1.3442089e-38 337 239
0.024174958 0.76599997 0.0013430532 1.3256984e-38 338 239
0.025551327 0.76700002 0.0013448066 1.3164788e-38 339 239
0.026896132 0.76700002 0.0013448066 1.2520515e-38 340 239
0.028388219 0.77100003 0.00135182 1.2428319e-38 341 239
0.029740039 0.77100003 0.00135182 1.1784416e-38 342 239
0.031091858 0.77100003 0.00135182 1.1968808e-38 343 239
0.032527838 0.773 0.0013553266 1.1783013e-38 344 239
0.034014668 0.77600002 0.0013605866 1.2704969e-38 345 239
-0.039457016 0.77600002 -0 1.5210484e-38 291 240
-0.038096428 0.77600002 -0 1.3724879e-38 292 240
-0.036641158 0.77399999 -0 1.2526695e-38 293 240
-0.03528408 0.77399999 -0 1.4362288e-38 294 240
-0.033927001 0.77399999 -0 1.4085342e-38 295 240
-0.032527838 0.773 -0 1.4726379e-38 296 240
-0.03117251 0.773 -0 1.4634183e-38 297 240
-0.029740039 0.77100003 -0 1.4542341e-38 298 240
-0.028314579 0.76899999 -0 1.4634536e-38 299 240
-0.026896132 0.76700002 -0 1.4635608e-38 300 240
-0.025518013 0.76599997 -0 1.4635608e-38 301 240
-0.024111839 0.764 -0 1.4727805e-38 302 240
-0.022772292 0.764 -0 1.4820001e-38 303 240
-0.02137664 0.76200002 -0 1.5002963e-38 304 240
-0.0200406 0.76200002 -0 1.5002963e-38 305 240
-0.018680012 0.76099998 -0 1.500296e-38 306 240
-0.017345725 0.76099998 -0 1.500296e-38 307 240
-0.016011439 0.76099998 -0 1.5185556e-38 308 240
-0.014677152 0.76099998 -0 1.5185556e-38 309 240
-0.013342866 0.76099998 -0 1.5186635e-38 310 240
-0.01197702 0.759 -0 1.509444e-38 311 240
-0.01064624 0.759 -0 1.5186282e-38 312 240
-0.00931546 0.759 -0 1.5186282e-38 313 240
-0.0079636406 0.75700003 -0 1.4911862e-38 314 240
-0.0066363667 0.75700003 -0 1.4911862e-38 315 240
-0.0052950666 0.755 -0 1.5187004e-38 316 240
-0.0039712996 0.755 -0 1.5094808e-38 317 240
-0.0026475333 0.755 -0 1.5277757e-38 318 240
-0.0013237667 0.755 -0 1.5369953e-38 319 240
0 0.755 -0 1.5277755e-38 320 240
0.0013237667 0.755 -0 1.5277755e-38 321 240
0.0026475333 0.755 -0 1.5001874e-38 322 240
0.0039818203 0.75700003 -0 1.5001874e-38 323 240
0.0053231199 0.759 -0 1.4727082e-38 324 240
0.0066538998 0.759 -0 1.4634887e-38 325 240
0.0079846792 0.759 -0 1.4727082e-38 326 240
0.00931546 0.759 -0 1.4542691e-38 327 240
0.010674292 0.76099998 -0 1.4726006e-38 328 240
0.012008579 0.76099998 -0 1.4541616e-38 329 240
0.013342866 0.76099998 -0 1.4083881e-38 330 240
0.014677152 0.76099998 -0 1.4176076e-38 331 240
0.016011439 0.76099998 -0 1.390165e-38 332 240
0.017345725 0.76099998 -0 1.390165e-38 333 240
0.018680012 0.76099998 -0 1.3535023e-38 334 240
0.0200406 0.76200002 -0 1.3350631e-38 335 240
0.02137664 0.76200002 -0 1.3258789e-38 336 240
0.02271268 0.76200002 -0 1.3074039e-38 337 240
0.024174958 0.76599997 -0 1.3073319e-38 338 240
0.025518013 0.76599997 -0 1.2796732e-38 339 240
0.026896132 0.76700002 -0 1.261235e-38 340 240
0.028314579 0.76899999 -0 1.2519796e-38 341 240
0.02966289 0.76899999 -0 1.2060285e-38 342 240
0.031011207 0.76899999 -0 1.2060285e-38 343 240
0.032443684 0.77100003 -0 1.1416751e-38 344 240
-0.039457016 0.77600002 -0.0013605866 1.5302679e-38 291 241
-0.038096428 0.77600002 -0.0013605866 1.3540838e-38 292 241
-0.036641158 0.77399999 -0.0013570799 1.2527045e-38 293 241
-0.03528408 0.77399999 -0.0013570799 1.4360837e-38 294 241
-0.033883166 0.773 -0.0013553266 1.4176445e-38 295 241
-0.032527838 0.773 -0.0013553266 1.472565e-38 296 241
-0.031091858 0.77100003 -0.00135182 1.4541619e-38 297 241
-0.02966289 0.76899999 -0.0013483133 1.4632738e-38 298 241
-0.028314579 0.76899999 -0.0013483133 1.4632738e-38 299 241
-0.026896132 0.76700002 -0.0013448066 1.4450492e-38 300 241
-0.025551327 0.76700002 -0.0013448066 1.4450492e-38 301 241
-0.024174958 0.76599997 -0.0013430532 1.4726356e-38 302 241
-0.022772292 0.764 -0.0013395466 1.4726356e-38 303 241
-0.02137664 0.76200002 -0.00133604 1.4817127e-38 304 241
-0.0200406 0.76200002 -0.00133604 1.5001877e-38 305 241
-0.018680012 0.76099998 -0.0013342865 1.5092993e-38 306 241
-0.017345725 0.76099998 -0.0013342865 1.5092993e-38 307 241
-0.016011439 0.76099998 -0.0013342865 1.5092625e-38 308 241
-0.014677152 0.76099998 -0.0013342865 1.5000429e-38 309 241
-0.013342866 0.76099998 -0.0013342865 1.5001501e-38 310 241
-0.01197702 0.759 -0.00133078 1.5001501e-38 311 241
-0.01064624 0.759 -0.00133078 1.4910031e-38 312 241
-0.00931546 0.759 -0.00133078 1.4910031e-38 313 241
-0.0079636406 0.75700003 -0.0013272733 1.4817846e-38 314 241
-0.0066363667 0.75700003 -0.0013272733 1.49104e-38 315 241
-0.0052950666 0.755 -0.0013237667 1.4910394e-38 316 241
-0.0039712996 0.755 -0.0013237667 1.4818199e-38 317 241
-0.0026475333 0.755 -0.0013237667 1.5001501e-38 318 241
-0.0013237667 0.755 -0.0013237667 1.5001501e-38 319 241
0 0.755 -0.0013237667 1.5276293e-38 320 241
0.0013237667 0.755 -0.0013237667 1.5276293e-38 321 241
0.0026475333 0.755 -0.0013237667 1.490895e-38 322 241
0.0039818203 0.75700003 -0.0013272733 1.490895e-38 323 241
0.0053231199 0.759 -0.00133078 1.4725637e-38 324 241
0.0066363667 0.75700003 -0.0013272733 1.4725637e-38 325 241
0.0079636406 0.75700003 -0.0013272733 1.4541616e-38 326 241
0.00931546 0.759 -0.00133078 1.444942e-38 327 241
0.01064624 0.759 -0.00133078 1.4540537e-38 328 241
0.012008579 0.76099998 -0.0013342865 1.4540537e-38 329 241
0.013342866 0.76099998 -0.0013342865 1.3899121e-38 330 241
0.014677152 0.76099998 -0.0013342865 1.3991316e-38 331 241
0.016011439 0.76099998 -0.0013342865 1.3807644e-38 332 241
0.017345725 0.76099998 -0.0013342865 1.3992035e-38 333 241
0.018680012 0.76099998 -0.0013342865 1.3441382e-38 334 241
0.0200406 0.76200002 -0.00133604 1.3441382e-38 335 241
0.02137664 0.76200002 -0.00133604 1.3165872e-38 336 241
0.02271268 0.76200002 -0.00133604 1.2981479e-38 337 241
0.024174958 0.76599997 -0.0013430532 1.2888927e-38 338 241
0.025518013 0.76599997 -0.0013430532 1.2796732e-38 339 241
0.026896132 0.76700002 -0.0013448066 1.2428319e-38 340 241
0.028314579 0.76899999 -0.0013483133 1.2428319e-38 341 241
0.02966289 0.76899999 -0.0013483133 1.1968808e-38 342 241
0.031011207 0.76899999 -0.0013483133 1.2061004e-38 343 241
0.032443684 0.77100003 -0.00135182 1.1506782e-38 344 241
0.033795502 0.77100003 -0.00135182 1.2244347e-38 345 241
-0.039457016 0.77600002 -0.0027211732 1.5303398e-38 291 242
-0.038096428 0.77600002 -0.0027211732 1.3450443e-38 292 242
-0.036641158 0.77399999 -0.0027141599 1.2344097e-38 293 242
-0.03528408 0.77399999 -0.0027141599 1.3902733e-38 294 242
-0.033883166 0.773 -0.0027106532 1.3810538e-38 295 242
-0.032527838 0.773 -0.0027106532 1.4359025e-38 296 242
-0.031091858 0.77100003 -0.0027036399 1.4174634e-38 297 242
-0.02966289 0.76899999 -0.0026966266 1.4356874e-38 298 242
-0.028314579 0.76899999 -0.0026966266 1.4356874e-38 299 242
-0.026896132 0.76700002 -0.0026896133 1.4174634e-38 300 242
-0.025551327 0.76700002 -0.0026896133 1.4174634e-38 301 242
-0.024174958 0.76599997 -0.0026861064 1.4174631e-38 302 242
-0.022772292 0.764 -0.0026790933 1.4174631e-38 303 242
-0.02137664 0.76200002 -0.00267208 1.4356877e-38 304 242
-0.0200406 0.76200002 -0.00267208 1.4449073e-38 305 242
-0.018680012 0.76099998 -0.0026685731 1.4448717e-38 306 242
-0.017345725 0.76099998 -0.0026685731 1.4448717e-38 307 242
-0.016011439 0.76099998 -0.0026685731 1.4724212e-38 308 242
-0.014677152 0.76099998 -0.0026685731 1.4632017e-38 309 242
-0.013342866 0.76099998 -0.0026685731 1.4449776e-38 310 242
-0.01197702 0.759 -0.00266156 1.4449776e-38 311 242
-0.01064624 0.759 -0.00266156 1.4449423e-38 312 242
-0.00931546 0.759 -0.00266156 1.4449423e-38 313 242
-0.0079846792 0.759 -0.00266156 1.444907e-38 314 242
-0.0066363667 0.75700003 -0.0026545466 1.444907e-38 315 242
-0.0052950666 0.755 -0.0026475333 1.4357946e-38 316 242
-0.0039712996 0.755 -0.0026475333 1.4357946e-38 317 242
-0.0026545466 0.75700003 -0.0026545466 1.435686e-38 318 242
-0.0013272733 0.75700003 -0.0026545466 1.4540893e-38 319 242
0 0.755 -0.0026475333 1.4539817e-38 320 242
0.0013237667 0.755 -0.0026475333 1.4539817e-38 321 242
0.0026475333 0.755 -0.0026475333 1.453982e-38 322 242
0.0039818203 0.75700003 -0.0026545466 1.453982e-38 323 242
0.0053090933 0.75700003 -0.0026545466 1.4356151e-38 324 242
0.0066363667 0.75700003 -0.0026545466 1.4356151e-38 325 242
0.0079636406 0.75700003 -0.0026545466 1.4082083e-38 326 242
0.00931546 0.759 -0.00266156 1.3989886e-38 327 242
0.01064624 0.759 -0.00266156 1.3989517e-38 328 242
0.012008579 0.76099998 -0.0026685731 1.3989517e-38 329 242
0.013342866 0.76099998 -0.0026685731 1.3622177e-38 330 242
0.014677152 0.76099998 -0.0026685731 1.3622177e-38 331 242
0.016011439 0.76099998 -0.0026685731 1.316265e-38 332 242
0.017345725 0.76099998 -0.0026685731 1.3438877e-38 333 242
0.018680012 0.76099998 -0.0026685731 1.2980776e-38 334 242
0.0200406 0.76200002 -0.00267208 1.2980776e-38 335 242
0.02137664 0.76200002 -0.00267208 1.2705618e-38 336 242
0.022772292 0.764 -0.0026790933 1.2705618e-38 337 242
0.024174958 0.76599997 -0.0026861064 1.2337559e-38 338 242
0.025551327 0.76700002 -0.0026896133 1.2245004e-38 339 242
0.026896132 0.76700002 -0.0026896133 1.1969147e-38 340 242
0.028314579 0.76899999 -0.0026966266 1.1969147e-38 341 242
0.02966289 0.76899999 -0.0026966266 1.1876615e-38 342 242
0.031011207 0.76899999 -0.0026966266 1.2061007e-38 343 242
0.032443684 0.77100003 -0.0027036399 1.1141241e-38 344 242
0.033795502 0.77100003 -0.0027036399 1.178661e-38 345 242
-0.039457016 0.77600002 -0.0040817601 1.5580343e-38 291 243
-0.037998237 0.77399999 -0.0040712398 1.3450443e-38 292 243
-0.036641158 0.77399999 -0.0040712398 1.2159704e-38 293 243
-0.03528408 0.77399999 -0.0040712398 1.3903099e-38 294 243
-0.033883166 0.773 -0.0040659797 1.3534675e-38 295 243
-0.032527838 0.773 -0.0040659797 1.4267549e-38 296 243
-0.031091858 0.77100003 -0.0040554604 1.3898768e-38 297 243
-0.029740039 0.77100003 -0.0040554604 1.4264675e-38 298 243
-0.028314579 0.76899999 -0.0040449398 1.4172479e-38 299 243
-0.026896132 0.76700002 -0.00403442 1.4081716e-38 300 243
-0.025551327 0.76700002 -0.00403442 1.4081716e-38 301 243
-0.024174958 0.76599997 -0.0040291594 1.4265378e-38 302 243
-0.022831906 0.76599997 -0.0040291594 1.4265378e-38 303 243
-0.02137664 0.76200002 -0.0040081199 1.4264309e-38 304 243
-0.0200406 0.76200002 -0.0040081199 1.4264309e-38 305 243
-0.018680012 0.76099998 -0.0040028598 1.4263956e-38 306 243
-0.017345725 0.76099998 -0.0040028598 1.4356151e-38 307 243
-0.016011439 0.76099998 -0.0040028598 1.4264309e-38 308 243
-0.014677152 0.76099998 -0.0040028598 1.4356505e-38 309 243
-0.013342866 0.76099998 -0.0040028598 1.4264662e-38 310 243
-0.01197702 0.759 -0.0039923396 1.4172466e-38 311 243
-0.01064624 0.759 -0.0039923396 1.4172113e-38 312 243
-0.00931546 0.759 -0.0039923396 1.4172113e-38 313 243
-0.0079846792 0.759 -0.0039923396 1.4172113e-38 314 243
-0.0066363667 0.75700003 -0.0039818203 1.4264309e-38 315 243
-0.0052950666 0.755 -0.0039712996 1.4264662e-38 316 243
-0.0039712996 0.755 -0.0039712996 1.4264662e-38 317 243
-0.0026545466 0.75700003 -0.0039818203 1.4172466e-38 318 243
-0.0013272733 0.75700003 -0.0039818203 1.4172466e-38 319 243
0 0.755 -0.0039712996 1.4263227e-38 320 243
0.0013237667 0.755 -0.0039712996 1.4355423e-38 321 243
0.0026545466 0.75700003 -0.0039818203 1.4262874e-38 322 243
0.0039818203 0.75700003 -0.0039818203 1.4262874e-38 323 243
0.0053090933 0.75700003 -0.0039818203 1.4079211e-38 324 243
0.0066363667 0.75700003 -0.0039818203 1.4079211e-38 325 243
0.0079636406 0.75700003 -0.0039818203 1.3896968e-38 326 243
0.00931546 0.759 -0.0039923396 1.3896968e-38 327 243
0.01064624 0.759 -0.0039923396 1.371293e-38 328 243
0.012008579 0.76099998 -0.0040028598 1.371293e-38 329 243
0.013342866 0.76099998 -0.0040028598 1.343599e-38 330 243
0.014677152 0.76099998 -0.0040028598 1.3343795e-38 331 243
0.016011439 0.76099998 -0.0040028598 1.3251965e-38 332 243
0.017345725 0.76099998 -0.0040028598 1.3436716e-38 333 243
0.01870456 0.76200002 -0.0040081199 1.2795663e-38 334 243
0.0200406 0.76200002 -0.0040081199 1.2887858e-38 335 243
0.02137664 0.76200002 -0.0040081199 1.2613069e-38 336 243
0.022831906 0.76599997 -0.0040291594 1.2520515e-38 337 243
0.024206521 0.76700002 -0.00403442 1.2336125e-38 338 243
0.025551327 0.76700002 -0.00403442 1.2152094e-38 339 243
0.026896132 0.76700002 -0.00403442 1.2059908e-38 340 243
0.028388219 0.77100003 -0.0040554604 1.2059908e-38 341 243
0.029740039 0.77100003 -0.0040554604 1.1785499e-38 342 243
0.031091858 0.77100003 -0.0040554604 1.2153921e-38 343 243
0.032527838 0.773 -0.0040659797 1.1233787e-38 344 243
0.033883166 0.773 -0.0040659797 1.1879156e-38 345 243
-0.037998237 0.77399999 -0.0054283198 1.3542286e-38 292 244
-0.036641158 0.77399999 -0.0054283198 1.2159351e-38 293 244
-0.03528408 0.77399999 -0.0054283198 1.3721957e-38 294 244
-0.033883166 0.773 -0.0054213065 1.3076588e-38 295 244
-0.032527838 0.773 -0.0054213065 1.4175723e-38 296 244
-0.031091858 0.77100003 -0.0054072798 1.3806941e-38 297 244
-0.029740039 0.77100003 -0.0054072798 1.408136e-38 298 244
-0.028314579 0.76899999 -0.0053932532 1.3989164e-38 299 244
-0.026896132 0.76700002 -0.0053792265 1.4173182e-38 300 244
-0.025551327 0.76700002 -0.0053792265 1.4173182e-38 301 244
-0.024174958 0.76599997 -0.0053722127 1.4172817e-38 302 244
-0.022831906 0.76599997 -0.0053722127 1.4172817e-38 303 244
-0.021432746 0.764 -0.0053581866 1.4172464e-38 304 244
-0.020093199 0.764 -0.0053581866 1.4172464e-38 305 244
-0.01870456 0.76200002 -0.0053441599 1.4079918e-38 306 244
-0.017345725 0.76099998 -0.0053371461 1.4172113e-38 307 244
-0.016011439 0.76099998 -0.0053371461 1.4172113e-38 308 244
-0.014677152 0.76099998 -0.0053371461 1.4172113e-38 309 244
-0.013342866 0.76099998 -0.0053371461 1.4079912e-38 310 244
-0.012008579 0.76099998 -0.0053371461 1.4079912e-38 311 244
-0.01064624 0.759 -0.0053231199 1.4079915e-38 312 244
-0.00931546 0.759 -0.0053231199 1.3987719e-38 313 244
-0.0079846792 0.759 -0.0053231199 1.4263583e-38 314 244
-0.0066363667 0.75700003 -0.0053090933 1.4355779e-38 315 244
-0.0052950666 0.755 -0.0052950666 1.4172466e-38 316 244
-0.0039712996 0.755 -0.0052950666 1.4079912e-38 317 244
-0.0026545466 0.75700003 -0.0053090933 1.4079912e-38 318 244
-0.0013272733 0.75700003 -0.0053090933 1.4079912e-38 319 244
0 0.755 -0.0052950666 1.3987716e-38 320 244
0.0013237667 0.755 -0.0052950666 1.3987716e-38 321 244
0.0026545466 0.75700003 -0.0053090933 1.3895168e-38 322 244
0.0039818203 0.75700003 -0.0053090933 1.3895168e-38 323 244
0.0053090933 0.75700003 -0.0053090933 1.3710785e-38 324 244
0.0066363667 0.75700003 -0.0053090933 1.3894817e-38 325 244
0.0079636406 0.75700003 -0.0053090933 1.3435993e-38 326 244
0.0092909131 0.75700003 -0.0053090933 1.3435993e-38 327 244
0.01064624 0.759 -0.0053231199 1.3527107e-38 328 244
0.012008579 0.76099998 -0.0053371461 1.325088e-38 329 244
0.013342866 0.76099998 -0.0053371461 1.3158687e-38 330 244
0.014677152 0.76099998 -0.0053371461 1.3158687e-38 331 244
0.016011439 0.76099998 -0.0053371461 1.2884258e-38 332 244
0.01736852 0.76200002 -0.0053441599 1.306865e-38 333 244
0.01870456 0.76200002 -0.0053441599 1.2427955e-38 334 244
0.0200406 0.76200002 -0.0053441599 1.2520152e-38 335 244
0.021488851 0.76599997 -0.0053722127 1.2428319e-38 336 244
0.022831906 0.76599997 -0.0053722127 1.2336122e-38 337 244
0.024174958 0.76599997 -0.0053722127 1.2242855e-38 338 244
0.025551327 0.76700002 -0.0053792265 1.2150659e-38 339 244
0.026966266 0.76899999 -0.0053932532 1.1966996e-38 340 244
0.028388219 0.77100003 -0.0054072798 1.2059192e-38 341 244
0.029817186 0.773 -0.0054213065 1.1692947e-38 342 244
0.03117251 0.773 -0.0054213065 1.2153924e-38 343 244
0.032527838 0.773 -0.0054213065 1.1326704e-38 344 244
0.033927001 0.77399999 -0.0054283198 1.2340497e-38 345 244
-0.037998237 0.77399999 -0.0067853997 1.3637358e-38 292 245
-0.036641158 0.77399999 -0.0067853997 1.1793446e-38 293 245
-0.03528408 0.77399999 -0.0067853997 1.3905267e-38 294 245
-0.033883166 0.773 -0.0067766332 1.3259897e-38 295 245
-0.032527838 0.773 -0.0067766332 1.3809092e-38 296 245
-0.031091858 0.77100003 -0.0067590997 1.3624342e-38 297 245
-0.029740039 0.77100003 -0.0067590997 1.3990236e-38 298 245
-0.028314579 0.76899999 -0.0067415666 1.3714009e-38 299 245
-0.026966266 0.76899999 -0.0067415666 1.3897319e-38 300 245
-0.025551327 0.76700002 -0.006724033 1.3805123e-38 301 245
-0.024174958 0.76599997 -0.0067152665 1.380512e-38 302 245
-0.022831906 0.76599997 -0.0067152665 1.380512e-38 303 245
-0.021432746 0.764 -0.006697733 1.3896953e-38 304 245
-0.020093199 0.764 -0.006697733 1.3896953e-38 305 245
-0.01870456 0.76200002 -0.0066801999 1.3987719e-38 306 245
-0.017345725 0.76099998 -0.0066714329 1.4079915e-38 307 245
-0.016011439 0.76099998 -0.0066714329 1.3896247e-38 308 245
-0.014677152 0.76099998 -0.0066714329 1.3896247e-38 309 245
-0.013342866 0.76099998 -0.0066714329 1.4079912e-38 310 245
-0.012008579 0.76099998 -0.0066714329 1.3987716e-38 311 245
-0.01064624 0.759 -0.0066538998 1.3895524e-38 312 245
-0.00931546 0.759 -0.0066538998 1.3987719e-38 313 245
-0.0079846792 0.759 -0.0066538998 1.3987366e-38 314 245
-0.0066188332 0.755 -0.0066188332 1.4079562e-38 315 245
-0.0052950666 0.755 -0.0066188332 1.3804051e-38 316 245
-0.0039818203 0.75700003 -0.0066363667 1.3804051e-38 317 245
-0.0026545466 0.75700003 -0.0066363667 1.3804404e-38 318 245
-0.0013272733 0.75700003 -0.0066363667 1.3804404e-38 319 245
0 0.75700003 -0.0066363667 1.3712206e-38 320 245
0.0013272733 0.75700003 -0.0066363667 1.3620009e-38 321 245
0.0026545466 0.75700003 -0.0066363667 1.3619661e-38 322 245
0.0039818203 0.75700003 -0.0066363667 1.3527107e-38 323 245
0.0053090933 0.75700003 -0.0066363667 1.3526403e-38 324 245
0.0066363667 0.75700003 -0.0066363667 1.3434208e-38 325 245
0.0079636406 0.75700003 -0.0066363667 1.3251251e-38 326 245
0.0092909131 0.75700003 -0.0066363667 1.3251251e-38 327 245
0.01064624 0.759 -0.0066538998 1.3250533e-38 328 245
0.01197702 0.759 -0.0066538998 1.3065783e-38 329 245
0.013342866 0.76099998 -0.0066714329 1.2698791e-38 330 245
0.014677152 0.76099998 -0.0066714329 1.2791347e-38 331 245
0.016011439 0.76099998 -0.0066714329 1.2332884e-38 332 245
0.01736852 0.76200002 -0.0066801999 1.2701665e-38 333 245
0.01870456 0.76200002 -0.0066801999 1.2152094e-38 334 245
0.0200406 0.76200002 -0.0066801999 1.2152094e-38 335 245
0.021432746 0.764 -0.006697733 1.2059542e-38 336 245
0.022772292 0.764 -0.006697733 1.2059542e-38 337 245
0.024174958 0.76599997 -0.0067152665 1.1966996e-38 338 245
0.025551327 0.76700002 -0.006724033 1.1874801e-38 339 245
0.026966266 0.76899999 -0.0067415666 1.1690426e-38 340 245
0.028388219 0.77100003 -0.0067590997 1.1967012e-38 341 245
0.029817186 0.773 -0.0067766332 1.150965e-38 342 245
0.03117251 0.773 -0.0067766332 1.1970629e-38 343 245
0.032527838 0.773 -0.0067766332 1.1696581e-38 344 245
0.033927001 0.77399999 -0.0067853997 1.3171711e-38 345 245
-0.037998237 0.77399999 -0.0081424797 1.4191622e-38 292 246
-0.036641158 0.77399999 -0.0081424797 1.2163317e-38 293 246
-0.03528408 0.77399999 -0.0081424797 1.3536858e-38 294 246
-0.033883166 0.773 -0.0081319595 1.3352467e-38 295 246
-0.032527838 0.773 -0.0081319595 1.3534678e-38 296 246
-0.03117251 0.773 -0.0081319595 1.3165537e-38 297 246
-0.029740039 0.77100003 -0.0081109209 1.3806217e-38 298 246
-0.028388219 0.77100003 -0.0081109209 1.3621826e-38 299 246
-0.026966266 0.76899999 -0.0080898795 1.3529262e-38 300 246
-0.025551327 0.76700002 -0.00806884 1.3529262e-38 301 246
-0.024174958 0.76599997 -0.0080583189 1.3895521e-38 302 246
-0.022831906 0.76599997 -0.0080583189 1.3895521e-38 303 246
-0.021432746 0.764 -0.0080372803 1.3895521e-38 304 246
-0.020093199 0.764 -0.0080372803 1.3895521e-38 305 246
-0.01870456 0.76200002 -0.0080162399 1.3895521e-38 306 246
-0.017345725 0.76099998 -0.0080057196 1.3895521e-38 307 246
-0.016011439 0.76099998 -0.0080057196 1.3895877e-38 308 246
-0.014677152 0.76099998 -0.0080057196 1.3988072e-38 309 246
-0.013342866 0.76099998 -0.0080057196 1.3895877e-38 310 246
-0.012008579 0.76099998 -0.0080057196 1.3895877e-38 311 246
-0.010674292 0.76099998 -0.0080057196 1.3894803e-38 312 246
-0.00931546 0.759 -0.0079846792 1.3894803e-38 313 246
-0.0079846792 0.759 -0.0079846792 1.389517e-38 314 246
-0.0066188332 0.755 -0.0079425992 1.3987366e-38 315 246
-0.0052950666 0.755 -0.0079425992 1.3987369e-38 316 246
-0.0039818203 0.75700003 -0.0079636406 1.3987369e-38 317 246
-0.0026545466 0.75700003 -0.0079636406 1.3896252e-38 318 246
-0.0013272733 0.75700003 -0.0079636406 1.3711502e-38 319 246
0 0.75700003 -0.0079636406 1.3619658e-38 320 246
0.0013272733 0.75700003 -0.0079636406 1.3527463e-38 321 246
0.0026545466 0.75700003 -0.0079636406 1.3434911e-38 322 246
0.0039818203 0.75700003 -0.0079636406 1.325088e-38 323 246
0.0053090933 0.75700003 -0.0079636406 1.3250527e-38 324 246
0.0066363667 0.75700003 -0.0079636406 1.3066136e-38 325 246
0.0079636406 0.75700003 -0.0079636406 1.2973583e-38 326 246
0.0092909131 0.75700003 -0.0079636406 1.2973583e-38 327 246
0.01064624 0.759 -0.0079846792 1.2698075e-38 328 246
0.01197702 0.759 -0.0079846792 1.2698075e-38 329 246
0.013342866 0.76099998 -0.0080057196 1.2606595e-38 330 246
0.014677152 0.76099998 -0.0080057196 1.2698791e-38 331 246
0.01603248 0.76200002 -0.0080162399 1.2423999e-38 332 246
0.01736852 0.76200002 -0.0080162399 1.260875e-38 333 246
0.01870456 0.76200002 -0.0080162399 1.2426157e-38 334 246
0.020093199 0.764 -0.0080372803 1.2426157e-38 335 246
0.021432746 0.764 -0.0080372803 1.2149937e-38 336 246
0.022772292 0.764 -0.0080372803 1.2057742e-38 337 246
0.024174958 0.76599997 -0.0080583189 1.1781883e-38 338 246
0.025551327 0.76700002 -0.00806884 1.1781883e-38 339 246
0.026966266 0.76899999 -0.0080898795 1.1506032e-38 340 246
0.028388219 0.77100003 -0.0081109209 1.1690782e-38 341 246
0.029817186 0.773 -0.0081319595 1.1417808e-38 342 246
0.03117251 0.773 -0.0081319595 1.1510004e-38 343 246
0.032527838 0.773 -0.0081319595 1.2527062e-38 344 246
-0.037998237 0.77399999 -0.0094995592 1.4746965e-38 292 247
-0.036641158 0.77399999 -0.0094995592 1.2442076e-38 293 247
-0.03528408 0.77399999 -0.0094995592 1.3445393e-38 294 247
-0.033927001 0.77399999 -0.0094995592 1.3260642e-38 295 247
-0.032527838 0.773 -0.0094872871 1.3534322e-38 296 247
-0.03117251 0.773 -0.0094872871 1.3165181e-38 297 247
-0.029740039 0.77100003 -0.0094627403 1.3531426e-38 298 247
-0.028388219 0.77100003 -0.0094627403 1.3163003e-38 299 247
-0.026966266 0.76899999 -0.0094381925 1.3529265e-38 300 247
-0.025551327 0.76700002 -0.0094136465 1.343671e-38 301 247
-0.024174958 0.76599997 -0.0094013726 1.3528193e-38 302 247
-0.022831906 0.76599997 -0.0094013726 1.3435996e-38 303 247
-0.021432746 0.764 -0.0093768267 1.3435993e-38 304 247
-0.020093199 0.764 -0.0093768267 1.352819e-38 305 247
-0.01870456 0.76200002 -0.0093522798 1.3619661e-38 306 247
-0.017345725 0.76099998 -0.0093400059 1.3711858e-38 307 247
-0.016011439 0.76099998 -0.0093400059 1.3711855e-38 308 247
-0.014677152 0.76099998 -0.0093400059 1.3619658e-38 309 247
-0.013342866 0.76099998 -0.0093400059 1.3619305e-38 310 247
-0.012008579 0.76099998 -0.0093400059 1.3619305e-38 311 247
-0.010674292 0.76099998 -0.0093400059 1.3435996e-38 312 247
-0.00931546 0.759 -0.00931546 1.3435996e-38 313 247
-0.0079846792 0.759 -0.00931546 1.334416e-38 314 247
-0.0066363667 0.75700003 -0.0092909131 1.3528912e-38 315 247
-0.0053090933 0.75700003 -0.0092909131 1.3529275e-38 316 247
-0.0039923396 0.759 -0.00931546 1.3345244e-38 317 247
-0.00266156 0.759 -0.00931546 1.3344166e-38 318 247
-0.0013272733 0.75700003 -0.0092909131 1.3251612e-38 319 247
0 0.75700003 -0.0092909131 1.3343444e-38 320 247
0.0013272733 0.75700003 -0.0092909131 1.3251249e-38 321 247
0.0026545466 0.75700003 -0.0092909131 1.3066855e-38 322 247
0.0039818203 0.75700003 -0.0092909131 1.3066855e-38 323 247
0.0053090933 0.75700003 -0.0092909131 1.288247e-38 324 247
0.0066363667 0.75700003 -0.0092909131 1.2698078e-38 325 247
0.0079636406 0.75700003 -0.0092909131 1.2697722e-38 326 247
0.0092909131 0.75700003 -0.0092909131 1.2697722e-38 327 247
0.01064624 0.759 -0.00931546 1.2423286e-38 328 247
0.01197702 0.759 -0.00931546 1.233109e-38 329 247
0.013342866 0.76099998 -0.0093400059 1.2147419e-38 330 247
0.014677152 0.76099998 -0.0093400059 1.2239974e-38 331 247
0.01603248 0.76200002 -0.0093522798 1.1964475e-38 332 247
0.01736852 0.76200002 -0.0093522798 1.2056672e-38 333 247
0.018753653 0.764 -0.0093768267 1.1781883e-38 334 247
0.020093199 0.764 -0.0093768267 1.1874079e-38 335 247
0.021432746 0.764 -0.0093768267 1.159929e-38 336 247
0.022831906 0.76599997 -0.0094013726 1.1506736e-38 337 247
0.024206521 0.76700002 -0.0094136465 1.1414188e-38 338 247
0.025551327 0.76700002 -0.0094136465 1.1414188e-38 339 247
0.026966266 0.76899999 -0.0094381925 1.1323091e-38 340 247
0.028388219 0.77100003 -0.0094627403 1.1507483e-38 341 247
0.029817186 0.773 -0.0094872871 1.1233787e-38 342 247
0.031212838 0.77399999 -0.0094995592 1.1602568e-38 343 247
0.032569919 0.77399999 -0.0094995592 1.2805816e-38 344 247
-0.037998237 0.77399999 -0.01085664 1.5208669e-38 292 248
-0.036641158 0.77399999 -0.01085664 1.3364757e-38 293 248
-0.03528408 0.77399999 -0.01085664 1.353832e-38 294 248
-0.033927001 0.77399999 -0.01085664 1.3077702e-38 295 248
-0.032527838 0.773 -0.010842613 1.335138e-38 296 248
-0.03117251 0.773 -0.010842613 1.3074433e-38 297 248
-0.029740039 0.77100003 -0.01081456 1.334741e-38 298 248
-0.028314579 0.76899999 -0.010786506 1.3163019e-38 299 248
-0.026896132 0.76700002 -0.010758453 1.3345244e-38 300 248
-0.025551327 0.76700002 -0.010758453 1.3253048e-38 301 248
-0.024174958 0.76599997 -0.010744425 1.3435996e-38 302 248
-0.022831906 0.76599997 -0.010744425 1.3343441e-38 303 248
-0.021432746 0.764 -0.010716373 1.3343444e-38 304 248
-0.020093199 0.764 -0.010716373 1.343564e-38 305 248
-0.01870456 0.76200002 -0.01068832 1.352711e-38 306 248
-0.017345725 0.76099998 -0.010674292 1.352711e-38 307 248
-0.016011439 0.76099998 -0.010674292 1.3526391e-38 308 248
-0.014677152 0.76099998 -0.010674292 1.3526391e-38 309 248
-0.013342866 0.76099998 -0.010674292 1.3526391e-38 310 248
-0.012008579 0.76099998 -0.010674292 1.3526391e-38 311 248
-0.010674292 0.76099998 -0.010674292 1.3251602e-38 312 248
-0.00931546 0.759 -0.01064624 1.3251602e-38 313 248
-0.0079846792 0.759 -0.01064624 1.334416e-38 314 248
-0.0066538998 0.759 -0.01064624 1.3436716e-38 315 248
-0.0053231199 0.759 -0.01064624 1.3253048e-38 316 248
-0.0040028598 0.76099998 -0.010674292 1.3068655e-38 317 248
-0.00266156 0.759 -0.01064624 1.3250895e-38 318 248
-0.00133078 0.759 -0.01064624 1.3250895e-38 319 248
0 0.759 -0.01064624 1.3250177e-38 320 248
0.00133078 0.759 -0.01064624 1.3250177e-38 321 248
0.00266156 0.759 -0.01064624 1.2882473e-38 322 248
0.0039923396 0.759 -0.01064624 1.2882473e-38 323 248
0.0053090933 0.75700003 -0.010618187 1.2697725e-38 324 248
0.0066363667 0.75700003 -0.010618187 1.2605529e-38 325 248
0.0079636406 0.75700003 -0.010618187 1.2605526e-38 326 248
0.0092909131 0.75700003 -0.010618187 1.2605526e-38 327 248
0.01064624 0.759 -0.01064624 1.2147775e-38 328 248
0.012008579 0.76099998 -0.010674292 1.2147775e-38 329 248
0.013342866 0.76099998 -0.010674292 1.2055224e-38 330 248
0.01469644 0.76200002 -0.01068832 1.2055224e-38 331 248
0.01603248 0.76200002 -0.01068832 1.1871561e-38 332 248
0.017414106 0.764 -0.010716373 1.2055592e-38 333 248
0.018753653 0.764 -0.010716373 1.1688612e-38 334 248
0.020093199 0.764 -0.010716373 1.1688612e-38 335 248
0.021432746 0.764 -0.010716373 1.1596416e-38 336 248
0.022831906 0.76599997 -0.010744425 1.1596416e-38 337 248
0.024206521 0.76700002 -0.010758453 1.1321637e-38 338 248
