# .PCD v.7 - Point Cloud Data file format
FIELDS x y z rgb imX imY
SIZE 4 4 4 4 4 4
TYPE F F F F F F
COUNT 1 1 1 1 1 1
WIDTH 842
HEIGHT 1
VIEWPOINT 0 0 0 1 0 0 0
POINTS 842
DATA ascii
0.032685637 0.71700001 -0.017599959 1.5830558e-38 346 254
0.033942781 0.71700001 -0.017599959 1.5738363e-38 347 254
0.035199918 0.71700001 -0.017599959 1.5000429e-38 348 254
0.036457058 0.71700001 -0.017599959 1.3801886e-38 349 254
0.0037872 0.72000003 -0.018935999 1.6114747e-38 323 255
0.0050425865 0.71899998 -0.018909698 1.7398241e-38 324 255
0.0063032326 0.71899998 -0.018909698 1.7766664e-38 325 255
0.0075638802 0.71899998 -0.018909698 1.8136528e-38 326 255
0.0087999795 0.71700001 -0.018857099 1.8412755e-38 327 255
0.01005712 0.71700001 -0.018857099 1.822981e-38 328 255
0.01129848 0.71600002 -0.0188308 1.8506397e-38 329 255
0.012553867 0.71600002 -0.0188308 1.8874794e-38 330 255
0.013809253 0.71600002 -0.0188308 1.8598207e-38 331 255
0.01506464 0.71600002 -0.0188308 1.8413809e-38 332 255
0.016320027 0.71600002 -0.0188308 1.8229778e-38 333 255
0.017575413 0.71600002 -0.0188308 1.8228345e-38 334 255
0.0188308 0.71600002 -0.0188308 1.7952119e-38 335 255
0.020086186 0.71600002 -0.0188308 1.7491156e-38 336 255
0.021281958 0.71399999 -0.018778199 1.721421e-38 337 255
0.022502279 0.713 -0.018751899 1.6112553e-38 338 255
0.023752406 0.713 -0.018751899 1.6112553e-38 339 255
0.025037598 0.71399999 -0.018778199 1.6112203e-38 340 255
0.026289478 0.71399999 -0.018778199 1.6020007e-38 341 255
0.02754136 0.71399999 -0.018778199 1.6019283e-38 342 255
0.028793238 0.71399999 -0.018778199 1.5834891e-38 343 255
0.030171359 0.71700001 -0.018857099 1.5925275e-38 344 255
0.031384666 0.71600002 -0.0188308 1.5740525e-38 345 255
0.032640055 0.71600002 -0.0188308 1.564868e-38 346 255
0.03389544 0.71600002 -0.0188308 1.5464647e-38 347 255
0.035150826 0.71600002 -0.0188308 1.5372452e-38 348 255
0.036406212 0.71600002 -0.0188308 1.5095865e-38 349 255
0.037661601 0.71600002 -0.0188308 1.5001538e-38 350 255
0.038916986 0.71600002 -0.0188308 1.4724949e-38 351 255
0.040228479 0.71700001 -0.018857099 1.3710842e-38 352 255
0.0012624001 0.72000003 -0.020198401 1.7683528e-38 321 256
0.0025248001 0.72000003 -0.020198401 1.7032699e-38 322 256
0.0037819401 0.71899998 -0.020170346 1.6940503e-38 323 256
0.0050425865 0.71899998 -0.020170346 1.7767718e-38 324 256
0.0063032326 0.71899998 -0.020170346 1.8044665e-38 325 256
0.0075638802 0.71899998 -0.020170346 1.8230143e-38 326 256
0.0087999795 0.71700001 -0.020114239 1.8230143e-38 327 256
0.01005712 0.71700001 -0.020114239 1.8414539e-38 328 256
0.01129848 0.71600002 -0.020086186 1.8690766e-38 329 256
0.012553867 0.71600002 -0.020086186 1.8507085e-38 330 256
0.01377068 0.71399999 -0.020030079 1.8507085e-38 331 256
0.015022559 0.71399999 -0.020030079 1.8873346e-38 332 256
0.016274439 0.71399999 -0.020030079 1.8596758e-38 333 256
0.017526319 0.71399999 -0.020030079 1.8320541e-38 334 256
0.018778199 0.71399999 -0.020030079 1.7859563e-38 335 256
0.020002026 0.713 -0.020002026 1.6756109e-38 336 256
0.021192541 0.71100003 -0.01994592 1.6571716e-38 337 256
0.022439159 0.71100003 -0.01994592 1.5195989e-38 338 256
0.023685781 0.71100003 -0.01994592 1.5195989e-38 339 256
0.025002534 0.713 -0.020002026 1.5289649e-38 340 256
0.026179021 0.71100003 -0.01994592 1.5013062e-38 341 256
0.027425639 0.71100003 -0.01994592 1.4184743e-38 342 256
0.028672259 0.71100003 -0.01994592 1.3724124e-38 343 256
0.030003037 0.713 -0.020002026 1.5649058e-38 344 256
0.031296998 0.71399999 -0.020030079 1.5556862e-38 345 256
0.032548878 0.71399999 -0.020030079 1.5740881e-38 346 256
0.033753417 0.713 -0.020002026 1.5372098e-38 347 256
0.035003547 0.713 -0.020002026 1.5371019e-38 348 256
0.036304519 0.71399999 -0.020030079 1.5186988e-38 349 256
0.037556399 0.71399999 -0.020030079 1.5185559e-38 350 256
0.038916986 0.71600002 -0.020086186 1.5001526e-38 351 256
0.040172372 0.71600002 -0.020086186 1.4266126e-38 352 256
0.041427758 0.71600002 -0.020086186 1.3436007e-38 353 256
0.042683143 0.71600002 -0.020086186 1.1965602e-38 354 256
0.043938532 0.71600002 -0.020086186 1.3440734e-38 355 256
-0.0012606466 0.71899998 -0.021430992 1.6866758e-38 319 257
0 0.72000003 -0.021460801 1.7212806e-38 320 257
0.0012624001 0.72000003 -0.021460801 1.6936578e-38 321 257
0.0025212932 0.71899998 -0.021430992 1.7675169e-38 322 257
0.0037714199 0.71700001 -0.021371379 1.8320538e-38 323 257
0.0050285598 0.71700001 -0.021371379 1.8413087e-38 324 257
0.0062857 0.71700001 -0.021371379 1.8505641e-38 325 257
0.0075428397 0.71700001 -0.021371379 1.8322689e-38 326 257
0.0087877065 0.71600002 -0.021341572 1.8414886e-38 327 257
0.010043093 0.71600002 -0.021341572 1.8691116e-38 328 257
0.01129848 0.71600002 -0.021341572 1.878367e-38 329 257
0.012518799 0.71399999 -0.021281958 1.8875866e-38 330 257
0.01377068 0.71399999 -0.021281958 1.878367e-38 331 257
0.015022559 0.71399999 -0.021281958 1.8966261e-38 332 257
0.016251646 0.713 -0.021252153 1.8505641e-38 333 257
0.017501773 0.713 -0.021252153 1.8320538e-38 334 257
0.018751899 0.713 -0.021252153 1.7859919e-38 335 257
0.01994592 0.71100003 -0.021192541 1.6298005e-38 336 257
0.021192541 0.71100003 -0.021192541 1.6113254e-38 337 257
0.022407599 0.70999998 -0.021162732 1.3729496e-38 338 257
0.023652466 0.70999998 -0.021162732 1.4282311e-38 339 257
0.024932399 0.71100003 -0.021192541 1.5199271e-38 340 257
0.026179021 0.71100003 -0.021192541 1.4830847e-38 341 257
0.027425639 0.71100003 -0.021192541 1.3450791e-38 342 257
0.028672259 0.71100003 -0.021192541 1.2805421e-38 343 257
0.029918881 0.71100003 -0.021192541 1.4915815e-38 344 257
0.031253166 0.713 -0.021252153 1.500801e-38 345 257
0.032503292 0.713 -0.021252153 1.5740878e-38 346 257
0.033658739 0.71100003 -0.021192541 1.5372454e-38 347 257
0.034905359 0.71100003 -0.021192541 1.5553969e-38 348 257
0.036253672 0.713 -0.021252153 1.5369938e-38 349 257
0.037503798 0.713 -0.021252153 1.5277033e-38 350 257
0.038753927 0.713 -0.021252153 1.5277033e-38 351 257
0.040004052 0.713 -0.021252153 1.5185203e-38 352 257
0.041254178 0.713 -0.021252153 1.5001171e-38 353 257
0.042504307 0.713 -0.021252153 1.4173227e-38 354 257
0.043938532 0.71600002 -0.021341572 1.2974684e-38 355 257
0.045193922 0.71600002 -0.021341572 1.104906e-38 356 257
0.046514176 0.71700001 -0.021371379 1.3353951e-38 357 257
-0.0025142799 0.71700001 -0.02262852 1.6860612e-38 318 258
-0.0012606466 0.71899998 -0.022691639 1.5200732e-38 319 258
0 0.71899998 -0.022691639 1.7213863e-38 320 258
0.0012606466 0.71899998 -0.022691639 1.749045e-38 321 258
0.0025142799 0.71700001 -0.02262852 1.7952832e-38 322 258
0.0037714199 0.71700001 -0.02262852 1.8137582e-38 323 258
0.0050285598 0.71700001 -0.02262852 1.8505636e-38 324 258
0.0062857 0.71700001 -0.02262852 1.8597831e-38 325 258
0.0075428397 0.71700001 -0.02262852 1.8507435e-38 326 258
0.0087877065 0.71600002 -0.022596961 1.8691825e-38 327 258
0.01001504 0.71399999 -0.022533838 1.8692554e-38 328 258
0.011266919 0.71399999 -0.022533838 1.8968782e-38 329 258
0.012518799 0.71399999 -0.022533838 1.8785835e-38 330 258
0.013751393 0.713 -0.022502279 1.8601804e-38 331 258
0.015001519 0.713 -0.022502279 1.8692917e-38 332 258
0.016251646 0.713 -0.022502279 1.823194e-38 333 258
0.01745268 0.71100003 -0.022439159 1.8046102e-38 334 258
0.0186993 0.71100003 -0.022439159 1.7031952e-38 335 258
0.01994592 0.71100003 -0.022439159 1.5375673e-38 336 258
0.021162732 0.70999998 -0.022407599 1.4730304e-38 337 258
0.022407599 0.70999998 -0.022407599 1.189027e-38 338 258
0.023652466 0.70999998 -0.022407599 1.3826378e-38 339 258
0.024897331 0.70999998 -0.022407599 1.4923054e-38 340 258
0.026142199 0.70999998 -0.022407599 1.3632674e-38 341 258
0.027387066 0.70999998 -0.022407599 1.2434105e-38 342 258
0.028631933 0.70999998 -0.022407599 1.1696539e-38 343 258
0.029876797 0.70999998 -0.022407599 1.399745e-38 344 258
0.031165501 0.71100003 -0.022439159 1.50116e-38 345 258
0.032412119 0.71100003 -0.022439159 1.5744481e-38 346 258
0.033658739 0.71100003 -0.022439159 1.5375338e-38 347 258
0.034905359 0.71100003 -0.022439159 1.582984e-38 348 258
0.036151983 0.71100003 -0.022439159 1.5737644e-38 349 258
0.037398599 0.71100003 -0.022439159 1.5370303e-38 350 258
0.038645219 0.71100003 -0.022439159 1.5278108e-38 351 258
0.039891839 0.71100003 -0.022439159 1.5277033e-38 352 258
0.041138459 0.71100003 -0.022439159 1.5184836e-38 353 258
0.042683143 0.71600002 -0.022596961 1.4724947e-38 354 258
0.043938532 0.71600002 -0.022596961 1.4171773e-38 355 258
0.045193922 0.71600002 -0.022596961 1.2884656e-38 356 258
0.046514176 0.71700001 -0.02262852 1.3069048e-38 357 258
0.04777132 0.71700001 -0.02262852 1.0963721e-38 358 258
0.0492336 0.72000003 -0.022723202 1.4190568e-38 359 258
-0.00376616 0.71600002 -0.023852346 1.6685967e-38 317 259
-0.0025142799 0.71700001 -0.02388566 1.6390959e-38 318 259
-0.00125714 0.71700001 -0.02388566 1.5376805e-38 319 259
0 0.71700001 -0.02388566 1.7952835e-38 320 259
0.00125714 0.71700001 -0.02388566 1.8137226e-38 321 259
0.0025107733 0.71600002 -0.023852346 1.8412368e-38 322 259
0.00376616 0.71600002 -0.023852346 1.8596758e-38 323 259
0.0050215465 0.71600002 -0.023852346 1.8689307e-38 324 259
0.0062769335 0.71600002 -0.023852346 1.8873699e-38 325 259
0.00753232 0.71600002 -0.023852346 1.86904e-38 326 259
0.0087631596 0.71399999 -0.02378572 1.9059181e-38 327 259
0.010001013 0.713 -0.023752406 1.8785119e-38 328 259
0.01121958 0.71100003 -0.023685781 1.9245737e-38 329 259
0.0124662 0.71100003 -0.023685781 1.924609e-38 330 259
0.01371282 0.71100003 -0.023685781 1.9153895e-38 331 259
0.014959441 0.71100003 -0.023685781 1.9060259e-38 332 259
0.01620606 0.71100003 -0.023685781 1.878367e-38 333 259
0.01745268 0.71100003 -0.023685781 1.8045731e-38 334 259
0.018672999 0.70999998 -0.023652466 1.6939742e-38 335 259
0.019917866 0.70999998 -0.023652466 1.5832666e-38 336 259
0.021162732 0.70999998 -0.023652466 1.5187297e-38 337 259
0.022407599 0.70999998 -0.023652466 1.2525199e-38 338 259
0.023652466 0.70999998 -0.023652466 1.4185081e-38 339 259
0.024897331 0.70999998 -0.023652466 1.4279094e-38 340 259
0.026068559 0.708 -0.023585839 1.1789812e-38 341 259
0.027309919 0.708 -0.023585839 1.169435e-38 342 259
0.028631933 0.70999998 -0.023652466 1.1879101e-38 343 259
0.029876797 0.70999998 -0.023652466 1.4914014e-38 344 259
0.031121666 0.70999998 -0.023652466 1.6389144e-38 345 259
0.032366529 0.70999998 -0.023652466 1.6479898e-38 346 259
0.033611398 0.70999998 -0.023652466 1.6202951e-38 347 259
0.034856264 0.70999998 -0.023652466 1.6015304e-38 348 259
0.036101133 0.70999998 -0.023652466 1.5923107e-38 349 259
0.037345998 0.70999998 -0.023652466 1.5830543e-38 350 259
0.038590867 0.70999998 -0.023652466 1.5646152e-38 351 259
0.039835732 0.70999998 -0.023652466 1.5735843e-38 352 259
0.041138459 0.71100003 -0.023685781 1.5551451e-38 353 259
0.042504307 0.713 -0.023752406 1.5091919e-38 354 259
0.043754432 0.713 -0.023752406 1.4999723e-38 355 259
0.045067675 0.71399999 -0.02378572 1.4448717e-38 356 259
0.046319555 0.71399999 -0.02378572 1.3618955e-38 357 259
0.047704693 0.71600002 -0.023852346 1.1224078e-38 358 259
0.04902846 0.71700001 -0.02388566 1.1777252e-38 359 259
0.0502856 0.71700001 -0.02388566 1.327547e-38 360 259
-0.0050285598 0.71700001 -0.0251428 1.7417023e-38 316 260
-0.00376616 0.71600002 -0.025107734 1.4282372e-38 317 260
-0.0025107733 0.71600002 -0.025107734 1.7214939e-38 318 260
-0.0012553866 0.71600002 -0.025107734 1.7583722e-38 319 260
0 0.71600002 -0.025107734 1.8228699e-38 320 260
0.0012553866 0.71600002 -0.025107734 1.8320894e-38 321 260
0.0025037599 0.71399999 -0.025037598 1.8596752e-38 322 260
0.0037556398 0.71399999 -0.025037598 1.8689307e-38 323 260
0.0050075199 0.71399999 -0.025037598 1.8781146e-38 324 260
0.0062593995 0.71399999 -0.025037598 1.8873344e-38 325 260
0.0075007593 0.713 -0.025002534 1.9057387e-38 326 260
0.0087508867 0.713 -0.025002534 1.9241418e-38 327 260
0.0099729598 0.71100003 -0.024932399 1.915247e-38 328 260
0.011203799 0.70999998 -0.024897331 1.933722e-38 329 260
0.012448666 0.70999998 -0.024897331 1.9154637e-38 330 260
0.013693533 0.70999998 -0.024897331 1.9062442e-38 331 260
0.01489632 0.708 -0.024827199 1.8879483e-38 332 260
0.01613768 0.708 -0.024827199 1.8326309e-38 333 260
0.017428132 0.70999998 -0.024897331 1.8230131e-38 334 260
0.018672999 0.70999998 -0.024897331 1.7768792e-38 335 260
0.019917866 0.70999998 -0.024897331 1.7673707e-38 336 260
0.021103119 0.708 -0.024827199 1.7028338e-38 337 260
0.022344479 0.708 -0.024827199 1.4822505e-38 338 260
0.023585839 0.708 -0.024827199 1.4729951e-38 339 260
0.024827199 0.708 -0.024827199 1.3255581e-38 340 260
0.026068559 0.708 -0.024827199 1.2518015e-38 341 260
0.027309919 0.708 -0.024827199 1.3166634e-38 342 260
0.02855128 0.708 -0.024827199 1.4917992e-38 343 260
0.02979264 0.708 -0.024827199 1.6755408e-38 344 260
0.031034 0.708 -0.024827199 1.6662854e-38 345 260
0.03227536 0.708 -0.024827199 1.6478449e-38 346 260
0.033516716 0.708 -0.024827199 1.6017471e-38 347 260
0.034758076 0.708 -0.024827199 1.6015317e-38 348 260
0.03599944 0.708 -0.024827199 1.5923121e-38 349 260
0.037345998 0.70999998 -0.024897331 1.5830926e-38 350 260
0.038590867 0.70999998 -0.024897331 1.5554697e-38 351 260
0.039835732 0.70999998 -0.024897331 1.5552897e-38 352 260
0.041080594 0.70999998 -0.024897331 1.5460701e-38 353 260
0.042385083 0.71100003 -0.024932399 1.4817127e-38 354 260
0.043631699 0.71100003 -0.024932399 1.4817127e-38 355 260
0.045004558 0.713 -0.025002534 1.4449426e-38 356 260
0.046319555 0.71399999 -0.025037598 1.4449426e-38 357 260
0.047704693 0.71600002 -0.025107734 1.4080662e-38 358 260
0.04902846 0.71700001 -0.0251428 1.3343097e-38 359 260
0.0502856 0.71700001 -0.0251428 9.2987896e-39 360 260
0.051542737 0.71700001 -0.0251428 1.3355756e-38 361 260
0.052799881 0.71700001 -0.0251428 1.429216e-38 362 260
-0.0037714199 0.71700001 -0.02639994 1.4644279e-38 317 261
-0.0025107733 0.71600002 -0.026363119 1.7675525e-38 318 261
-0.0012553866 0.71600002 -0.026363119 1.8228699e-38 319 261
0 0.71399999 -0.026289478 1.8412724e-38 320 261
0.00125188 0.71399999 -0.026289478 1.8688951e-38 321 261
0.0025002533 0.713 -0.026252659 1.8781853e-38 322 261
0.0037503797 0.713 -0.026252659 1.8966245e-38 323 261
0.0050005065 0.713 -0.026252659 1.8690031e-38 324 261
0.0062506334 0.713 -0.026252659 1.8690031e-38 325 261
0.0074797203 0.71100003 -0.026179021 1.8506734e-38 326 261
0.0087263398 0.71100003 -0.026179021 1.8782961e-38 327 261
0.0099589331 0.70999998 -0.026142199 1.8600748e-38 328 261
0.01117224 0.708 -0.026068559 1.8784779e-38 329 261
0.0124136 0.708 -0.026068559 1.8969538e-38 330 261
0.013654959 0.708 -0.026068559 1.915429e-38 331 261
0.01487528 0.70700002 -0.02603174 1.9153921e-38 332 261
0.016114887 0.70700002 -0.02603174 1.9061724e-38 333 261
0.017379038 0.708 -0.026068559 1.8782961e-38 334 261
0.0186204 0.708 -0.026068559 1.8230146e-38 335 261
0.01986176 0.708 -0.026068559 1.8044662e-38 336 261
0.021103119 0.708 -0.026068559 1.7675878e-38 337 261
0.022344479 0.708 -0.026068559 1.6755361e-38 338 261
0.023585839 0.708 -0.026068559 1.5741569e-38 339 261
0.024827199 0.708 -0.026068559 1.4454811e-38 340 261
0.02603174 0.70700002 -0.02603174 1.5007985e-38 341 261
0.027271347 0.70700002 -0.02603174 1.5742342e-38 342 261
0.028510952 0.70700002 -0.02603174 1.6111484e-38 343 261
0.029750559 0.70700002 -0.02603174 1.6663563e-38 344 261
0.030990168 0.70700002 -0.02603174 1.6386976e-38 345 261
0.032229774 0.70700002 -0.02603174 1.6661392e-38 346 261
0.033469379 0.70700002 -0.02603174 1.6200414e-38 347 261
0.034708988 0.70700002 -0.02603174 1.6108222e-38 348 261
0.035948593 0.70700002 -0.02603174 1.5923472e-38 349 261
0.0372408 0.708 -0.026068559 1.5830561e-38 350 261
0.038482159 0.708 -0.026068559 1.5738007e-38 351 261
0.039723519 0.708 -0.026068559 1.5277386e-38 352 261
0.040964879 0.708 -0.026068559 1.5185189e-38 353 261
0.042325463 0.70999998 -0.026142199 1.4909678e-38 354 261
0.043631699 0.71100003 -0.026179021 1.4817483e-38 355 261
0.044878319 0.71100003 -0.026179021 1.4725287e-38 356 261
0.046124939 0.71100003 -0.026179021 1.4540537e-38 357 261
0.047704693 0.71600002 -0.026363119 1.4357228e-38 358 261
0.048960082 0.71600002 -0.026363119 1.4080281e-38 359 261
0.050215468 0.71600002 -0.026363119 1.1869423e-38 360 261
0.051542737 0.71700001 -0.02639994 1.2054173e-38 361 261
0.052799881 0.71700001 -0.02639994 1.1154599e-38 362 261
0.054057021 0.71700001 -0.02639994 1.493462e-38 363 261
-0.0050285598 0.71700001 -0.027657079 1.6482059e-38 316 262
-0.0037714199 0.71700001 -0.027657079 1.6482059e-38 317 262
-0.0025107733 0.71600002 -0.027618507 1.8044309e-38 318 262
-0.0012553866 0.71600002 -0.027618507 1.8320894e-38 319 262
0 0.71399999 -0.02754136 1.8505639e-38 320 262
0.00125188 0.71399999 -0.02754136 1.8874062e-38 321 262
0.0025002533 0.713 -0.027502786 1.8507435e-38 322 262
0.0037398601 0.71100003 -0.027425639 1.8691825e-38 323 262
0.0049864799 0.71100003 -0.027425639 1.8874062e-38 324 262
0.0062243328 0.70999998 -0.027387066 1.8690031e-38 325 262
0.0074691991 0.70999998 -0.027387066 1.8507088e-38 326 262
0.008689519 0.708 -0.027309919 1.8507088e-38 327 262
0.0099308798 0.708 -0.027309919 1.8689694e-38 328 262
0.011156459 0.70700002 -0.027271347 1.9058475e-38 329 262
0.012396066 0.70700002 -0.027271347 1.905957e-38 330 262
0.013635674 0.70700002 -0.027271347 1.9243962e-38 331 262
0.01487528 0.70700002 -0.027271347 1.9245764e-38 332 262
0.016114887 0.70700002 -0.027271347 1.9153568e-38 333 262
0.017354494 0.70700002 -0.027271347 1.9059926e-38 334 262
0.018594101 0.70700002 -0.027271347 1.8783341e-38 335 262
0.019833706 0.70700002 -0.027271347 1.8691497e-38 336 262
0.021073313 0.70700002 -0.027271347 1.8414551e-38 337 262
0.022312919 0.70700002 -0.027271347 1.8045033e-38 338 262
0.023552528 0.70700002 -0.027271347 1.7860283e-38 339 262
0.024792133 0.70700002 -0.027271347 1.7679856e-38 340 262
0.025994917 0.70599997 -0.027232772 1.8048999e-38 341 262
0.027232772 0.70599997 -0.027232772 1.8043974e-38 342 262
0.028470624 0.70599997 -0.027232772 1.7491159e-38 343 262
0.029708479 0.70599997 -0.027232772 1.7215998e-38 344 262
0.030946331 0.70599997 -0.027232772 1.6939051e-38 345 262
0.032184184 0.70599997 -0.027232772 1.675466e-38 346 262
0.033422034 0.70599997 -0.027232772 1.6201486e-38 347 262
0.034659892 0.70599997 -0.027232772 1.6200417e-38 348 262
0.035897743 0.70599997 -0.027232772 1.5923472e-38 349 262
0.037188202 0.70700002 -0.027271347 1.5646893e-38 350 262
0.038427804 0.70700002 -0.027271347 1.5462502e-38 351 262
0.039667413 0.70700002 -0.027271347 1.5184473e-38 352 262
0.040907022 0.70700002 -0.027271347 1.5091919e-38 353 262
0.042206239 0.708 -0.027309919 1.472565e-38 354 262
0.043447599 0.708 -0.027309919 1.472565e-38 355 262
0.044815198 0.70999998 -0.027387066 1.4541622e-38 356 262
0.046124939 0.71100003 -0.027425639 1.4449426e-38 357 262
0.047571439 0.71399999 -0.02754136 1.4173915e-38 358 262
0.048823316 0.71399999 -0.02754136 1.408136e-38 359 262
0.050075196 0.71399999 -0.02754136 1.3989535e-38 360 262
0.051470853 0.71600002 -0.027618507 1.3344166e-38 361 262
0.052726239 0.71600002 -0.027618507 9.7619159e-39 362 262
0.054057021 0.71700001 -0.027657079 1.2435589e-38 363 262
0.055314157 0.71700001 -0.027657079 1.3738616e-38 364 262
-0.0050285598 0.71700001 -0.028914221 1.7123803e-38 316 263
-0.0037714199 0.71700001 -0.028914221 1.7676618e-38 317 263
-0.0025107733 0.71600002 -0.028873893 1.8228343e-38 318 263
-0.0012553866 0.71600002 -0.028873893 1.8320538e-38 319 263
0 0.71399999 -0.028793238 1.8597481e-38 320 263
0.0012501266 0.713 -0.028752912 1.8874068e-38 321 263
0.0024932399 0.71100003 -0.028672259 1.8966261e-38 322 263
0.0037398601 0.71100003 -0.028672259 1.8966261e-38 323 263
0.0049794666 0.70999998 -0.028631933 1.8690753e-38 324 263
0.0062243328 0.70999998 -0.028631933 1.8690753e-38 325 263
0.0074481601 0.708 -0.02855128 1.8414539e-38 326 263
0.008677247 0.70700002 -0.028510952 1.8230146e-38 327 263
0.0099168532 0.70700002 -0.028510952 1.8504952e-38 328 263
0.011140679 0.70599997 -0.028470624 1.8689343e-38 329 263
0.012378532 0.70599997 -0.028470624 1.8599314e-38 330 263
0.013635674 0.70700002 -0.028510952 1.8876261e-38 331 263
0.014854239 0.70599997 -0.028470624 1.9336883e-38 332 263
0.016092092 0.70599997 -0.028470624 1.9429079e-38 333 263
0.017354494 0.70700002 -0.028510952 1.8968101e-38 334 263
0.018594101 0.70700002 -0.028510952 1.8783709e-38 335 263
0.019833706 0.70700002 -0.028510952 1.8784063e-38 336 263
0.021073313 0.70700002 -0.028510952 1.8507116e-38 337 263
0.022312919 0.70700002 -0.028510952 1.822979e-38 338 263
0.023552528 0.70700002 -0.028510952 1.8137595e-38 339 263
0.024757065 0.70599997 -0.028470624 1.7956435e-38 340 263
0.025994917 0.70599997 -0.028470624 1.7864239e-38 341 263
0.027232772 0.70599997 -0.028470624 1.7861365e-38 342 263
0.028470624 0.70599997 -0.028470624 1.7676974e-38 343 263
0.029708479 0.70599997 -0.028470624 1.7492222e-38 344 263
0.030946331 0.70599997 -0.028470624 1.71238e-38 345 263
0.032184184 0.70599997 -0.028470624 1.6939405e-38 346 263
0.033422034 0.70599997 -0.028470624 1.6478428e-38 347 263
0.034659892 0.70599997 -0.028470624 1.6567032e-38 348 263
0.035897743 0.70599997 -0.028470624 1.6382282e-38 349 263
0.037135597 0.70599997 -0.028470624 1.564689e-38 350 263
0.038373452 0.70599997 -0.028470624 1.5185912e-38 351 263
0.039611302 0.70599997 -0.028470624 1.5092275e-38 352 263
0.040849157 0.70599997 -0.028470624 1.5092275e-38 353 263
0.042146627 0.70700002 -0.028510952 1.481748e-38 354 263
0.043447599 0.708 -0.02855128 1.4633089e-38 355 263
0.044815198 0.70999998 -0.028631933 1.4540543e-38 356 263
0.046060063 0.70999998 -0.028631933 1.4356151e-38 357 263
0.047504812 0.713 -0.028752912 1.3989167e-38 358 263
0.048754938 0.713 -0.028752912 1.3896971e-38 359 263
0.050075196 0.71399999 -0.028793238 1.380442e-38 360 263
0.051470853 0.71600002 -0.028873893 1.3712224e-38 361 263
0.052726239 0.71600002 -0.028873893 1.1965224e-38 362 263
0.054057021 0.71700001 -0.028914221 1.1872669e-38 363 263
0.055314157 0.71700001 -0.028914221 1.0234441e-38 364 263
-0.0062593995 0.71399999 -0.030045118 1.5102739e-38 315 264
-0.0050075199 0.71399999 -0.030045118 1.7859566e-38 316 264
-0.0037556398 0.71399999 -0.030045118 1.8043958e-38 317 264
-0.0025037599 0.71399999 -0.030045118 1.8319822e-38 318 264
-0.0012501266 0.713 -0.030003037 1.8412018e-38 319 264
0 0.713 -0.030003037 1.8687529e-38 320 264
0.00124662 0.71100003 -0.029918881 1.887228e-38 321 264
0.0024932399 0.71100003 -0.029918881 1.8597851e-38 322 264
0.0037345996 0.70999998 -0.029876797 1.8782242e-38 323 264
0.0049794666 0.70999998 -0.029876797 1.8782598e-38 324 264
0.0061980332 0.70700002 -0.029750559 1.8598207e-38 325 264
0.0074376399 0.70700002 -0.029750559 1.8412389e-38 326 264
0.0086649731 0.70599997 -0.029708479 1.8227639e-38 327 264
0.0099028256 0.70599997 -0.029708479 1.8319485e-38 328 264
0.011140679 0.70599997 -0.029708479 1.8504235e-38 329 264
0.012378532 0.70599997 -0.029708479 1.8323087e-38 330 264
0.013616386 0.70599997 -0.029708479 1.8691511e-38 331 264
0.014854239 0.70599997 -0.029708479 1.8968472e-38 332 264
0.016092092 0.70599997 -0.029708479 1.8968472e-38 333 264
0.017329946 0.70599997 -0.029708479 1.8875558e-38 334 264
0.018567799 0.70599997 -0.029708479 1.8783003e-38 335 264
0.019805651 0.70599997 -0.029708479 1.8508202e-38 336 264
0.021043506 0.70599997 -0.029708479 1.8231255e-38 337 264
0.022281358 0.70599997 -0.029708479 1.7862827e-38 338 264
0.023519212 0.70599997 -0.029708479 1.7862827e-38 339 264
0.024757065 0.70599997 -0.029708479 1.7863536e-38 340 264
0.025994917 0.70599997 -0.029708479 1.7863536e-38 341 264
0.027232772 0.70599997 -0.029708479 1.795428e-38 342 264
0.028470624 0.70599997 -0.029708479 1.7769888e-38 343 264
0.029708479 0.70599997 -0.029708479 1.7676974e-38 344 264
0.030858666 0.704 -0.029624319 1.7492222e-38 345 264
0.032093015 0.704 -0.029624319 1.7033755e-38 346 264
0.03332736 0.704 -0.029624319 1.6572417e-38 347 264
0.034561705 0.704 -0.029624319 1.647591e-38 348 264
0.035796054 0.704 -0.029624319 1.6199323e-38 349 264
0.037030395 0.704 -0.029624319 1.5553969e-38 350 264
0.038264744 0.704 -0.029624319 1.5092991e-38 351 264
0.039499093 0.704 -0.029624319 1.4908599e-38 352 264
0.040849157 0.70599997 -0.029708479 1.4724568e-38 353 264
0.042087011 0.70599997 -0.029708479 1.4633089e-38 354 264
0.043447599 0.708 -0.02979264 1.435686e-38 355 264
0.044688959 0.708 -0.02979264 1.3896262e-38 356 264
0.046060063 0.70999998 -0.029876797 1.3804066e-38 357 264
0.047371563 0.71100003 -0.029918881 1.3528927e-38 358 264
0.048754938 0.713 -0.030003037 1.3344896e-38 359 264
0.050075196 0.71399999 -0.030045118 1.334489e-38 360 264
0.05132708 0.71399999 -0.030045118 1.352928e-38 361 264
0.052578956 0.71399999 -0.030045118 1.3437823e-38 362 264
0.053830836 0.71399999 -0.030045118 1.2424031e-38 363 264
0.05508272 0.71399999 -0.030045118 9.3027553e-39 364 264
0.0563346 0.71399999 -0.030045118 1.4373514e-38 365 264
-0.0075428397 0.71700001 -0.031428497 1.6571007e-38 314 265
-0.0062593995 0.71399999 -0.031296998 1.6755759e-38 315 265
-0.0050075199 0.71399999 -0.031296998 1.8043228e-38 316 265
-0.0037503797 0.713 -0.031253166 1.8135784e-38 317 265
-0.0025002533 0.713 -0.031253166 1.8503488e-38 318 265
-0.00124662 0.71100003 -0.031165501 1.8687879e-38 319 265
0 0.71100003 -0.031165501 1.8779001e-38 320 265
0.00124662 0.71100003 -0.031165501 1.8963392e-38 321 265
0.0024897333 0.70999998 -0.031121666 1.8597132e-38 322 265
0.0037345996 0.70999998 -0.031121666 1.8965913e-38 323 265
0.0049794666 0.70999998 -0.031121666 1.8690047e-38 324 265
0.0061980332 0.70700002 -0.030990168 1.8597851e-38 325 265
0.0074271196 0.70599997 -0.030946331 1.841167e-38 326 265
0.0086649731 0.70599997 -0.030946331 1.8319116e-38 327 265
0.0099028256 0.70599997 -0.030946331 1.8319119e-38 328 265
0.011109119 0.704 -0.030858666 1.8595346e-38 329 265
0.012343466 0.704 -0.030858666 1.8413835e-38 330 265
0.013616386 0.70599997 -0.030946331 1.8782258e-38 331 265
0.014854239 0.70599997 -0.030946331 1.8690795e-38 332 265
0.016092092 0.70599997 -0.030946331 1.8782991e-38 333 265
0.017329946 0.70599997 -0.030946331 1.8598965e-38 334 265
0.018515198 0.704 -0.030858666 1.8783356e-38 335 265
0.019721493 0.70300001 -0.030814834 1.841565e-38 336 265
0.020954086 0.70300001 -0.030814834 1.7954672e-38 337 265
0.022218239 0.704 -0.030858666 1.7770637e-38 338 265
0.023452586 0.704 -0.030858666 1.7862832e-38 339 265
0.024686933 0.704 -0.030858666 1.7953946e-38 340 265
0.02592128 0.704 -0.030858666 1.8138337e-38 341 265
0.027117053 0.70300001 -0.030814834 1.8139762e-38 342 265
0.028349647 0.70300001 -0.030814834 1.7678784e-38 343 265
0.029624319 0.704 -0.030858666 1.7584788e-38 344 265
0.030858666 0.704 -0.030858666 1.730856e-38 345 265
0.032093015 0.704 -0.030858666 1.7033768e-38 346 265
0.03332736 0.704 -0.030858666 1.6296203e-38 347 265
0.034561705 0.704 -0.030858666 1.6476997e-38 348 265
0.035796054 0.704 -0.030858666 1.5831628e-38 349 265
0.037030395 0.704 -0.030858666 1.555325e-38 350 265
0.038264744 0.704 -0.030858666 1.5092272e-38 351 265
0.039499093 0.704 -0.030858666 1.490788e-38 352 265
0.040733438 0.704 -0.030858666 1.4815685e-38 353 265
0.042087011 0.70599997 -0.030946331 1.4355072e-38 354 265
0.043386232 0.70700002 -0.030990168 1.3801899e-38 355 265
0.044688959 0.708 -0.031034 1.3709005e-38 356 265
0.046060063 0.70999998 -0.031121666 1.343242e-38 357 265
0.047371563 0.71100003 -0.031165501 1.315835e-38 358 265
0.048618179 0.71100003 -0.031165501 1.3527133e-38 359 265
0.049864799 0.71100003 -0.031165501 1.3161221e-38 360 265
0.051255193 0.713 -0.031253166 1.3253416e-38 361 265
0.052505318 0.713 -0.031253166 1.3345978e-38 362 265
0.053755447 0.713 -0.031253166 1.2977555e-38 363 265
0.05508272 0.71399999 -0.031296998 1.1963814e-38 364 265
0.0563346 0.71399999 -0.031296998 1.3162357e-38 365 265
-0.0088245263 0.71899998 -0.032776814 1.2534948e-38 313 266
-0.0075428397 0.71700001 -0.032685637 1.6845058e-38 314 266
-0.0062769335 0.71600002 -0.032640055 1.7582623e-38 315 266
-0.0050075199 0.71399999 -0.032548878 1.730856e-38 316 266
-0.0037503797 0.713 -0.032503292 1.7584788e-38 317 266
-0.0024932399 0.71100003 -0.032412119 1.8043961e-38 318 266
-0.00124662 0.71100003 -0.032412119 1.8320188e-38 319 266
0 0.71100003 -0.032412119 1.8411665e-38 320 266
0.0012448666 0.70999998 -0.032366529 1.868825e-38 321 266
0.0024897333 0.70999998 -0.032366529 1.8597854e-38 322 266
0.0037345996 0.70999998 -0.032366529 1.8690049e-38 323 266
0.0049584266 0.70700002 -0.032229774 1.8872996e-38 324 266
0.0061892662 0.70599997 -0.032184184 1.8688603e-38 325 266
0.0074271196 0.70599997 -0.032184184 1.8411668e-38 326 266
0.0086649731 0.70599997 -0.032184184 1.8319472e-38 327 266
0.0099028256 0.70599997 -0.032184184 1.804433e-38 328 266
0.011109119 0.704 -0.032093015 1.8136525e-38 329 266
0.012343466 0.704 -0.032093015 1.8045777e-38 330 266
0.013577812 0.704 -0.032093015 1.8322005e-38 331 266
0.014812159 0.704 -0.032093015 1.8230907e-38 332 266
0.016046507 0.704 -0.032093015 1.8323103e-38 333 266
0.017280852 0.704 -0.032093015 1.7956489e-38 334 266
0.018515198 0.704 -0.032093015 1.7956489e-38 335 266
0.019721493 0.70300001 -0.032047424 1.7864645e-38 336 266
0.020954086 0.70300001 -0.032047424 1.7679895e-38 337 266
0.02218668 0.70300001 -0.032047424 1.7587334e-38 338 266
0.023419274 0.70300001 -0.032047424 1.7495138e-38 339 266
0.024651866 0.70300001 -0.032047424 1.7312545e-38 340 266
0.025884461 0.70300001 -0.032047424 1.7127794e-38 341 266
0.027117053 0.70300001 -0.032047424 1.7495489e-38 342 266
0.028349647 0.70300001 -0.032047424 1.7127065e-38 343 266
0.029582238 0.70300001 -0.032047424 1.7307856e-38 344 266
0.030858666 0.704 -0.032093015 1.7123465e-38 345 266
0.032047424 0.70300001 -0.032047424 1.6663207e-38 346 266
0.033280019 0.70300001 -0.032047424 1.6110033e-38 347 266
0.034512613 0.70300001 -0.032047424 1.6107868e-38 348 266
0.035745207 0.70300001 -0.032047424 1.5462499e-38 349 266
0.036977798 0.70300001 -0.032047424 1.4725653e-38 350 266
0.038210396 0.70300001 -0.032047424 1.4449426e-38 351 266
0.039499093 0.704 -0.032093015 1.4264312e-38 352 266
0.040733438 0.704 -0.032093015 1.4171757e-38 353 266
0.042087011 0.70599997 -0.032184184 1.3710788e-38 354 266
0.043386232 0.70700002 -0.032229774 1.2972864e-38 355 266
0.044625837 0.70700002 -0.032229774 1.2053822e-38 356 266
0.045930319 0.708 -0.03227536 1.2146018e-38 357 266
0.047304932 0.70999998 -0.032366529 1.24244e-38 358 266
0.048549797 0.70999998 -0.032366529 1.2793184e-38 359 266
0.049864799 0.71100003 -0.032412119 1.3252698e-38 360 266
0.051111419 0.71100003 -0.032412119 1.3344893e-38 361 266
0.052358042 0.71100003 -0.032412119 1.3620407e-38 362 266
0.053755447 0.713 -0.032503292 1.3896633e-38 363 266
0.05508272 0.71399999 -0.032548878 1.2976496e-38 364 266
0.0563346 0.71399999 -0.032548878 1.1778312e-38 365 266
0.057586476 0.71399999 -0.032548878 9.6801726e-39 366 266
-0.0088245263 0.71899998 -0.03403746 1.436986e-38 313 267
-0.0075428397 0.71700001 -0.033942781 1.7489338e-38 314 267
-0.0062769335 0.71600002 -0.03389544 1.7673371e-38 315 267
-0.0050075199 0.71399999 -0.033800758 1.7489338e-38 316 267
-0.0037503797 0.713 -0.033753417 1.7858121e-38 317 267
-0.0024932399 0.71100003 -0.033658739 1.7674453e-38 318 267
-0.0012448666 0.70999998 -0.033611398 1.8043234e-38 319 267
0 0.70999998 -0.033611398 1.8500982e-38 320 267
0.0012448666 0.70999998 -0.033611398 1.8870125e-38 321 267
0.0024792133 0.70700002 -0.033469379 1.8689331e-38 322 267
0.0037188199 0.70700002 -0.033469379 1.9057753e-38 323 267
0.0049514128 0.70599997 -0.033422034 1.8689328e-38 324 267
0.0061892662 0.70599997 -0.033422034 1.8597132e-38 325 267
0.0074271196 0.70599997 -0.033422034 1.8045033e-38 326 267
0.0086404262 0.704 -0.03332736 1.8045033e-38 327 267
0.0098747732 0.704 -0.03332736 1.8135428e-38 328 267
0.011109119 0.704 -0.03332736 1.8227624e-38 329 267
0.012343466 0.704 -0.03332736 1.8228345e-38 330 267
0.013558527 0.70300001 -0.033280019 1.8320541e-38 331 267
0.014791119 0.70300001 -0.033280019 1.8319838e-38 332 267
0.016046507 0.704 -0.03332736 1.8319838e-38 333 267
0.017256306 0.70300001 -0.033280019 1.7953596e-38 334 267
0.018488899 0.70300001 -0.033280019 1.7861399e-38 335 267
0.019665385 0.70099998 -0.03318534 1.731112e-38 336 267
0.020894472 0.70099998 -0.03318534 1.7495151e-38 337 267
0.022123558 0.70099998 -0.03318534 1.7221073e-38 338 267
0.023352645 0.70099998 -0.03318534 1.7128877e-38 339 267
0.024581732 0.70099998 -0.03318534 1.7310374e-38 340 267
0.025810819 0.70099998 -0.03318534 1.7125983e-38 341 267
0.027039904 0.70099998 -0.03318534 1.7583366e-38 342 267
0.028268991 0.70099998 -0.03318534 1.7398973e-38 343 267
0.029582238 0.70300001 -0.033280019 1.6847954e-38 344 267
0.030814834 0.70300001 -0.033280019 1.6663563e-38 345 267
0.032047424 0.70300001 -0.033280019 1.6569572e-38 346 267
0.033280019 0.70300001 -0.033280019 1.5924203e-38 347 267
0.034512613 0.70300001 -0.033280019 1.5922405e-38 348 267
0.035745207 0.70300001 -0.033280019 1.5184839e-38 349 267
0.036977798 0.70300001 -0.033280019 1.4354003e-38 350 267
0.038210396 0.70300001 -0.033280019 1.4354003e-38 351 267
0.039499093 0.704 -0.03332736 1.4078864e-38 352 267
0.040733438 0.704 -0.03332736 1.398631e-38 353 267
0.041967787 0.704 -0.03332736 1.3343097e-38 354 267
0.043324865 0.70599997 -0.033422034 1.1867608e-38 355 267
0.044625837 0.70700002 -0.033469379 1.1225135e-38 356 267
0.045930319 0.708 -0.033516716 1.1686113e-38 357 267
0.047171678 0.708 -0.033516716 1.2238931e-38 358 267
0.048549797 0.70999998 -0.033611398 1.2792103e-38 359 267
0.049794663 0.70999998 -0.033611398 1.3436013e-38 360 267
0.051039528 0.70999998 -0.033611398 1.3896631e-38 361 267
0.052358042 0.71100003 -0.033658739 1.3531072e-38 362 267
0.053604662 0.71100003 -0.033658739 1.3531072e-38 363 267
0.055005573 0.713 -0.033753417 1.3255217e-38 364 267
0.056255698 0.713 -0.033753417 1.2056675e-38 365 267
0.057586476 0.71399999 -0.033800758 1.1049783e-38 366 267
0.058838356 0.71399999 -0.033800758 1.6304934e-38 367 267
-0.010085173 0.71899998 -0.035298105 1.5931777e-38 312 268
-0.0087999795 0.71700001 -0.035199918 1.5102018e-38 313 268
-0.0075428397 0.71700001 -0.035199918 1.73071e-38 314 268
-0.0062769335 0.71600002 -0.035150826 1.7214903e-38 315 268
-0.0050075199 0.71399999 -0.035052639 1.7214194e-38 316 268
-0.0037503797 0.713 -0.035003547 1.7306749e-38 317 268
-0.0024932399 0.71100003 -0.034905359 1.7398239e-38 318 268
-0.0012448666 0.70999998 -0.034856264 1.7674465e-38 319 268
0 0.70999998 -0.034856264 1.8042177e-38 320 268
0.00124136 0.708 -0.034758076 1.8318766e-38 321 268
0.0024792133 0.70700002 -0.034708988 1.8504599e-38 322 268
0.0037188199 0.70700002 -0.034708988 1.8689349e-38 323 268
0.0049514128 0.70599997 -0.034659892 1.8229793e-38 324 268
0.0061892662 0.70599997 -0.034659892 1.8137597e-38 325 268
0.0074060797 0.704 -0.034561705 1.8044677e-38 326 268
0.0086404262 0.704 -0.034561705 1.7860286e-38 327 268
0.0098747732 0.704 -0.034561705 1.7767736e-38 328 268
0.011109119 0.704 -0.034561705 1.7583705e-38 329 268
0.012343466 0.704 -0.034561705 1.7584073e-38 330 268
0.013558527 0.70300001 -0.034512613 1.7584073e-38 331 268
0.014791119 0.70300001 -0.034512613 1.7308212e-38 332 268
0.016023712 0.70300001 -0.034512613 1.7308212e-38 333 268
0.017256306 0.70300001 -0.034512613 1.7034163e-38 334 268
0.018436298 0.70099998 -0.034414422 1.7402585e-38 335 268
0.019637333 0.69999999 -0.034365334 1.7036694e-38 336 268
0.020864666 0.69999999 -0.034365334 1.7129248e-38 337 268
0.022091998 0.69999999 -0.034365334 1.7312898e-38 338 268
0.023352645 0.70099998 -0.034414422 1.7220344e-38 339 268
0.024581732 0.70099998 -0.034414422 1.7311096e-38 340 268
0.025810819 0.70099998 -0.034414422 1.6850119e-38 341 268
0.027039904 0.70099998 -0.034414422 1.7031993e-38 342 268
0.028268991 0.70099998 -0.034414422 1.6847601e-38 343 268
0.029498078 0.70099998 -0.034414422 1.6663563e-38 344 268
0.030727165 0.70099998 -0.034414422 1.6294781e-38 345 268
0.031956252 0.70099998 -0.034414422 1.6474503e-38 346 268
0.03318534 0.70099998 -0.034414422 1.610572e-38 347 268
0.034414422 0.70099998 -0.034414422 1.5554347e-38 348 268
0.035643511 0.70099998 -0.034414422 1.5001173e-38 349 268
0.036872596 0.70099998 -0.034414422 1.4722431e-38 350 268
0.038210396 0.70300001 -0.034512613 1.435365e-38 351 268
0.039442986 0.70300001 -0.034512613 1.3803353e-38 352 268
0.040733438 0.704 -0.034561705 1.3803353e-38 353 268
0.041967787 0.704 -0.034561705 1.3803353e-38 354 268
0.043324865 0.70599997 -0.034659892 1.3065429e-38 355 268
0.044625837 0.70700002 -0.034708988 1.2237485e-38 356 268
0.045865446 0.70700002 -0.034708988 1.2053454e-38 357 268
0.047171678 0.708 -0.034758076 1.2239281e-38 358 268
0.048413038 0.708 -0.034758076 1.2516227e-38 359 268
0.049794663 0.70999998 -0.034856264 1.3528927e-38 360 268
0.051039528 0.70999998 -0.034856264 1.3713318e-38 361 268
0.052284397 0.70999998 -0.034856264 1.3805864e-38 362 268
0.053529263 0.70999998 -0.034856264 1.3713669e-38 363 268
0.054851279 0.71100003 -0.034905359 1.3438882e-38 364 268
0.056255698 0.713 -0.035003547 1.2516928e-38 365 268
0.057586476 0.71399999 -0.035052639 1.1413158e-38 366 268
0.058838356 0.71399999 -0.035052639 1.454781e-38 367 268
0.06025856 0.71600002 -0.035150826 1.4661279e-38 368 268
-0.01134582 0.71899998 -0.036558751 1.3644935e-38 311 269
-0.010085173 0.71899998 -0.036558751 1.5834894e-38 312 269
-0.0087999795 0.71700001 -0.036457058 1.6111481e-38 313 269
-0.0075428397 0.71700001 -0.036457058 1.7305663e-38 314 269
-0.0062769335 0.71600002 -0.036406212 1.7305663e-38 315 269
-0.0050075199 0.71399999 -0.036304519 1.7305663e-38 316 269
-0.0037503797 0.713 -0.036253672 1.7397859e-38 317 269
-0.0024932399 0.71100003 -0.036151983 1.7306746e-38 318 269
-0.0012448666 0.70999998 -0.036101133 1.7582973e-38 319 269
0 0.70999998 -0.036101133 1.7857415e-38 320 269
0.00124136 0.708 -0.03599944 1.8041806e-38 321 269
0.0024792133 0.70700002 -0.035948593 1.7951062e-38 322 269
0.0037135598 0.70599997 -0.035897743 1.8319485e-38 323 269
0.0049514128 0.70599997 -0.035897743 1.7861731e-38 324 269
0.0061717331 0.704 -0.035796054 1.7861731e-38 325 269
0.0074060797 0.704 -0.035796054 1.7768089e-38 326 269
0.0086404262 0.704 -0.035796054 1.7399308e-38 327 269
0.0098747732 0.704 -0.035796054 1.758226e-38 328 269
0.01109334 0.70300001 -0.035745207 1.758226e-38 329 269
0.012325933 0.70300001 -0.035745207 1.7398592e-38 330 269
0.013519952 0.70099998 -0.035643511 1.7582623e-38 331 269
0.014749039 0.70099998 -0.035643511 1.6756109e-38 332 269
0.015978126 0.70099998 -0.035643511 1.6756109e-38 333 269
0.017207211 0.70099998 -0.035643511 1.6847601e-38 334 269
0.018409999 0.69999999 -0.035592664 1.7308579e-38 335 269
0.019637333 0.69999999 -0.035592664 1.6944481e-38 336 269
0.020864666 0.69999999 -0.035592664 1.6944481e-38 337 269
0.022091998 0.69999999 -0.035592664 1.7220347e-38 338 269
0.023319334 0.69999999 -0.035592664 1.7404738e-38 339 269
0.024546666 0.69999999 -0.035592664 1.72207e-38 340 269
0.025773998 0.69999999 -0.035592664 1.6759722e-38 341 269
0.027001332 0.69999999 -0.035592664 1.6665361e-38 342 269
0.028228667 0.69999999 -0.035592664 1.6480611e-38 343 269
0.029455997 0.69999999 -0.035592664 1.6294781e-38 344 269
0.030727165 0.70099998 -0.035643511 1.5741607e-38 345 269
0.031956252 0.70099998 -0.035643511 1.6014598e-38 346 269
0.03318534 0.70099998 -0.035643511 1.573801e-38 347 269
0.034414422 0.70099998 -0.035643511 1.5463218e-38 348 269
0.035643511 0.70099998 -0.035643511 1.4910044e-38 349 269
0.036872596 0.70099998 -0.035643511 1.4632388e-38 350 269
0.038210396 0.70300001 -0.035745207 1.4263605e-38 351 269
0.039442986 0.70300001 -0.035745207 1.3896265e-38 352 269
0.040675577 0.70300001 -0.035745207 1.3896265e-38 353 269
0.041967787 0.704 -0.035796054 1.3896618e-38 354 269
0.043202132 0.704 -0.035796054 1.3712227e-38 355 269
0.044562716 0.70599997 -0.035897743 1.343564e-38 356 269
0.045865446 0.70700002 -0.035948593 1.3251249e-38 357 269
0.047171678 0.708 -0.03599944 1.3068305e-38 358 269
0.048413038 0.708 -0.03599944 1.3344893e-38 359 269
0.049654398 0.708 -0.03599944 1.3528571e-38 360 269
0.050895758 0.708 -0.03599944 1.3713321e-38 361 269
0.052137118 0.708 -0.03599944 1.3713321e-38 362 269
0.053529263 0.70999998 -0.036101133 1.3713321e-38 363 269
0.054851279 0.71100003 -0.036151983 1.3345259e-38 364 269
0.056097899 0.71100003 -0.036151983 1.3253063e-38 365 269
0.057586476 0.71399999 -0.036304519 1.23333e-38 366 269
0.058838356 0.71399999 -0.036304519 1.1964518e-38 367 269
0.06025856 0.71600002 -0.036406212 1.3272929e-38 368 269
0.061599858 0.71700001 -0.036457058 1.8712473e-38 369 269
-0.012624 0.72000003 -0.037871998 1.788304e-38 310 270
-0.011361601 0.72000003 -0.037871998 1.3642041e-38 311 270
-0.010085173 0.71899998 -0.037819397 1.5742328e-38 312 270
-0.0087999795 0.71700001 -0.037714198 1.6387698e-38 313 270
-0.0075428397 0.71700001 -0.037714198 1.7029086e-38 314 270
-0.0062769335 0.71600002 -0.037661601 1.7121282e-38 315 270
-0.0050075199 0.71399999 -0.037556399 1.7029799e-38 316 270
-0.0037503797 0.713 -0.037503798 1.7122354e-38 317 270
-0.0024932399 0.71100003 -0.037398599 1.7214547e-38 318 270
-0.00124136 0.708 -0.0372408 1.7399298e-38 319 270
0 0.708 -0.0372408 1.7765567e-38 320 270
0.0012396066 0.70700002 -0.037188202 1.7765567e-38 321 270
0.0024757064 0.70599997 -0.037135597 1.7766295e-38 322 270
0.0037135598 0.70599997 -0.037135597 1.8135078e-38 323 270
0.0049373866 0.704 -0.037030395 1.7677693e-38 324 270
0.0061717331 0.704 -0.037030395 1.7401106e-38 325 270
0.0073955595 0.70300001 -0.036977798 1.758226e-38 326 270
0.0086281532 0.70300001 -0.036977798 1.7305313e-38 327 270
0.0098607466 0.70300001 -0.036977798 1.7121998e-38 328 270
0.01109334 0.70300001 -0.036977798 1.7121998e-38 329 270
0.012290866 0.70099998 -0.036872596 1.7122354e-38 330 270
0.013519952 0.70099998 -0.036872596 1.7214549e-38 331 270
0.014727999 0.69999999 -0.036819998 1.6663188e-38 332 270
0.015955333 0.69999999 -0.036819998 1.6755742e-38 333 270
0.017207211 0.70099998 -0.036872596 1.6388764e-38 334 270
0.018409999 0.69999999 -0.036819998 1.6573516e-38 335 270
0.019637333 0.69999999 -0.036819998 1.6758275e-38 336 270
0.020864666 0.69999999 -0.036819998 1.7034864e-38 337 270
0.022091998 0.69999999 -0.036819998 1.6852273e-38 338 270
0.023319334 0.69999999 -0.036819998 1.71285e-38 339 270
0.024546666 0.69999999 -0.036819998 1.6944822e-38 340 270
0.025773998 0.69999999 -0.036819998 1.6299453e-38 341 270
0.027001332 0.69999999 -0.036819998 1.6388771e-38 342 270
0.028228667 0.69999999 -0.036819998 1.6019989e-38 343 270
0.029455997 0.69999999 -0.036819998 1.5741607e-38 344 270
0.030683333 0.69999999 -0.036819998 1.5372824e-38 345 270
0.031910665 0.69999999 -0.036819998 1.5738007e-38 346 270
0.033137999 0.69999999 -0.036819998 1.5645811e-38 347 270
0.034365334 0.69999999 -0.036819998 1.5278105e-38 348 270
0.035592664 0.69999999 -0.036819998 1.4909681e-38 349 270
0.036819998 0.69999999 -0.036819998 1.4632738e-38 350 270
0.038101684 0.70099998 -0.036872596 1.4356151e-38 351 270
0.039442986 0.70300001 -0.036977798 1.408136e-38 352 270
0.040675577 0.70300001 -0.036977798 1.408136e-38 353 270
0.041908171 0.70300001 -0.036977798 1.4265025e-38 354 270
0.043202132 0.704 -0.037030395 1.4172829e-38 355 270
0.044436477 0.704 -0.037030395 1.380477e-38 356 270
0.04580057 0.70599997 -0.037135597 1.380477e-38 357 270
0.047105055 0.70700002 -0.037188202 1.3529277e-38 358 270
0.048344657 0.70700002 -0.037188202 1.3529277e-38 359 270
0.049584266 0.70700002 -0.037188202 1.3528574e-38 360 270
0.050823875 0.70700002 -0.037188202 1.362077e-38 361 270
0.05206348 0.70700002 -0.037188202 1.3529656e-38 362 270
0.053378478 0.708 -0.0372408 1.3344906e-38 363 270
0.054774132 0.70999998 -0.037345998 1.3069398e-38 364 270
0.056018997 0.70999998 -0.037345998 1.3069398e-38 365 270
0.057344519 0.71100003 -0.037398599 1.2610593e-38 366 270
0.058838356 0.71399999 -0.037556399 1.1135104e-38 367 270
0.06025856 0.71600002 -0.037661601 1.2161895e-38 368 270
0.061513945 0.71600002 -0.037661601 1.7970219e-38 369 270
0.062769331 0.71600002 -0.037661601 1.7795577e-38 370 270
-0.012606465 0.71899998 -0.039080046 1.7326978e-38 310 271
-0.01134582 0.71899998 -0.039080046 1.373135e-38 311 271
-0.010085173 0.71899998 -0.039080046 1.6111105e-38 312 271
-0.0087999795 0.71700001 -0.038971342 1.6388051e-38 313 271
-0.0075428397 0.71700001 -0.038971342 1.6753938e-38 314 271
-0.0062769335 0.71600002 -0.038916986 1.6661743e-38 315 271
-0.0050075199 0.71399999 -0.038808275 1.6937607e-38 316 271
-0.0037398601 0.71100003 -0.038645219 1.7029802e-38 317 271
-0.0024897333 0.70999998 -0.038590867 1.7121998e-38 318 271
-0.00124136 0.708 -0.038482159 1.7214194e-38 319 271
0 0.708 -0.038482159 1.7397862e-38 320 271
0.0012396066 0.70700002 -0.038427804 1.7397862e-38 321 271
0.0024757064 0.70599997 -0.038373452 1.7214917e-38 322 271
0.0037135598 0.70599997 -0.038373452 1.7491503e-38 323 271
0.0049373866 0.704 -0.038264744 1.7033049e-38 324 271
0.0061717331 0.704 -0.038264744 1.6756462e-38 325 271
0.0073955595 0.70300001 -0.038210396 1.6938333e-38 326 271
0.0086281532 0.70300001 -0.038210396 1.6753941e-38 327 271
0.0098607466 0.70300001 -0.038210396 1.6937957e-38 328 271
0.01109334 0.70300001 -0.038210396 1.6845761e-38 329 271
0.012290866 0.70099998 -0.038101684 1.6754642e-38 330 271
0.013500666 0.69999999 -0.038047329 1.6846838e-38 331 271
0.014727999 0.69999999 -0.038047329 1.6571695e-38 332 271
0.015955333 0.69999999 -0.038047329 1.6663891e-38 333 271
0.017182667 0.69999999 -0.038047329 1.6481668e-38 334 271
0.018409999 0.69999999 -0.038047329 1.6666059e-38 335 271
0.019637333 0.69999999 -0.038047329 1.6483118e-38 336 271
0.020864666 0.69999999 -0.038047329 1.6667509e-38 337 271
0.022091998 0.69999999 -0.038047329 1.6484561e-38 338 271
0.023319334 0.69999999 -0.038047329 1.6392364e-38 339 271
0.024546666 0.69999999 -0.038047329 1.6483112e-38 340 271
0.025773998 0.69999999 -0.038047329 1.5837743e-38 341 271
0.027001332 0.69999999 -0.038047329 1.5835581e-38 342 271
0.028228667 0.69999999 -0.038047329 1.5558635e-38 343 271
0.029455997 0.69999999 -0.038047329 1.5188057e-38 344 271
0.030683333 0.69999999 -0.038047329 1.4727438e-38 345 271
0.031910665 0.69999999 -0.038047329 1.5278105e-38 346 271
0.033137999 0.69999999 -0.038047329 1.5185909e-38 347 271
0.034365334 0.69999999 -0.038047329 1.5185912e-38 348 271
0.035592664 0.69999999 -0.038047329 1.481713e-38 349 271
0.036819998 0.69999999 -0.038047329 1.4632736e-38 350 271
0.038101684 0.70099998 -0.038101684 1.454054e-38 351 271
0.039442986 0.70300001 -0.038210396 1.4357225e-38 352 271
0.040675577 0.70300001 -0.038210396 1.4357225e-38 353 271
0.041908171 0.70300001 -0.038210396 1.4173913e-38 354 271
0.043202132 0.704 -0.038264744 1.4173913e-38 355 271
0.044436477 0.704 -0.038264744 1.4081362e-38 356 271
0.04580057 0.70599997 -0.038373452 1.3896971e-38 357 271
0.047038425 0.70599997 -0.038373452 1.3896981e-38 358 271
0.048276275 0.70599997 -0.038373452 1.371295e-38 359 271
0.049584266 0.70700002 -0.038427804 1.3620407e-38 360 271
0.050823875 0.70700002 -0.038427804 1.3712602e-38 361 271
0.05206348 0.70700002 -0.038427804 1.343746e-38 362 271
0.053303085 0.70700002 -0.038427804 1.3344906e-38 363 271
0.054774132 0.70999998 -0.038590867 1.2977568e-38 364 271
0.056018997 0.70999998 -0.038590867 1.2793537e-38 365 271
0.057344519 0.71100003 -0.038645219 1.2518763e-38 366 271
0.058838356 0.71399999 -0.038808275 1.1504613e-38 367 271
0.06025856 0.71600002 -0.038916986 1.1790241e-38 368 271
0.061513945 0.71600002 -0.038916986 1.6584414e-38 369 271
0.062769331 0.71600002 -0.038916986 1.7057653e-38 370 271
0.064114138 0.71700001 -0.038971342 1.8256196e-38 371 271
-0.012606465 0.71899998 -0.040340692 1.7046427e-38 310 272
-0.01134582 0.71899998 -0.040340692 1.4003611e-38 311 272
-0.01005712 0.71700001 -0.040228479 1.611074e-38 312 272
-0.0087999795 0.71700001 -0.040228479 1.6295131e-38 313 272
-0.00753232 0.71600002 -0.040172372 1.6568824e-38 314 272
