# .PCD v.7 - Point Cloud Data file format
FIELDS x y z rgb imX imY
SIZE 4 4 4 4 4 4
TYPE F F F F F F
COUNT 1 1 1 1 1 1
WIDTH 836
HEIGHT 1
VIEWPOINT 0 0 0 1 0 0 0
POINTS 836
DATA ascii
-0.0036346598 0.69099998 -0.052096792 1.3709e-38 317 283
-0.0024231065 0.69099998 -0.052096792 1.3618239e-38 318 283
-0.0012115532 0.69099998 -0.052096792 1.3618239e-38 319 283
0 0.69099998 -0.052096792 1.3526756e-38 320 283
0.0012115532 0.69099998 -0.052096792 1.3526756e-38 321 283
0.0024195998 0.69 -0.052021399 1.3526756e-38 322 283
0.0036293997 0.69 -0.052021399 1.3526756e-38 323 283
0.0048391996 0.69 -0.052021399 1.3434561e-38 324 283
0.0060489997 0.69 -0.052021399 1.3526756e-38 325 283
0.0072377604 0.68800002 -0.051870614 1.3343795e-38 326 283
0.0084440531 0.68800002 -0.051870614 1.343599e-38 327 283
0.0096783992 0.69 -0.052021399 1.3619656e-38 328 283
0.01090398 0.69099998 -0.052096792 1.3619656e-38 329 283
0.012097999 0.69 -0.052021399 1.3435267e-38 330 283
0.0133078 0.69 -0.052021399 1.3250877e-38 331 283
0.014517599 0.69 -0.052021399 1.3433479e-38 332 283
0.015727401 0.69 -0.052021399 1.3340925e-38 333 283
0.0169372 0.69 -0.052021399 1.3249098e-38 334 283
0.018146999 0.69 -0.052021399 1.3249098e-38 335 283
0.019384852 0.69099998 -0.052096792 1.3066504e-38 336 283
0.020596405 0.69099998 -0.052096792 1.3250895e-38 337 283
0.021871079 0.69300002 -0.05224758 1.3251967e-38 338 283
0.02308614 0.69300002 -0.05224758 1.3344163e-38 339 283
0.024336265 0.69400001 -0.052322973 1.343636e-38 340 283
0.025553079 0.69400001 -0.052322973 1.343636e-38 341 283
0.026769891 0.69400001 -0.052322973 1.3345244e-38 342 283
0.027986705 0.69400001 -0.052322973 1.3529275e-38 343 283
0.029287677 0.69599998 -0.052473757 1.3438514e-38 344 283
0.030551834 0.69700003 -0.052549154 1.353071e-38 345 283
0.031819493 0.69800001 -0.052624546 1.3438161e-38 346 283
0.033137999 0.69999999 -0.052775331 1.3622552e-38 347 283
0.034365334 0.69999999 -0.052775331 1.3440329e-38 348 283
0.035643511 0.70099998 -0.052850723 1.362472e-38 349 283
0.036872596 0.70099998 -0.052850723 1.3809484e-38 350 283
0.038101684 0.70099998 -0.052850723 1.4085711e-38 351 283
0.039499093 0.704 -0.053076904 1.3814927e-38 352 283
0.040849157 0.70599997 -0.053227689 1.9162632e-38 353 283
0.042087011 0.70599997 -0.053227689 1.7978518e-38 354 283
-0.032184184 0.70599997 -0.054465543 1.114089e-38 294 284
-0.030946331 0.70599997 -0.054465543 1.1325282e-38 295 284
-0.029624319 0.704 -0.054311249 1.1872319e-38 296 284
-0.028389972 0.704 -0.054311249 1.1687928e-38 297 284
-0.027117053 0.70300001 -0.054234106 1.177903e-38 298 284
-0.025884461 0.70300001 -0.054234106 1.1686476e-38 299 284
-0.024581732 0.70099998 -0.054079808 1.1685757e-38 300 284
-0.023319334 0.69999999 -0.054002665 1.1501365e-38 301 284
-0.02202888 0.69800001 -0.053848371 1.1408465e-38 302 284
-0.020805053 0.69800001 -0.053848371 1.1039684e-38 303 284
-0.019581227 0.69800001 -0.053848371 1.1039334e-38 304 284
-0.0183574 0.69800001 -0.053848371 1.1224084e-38 305 284
-0.017133573 0.69800001 -0.053848371 1.1775805e-38 306 284
-0.015886955 0.69700003 -0.053771228 1.2236781e-38 307 284
-0.014643839 0.69599998 -0.053694077 1.2511908e-38 308 284
-0.013384946 0.69400001 -0.053539783 1.2604104e-38 309 284
-0.012168133 0.69400001 -0.053539783 1.288104e-38 310 284
-0.01095132 0.69400001 -0.053539783 1.288104e-38 311 284
-0.0097204801 0.69300002 -0.053462639 1.2973583e-38 312 284
-0.008480873 0.69099998 -0.053308345 1.3066138e-38 313 284
-0.0072693196 0.69099998 -0.053308345 1.3433479e-38 314 284
-0.0060577663 0.69099998 -0.053308345 1.3433479e-38 315 284
-0.0048462129 0.69099998 -0.053308345 1.3433489e-38 316 284
-0.0036346598 0.69099998 -0.053308345 1.3525685e-38 317 284
-0.0024231065 0.69099998 -0.053308345 1.3525685e-38 318 284
-0.0012097999 0.69 -0.053231198 1.3618239e-38 319 284
0 0.69 -0.053231198 1.3526403e-38 320 284
0.0012097999 0.69 -0.053231198 1.3434208e-38 321 284
0.0024195998 0.69 -0.053231198 1.3250898e-38 322 284
0.0036293997 0.69 -0.053231198 1.3158703e-38 323 284
0.0048251734 0.68800002 -0.053076908 1.3250177e-38 324 284
0.0060314666 0.68800002 -0.053076908 1.3434208e-38 325 284
0.0072377604 0.68800002 -0.053076908 1.3251249e-38 326 284
0.0084440531 0.68800002 -0.053076908 1.3251249e-38 327 284
0.0096503468 0.68800002 -0.053076908 1.352711e-38 328 284
0.010856641 0.68800002 -0.053076908 1.3434914e-38 329 284
0.012062933 0.68800002 -0.053076908 1.3250877e-38 330 284
0.013269227 0.68800002 -0.053076908 1.3158682e-38 331 284
0.014475521 0.68800002 -0.053076908 1.3249804e-38 332 284
0.015727401 0.69 -0.053231198 1.2973217e-38 333 284
0.0169372 0.69 -0.053231198 1.288139e-38 334 284
0.018146999 0.69 -0.053231198 1.2973586e-38 335 284
0.019384852 0.69099998 -0.053308345 1.2789922e-38 336 284
0.020596405 0.69099998 -0.053308345 1.2882117e-38 337 284
0.021871079 0.69300002 -0.053462639 1.2883911e-38 338 284
0.02308614 0.69300002 -0.053462639 1.2976106e-38 339 284
0.024336265 0.69400001 -0.053539783 1.3344163e-38 340 284
0.025553079 0.69400001 -0.053539783 1.3344163e-38 341 284
0.026769891 0.69400001 -0.053539783 1.325412e-38 342 284
0.027986705 0.69400001 -0.053539783 1.3346315e-38 343 284
0.029287677 0.69599998 -0.053694077 1.3346313e-38 344 284
0.030551834 0.69700003 -0.053771228 1.3346313e-38 345 284
0.031819493 0.69800001 -0.053848371 1.3346318e-38 346 284
0.033137999 0.69999999 -0.054002665 1.353071e-38 347 284
0.034365334 0.69999999 -0.054002665 1.3164815e-38 348 284
0.035643511 0.70099998 -0.054079808 1.3441401e-38 349 284
0.036872596 0.70099998 -0.054079808 1.3441776e-38 350 284
0.038101684 0.70099998 -0.054079808 1.38102e-38 351 284
0.039499093 0.704 -0.054311249 1.363197e-38 352 284
0.040849157 0.70599997 -0.054465543 1.9255543e-38 353 284
0.042087011 0.70599997 -0.054465543 1.8071069e-38 354 284
-0.032184184 0.70599997 -0.055703394 1.1418918e-38 294 285
-0.030946331 0.70599997 -0.055703394 1.1326722e-38 295 285
-0.029624319 0.704 -0.055545598 1.1965234e-38 296 285
-0.028389972 0.704 -0.055545598 1.1688647e-38 297 285
-0.027117053 0.70300001 -0.0554667 1.1595715e-38 298 285
-0.025884461 0.70300001 -0.0554667 1.150352e-38 299 285
-0.024581732 0.70099998 -0.055308893 1.1869072e-38 300 285
-0.023319334 0.69999999 -0.055229999 1.1500648e-38 301 285
-0.02202888 0.69800001 -0.0550722 1.1407025e-38 302 285
-0.020805053 0.69800001 -0.0550722 1.1222634e-38 303 285
-0.019581227 0.69800001 -0.0550722 1.0395765e-38 304 285
-0.0183574 0.69800001 -0.0550722 1.0579798e-38 305 285
-0.017109027 0.69700003 -0.054993302 1.1041488e-38 306 285
-0.015886955 0.69700003 -0.054993302 1.1409912e-38 307 285
-0.014643839 0.69599998 -0.054914396 1.223641e-38 308 285
-0.013384946 0.69400001 -0.054756597 1.2328964e-38 309 285
-0.012168133 0.69400001 -0.054756597 1.2421863e-38 310 285
-0.01095132 0.69400001 -0.054756597 1.2421863e-38 311 285
-0.0097204801 0.69300002 -0.054677699 1.2698796e-38 312 285
-0.008480873 0.69099998 -0.054519895 1.2790994e-38 313 285
-0.0072693196 0.69099998 -0.054519895 1.3066857e-38 314 285
-0.0060577663 0.69099998 -0.054519895 1.3066857e-38 315 285
-0.0048462129 0.69099998 -0.054519895 1.31587e-38 316 285
-0.0036346598 0.69099998 -0.054519895 1.31587e-38 317 285
-0.0024231065 0.69099998 -0.054519895 1.3250898e-38 318 285
-0.0012097999 0.69 -0.054440998 1.3250898e-38 319 285
0 0.69 -0.054440998 1.306723e-38 320 285
0.0012097999 0.69 -0.054440998 1.2975034e-38 321 285
0.0024195998 0.69 -0.054440998 1.2974684e-38 322 285
0.0036188802 0.68800002 -0.054283202 1.2882489e-38 323 285
0.0048251734 0.68800002 -0.054283202 1.2882486e-38 324 285
0.0060314666 0.68800002 -0.054283202 1.2882486e-38 325 285
0.0072377604 0.68800002 -0.054283202 1.3157628e-38 326 285
0.0084440531 0.68800002 -0.054283202 1.3157628e-38 327 285
0.0096503468 0.68800002 -0.054283202 1.31587e-38 328 285
0.010856641 0.68800002 -0.054283202 1.3066504e-38 329 285
0.012062933 0.68800002 -0.054283202 1.3066136e-38 330 285
0.013269227 0.68800002 -0.054283202 1.3066136e-38 331 285
0.014475521 0.68800002 -0.054283202 1.2973939e-38 332 285
0.015727401 0.69 -0.054440998 1.2881743e-38 333 285
0.0169372 0.69 -0.054440998 1.2698796e-38 334 285
0.018146999 0.69 -0.054440998 1.2606601e-38 335 285
0.019384852 0.69099998 -0.054519895 1.2422935e-38 336 285
0.020596405 0.69099998 -0.054519895 1.2607328e-38 337 285
0.021871079 0.69300002 -0.054677699 1.2608047e-38 338 285
0.023119451 0.69400001 -0.054756597 1.2792438e-38 339 285
0.024336265 0.69400001 -0.054756597 1.2884987e-38 340 285
0.025553079 0.69400001 -0.054756597 1.3161215e-38 341 285
0.026769891 0.69400001 -0.054756597 1.3161924e-38 342 285
0.028067358 0.69599998 -0.054914396 1.325412e-38 343 285
0.02932976 0.69700003 -0.054993302 1.3163003e-38 344 285
0.030595668 0.69800001 -0.0550722 1.3163003e-38 345 285
0.031910665 0.69999999 -0.055229999 1.3071171e-38 346 285
0.033137999 0.69999999 -0.055229999 1.3163366e-38 347 285
0.034365334 0.69999999 -0.055229999 1.3164818e-38 348 285
0.035643511 0.70099998 -0.055308893 1.3441045e-38 349 285
0.036872596 0.70099998 -0.055308893 1.3442496e-38 350 285
0.038210396 0.70300001 -0.0554667 1.3626888e-38 351 285
0.039442986 0.70300001 -0.0554667 1.390711e-38 352 285
0.040675577 0.70300001 -0.0554667 1.9623239e-38 353 285
0.041908171 0.70300001 -0.0554667 1.7887397e-38 354 285
-0.032093015 0.704 -0.056779943 1.1696581e-38 294 286
-0.030858666 0.704 -0.056779943 1.1143407e-38 295 286
-0.029624319 0.704 -0.056779943 1.1689728e-38 296 286
-0.028389972 0.704 -0.056779943 1.1504978e-38 297 286
-0.027117053 0.70300001 -0.056699295 1.1595012e-38 298 286
-0.025884461 0.70300001 -0.056699295 1.1502816e-38 299 286
-0.024651866 0.70300001 -0.056699295 1.1776524e-38 300 286
-0.023319334 0.69999999 -0.056457333 1.1776524e-38 301 286
-0.02202888 0.69800001 -0.056296028 1.0858163e-38 302 286
-0.020805053 0.69800001 -0.056296028 1.0489382e-38 303 286
-0.019581227 0.69800001 -0.056296028 9.8458131e-39 304 286
-0.0183574 0.69800001 -0.056296028 1.0029844e-38 305 286
-0.017109027 0.69700003 -0.056215372 1.1040037e-38 306 286
-0.015886955 0.69700003 -0.056215372 1.1593211e-38 307 286
-0.014643839 0.69599998 -0.056134716 1.2419359e-38 308 286
-0.013384946 0.69400001 -0.055973411 1.2511555e-38 309 286
-0.012168133 0.69400001 -0.055973411 1.241971e-38 310 286
-0.01095132 0.69400001 -0.055973411 1.241971e-38 311 286
-0.0097204801 0.69300002 -0.055892758 1.2604807e-38 312 286
-0.008480873 0.69099998 -0.055731449 1.2604807e-38 313 286
-0.0072693196 0.69099998 -0.055731449 1.2973939e-38 314 286
-0.0060577663 0.69099998 -0.055731449 1.3066136e-38 315 286
-0.0048462129 0.69099998 -0.055731449 1.3158334e-38 316 286
-0.0036346598 0.69099998 -0.055731449 1.325053e-38 317 286
-0.0024231065 0.69099998 -0.055731449 1.3158697e-38 318 286
-0.0012097999 0.69 -0.055650797 1.3158697e-38 319 286
0 0.69 -0.055650797 1.3158347e-38 320 286
0.0012097999 0.69 -0.055650797 1.3158347e-38 321 286
0.0024195998 0.69 -0.055650797 1.3065445e-38 322 286
0.0036188802 0.68800002 -0.055489492 1.2881414e-38 323 286
0.0048251734 0.68800002 -0.055489492 1.2789937e-38 324 286
0.0060314666 0.68800002 -0.055489492 1.2789937e-38 325 286
0.0072377604 0.68800002 -0.055489492 1.3064363e-38 326 286
0.0084440531 0.68800002 -0.055489492 1.3248394e-38 327 286
0.0096503468 0.68800002 -0.055489492 1.3064713e-38 328 286
0.010856641 0.68800002 -0.055489492 1.3064713e-38 329 286
0.012062933 0.68800002 -0.055489492 1.3066136e-38 330 286
0.013269227 0.68800002 -0.055489492 1.2973939e-38 331 286
0.014475521 0.68800002 -0.055489492 1.2881737e-38 332 286
0.015727401 0.69 -0.055650797 1.2974292e-38 333 286
0.0169372 0.69 -0.055650797 1.2698078e-38 334 286
0.018146999 0.69 -0.055650797 1.2698078e-38 335 286
0.019384852 0.69099998 -0.055731449 1.2606248e-38 336 286
0.020596405 0.69099998 -0.055731449 1.2698445e-38 337 286
0.021871079 0.69300002 -0.055892758 1.2515846e-38 338 286
0.023119451 0.69400001 -0.055973411 1.26084e-38 339 286
0.024336265 0.69400001 -0.055973411 1.2884258e-38 340 286
0.025553079 0.69400001 -0.055973411 1.2976454e-38 341 286
0.026769891 0.69400001 -0.055973411 1.3252321e-38 342 286
0.028067358 0.69599998 -0.056134716 1.3344516e-38 343 286
0.029371841 0.69800001 -0.056296028 1.2977536e-38 344 286
0.030595668 0.69800001 -0.056296028 1.3253764e-38 345 286
0.031910665 0.69999999 -0.056457333 1.3070099e-38 346 286
0.033137999 0.69999999 -0.056457333 1.343888e-38 347 286
0.034365334 0.69999999 -0.056457333 1.3164818e-38 348 286
0.035643511 0.70099998 -0.056537982 1.3257014e-38 349 286
0.036872596 0.70099998 -0.056537982 1.3533973e-38 350 286
0.038210396 0.70300001 -0.056699295 1.399495e-38 351 286
0.039442986 0.70300001 -0.056699295 1.3999671e-38 352 286
0.040675577 0.70300001 -0.056699295 1.9531409e-38 353 286
0.041908171 0.70300001 -0.056699295 1.7794122e-38 354 286
-0.032093015 0.704 -0.058014292 1.1973891e-38 294 287
-0.030858666 0.704 -0.058014292 1.0867543e-38 295 287
-0.029624319 0.704 -0.058014292 1.1322032e-38 296 287
-0.028349647 0.70300001 -0.057931885 1.1137641e-38 297 287
-0.027117053 0.70300001 -0.057931885 1.1503535e-38 298 287
-0.025884461 0.70300001 -0.057931885 1.1319145e-38 299 287
-0.024581732 0.70099998 -0.057767071 1.1686113e-38 300 287
-0.023319334 0.69999999 -0.05768466 1.1593917e-38 301 287
-0.02202888 0.69800001 -0.057519849 1.1501715e-38 302 287
-0.020805053 0.69800001 -0.057519849 1.1041097e-38 303 287
-0.019581227 0.69800001 -0.057519849 1.0305342e-38 304 287
-0.0183574 0.69800001 -0.057519849 1.0305342e-38 305 287
-0.017109027 0.69700003 -0.05743745 1.048975e-38 306 287
-0.015864158 0.69599998 -0.057355035 1.0766696e-38 307 287
-0.014643839 0.69599998 -0.057355035 1.1409543e-38 308 287
-0.013384946 0.69400001 -0.057190225 1.1409543e-38 309 287
-0.012168133 0.69400001 -0.057190225 1.1500648e-38 310 287
-0.010935539 0.69300002 -0.057107817 1.1500648e-38 311 287
-0.0097204801 0.69300002 -0.057107817 1.122657e-38 312 287
-0.008480873 0.69099998 -0.056942999 1.1503517e-38 313 287
-0.0072693196 0.69099998 -0.056942999 1.1964122e-38 314 287
-0.0060577663 0.69099998 -0.056942999 1.2148874e-38 315 287
-0.0048462129 0.69099998 -0.056942999 1.2790643e-38 316 287
-0.0036346598 0.69099998 -0.056942999 1.2975034e-38 317 287
-0.0024231065 0.69099998 -0.056942999 1.269989e-38 318 287
-0.0012115532 0.69099998 -0.056942999 1.269989e-38 319 287
0 0.69099998 -0.056942999 1.2699536e-38 320 287
0.0012097999 0.69 -0.0568606 1.2699536e-38 321 287
0.0024195998 0.69 -0.0568606 1.2698823e-38 322 287
0.0036188802 0.68800002 -0.056695789 1.2606627e-38 323 287
0.0048251734 0.68800002 -0.056695789 1.2514076e-38 324 287
0.0060314666 0.68800002 -0.056695789 1.2606272e-38 325 287
0.0072377604 0.68800002 -0.056695789 1.2514792e-38 326 287
0.0084440531 0.68800002 -0.056695789 1.2422596e-38 327 287
0.0096503468 0.68800002 -0.056695789 1.2698092e-38 328 287
0.010856641 0.68800002 -0.056695789 1.2790287e-38 329 287
0.012062933 0.68800002 -0.056695789 1.2515479e-38 330 287
0.013269227 0.68800002 -0.056695789 1.2515479e-38 331 287
0.014475521 0.68800002 -0.056695789 1.2698072e-38 332 287
0.015727401 0.69 -0.0568606 1.2698072e-38 333 287
0.0169372 0.69 -0.0568606 1.2606245e-38 334 287
0.018146999 0.69 -0.0568606 1.2606245e-38 335 287
0.019384852 0.69099998 -0.056942999 1.2422582e-38 336 287
0.020596405 0.69099998 -0.056942999 1.2514779e-38 337 287
0.021871079 0.69300002 -0.057107817 1.2515851e-38 338 287
0.02308614 0.69300002 -0.057107817 1.2700243e-38 339 287
0.024336265 0.69400001 -0.057190225 1.2517281e-38 340 287
0.025626717 0.69599998 -0.057355035 1.2517281e-38 341 287
0.026847038 0.69599998 -0.057355035 1.279351e-38 342 287
0.028107686 0.69700003 -0.05743745 1.2885706e-38 343 287
0.029371841 0.69800001 -0.057519849 1.2794591e-38 344 287
0.030595668 0.69800001 -0.057519849 1.2978622e-38 345 287
0.031910665 0.69999999 -0.05768466 1.2796031e-38 346 287
0.033137999 0.69999999 -0.05768466 1.2980422e-38 347 287
0.034414422 0.70099998 -0.057767071 1.2889676e-38 348 287
0.035643511 0.70099998 -0.057767071 1.3258098e-38 349 287
0.036977798 0.70300001 -0.057931885 1.3534695e-38 350 287
0.038210396 0.70300001 -0.057931885 1.408751e-38 351 287
0.039442986 0.70300001 -0.057931885 1.4277337e-38 352 287
0.040675577 0.70300001 -0.057931885 1.9348096e-38 353 287
0.041908171 0.70300001 -0.057931885 1.7701208e-38 354 287
-0.032093015 0.704 -0.059248637 1.234375e-38 294 288
-0.030858666 0.704 -0.059248637 1.0960814e-38 295 288
-0.029624319 0.704 -0.059248637 1.0955045e-38 296 288
-0.028349647 0.70300001 -0.059164476 1.0955045e-38 297 288
-0.027117053 0.70300001 -0.059164476 1.1412419e-38 298 288
-0.025884461 0.70300001 -0.059164476 1.1227669e-38 299 288
-0.024581732 0.70099998 -0.058996156 1.1410968e-38 300 288
-0.023319334 0.69999999 -0.058911994 1.1318773e-38 301 288
-0.022091998 0.69999999 -0.058911994 1.1133661e-38 302 288
-0.020864666 0.69999999 -0.058911994 1.0948911e-38 303 288
-0.019581227 0.69800001 -0.058743682 1.0212794e-38 304 288
-0.0183574 0.69800001 -0.058743682 1.0212794e-38 305 288
-0.017109027 0.69700003 -0.05865952 1.0397186e-38 306 288
-0.015864158 0.69599998 -0.058575355 1.0858163e-38 307 288
-0.014643839 0.69599998 -0.058575355 1.1225501e-38 308 288
-0.013384946 0.69400001 -0.058407038 1.1133305e-38 309 288
-0.012168133 0.69400001 -0.058407038 1.1315533e-38 310 288
-0.010935539 0.69300002 -0.058322877 1.1315533e-38 311 288
-0.0097204801 0.69300002 -0.058322877 1.1225488e-38 312 288
-0.0085054198 0.69300002 -0.058322877 1.1501715e-38 313 288
-0.0072903596 0.69300002 -0.058322877 1.2146719e-38 314 288
-0.0060577663 0.69099998 -0.058154557 1.2238914e-38 315 288
-0.0048462129 0.69099998 -0.058154557 1.2606978e-38 316 288
-0.0036346598 0.69099998 -0.058154557 1.2699173e-38 317 288
-0.0024231065 0.69099998 -0.058154557 1.2606625e-38 318 288
-0.0012115532 0.69099998 -0.058154557 1.269882e-38 319 288
0 0.69099998 -0.058154557 1.269882e-38 320 288
0.0012115532 0.69099998 -0.058154557 1.2606625e-38 321 288
0.0024195998 0.69 -0.058070395 1.2697391e-38 322 288
0.0036293997 0.69 -0.058070395 1.2697391e-38 323 288
0.0048251734 0.68800002 -0.057902083 1.2421526e-38 324 288
0.0060314666 0.68800002 -0.057902083 1.2421526e-38 325 288
0.0072377604 0.68800002 -0.057902083 1.2422232e-38 326 288
0.0084440531 0.68800002 -0.057902083 1.2422232e-38 327 288
0.0096503468 0.68800002 -0.057902083 1.2423303e-38 328 288
0.010856641 0.68800002 -0.057902083 1.2423303e-38 329 288
0.012062933 0.68800002 -0.057902083 1.2606245e-38 330 288
0.013269227 0.68800002 -0.057902083 1.2422214e-38 331 288
0.014475521 0.68800002 -0.057902083 1.2605882e-38 332 288
0.015727401 0.69 -0.058070395 1.2513328e-38 333 288
0.0169372 0.69 -0.058070395 1.2604807e-38 334 288
0.018146999 0.69 -0.058070395 1.2788838e-38 335 288
0.019384852 0.69099998 -0.058154557 1.2605529e-38 336 288
0.020596405 0.69099998 -0.058154557 1.2605529e-38 337 288
0.021871079 0.69300002 -0.058322877 1.2422935e-38 338 288
0.02308614 0.69300002 -0.058322877 1.2515133e-38 339 288
0.024336265 0.69400001 -0.058407038 1.2425085e-38 340 288
0.025626717 0.69599998 -0.058575355 1.2425085e-38 341 288
0.026885614 0.69700003 -0.05865952 1.2518353e-38 342 288
0.028148014 0.69800001 -0.058743682 1.2702744e-38 343 288
0.029371841 0.69800001 -0.058743682 1.2702747e-38 344 288
0.030683333 0.69999999 -0.058911994 1.2978975e-38 345 288
0.031910665 0.69999999 -0.058911994 1.2796031e-38 346 288
0.033137999 0.69999999 -0.058911994 1.3072618e-38 347 288
0.034414422 0.70099998 -0.058996156 1.3072991e-38 348 288
0.035643511 0.70099998 -0.058996156 1.3349578e-38 349 288
0.036977798 0.70300001 -0.059164476 1.3534339e-38 350 288
0.038210396 0.70300001 -0.059164476 1.43641e-38 351 288
0.039499093 0.704 -0.059248637 1.4555363e-38 352 288
0.040733438 0.704 -0.059248637 1.9072949e-38 353 288
-0.032093015 0.704 -0.060482983 1.3451536e-38 294 289
-0.030858666 0.704 -0.060482983 1.1054809e-38 295 289
-0.029624319 0.704 -0.060482983 1.1047596e-38 296 289
-0.028349647 0.70300001 -0.06039707 1.1231987e-38 297 289
-0.027117053 0.70300001 -0.06039707 1.1414212e-38 298 289
-0.025884461 0.70300001 -0.06039707 1.1137624e-38 299 289
-0.024651866 0.70300001 -0.06039707 1.1502445e-38 300 289
-0.023352645 0.70099998 -0.060225245 1.1225857e-38 301 289
-0.022091998 0.69999999 -0.060139328 1.1040393e-38 302 289
-0.020864666 0.69999999 -0.060139328 1.0855643e-38 303 289
-0.019581227 0.69800001 -0.059967503 1.030427e-38 304 289
-0.0183574 0.69800001 -0.059967503 1.0396466e-38 305 289
-0.017109027 0.69700003 -0.05988159 1.0397905e-38 306 289
-0.015864158 0.69599998 -0.059795678 1.0582655e-38 307 289
-0.01460176 0.69400001 -0.059623852 1.1041109e-38 308 289
-0.013384946 0.69400001 -0.059623852 1.0948914e-38 309 289
-0.012168133 0.69400001 -0.059623852 1.076488e-38 310 289
-0.010935539 0.69300002 -0.05953794 1.0948911e-38 311 289
-0.0097204801 0.69300002 -0.05953794 1.0858866e-38 312 289
-0.0085054198 0.69300002 -0.05953794 1.1228009e-38 313 289
-0.0072903596 0.69300002 -0.05953794 1.1779381e-38 314 289
-0.0060577663 0.69099998 -0.059366114 1.2055969e-38 315 289
-0.0048462129 0.69099998 -0.059366114 1.2422596e-38 316 289
-0.0036346598 0.69099998 -0.059366114 1.2514792e-38 317 289
-0.0024231065 0.69099998 -0.059366114 1.2331483e-38 318 289
-0.0012115532 0.69099998 -0.059366114 1.2331483e-38 319 289
0 0.69099998 -0.059366114 1.2239287e-38 320 289
0.0012097999 0.69 -0.059280202 1.2239287e-38 321 289
0.0024195998 0.69 -0.059280202 1.2238214e-38 322 289
0.0036293997 0.69 -0.059280202 1.2422246e-38 323 289
0.0048391996 0.69 -0.059280202 1.2146018e-38 324 289
0.0060489997 0.69 -0.059280202 1.2146018e-38 325 289
0.0072587994 0.69 -0.059280202 1.2146368e-38 326 289
0.0084440531 0.68800002 -0.059108373 1.2146368e-38 327 289
0.0096503468 0.68800002 -0.059108373 1.2147437e-38 328 289
0.010856641 0.68800002 -0.059108373 1.2055242e-38 329 289
0.012062933 0.68800002 -0.059108373 1.2146716e-38 330 289
0.0133078 0.69 -0.059280202 1.2146716e-38 331 289
0.014517599 0.69 -0.059280202 1.2513333e-38 332 289
0.015727401 0.69 -0.059280202 1.2513333e-38 333 289
0.0169372 0.69 -0.059280202 1.251333e-38 334 289
0.0181733 0.69099998 -0.059366114 1.2605526e-38 335 289
0.019384852 0.69099998 -0.059366114 1.2329662e-38 336 289
0.020656019 0.69300002 -0.05953794 1.2422217e-38 337 289
0.021871079 0.69300002 -0.05953794 1.2422935e-38 338 289
0.023119451 0.69400001 -0.059623852 1.2607328e-38 339 289
0.024336265 0.69400001 -0.059623852 1.2332536e-38 340 289
0.025626717 0.69599998 -0.059795678 1.2516928e-38 341 289
0.026885614 0.69700003 -0.05988159 1.2518721e-38 342 289
0.028148014 0.69800001 -0.059967503 1.2610917e-38 343 289
0.029371841 0.69800001 -0.059967503 1.2703114e-38 344 289
0.030683333 0.69999999 -0.060139328 1.2887505e-38 345 289
0.031910665 0.69999999 -0.060139328 1.2704559e-38 346 289
0.033137999 0.69999999 -0.060139328 1.2889309e-38 347 289
0.034414422 0.70099998 -0.060225245 1.2981521e-38 348 289
0.035745207 0.70300001 -0.06039707 1.344214e-38 349 289
0.036977798 0.70300001 -0.06039707 1.3443591e-38 350 289
0.038264744 0.704 -0.060482983 1.4826525e-38 351 289
0.039499093 0.704 -0.060482983 1.5385129e-38 352 289
0.040733438 0.704 -0.060482983 1.916515e-38 353 289
-0.030858666 0.704 -0.061717331 1.179346e-38 295 290
-0.029624319 0.704 -0.061717331 1.1231622e-38 296 290
-0.028389972 0.704 -0.061717331 1.1507848e-38 297 290
-0.027117053 0.70300001 -0.061629668 1.196594e-38 298 290
-0.025884461 0.70300001 -0.061629668 1.1504962e-38 299 290
-0.024651866 0.70300001 -0.061629668 1.1776874e-38 300 290
-0.023352645 0.70099998 -0.06145433 1.1316254e-38 301 290
-0.022091998 0.69999999 -0.061366666 1.0947839e-38 302 290
-0.020864666 0.69999999 -0.061366666 1.0763446e-38 303 290
-0.019581227 0.69800001 -0.061191335 1.0487585e-38 304 290
-0.0183574 0.69800001 -0.061191335 1.0579781e-38 305 290
-0.017109027 0.69700003 -0.061103668 1.0765602e-38 306 290
-0.015864158 0.69599998 -0.061015997 1.0857797e-38 307 290
-0.01460176 0.69400001 -0.060840666 1.1131858e-38 308 290
-0.013384946 0.69400001 -0.060840666 1.1131858e-38 309 290
-0.012168133 0.69400001 -0.060840666 1.0673033e-38 310 290
-0.010935539 0.69300002 -0.060752999 1.0949261e-38 311 290
-0.0097204801 0.69300002 -0.060752999 1.0951415e-38 312 290
-0.0085054198 0.69300002 -0.060752999 1.1228003e-38 313 290
-0.0072903596 0.69300002 -0.060752999 1.1871576e-38 314 290
-0.0060577663 0.69099998 -0.060577665 1.2055969e-38 315 290
-0.0048462129 0.69099998 -0.060577665 1.2238931e-38 316 290
-0.0036346598 0.69099998 -0.060577665 1.2238931e-38 317 290
-0.0024231065 0.69099998 -0.060577665 1.2146734e-38 318 290
-0.0012115532 0.69099998 -0.060577665 1.2238931e-38 319 290
0 0.69 -0.060489997 1.2055972e-38 320 290
0.0012097999 0.69 -0.060489997 1.2055972e-38 321 290
0.0024195998 0.69 -0.060489997 1.2146734e-38 322 290
0.0036293997 0.69 -0.060489997 1.2146734e-38 323 290
0.0048391996 0.69 -0.060489997 1.2054538e-38 324 290
0.0060489997 0.69 -0.060489997 1.2054538e-38 325 290
0.0072587994 0.69 -0.060489997 1.2146368e-38 326 290
0.0084440531 0.68800002 -0.060314666 1.2146368e-38 327 290
0.0096503468 0.68800002 -0.060314666 1.2238917e-38 328 290
0.010888199 0.69 -0.060489997 1.2146721e-38 329 290
0.012097999 0.69 -0.060489997 1.2146719e-38 330 290
0.0133078 0.69 -0.060489997 1.2146719e-38 331 290
0.014517599 0.69 -0.060489997 1.2421861e-38 332 290
0.015727401 0.69 -0.060489997 1.2421861e-38 333 290
0.0169372 0.69 -0.060489997 1.2330737e-38 334 290
0.0181733 0.69099998 -0.060577665 1.2330737e-38 335 290
0.019384852 0.69099998 -0.060577665 1.2147069e-38 336 290
0.020656019 0.69300002 -0.060752999 1.2239264e-38 337 290
0.021902639 0.69400001 -0.060840666 1.2147788e-38 338 290
0.023119451 0.69400001 -0.060840666 1.233218e-38 339 290
0.0244064 0.69599998 -0.061015997 1.2425098e-38 340 290
0.025626717 0.69599998 -0.061015997 1.2517293e-38 341 290
0.026885614 0.69700003 -0.061103668 1.2426897e-38 342 290
0.028148014 0.69800001 -0.061191335 1.2426897e-38 343 290
0.029371841 0.69800001 -0.061191335 1.2611641e-38 344 290
0.030683333 0.69999999 -0.061366666 1.2796031e-38 345 290
0.031910665 0.69999999 -0.061366666 1.2796757e-38 346 290
0.033137999 0.69999999 -0.061366666 1.3072985e-38 347 290
0.034414422 0.70099998 -0.06145433 1.298224e-38 348 290
0.035745207 0.70300001 -0.061629668 1.3258828e-38 349 290
0.037030395 0.704 -0.061717331 1.3351758e-38 350 290
0.038373452 0.70599997 -0.061892662 1.5564813e-38 351 290
0.039611302 0.70599997 -0.061892662 1.6031945e-38 352 290
-0.030946331 0.70599997 -0.063130513 1.336151e-38 295 291
-0.029624319 0.704 -0.062951677 1.2611675e-38 296 291
-0.028389972 0.704 -0.062951677 1.2243253e-38 297 291
-0.027155625 0.704 -0.062951677 1.2516593e-38 298 291
-0.025884461 0.70300001 -0.062862262 1.214817e-38 299 291
-0.024651866 0.70300001 -0.062862262 1.1502448e-38 300 291
-0.023319334 0.69999999 -0.062593997 1.1317698e-38 301 291
-0.022091998 0.69999999 -0.062593997 1.0857441e-38 302 291
-0.020864666 0.69999999 -0.062593997 1.0580854e-38 303 291
-0.019581227 0.69800001 -0.062415157 1.0396466e-38 304 291
-0.0183574 0.69800001 -0.062415157 1.0580857e-38 305 291
-0.017109027 0.69700003 -0.062325738 1.1133658e-38 306 291
-0.015864158 0.69599998 -0.062236317 1.1133658e-38 307 291
-0.01460176 0.69400001 -0.06205748 1.1224406e-38 308 291
-0.013384946 0.69400001 -0.06205748 1.0948178e-38 309 291
-0.012168133 0.69400001 -0.06205748 1.076523e-38 310 291
-0.010935539 0.69300002 -0.061968062 1.1041816e-38 311 291
-0.0097204801 0.69300002 -0.061968062 1.1227279e-38 312 291
-0.0085054198 0.69300002 -0.061968062 1.1411672e-38 313 291
-0.0072903596 0.69300002 -0.061968062 1.1870858e-38 314 291
-0.0060577663 0.69099998 -0.061789215 1.2147084e-38 315 291
-0.0048462129 0.69099998 -0.061789215 1.1963786e-38 316 291
-0.0036346598 0.69099998 -0.061789215 1.1871589e-38 317 291
-0.0024231065 0.69099998 -0.061789215 1.2055619e-38 318 291
-0.0012115532 0.69099998 -0.061789215 1.1963422e-38 319 291
0 0.69 -0.061699796 1.1963775e-38 320 291
0.0012097999 0.69 -0.061699796 1.1963775e-38 321 291
0.0024195998 0.69 -0.061699796 1.1871223e-38 322 291
0.0036293997 0.69 -0.061699796 1.1871223e-38 323 291
0.0048391996 0.69 -0.061699796 1.1870504e-38 324 291
0.0060489997 0.69 -0.061699796 1.1870504e-38 325 291
0.0072587994 0.69 -0.061699796 1.2237482e-38 326 291
0.0084440531 0.68800002 -0.06152096 1.2237482e-38 327 291
0.0096503468 0.68800002 -0.06152096 1.2146719e-38 328 291
0.010888199 0.69 -0.061699796 1.2146719e-38 329 291
0.012097999 0.69 -0.061699796 1.2238185e-38 330 291
0.013327086 0.69099998 -0.061789215 1.2238185e-38 331 291
0.014538639 0.69099998 -0.061789215 1.2330737e-38 332 291
0.015750192 0.69099998 -0.061789215 1.2330737e-38 333 291
0.016961746 0.69099998 -0.061789215 1.2147425e-38 334 291
0.018225901 0.69300002 -0.061968062 1.2147425e-38 335 291
0.01944096 0.69300002 -0.061968062 1.1871924e-38 336 291
0.020656019 0.69300002 -0.061968062 1.1871924e-38 337 291
0.021902639 0.69400001 -0.06205748 1.1964478e-38 338 291
0.023119451 0.69400001 -0.06205748 1.2148871e-38 339 291
0.0244064 0.69599998 -0.062236317 1.2242504e-38 340 291
0.025663542 0.69700003 -0.062325738 1.2242504e-38 341 291
0.026885614 0.69700003 -0.062325738 1.2426897e-38 342 291
0.028148014 0.69800001 -0.062415157 1.2519451e-38 343 291
0.029455997 0.69999999 -0.062593997 1.2794603e-38 344 291
0.030683333 0.69999999 -0.062593997 1.2979353e-38 345 291
0.031910665 0.69999999 -0.062593997 1.2888601e-38 346 291
0.033137999 0.69999999 -0.062593997 1.3165186e-38 347 291
0.034414422 0.70099998 -0.062683418 1.3166631e-38 348 291
0.035796054 0.704 -0.062951677 1.3351024e-38 349 291
0.037135597 0.70599997 -0.063130513 1.3352487e-38 350 291
0.038373452 0.70599997 -0.063130513 1.6579334e-38 351 291
-0.030946331 0.70599997 -0.064368367 1.4837007e-38 295 292
-0.029624319 0.704 -0.064186029 1.3351039e-38 296 292
-0.028389972 0.704 -0.064186029 1.2429082e-38 297 292
-0.027155625 0.704 -0.064186029 1.233507e-38 298 292
-0.025884461 0.70300001 -0.064094849 1.1966646e-38 299 292
-0.024651866 0.70300001 -0.064094849 1.2146719e-38 300 292
-0.023319334 0.69999999 -0.063821331 1.1962327e-38 301 292
-0.022091998 0.69999999 -0.063821331 1.1593192e-38 302 292
-0.020864666 0.69999999 -0.063821331 1.1316605e-38 303 292
-0.019637333 0.69999999 -0.063821331 1.0489738e-38 304 292
-0.0183574 0.69800001 -0.063638985 1.0581933e-38 305 292
-0.017109027 0.69700003 -0.06354782 1.104326e-38 306 292
-0.015886955 0.69700003 -0.06354782 1.0951065e-38 307 292
-0.014643839 0.69599998 -0.063456632 1.1499548e-38 308 292
-0.013384946 0.69400001 -0.063274294 1.1407353e-38 309 292
-0.012168133 0.69400001 -0.063274294 1.113364e-38 310 292
-0.010935539 0.69300002 -0.063183114 1.1410225e-38 311 292
-0.0097204801 0.69300002 -0.063183114 1.1136164e-38 312 292
-0.0085054198 0.69300002 -0.063183114 1.1320555e-38 313 292
-0.0072903596 0.69300002 -0.063183114 1.1504239e-38 314 292
-0.0060577663 0.69099998 -0.063000768 1.168863e-38 315 292
-0.0048462129 0.69099998 -0.063000768 1.1688997e-38 316 292
-0.0036346598 0.69099998 -0.063000768 1.1504964e-38 317 292
-0.0024231065 0.69099998 -0.063000768 1.1963422e-38 318 292
-0.0012115532 0.69099998 -0.063000768 1.1871226e-38 319 292
0 0.69099998 -0.063000768 1.1871223e-38 320 292
0.0012097999 0.69 -0.062909603 1.1871223e-38 321 292
0.0024195998 0.69 -0.062909603 1.1687911e-38 322 292
0.0036293997 0.69 -0.062909603 1.1687911e-38 323 292
0.0048391996 0.69 -0.062909603 1.1870502e-38 324 292
0.0060489997 0.69 -0.062909603 1.1870502e-38 325 292
0.0072587994 0.69 -0.062909603 1.1870855e-38 326 292
0.0084686 0.69 -0.062909603 1.2054886e-38 327 292
0.0096783992 0.69 -0.062909603 1.2146716e-38 328 292
0.010888199 0.69 -0.062909603 1.205452e-38 329 292
0.012097999 0.69 -0.062909603 1.1871561e-38 330 292
0.013327086 0.69099998 -0.063000768 1.1871561e-38 331 292
0.014538639 0.69099998 -0.063000768 1.2054873e-38 332 292
0.015795778 0.69300002 -0.063183114 1.2147069e-38 333 292
0.01701084 0.69300002 -0.063183114 1.1871924e-38 334 292
0.018225901 0.69300002 -0.063183114 1.1871924e-38 335 292
0.01944096 0.69300002 -0.063183114 1.1597138e-38 336 292
0.020685827 0.69400001 -0.063274294 1.1689333e-38 337 292
0.021902639 0.69400001 -0.063274294 1.178153e-38 338 292
0.023186078 0.69599998 -0.063456632 1.2149953e-38 339 292
0.024441468 0.69700003 -0.06354782 1.1967715e-38 340 292
0.025663542 0.69700003 -0.06354782 1.1967715e-38 341 292
0.026924185 0.69800001 -0.063638985 1.2335067e-38 342 292
0.028148014 0.69800001 -0.063638985 1.2612013e-38 343 292
0.029455997 0.69999999 -0.063821331 1.2704206e-38 344 292
0.030683333 0.69999999 -0.063821331 1.2888957e-38 345 292
0.031910665 0.69999999 -0.063821331 1.3072991e-38 346 292
0.03318534 0.70099998 -0.063912503 1.3257382e-38 347 292
0.034414422 0.70099998 -0.063912503 1.3076235e-38 348 292
0.035897743 0.70599997 -0.064368367 1.3352462e-38 349 292
0.037135597 0.70599997 -0.064368367 1.36298e-38 350 292
-0.029624319 0.704 -0.065420374 1.3906735e-38 296 293
-0.028389972 0.704 -0.065420374 1.2062824e-38 297 293
-0.027155625 0.704 -0.065420374 1.1784065e-38 298 293
-0.025884461 0.70300001 -0.065327443 1.2060654e-38 299 293
-0.024651866 0.70300001 -0.065327443 1.1965587e-38 300 293
-0.023319334 0.69999999 -0.065048665 1.1689e-38 301 293
-0.022091998 0.69999999 -0.065048665 1.1410615e-38 302 293
-0.020864666 0.69999999 -0.065048665 1.0949996e-38 303 293
-0.019637333 0.69999999 -0.065048665 1.0214596e-38 304 293
-0.0183574 0.69800001 -0.06486281 1.0398987e-38 305 293
-0.017133573 0.69800001 -0.06486281 1.1225491e-38 306 293
-0.015886955 0.69700003 -0.064769886 1.1593915e-38 307 293
-0.014643839 0.69599998 -0.064676955 1.1502421e-38 308 293
-0.013384946 0.69400001 -0.064491108 1.1410225e-38 309 293
-0.012168133 0.69400001 -0.064491108 1.1043961e-38 310 293
-0.01095132 0.69400001 -0.064491108 1.1136158e-38 311 293
-0.0097204801 0.69300002 -0.064398177 1.1411672e-38 312 293
-0.0085054198 0.69300002 -0.064398177 1.1503867e-38 313 293
-0.0072903596 0.69300002 -0.064398177 1.1413122e-38 314 293
-0.0060577663 0.69099998 -0.06421233 1.1413122e-38 315 293
-0.0048462129 0.69099998 -0.06421233 1.1688281e-38 316 293
-0.0036346598 0.69099998 -0.06421233 1.1688281e-38 317 293
-0.0024231065 0.69099998 -0.06421233 1.1963066e-38 318 293
-0.0012115532 0.69099998 -0.06421233 1.1963066e-38 319 293
0 0.69099998 -0.06421233 1.1963775e-38 320 293
0.0012097999 0.69 -0.064119399 1.187122e-38 321 293
0.0024195998 0.69 -0.064119399 1.1687908e-38 322 293
0.0036293997 0.69 -0.064119399 1.1687908e-38 323 293
0.0048391996 0.69 -0.064119399 1.1870502e-38 324 293
0.0060489997 0.69 -0.064119399 1.1870502e-38 325 293
0.0072693196 0.69099998 -0.06421233 1.205417e-38 326 293
0.0084686 0.69 -0.064119399 1.205417e-38 327 293
0.0096783992 0.69 -0.064119399 1.1961971e-38 328 293
0.01090398 0.69099998 -0.06421233 1.1961971e-38 329 293
0.012150601 0.69300002 -0.064398177 1.2054876e-38 330 293
0.01336566 0.69300002 -0.064398177 1.2054876e-38 331 293
0.014580719 0.69300002 -0.064398177 1.2054873e-38 332 293
0.015795778 0.69300002 -0.064398177 1.1962678e-38 333 293
0.01701084 0.69300002 -0.064398177 1.1871205e-38 334 293
0.0182522 0.69400001 -0.064491108 1.1871205e-38 335 293
0.019469013 0.69400001 -0.064491108 1.1596419e-38 336 293
0.020685827 0.69400001 -0.064491108 1.1872646e-38 337 293
0.021965759 0.69599998 -0.064676955 1.1874076e-38 338 293
0.023186078 0.69599998 -0.064676955 1.1966272e-38 339 293
0.024441468 0.69700003 -0.064769886 1.2150662e-38 340 293
0.025663542 0.69700003 -0.064769886 1.2242857e-38 341 293
0.026924185 0.69800001 -0.06486281 1.2426897e-38 342 293
0.028148014 0.69800001 -0.06486281 1.2611647e-38 343 293
0.029455997 0.69999999 -0.065048665 1.2704206e-38 344 293
0.030683333 0.69999999 -0.065048665 1.2888957e-38 345 293
0.031956252 0.70099998 -0.065141588 1.2981521e-38 346 293
0.03318534 0.70099998 -0.065141588 1.3257748e-38 347 293
0.034414422 0.70099998 -0.065141588 1.3258831e-38 348 293
0.035897743 0.70599997 -0.065606222 1.4272623e-38 349 293
0.037135597 0.70599997 -0.065606222 1.4370248e-38 350 293
-0.028389972 0.704 -0.066654719 1.2434493e-38 297 294
-0.027155625 0.704 -0.066654719 1.2521262e-38 298 294
-0.025884461 0.70300001 -0.066560037 1.2521262e-38 299 294
-0.024581732 0.70099998 -0.066370681 1.279389e-38 300 294
-0.023319334 0.69999999 -0.066275999 1.2332552e-38 301 294
-0.022091998 0.69999999 -0.066275999 1.1961974e-38 302 294
-0.020864666 0.69999999 -0.066275999 1.1593192e-38 303 294
-0.019637333 0.69999999 -0.066275999 1.1041107e-38 304 294
-0.0183574 0.69800001 -0.066086642 1.1041107e-38 305 294
-0.017133573 0.69800001 -0.066086642 1.1226573e-38 306 294
-0.015886955 0.69700003 -0.06599196 1.131877e-38 307 294
-0.014643839 0.69599998 -0.065897278 1.177793e-38 308 294
-0.013384946 0.69400001 -0.065707922 1.177793e-38 309 294
-0.012168133 0.69400001 -0.065707922 1.1594618e-38 310 294
-0.01095132 0.69400001 -0.065707922 1.1594618e-38 311 294
-0.0097345067 0.69400001 -0.065707922 1.1319126e-38 312 294
-0.0085054198 0.69300002 -0.06561324 1.1503517e-38 313 294
-0.0072903596 0.69300002 -0.06561324 1.1320217e-38 314 294
-0.0060753003 0.69300002 -0.06561324 1.1412413e-38 315 294
-0.00486024 0.69300002 -0.06561324 1.1504616e-38 316 294
-0.0036346598 0.69099998 -0.065423876 1.1504616e-38 317 294
-0.0024231065 0.69099998 -0.065423876 1.1871589e-38 318 294
-0.0012115532 0.69099998 -0.065423876 1.1687558e-38 319 294
0 0.69099998 -0.065423876 1.187122e-38 320 294
0.0012115532 0.69099998 -0.065423876 1.187122e-38 321 294
0.0024231065 0.69099998 -0.065423876 1.1596068e-38 322 294
0.0036346598 0.69099998 -0.065423876 1.1596068e-38 323 294
0.0048462129 0.69099998 -0.065423876 1.1779028e-38 324 294
0.0060577663 0.69099998 -0.065423876 1.1686832e-38 325 294
0.0072693196 0.69099998 -0.065423876 1.1778312e-38 326 294
0.008480873 0.69099998 -0.065423876 1.1778312e-38 327 294
0.0097204801 0.69300002 -0.06561324 1.1869423e-38 328 294
0.010935539 0.69300002 -0.06561324 1.1869423e-38 329 294
0.012150601 0.69300002 -0.06561324 1.1687535e-38 330 294
0.013384946 0.69400001 -0.065707922 1.1687535e-38 331 294
0.01460176 0.69400001 -0.065707922 1.1871561e-38 332 294
0.015818574 0.69400001 -0.065707922 1.1871561e-38 333 294
0.017035386 0.69400001 -0.065707922 1.1779728e-38 334 294
0.0182522 0.69400001 -0.065707922 1.1779728e-38 335 294
0.019469013 0.69400001 -0.065707922 1.1688612e-38 336 294
0.020745439 0.69599998 -0.065897278 1.1872643e-38 337 294
0.021965759 0.69599998 -0.065897278 1.1782602e-38 338 294
0.023186078 0.69599998 -0.065897278 1.1966994e-38 339 294
0.024441468 0.69700003 -0.06599196 1.2242504e-38 340 294
0.025700359 0.69800001 -0.066086642 1.23347e-38 341 294
0.026924185 0.69800001 -0.066086642 1.2702764e-38 342 294
0.028228667 0.69999999 -0.066275999 1.2887155e-38 343 294
0.029455997 0.69999999 -0.066275999 1.2796757e-38 344 294
0.030727165 0.70099998 -0.066370681 1.3072985e-38 345 294
0.031956252 0.70099998 -0.066370681 1.3257748e-38 346 294
0.03318534 0.70099998 -0.066370681 1.344214e-38 347 294
0.034561705 0.704 -0.066654719 1.3536503e-38 348 294
0.035897743 0.70599997 -0.066844068 1.4366623e-38 349 294
0.037135597 0.70599997 -0.066844068 1.4741556e-38 350 294
-0.028389972 0.704 -0.067889065 1.3174945e-38 297 295
-0.027155625 0.704 -0.067889065 1.32592e-38 298 295
-0.025884461 0.70300001 -0.067792632 1.3166645e-38 299 295
-0.024581732 0.70099998 -0.067599766 1.2611309e-38 300 295
-0.023319334 0.69999999 -0.067503333 1.2150331e-38 301 295
-0.022091998 0.69999999 -0.067503333 1.1780827e-38 302 295
-0.020864666 0.69999999 -0.067503333 1.1319849e-38 303 295
-0.019637333 0.69999999 -0.067503333 1.1226576e-38 304 295
-0.018409999 0.69999999 -0.067503333 1.1226576e-38 305 295
-0.017133573 0.69800001 -0.06731046 1.1410968e-38 306 295
-0.015909746 0.69800001 -0.06731046 1.1503164e-38 307 295
-0.014643839 0.69599998 -0.067117594 1.1687185e-38 308 295
-0.013384946 0.69400001 -0.066924736 1.1687185e-38 309 295
-0.012168133 0.69400001 -0.066924736 1.1503151e-38 310 295
-0.01095132 0.69400001 -0.066924736 1.1503151e-38 311 295
-0.0097345067 0.69400001 -0.066924736 1.1410602e-38 312 295
-0.0085054198 0.69300002 -0.066828303 1.1502798e-38 313 295
-0.0072903596 0.69300002 -0.066828303 1.1503167e-38 314 295
-0.0060753003 0.69300002 -0.066828303 1.1503167e-38 315 295
-0.00486024 0.69300002 -0.066828303 1.1503532e-38 316 295
-0.0036451798 0.69300002 -0.066828303 1.1595728e-38 317 295
-0.00243012 0.69300002 -0.066828303 1.1870873e-38 318 295
-0.00121506 0.69300002 -0.066828303 1.1870873e-38 319 295
0 0.69099998 -0.06663543 1.1871226e-38 320 295
0.0012115532 0.69099998 -0.06663543 1.177903e-38 321 295
0.0024231065 0.69099998 -0.06663543 1.1779381e-38 322 295
0.0036346598 0.69099998 -0.06663543 1.1779381e-38 323 295
0.0048462129 0.69099998 -0.06663543 1.1779025e-38 324 295
0.0060577663 0.69099998 -0.06663543 1.1686829e-38 325 295
0.0072903596 0.69300002 -0.066828303 1.1778306e-38 326 295
0.0085054198 0.69300002 -0.066828303 1.168611e-38 327 295
0.0097204801 0.69300002 -0.066828303 1.1687535e-38 328 295
0.010935539 0.69300002 -0.066828303 1.1687535e-38 329 295
0.012150601 0.69300002 -0.066828303 1.1779365e-38 330 295
0.013384946 0.69400001 -0.066924736 1.1779365e-38 331 295
0.01460176 0.69400001 -0.066924736 1.1779365e-38 332 295
0.015818574 0.69400001 -0.066924736 1.1871561e-38 333 295
0.017035386 0.69400001 -0.066924736 1.1596063e-38 334 295
0.0182522 0.69400001 -0.066924736 1.1872648e-38 335 295
0.019469013 0.69400001 -0.066924736 1.1872648e-38 336 295
0.020745439 0.69599998 -0.067117594 1.2057041e-38 337 295
0.021965759 0.69599998 -0.067117594 1.1966278e-38 338 295
0.023219392 0.69700003 -0.067214034 1.2242504e-38 339 295
0.024441468 0.69700003 -0.067214034 1.2609492e-38 340 295
0.025700359 0.69800001 -0.06731046 1.2794243e-38 341 295
0.026924185 0.69800001 -0.06731046 1.2611647e-38 342 295
0.028228667 0.69999999 -0.067503333 1.2980069e-38 343 295
0.029455997 0.69999999 -0.067503333 1.2889676e-38 344 295
0.030727165 0.70099998 -0.067599766 1.3074067e-38 345 295
0.032047424 0.70300001 -0.067792632 1.3349946e-38 346 295
0.03332736 0.704 -0.067889065 1.371873e-38 347 295
0.034561705 0.704 -0.067889065 1.3628355e-38 348 295
0.035897743 0.70599997 -0.06808193 1.5103485e-38 349 295
0.037135597 0.70599997 -0.06808193 1.5203629e-38 350 295
0.038590867 0.70999998 -0.068467662 1.6770953e-38 351 295
-0.027155625 0.704 -0.06912341 1.3813815e-38 298 296
-0.025884461 0.70300001 -0.069025226 1.2800023e-38 299 296
-0.024651866 0.70300001 -0.069025226 1.2979366e-38 300 296
-0.023352645 0.70099998 -0.068828844 1.2610943e-38 301 296
-0.022091998 0.69999999 -0.068730667 1.2424747e-38 302 296
-0.020864666 0.69999999 -0.068730667 1.2056325e-38 303 296
-0.019637333 0.69999999 -0.068730667 1.1871574e-38 304 296
-0.018409999 0.69999999 -0.068730667 1.1779378e-38 305 296
-0.017133573 0.69800001 -0.068534292 1.1504233e-38 306 296
-0.015909746 0.69800001 -0.068534292 1.1504233e-38 307 296
-0.014643839 0.69599998 -0.068337917 1.1779378e-38 308 296
-0.013423519 0.69599998 -0.068337917 1.1779378e-38 309 296
-0.012168133 0.69400001 -0.068141542 1.1687182e-38 310 296
-0.01095132 0.69400001 -0.068141542 1.1687182e-38 311 296
-0.0097345067 0.69400001 -0.068141542 1.1502798e-38 312 296
-0.0085176928 0.69400001 -0.068141542 1.1502798e-38 313 296
-0.0072903596 0.69300002 -0.068043359 1.1503167e-38 314 296
-0.0060753003 0.69300002 -0.068043359 1.1503167e-38 315 296
-0.00486024 0.69300002 -0.068043359 1.1595009e-38 316 296
-0.0036451798 0.69300002 -0.068043359 1.1687205e-38 317 296
-0.00243012 0.69300002 -0.068043359 1.1687561e-38 318 296
-0.00121506 0.69300002 -0.068043359 1.1595365e-38 319 296
0 0.69099998 -0.067846984 1.1595359e-38 320 296
0.0012115532 0.69099998 -0.067846984 1.1503164e-38 321 296
0.0024231065 0.69099998 -0.067846984 1.1687185e-38 322 296
0.0036346598 0.69099998 -0.067846984 1.1687185e-38 323 296
0.0048462129 0.69099998 -0.067846984 1.1687185e-38 324 296
0.0060577663 0.69099998 -0.067846984 1.1687185e-38 325 296
0.0072903596 0.69300002 -0.068043359 1.1687182e-38 326 296
0.0085054198 0.69300002 -0.068043359 1.1687182e-38 327 296
0.0097204801 0.69300002 -0.068043359 1.150422e-38 328 296
0.010935539 0.69300002 -0.068043359 1.150422e-38 329 296
0.012150601 0.69300002 -0.068043359 1.168753e-38 330 296
0.013384946 0.69400001 -0.068141542 1.168753e-38 331 296
0.01460176 0.69400001 -0.068141542 1.1779728e-38 332 296
0.015818574 0.69400001 -0.068141542 1.1779728e-38 333 296
0.017035386 0.69400001 -0.068141542 1.1688261e-38 334 296
0.0182522 0.69400001 -0.068141542 1.1872292e-38 335 296
0.019469013 0.69400001 -0.068141542 1.1964489e-38 336 296
0.020745439 0.69599998 -0.068337917 1.2149239e-38 337 296
0.021965759 0.69599998 -0.068337917 1.2241788e-38 338 296
0.023219392 0.69700003 -0.068436109 1.2518015e-38 339 296
0.024441468 0.69700003 -0.068436109 1.2702408e-38 340 296
0.025700359 0.69800001 -0.068534292 1.2794603e-38 341 296
0.026924185 0.69800001 -0.068534292 1.2795678e-38 342 296
0.028228667 0.69999999 -0.068730667 1.3072265e-38 343 296
0.029498078 0.70099998 -0.068828844 1.2981871e-38 344 296
0.030814834 0.70300001 -0.069025226 1.3350294e-38 345 296
0.032093015 0.704 -0.06912341 1.3351024e-38 346 296
0.033422034 0.70599997 -0.069319785 1.3812001e-38 347 296
0.034659892 0.70599997 -0.069319785 1.3905307e-38 348 296
0.035948593 0.70700002 -0.069417976 1.5380798e-38 349 296
0.037188202 0.70700002 -0.069417976 1.4745537e-38 350 296
0.038590867 0.70999998 -0.069712527 1.594408e-38 351 296
-0.025884461 0.70300001 -0.070257813 1.2986218e-38 299 297
-0.024651866 0.70300001 -0.070257813 1.3349227e-38 300 297
-0.023352645 0.70099998 -0.070057929 1.2888251e-38 301 297
-0.022123558 0.70099998 -0.070057929 1.2611297e-38 302 297
-0.020894472 0.70099998 -0.070057929 1.2242154e-38 303 297
-0.019665385 0.70099998 -0.070057929 1.2149234e-38 304 297
-0.018409999 0.69999999 -0.069957994 1.2057038e-38 305 297
-0.017182667 0.69999999 -0.069957994 1.1872646e-38 306 297
-0.015909746 0.69800001 -0.069758117 1.1964843e-38 307 297
-0.014643839 0.69599998 -0.069558233 1.2055239e-38 308 297
-0.013423519 0.69599998 -0.069558233 1.1871208e-38 309 297
-0.012168133 0.69400001 -0.069358356 1.1779012e-38 310 297
-0.01095132 0.69400001 -0.069358356 1.1779012e-38 311 297
-0.0097345067 0.69400001 -0.069358356 1.1687182e-38 312 297
-0.0085176928 0.69400001 -0.069358356 1.1687182e-38 313 297
-0.0072903596 0.69300002 -0.069258414 1.1686476e-38 314 297
-0.0060753003 0.69300002 -0.069258414 1.1686476e-38 315 297
-0.00486024 0.69300002 -0.069258414 1.1503167e-38 316 297
-0.0036451798 0.69300002 -0.069258414 1.1595362e-38 317 297
-0.00243012 0.69300002 -0.069258414 1.1595359e-38 318 297
-0.00121506 0.69300002 -0.069258414 1.1503164e-38 319 297
0 0.69300002 -0.069258414 1.1686113e-38 320 297
0.00121506 0.69300002 -0.069258414 1.1686113e-38 321 297
0.00243012 0.69300002 -0.069258414 1.1593912e-38 322 297
0.0036451798 0.69300002 -0.069258414 1.1686466e-38 323 297
0.00486024 0.69300002 -0.069258414 1.1411319e-38 324 297
0.0060753003 0.69300002 -0.069258414 1.1503514e-38 325 297
0.0072903596 0.69300002 -0.069258414 1.1320552e-38 326 297
0.0085054198 0.69300002 -0.069258414 1.1320552e-38 327 297
0.0097204801 0.69300002 -0.069258414 1.1503855e-38 328 297
0.010935539 0.69300002 -0.069258414 1.1687886e-38 329 297
0.012150601 0.69300002 -0.069258414 1.1504574e-38 330 297
0.013384946 0.69400001 -0.069358356 1.1504574e-38 331 297
0.01460176 0.69400001 -0.069358356 1.1596416e-38 332 297
0.015818574 0.69400001 -0.069358356 1.1688612e-38 333 297
0.017035386 0.69400001 -0.069358356 1.168898e-38 334 297
0.018304799 0.69599998 -0.069558233 1.168898e-38 335 297
0.019525118 0.69599998 -0.069558233 1.2148521e-38 336 297
0.020745439 0.69599998 -0.069558233 1.2424747e-38 337 297
0.02199732 0.69700003 -0.069658175 1.2517299e-38 338 297
0.023219392 0.69700003 -0.069658175 1.2701692e-38 339 297
0.024441468 0.69700003 -0.069658175 1.2519095e-38 340 297
0.025700359 0.69800001 -0.069758117 1.2795322e-38 341 297
0.027001332 0.69999999 -0.069957994 1.2796757e-38 342 297
0.028228667 0.69999999 -0.069957994 1.3072985e-38 343 297
