# .PCD v.7 - Point Cloud Data file format
FIELDS x y z rgb imX imY
SIZE 4 4 4 4 4 4
TYPE F F F F F F
COUNT 1 1 1 1 1 1
WIDTH 835
HEIGHT 1
VIEWPOINT 0 0 0 1 0 0 0
POINTS 835
DATA ascii
0.0097345067 0.69400001 -0.048672531 1.3714725e-38 328 280
0.010935539 0.69300002 -0.048602402 1.362253e-38 329 280
0.012150601 0.69300002 -0.048602402 1.3714009e-38 330 280
0.01336566 0.69300002 -0.048602402 1.3714009e-38 331 280
0.014580719 0.69300002 -0.048602402 1.3529981e-38 332 280
0.015795778 0.69300002 -0.048602402 1.3529981e-38 333 280
0.017035386 0.69400001 -0.048672531 1.3529981e-38 334 280
0.018304799 0.69599998 -0.048812799 1.3622177e-38 335 280
0.019553173 0.69700003 -0.048882935 1.3531063e-38 336 280
0.020805053 0.69800001 -0.048953064 1.3807291e-38 337 280
0.02202888 0.69800001 -0.048953064 1.3623976e-38 338 280
0.023252707 0.69800001 -0.048953064 1.3623976e-38 339 280
0.024476532 0.69800001 -0.048953064 1.408208e-38 340 280
0.025700359 0.69800001 -0.048953064 1.3989883e-38 341 280
0.026924185 0.69800001 -0.048953064 1.3806217e-38 342 280
0.028228667 0.69999999 -0.049093332 1.3806217e-38 343 280
0.029498078 0.70099998 -0.049163464 1.3438514e-38 344 280
0.030814834 0.70300001 -0.049303733 1.353071e-38 345 280
0.032093015 0.704 -0.049373865 1.3438161e-38 346 280
0.033469379 0.70700002 -0.049584266 1.3530356e-38 347 280
0.034708988 0.70700002 -0.049584266 1.3255581e-38 348 280
0.036101133 0.70999998 -0.049794663 1.3624723e-38 349 280
0.037398599 0.71100003 -0.049864799 1.3259903e-38 350 280
0.038645219 0.71100003 -0.049864799 1.3444294e-38 351 280
0.039891839 0.71100003 -0.049864799 1.3812371e-38 352 280
0.041254178 0.713 -0.050005067 1.5103109e-38 353 280
0.042504307 0.713 -0.050005067 1.5848268e-38 354 280
0.043754432 0.713 -0.050005067 1.9997432e-38 355 280
-0.028873893 0.71600002 -0.051470853 1.3716948e-38 297 281
-0.027618507 0.71600002 -0.051470853 1.4173943e-38 298 281
-0.026179021 0.71100003 -0.051111419 1.3897717e-38 299 281
-0.024897331 0.70999998 -0.051039528 1.3988461e-38 300 281
-0.023585839 0.708 -0.050895758 1.4080656e-38 301 281
-0.022344479 0.708 -0.050895758 1.417141e-38 302 281
-0.021103119 0.708 -0.050895758 1.417141e-38 303 281
-0.019833706 0.70700002 -0.050823875 1.4262524e-38 304 281
-0.018567799 0.70599997 -0.050751984 1.4262524e-38 305 281
-0.017329946 0.70599997 -0.050751984 1.4262877e-38 306 281
-0.016046507 0.704 -0.050608214 1.4355072e-38 307 281
-0.014812159 0.704 -0.050608214 1.4172466e-38 308 281
-0.013577812 0.704 -0.050608214 1.4264662e-38 309 281
-0.012290866 0.70099998 -0.050392549 1.4264659e-38 310 281
-0.011061779 0.70099998 -0.050392549 1.4264659e-38 311 281
-0.0098186666 0.69999999 -0.050320663 1.4080268e-38 312 281
-0.0085913334 0.69999999 -0.050320663 1.3988072e-38 313 281
-0.0073639993 0.69999999 -0.050320663 1.3986998e-38 314 281
-0.006119133 0.69800001 -0.050176892 1.3986998e-38 315 281
-0.0048953067 0.69800001 -0.050176892 1.3895168e-38 316 281
-0.0036714801 0.69800001 -0.050176892 1.3895168e-38 317 281
-0.0024476533 0.69800001 -0.050176892 1.3711502e-38 318 281
-0.0012238267 0.69800001 -0.050176892 1.3896252e-38 319 281
0 0.69800001 -0.050176892 1.4079214e-38 320 281
0.0012238267 0.69800001 -0.050176892 1.4263605e-38 321 281
0.0024441467 0.69700003 -0.050105009 1.3989535e-38 322 281
0.00366622 0.69700003 -0.050105009 1.4081732e-38 323 281
0.0048812795 0.69599998 -0.050033119 1.3622905e-38 324 281
0.0061015999 0.69599998 -0.050033119 1.3622905e-38 325 281
0.0073219193 0.69599998 -0.050033119 1.3714375e-38 326 281
0.0085422397 0.69599998 -0.050033119 1.3714375e-38 327 281
0.0097345067 0.69400001 -0.049889345 1.3622174e-38 328 281
0.010935539 0.69300002 -0.049817458 1.3622174e-38 329 281
0.012150601 0.69300002 -0.049817458 1.3529259e-38 330 281
0.01336566 0.69300002 -0.049817458 1.3529259e-38 331 281
0.014580719 0.69300002 -0.049817458 1.3437066e-38 332 281
0.015795778 0.69300002 -0.049817458 1.3437066e-38 333 281
0.017035386 0.69400001 -0.049889345 1.3528896e-38 334 281
0.018304799 0.69599998 -0.050033119 1.3712927e-38 335 281
0.019525118 0.69599998 -0.050033119 1.3529615e-38 336 281
0.020805053 0.69800001 -0.050176892 1.3714006e-38 337 281
0.02202888 0.69800001 -0.050176892 1.3714019e-38 338 281
0.023252707 0.69800001 -0.050176892 1.3714019e-38 339 281
0.024476532 0.69800001 -0.050176892 1.380622e-38 340 281
0.025700359 0.69800001 -0.050176892 1.3714025e-38 341 281
0.026924185 0.69800001 -0.050176892 1.3714022e-38 342 281
0.028228667 0.69999999 -0.050320663 1.3714022e-38 343 281
0.029498078 0.70099998 -0.050392549 1.3529628e-38 344 281
0.030814834 0.70300001 -0.050536323 1.3621823e-38 345 281
0.032093015 0.704 -0.050608214 1.3438508e-38 346 281
0.033469379 0.70700002 -0.050823875 1.3438508e-38 347 281
0.034758076 0.708 -0.050895758 1.3255918e-38 348 281
0.036101133 0.70999998 -0.051039528 1.3624342e-38 349 281
0.037345998 0.70999998 -0.051039528 1.3443198e-38 350 281
0.038590867 0.70999998 -0.051039528 1.3719787e-38 351 281
0.039891839 0.71100003 -0.051111419 1.3445743e-38 352 281
0.041254178 0.713 -0.051255193 1.5012709e-38 353 281
0.042504307 0.713 -0.051255193 1.6034464e-38 354 281
0.043754432 0.713 -0.051255193 1.9814485e-38 355 281
-0.028873893 0.71600002 -0.052726239 1.353327e-38 297 282
-0.02754136 0.71399999 -0.052578956 1.4266492e-38 298 282
-0.026179021 0.71100003 -0.052358042 1.3990265e-38 299 282
-0.024897331 0.70999998 -0.052284397 1.3989179e-38 300 282
-0.023585839 0.708 -0.052137118 1.3896984e-38 301 282
-0.022344479 0.708 -0.052137118 1.4172129e-38 302 282
-0.021103119 0.708 -0.052137118 1.4079933e-38 303 282
-0.019833706 0.70700002 -0.05206348 1.4262524e-38 304 282
-0.018567799 0.70599997 -0.051989835 1.4078493e-38 305 282
-0.017329946 0.70599997 -0.051989835 1.4078848e-38 306 282
-0.016046507 0.704 -0.051842559 1.4355075e-38 307 282
-0.014812159 0.704 -0.051842559 1.4080637e-38 308 282
-0.013577812 0.704 -0.051842559 1.4080637e-38 309 282
-0.012290866 0.70099998 -0.051621638 1.4080634e-38 310 282
-0.011061779 0.70099998 -0.051621638 1.3896603e-38 311 282
-0.0098186666 0.69999999 -0.051547997 1.3987719e-38 312 282
-0.0085913334 0.69999999 -0.051547997 1.3987719e-38 313 282
-0.0073639993 0.69999999 -0.051547997 1.3895524e-38 314 282
-0.006119133 0.69800001 -0.051400717 1.3987719e-38 315 282
-0.0048953067 0.69800001 -0.051400717 1.3711855e-38 316 282
-0.0036714801 0.69800001 -0.051400717 1.3804051e-38 317 282
-0.0024476533 0.69800001 -0.051400717 1.3528912e-38 318 282
-0.0012238267 0.69800001 -0.051400717 1.3621107e-38 319 282
0 0.69800001 -0.051400717 1.3528924e-38 320 282
0.0012238267 0.69800001 -0.051400717 1.362112e-38 321 282
0.0024441467 0.69700003 -0.051327083 1.3347058e-38 322 282
0.00366622 0.69700003 -0.051327083 1.3347058e-38 323 282
0.0048812795 0.69599998 -0.051253434 1.3347407e-38 324 282
0.0061015999 0.69599998 -0.051253434 1.3347407e-38 325 282
0.0073219193 0.69599998 -0.051253434 1.3348113e-38 326 282
0.0085176928 0.69400001 -0.051106159 1.3255918e-38 327 282
0.0097345067 0.69400001 -0.051106159 1.3529981e-38 328 282
0.01095132 0.69400001 -0.051106159 1.334595e-38 329 282
0.012168133 0.69400001 -0.051106159 1.3529981e-38 330 282
0.01336566 0.69300002 -0.051032521 1.3529981e-38 331 282
0.014580719 0.69300002 -0.051032521 1.3253398e-38 332 282
0.015818574 0.69400001 -0.051106159 1.3161201e-38 333 282
0.017035386 0.69400001 -0.051106159 1.3344516e-38 334 282
0.018304799 0.69599998 -0.051253434 1.3344516e-38 335 282
0.019525118 0.69599998 -0.051253434 1.3253401e-38 336 282
0.020775247 0.69700003 -0.051327083 1.3529628e-38 337 282
0.02202888 0.69800001 -0.051400717 1.3438158e-38 338 282
0.023252707 0.69800001 -0.051400717 1.3438158e-38 339 282
0.024476532 0.69800001 -0.051400717 1.3438158e-38 340 282
0.025700359 0.69800001 -0.051400717 1.3530354e-38 341 282
0.026924185 0.69800001 -0.051400717 1.3530354e-38 342 282
0.028228667 0.69999999 -0.051547997 1.3438158e-38 343 282
0.029498078 0.70099998 -0.051621638 1.3438158e-38 344 282
0.030814834 0.70300001 -0.051768921 1.3345962e-38 345 282
0.032184184 0.70599997 -0.051989835 1.3162647e-38 346 282
0.033469379 0.70700002 -0.05206348 1.3347037e-38 347 282
0.034708988 0.70700002 -0.05206348 1.325593e-38 348 282
0.03599944 0.708 -0.052137118 1.3625073e-38 349 282
0.037345998 0.70999998 -0.052284397 1.3351377e-38 350 282
0.038590867 0.70999998 -0.052284397 1.3720158e-38 351 282
0.039835732 0.70999998 -0.052284397 1.3446112e-38 352 282
0.041138459 0.71100003 -0.052358042 1.5566611e-38 353 282
0.042504307 0.713 -0.052505318 1.6588001e-38 354 282
0.043754432 0.713 -0.052505318 1.9630817e-38 355 282
-0.030171359 0.71700001 -0.054057021 1.3902417e-38 296 283
-0.028873893 0.71600002 -0.053981625 1.3625831e-38 297 283
-0.02754136 0.71399999 -0.053830836 1.4358691e-38 298 283
-0.026179021 0.71100003 -0.053604662 1.4173941e-38 299 283
-0.024932399 0.71100003 -0.053604662 1.3898064e-38 300 283
-0.023652466 0.70999998 -0.053529263 1.3713671e-38 301 283
-0.022344479 0.708 -0.053378478 1.3896618e-38 302 283
-0.021103119 0.708 -0.053378478 1.3896618e-38 303 283
-0.01986176 0.708 -0.053378478 1.4079211e-38 304 283
-0.018594101 0.70700002 -0.053303085 1.4079211e-38 305 283
-0.017329946 0.70599997 -0.053227689 1.4079565e-38 306 283
-0.016092092 0.70599997 -0.053227689 1.4079565e-38 307 283
-0.014812159 0.704 -0.053076904 1.4080637e-38 308 283
-0.013577812 0.704 -0.053076904 1.3896247e-38 309 283
-0.012290866 0.70099998 -0.052850723 1.3896603e-38 310 283
-0.011061779 0.70099998 -0.052850723 1.3804407e-38 311 283
-0.0098186666 0.69999999 -0.052775331 1.3895168e-38 312 283
-0.0085913334 0.69999999 -0.052775331 1.3895168e-38 313 283
-0.0073429602 0.69800001 -0.052624546 1.3804054e-38 314 283
-0.006119133 0.69800001 -0.052624546 1.3711858e-38 315 283
-0.0048953067 0.69800001 -0.052624546 1.3528193e-38 316 283
-0.0036714801 0.69800001 -0.052624546 1.3712224e-38 317 283
-0.0024476533 0.69800001 -0.052624546 1.3528559e-38 318 283
-0.0012238267 0.69800001 -0.052624546 1.3528559e-38 319 283
0 0.69800001 -0.052624546 1.362112e-38 320 283
0.0012220733 0.69700003 -0.052549154 1.3528924e-38 321 283
0.0024441467 0.69700003 -0.052549154 1.3438173e-38 322 283
0.0036609597 0.69599998 -0.052473757 1.3438173e-38 323 283
0.0048812795 0.69599998 -0.052473757 1.3438173e-38 324 283
0.0061015999 0.69599998 -0.052473757 1.3438173e-38 325 283
0.0073219193 0.69599998 -0.052473757 1.3255211e-38 326 283
0.0085176928 0.69400001 -0.052322973 1.3255211e-38 327 283
0.0097345067 0.69400001 -0.052322973 1.3438514e-38 328 283
0.01095132 0.69400001 -0.052322973 1.3346318e-38 329 283
0.012168133 0.69400001 -0.052322973 1.3163003e-38 330 283
0.013384946 0.69400001 -0.052322973 1.3070808e-38 331 283
0.01460176 0.69400001 -0.052322973 1.3161568e-38 332 283
0.015818574 0.69400001 -0.052322973 1.2977536e-38 333 283
0.017035386 0.69400001 -0.052322973 1.3161204e-38 334 283
0.018304799 0.69599998 -0.052473757 1.3161204e-38 335 283
0.019525118 0.69599998 -0.052473757 1.3161204e-38 336 283
0.020775247 0.69700003 -0.052549154 1.3253401e-38 337 283
0.02202888 0.69800001 -0.052624546 1.3253764e-38 338 283
0.023252707 0.69800001 -0.052624546 1.3346318e-38 339 283
0.024476532 0.69800001 -0.052624546 1.3438158e-38 340 283
0.025773998 0.69999999 -0.052775331 1.3345962e-38 341 283
0.027001332 0.69999999 -0.052775331 1.3438161e-38 342 283
0.028228667 0.69999999 -0.052775331 1.3345965e-38 343 283
0.029498078 0.70099998 -0.052850723 1.3529277e-38 344 283
0.030814834 0.70300001 -0.053001512 1.3529277e-38 345 283
0.032184184 0.70599997 -0.053227689 1.3345965e-38 346 283
0.033469379 0.70700002 -0.053303085 1.3438161e-38 347 283
0.034708988 0.70700002 -0.053303085 1.3348133e-38 348 283
0.03599944 0.708 -0.053378478 1.362472e-38 349 283
0.0372408 0.708 -0.053378478 1.3351024e-38 350 283
0.038482159 0.708 -0.053378478 1.3627609e-38 351 283
0.039723519 0.708 -0.053378478 1.3445756e-38 352 283
0.041080594 0.70999998 -0.053529263 1.6304179e-38 353 283
0.042385083 0.71100003 -0.053604662 1.6865667e-38 354 283
0.043631699 0.71100003 -0.053604662 1.9170558e-38 355 283
-0.030171359 0.71700001 -0.055314157 1.3350323e-38 296 284
-0.028873893 0.71600002 -0.055237014 1.3534354e-38 297 284
-0.02754136 0.71399999 -0.05508272 1.4267938e-38 298 284
-0.026252659 0.713 -0.055005573 1.4083546e-38 299 284
-0.024932399 0.71100003 -0.054851279 1.3898786e-38 300 284
-0.023652466 0.70999998 -0.054774132 1.3622199e-38 301 284
-0.022344479 0.708 -0.054619838 1.4079577e-38 302 284
-0.021103119 0.708 -0.054619838 1.3895546e-38 303 284
-0.01986176 0.708 -0.054619838 1.3804066e-38 304 284
-0.018594101 0.70700002 -0.054542694 1.3804066e-38 305 284
-0.017329946 0.70599997 -0.054465543 1.3804776e-38 306 284
-0.016092092 0.70599997 -0.054465543 1.3804776e-38 307 284
-0.014812159 0.704 -0.054311249 1.3804051e-38 308 284
-0.013577812 0.704 -0.054311249 1.3804051e-38 309 284
-0.012325933 0.70300001 -0.054234106 1.3895168e-38 310 284
-0.011061779 0.70099998 -0.054079808 1.3711135e-38 311 284
-0.0098186666 0.69999999 -0.054002665 1.3528543e-38 312 284
-0.0085913334 0.69999999 -0.054002665 1.3528543e-38 313 284
-0.0073429602 0.69800001 -0.053848371 1.3711138e-38 314 284
-0.006119133 0.69800001 -0.053848371 1.3711138e-38 315 284
-0.0048953067 0.69800001 -0.053848371 1.3435996e-38 316 284
-0.0036714801 0.69800001 -0.053848371 1.3528193e-38 317 284
-0.0024476533 0.69800001 -0.053848371 1.3436363e-38 318 284
-0.0012238267 0.69800001 -0.053848371 1.3528559e-38 319 284
0 0.69800001 -0.053848371 1.3346331e-38 320 284
0.0012220733 0.69700003 -0.053771228 1.3346331e-38 321 284
0.0024441467 0.69700003 -0.053771228 1.3346334e-38 322 284
0.0036609597 0.69599998 -0.053694077 1.3438529e-38 323 284
0.0048812795 0.69599998 -0.053694077 1.3345981e-38 324 284
0.0061015999 0.69599998 -0.053694077 1.3345981e-38 325 284
0.0073219193 0.69599998 -0.053694077 1.3162663e-38 326 284
0.0085176928 0.69400001 -0.053539783 1.3162663e-38 327 284
0.0097345067 0.69400001 -0.053539783 1.3163372e-38 328 284
0.01095132 0.69400001 -0.053539783 1.3070817e-38 329 284
0.012168133 0.69400001 -0.053539783 1.3070454e-38 330 284
0.013384946 0.69400001 -0.053539783 1.2978259e-38 331 284
0.01460176 0.69400001 -0.053539783 1.2977539e-38 332 284
0.015818574 0.69400001 -0.053539783 1.2885343e-38 333 284
0.017084479 0.69599998 -0.053694077 1.2885337e-38 334 284
0.018304799 0.69599998 -0.053694077 1.2885337e-38 335 284
0.019525118 0.69599998 -0.053694077 1.3069006e-38 336 284
0.020775247 0.69700003 -0.053771228 1.3069006e-38 337 284
0.02202888 0.69800001 -0.053848371 1.3160848e-38 338 284
0.023252707 0.69800001 -0.053848371 1.3160848e-38 339 284
0.024476532 0.69800001 -0.053848371 1.3161215e-38 340 284
0.025773998 0.69999999 -0.054002665 1.2977183e-38 341 284
0.027001332 0.69999999 -0.054002665 1.3436007e-38 342 284
0.028268991 0.70099998 -0.054079808 1.3436007e-38 343 284
0.029624319 0.704 -0.054311249 1.3436007e-38 344 284
0.030946331 0.70599997 -0.054465543 1.3528561e-38 345 284
0.032184184 0.70599997 -0.054465543 1.3253416e-38 346 284
0.033516716 0.708 -0.054619838 1.3530003e-38 347 284
0.034758076 0.708 -0.054619838 1.334778e-38 348 284
0.03599944 0.708 -0.054619838 1.3624367e-38 349 284
0.0372408 0.708 -0.054619838 1.3535414e-38 350 284
0.038482159 0.708 -0.054619838 1.3535414e-38 351 284
0.039723519 0.708 -0.054619838 1.3353563e-38 352 284
0.040964879 0.708 -0.054619838 1.7410171e-38 353 284
0.042385083 0.71100003 -0.054851279 1.705186e-38 354 284
-0.030171359 0.71700001 -0.056571297 1.3350676e-38 296 285
-0.028873893 0.71600002 -0.056492399 1.3719099e-38 297 285
-0.02754136 0.71399999 -0.0563346 1.4636351e-38 298 285
-0.026252659 0.713 -0.056255698 1.4175373e-38 299 285
-0.024932399 0.71100003 -0.056097899 1.4173928e-38 300 285
-0.023652466 0.70999998 -0.056018997 1.3989535e-38 301 285
-0.022344479 0.708 -0.055861197 1.3988816e-38 302 285
-0.021103119 0.708 -0.055861197 1.3896262e-38 303 285
-0.01986176 0.708 -0.055861197 1.3529277e-38 304 285
-0.018594101 0.70700002 -0.055782299 1.3529277e-38 305 285
-0.017329946 0.70599997 -0.055703394 1.3529631e-38 306 285
-0.016092092 0.70599997 -0.055703394 1.3529631e-38 307 285
-0.014812159 0.704 -0.055545598 1.343671e-38 308 285
-0.013577812 0.704 -0.055545598 1.343671e-38 309 285
-0.012343466 0.704 -0.055545598 1.3436343e-38 310 285
-0.011061779 0.70099998 -0.055308893 1.352854e-38 311 285
-0.0098186666 0.69999999 -0.055229999 1.3437064e-38 312 285
-0.0085913334 0.69999999 -0.055229999 1.3344867e-38 313 285
-0.0073639993 0.69999999 -0.055229999 1.343599e-38 314 285
-0.006119133 0.69800001 -0.0550722 1.343599e-38 315 285
-0.0048953067 0.69800001 -0.0550722 1.3160851e-38 316 285
-0.0036714801 0.69800001 -0.0550722 1.3253048e-38 317 285
-0.0024476533 0.69800001 -0.0550722 1.3253414e-38 318 285
-0.0012238267 0.69800001 -0.0550722 1.3345609e-38 319 285
0 0.69800001 -0.0550722 1.3163016e-38 320 285
0.0012238267 0.69800001 -0.0550722 1.3163016e-38 321 285
0.0024441467 0.69700003 -0.054993302 1.3163019e-38 322 285
0.0036609597 0.69599998 -0.054914396 1.3255214e-38 323 285
0.0048812795 0.69599998 -0.054914396 1.3162666e-38 324 285
0.0061015999 0.69599998 -0.054914396 1.307047e-38 325 285
0.0073219193 0.69599998 -0.054914396 1.3162663e-38 326 285
0.0085176928 0.69400001 -0.054756597 1.3070467e-38 327 285
0.0097345067 0.69400001 -0.054756597 1.2978622e-38 328 285
0.01095132 0.69400001 -0.054756597 1.2978622e-38 329 285
0.012168133 0.69400001 -0.054756597 1.2977906e-38 330 285
0.013384946 0.69400001 -0.054756597 1.2793513e-38 331 285
0.01460176 0.69400001 -0.054756597 1.2975751e-38 332 285
0.015864158 0.69599998 -0.054914396 1.2883555e-38 333 285
0.017084479 0.69599998 -0.054914396 1.2700596e-38 334 285
0.018304799 0.69599998 -0.054914396 1.2792791e-38 335 285
0.019525118 0.69599998 -0.054914396 1.2884261e-38 336 285
0.020775247 0.69700003 -0.054993302 1.2884261e-38 337 285
0.02202888 0.69800001 -0.0550722 1.2793145e-38 338 285
0.023252707 0.69800001 -0.0550722 1.2793145e-38 339 285
0.024476532 0.69800001 -0.0550722 1.2885343e-38 340 285
0.025773998 0.69999999 -0.055229999 1.2977539e-38 341 285
0.027001332 0.69999999 -0.055229999 1.3160495e-38 342 285
0.028349647 0.70300001 -0.0554667 1.3253051e-38 343 285
0.029624319 0.704 -0.055545598 1.3161215e-38 344 285
0.030946331 0.70599997 -0.055703394 1.325377e-38 345 285
0.032229774 0.70700002 -0.055782299 1.3162297e-38 346 285
0.033516716 0.708 -0.055861197 1.3531078e-38 347 285
0.034758076 0.708 -0.055861197 1.3256663e-38 348 285
0.03599944 0.708 -0.055861197 1.3717641e-38 349 285
0.0372408 0.708 -0.055861197 1.3444294e-38 350 285
0.038427804 0.70700002 -0.055782299 1.3259903e-38 351 285
0.039667413 0.70700002 -0.055782299 1.3443959e-38 352 285
0.040964879 0.708 -0.055861197 1.8422525e-38 353 285
-0.03012928 0.71600002 -0.057747785 1.372162e-38 296 286
-0.028793238 0.71399999 -0.057586476 1.3353196e-38 297 286
-0.02754136 0.71399999 -0.057586476 1.4269736e-38 298 286
-0.026252659 0.713 -0.057505824 1.4177541e-38 299 286
-0.024932399 0.71100003 -0.057344519 1.399135e-38 300 286
-0.023652466 0.70999998 -0.057263866 1.3622569e-38 301 286
-0.022344479 0.708 -0.057102561 1.3712955e-38 302 286
-0.021103119 0.708 -0.057102561 1.3712955e-38 303 286
-0.01986176 0.708 -0.057102561 1.3528559e-38 304 286
-0.018594101 0.70700002 -0.057021905 1.3528559e-38 305 286
-0.017329946 0.70599997 -0.056941248 1.3529631e-38 306 286
-0.016092092 0.70599997 -0.056941248 1.3345599e-38 307 286
-0.014812159 0.704 -0.056779943 1.3528546e-38 308 286
-0.013577812 0.704 -0.056779943 1.343599e-38 309 286
-0.012343466 0.704 -0.056779943 1.3437066e-38 310 286
-0.01109334 0.70300001 -0.056699295 1.3437066e-38 311 286
-0.0098326923 0.70099998 -0.056537982 1.3344513e-38 312 286
-0.0085913334 0.69999999 -0.056457333 1.3344513e-38 313 286
-0.0073639993 0.69999999 -0.056457333 1.3069006e-38 314 286
-0.0061366665 0.69999999 -0.056457333 1.3069006e-38 315 286
-0.0048953067 0.69800001 -0.056296028 1.288569e-38 316 286
-0.0036714801 0.69800001 -0.056296028 1.2977886e-38 317 286
-0.0024476533 0.69800001 -0.056296028 1.3161568e-38 318 286
-0.0012238267 0.69800001 -0.056296028 1.3346318e-38 319 286
0 0.69800001 -0.056296028 1.325377e-38 320 286
0.0012238267 0.69800001 -0.056296028 1.3345965e-38 321 286
0.0024441467 0.69700003 -0.056215372 1.3163016e-38 322 286
0.0036609597 0.69599998 -0.056134716 1.3255211e-38 323 286
0.0048812795 0.69599998 -0.056134716 1.3163382e-38 324 286
0.0061015999 0.69599998 -0.056134716 1.3163382e-38 325 286
0.0073219193 0.69599998 -0.056134716 1.297935e-38 326 286
0.0085422397 0.69599998 -0.056134716 1.297935e-38 327 286
0.0097345067 0.69400001 -0.055973411 1.2978625e-38 328 286
0.01095132 0.69400001 -0.055973411 1.2794593e-38 329 286
0.012168133 0.69400001 -0.055973411 1.279351e-38 330 286
0.013423519 0.69599998 -0.056134716 1.2701315e-38 331 286
0.014643839 0.69599998 -0.056134716 1.2700596e-38 332 286
0.015864158 0.69599998 -0.056134716 1.26084e-38 333 286
0.017084479 0.69599998 -0.056134716 1.2883542e-38 334 286
0.018304799 0.69599998 -0.056134716 1.2883542e-38 335 286
0.019553173 0.69700003 -0.056215372 1.2791341e-38 336 286
0.020775247 0.69700003 -0.056215372 1.2791341e-38 337 286
0.02202888 0.69800001 -0.056296028 1.2883893e-38 338 286
0.023252707 0.69800001 -0.056296028 1.2976088e-38 339 286
0.024476532 0.69800001 -0.056296028 1.288569e-38 340 286
0.025773998 0.69999999 -0.056457333 1.288569e-38 341 286
0.027001332 0.69999999 -0.056457333 1.3161568e-38 342 286
0.028389972 0.704 -0.056779943 1.3253764e-38 343 286
0.029624319 0.704 -0.056779943 1.316265e-38 344 286
0.030946331 0.70599997 -0.056941248 1.3438877e-38 345 286
0.032229774 0.70700002 -0.057021905 1.3072618e-38 346 286
0.033516716 0.708 -0.057102561 1.3441401e-38 347 286
0.034758076 0.708 -0.057102561 1.3349575e-38 348 286
0.03599944 0.708 -0.057102561 1.3442129e-38 349 286
0.0372408 0.708 -0.057102561 1.3535761e-38 350 286
0.038427804 0.70700002 -0.057021905 1.3535761e-38 351 286
0.039667413 0.70700002 -0.057021905 1.3630869e-38 352 286
-0.03012928 0.71600002 -0.059003171 1.4738293e-38 296 287
-0.028793238 0.71399999 -0.058838356 1.3263162e-38 297 287
-0.02754136 0.71399999 -0.058838356 1.4548118e-38 298 287
-0.026252659 0.713 -0.058755953 1.3902749e-38 299 287
-0.024932399 0.71100003 -0.058591139 1.4175376e-38 300 287
-0.023652466 0.70999998 -0.058508728 1.389843e-38 301 287
-0.022344479 0.708 -0.058343921 1.3347407e-38 302 287
-0.021103119 0.708 -0.058343921 1.3255211e-38 303 287
-0.01986176 0.708 -0.058343921 1.3345962e-38 304 287
-0.018594101 0.70700002 -0.05826151 1.3345962e-38 305 287
-0.017354494 0.70700002 -0.05826151 1.3161571e-38 306 287
-0.016092092 0.70599997 -0.058179103 1.3161571e-38 307 287
-0.014854239 0.70599997 -0.058179103 1.3160851e-38 308 287
-0.013577812 0.704 -0.058014292 1.3160851e-38 309 287
-0.012343466 0.704 -0.058014292 1.2977536e-38 310 287
-0.01109334 0.70300001 -0.057931885 1.3161568e-38 311 287
-0.0098326923 0.70099998 -0.057767071 1.3068655e-38 312 287
-0.0085913334 0.69999999 -0.05768466 1.3068655e-38 313 287
-0.0073639993 0.69999999 -0.05768466 1.288534e-38 314 287
-0.0061366665 0.69999999 -0.05768466 1.288534e-38 315 287
-0.0049093333 0.69999999 -0.05768466 1.2793861e-38 316 287
-0.0036819996 0.69999999 -0.05768466 1.2978253e-38 317 287
-0.0024546667 0.69999999 -0.05768466 1.2978978e-38 318 287
-0.0012273333 0.69999999 -0.05768466 1.2794588e-38 319 287
0 0.69800001 -0.057519849 1.2978271e-38 320 287
0.0012238267 0.69800001 -0.057519849 1.2978271e-38 321 287
0.0024476533 0.69800001 -0.057519849 1.2887877e-38 322 287
0.00366622 0.69700003 -0.05743745 1.2980072e-38 323 287
0.0048882933 0.69700003 -0.05743745 1.2797476e-38 324 287
0.0061103669 0.69700003 -0.05743745 1.270528e-38 325 287
0.00733244 0.69700003 -0.05743745 1.297935e-38 326 287
0.0085422397 0.69599998 -0.057355035 1.2794959e-38 327 287
0.0097625591 0.69599998 -0.057355035 1.2702764e-38 328 287
0.010982879 0.69599998 -0.057355035 1.2610568e-38 329 287
0.0122032 0.69599998 -0.057355035 1.2518365e-38 330 287
0.013423519 0.69599998 -0.057355035 1.2334334e-38 331 287
0.014643839 0.69599998 -0.057355035 1.26084e-38 332 287
0.015864158 0.69599998 -0.057355035 1.26084e-38 333 287
0.017109027 0.69700003 -0.05743745 1.270023e-38 334 287
0.018331099 0.69700003 -0.05743745 1.270023e-38 335 287
0.019553173 0.69700003 -0.05743745 1.2607676e-38 336 287
0.020775247 0.69700003 -0.05743745 1.270023e-38 337 287
0.02202888 0.69800001 -0.057519849 1.260875e-38 338 287
0.023252707 0.69800001 -0.057519849 1.2793142e-38 339 287
0.024546666 0.69999999 -0.05768466 1.2793142e-38 340 287
0.025773998 0.69999999 -0.05768466 1.2977533e-38 341 287
0.027117053 0.70300001 -0.057931885 1.2978978e-38 342 287
0.028389972 0.704 -0.058014292 1.3071173e-38 343 287
0.029708479 0.70599997 -0.058179103 1.3346681e-38 344 287
0.030990168 0.70700002 -0.05826151 1.3438877e-38 345 287
0.03227536 0.708 -0.058343921 1.3165171e-38 346 287
0.033611398 0.70999998 -0.058508728 1.3441398e-38 347 287
0.034856264 0.70999998 -0.058508728 1.3350647e-38 348 287
0.036101133 0.70999998 -0.058508728 1.3442843e-38 349 287
0.037345998 0.70999998 -0.058508728 1.3535761e-38 350 287
0.038590867 0.70999998 -0.058508728 1.4181131e-38 351 287
-0.028873893 0.71600002 -0.06025856 1.3542636e-38 297 288
-0.02754136 0.71399999 -0.060090236 1.4364809e-38 298 288
-0.026252659 0.713 -0.060006075 1.3719439e-38 299 288
-0.024932399 0.71100003 -0.059837762 1.3900233e-38 300 288
-0.023652466 0.70999998 -0.059753593 1.3715483e-38 301 288
-0.022344479 0.708 -0.059585281 1.3255581e-38 302 288
-0.021103119 0.708 -0.059585281 1.2979353e-38 303 288
-0.01986176 0.708 -0.059585281 1.307082e-38 304 288
-0.0186204 0.708 -0.059585281 1.2978625e-38 305 288
-0.017354494 0.70700002 -0.059501119 1.3070099e-38 306 288
-0.016092092 0.70599997 -0.059416957 1.2977903e-38 307 288
-0.014854239 0.70599997 -0.059416957 1.2977539e-38 308 288
-0.013577812 0.704 -0.059248637 1.2885343e-38 309 288
-0.012343466 0.704 -0.059248637 1.3068655e-38 310 288
-0.01109334 0.70300001 -0.059164476 1.3068655e-38 311 288
-0.0098326923 0.70099998 -0.058996156 1.2884987e-38 312 288
-0.0086036054 0.70099998 -0.058996156 1.2884987e-38 313 288
-0.0073639993 0.69999999 -0.058911994 1.2792789e-38 314 288
-0.0061366665 0.69999999 -0.058911994 1.2792789e-38 315 288
-0.0049093333 0.69999999 -0.058911994 1.2885337e-38 316 288
-0.0036819996 0.69999999 -0.058911994 1.2977533e-38 317 288
-0.0024546667 0.69999999 -0.058911994 1.2794588e-38 318 288
-0.0012273333 0.69999999 -0.058911994 1.2794588e-38 319 288
0 0.69800001 -0.058743682 1.2794956e-38 320 288
0.0012238267 0.69800001 -0.058743682 1.2887152e-38 321 288
0.0024476533 0.69800001 -0.058743682 1.2612366e-38 322 288
0.00366622 0.69700003 -0.05865952 1.2704561e-38 323 288
0.0048882933 0.69700003 -0.05865952 1.279676e-38 324 288
0.0061103669 0.69700003 -0.05865952 1.2704206e-38 325 288
0.00733244 0.69700003 -0.05865952 1.2795322e-38 326 288
0.0085422397 0.69599998 -0.058575355 1.2611291e-38 327 288
0.0097625591 0.69599998 -0.058575355 1.2519449e-38 328 288
0.010982879 0.69599998 -0.058575355 1.2427251e-38 329 288
0.0122032 0.69599998 -0.058575355 1.2518365e-38 330 288
0.013423519 0.69599998 -0.058575355 1.2334334e-38 331 288
0.014643839 0.69599998 -0.058575355 1.2699877e-38 332 288
0.015864158 0.69599998 -0.058575355 1.2699877e-38 333 288
0.017109027 0.69700003 -0.05865952 1.270023e-38 334 288
0.018331099 0.69700003 -0.05865952 1.2607676e-38 335 288
0.019553173 0.69700003 -0.05865952 1.2608032e-38 336 288
0.020775247 0.69700003 -0.05865952 1.2700227e-38 337 288
0.02202888 0.69800001 -0.058743682 1.2700224e-38 338 288
0.023252707 0.69800001 -0.058743682 1.297681e-38 339 288
0.024546666 0.69999999 -0.058911994 1.2886412e-38 340 288
0.025773998 0.69999999 -0.058911994 1.3070805e-38 341 288
0.027117053 0.70300001 -0.059164476 1.2980057e-38 342 288
0.028470624 0.70599997 -0.059416957 1.3164088e-38 343 288
0.029708479 0.70599997 -0.059416957 1.3348483e-38 344 288
0.030990168 0.70700002 -0.059501119 1.3440679e-38 345 288
0.03227536 0.708 -0.059585281 1.3165534e-38 346 288
0.033611398 0.70999998 -0.059753593 1.3350284e-38 347 288
0.034856264 0.70999998 -0.059753593 1.3442129e-38 348 288
0.036101133 0.70999998 -0.059753593 1.3534325e-38 349 288
0.037345998 0.70999998 -0.059753593 1.3534705e-38 350 288
0.038590867 0.70999998 -0.059753593 1.5286782e-38 351 288
-0.028873893 0.71600002 -0.061513945 1.4280924e-38 297 289
-0.02754136 0.71399999 -0.061342116 1.4180415e-38 298 289
-0.026252659 0.713 -0.061256204 1.4088218e-38 299 289
-0.025002534 0.713 -0.061256204 1.3809834e-38 300 289
-0.023652466 0.70999998 -0.060998458 1.3533246e-38 301 289
-0.022407599 0.70999998 -0.060998458 1.3072269e-38 302 289
-0.021162732 0.70999998 -0.060998458 1.2980072e-38 303 289
-0.019917866 0.70999998 -0.060998458 1.2887152e-38 304 289
-0.0186204 0.708 -0.060826641 1.2887152e-38 305 289
-0.017354494 0.70700002 -0.060740728 1.2978622e-38 306 289
-0.016092092 0.70599997 -0.060654808 1.2794591e-38 307 289
-0.014854239 0.70599997 -0.060654808 1.2886059e-38 308 289
-0.013577812 0.704 -0.060482983 1.2793863e-38 309 289
-0.012343466 0.704 -0.060482983 1.2885343e-38 310 289
-0.01109334 0.70300001 -0.06039707 1.2885343e-38 311 289
-0.0098326923 0.70099998 -0.060225245 1.279351e-38 312 289
-0.0086036054 0.70099998 -0.060225245 1.2701315e-38 313 289
-0.0073639993 0.69999999 -0.060139328 1.2792791e-38 314 289
-0.0061366665 0.69999999 -0.060139328 1.2792791e-38 315 289
-0.0049093333 0.69999999 -0.060139328 1.2793507e-38 316 289
-0.0036819996 0.69999999 -0.060139328 1.2978259e-38 317 289
-0.0024546667 0.69999999 -0.060139328 1.2794591e-38 318 289
-0.0012273333 0.69999999 -0.060139328 1.2794591e-38 319 289
0 0.69800001 -0.059967503 1.2611641e-38 320 289
0.0012238267 0.69800001 -0.059967503 1.2796031e-38 321 289
0.0024476533 0.69800001 -0.059967503 1.2429051e-38 322 289
0.00366622 0.69700003 -0.05988159 1.2429051e-38 323 289
0.0048882933 0.69700003 -0.05988159 1.2337218e-38 324 289
0.0061103669 0.69700003 -0.05988159 1.2245022e-38 325 289
0.00733244 0.69700003 -0.05988159 1.2519449e-38 326 289
0.0085422397 0.69599998 -0.059795678 1.2519449e-38 327 289
0.0097625591 0.69599998 -0.059795678 1.2428325e-38 328 289
0.01099866 0.69700003 -0.05988159 1.2151738e-38 329 289
0.012220734 0.69700003 -0.05988159 1.2518002e-38 330 289
0.013442807 0.69700003 -0.05988159 1.2425448e-38 331 289
0.01466488 0.69700003 -0.05988159 1.2608397e-38 332 289
0.015886955 0.69700003 -0.05988159 1.2608397e-38 333 289
0.017109027 0.69700003 -0.05988159 1.260875e-38 334 289
0.018331099 0.69700003 -0.05988159 1.2516555e-38 335 289
0.019553173 0.69700003 -0.05988159 1.2516555e-38 336 289
0.020805053 0.69800001 -0.059967503 1.2700946e-38 337 289
0.02202888 0.69800001 -0.059967503 1.2517634e-38 338 289
0.023252707 0.69800001 -0.059967503 1.2793861e-38 339 289
0.024546666 0.69999999 -0.060139328 1.2794941e-38 340 289
0.025773998 0.69999999 -0.060139328 1.3071526e-38 341 289
0.027155625 0.704 -0.060482983 1.3072968e-38 342 289
0.028470624 0.70599997 -0.060654808 1.3165165e-38 343 289
0.029750559 0.70700002 -0.060740728 1.3441395e-38 344 289
0.030990168 0.70700002 -0.060740728 1.3533949e-38 345 289
0.03227536 0.708 -0.060826641 1.3350284e-38 346 289
0.033611398 0.70999998 -0.060998458 1.344248e-38 347 289
0.034856264 0.70999998 -0.060998458 1.353397e-38 348 289
0.036101133 0.70999998 -0.060998458 1.3810556e-38 349 289
0.037398599 0.71100003 -0.061084379 1.3627632e-38 350 289
-0.027502786 0.713 -0.062506333 1.4365525e-38 298 290
-0.026252659 0.713 -0.062506333 1.4181133e-38 299 290
-0.025002534 0.713 -0.062506333 1.390347e-38 300 290
-0.023652466 0.70999998 -0.062243331 1.3350297e-38 301 290
-0.022407599 0.70999998 -0.062243331 1.2796407e-38 302 290
-0.021162732 0.70999998 -0.062243331 1.2704211e-38 303 290
-0.019917866 0.70999998 -0.062243331 1.2887874e-38 304 290
-0.0186204 0.708 -0.062068 1.2887874e-38 305 290
-0.017379038 0.708 -0.062068 1.3163003e-38 306 290
-0.016092092 0.70599997 -0.061892662 1.3070808e-38 307 290
-0.014854239 0.70599997 -0.061892662 1.2886412e-38 308 290
-0.013577812 0.704 -0.061717331 1.2793858e-38 309 290
-0.012343466 0.704 -0.061717331 1.2793507e-38 310 290
-0.011109119 0.704 -0.061717331 1.2793507e-38 311 290
-0.0098607466 0.70300001 -0.061629668 1.2793513e-38 312 290
-0.0086281532 0.70300001 -0.061629668 1.2793513e-38 313 290
-0.0073745195 0.70099998 -0.06145433 1.2700959e-38 314 290
-0.0061454331 0.70099998 -0.06145433 1.2700959e-38 315 290
-0.0049093333 0.69999999 -0.061366666 1.279351e-38 316 290
-0.0036819996 0.69999999 -0.061366666 1.2885706e-38 317 290
-0.0024546667 0.69999999 -0.061366666 1.2885706e-38 318 290
-0.0012273333 0.69999999 -0.061366666 1.3070099e-38 319 290
0 0.69800001 -0.061191335 1.2519802e-38 320 290
0.0012238267 0.69800001 -0.061191335 1.2796028e-38 321 290
0.0024476533 0.69800001 -0.061191335 1.2520165e-38 322 290
0.0036714801 0.69800001 -0.061191335 1.2427969e-38 323 290
0.0048882933 0.69700003 -0.061103668 1.2427969e-38 324 290
0.0061103669 0.69700003 -0.061103668 1.2335772e-38 325 290
0.00733244 0.69700003 -0.061103668 1.2427605e-38 326 290
0.0085545136 0.69700003 -0.061103668 1.2427605e-38 327 290
0.0097765867 0.69700003 -0.061103668 1.2335403e-38 328 290
0.01099866 0.69700003 -0.061103668 1.2335403e-38 329 290
0.012220734 0.69700003 -0.061103668 1.2517634e-38 330 290
0.013442807 0.69700003 -0.061103668 1.2517634e-38 331 290
0.01466488 0.69700003 -0.061103668 1.2517631e-38 332 290
0.015886955 0.69700003 -0.061103668 1.2517631e-38 333 290
0.017133573 0.69800001 -0.061191335 1.2517631e-38 334 290
0.0183574 0.69800001 -0.061191335 1.2425435e-38 335 290
0.019581227 0.69800001 -0.061191335 1.2517634e-38 336 290
0.020805053 0.69800001 -0.061191335 1.2701665e-38 337 290
0.02202888 0.69800001 -0.061191335 1.2610548e-38 338 290
0.023319334 0.69999999 -0.061366666 1.2794941e-38 339 290
0.024546666 0.69999999 -0.061366666 1.2887855e-38 340 290
0.025810819 0.70099998 -0.06145433 1.3164441e-38 341 290
0.027155625 0.704 -0.061717331 1.3073689e-38 342 290
0.028470624 0.70599997 -0.061892662 1.3073689e-38 343 290
0.029750559 0.70700002 -0.061980337 1.3258086e-38 344 290
0.031034 0.708 -0.062068 1.3350281e-38 345 290
0.03227536 0.708 -0.062068 1.3442126e-38 346 290
0.033611398 0.70999998 -0.062243331 1.3534322e-38 347 290
0.034856264 0.70999998 -0.062243331 1.3626888e-38 348 290
0.036151983 0.71100003 -0.062331002 1.3995669e-38 349 290
-0.026252659 0.713 -0.063756458 1.3906364e-38 299 291
-0.025002534 0.713 -0.063756458 1.3904549e-38 300 291
-0.023685781 0.71100003 -0.063577622 1.3259181e-38 301 291
-0.022407599 0.70999998 -0.063488193 1.2981521e-38 302 291
-0.021162732 0.70999998 -0.063488193 1.2889325e-38 303 291
-0.019917866 0.70999998 -0.063488193 1.279676e-38 304 291
-0.018672999 0.70999998 -0.063488193 1.2888957e-38 305 291
-0.017379038 0.708 -0.063309364 1.3072968e-38 306 291
-0.016114887 0.70700002 -0.063219935 1.2888577e-38 307 291
-0.014854239 0.70599997 -0.063130513 1.2796016e-38 308 291
-0.013616386 0.70599997 -0.063130513 1.2611264e-38 309 291
-0.012343466 0.704 -0.062951677 1.279351e-38 310 291
-0.011109119 0.704 -0.062951677 1.279351e-38 311 291
-0.0098747732 0.704 -0.062951677 1.2609842e-38 312 291
-0.0086281532 0.70300001 -0.062862262 1.2702396e-38 313 291
-0.0073955595 0.70300001 -0.062862262 1.2610198e-38 314 291
-0.0061629666 0.70300001 -0.062862262 1.2610198e-38 315 291
-0.0049163462 0.70099998 -0.062683418 1.2793507e-38 316 291
-0.0036872597 0.70099998 -0.062683418 1.2885703e-38 317 291
-0.0024546667 0.69999999 -0.062593997 1.2885703e-38 318 291
-0.0012273333 0.69999999 -0.062593997 1.2978259e-38 319 291
0 0.69999999 -0.062593997 1.2519799e-38 320 291
0.0012238267 0.69800001 -0.062415157 1.2519799e-38 321 291
0.0024476533 0.69800001 -0.062415157 1.2610917e-38 322 291
0.0036714801 0.69800001 -0.062415157 1.2703114e-38 323 291
0.0048953067 0.69800001 -0.062415157 1.2427605e-38 324 291
0.006119133 0.69800001 -0.062415157 1.2427605e-38 325 291
0.0073429602 0.69800001 -0.062415157 1.2335403e-38 326 291
0.0085667865 0.69800001 -0.062415157 1.2335403e-38 327 291
0.0097906133 0.69800001 -0.062415157 1.2519069e-38 328 291
0.01101444 0.69800001 -0.062415157 1.2519069e-38 329 291
0.012238266 0.69800001 -0.062415157 1.251835e-38 330 291
0.013462093 0.69800001 -0.062415157 1.2426154e-38 331 291
0.01468592 0.69800001 -0.062415157 1.2426151e-38 332 291
0.015909746 0.69800001 -0.062415157 1.2518706e-38 333 291
0.017133573 0.69800001 -0.062415157 1.251835e-38 334 291
0.0183574 0.69800001 -0.062415157 1.251835e-38 335 291
0.019581227 0.69800001 -0.062415157 1.2517997e-38 336 291
0.020864666 0.69999999 -0.062593997 1.2610551e-38 337 291
0.022091998 0.69999999 -0.062593997 1.2611267e-38 338 291
0.023352645 0.70099998 -0.062683418 1.279566e-38 339 291
0.024581732 0.70099998 -0.062683418 1.2981129e-38 340 291
0.02592128 0.704 -0.062951677 1.3073324e-38 341 291
0.027232772 0.70599997 -0.063130513 1.3165887e-38 342 291
0.028470624 0.70599997 -0.063130513 1.3165887e-38 343 291
0.029750559 0.70700002 -0.063219935 1.3350281e-38 344 291
0.031034 0.708 -0.063309364 1.3442477e-38 345 291
0.03227536 0.708 -0.063309364 1.3534322e-38 346 291
0.033611398 0.70999998 -0.063488193 1.3718355e-38 347 291
0.034905359 0.71100003 -0.063577622 1.3627256e-38 348 291
0.036151983 0.71100003 -0.063577622 1.4364821e-38 349 291
-0.025002534 0.713 -0.065006584 1.3998181e-38 300 292
-0.023752406 0.713 -0.065006584 1.3445366e-38 301 292
-0.022439159 0.71100003 -0.064824238 1.3901305e-38 302 292
-0.021192541 0.71100003 -0.064824238 1.3532524e-38 303 292
-0.019917866 0.70999998 -0.064733058 1.3165537e-38 304 292
-0.018672999 0.70999998 -0.064733058 1.3073341e-38 305 292
-0.017428132 0.70999998 -0.064733058 1.3165521e-38 306 292
-0.01613768 0.708 -0.06455072 1.2981129e-38 307 292
-0.01487528 0.70700002 -0.064459547 1.2979325e-38 308 292
-0.013616386 0.70599997 -0.064368367 1.2795294e-38 309 292
-0.012378532 0.70599997 -0.064368367 1.2702747e-38 310 292
-0.011109119 0.704 -0.064186029 1.2702747e-38 311 292
-0.0098747732 0.704 -0.064186029 1.2702394e-38 312 292
-0.0086281532 0.70300001 -0.064094849 1.2702394e-38 313 292
-0.0073955595 0.70300001 -0.064094849 1.2885703e-38 314 292
-0.0061629666 0.70300001 -0.064094849 1.2793507e-38 315 292
-0.0049163462 0.70099998 -0.063912503 1.288534e-38 316 292
-0.0036872597 0.70099998 -0.063912503 1.2977536e-38 317 292
-0.0024581731 0.70099998 -0.063912503 1.2702391e-38 318 292
-0.0012273333 0.69999999 -0.063821331 1.2702391e-38 319 292
0 0.69999999 -0.063821331 1.2702391e-38 320 292
0.0012273333 0.69999999 -0.063821331 1.2702391e-38 321 292
0.0024476533 0.69800001 -0.063638985 1.2703111e-38 322 292
0.0036714801 0.69800001 -0.063638985 1.2703111e-38 323 292
0.0048953067 0.69800001 -0.063638985 1.2519796e-38 324 292
0.006119133 0.69800001 -0.063638985 1.2427599e-38 325 292
0.0073429602 0.69800001 -0.063638985 1.2335756e-38 326 292
0.0085667865 0.69800001 -0.063638985 1.2335756e-38 327 292
0.0097906133 0.69800001 -0.063638985 1.2519422e-38 328 292
0.01101444 0.69800001 -0.063638985 1.2519422e-38 329 292
0.012238266 0.69800001 -0.063638985 1.233611e-38 330 292
0.013462093 0.69800001 -0.063638985 1.2243914e-38 331 292
0.01468592 0.69800001 -0.063638985 1.2519419e-38 332 292
0.015909746 0.69800001 -0.063638985 1.2335388e-38 333 292
0.017133573 0.69800001 -0.063638985 1.2610899e-38 334 292
0.018409999 0.69999999 -0.063821331 1.2610899e-38 335 292
0.019637333 0.69999999 -0.063821331 1.2519069e-38 336 292
0.020864666 0.69999999 -0.063821331 1.2703461e-38 337 292
0.022091998 0.69999999 -0.063821331 1.2612348e-38 338 292
0.023352645 0.70099998 -0.063912503 1.2888574e-38 339 292
0.024651866 0.70300001 -0.064094849 1.2889659e-38 340 292
0.025994917 0.70599997 -0.064368367 1.3165887e-38 341 292
0.027232772 0.70599997 -0.064368367 1.3441398e-38 342 292
0.028510952 0.70700002 -0.064459547 1.3625789e-38 343 292
0.02979264 0.708 -0.06455072 1.3443196e-38 344 292
0.031034 0.708 -0.06455072 1.3535393e-38 345 292
0.032366529 0.70999998 -0.064733058 1.3627957e-38 346 292
0.033658739 0.71100003 -0.064824238 1.3627957e-38 347 292
0.034905359 0.71100003 -0.064824238 1.3628352e-38 348 292
0.036151983 0.71100003 -0.064824238 1.4365917e-38 349 292
-0.023752406 0.713 -0.066256717 1.3721617e-38 301 293
-0.022439159 0.71100003 -0.066070862 1.3628335e-38 302 293
-0.021192541 0.71100003 -0.066070862 1.3351748e-38 303 293
-0.01994592 0.71100003 -0.066070862 1.3166631e-38 304 293
-0.018672999 0.70999998 -0.065977924 1.298224e-38 305 293
-0.017428132 0.70999998 -0.065977924 1.3074064e-38 306 293
-0.016183265 0.70999998 -0.065977924 1.2889673e-38 307 293
-0.01489632 0.708 -0.065792084 1.2980422e-38 308 293
-0.013635674 0.70700002 -0.065699153 1.2611641e-38 309 293
-0.012378532 0.70599997 -0.065606222 1.2519451e-38 310 293
-0.011140679 0.70599997 -0.065606222 1.2519451e-38 311 293
-0.0098747732 0.704 -0.065420374 1.2794603e-38 312 293
-0.0086404262 0.704 -0.065420374 1.2794603e-38 313 293
-0.0074060797 0.704 -0.065420374 1.2794593e-38 314 293
-0.0061629666 0.70300001 -0.065327443 1.2794593e-38 315 293
-0.0049303733 0.70300001 -0.065327443 1.2885703e-38 316 293
-0.0036977797 0.70300001 -0.065327443 1.2885703e-38 317 293
-0.0024581731 0.70099998 -0.065141588 1.2794588e-38 318 293
-0.0012290865 0.70099998 -0.065141588 1.2794588e-38 319 293
0 0.69999999 -0.065048665 1.2794588e-38 320 293
0.0012273333 0.69999999 -0.065048665 1.2794588e-38 321 293
0.0024546667 0.69999999 -0.065048665 1.2611997e-38 322 293
0.0036819996 0.69999999 -0.065048665 1.2796028e-38 323 293
0.0049093333 0.69999999 -0.065048665 1.2428325e-38 324 293
0.0061366665 0.69999999 -0.065048665 1.2428325e-38 325 293
0.0073639993 0.69999999 -0.065048665 1.2427602e-38 326 293
0.0085913334 0.69999999 -0.065048665 1.2427602e-38 327 293
0.0098186666 0.69999999 -0.065048665 1.2427599e-38 328 293
0.011045999 0.69999999 -0.065048665 1.2427599e-38 329 293
0.012273333 0.69999999 -0.065048665 1.2335403e-38 330 293
0.013500666 0.69999999 -0.065048665 1.2335403e-38 331 293
0.01468592 0.69800001 -0.06486281 1.2335406e-38 332 293
0.015909746 0.69800001 -0.06486281 1.2519799e-38 333 293
0.017182667 0.69999999 -0.065048665 1.2519802e-38 334 293
0.018409999 0.69999999 -0.065048665 1.2519802e-38 335 293
0.019637333 0.69999999 -0.065048665 1.2519802e-38 336 293
0.020864666 0.69999999 -0.065048665 1.2611997e-38 337 293
0.022123558 0.70099998 -0.065141588 1.2704909e-38 338 293
0.023352645 0.70099998 -0.065141588 1.2797463e-38 339 293
0.024686933 0.704 -0.065420374 1.3073336e-38 340 293
0.025994917 0.70599997 -0.065606222 1.316589e-38 341 293
0.027232772 0.70599997 -0.065606222 1.3258448e-38 342 293
0.028510952 0.70700002 -0.065699153 1.3443198e-38 343 293
0.02979264 0.708 -0.065792084 1.3351727e-38 344 293
0.031034 0.708 -0.065792084 1.3535758e-38 345 293
0.032366529 0.70999998 -0.065977924 1.3626885e-38 346 293
0.033658739 0.71100003 -0.066070862 1.3719439e-38 347 293
0.034905359 0.71100003 -0.066070862 1.3353207e-38 348 293
-0.023752406 0.713 -0.067506835 1.3540119e-38 301 294
-0.022502279 0.713 -0.067506835 1.4089661e-38 302 294
-0.021252153 0.713 -0.067506835 1.3629041e-38 303 294
-0.01994592 0.71100003 -0.067317478 1.3810903e-38 304 294
-0.0186993 0.71100003 -0.067317478 1.344248e-38 305 294
-0.017428132 0.70999998 -0.067222796 1.3350281e-38 306 294
-0.016183265 0.70999998 -0.067222796 1.316589e-38 307 294
-0.014938398 0.70999998 -0.067222796 1.3165165e-38 308 294
-0.013635674 0.70700002 -0.066938758 1.2888577e-38 309 294
-0.012378532 0.70599997 -0.066844068 1.2887505e-38 310 294
-0.011140679 0.70599997 -0.066844068 1.279531e-38 311 294
-0.0099028256 0.70599997 -0.066844068 1.2978269e-38 312 294
-0.0086404262 0.704 -0.066654719 1.2794238e-38 313 294
-0.0074060797 0.704 -0.066654719 1.2977906e-38 314 294
-0.0061717331 0.704 -0.066654719 1.2977906e-38 315 294
-0.0049373866 0.704 -0.066654719 1.3161571e-38 316 294
-0.0037030398 0.704 -0.066654719 1.3161571e-38 317 294
-0.0024651866 0.70300001 -0.066560037 1.3070805e-38 318 294
-0.0012325933 0.70300001 -0.066560037 1.3070805e-38 319 294
0 0.70099998 -0.066370681 1.2979328e-38 320 294
0.0012290865 0.70099998 -0.066370681 1.2979328e-38 321 294
0.0024546667 0.69999999 -0.066275999 1.2978978e-38 322 294
0.0036819996 0.69999999 -0.066275999 1.3071173e-38 323 294
0.0049093333 0.69999999 -0.066275999 1.279531e-38 324 294
0.0061366665 0.69999999 -0.066275999 1.2703114e-38 325 294
0.0073639993 0.69999999 -0.066275999 1.2794593e-38 326 294
0.0085913334 0.69999999 -0.066275999 1.2794593e-38 327 294
0.0098186666 0.69999999 -0.066275999 1.2703111e-38 328 294
0.011045999 0.69999999 -0.066275999 1.2703111e-38 329 294
0.012273333 0.69999999 -0.066275999 1.2703817e-38 330 294
0.013500666 0.69999999 -0.066275999 1.2519425e-38 331 294
0.014727999 0.69999999 -0.066275999 1.2703467e-38 332 294
0.015955333 0.69999999 -0.066275999 1.2795663e-38 333 294
0.017207211 0.70099998 -0.066370681 1.279531e-38 334 294
0.018436298 0.70099998 -0.066370681 1.279531e-38 335 294
0.019665385 0.70099998 -0.066370681 1.2795307e-38 336 294
0.020894472 0.70099998 -0.066370681 1.2980057e-38 337 294
0.02218668 0.70300001 -0.066560037 1.3072974e-38 338 294
0.023419274 0.70300001 -0.066560037 1.3257367e-38 339 294
0.024686933 0.704 -0.066654719 1.3165534e-38 340 294
0.025994917 0.70599997 -0.066844068 1.3350284e-38 341 294
0.027271347 0.70700002 -0.066938758 1.3351003e-38 342 294
0.028510952 0.70700002 -0.066938758 1.3443198e-38 343 294
0.02979264 0.708 -0.067033432 1.3535042e-38 344 294
0.031034 0.708 -0.067033432 1.3535042e-38 345 294
0.032366529 0.70999998 -0.067222796 1.3168433e-38 346 294
0.033658739 0.71100003 -0.067317478 1.3168433e-38 347 294
-0.022502279 0.713 -0.068756968 1.4092185e-38 302 295
-0.021252153 0.713 -0.068756968 1.3631206e-38 303 295
-0.020002026 0.713 -0.068756968 1.3629036e-38 304 295
-0.0186993 0.71100003 -0.068564095 1.3352449e-38 305 295
-0.01745268 0.71100003 -0.068564095 1.3259886e-38 306 295
-0.016183265 0.70999998 -0.068467662 1.3075136e-38 307 295
-0.014938398 0.70999998 -0.068467662 1.3074768e-38 308 295
-0.013654959 0.708 -0.068274796 1.2890376e-38 309 295
-0.012396066 0.70700002 -0.068178371 1.298042e-38 310 295
-0.011140679 0.70599997 -0.06808193 1.2888224e-38 311 295
-0.0099028256 0.70599997 -0.06808193 1.2978271e-38 312 295
-0.0086649731 0.70599997 -0.06808193 1.2978271e-38 313 295
-0.0074060797 0.704 -0.067889065 1.3070823e-38 314 295
-0.0061717331 0.704 -0.067889065 1.3070823e-38 315 295
-0.0049373866 0.704 -0.067889065 1.3070099e-38 316 295
-0.0037030398 0.704 -0.067889065 1.3162653e-38 317 295
-0.0024686933 0.704 -0.067889065 1.3071526e-38 318 295
-0.0012325933 0.70300001 -0.067792632 1.3163722e-38 319 295
0 0.70300001 -0.067792632 1.3071526e-38 320 295
0.0012290865 0.70099998 -0.067599766 1.3071526e-38 321 295
0.0024546667 0.69999999 -0.067503333 1.3070817e-38 322 295
0.0036819996 0.69999999 -0.067503333 1.3163372e-38 323 295
0.0049163462 0.70099998 -0.067599766 1.2796028e-38 324 295
0.0061366665 0.69999999 -0.067503333 1.2796028e-38 325 295
0.0073639993 0.69999999 -0.067503333 1.2795307e-38 326 295
0.0085913334 0.69999999 -0.067503333 1.2887861e-38 327 295
0.0098186666 0.69999999 -0.067503333 1.2613066e-38 328 295
0.011045999 0.69999999 -0.067503333 1.2520871e-38 329 295
0.012273333 0.69999999 -0.067503333 1.2612701e-38 330 295
0.013500666 0.69999999 -0.067503333 1.2612701e-38 331 295
0.014727999 0.69999999 -0.067503333 1.2612348e-38 332 295
0.015955333 0.69999999 -0.067503333 1.2796379e-38 333 295
0.017207211 0.70099998 -0.067599766 1.2796028e-38 334 295
0.018436298 0.70099998 -0.067599766 1.2796028e-38 335 295
0.019665385 0.70099998 -0.067599766 1.2979701e-38 336 295
0.020894472 0.70099998 -0.067599766 1.3164091e-38 337 295
0.02218668 0.70300001 -0.067792632 1.3165171e-38 338 295
0.023419274 0.70300001 -0.067792632 1.3257367e-38 339 295
0.024686933 0.704 -0.067889065 1.3258083e-38 340 295
0.025994917 0.70599997 -0.06808193 1.3350278e-38 341 295
0.027271347 0.70700002 -0.068178371 1.3442477e-38 342 295
0.028510952 0.70700002 -0.068178371 1.3534672e-38 343 295
