# .PCD v.7 - Point Cloud Data file format
FIELDS x y z rgb imX imY
SIZE 4 4 4 4 4 4
TYPE F F F F F F
COUNT 1 1 1 1 1 1
WIDTH 846
HEIGHT 1
VIEWPOINT 0 0 0 1 0 0 0
POINTS 846
DATA ascii
-0.021348584 0.76099998 0.0093400059 1.5003357e-38 304 233
-0.020014299 0.76099998 0.0093400059 1.4911161e-38 305 233
-0.018680012 0.76099998 0.0093400059 1.4269389e-38 306 233
-0.017345725 0.76099998 0.0093400059 1.4177193e-38 307 233
-0.016011439 0.76099998 0.0093400059 1.4452683e-38 308 233
-0.014677152 0.76099998 0.0093400059 1.4452683e-38 309 233
-0.013342866 0.76099998 0.0093400059 1.4729618e-38 310 233
-0.012008579 0.76099998 0.0093400059 1.4914011e-38 311 233
-0.010674292 0.76099998 0.0093400059 1.5189172e-38 312 233
-0.0093400059 0.76099998 0.0093400059 1.5373563e-38 313 233
-0.0080057196 0.76099998 0.0093400059 1.5648355e-38 314 233
-0.0066714329 0.76099998 0.0093400059 1.5556159e-38 315 233
-0.0053371461 0.76099998 0.0093400059 1.5371417e-38 316 233
-0.0040028598 0.76099998 0.0093400059 1.4910439e-38 317 233
-0.0026685731 0.76099998 0.0093400059 1.472714e-38 318 233
-0.0013342865 0.76099998 0.0093400059 1.4819335e-38 319 233
0 0.76099998 0.0093400059 1.4726042e-38 320 233
0.00133604 0.76200002 0.0093522798 1.4449814e-38 321 233
0.00267208 0.76200002 0.0093522798 1.4266477e-38 322 233
0.0040081199 0.76200002 0.0093522798 1.4266477e-38 323 233
0.0053441599 0.76200002 0.0093522798 1.4356877e-38 324 233
0.006697733 0.764 0.0093768267 1.3895899e-38 325 233
0.0080372803 0.764 0.0093768267 1.4078848e-38 326 233
0.0094013726 0.76599997 0.0094013726 1.3986294e-38 327 233
0.010758453 0.76700002 0.0094136465 1.3894817e-38 328 233
0.01210326 0.76700002 0.0094136465 1.3710785e-38 329 233
0.013448066 0.76700002 0.0094136465 1.343564e-38 330 233
0.014792874 0.76700002 0.0094136465 1.3343444e-38 331 233
0.016179759 0.76899999 0.0094381925 1.3067949e-38 332 233
0.017528072 0.76899999 0.0094381925 1.3160146e-38 333 233
0.018925481 0.77100003 0.0094627403 1.2700985e-38 334 233
0.020277301 0.77100003 0.0094627403 1.279354e-38 335 233
0.021769386 0.77600002 0.009524107 1.2155764e-38 336 233
0.023129974 0.77600002 0.009524107 1.6304209e-38 337 233
-0.047865998 0.77999997 0.0082055992 1.1711363e-38 285 234
-0.046259947 0.77600002 0.0081635201 1.4088973e-38 286 234
-0.044783637 0.77399999 0.0081424797 1.3812746e-38 287 234
-0.043426558 0.77399999 0.0081424797 1.518845e-38 288 234
-0.042015124 0.773 0.0081319595 1.5096253e-38 289 234
-0.0404494 0.76899999 0.0080898795 1.5186635e-38 290 234
-0.038999394 0.76700002 0.00806884 1.5002244e-38 291 234
-0.037654586 0.76700002 0.00806884 1.3894464e-38 292 234
-0.036309779 0.76700002 0.00806884 1.3249095e-38 293 234
-0.034964975 0.76700002 0.00806884 1.2610212e-38 294 234
-0.033576332 0.76599997 0.0080583189 1.3439973e-38 295 234
-0.032233275 0.76599997 0.0080583189 1.5374635e-38 296 234
-0.030890226 0.76599997 0.0080583189 1.5282439e-38 297 234
-0.029470026 0.764 0.0080372803 1.5463945e-38 298 234
-0.028056841 0.76200002 0.0080162399 1.5740531e-38 299 234
-0.0267208 0.76200002 0.0080162399 1.546467e-38 300 234
-0.025351444 0.76099998 0.0080057196 1.5372115e-38 301 234
-0.024017159 0.76099998 0.0080057196 1.5280651e-38 302 234
-0.022682872 0.76099998 0.0080057196 1.5188455e-38 303 234
-0.021348584 0.76099998 0.0080057196 1.4636013e-38 304 234
-0.020014299 0.76099998 0.0080057196 1.3990644e-38 305 234
-0.01863092 0.759 0.0079846792 1.408177e-38 306 234
-0.017300138 0.759 0.0079846792 1.4450553e-38 307 234
-0.015969358 0.759 0.0079846792 1.4543099e-38 308 234
-0.014638579 0.759 0.0079846792 1.4820044e-38 309 234
-0.0133078 0.759 0.0079846792 1.5096626e-38 310 234
-0.012008579 0.76099998 0.0080057196 1.5096626e-38 311 234
-0.010674292 0.76099998 0.0080057196 1.5279945e-38 312 234
-0.0093400059 0.76099998 0.0080057196 1.5648726e-38 313 234
-0.0080057196 0.76099998 0.0080057196 1.5465778e-38 314 234
-0.0066714329 0.76099998 0.0080057196 1.5281385e-38 315 234
-0.0053371461 0.76099998 0.0080057196 1.50048e-38 316 234
-0.0040028598 0.76099998 0.0080057196 1.4728212e-38 317 234
-0.0026685731 0.76099998 0.0080057196 1.4636013e-38 318 234
-0.0013342865 0.76099998 0.0080057196 1.4267591e-38 319 234
0 0.76099998 0.0080057196 1.4540565e-38 320 234
0.00133604 0.76200002 0.0080162399 1.4356174e-38 321 234
0.00267208 0.76200002 0.0080162399 1.435724e-38 322 234
0.0040081199 0.76200002 0.0080162399 1.4173209e-38 323 234
0.0053441599 0.76200002 0.0080162399 1.4262877e-38 324 234
0.0066801999 0.76200002 0.0080162399 1.4078846e-38 325 234
0.0080162399 0.76200002 0.0080162399 1.3711138e-38 326 234
0.0094013726 0.76599997 0.0080583189 1.389517e-38 327 234
0.010758453 0.76700002 0.00806884 1.3619658e-38 328 234
0.01210326 0.76700002 0.00806884 1.3527463e-38 329 234
0.013448066 0.76700002 0.00806884 1.3434911e-38 330 234
0.014792874 0.76700002 0.00806884 1.3434911e-38 331 234
0.016179759 0.76899999 0.0080898795 1.2975388e-38 332 234
0.017528072 0.76899999 0.0080898795 1.2975388e-38 333 234
0.018925481 0.77100003 0.0081109209 1.2792456e-38 334 234
0.020277301 0.77100003 0.0081109209 1.2976849e-38 335 234
0.021685226 0.773 0.0081319595 1.1968496e-38 336 234
0.02307036 0.77399999 0.0081424797 1.5564125e-38 337 234
-0.049233593 0.77999997 0.0068379994 1.5674329e-38 284 235
-0.047865998 0.77999997 0.0068379994 1.1156743e-38 285 235
-0.046140719 0.77399999 0.0067853997 1.3903144e-38 286 235
-0.044783637 0.77399999 0.0067853997 1.3810947e-38 287 235
-0.043370452 0.773 0.0067766332 1.4911155e-38 288 235
-0.042015124 0.773 0.0067766332 1.481896e-38 289 235
-0.0404494 0.76899999 0.0067415666 1.4726381e-38 290 235
-0.038999394 0.76700002 0.006724033 1.4541631e-38 291 235
-0.037605491 0.76599997 0.0067152665 1.3618602e-38 292 235
-0.036262438 0.76599997 0.0067152665 1.2881037e-38 293 235
-0.034964975 0.76700002 0.006724033 1.2702057e-38 294 235
-0.033576332 0.76599997 0.0067152665 1.3439622e-38 295 235
-0.032233275 0.76599997 0.0067152665 1.4637796e-38 296 235
-0.030728921 0.76200002 0.0066801999 1.4729993e-38 297 235
-0.029392879 0.76200002 0.0066801999 1.5097326e-38 298 235
-0.028056841 0.76200002 0.0066801999 1.4821098e-38 299 235
-0.0267208 0.76200002 0.0066801999 1.5278852e-38 300 235
-0.025351444 0.76099998 0.0066714329 1.5094102e-38 301 235
-0.024017159 0.76099998 0.0066714329 1.4820041e-38 302 235
-0.02262326 0.759 0.0066538998 1.4912239e-38 303 235
-0.02129248 0.759 0.0066538998 1.4450903e-38 304 235
-0.0199617 0.759 0.0066538998 1.3897729e-38 305 235
-0.01863092 0.759 0.0066538998 1.3622234e-38 306 235
-0.017300138 0.759 0.0066538998 1.3991377e-38 307 235
-0.015969358 0.759 0.0066538998 1.4177203e-38 308 235
-0.014638579 0.759 0.0066538998 1.4269757e-38 309 235
-0.0133078 0.759 0.0066538998 1.4728212e-38 310 235
-0.01197702 0.759 0.0066538998 1.4728212e-38 311 235
-0.01064624 0.759 0.0066538998 1.4726786e-38 312 235
-0.00931546 0.759 0.0066538998 1.5095569e-38 313 235
-0.0079846792 0.759 0.0066538998 1.4822575e-38 314 235
-0.0066538998 0.759 0.0066538998 1.4546348e-38 315 235
-0.0053231199 0.759 0.0066538998 1.4913676e-38 316 235
-0.0039923396 0.759 0.0066538998 1.4637449e-38 317 235
-0.0026685731 0.76099998 0.0066714329 1.4452332e-38 318 235
-0.0013342865 0.76099998 0.0066714329 1.4083548e-38 319 235
0 0.76099998 0.0066714329 1.3806237e-38 320 235
0.0013342865 0.76099998 0.0066714329 1.3622206e-38 321 235
0.00267208 0.76200002 0.0066801999 1.3896987e-38 322 235
0.0040081199 0.76200002 0.0066801999 1.3712955e-38 323 235
0.0053441599 0.76200002 0.0066801999 1.3803704e-38 324 235
0.0066801999 0.76200002 0.0066801999 1.3618952e-38 325 235
0.0080162399 0.76200002 0.0066801999 1.3343441e-38 326 235
0.0093768267 0.764 0.006697733 1.3343441e-38 327 235
0.010716373 0.764 0.006697733 1.3251602e-38 328 235
0.01210326 0.76700002 0.006724033 1.3159406e-38 329 235
0.013448066 0.76700002 0.006724033 1.2975738e-38 330 235
0.014792874 0.76700002 0.006724033 1.2975738e-38 331 235
0.016179759 0.76899999 0.0067415666 1.2883911e-38 332 235
0.017528072 0.76899999 0.0067415666 1.2883911e-38 333 235
0.018925481 0.77100003 0.0067590997 1.2517665e-38 334 235
0.020277301 0.77100003 0.0067590997 1.2517665e-38 335 235
0.021685226 0.773 0.0067766332 1.1966688e-38 336 235
0.023040552 0.773 0.0067766332 1.5100981e-38 337 235
-0.049233593 0.77999997 0.0054703997 1.4566537e-38 284 236
-0.047865998 0.77999997 0.0054703997 1.0786516e-38 285 236
-0.046140719 0.77399999 0.0054283198 1.3441437e-38 286 236
-0.044783637 0.77399999 0.0054283198 1.334924e-38 287 236
-0.043370452 0.773 0.0054213065 1.4726031e-38 288 236
-0.042015124 0.773 0.0054213065 1.4633477e-38 289 236
-0.040344197 0.76700002 0.0053792265 1.4817851e-38 290 236
-0.038948543 0.76599997 0.0053722127 1.4356874e-38 291 236
-0.037605491 0.76599997 0.0053722127 1.3710785e-38 292 236
-0.036262438 0.76599997 0.0053722127 1.3434198e-38 293 236
-0.034919381 0.76599997 0.0053722127 1.3160512e-38 294 236
-0.033576332 0.76599997 0.0053722127 1.362185e-38 295 236
-0.032233275 0.76599997 0.0053722127 1.3899877e-38 296 236
-0.030728921 0.76200002 0.0053441599 1.3992433e-38 297 236
-0.029392879 0.76200002 0.0053441599 1.4634198e-38 298 236
-0.028056841 0.76200002 0.0053441599 1.4450167e-38 299 236
-0.026685731 0.76099998 0.0053371461 1.4449814e-38 300 236
-0.025351444 0.76099998 0.0053371461 1.4357619e-38 301 236
-0.023954039 0.759 0.0053231199 1.4449817e-38 302 236
-0.02262326 0.759 0.0053231199 1.463385e-38 303 236
-0.02129248 0.759 0.0053231199 1.4357987e-38 304 236
-0.0199617 0.759 0.0053231199 1.3989206e-38 305 236
-0.01863092 0.759 0.0053231199 1.3439275e-38 306 236
-0.017300138 0.759 0.0053231199 1.3807697e-38 307 236
-0.015969358 0.759 0.0053231199 1.4085363e-38 308 236
-0.014638579 0.759 0.0053231199 1.4177559e-38 309 236
-0.0133078 0.759 0.0053231199 1.4634941e-38 310 236
-0.01197702 0.759 0.0053231199 1.445055e-38 311 236
-0.01064624 0.759 0.0053231199 1.4266166e-38 312 236
-0.00931546 0.759 0.0053231199 1.4542392e-38 313 236
-0.0079846792 0.759 0.0053231199 1.3993537e-38 314 236
-0.0066538998 0.759 0.0053231199 1.436232e-38 315 236
-0.0053231199 0.759 0.0053231199 1.473073e-38 316 236
-0.0039923396 0.759 0.0053231199 1.4362307e-38 317 236
-0.00266156 0.759 0.0053231199 1.4268657e-38 318 236
-0.00133078 0.759 0.0053231199 1.3623288e-38 319 236
0 0.759 0.0053231199 1.380587e-38 320 236
0.0013342865 0.76099998 0.0053371461 1.3713674e-38 321 236
0.0026685731 0.76099998 0.0053371461 1.3712953e-38 322 236
0.0040028598 0.76099998 0.0053371461 1.3528561e-38 323 236
0.0053441599 0.76200002 0.0053441599 1.3710788e-38 324 236
0.0066801999 0.76200002 0.0053441599 1.3618233e-38 325 236
0.0080162399 0.76200002 0.0053441599 1.3434561e-38 326 236
0.0093522798 0.76200002 0.0053441599 1.3434561e-38 327 236
0.010716373 0.764 0.0053581866 1.3158331e-38 328 236
0.01210326 0.76700002 0.0053792265 1.3066136e-38 329 236
0.013448066 0.76700002 0.0053792265 1.2883542e-38 330 236
0.014792874 0.76700002 0.0053792265 1.2883542e-38 331 236
0.016179759 0.76899999 0.0053932532 1.2699877e-38 332 236
0.017528072 0.76899999 0.0053932532 1.2699877e-38 333 236
0.018925481 0.77100003 0.0054072798 1.2516943e-38 334 236
0.020277301 0.77100003 0.0054072798 1.2609139e-38 335 236
0.021685226 0.773 0.0054213065 1.1965249e-38 336 236
0.023040552 0.773 0.0054213065 1.4362695e-38 337 236
-0.049233593 0.77999997 0.0041027996 1.4010123e-38 284 237
-0.047865998 0.77999997 0.0041027996 1.0691081e-38 285 237
-0.046081103 0.773 0.0040659797 1.2981181e-38 286 237
-0.044725779 0.773 0.0040659797 1.3350323e-38 287 237
-0.043146025 0.76899999 0.0040449398 1.4357969e-38 288 237
-0.041689005 0.76700002 0.00403442 1.4357969e-38 289 237
-0.040291596 0.76599997 0.0040291594 1.4724931e-38 290 237
-0.038948543 0.76599997 0.0040291594 1.454054e-38 291 237
-0.037507307 0.764 0.0040186401 1.4172476e-38 292 237
-0.036167759 0.764 0.0040186401 1.3896249e-38 293 237
-0.034828212 0.764 0.0040186401 1.343781e-38 294 237
-0.033488665 0.764 0.0040186401 1.3530006e-38 295 237
-0.032064959 0.76200002 0.0040081199 1.3622569e-38 296 237
-0.030728921 0.76200002 0.0040081199 1.3345981e-38 297 237
-0.029392879 0.76200002 0.0040081199 1.3528574e-38 298 237
-0.028020019 0.76099998 0.0040028598 1.3712965e-38 299 237
-0.026685731 0.76099998 0.0040028598 1.389628e-38 300 237
-0.025284819 0.759 0.0039923396 1.389628e-38 301 237
-0.023954039 0.759 0.0039923396 1.4079957e-38 302 237
-0.02262326 0.759 0.0039923396 1.4079957e-38 303 237
-0.02129248 0.759 0.0039923396 1.3987407e-38 304 237
-0.0199617 0.759 0.0039923396 1.4079604e-38 305 237
-0.01863092 0.759 0.0039923396 1.3804818e-38 306 237
-0.017300138 0.759 0.0039923396 1.3989209e-38 307 237
-0.015969358 0.759 0.0039923396 1.4082126e-38 308 237
-0.014600007 0.75700003 0.0039818203 1.4174322e-38 309 237
-0.013272733 0.75700003 0.0039818203 1.4357631e-38 310 237
-0.01197702 0.759 0.0039923396 1.4265436e-38 311 237
-0.010618187 0.75700003 0.0039818203 1.3990644e-38 312 237
-0.0092909131 0.75700003 0.0039818203 1.3990644e-38 313 237
-0.0079846792 0.759 0.0039923396 1.3899527e-38 314 237
-0.0066363667 0.75700003 0.0039818203 1.4084279e-38 315 237
-0.0053090933 0.75700003 0.0039818203 1.4727843e-38 316 237
-0.0039818203 0.75700003 0.0039818203 1.4635647e-38 317 237
-0.00266156 0.759 0.0039923396 1.4267574e-38 318 237
-0.00133078 0.759 0.0039923396 1.3806237e-38 319 237
0 0.759 0.0039923396 1.3530003e-38 320 237
0.00133078 0.759 0.0039923396 1.3437808e-38 321 237
0.0026685731 0.76099998 0.0040028598 1.3712953e-38 322 237
0.0040028598 0.76099998 0.0040028598 1.3620757e-38 323 237
0.0053371461 0.76099998 0.0040028598 1.3711508e-38 324 237
0.0066714329 0.76099998 0.0040028598 1.3526756e-38 325 237
0.0080162399 0.76200002 0.0040081199 1.3434198e-38 326 237
0.0093522798 0.76200002 0.0040081199 1.3341644e-38 327 237
0.01068832 0.76200002 0.0040081199 1.3066855e-38 328 237
0.01210326 0.76700002 0.00403442 1.2882823e-38 329 237
0.013448066 0.76700002 0.00403442 1.2791344e-38 330 237
0.014792874 0.76700002 0.00403442 1.2791344e-38 331 237
0.01613768 0.76700002 0.00403442 1.2790991e-38 332 237
0.017528072 0.76899999 0.0040449398 1.2975741e-38 333 237
0.018925481 0.77100003 0.0040554604 1.2424745e-38 334 237
0.020277301 0.77100003 0.0040554604 1.2517299e-38 335 237
0.021629119 0.77100003 0.0040554604 1.1964886e-38 336 237
0.02298094 0.77100003 0.0040554604 1.3900994e-38 337 237
-0.046081103 0.773 0.0027106532 1.2888622e-38 286 238
-0.044725779 0.773 0.0027106532 1.334924e-38 287 238
-0.043146025 0.76899999 0.0026966266 1.3990984e-38 288 238
-0.041689005 0.76700002 0.0026896133 1.389843e-38 289 238
-0.040291596 0.76599997 0.0026861064 1.4449426e-38 290 238
-0.038948543 0.76599997 0.0026861064 1.4449426e-38 291 238
-0.037507307 0.764 0.0026790933 1.4081713e-38 292 238
-0.036167759 0.764 0.0026790933 1.3989517e-38 293 238
-0.034828212 0.764 0.0026790933 1.3438158e-38 294 238
-0.033488665 0.764 0.0026790933 1.3345962e-38 295 238
-0.032064959 0.76200002 0.00267208 1.3344906e-38 296 238
-0.030728921 0.76200002 0.00267208 1.2976483e-38 297 238
-0.029392879 0.76200002 0.00267208 1.3343111e-38 298 238
-0.028020019 0.76099998 0.0026685731 1.3435306e-38 299 238
-0.026685731 0.76099998 0.0026685731 1.3711167e-38 300 238
-0.025284819 0.759 0.00266156 1.3527136e-38 301 238
-0.023954039 0.759 0.00266156 1.3802294e-38 302 238
-0.02262326 0.759 0.00266156 1.3802294e-38 303 238
-0.02129248 0.759 0.00266156 1.3709395e-38 304 238
-0.0199617 0.759 0.00266156 1.380159e-38 305 238
-0.01863092 0.759 0.00266156 1.3526804e-38 306 238
-0.017300138 0.759 0.00266156 1.3711195e-38 307 238
-0.015969358 0.759 0.00266156 1.3619719e-38 308 238
-0.014600007 0.75700003 0.0026545466 1.3711916e-38 309 238
-0.013272733 0.75700003 0.0026545466 1.3804108e-38 310 238
-0.01194546 0.75700003 0.0026545466 1.3711911e-38 311 238
-0.010618187 0.75700003 0.0026545466 1.3528952e-38 312 238
-0.0092909131 0.75700003 0.0026545466 1.3436757e-38 313 238
-0.0079636406 0.75700003 0.0026545466 1.343747e-38 314 238
-0.0066363667 0.75700003 0.0026545466 1.3530026e-38 315 238
-0.0053090933 0.75700003 0.0026545466 1.3990631e-38 316 238
-0.0039818203 0.75700003 0.0026545466 1.4267219e-38 317 238
-0.00266156 0.759 0.00266156 1.445052e-38 318 238
-0.00133078 0.759 0.00266156 1.3989182e-38 319 238
0 0.759 0.00266156 1.3804066e-38 320 238
0.00133078 0.759 0.00266156 1.3804066e-38 321 238
0.0026685731 0.76099998 0.0026685731 1.3988816e-38 322 238
0.0040028598 0.76099998 0.0026685731 1.3804066e-38 323 238
0.0053371461 0.76099998 0.0026685731 1.3894464e-38 324 238
0.0066714329 0.76099998 0.0026685731 1.3618236e-38 325 238
0.0080057196 0.76099998 0.0026685731 1.325053e-38 326 238
0.0093522798 0.76200002 0.00267208 1.3158334e-38 327 238
0.01068832 0.76200002 0.00267208 1.3066138e-38 328 238
0.01205592 0.764 0.0026790933 1.2973583e-38 329 238
0.013430533 0.76599997 0.0026861064 1.2789917e-38 330 238
0.014773586 0.76599997 0.0026861064 1.2789917e-38 331 238
0.01613768 0.76700002 0.0026896133 1.2606972e-38 332 238
0.017482487 0.76700002 0.0026896133 1.2699527e-38 333 238
0.018876385 0.76899999 0.0026966266 1.2424745e-38 334 238
0.020277301 0.77100003 0.0027036399 1.2424745e-38 335 238
0.021629119 0.77100003 0.0027036399 1.196452e-38 336 238
0.02298094 0.77100003 0.0027036399 1.3531486e-38 337 238
-0.047620531 0.77600002 0.0013605866 1.1145575e-38 285 239
-0.046081103 0.773 0.0013553266 1.3621152e-38 286 239
-0.044725779 0.773 0.0013553266 1.3897379e-38 287 239
-0.043146025 0.76899999 0.0013483133 1.4081382e-38 288 239
-0.041689005 0.76700002 0.0013448066 1.4081382e-38 289 239
-0.040291596 0.76599997 0.0013430532 1.4356151e-38 290 239
-0.038948543 0.76599997 0.0013430532 1.4540543e-38 291 239
-0.037507307 0.764 0.0013395466 1.4173559e-38 292 239
-0.036167759 0.764 0.0013395466 1.3712221e-38 293 239
-0.034737039 0.76200002 0.00133604 1.3528561e-38 294 239
-0.033401001 0.76200002 0.00133604 1.3251614e-38 295 239
-0.032022879 0.76099998 0.0013342865 1.3250542e-38 296 239
-0.030688593 0.76099998 0.0013342865 1.3250542e-38 297 239
-0.029354304 0.76099998 0.0013342865 1.3526403e-38 298 239
-0.028020019 0.76099998 0.0013342865 1.3618958e-38 299 239
-0.026685731 0.76099998 0.0013342865 1.3434208e-38 300 239
-0.025284819 0.759 0.00133078 1.3434208e-38 301 239
-0.023954039 0.759 0.00133078 1.3616456e-38 302 239
-0.02262326 0.759 0.00133078 1.3616456e-38 303 239
-0.02129248 0.759 0.00133078 1.361575e-38 304 239
-0.0199617 0.759 0.00133078 1.361575e-38 305 239
-0.01863092 0.759 0.00133078 1.3615753e-38 306 239
-0.017300138 0.759 0.00133078 1.3707949e-38 307 239
-0.015969358 0.759 0.00133078 1.3524636e-38 308 239
-0.014600007 0.75700003 0.0013272733 1.3616832e-38 309 239
-0.013272733 0.75700003 0.0013272733 1.3617903e-38 310 239
-0.01194546 0.75700003 0.0013272733 1.3710098e-38 311 239
-0.010618187 0.75700003 0.0013272733 1.3343111e-38 312 239
-0.0092909131 0.75700003 0.0013272733 1.3066883e-38 313 239
-0.0079636406 0.75700003 0.0013272733 1.3248044e-38 314 239
-0.0066363667 0.75700003 0.0013272733 1.3340239e-38 315 239
-0.0053090933 0.75700003 0.0013272733 1.3343464e-38 316 239
-0.0039818203 0.75700003 0.0013272733 1.3896636e-38 317 239
-0.00266156 0.759 0.00133078 1.4446921e-38 318 239
-0.00133078 0.759 0.00133078 1.4354725e-38 319 239
0 0.759 0.00133078 1.3895902e-38 320 239
0.00133078 0.759 0.00133078 1.4079933e-38 321 239
0.0026685731 0.76099998 0.0013342865 1.3988461e-38 322 239
0.0040028598 0.76099998 0.0013342865 1.3896265e-38 323 239
0.0053371461 0.76099998 0.0013342865 1.3710799e-38 324 239
0.0066714329 0.76099998 0.0013342865 1.3250179e-38 325 239
0.0080057196 0.76099998 0.0013342865 1.3249095e-38 326 239
0.0093400059 0.76099998 0.0013342865 1.3249095e-38 327 239
0.01068832 0.76200002 0.00133604 1.2973583e-38 328 239
0.01202436 0.76200002 0.00133604 1.2789191e-38 329 239
0.013430533 0.76599997 0.0013430532 1.2788838e-38 330 239
0.014773586 0.76599997 0.0013430532 1.2788838e-38 331 239
0.01613768 0.76700002 0.0013448066 1.2422217e-38 332 239
0.017482487 0.76700002 0.0013448066 1.2698445e-38 333 239
0.018876385 0.76899999 0.0013483133 1.2422952e-38 334 239
0.020277301 0.77100003 0.00135182 1.2699539e-38 335 239
0.021573013 0.76899999 0.0013483133 1.2057079e-38 336 239
0.022921326 0.76899999 0.0013483133 1.3163426e-38 337 239
-0.047620531 0.77600002 -0 1.0867909e-38 285 240
-0.046140719 0.77399999 -0 1.2335095e-38 286 240
-0.044783637 0.77399999 -0 1.2796073e-38 287 240
-0.043146025 0.76899999 -0 1.3163034e-38 288 240
-0.041689005 0.76700002 -0 1.2886449e-38 289 240
-0.040291596 0.76599997 -0 1.3896636e-38 290 240
-0.038948543 0.76599997 -0 1.3988833e-38 291 240
-0.037507307 0.764 -0 1.37126e-38 292 240
-0.036167759 0.764 -0 1.3436013e-38 293 240
-0.034737039 0.76200002 -0 1.2974681e-38 294 240
-0.033357166 0.76099998 -0 1.2882486e-38 295 240
-0.032022879 0.76099998 -0 1.2882489e-38 296 240
-0.030688593 0.76099998 -0 1.306688e-38 297 240
-0.029354304 0.76099998 -0 1.288464e-38 298 240
-0.028020019 0.76099998 -0 1.2792085e-38 299 240
-0.026685731 0.76099998 -0 1.3065445e-38 300 240
-0.025284819 0.759 -0 1.2881414e-38 301 240
-0.023954039 0.759 -0 1.2788868e-38 302 240
-0.02262326 0.759 -0 1.3065095e-38 303 240
-0.02129248 0.759 -0 1.2788515e-38 304 240
-0.0199617 0.759 -0 1.288071e-38 305 240
-0.01863092 0.759 -0 1.2880716e-38 306 240
-0.017300138 0.759 -0 1.2788162e-38 307 240
-0.015969358 0.759 -0 1.2880716e-38 308 240
-0.014638579 0.759 -0 1.3156943e-38 309 240
-0.0133078 0.759 -0 1.3157293e-38 310 240
-0.01194546 0.75700003 -0 1.3157293e-38 311 240
-0.010618187 0.75700003 -0 1.2698473e-38 312 240
-0.0092909131 0.75700003 -0 1.2421526e-38 313 240
-0.0079636406 0.75700003 -0 1.2052047e-38 314 240
-0.0066363667 0.75700003 -0 1.1959851e-38 315 240
-0.0053090933 0.75700003 -0 1.1686854e-38 316 240
-0.0039818203 0.75700003 -0 1.2240028e-38 317 240
-0.00266156 0.759 -0 1.3159445e-38 318 240
-0.00133078 0.759 -0 1.3251641e-38 319 240
0 0.759 -0 1.3710451e-38 320 240
0.00133078 0.759 -0 1.3894843e-38 321 240
0.0026685731 0.76099998 -0 1.3711167e-38 322 240
0.0040028598 0.76099998 -0 1.3527136e-38 323 240
0.0053371461 0.76099998 -0 1.3525334e-38 324 240
0.0066714329 0.76099998 -0 1.3248747e-38 325 240
0.0080057196 0.76099998 -0 1.3064711e-38 326 240
0.0093400059 0.76099998 -0 1.3064711e-38 327 240
0.01068832 0.76200002 -0 1.2605173e-38 328 240
0.01202436 0.76200002 -0 1.2512977e-38 329 240
0.013395466 0.764 -0 1.2420429e-38 330 240
0.014735013 0.764 -0 1.2420429e-38 331 240
0.016116638 0.76599997 -0 1.2237482e-38 332 240
0.017482487 0.76700002 -0 1.2237482e-38 333 240
0.018827293 0.76700002 -0 1.2055987e-38 334 240
0.0202247 0.76899999 -0 1.2516607e-38 335 240
0.021573013 0.76899999 -0 1.20596e-38 336 240
0.022921326 0.76899999 -0 1.2612774e-38 337 240
0.024269639 0.76899999 -0 1.2715068e-38 338 240
-0.048981119 0.77600002 -0.0013605866 1.2158648e-38 284 241
-0.047620531 0.77600002 -0.0013605866 1.0407291e-38 285 241
-0.046140719 0.77399999 -0.0013570799 1.2975793e-38 286 241
-0.044783637 0.77399999 -0.0013570799 1.3068347e-38 287 241
-0.043370452 0.773 -0.0013553266 1.3160164e-38 288 241
-0.041689005 0.76700002 -0.0013448066 1.2976133e-38 289 241
-0.040291596 0.76599997 -0.0013430532 1.3527487e-38 290 241
-0.038846854 0.764 -0.0013395466 1.3896268e-38 291 241
-0.037507307 0.764 -0.0013395466 1.3528559e-38 292 241
-0.036073081 0.76200002 -0.00133604 1.2883189e-38 293 241
-0.034737039 0.76200002 -0.00133604 1.2972516e-38 294 241
-0.033357166 0.76099998 -0.0013342865 1.2695571e-38 295 241
-0.032022879 0.76099998 -0.0013342865 1.287997e-38 296 241
-0.030688593 0.76099998 -0.0013342865 1.3064363e-38 297 241
-0.029354304 0.76099998 -0.0013342865 1.2972886e-38 298 241
-0.028020019 0.76099998 -0.0013342865 1.2972886e-38 299 241
-0.026685731 0.76099998 -0.0013342865 1.2970731e-38 300 241
-0.025284819 0.759 -0.00133078 1.2970731e-38 301 241
-0.023954039 0.759 -0.00133078 1.2787422e-38 302 241
-0.02262326 0.759 -0.00133078 1.2879617e-38 303 241
-0.02129248 0.759 -0.00133078 1.2603753e-38 304 241
-0.0199617 0.759 -0.00133078 1.2787785e-38 305 241
-0.01863092 0.759 -0.00133078 1.2787431e-38 306 241
-0.017300138 0.759 -0.00133078 1.2787431e-38 307 241
-0.015969358 0.759 -0.00133078 1.2879267e-38 308 241
-0.014638579 0.759 -0.00133078 1.2879267e-38 309 241
-0.013272733 0.75700003 -0.0013272733 1.287998e-38 310 241
-0.01194546 0.75700003 -0.0013272733 1.2787785e-38 311 241
-0.010618187 0.75700003 -0.0013272733 1.2420081e-38 312 241
-0.0092909131 0.75700003 -0.0013272733 1.2143496e-38 313 241
-0.0079636406 0.75700003 -0.0013272733 1.1683245e-38 314 241
-0.0066363667 0.75700003 -0.0013272733 1.1683245e-38 315 241
-0.0053090933 0.75700003 -0.0013272733 1.1500293e-38 316 241
-0.0039818203 0.75700003 -0.0013272733 1.1961271e-38 317 241
-0.00266156 0.759 -0.00133078 1.306293e-38 318 241
-0.00133078 0.759 -0.00133078 1.3432072e-38 319 241
0 0.759 -0.00133078 1.3708286e-38 320 241
0.00133078 0.759 -0.00133078 1.3984513e-38 321 241
0.0026685731 0.76099998 -0.0013342865 1.3709005e-38 322 241
0.0040028598 0.76099998 -0.0013342865 1.3616451e-38 323 241
0.0053371461 0.76099998 -0.0013342865 1.3340221e-38 324 241
0.0066714329 0.76099998 -0.0013342865 1.3155829e-38 325 241
0.0080057196 0.76099998 -0.0013342865 1.2788841e-38 326 241
0.0093400059 0.76099998 -0.0013342865 1.260481e-38 327 241
0.01068832 0.76200002 -0.00133604 1.2420066e-38 328 241
0.01202436 0.76200002 -0.00133604 1.2420066e-38 329 241
0.013395466 0.764 -0.0013395466 1.2327514e-38 330 241
0.014735013 0.764 -0.0013395466 1.2327514e-38 331 241
0.016074561 0.764 -0.0013395466 1.2235317e-38 332 241
0.017459691 0.76599997 -0.0013430532 1.241971e-38 333 241
0.018827293 0.76700002 -0.0013448066 1.2054538e-38 334 241
0.0202247 0.76899999 -0.0013483133 1.2423681e-38 335 241
0.021573013 0.76899999 -0.0013483133 1.1874487e-38 336 241
0.022921326 0.76899999 -0.0013483133 1.2704248e-38 337 241
0.024269639 0.76899999 -0.0013483133 1.2624671e-38 338 241
-0.048981119 0.77600002 -0.0027211732 1.2157929e-38 284 242
-0.047620531 0.77600002 -0.0027211732 1.0682799e-38 285 242
-0.046140719 0.77399999 -0.0027141599 1.2517691e-38 286 242
-0.044725779 0.773 -0.0027106532 1.23333e-38 287 242
-0.043146025 0.76899999 -0.0026966266 1.2241448e-38 288 242
-0.041689005 0.76700002 -0.0026896133 1.2241448e-38 289 242
-0.040291596 0.76599997 -0.0026861064 1.2976837e-38 290 242
-0.038846854 0.764 -0.0026790933 1.2976837e-38 291 242
-0.037507307 0.764 -0.0026790933 1.2976106e-38 292 242
-0.036073081 0.76200002 -0.00267208 1.2607325e-38 293 242
-0.034737039 0.76200002 -0.00267208 1.2512977e-38 294 242
-0.033357166 0.76099998 -0.0026685731 1.2512977e-38 295 242
-0.032022879 0.76099998 -0.0026685731 1.2512627e-38 296 242
-0.030688593 0.76099998 -0.0026685731 1.2604823e-38 297 242
-0.029354304 0.76099998 -0.0026685731 1.2604825e-38 298 242
-0.028020019 0.76099998 -0.0026685731 1.2604825e-38 299 242
-0.026685731 0.76099998 -0.0026685731 1.2512274e-38 300 242
-0.025284819 0.759 -0.00266156 1.2420078e-38 301 242
-0.023954039 0.759 -0.00266156 1.2420078e-38 302 242
-0.02262326 0.759 -0.00266156 1.2512274e-38 303 242
-0.02129248 0.759 -0.00266156 1.2328608e-38 304 242
-0.0199617 0.759 -0.00266156 1.2328608e-38 305 242
-0.01863092 0.759 -0.00266156 1.2328255e-38 306 242
-0.017300138 0.759 -0.00266156 1.223606e-38 307 242
-0.015969358 0.759 -0.00266156 1.2419731e-38 308 242
-0.014638579 0.759 -0.00266156 1.2511926e-38 309 242
-0.013272733 0.75700003 -0.0026545466 1.2511924e-38 310 242
-0.01194546 0.75700003 -0.0026545466 1.2419728e-38 311 242
-0.010618187 0.75700003 -0.0026545466 1.2234262e-38 312 242
-0.0092909131 0.75700003 -0.0026545466 1.1958034e-38 313 242
-0.0079636406 0.75700003 -0.0026545466 1.1498497e-38 314 242
-0.0066363667 0.75700003 -0.0026545466 1.1590693e-38 315 242
-0.0053090933 0.75700003 -0.0026545466 1.1224787e-38 316 242
-0.0039818203 0.75700003 -0.0026545466 1.1593211e-38 317 242
-0.00266156 0.759 -0.00266156 1.2328608e-38 318 242
-0.00133078 0.759 -0.00266156 1.2697391e-38 319 242
0 0.759 -0.00266156 1.3247675e-38 320 242
0.00133078 0.759 -0.00266156 1.3432067e-38 321 242
0.0026685731 0.76099998 -0.0026685731 1.3340943e-38 322 242
0.0040028598 0.76099998 -0.0026685731 1.3064716e-38 323 242
0.0053371461 0.76099998 -0.0026685731 1.2880684e-38 324 242
0.0066714329 0.76099998 -0.0026685731 1.2788488e-38 325 242
0.0080057196 0.76099998 -0.0026685731 1.2237116e-38 326 242
0.0093400059 0.76099998 -0.0026685731 1.2144921e-38 327 242
0.01068832 0.76200002 -0.00267208 1.1960172e-38 328 242
0.01202436 0.76200002 -0.00267208 1.2052369e-38 329 242
0.0133604 0.76200002 -0.00267208 1.1960528e-38 330 242
0.014735013 0.764 -0.0026790933 1.1776138e-38 331 242
0.016074561 0.764 -0.0026790933 1.1684311e-38 332 242
0.017459691 0.76599997 -0.0026861064 1.1868704e-38 333 242
0.018827293 0.76700002 -0.0026896133 1.1778677e-38 334 242
0.0202247 0.76899999 -0.0026966266 1.2147461e-38 335 242
0.021573013 0.76899999 -0.0026966266 1.1323833e-38 336 242
0.022921326 0.76899999 -0.0026966266 1.2614571e-38 337 242
0.02442744 0.77399999 -0.0027141599 1.2994895e-38 338 242
-0.048981119 0.77600002 -0.0040817601 1.2434509e-38 284 243
-0.047620531 0.77600002 -0.0040817601 1.0775348e-38 285 243
-0.046140719 0.77399999 -0.0040712398 1.2515536e-38 286 243
-0.044725779 0.773 -0.0040659797 1.2331145e-38 287 243
-0.043033812 0.76700002 -0.00403442 1.1872669e-38 288 243
-0.041689005 0.76700002 -0.00403442 1.1965224e-38 289 243
-0.040291596 0.76599997 -0.0040291594 1.2699173e-38 290 243
-0.038846854 0.764 -0.0040186401 1.2699173e-38 291 243
-0.037507307 0.764 -0.0040186401 1.2790643e-38 292 243
-0.036073081 0.76200002 -0.0040081199 1.2421861e-38 293 243
-0.034737039 0.76200002 -0.0040081199 1.2422217e-38 294 243
-0.033357166 0.76099998 -0.0040028598 1.2237467e-38 295 243
-0.032022879 0.76099998 -0.0040028598 1.2420784e-38 296 243
-0.030688593 0.76099998 -0.0040028598 1.251298e-38 297 243
-0.029354304 0.76099998 -0.0040028598 1.2512627e-38 298 243
-0.028020019 0.76099998 -0.0040028598 1.2512627e-38 299 243
-0.026685731 0.76099998 -0.0040028598 1.2420075e-38 300 243
-0.025284819 0.759 -0.0039923396 1.2236044e-38 301 243
-0.023954039 0.759 -0.0039923396 1.2144923e-38 302 243
-0.02262326 0.759 -0.0039923396 1.2237119e-38 303 243
-0.02129248 0.759 -0.0039923396 1.2236047e-38 304 243
-0.0199617 0.759 -0.0039923396 1.2143851e-38 305 243
-0.01863092 0.759 -0.0039923396 1.2143501e-38 306 243
-0.017300138 0.759 -0.0039923396 1.2143501e-38 307 243
-0.015969358 0.759 -0.0039923396 1.2051666e-38 308 243
-0.014638579 0.759 -0.0039923396 1.195947e-38 309 243
-0.013272733 0.75700003 -0.0039818203 1.195947e-38 310 243
-0.01194546 0.75700003 -0.0039818203 1.1775437e-38 311 243
-0.010618187 0.75700003 -0.0039818203 1.1591046e-38 312 243
-0.0092909131 0.75700003 -0.0039818203 1.1498851e-38 313 243
-0.0079636406 0.75700003 -0.0039818203 1.122334e-38 314 243
-0.0066363667 0.75700003 -0.0039818203 1.1407731e-38 315 243
-0.0053090933 0.75700003 -0.0039818203 1.1592115e-38 316 243
-0.0039818203 0.75700003 -0.0039818203 1.1776507e-38 317 243
-0.00266156 0.759 -0.0039923396 1.2144568e-38 318 243
-0.00133078 0.759 -0.0039923396 1.2421513e-38 319 243
0 0.759 -0.0039923396 1.2972519e-38 320 243
0.00133078 0.759 -0.0039923396 1.2972519e-38 321 243
0.0026685731 0.76099998 -0.0040028598 1.2880321e-38 322 243
0.0040028598 0.76099998 -0.0040028598 1.2880321e-38 323 243
0.0053371461 0.76099998 -0.0040028598 1.251298e-38 324 243
0.0066714329 0.76099998 -0.0040028598 1.2420784e-38 325 243
0.0080057196 0.76099998 -0.0040028598 1.2144199e-38 326 243
0.0093400059 0.76099998 -0.0040028598 1.2052002e-38 327 243
0.01068832 0.76200002 -0.0040081199 1.1959806e-38 328 243
0.01202436 0.76200002 -0.0040081199 1.2052002e-38 329 243
0.0133604 0.76200002 -0.0040081199 1.1683943e-38 330 243
0.014735013 0.764 -0.0040186401 1.1683943e-38 331 243
0.016074561 0.764 -0.0040186401 1.1591759e-38 332 243
0.017459691 0.76599997 -0.0040291594 1.1776509e-38 333 243
0.018827293 0.76700002 -0.00403442 1.1502095e-38 334 243
0.020172099 0.76700002 -0.00403442 1.2055268e-38 335 243
0.021573013 0.76899999 -0.0040449398 1.1139085e-38 336 243
0.02298094 0.77100003 -0.0040554604 1.2706771e-38 337 243
0.024648361 0.78100002 -0.0041080597 1.3272927e-38 338 243
-0.048981119 0.77600002 -0.0054423464 1.2526706e-38 284 244
-0.047497798 0.77399999 -0.0054283198 1.0314369e-38 285 244
-0.046081103 0.773 -0.0054213065 1.2605934e-38 286 244
-0.044725779 0.773 -0.0054213065 1.2513738e-38 287 244
-0.043033812 0.76700002 -0.0053792265 1.1963786e-38 288 244
-0.041689005 0.76700002 -0.0053792265 1.1963786e-38 289 244
-0.040291596 0.76599997 -0.0053722127 1.2514429e-38 290 244
-0.038948543 0.76599997 -0.0053722127 1.2329678e-38 291 244
-0.037507307 0.764 -0.0053581866 1.2512627e-38 292 244
-0.036073081 0.76200002 -0.0053441599 1.2512627e-38 293 244
-0.034737039 0.76200002 -0.0053441599 1.2329665e-38 294 244
-0.033357166 0.76099998 -0.0053371461 1.2237469e-38 295 244
-0.032022879 0.76099998 -0.0053371461 1.2420784e-38 296 244
-0.030688593 0.76099998 -0.0053371461 1.2420784e-38 297 244
-0.029354304 0.76099998 -0.0053371461 1.2237119e-38 298 244
-0.028020019 0.76099998 -0.0053371461 1.2144923e-38 299 244
-0.026685731 0.76099998 -0.0053371461 1.2143849e-38 300 244
-0.025351444 0.76099998 -0.0053371461 1.2051652e-38 301 244
-0.023954039 0.759 -0.0053231199 1.2051652e-38 302 244
-0.02262326 0.759 -0.0053231199 1.2143849e-38 303 244
-0.02129248 0.759 -0.0053231199 1.2142415e-38 304 244
-0.020014299 0.76099998 -0.0053371461 1.1958384e-38 305 244
-0.01863092 0.759 -0.0053231199 1.1958753e-38 306 244
-0.017300138 0.759 -0.0053231199 1.1958753e-38 307 244
-0.015969358 0.759 -0.0053231199 1.1683605e-38 308 244
-0.014600007 0.75700003 -0.0053090933 1.1591409e-38 309 244
-0.013272733 0.75700003 -0.0053090933 1.1498495e-38 310 244
-0.01194546 0.75700003 -0.0053090933 1.1406299e-38 311 244
-0.010618187 0.75700003 -0.0053090933 1.1222984e-38 312 244
-0.0092909131 0.75700003 -0.0053090933 1.1130788e-38 313 244
-0.0079636406 0.75700003 -0.0053090933 1.1223334e-38 314 244
-0.0066363667 0.75700003 -0.0053090933 1.1408084e-38 315 244
-0.0053090933 0.75700003 -0.0053090933 1.1592115e-38 316 244
-0.0039818203 0.75700003 -0.0053090933 1.1592115e-38 317 244
-0.00266156 0.759 -0.0053231199 1.1958384e-38 318 244
-0.0013342865 0.76099998 -0.0053371461 1.2234611e-38 319 244
0 0.76099998 -0.0053371461 1.2784898e-38 320 244
0.0013342865 0.76099998 -0.0053371461 1.2969649e-38 321 244
0.0026685731 0.76099998 -0.0053371461 1.2694855e-38 322 244
0.0040028598 0.76099998 -0.0053371461 1.2694855e-38 323 244
0.0053371461 0.76099998 -0.0053371461 1.2419712e-38 324 244
0.0066714329 0.76099998 -0.0053371461 1.2327517e-38 325 244
0.0080057196 0.76099998 -0.0053371461 1.2051649e-38 326 244
0.0093400059 0.76099998 -0.0053371461 1.2051649e-38 327 244
0.01068832 0.76200002 -0.0053441599 1.1959809e-38 328 244
0.01202436 0.76200002 -0.0053441599 1.1959809e-38 329 244
0.0133604 0.76200002 -0.0053441599 1.159175e-38 330 244
0.014735013 0.764 -0.0053581866 1.159175e-38 331 244
0.016074561 0.764 -0.0053581866 1.1132942e-38 332 244
0.017459691 0.76599997 -0.0053722127 1.1409169e-38 333 244
0.018827293 0.76700002 -0.0053792265 1.122695e-38 334 244
0.020172099 0.76700002 -0.0053792265 1.1687928e-38 335 244
0.021573013 0.76899999 -0.0053932532 1.1046174e-38 336 244
0.022921326 0.76899999 -0.0053932532 1.2982282e-38 337 244
-0.04885488 0.77399999 -0.0067853997 1.2527788e-38 284 245
-0.047436431 0.773 -0.0067766332 1.0499484e-38 285 245
-0.046081103 0.773 -0.0067766332 1.288395e-38 286 245
-0.044725779 0.773 -0.0067766332 1.2330776e-38 287 245
-0.043146025 0.76899999 -0.0067415666 1.2239284e-38 288 245
-0.041689005 0.76700002 -0.006724033 1.2239284e-38 289 245
-0.040291596 0.76599997 -0.0067152665 1.2329678e-38 290 245
-0.038948543 0.76599997 -0.0067152665 1.2237482e-38 291 245
-0.037507307 0.764 -0.006697733 1.2054173e-38 292 245
-0.036073081 0.76200002 -0.0066801999 1.1961977e-38 293 245
-0.034737039 0.76200002 -0.0066801999 1.2054523e-38 294 245
-0.033357166 0.76099998 -0.0066714329 1.1962327e-38 295 245
-0.032022879 0.76099998 -0.0066714329 1.2053801e-38 296 245
-0.030688593 0.76099998 -0.0066714329 1.1961606e-38 297 245
-0.029354304 0.76099998 -0.0066714329 1.1961252e-38 298 245
-0.028020019 0.76099998 -0.0066714329 1.177686e-38 299 245
-0.026685731 0.76099998 -0.0066714329 1.1776507e-38 300 245
-0.025351444 0.76099998 -0.0066714329 1.1592115e-38 301 245
-0.024017159 0.76099998 -0.0066714329 1.1591762e-38 302 245
-0.02262326 0.759 -0.0066538998 1.1591762e-38 303 245
-0.02129248 0.759 -0.0066538998 1.1407734e-38 304 245
-0.020014299 0.76099998 -0.0066714329 1.1407734e-38 305 245
-0.01863092 0.759 -0.0066538998 1.1408453e-38 306 245
-0.017300138 0.759 -0.0066538998 1.1408453e-38 307 245
-0.015927281 0.75700003 -0.0066363667 1.1132586e-38 308 245
-0.014600007 0.75700003 -0.0066363667 1.1040391e-38 309 245
-0.013272733 0.75700003 -0.0066363667 1.113151e-38 310 245
-0.01194546 0.75700003 -0.0066363667 1.094712e-38 311 245
-0.010618187 0.75700003 -0.0066363667 1.0855999e-38 312 245
-0.0092909131 0.75700003 -0.0066363667 1.0855999e-38 313 245
-0.0079636406 0.75700003 -0.0066363667 1.0948545e-38 314 245
-0.0066363667 0.75700003 -0.0066363667 1.1132937e-38 315 245
-0.0053090933 0.75700003 -0.0066363667 1.1408084e-38 316 245
-0.0039923396 0.759 -0.0066538998 1.1315889e-38 317 245
-0.0026685731 0.76099998 -0.0066714329 1.1681091e-38 318 245
-0.0013342865 0.76099998 -0.0066714329 1.1773287e-38 319 245
0 0.76099998 -0.0066714329 1.1774361e-38 320 245
0.0013342865 0.76099998 -0.0066714329 1.1958753e-38 321 245
0.0026685731 0.76099998 -0.0066714329 1.1775788e-38 322 245
0.0040028598 0.76099998 -0.0066714329 1.1959819e-38 323 245
0.0053371461 0.76099998 -0.0066714329 1.2052372e-38 324 245
0.0066714329 0.76099998 -0.0066714329 1.1960175e-38 325 245
0.0080057196 0.76099998 -0.0066714329 1.1959456e-38 326 245
0.0093400059 0.76099998 -0.0066714329 1.186726e-38 327 245
0.01068832 0.76200002 -0.0066801999 1.1774706e-38 328 245
0.01202436 0.76200002 -0.0066801999 1.1590675e-38 329 245
0.0133604 0.76200002 -0.0066801999 1.1316605e-38 330 245
0.014735013 0.764 -0.006697733 1.1316605e-38 331 245
0.016074561 0.764 -0.006697733 1.094999e-38 332 245
0.017459691 0.76599997 -0.0067152665 1.1042544e-38 333 245
0.018827293 0.76700002 -0.006724033 1.1044359e-38 334 245
0.020172099 0.76700002 -0.006724033 1.1504978e-38 335 245
0.021573013 0.76899999 -0.0067415666 1.1138369e-38 336 245
0.022921326 0.76899999 -0.0067415666 1.3166673e-38 337 245
-0.050211959 0.77399999 -0.0081424797 1.5028256e-38 283 246
-0.048791755 0.773 -0.0081319595 1.2529228e-38 284 246
-0.047436431 0.773 -0.0081319595 1.0869708e-38 285 246
-0.046081103 0.773 -0.0081319595 1.2701357e-38 286 246
-0.044610061 0.77100003 -0.0081109209 1.2332574e-38 287 246
-0.043146025 0.76899999 -0.0080898795 1.2239281e-38 288 246
-0.041689005 0.76700002 -0.00806884 1.2147084e-38 289 246
-0.040344197 0.76700002 -0.00806884 1.2237832e-38 290 246
-0.038948543 0.76599997 -0.0080583189 1.1961606e-38 291 246
-0.037605491 0.76599997 -0.0080583189 1.1870132e-38 292 246
-0.036167759 0.764 -0.0080372803 1.1870132e-38 293 246
-0.034737039 0.76200002 -0.0080162399 1.2144918e-38 294 246
-0.033401001 0.76200002 -0.0080162399 1.2237113e-38 295 246
-0.032022879 0.76099998 -0.0080057196 1.2145274e-38 296 246
-0.030688593 0.76099998 -0.0080057196 1.1960522e-38 297 246
-0.029354304 0.76099998 -0.0080057196 1.1776494e-38 298 246
-0.028020019 0.76099998 -0.0080057196 1.1776494e-38 299 246
-0.026685731 0.76099998 -0.0080057196 1.1315883e-38 300 246
-0.025351444 0.76099998 -0.0080057196 1.1223687e-38 301 246
-0.023954039 0.759 -0.0079846792 1.1406285e-38 302 246
-0.02262326 0.759 -0.0079846792 1.1406285e-38 303 246
-0.02129248 0.759 -0.0079846792 1.131445e-38 304 246
-0.020014299 0.76099998 -0.0080057196 1.1499201e-38 305 246
-0.01863092 0.759 -0.0079846792 1.1315533e-38 306 246
-0.017300138 0.759 -0.0079846792 1.1315533e-38 307 246
-0.015927281 0.75700003 -0.0079636406 1.1040388e-38 308 246
-0.014600007 0.75700003 -0.0079636406 1.1040388e-38 309 246
-0.013272733 0.75700003 -0.0079636406 1.0948545e-38 310 246
-0.01194546 0.75700003 -0.0079636406 1.0856348e-38 311 246
-0.010618187 0.75700003 -0.0079636406 1.076415e-38 312 246
-0.0092909131 0.75700003 -0.0079636406 1.0856345e-38 313 246
-0.0079636406 0.75700003 -0.0079636406 1.1131493e-38 314 246
-0.0066363667 0.75700003 -0.0079636406 1.122369e-38 315 246
-0.0053090933 0.75700003 -0.0079636406 1.1499198e-38 316 246
-0.0039923396 0.759 -0.0079846792 1.1130774e-38 317 246
-0.0026685731 0.76099998 -0.0080057196 1.1313017e-38 318 246
-0.0013342865 0.76099998 -0.0080057196 1.1497049e-38 319 246
0 0.76099998 -0.0080057196 1.1589597e-38 320 246
0.0013342865 0.76099998 -0.0080057196 1.1681794e-38 321 246
0.0026685731 0.76099998 -0.0080057196 1.1682498e-38 322 246
0.0040028598 0.76099998 -0.0080057196 1.1866889e-38 323 246
0.0053371461 0.76099998 -0.0080057196 1.1959441e-38 324 246
0.0066714329 0.76099998 -0.0080057196 1.1959441e-38 325 246
0.0080057196 0.76099998 -0.0080057196 1.1957653e-38 326 246
0.0093400059 0.76099998 -0.0080057196 1.1957653e-38 327 246
0.01068832 0.76200002 -0.0080162399 1.1590675e-38 328 246
0.01202436 0.76200002 -0.0080162399 1.1590675e-38 329 246
0.0133604 0.76200002 -0.0080162399 1.1315886e-38 330 246
0.014735013 0.764 -0.0080372803 1.1408082e-38 331 246
0.016074561 0.764 -0.0080372803 1.1041107e-38 332 246
0.017459691 0.76599997 -0.0080583189 1.1225857e-38 333 246
0.018827293 0.76700002 -0.00806884 1.1135476e-38 334 246
0.020172099 0.76700002 -0.00806884 1.150426e-38 335 246
0.021573013 0.76899999 -0.0080898795 1.0953622e-38 336 246
-0.050147086 0.773 -0.0094872871 1.5489592e-38 283 247
-0.048791755 0.773 -0.0094872871 1.3081677e-38 284 247
-0.047313701 0.77100003 -0.0094627403 1.1053374e-38 285 247
-0.045842651 0.76899999 -0.0094381925 1.2703508e-38 286 247
-0.044494338 0.76899999 -0.0094381925 1.2058138e-38 287 247
-0.043146025 0.76899999 -0.0094381925 1.2423303e-38 288 247
-0.041689005 0.76700002 -0.0094136465 1.223927e-38 289 247
-0.040344197 0.76700002 -0.0094136465 1.1779009e-38 290 247
-0.038948543 0.76599997 -0.0094013726 1.1686814e-38 291 247
-0.037605491 0.76599997 -0.0094013726 1.1410602e-38 292 247
-0.036167759 0.764 -0.0093768267 1.1318405e-38 293 247
-0.034737039 0.76200002 -0.0093522798 1.1408816e-38 294 247
-0.033401001 0.76200002 -0.0093522798 1.1224785e-38 295 247
-0.032022879 0.76099998 -0.0093400059 1.1133305e-38 296 247
-0.030688593 0.76099998 -0.0093400059 1.1133305e-38 297 247
-0.029354304 0.76099998 -0.0093400059 1.1408447e-38 298 247
-0.028020019 0.76099998 -0.0093400059 1.1224056e-38 299 247
-0.026685731 0.76099998 -0.0093400059 1.122334e-38 300 247
-0.025284819 0.759 -0.00931546 1.0946393e-38 301 247
-0.023954039 0.759 -0.00931546 1.0487938e-38 302 247
-0.02262326 0.759 -0.00931546 1.0487938e-38 303 247
-0.02129248 0.759 -0.00931546 1.0305345e-38 304 247
-0.0199617 0.759 -0.00931546 1.0489738e-38 305 247
-0.01863092 0.759 -0.00931546 1.067305e-38 306 247
-0.017254554 0.75700003 -0.0092909131 1.067305e-38 307 247
-0.015927281 0.75700003 -0.0092909131 1.0307144e-38 308 247
-0.014600007 0.75700003 -0.0092909131 1.0214949e-38 309 247
-0.013272733 0.75700003 -0.0092909131 1.0581208e-38 310 247
-0.01194546 0.75700003 -0.0092909131 1.0397175e-38 311 247
-0.010618187 0.75700003 -0.0092909131 1.0487583e-38 312 247
-0.0092909131 0.75700003 -0.0092909131 1.0395387e-38 313 247
-0.0079636406 0.75700003 -0.0092909131 1.0212796e-38 314 247
-0.0066363667 0.75700003 -0.0092909131 1.0212796e-38 315 247
-0.0053231199 0.759 -0.00931546 1.0486866e-38 316 247
-0.0040028598 0.76099998 -0.0093400059 1.0486866e-38 317 247
-0.0026685731 0.76099998 -0.0093400059 1.0303194e-38 318 247
-0.0013342865 0.76099998 -0.0093400059 1.0487585e-38 319 247
0 0.76099998 -0.0093400059 1.0395743e-38 320 247
0.0013342865 0.76099998 -0.0093400059 1.0487938e-38 321 247
0.0026685731 0.76099998 -0.0093400059 1.0855629e-38 322 247
0.0040028598 0.76099998 -0.0093400059 1.1131858e-38 323 247
0.0053371461 0.76099998 -0.0093400059 1.122369e-38 324 247
0.0066714329 0.76099998 -0.0093400059 1.122369e-38 325 247
0.0080057196 0.76099998 -0.0093400059 1.1407005e-38 326 247
0.0093400059 0.76099998 -0.0093400059 1.1407005e-38 327 247
0.01068832 0.76200002 -0.0093522798 1.1499201e-38 328 247
0.01202436 0.76200002 -0.0093522798 1.1407005e-38 329 247
0.0133604 0.76200002 -0.0093522798 1.1040388e-38 330 247
0.014735013 0.764 -0.0093768267 1.1040388e-38 331 247
0.016074561 0.764 -0.0093768267 1.0857441e-38 332 247
0.017482487 0.76700002 -0.0094136465 1.1042191e-38 333 247
0.018827293 0.76700002 -0.0094136465 1.1044725e-38 334 247
0.020172099 0.76700002 -0.0094136465 1.1321313e-38 335 247
0.021573013 0.76899999 -0.0094381925 1.0956142e-38 336 247
-0.050147086 0.773 -0.010842613 1.5858014e-38 283 248
-0.048791755 0.773 -0.010842613 1.3451542e-38 284 248
-0.047313701 0.77100003 -0.01081456 1.0777869e-38 285 248
-0.045842651 0.76899999 -0.010786506 1.2428366e-38 286 248
-0.044494338 0.76899999 -0.010786506 1.1875193e-38 287 248
-0.043146025 0.76899999 -0.010786506 1.1963772e-38 288 248
-0.041689005 0.76700002 -0.010758453 1.1779381e-38 289 248
-0.040344197 0.76700002 -0.010758453 1.1594621e-38 290 248
-0.038948543 0.76599997 -0.010744425 1.1502065e-38 291 248
-0.037605491 0.76599997 -0.010744425 1.14088e-38 292 248
-0.036167759 0.764 -0.010716373 1.1224409e-38 293 248
-0.034828212 0.764 -0.010716373 1.1130788e-38 294 248
-0.033401001 0.76200002 -0.01068832 1.1038591e-38 295 248
-0.032022879 0.76099998 -0.010674292 1.0763446e-38 296 248
-0.030688593 0.76099998 -0.010674292 1.0855643e-38 297 248
-0.029354304 0.76099998 -0.010674292 1.0947123e-38 298 248
-0.028020019 0.76099998 -0.010674292 1.0854926e-38 299 248
-0.026685731 0.76099998 -0.010674292 1.0579062e-38 300 248
-0.025284819 0.759 -0.01064624 1.0394671e-38 301 248
-0.023954039 0.759 -0.01064624 1.0119879e-38 302 248
-0.02262326 0.759 -0.01064624 1.0212075e-38 303 248
-0.02129248 0.759 -0.01064624 1.0304623e-38 304 248
-0.0199617 0.759 -0.01064624 1.0396819e-38 305 248
-0.01863092 0.759 -0.01064624 1.0305342e-38 306 248
-0.017254554 0.75700003 -0.010618187 1.0305342e-38 307 248
-0.015927281 0.75700003 -0.010618187 1.0121677e-38 308 248
-0.014600007 0.75700003 -0.010618187 1.0121677e-38 309 248
-0.013272733 0.75700003 -0.010618187 1.0212794e-38 310 248
-0.01194546 0.75700003 -0.010618187 1.0028762e-38 311 248
-0.010618187 0.75700003 -0.010618187 1.0119523e-38 312 248
-0.0092909131 0.75700003 -0.010618187 1.0027327e-38 313 248
-0.0079636406 0.75700003 -0.010618187 1.0027683e-38 314 248
-0.0066363667 0.75700003 -0.010618187 1.0027683e-38 315 248
-0.0053231199 0.759 -0.01064624 1.0392869e-38 316 248
-0.0040028598 0.76099998 -0.010674292 1.0300673e-38 317 248
-0.0026685731 0.76099998 -0.010674292 9.8422131e-39 318 248
-0.0013342865 0.76099998 -0.010674292 1.0026965e-38 319 248
0 0.76099998 -0.010674292 1.020991e-38 320 248
0.0013342865 0.76099998 -0.010674292 1.0486138e-38 321 248
0.0026685731 0.76099998 -0.010674292 1.0761636e-38 322 248
0.0040028598 0.76099998 -0.010674292 1.1038223e-38 323 248
0.0053371461 0.76099998 -0.010674292 1.1038576e-38 324 248
0.0066538998 0.759 -0.01064624 1.1038576e-38 325 248
0.0079846792 0.759 -0.01064624 1.1038576e-38 326 248
0.0093400059 0.76099998 -0.010674292 1.1130772e-38 327 248
0.01068832 0.76200002 -0.01068832 1.1038939e-38 328 248
0.01202436 0.76200002 -0.01068832 1.1038939e-38 329 248
0.013395466 0.764 -0.010716373 1.0947828e-38 330 248
0.014735013 0.764 -0.010716373 1.113186e-38 331 248
0.016116638 0.76599997 -0.010744425 1.076453e-38 332 248
0.017482487 0.76700002 -0.010758453 1.1317703e-38 333 248
0.018876385 0.76899999 -0.010786506 1.0952529e-38 334 248
0.0202247 0.76899999 -0.010786506 1.1321313e-38 335 248
0.021629119 0.77100003 -0.01081456 1.0772829e-38 336 248
-0.050211959 0.77399999 -0.01221372 1.6133882e-38 283 249
-0.048791755 0.773 -0.012197939 1.345334e-38 284 249
-0.047313701 0.77100003 -0.01216638 1.0226493e-38 285 249
