# .PCD v.7 - Point Cloud Data file format
FIELDS x y z rgb imX imY
SIZE 4 4 4 4 4 4
TYPE F F F F F F
COUNT 1 1 1 1 1 1
WIDTH 839
HEIGHT 1
VIEWPOINT 0 0 0 1 0 0 0
POINTS 839
DATA ascii
-0.01194546 0.75700003 -0.0013272733 1.5370641e-38 311 241
-0.010618187 0.75700003 -0.0013272733 1.5371007e-38 312 241
-0.0092909131 0.75700003 -0.0013272733 1.5371007e-38 313 241
-0.0079425992 0.755 -0.0013237667 1.5462852e-38 314 241
-0.0066188332 0.755 -0.0013237667 1.5555048e-38 315 241
-0.0052950666 0.755 -0.0013237667 1.5555048e-38 316 241
-0.0039712996 0.755 -0.0013237667 1.5462852e-38 317 241
-0.0026545466 0.75700003 -0.0013272733 1.5462849e-38 318 241
-0.0013272733 0.75700003 -0.0013272733 1.5278458e-38 319 241
0 0.75700003 -0.0013272733 1.55536e-38 320 241
0.0013272733 0.75700003 -0.0013272733 1.5461403e-38 321 241
0.0026545466 0.75700003 -0.0013272733 1.5185537e-38 322 241
0.0039818203 0.75700003 -0.0013272733 1.5185537e-38 323 241
0.0053090933 0.75700003 -0.0013272733 1.481748e-38 324 241
0.0066363667 0.75700003 -0.0013272733 1.4725284e-38 325 241
0.0079636406 0.75700003 -0.0013272733 1.4174629e-38 326 241
0.0092909131 0.75700003 -0.0013272733 1.4266824e-38 327 241
0.01064624 0.759 -0.00133078 1.3993104e-38 328 241
0.01197702 0.759 -0.00133078 1.40853e-38 329 241
0.0133078 0.759 -0.00133078 1.4085656e-38 330 241
0.014677152 0.76099998 -0.0013342865 1.4085656e-38 331 241
0.016011439 0.76099998 -0.0013342865 1.3809795e-38 332 241
0.017345725 0.76099998 -0.0013342865 1.3441012e-38 333 241
0.018680012 0.76099998 -0.0013342865 1.3164435e-38 334 241
0.020014299 0.76099998 -0.0013342865 1.2703817e-38 335 241
0.02137664 0.76200002 -0.00133604 1.2885337e-38 336 241
0.02271268 0.76200002 -0.00133604 1.2700946e-38 337 241
0.024111839 0.764 -0.0013395466 1.2608395e-38 338 241
0.025518013 0.76599997 -0.0013430532 1.2608395e-38 339 241
0.026896132 0.76700002 -0.0013448066 1.2240336e-38 340 241
0.028314579 0.76899999 -0.0013483133 1.2332534e-38 341 241
0.02966289 0.76899999 -0.0013483133 1.1873373e-38 342 241
0.031091858 0.77100003 -0.00135182 1.2149958e-38 343 241
0.032569919 0.77399999 -0.0013570799 1.1692244e-38 344 241
0.033927001 0.77399999 -0.0013570799 1.1784439e-38 345 241
0.03528408 0.77399999 -0.0013570799 1.3176044e-38 346 241
-0.0406598 0.773 -0.0027106532 1.8347296e-38 290 242
-0.039304473 0.773 -0.0027106532 1.7978874e-38 291 242
-0.037949149 0.773 -0.0027106532 1.4471083e-38 292 242
-0.036593821 0.773 -0.0027106532 1.2073637e-38 293 242
-0.035238493 0.773 -0.0027106532 1.4638866e-38 294 242
-0.033795502 0.77100003 -0.0027036399 1.4546669e-38 295 242
-0.032359518 0.76899999 -0.0026966266 1.491255e-38 296 242
-0.031011207 0.76899999 -0.0026966266 1.4728157e-38 297 242
-0.029585747 0.76700002 -0.0026896133 1.4727438e-38 298 242
-0.02824094 0.76700002 -0.0026896133 1.4727438e-38 299 242
-0.026896132 0.76700002 -0.0026896133 1.4911103e-38 300 242
-0.025518013 0.76599997 -0.0026861064 1.4911103e-38 301 242
-0.024111839 0.764 -0.0026790933 1.5186258e-38 302 242
-0.022682872 0.76099998 -0.0026685731 1.5186258e-38 303 242
-0.021348584 0.76099998 -0.0026685731 1.5185186e-38 304 242
-0.020014299 0.76099998 -0.0026685731 1.5185186e-38 305 242
-0.018680012 0.76099998 -0.0026685731 1.5001874e-38 306 242
-0.017345725 0.76099998 -0.0026685731 1.5001874e-38 307 242
-0.015969358 0.759 -0.00266156 1.518482e-38 308 242
-0.014638579 0.759 -0.00266156 1.518482e-38 309 242
-0.013272733 0.75700003 -0.0026545466 1.500258e-38 310 242
-0.01194546 0.75700003 -0.0026545466 1.500258e-38 311 242
-0.010618187 0.75700003 -0.0026545466 1.500223e-38 312 242
-0.0092909131 0.75700003 -0.0026545466 1.500223e-38 313 242
-0.0079425992 0.755 -0.0026475333 1.5185556e-38 314 242
-0.0066188332 0.755 -0.0026475333 1.5277752e-38 315 242
-0.0052950666 0.755 -0.0026475333 1.5094437e-38 316 242
-0.0039712996 0.755 -0.0026475333 1.5094437e-38 317 242
-0.0026475333 0.755 -0.0026475333 1.5185906e-38 318 242
-0.0013272733 0.75700003 -0.0026545466 1.5001874e-38 319 242
0 0.75700003 -0.0026545466 1.5093347e-38 320 242
0.0013272733 0.75700003 -0.0026545466 1.5000792e-38 321 242
0.0026545466 0.75700003 -0.0026545466 1.4908597e-38 322 242
0.0039818203 0.75700003 -0.0026545466 1.4908597e-38 323 242
0.0053090933 0.75700003 -0.0026545466 1.4724568e-38 324 242
0.0066363667 0.75700003 -0.0026545466 1.4724568e-38 325 242
0.0079636406 0.75700003 -0.0026545466 1.4175347e-38 326 242
0.0092909131 0.75700003 -0.0026545466 1.4175347e-38 327 242
0.01064624 0.759 -0.00266156 1.3809792e-38 328 242
0.01197702 0.759 -0.00266156 1.3901988e-38 329 242
0.0133078 0.759 -0.00266156 1.3810511e-38 330 242
0.014677152 0.76099998 -0.0026685731 1.362648e-38 331 242
0.016011439 0.76099998 -0.0026685731 1.3441736e-38 332 242
0.017345725 0.76099998 -0.0026685731 1.334954e-38 333 242
0.018680012 0.76099998 -0.0026685731 1.3164791e-38 334 242
0.020014299 0.76099998 -0.0026685731 1.2703815e-38 335 242
0.02137664 0.76200002 -0.00267208 1.2701662e-38 336 242
0.02271268 0.76200002 -0.00267208 1.2517631e-38 337 242
0.024111839 0.764 -0.0026790933 1.2332889e-38 338 242
0.025518013 0.76599997 -0.0026861064 1.2240334e-38 339 242
0.026896132 0.76700002 -0.0026896133 1.2147791e-38 340 242
0.028314579 0.76899999 -0.0026966266 1.2147791e-38 341 242
0.02966289 0.76899999 -0.0026966266 1.168935e-38 342 242
0.031091858 0.77100003 -0.0027036399 1.2058133e-38 343 242
0.032527838 0.773 -0.0027106532 1.169261e-38 344 242
0.033927001 0.77399999 -0.0027141599 1.1784805e-38 345 242
0.03528408 0.77399999 -0.0027141599 1.3361157e-38 346 242
-0.0406598 0.773 -0.0040659797 1.8163268e-38 290 243
-0.03920278 0.77100003 -0.0040554604 1.7794125e-38 291 243
-0.037850961 0.77100003 -0.0040554604 1.4470006e-38 292 243
-0.036593821 0.773 -0.0040659797 1.2533897e-38 293 243
-0.035238493 0.773 -0.0040659797 1.4456273e-38 294 243
-0.033795502 0.77100003 -0.0040554604 1.4180045e-38 295 243
-0.032359518 0.76899999 -0.0040449398 1.4637039e-38 296 243
-0.031011207 0.76899999 -0.0040449398 1.4452646e-38 297 243
-0.029585747 0.76700002 -0.00403442 1.463524e-38 298 243
-0.02824094 0.76700002 -0.00403442 1.4543044e-38 299 243
-0.026896132 0.76700002 -0.00403442 1.4543044e-38 300 243
-0.025518013 0.76599997 -0.0040291594 1.463524e-38 301 243
-0.024111839 0.764 -0.0040186401 1.491075e-38 302 243
-0.022682872 0.76099998 -0.0040028598 1.491075e-38 303 243
-0.021348584 0.76099998 -0.0040028598 1.4910031e-38 304 243
-0.020014299 0.76099998 -0.0040028598 1.4817836e-38 305 243
-0.018680012 0.76099998 -0.0040028598 1.4817836e-38 306 243
-0.017345725 0.76099998 -0.0040028598 1.4817836e-38 307 243
-0.015969358 0.759 -0.0039923396 1.490895e-38 308 243
-0.014638579 0.759 -0.0039923396 1.490895e-38 309 243
-0.013272733 0.75700003 -0.0039818203 1.4725991e-38 310 243
-0.01194546 0.75700003 -0.0039818203 1.4725991e-38 311 243
-0.010618187 0.75700003 -0.0039818203 1.490895e-38 312 243
-0.0092909131 0.75700003 -0.0039818203 1.4724919e-38 313 243
-0.0079425992 0.755 -0.0039712996 1.4908599e-38 314 243
-0.0066188332 0.755 -0.0039712996 1.5000795e-38 315 243
-0.0052950666 0.755 -0.0039712996 1.4909678e-38 316 243
-0.0039712996 0.755 -0.0039712996 1.4909678e-38 317 243
-0.0026475333 0.755 -0.0039712996 1.481748e-38 318 243
-0.0013272733 0.75700003 -0.0039818203 1.4725284e-38 319 243
0 0.75700003 -0.0039818203 1.4908952e-38 320 243
0.0013272733 0.75700003 -0.0039818203 1.4632367e-38 321 243
0.0026545466 0.75700003 -0.0039818203 1.4632367e-38 322 243
0.0039818203 0.75700003 -0.0039818203 1.4632367e-38 323 243
0.0053090933 0.75700003 -0.0039818203 1.4357581e-38 324 243
0.0066363667 0.75700003 -0.0039818203 1.4357581e-38 325 243
0.0079636406 0.75700003 -0.0039818203 1.3807641e-38 326 243
0.00931546 0.759 -0.0039923396 1.3899837e-38 327 243
0.01064624 0.759 -0.0039923396 1.3717597e-38 328 243
0.01197702 0.759 -0.0039923396 1.3809792e-38 329 243
0.0133078 0.759 -0.0039923396 1.362648e-38 330 243
0.014677152 0.76099998 -0.0040028598 1.3534284e-38 331 243
0.016011439 0.76099998 -0.0040028598 1.3442452e-38 332 243
0.017345725 0.76099998 -0.0040028598 1.325842e-38 333 243
0.018680012 0.76099998 -0.0040028598 1.2981473e-38 334 243
0.0200406 0.76200002 -0.0040081199 1.2613051e-38 335 243
0.02137664 0.76200002 -0.0040081199 1.2610546e-38 336 243
0.022772292 0.764 -0.0040186401 1.2333959e-38 337 243
0.024174958 0.76599997 -0.0040291594 1.2148144e-38 338 243
0.025551327 0.76700002 -0.00403442 1.2055589e-38 339 243
0.026896132 0.76700002 -0.00403442 1.1871208e-38 340 243
0.028314579 0.76899999 -0.0040449398 1.2055239e-38 341 243
0.029740039 0.77100003 -0.0040554604 1.1413482e-38 342 243
0.031091858 0.77100003 -0.0040554604 1.1782625e-38 343 243
0.032527838 0.773 -0.0040659797 1.1416736e-38 344 243
0.033927001 0.77399999 -0.0040712398 1.1692963e-38 345 243
0.03528408 0.77399999 -0.0040712398 1.3638098e-38 346 243
0.036735836 0.77600002 -0.0040817601 1.5942987e-38 347 243
-0.03920278 0.77100003 -0.0054072798 1.7703013e-38 291 244
-0.037850961 0.77100003 -0.0054072798 1.4194139e-38 292 244
-0.036593821 0.773 -0.0054213065 1.2350585e-38 293 244
-0.035238493 0.773 -0.0054213065 1.4090011e-38 294 244
-0.033795502 0.77100003 -0.0054072798 1.390562e-38 295 244
-0.032443684 0.77100003 -0.0054072798 1.4454092e-38 296 244
-0.031011207 0.76899999 -0.0053932532 1.4177145e-38 297 244
-0.029585747 0.76700002 -0.0053792265 1.4451574e-38 298 244
-0.02824094 0.76700002 -0.0053792265 1.4359379e-38 299 244
-0.026896132 0.76700002 -0.0053792265 1.4542688e-38 300 244
-0.025518013 0.76599997 -0.0053722127 1.4542688e-38 301 244
-0.024111839 0.764 -0.0053581866 1.4818555e-38 302 244
-0.022682872 0.76099998 -0.0053371461 1.4818555e-38 303 244
-0.021348584 0.76099998 -0.0053371461 1.4817836e-38 304 244
-0.020014299 0.76099998 -0.0053371461 1.4725281e-38 305 244
-0.018680012 0.76099998 -0.0053371461 1.4633089e-38 306 244
-0.017345725 0.76099998 -0.0053371461 1.4725284e-38 307 244
-0.015969358 0.759 -0.0053231199 1.4724565e-38 308 244
-0.014638579 0.759 -0.0053231199 1.463237e-38 309 244
-0.0133078 0.759 -0.0053231199 1.4633086e-38 310 244
-0.01194546 0.75700003 -0.0053090933 1.454089e-38 311 244
-0.010618187 0.75700003 -0.0053090933 1.4723482e-38 312 244
-0.0092909131 0.75700003 -0.0053090933 1.4815679e-38 313 244
-0.0079425992 0.755 -0.0052950666 1.4632367e-38 314 244
-0.0066188332 0.755 -0.0052950666 1.4632367e-38 315 244
-0.0052950666 0.755 -0.0052950666 1.4633089e-38 316 244
-0.0039712996 0.755 -0.0052950666 1.4633089e-38 317 244
-0.0026475333 0.755 -0.0052950666 1.4632733e-38 318 244
-0.0013272733 0.75700003 -0.0053090933 1.4632733e-38 319 244
0 0.75700003 -0.0053090933 1.4723485e-38 320 244
0.0013272733 0.75700003 -0.0053090933 1.4723485e-38 321 244
0.0026545466 0.75700003 -0.0053090933 1.4540526e-38 322 244
0.0039818203 0.75700003 -0.0053090933 1.4447972e-38 323 244
0.0053090933 0.75700003 -0.0053090933 1.4265381e-38 324 244
0.0066363667 0.75700003 -0.0053090933 1.4265381e-38 325 244
0.0079636406 0.75700003 -0.0053090933 1.3623606e-38 326 244
0.00931546 0.759 -0.0053231199 1.3807996e-38 327 244
0.01064624 0.759 -0.0053231199 1.3625401e-38 328 244
0.01197702 0.759 -0.0053231199 1.3717597e-38 329 244
0.0133078 0.759 -0.0053231199 1.3717599e-38 330 244
0.014677152 0.76099998 -0.0053371461 1.3625045e-38 331 244
0.016011439 0.76099998 -0.0053371461 1.325842e-38 332 244
0.017345725 0.76099998 -0.0053371461 1.3166223e-38 333 244
0.018680012 0.76099998 -0.0053371461 1.2981829e-38 334 244
0.0200406 0.76200002 -0.0053441599 1.2520851e-38 335 244
0.021432746 0.764 -0.0053581866 1.2242839e-38 336 244
0.022772292 0.764 -0.0053581866 1.1966251e-38 337 244
0.024111839 0.764 -0.0053581866 1.1780081e-38 338 244
0.025551327 0.76700002 -0.0053792265 1.1687886e-38 339 244
0.026896132 0.76700002 -0.0053792265 1.168718e-38 340 244
0.028314579 0.76899999 -0.0053932532 1.168718e-38 341 244
0.029740039 0.77100003 -0.0054072798 1.1321289e-38 342 244
0.031091858 0.77100003 -0.0054072798 1.1690432e-38 343 244
0.032527838 0.773 -0.0054213065 1.1231987e-38 344 244
0.033883166 0.773 -0.0054213065 1.160077e-38 345 244
0.035238493 0.773 -0.0054213065 1.3824286e-38 346 244
0.036641158 0.77399999 -0.0054283198 1.5760394e-38 347 244
-0.03920278 0.77100003 -0.0067590997 1.8070716e-38 291 245
-0.037850961 0.77100003 -0.0067590997 1.4472171e-38 292 245
-0.036499143 0.77100003 -0.0067590997 1.216764e-38 293 245
-0.035238493 0.773 -0.0067766332 1.3999969e-38 294 245
-0.033795502 0.77100003 -0.0067590997 1.3723024e-38 295 245
-0.032443684 0.77100003 -0.0067590997 1.4362963e-38 296 245
-0.031011207 0.76899999 -0.0067415666 1.3994539e-38 297 245
-0.02966289 0.76899999 -0.0067415666 1.4360092e-38 298 245
-0.02824094 0.76700002 -0.006724033 1.4267896e-38 299 245
-0.026896132 0.76700002 -0.006724033 1.4359379e-38 300 245
-0.025518013 0.76599997 -0.0067152665 1.4359379e-38 301 245
-0.024111839 0.764 -0.006697733 1.4359379e-38 302 245
-0.022682872 0.76099998 -0.0066714329 1.4266824e-38 303 245
-0.021348584 0.76099998 -0.0066714329 1.4633089e-38 304 245
-0.020014299 0.76099998 -0.0066714329 1.4633089e-38 305 245
-0.018680012 0.76099998 -0.0066714329 1.454054e-38 306 245
-0.017345725 0.76099998 -0.0066714329 1.454054e-38 307 245
-0.015969358 0.759 -0.0066538998 1.4356151e-38 308 245
-0.014638579 0.759 -0.0066538998 1.4356151e-38 309 245
-0.0133078 0.759 -0.0066538998 1.4356505e-38 310 245
-0.01194546 0.75700003 -0.0066363667 1.4356505e-38 311 245
-0.010618187 0.75700003 -0.0066363667 1.4265381e-38 312 245
-0.0092909131 0.75700003 -0.0066363667 1.4265381e-38 313 245
-0.0079425992 0.755 -0.0066188332 1.4356858e-38 314 245
-0.0066188332 0.755 -0.0066188332 1.4264662e-38 315 245
-0.0052950666 0.755 -0.0066188332 1.4356505e-38 316 245
-0.0039712996 0.755 -0.0066188332 1.4356505e-38 317 245
-0.0026545466 0.75700003 -0.0066363667 1.4263603e-38 318 245
-0.0013272733 0.75700003 -0.0066363667 1.4263603e-38 319 245
0 0.75700003 -0.0066363667 1.4263956e-38 320 245
0.0013272733 0.75700003 -0.0066363667 1.4263956e-38 321 245
0.0026545466 0.75700003 -0.0066363667 1.4080634e-38 322 245
0.0039818203 0.75700003 -0.0066363667 1.3896603e-38 323 245
0.0053090933 0.75700003 -0.0066363667 1.3621458e-38 324 245
0.0066363667 0.75700003 -0.0066363667 1.3897684e-38 325 245
0.0079636406 0.75700003 -0.0066363667 1.3439583e-38 326 245
0.00931546 0.759 -0.0066538998 1.3531779e-38 327 245
0.01064624 0.759 -0.0066538998 1.3349184e-38 328 245
0.01197702 0.759 -0.0066538998 1.3349184e-38 329 245
0.0133078 0.759 -0.0066538998 1.3257714e-38 330 245
0.014677152 0.76099998 -0.0066714329 1.3165519e-38 331 245
0.016011439 0.76099998 -0.0066714329 1.3256637e-38 332 245
0.017345725 0.76099998 -0.0066714329 1.3164441e-38 333 245
0.018680012 0.76099998 -0.0066714329 1.2796729e-38 334 245
0.020014299 0.76099998 -0.0066714329 1.2428305e-38 335 245
0.02137664 0.76200002 -0.0066801999 1.2150644e-38 336 245
0.022772292 0.764 -0.006697733 1.1874055e-38 337 245
0.024111839 0.764 -0.006697733 1.1779365e-38 338 245
0.025518013 0.76599997 -0.0067152665 1.1594615e-38 339 245
0.026896132 0.76700002 -0.006724033 1.1135455e-38 340 245
0.028314579 0.76899999 -0.0067415666 1.1135455e-38 341 245
0.029740039 0.77100003 -0.0067590997 1.0953959e-38 342 245
0.031091858 0.77100003 -0.0067590997 1.1414937e-38 343 245
0.032527838 0.773 -0.0067766332 1.1048688e-38 344 245
0.033883166 0.773 -0.0067766332 1.1325635e-38 345 245
0.035238493 0.773 -0.0067766332 1.4100524e-38 346 245
0.036641158 0.77399999 -0.0067853997 1.6036632e-38 347 245
-0.037850961 0.77100003 -0.0081109209 1.520902e-38 292 246
-0.036499143 0.77100003 -0.0081109209 1.2719738e-38 293 246
-0.035238493 0.773 -0.0081319595 1.4092185e-38 294 246
-0.033795502 0.77100003 -0.0081109209 1.3631206e-38 295 246
-0.032443684 0.77100003 -0.0081109209 1.4088552e-38 296 246
-0.031091858 0.77100003 -0.0081109209 1.3719411e-38 297 246
-0.02966289 0.76899999 -0.0080898795 1.4176782e-38 298 246
-0.02824094 0.76700002 -0.00806884 1.4084587e-38 299 246
-0.026896132 0.76700002 -0.00806884 1.4450495e-38 300 246
-0.025518013 0.76599997 -0.0080583189 1.4450495e-38 301 246
-0.024111839 0.764 -0.0080372803 1.454089e-38 302 246
-0.022682872 0.76099998 -0.0080057196 1.4356858e-38 303 246
-0.021348584 0.76099998 -0.0080057196 1.4447609e-38 304 246
-0.020014299 0.76099998 -0.0080057196 1.4539804e-38 305 246
-0.018680012 0.76099998 -0.0080057196 1.4447609e-38 306 246
-0.017345725 0.76099998 -0.0080057196 1.4539804e-38 307 246
-0.015969358 0.759 -0.0079846792 1.4355779e-38 308 246
-0.014638579 0.759 -0.0079846792 1.4355779e-38 309 246
-0.0133078 0.759 -0.0079846792 1.417211e-38 310 246
-0.01197702 0.759 -0.0079846792 1.417211e-38 311 246
-0.01064624 0.759 -0.0079846792 1.4173182e-38 312 246
-0.0092909131 0.75700003 -0.0079636406 1.4173182e-38 313 246
-0.0079636406 0.75700003 -0.0079636406 1.4264659e-38 314 246
-0.0066188332 0.755 -0.0079425992 1.4356855e-38 315 246
-0.0052950666 0.755 -0.0079425992 1.4265025e-38 316 246
-0.0039818203 0.75700003 -0.0079636406 1.4080634e-38 317 246
-0.0026545466 0.75700003 -0.0079636406 1.4355428e-38 318 246
-0.0013272733 0.75700003 -0.0079636406 1.4262874e-38 319 246
0 0.75700003 -0.0079636406 1.4354704e-38 320 246
0.0013272733 0.75700003 -0.0079636406 1.4354704e-38 321 246
0.0026545466 0.75700003 -0.0079636406 1.3987716e-38 322 246
0.0039818203 0.75700003 -0.0079636406 1.3895521e-38 323 246
0.0053090933 0.75700003 -0.0079636406 1.352854e-38 324 246
0.0066363667 0.75700003 -0.0079636406 1.352854e-38 325 246
0.0079636406 0.75700003 -0.0079636406 1.3345594e-38 326 246
0.0092909131 0.75700003 -0.0079636406 1.3345594e-38 327 246
0.01064624 0.759 -0.0079846792 1.3438508e-38 328 246
0.01197702 0.759 -0.0079846792 1.3438508e-38 329 246
0.0133078 0.759 -0.0079846792 1.3256271e-38 330 246
0.014638579 0.759 -0.0079846792 1.3164075e-38 331 246
0.016011439 0.76099998 -0.0080057196 1.3163719e-38 332 246
0.017345725 0.76099998 -0.0080057196 1.3071524e-38 333 246
0.018680012 0.76099998 -0.0080057196 1.2796016e-38 334 246
0.020014299 0.76099998 -0.0080057196 1.2519069e-38 335 246
0.02137664 0.76200002 -0.0080162399 1.1966625e-38 336 246
0.022772292 0.764 -0.0080372803 1.1690037e-38 337 246
0.024111839 0.764 -0.0080372803 1.1504223e-38 338 246
0.025518013 0.76599997 -0.0080583189 1.1319473e-38 339 246
0.026896132 0.76700002 -0.00806884 1.104326e-38 340 246
0.028314579 0.76899999 -0.0080898795 1.1135457e-38 341 246
0.029740039 0.77100003 -0.0081109209 1.095288e-38 342 246
0.031091858 0.77100003 -0.0081109209 1.1414218e-38 343 246
0.032527838 0.773 -0.0081319595 1.1230918e-38 344 246
0.033883166 0.773 -0.0081319595 1.1876288e-38 345 246
0.035238493 0.773 -0.0081319595 1.428599e-38 346 246
0.036593821 0.773 -0.0081319595 1.6129544e-38 347 246
-0.037949149 0.773 -0.0094872871 1.5947306e-38 292 247
-0.036593821 0.773 -0.0094872871 1.3181079e-38 293 247
-0.035238493 0.773 -0.0094872871 1.381489e-38 294 247
-0.033883166 0.773 -0.0094872871 1.3353913e-38 295 247
-0.032443684 0.77100003 -0.0094627403 1.3995648e-38 296 247
-0.031011207 0.76899999 -0.0094381925 1.3535028e-38 297 247
-0.02966289 0.76899999 -0.0094381925 1.4084587e-38 298 247
-0.02824094 0.76700002 -0.0094136465 1.3992032e-38 299 247
-0.026896132 0.76700002 -0.0094136465 1.4175347e-38 300 247
-0.025518013 0.76599997 -0.0094013726 1.3899121e-38 301 247
-0.024111839 0.764 -0.0093768267 1.3989164e-38 302 247
-0.022682872 0.76099998 -0.0093400059 1.3896968e-38 303 247
-0.021348584 0.76099998 -0.0093400059 1.3896247e-38 304 247
-0.020014299 0.76099998 -0.0093400059 1.4080637e-38 305 247
-0.018680012 0.76099998 -0.0093400059 1.3896603e-38 306 247
-0.017345725 0.76099998 -0.0093400059 1.3804407e-38 307 247
-0.015969358 0.759 -0.00931546 1.3896249e-38 308 247
-0.014638579 0.759 -0.00931546 1.3804054e-38 309 247
-0.0133078 0.759 -0.00931546 1.3621105e-38 310 247
-0.01197702 0.759 -0.00931546 1.3621105e-38 311 247
-0.01064624 0.759 -0.00931546 1.3896968e-38 312 247
-0.0092909131 0.75700003 -0.0092909131 1.3989164e-38 313 247
-0.0079636406 0.75700003 -0.0092909131 1.3897684e-38 314 247
-0.0066363667 0.75700003 -0.0092909131 1.3897684e-38 315 247
-0.0053090933 0.75700003 -0.0092909131 1.3897687e-38 316 247
-0.0039818203 0.75700003 -0.0092909131 1.3713656e-38 317 247
-0.0026545466 0.75700003 -0.0092909131 1.3804773e-38 318 247
-0.00133078 0.759 -0.00931546 1.3804773e-38 319 247
0 0.759 -0.00931546 1.3528909e-38 320 247
0.0013272733 0.75700003 -0.0092909131 1.3436713e-38 321 247
0.0026545466 0.75700003 -0.0092909131 1.3344163e-38 322 247
0.0039818203 0.75700003 -0.0092909131 1.3251967e-38 323 247
0.0053090933 0.75700003 -0.0092909131 1.2976106e-38 324 247
0.0066363667 0.75700003 -0.0092909131 1.2976106e-38 325 247
0.0079636406 0.75700003 -0.0092909131 1.288499e-38 326 247
0.0092909131 0.75700003 -0.0092909131 1.2977185e-38 327 247
0.01064624 0.759 -0.00931546 1.3071171e-38 328 247
0.01197702 0.759 -0.00931546 1.3071171e-38 329 247
0.0133078 0.759 -0.00931546 1.2796379e-38 330 247
0.014638579 0.759 -0.00931546 1.2796379e-38 331 247
0.016011439 0.76099998 -0.0093400059 1.2611994e-38 332 247
0.017345725 0.76099998 -0.0093400059 1.2611994e-38 333 247
0.018680012 0.76099998 -0.0093400059 1.2152813e-38 334 247
0.020014299 0.76099998 -0.0093400059 1.1968063e-38 335 247
0.02137664 0.76200002 -0.0093522798 1.1966625e-38 336 247
0.022772292 0.764 -0.0093768267 1.1690037e-38 337 247
0.024111839 0.764 -0.0093768267 1.1596419e-38 338 247
0.025551327 0.76700002 -0.0094136465 1.1227276e-38 339 247
0.026896132 0.76700002 -0.0094136465 1.1042909e-38 340 247
0.028314579 0.76899999 -0.0094381925 1.1135104e-38 341 247
0.029740039 0.77100003 -0.0094627403 1.0678816e-38 342 247
0.03117251 0.773 -0.0094872871 1.123199e-38 343 247
0.032527838 0.773 -0.0094872871 1.0956848e-38 344 247
0.033883166 0.773 -0.0094872871 1.1878806e-38 345 247
0.035238493 0.773 -0.0094872871 1.4838805e-38 346 247
-0.037949149 0.773 -0.010842613 1.6591604e-38 292 248
-0.036593821 0.773 -0.010842613 1.4471104e-38 293 248
-0.035238493 0.773 -0.010842613 1.3537957e-38 294 248
-0.033883166 0.773 -0.010842613 1.3445403e-38 295 248
-0.032443684 0.77100003 -0.01081456 1.3995666e-38 296 248
-0.031011207 0.76899999 -0.010786506 1.3442494e-38 297 248
-0.029585747 0.76700002 -0.010758453 1.3992404e-38 298 248
-0.02824094 0.76700002 -0.010758453 1.3716177e-38 299 248
-0.026861066 0.76599997 -0.010744425 1.3899121e-38 300 248
-0.025518013 0.76599997 -0.010744425 1.3806924e-38 301 248
-0.024111839 0.764 -0.010716373 1.3896247e-38 302 248
-0.022682872 0.76099998 -0.010674292 1.3896247e-38 303 248
-0.021348584 0.76099998 -0.010674292 1.3804051e-38 304 248
-0.020014299 0.76099998 -0.010674292 1.3804051e-38 305 248
-0.018680012 0.76099998 -0.010674292 1.3894447e-38 306 248
-0.017345725 0.76099998 -0.010674292 1.3802252e-38 307 248
-0.015969358 0.759 -0.01064624 1.398557e-38 308 248
-0.014638579 0.759 -0.01064624 1.398557e-38 309 248
-0.0133078 0.759 -0.01064624 1.3711502e-38 310 248
-0.01197702 0.759 -0.01064624 1.3711502e-38 311 248
-0.01064624 0.759 -0.01064624 1.3712574e-38 312 248
-0.00931546 0.759 -0.01064624 1.380477e-38 313 248
-0.0079636406 0.75700003 -0.010618187 1.3621458e-38 314 248
-0.0066363667 0.75700003 -0.010618187 1.3713653e-38 315 248
-0.0053090933 0.75700003 -0.010618187 1.3713656e-38 316 248
-0.0039923396 0.759 -0.01064624 1.362146e-38 317 248
-0.00266156 0.759 -0.01064624 1.3528909e-38 318 248
-0.00133078 0.759 -0.01064624 1.3344516e-38 319 248
0 0.759 -0.01064624 1.3343797e-38 320 248
0.0013272733 0.75700003 -0.010618187 1.3159406e-38 321 248
0.0026545466 0.75700003 -0.010618187 1.3250527e-38 322 248
0.0039818203 0.75700003 -0.010618187 1.3066136e-38 323 248
0.0053090933 0.75700003 -0.010618187 1.2882823e-38 324 248
0.0066363667 0.75700003 -0.010618187 1.2882823e-38 325 248
0.0079636406 0.75700003 -0.010618187 1.2884261e-38 326 248
0.0092909131 0.75700003 -0.010618187 1.2976457e-38 327 248
0.01064624 0.759 -0.01064624 1.2703097e-38 328 248
0.01197702 0.759 -0.01064624 1.2795294e-38 329 248
0.0133078 0.759 -0.01064624 1.2611618e-38 330 248
0.014677152 0.76099998 -0.010674292 1.2611618e-38 331 248
0.016011439 0.76099998 -0.010674292 1.2519072e-38 332 248
0.01736852 0.76200002 -0.01068832 1.2519072e-38 333 248
0.01870456 0.76200002 -0.01068832 1.2243211e-38 334 248
0.0200406 0.76200002 -0.01068832 1.2150656e-38 335 248
0.02137664 0.76200002 -0.01068832 1.1874076e-38 336 248
0.022772292 0.764 -0.010716373 1.1597488e-38 337 248
0.024174958 0.76599997 -0.010744425 1.1229078e-38 338 248
0.025551327 0.76700002 -0.010758453 1.1044328e-38 339 248
0.026966266 0.76899999 -0.010786506 1.0767397e-38 340 248
0.028314579 0.76899999 -0.010786506 1.1043625e-38 341 248
0.029740039 0.77100003 -0.01081456 1.0953959e-38 342 248
0.03117251 0.773 -0.010842613 1.1599328e-38 343 248
0.032527838 0.773 -0.010842613 1.1233802e-38 344 248
0.033883166 0.773 -0.010842613 1.2616736e-38 345 248
0.035238493 0.773 -0.010842613 1.5023206e-38 346 248
-0.037998237 0.77399999 -0.01221372 1.6868558e-38 292 249
-0.036593821 0.773 -0.012197939 1.5116839e-38 293 249
-0.035238493 0.773 -0.012197939 1.3723434e-38 294 249
-0.033795502 0.77100003 -0.01216638 1.3170261e-38 295 249
-0.032359518 0.76899999 -0.012134819 1.3995666e-38 296 249
-0.031011207 0.76899999 -0.012134819 1.3442494e-38 297 249
-0.029585747 0.76700002 -0.01210326 1.3992051e-38 298 249
-0.02824094 0.76700002 -0.01210326 1.3715824e-38 299 249
-0.026861066 0.76599997 -0.012087479 1.389769e-38 300 249
-0.025518013 0.76599997 -0.012087479 1.37133e-38 301 249
-0.024111839 0.764 -0.01205592 1.380442e-38 302 249
-0.022682872 0.76099998 -0.012008579 1.3528193e-38 303 249
-0.021348584 0.76099998 -0.012008579 1.343564e-38 304 249
-0.020014299 0.76099998 -0.012008579 1.343564e-38 305 249
-0.018680012 0.76099998 -0.012008579 1.3526394e-38 306 249
-0.017345725 0.76099998 -0.012008579 1.3526394e-38 307 249
-0.016011439 0.76099998 -0.012008579 1.3526394e-38 308 249
-0.014677152 0.76099998 -0.012008579 1.3526394e-38 309 249
-0.013342866 0.76099998 -0.012008579 1.3343444e-38 310 249
-0.01197702 0.759 -0.01197702 1.3343444e-38 311 249
-0.01064624 0.759 -0.01197702 1.334416e-38 312 249
-0.00931546 0.759 -0.01197702 1.334416e-38 313 249
-0.0079846792 0.759 -0.01197702 1.3436713e-38 314 249
-0.0066538998 0.759 -0.01197702 1.3436713e-38 315 249
-0.0053231199 0.759 -0.01197702 1.3528912e-38 316 249
-0.0039923396 0.759 -0.01197702 1.3436716e-38 317 249
-0.00266156 0.759 -0.01197702 1.3344166e-38 318 249
-0.00133078 0.759 -0.01197702 1.306758e-38 319 249
0 0.759 -0.01197702 1.2883911e-38 320 249
0.0013272733 0.75700003 -0.01194546 1.2607325e-38 321 249
0.0026545466 0.75700003 -0.01194546 1.2790994e-38 322 249
0.0039818203 0.75700003 -0.01194546 1.2698796e-38 323 249
0.0053090933 0.75700003 -0.01194546 1.2698794e-38 324 249
0.0066363667 0.75700003 -0.01194546 1.2698794e-38 325 249
0.0079636406 0.75700003 -0.01194546 1.260875e-38 326 249
0.0092909131 0.75700003 -0.01194546 1.2700946e-38 327 249
0.01064624 0.759 -0.01197702 1.2335035e-38 328 249
0.01197702 0.759 -0.01197702 1.2519425e-38 329 249
0.013342866 0.76099998 -0.012008579 1.2335035e-38 330 249
0.014677152 0.76099998 -0.012008579 1.2519425e-38 331 249
0.016011439 0.76099998 -0.012008579 1.2242489e-38 332 249
0.01736852 0.76200002 -0.01202436 1.2150293e-38 333 249
0.01870456 0.76200002 -0.01202436 1.1874432e-38 334 249
0.0200406 0.76200002 -0.01202436 1.1782235e-38 335 249
0.021432746 0.764 -0.01205592 1.1689686e-38 336 249
0.022772292 0.764 -0.01205592 1.1504936e-38 337 249
0.024206521 0.76700002 -0.01210326 1.1228006e-38 338 249
0.025617953 0.76899999 -0.012134819 1.1043614e-38 339 249
0.026966266 0.76899999 -0.012134819 1.0859596e-38 340 249
0.028314579 0.76899999 -0.012134819 1.1043628e-38 341 249
0.029740039 0.77100003 -0.01216638 1.0771016e-38 342 249
0.031212838 0.77399999 -0.01221372 1.132383e-38 343 249
0.032569919 0.77399999 -0.01221372 1.1605474e-38 344 249
0.033927001 0.77399999 -0.01221372 1.2896213e-38 345 249
0.03528408 0.77399999 -0.01221372 1.4654792e-38 346 249
-0.036593821 0.773 -0.013553266 1.5027172e-38 293 250
-0.035238493 0.773 -0.013553266 1.3725954e-38 294 250
-0.033795502 0.77100003 -0.013518199 1.2896553e-38 295 250
-0.032359518 0.76899999 -0.013483133 1.3997102e-38 296 250
-0.031011207 0.76899999 -0.013483133 1.3351733e-38 297 250
-0.029585747 0.76700002 -0.013448066 1.3808738e-38 298 250
-0.02824094 0.76700002 -0.013448066 1.3439957e-38 299 250
-0.026861066 0.76599997 -0.013430533 1.3621829e-38 300 250
-0.025518013 0.76599997 -0.013430533 1.3529275e-38 301 250
-0.024111839 0.764 -0.013395466 1.3711871e-38 302 250
-0.02271268 0.76200002 -0.0133604 1.3435643e-38 303 250
-0.02137664 0.76200002 -0.0133604 1.3251965e-38 304 250
-0.0200406 0.76200002 -0.0133604 1.3067934e-38 305 250
-0.018680012 0.76099998 -0.013342866 1.3250883e-38 306 250
-0.017345725 0.76099998 -0.013342866 1.3250883e-38 307 250
-0.016011439 0.76099998 -0.013342866 1.325088e-38 308 250
-0.014677152 0.76099998 -0.013342866 1.325088e-38 309 250
-0.013342866 0.76099998 -0.013342866 1.3067936e-38 310 250
-0.01197702 0.759 -0.0133078 1.2975741e-38 311 250
-0.01064624 0.759 -0.0133078 1.3067583e-38 312 250
-0.00931546 0.759 -0.0133078 1.3067583e-38 313 250
-0.0079846792 0.759 -0.0133078 1.3251612e-38 314 250
-0.0066538998 0.759 -0.0133078 1.3344166e-38 315 250
-0.0053231199 0.759 -0.0133078 1.3161221e-38 316 250
-0.0039923396 0.759 -0.0133078 1.2884634e-38 317 250
-0.0026685731 0.76099998 -0.013342866 1.2975753e-38 318 250
-0.00133078 0.759 -0.0133078 1.2699527e-38 319 250
0 0.759 -0.0133078 1.2607328e-38 320 250
0.00133078 0.759 -0.0133078 1.2515133e-38 321 250
0.00266156 0.759 -0.0133078 1.2424005e-38 322 250
0.0039923396 0.759 -0.0133078 1.2239974e-38 323 250
0.0053090933 0.75700003 -0.013272733 1.2423283e-38 324 250
0.0066363667 0.75700003 -0.013272733 1.2515479e-38 325 250
0.0079636406 0.75700003 -0.013272733 1.233324e-38 326 250
0.00931546 0.759 -0.0133078 1.2517631e-38 327 250
0.01064624 0.759 -0.0133078 1.2518706e-38 328 250
0.012008579 0.76099998 -0.013342866 1.2518706e-38 329 250
0.013342866 0.76099998 -0.013342866 1.2243561e-38 330 250
0.014677152 0.76099998 -0.013342866 1.2151365e-38 331 250
0.01603248 0.76200002 -0.0133604 1.1874783e-38 332 250
0.01736852 0.76200002 -0.0133604 1.1782586e-38 333 250
0.018753653 0.764 -0.013395466 1.1689681e-38 334 250
0.020093199 0.764 -0.013395466 1.1597485e-38 335 250
0.021432746 0.764 -0.013395466 1.1504939e-38 336 250
0.022772292 0.764 -0.013395466 1.1320908e-38 337 250
0.024206521 0.76700002 -0.013448066 1.0953217e-38 338 250
0.025617953 0.76899999 -0.013483133 1.0860663e-38 339 250
0.026966266 0.76899999 -0.013483133 1.0677003e-38 340 250
0.028314579 0.76899999 -0.013483133 1.095323e-38 341 250
0.029740039 0.77100003 -0.013518199 1.0864284e-38 342 250
0.031212838 0.77399999 -0.013570799 1.1417099e-38 343 250
0.032569919 0.77399999 -0.013570799 1.2066449e-38 344 250
0.033927001 0.77399999 -0.013570799 1.3541938e-38 345 250
-0.033707831 0.76899999 -0.014831445 1.3175301e-38 295 251
-0.032359518 0.76899999 -0.014831445 1.418078e-38 296 251
-0.030930554 0.76700002 -0.014792874 1.3719802e-38 297 251
-0.029585747 0.76700002 -0.014792874 1.3625795e-38 298 251
-0.02824094 0.76700002 -0.014792874 1.3257014e-38 299 251
-0.026861066 0.76599997 -0.014773586 1.3438164e-38 300 251
-0.025518013 0.76599997 -0.014773586 1.3345609e-38 301 251
-0.024111839 0.764 -0.014735013 1.3253048e-38 302 251
-0.022772292 0.764 -0.014735013 1.3160851e-38 303 251
-0.02137664 0.76200002 -0.01469644 1.288534e-38 304 251
-0.0200406 0.76200002 -0.01469644 1.2700949e-38 305 251
-0.018680012 0.76099998 -0.014677152 1.3066852e-38 306 251
-0.017345725 0.76099998 -0.014677152 1.2882821e-38 307 251
-0.016011439 0.76099998 -0.014677152 1.2883174e-38 308 251
-0.014638579 0.759 -0.014638579 1.3067205e-38 309 251
-0.0133078 0.759 -0.014638579 1.2791347e-38 310 251
-0.01197702 0.759 -0.014638579 1.2791347e-38 311 251
-0.01064624 0.759 -0.014638579 1.2698796e-38 312 251
-0.0093400059 0.76099998 -0.014677152 1.2698796e-38 313 251
-0.0080057196 0.76099998 -0.014677152 1.2790991e-38 314 251
-0.0066714329 0.76099998 -0.014677152 1.2975741e-38 315 251
-0.0053371461 0.76099998 -0.014677152 1.2975388e-38 316 251
-0.0040028598 0.76099998 -0.014677152 1.2883192e-38 317 251
-0.0026685731 0.76099998 -0.014677152 1.2790643e-38 318 251
-0.0013342865 0.76099998 -0.014677152 1.2790643e-38 319 251
0 0.759 -0.014638579 1.2515126e-38 320 251
0.00133078 0.759 -0.014638579 1.242293e-38 321 251
0.00266156 0.759 -0.014638579 1.2239968e-38 322 251
0.0039923396 0.759 -0.014638579 1.2147772e-38 323 251
0.0053231199 0.759 -0.014638579 1.2148128e-38 324 251
0.0066538998 0.759 -0.014638579 1.2240324e-38 325 251
0.0079846792 0.759 -0.014638579 1.224104e-38 326 251
0.00931546 0.759 -0.014638579 1.2333237e-38 327 251
0.01064624 0.759 -0.014638579 1.2333956e-38 328 251
0.012008579 0.76099998 -0.014677152 1.2333956e-38 329 251
0.013342866 0.76099998 -0.014677152 1.2058092e-38 330 251
0.014677152 0.76099998 -0.014677152 1.1965895e-38 331 251
0.01603248 0.76200002 -0.01469644 1.169039e-38 332 251
0.01736852 0.76200002 -0.01469644 1.169039e-38 333 251
0.018753653 0.764 -0.014735013 1.141417e-38 334 251
0.020093199 0.764 -0.014735013 1.1321975e-38 335 251
0.021432746 0.764 -0.014735013 1.1320908e-38 336 251
0.022772292 0.764 -0.014735013 1.1504939e-38 337 251
0.024206521 0.76700002 -0.014792874 1.0953933e-38 338 251
0.025617953 0.76899999 -0.014831445 1.0861738e-38 339 251
0.026966266 0.76899999 -0.014831445 1.0861031e-38 340 251
0.028388219 0.77100003 -0.01487002 1.1045781e-38 341 251
0.029817186 0.773 -0.014908593 1.0957196e-38 342 251
0.03117251 0.773 -0.014908593 1.1510369e-38 343 251
0.032527838 0.773 -0.014908593 1.2436314e-38 344 251
0.033927001 0.77399999 -0.014927879 1.3634498e-38 345 251
-0.033620168 0.76700002 -0.01613768 1.3178192e-38 295 252
-0.03227536 0.76700002 -0.01613768 1.3814168e-38 296 252
-0.030930554 0.76700002 -0.01613768 1.3168799e-38 297 252
-0.029585747 0.76700002 -0.01613768 1.3900949e-38 298 252
-0.02824094 0.76700002 -0.01613768 1.3439973e-38 299 252
-0.026861066 0.76599997 -0.016116638 1.3255211e-38 300 252
-0.025518013 0.76599997 -0.016116638 1.2978625e-38 301 252
-0.024174958 0.76599997 -0.016116638 1.2977183e-38 302 252
-0.022772292 0.764 -0.016074561 1.2884987e-38 303 252
-0.021432746 0.764 -0.016074561 1.2516928e-38 304 252
-0.0200406 0.76200002 -0.01603248 1.2332536e-38 305 252
-0.01870456 0.76200002 -0.01603248 1.2515481e-38 306 252
-0.017345725 0.76099998 -0.016011439 1.2607678e-38 307 252
-0.016011439 0.76099998 -0.016011439 1.2515479e-38 308 252
-0.014638579 0.759 -0.015969358 1.2515479e-38 309 252
-0.0133078 0.759 -0.015969358 1.2422933e-38 310 252
-0.012008579 0.76099998 -0.016011439 1.2422933e-38 311 252
-0.010674292 0.76099998 -0.016011439 1.2422933e-38 312 252
-0.0093400059 0.76099998 -0.016011439 1.2330737e-38 313 252
-0.0080057196 0.76099998 -0.016011439 1.2606601e-38 314 252
-0.0066714329 0.76099998 -0.016011439 1.2606601e-38 315 252
-0.0053371461 0.76099998 -0.016011439 1.2514779e-38 316 252
-0.0040028598 0.76099998 -0.016011439 1.2422582e-38 317 252
-0.0026685731 0.76099998 -0.016011439 1.2238917e-38 318 252
-0.0013342865 0.76099998 -0.016011439 1.2238917e-38 319 252
0 0.76099998 -0.016011439 1.2147069e-38 320 252
0.0013342865 0.76099998 -0.016011439 1.2147069e-38 321 252
0.0026685731 0.76099998 -0.016011439 1.1780435e-38 322 252
0.0040028598 0.76099998 -0.016011439 1.1780435e-38 323 252
0.0053371461 0.76099998 -0.016011439 1.1780432e-38 324 252
0.0066538998 0.759 -0.015969358 1.1780432e-38 325 252
0.0079846792 0.759 -0.015969358 1.187263e-38 326 252
0.0093400059 0.76099998 -0.016011439 1.1964826e-38 327 252
0.010674292 0.76099998 -0.016011439 1.1873352e-38 328 252
0.012008579 0.76099998 -0.016011439 1.1873352e-38 329 252
0.0133604 0.76200002 -0.01603248 1.1689681e-38 330 252
0.01469644 0.76200002 -0.01603248 1.1597485e-38 331 252
0.01603248 0.76200002 -0.01603248 1.1321975e-38 332 252
0.017414106 0.764 -0.016074561 1.1229779e-38 333 252
0.018753653 0.764 -0.016074561 1.0953921e-38 334 252
0.020093199 0.764 -0.016074561 1.1046116e-38 335 252
0.021432746 0.764 -0.016074561 1.1045766e-38 336 252
0.022831906 0.76599997 -0.016116638 1.1045766e-38 337 252
0.024269639 0.76899999 -0.016179759 1.1136527e-38 338 252
0.025617953 0.76899999 -0.016179759 1.1136527e-38 339 252
0.027036399 0.77100003 -0.016221842 1.0770271e-38 340 252
0.028461859 0.773 -0.016263919 1.1138693e-38 341 252
0.029817186 0.773 -0.016263919 1.0866799e-38 342 252
0.03117251 0.773 -0.016263919 1.1604364e-38 343 252
0.032527838 0.773 -0.016263919 1.2161169e-38 344 252
-0.033620168 0.76700002 -0.017482487 1.3731731e-38 295 253
-0.03227536 0.76700002 -0.017482487 1.3907816e-38 296 253
-0.030930554 0.76700002 -0.017482487 1.3077695e-38 297 253
-0.029585747 0.76700002 -0.017482487 1.3534339e-38 298 253
-0.02824094 0.76700002 -0.017482487 1.3257751e-38 299 253
-0.026861066 0.76599997 -0.017459691 1.3070467e-38 300 253
-0.025518013 0.76599997 -0.017459691 1.2978271e-38 301 253
-0.024174958 0.76599997 -0.017459691 1.2792791e-38 302 253
-0.022831906 0.76599997 -0.017459691 1.26084e-38 303 253
-0.021432746 0.764 -0.017414106 1.2698445e-38 304 253
-0.020093199 0.764 -0.017414106 1.2606248e-38 305 253
-0.01870456 0.76200002 -0.01736852 1.2606245e-38 306 253
-0.017345725 0.76099998 -0.017345725 1.2422214e-38 307 253
-0.016011439 0.76099998 -0.017345725 1.2513328e-38 308 253
-0.014677152 0.76099998 -0.017345725 1.2421132e-38 309 253
-0.013342866 0.76099998 -0.017345725 1.251333e-38 310 253
-0.012008579 0.76099998 -0.017345725 1.251333e-38 311 253
-0.010674292 0.76099998 -0.017345725 1.2330015e-38 312 253
-0.0093400059 0.76099998 -0.017345725 1.2330015e-38 313 253
-0.0080057196 0.76099998 -0.017345725 1.2330371e-38 314 253
-0.0066714329 0.76099998 -0.017345725 1.2330371e-38 315 253
-0.0053371461 0.76099998 -0.017345725 1.2054507e-38 316 253
-0.0040028598 0.76099998 -0.017345725 1.1962312e-38 317 253
-0.0026685731 0.76099998 -0.017345725 1.2237823e-38 318 253
-0.0013342865 0.76099998 -0.017345725 1.2237823e-38 319 253
0 0.76099998 -0.017345725 1.2054507e-38 320 253
0.0013342865 0.76099998 -0.017345725 1.2054507e-38 321 253
0.0026685731 0.76099998 -0.017345725 1.1963028e-38 322 253
0.0040028598 0.76099998 -0.017345725 1.1870832e-38 323 253
0.0053371461 0.76099998 -0.017345725 1.1870832e-38 324 253
0.0066714329 0.76099998 -0.017345725 1.1778635e-38 325 253
0.0080057196 0.76099998 -0.017345725 1.168752e-38 326 253
0.0093400059 0.76099998 -0.017345725 1.1779716e-38 327 253
0.01068832 0.76200002 -0.01736852 1.1687883e-38 328 253
0.01202436 0.76200002 -0.01736852 1.1687883e-38 329 253
0.0133604 0.76200002 -0.01736852 1.1503852e-38 330 253
0.01469644 0.76200002 -0.01736852 1.1687883e-38 331 253
0.016074561 0.764 -0.017414106 1.1412375e-38 332 253
0.017414106 0.764 -0.017414106 1.1320178e-38 333 253
0.018753653 0.764 -0.017414106 1.1136158e-38 334 253
0.020145798 0.76599997 -0.017459691 1.1228712e-38 335 253
0.021488851 0.76599997 -0.017459691 1.1136527e-38 336 253
0.022861714 0.76700002 -0.017482487 1.1136527e-38 337 253
0.024269639 0.76899999 -0.017528072 1.095358e-38 338 253
0.025617953 0.76899999 -0.017528072 1.1045776e-38 339 253
0.027106533 0.773 -0.017619247 1.0772069e-38 340 253
0.028461859 0.773 -0.017619247 1.1140492e-38 341 253
0.029817186 0.773 -0.017619247 1.1144105e-38 342 253
0.031212838 0.77399999 -0.01764204 1.1697279e-38 343 253
-0.033576332 0.76599997 -0.018802745 1.3549871e-38 295 254
-0.032233275 0.76599997 -0.018802745 1.3910702e-38 296 254
-0.030930554 0.76700002 -0.018827293 1.3080582e-38 297 254
-0.029585747 0.76700002 -0.018827293 1.3719086e-38 298 254
-0.02824094 0.76700002 -0.018827293 1.3257748e-38 299 254
-0.026896132 0.76700002 -0.018827293 1.343888e-38 300 254
-0.025518013 0.76599997 -0.018802745 1.2977903e-38 301 254
-0.024174958 0.76599997 -0.018802745 1.2883908e-38 302 254
-0.022831906 0.76599997 -0.018802745 1.2607681e-38 303 254
-0.021432746 0.764 -0.018753653 1.2605892e-38 304 254
-0.020093199 0.764 -0.018753653 1.2421861e-38 305 254
-0.018802745 0.76599997 -0.018802745 1.205452e-38 306 254
-0.01736852 0.76200002 -0.01870456 1.205452e-38 307 254
-0.01603248 0.76200002 -0.01870456 1.2053801e-38 308 254
-0.01469644 0.76200002 -0.01870456 1.1961606e-38 309 254
-0.0133604 0.76200002 -0.01870456 1.1686817e-38 310 254
-0.01202436 0.76200002 -0.01870456 1.1779012e-38 311 254
-0.01068832 0.76200002 -0.01870456 1.1870129e-38 312 254
-0.0093400059 0.76099998 -0.018680012 1.1870129e-38 313 254
-0.0080057196 0.76099998 -0.018680012 1.1779365e-38 314 254
-0.0066714329 0.76099998 -0.018680012 1.1871561e-38 315 254
-0.0053371461 0.76099998 -0.018680012 1.1779363e-38 316 254
-0.0040028598 0.76099998 -0.018680012 1.1687167e-38 317 254
-0.0026685731 0.76099998 -0.018680012 1.1686814e-38 318 254
-0.0013342865 0.76099998 -0.018680012 1.1686814e-38 319 254
0 0.76099998 -0.018680012 1.1412025e-38 320 254
0.0013342865 0.76099998 -0.018680012 1.1412025e-38 321 254
0.0026685731 0.76099998 -0.018680012 1.1412025e-38 322 254
0.0040028598 0.76099998 -0.018680012 1.1319829e-38 323 254
0.0053371461 0.76099998 -0.018680012 1.1411306e-38 324 254
0.0066714329 0.76099998 -0.018680012 1.1411306e-38 325 254
0.0080057196 0.76099998 -0.018680012 1.1412025e-38 326 254
0.0093400059 0.76099998 -0.018680012 1.1319829e-38 327 254
0.01068832 0.76200002 -0.01870456 1.1319473e-38 328 254
0.01202436 0.76200002 -0.01870456 1.1319473e-38 329 254
0.0133604 0.76200002 -0.01870456 1.1136877e-38 330 254
0.014735013 0.764 -0.018753653 1.1044681e-38 331 254
0.016074561 0.764 -0.018753653 1.1227273e-38 332 254
0.017414106 0.764 -0.018753653 1.1319829e-38 333 254
0.018802745 0.76599997 -0.018802745 1.0861019e-38 334 254
0.020145798 0.76599997 -0.018802745 1.0861019e-38 335 254
0.021516906 0.76700002 -0.018827293 1.0861385e-38 336 254
0.022861714 0.76700002 -0.018827293 1.095358e-38 337 254
0.024269639 0.76899999 -0.018876385 1.0862466e-38 338 254
0.025617953 0.76899999 -0.018876385 1.1138693e-38 339 254
0.027106533 0.773 -0.018974574 1.0682038e-38 340 254
0.028461859 0.773 -0.018974574 1.1235212e-38 341 254
0.029817186 0.773 -0.018974574 1.0685303e-38 342 254
-0.032233275 0.76599997 -0.020145798 1.400471e-38 296 255
-0.030930554 0.76700002 -0.020172099 1.2898721e-38 297 255
-0.029585747 0.76700002 -0.020172099 1.3627985e-38 298 255
-0.02824094 0.76700002 -0.020172099 1.3351039e-38 299 255
-0.026896132 0.76700002 -0.020172099 1.3346708e-38 300 255
-0.025551327 0.76700002 -0.020172099 1.2977565e-38 301 255
-0.024174958 0.76599997 -0.020145798 1.2700245e-38 302 255
-0.022831906 0.76599997 -0.020145798 1.24233e-38 303 255
-0.021488851 0.76599997 -0.020145798 1.2330381e-38 304 255
-0.020145798 0.76599997 -0.020145798 1.2054154e-38 305 255
-0.018802745 0.76599997 -0.020145798 1.1963031e-38 306 255
-0.01736852 0.76200002 -0.0200406 1.1870476e-38 307 255
-0.01603248 0.76200002 -0.0200406 1.1961956e-38 308 255
-0.01469644 0.76200002 -0.0200406 1.186976e-38 309 255
-0.0133604 0.76200002 -0.0200406 1.1593898e-38 310 255
-0.01202436 0.76200002 -0.0200406 1.177793e-38 311 255
-0.01068832 0.76200002 -0.0200406 1.1593901e-38 312 255
-0.0093522798 0.76200002 -0.0200406 1.1593901e-38 313 255
-0.0080057196 0.76099998 -0.020014299 1.1503502e-38 314 255
-0.0066714329 0.76099998 -0.020014299 1.1503502e-38 315 255
-0.0053371461 0.76099998 -0.020014299 1.168717e-38 316 255
-0.0040028598 0.76099998 -0.020014299 1.1502418e-38 317 255
-0.0026685731 0.76099998 -0.020014299 1.1593895e-38 318 255
-0.0013342865 0.76099998 -0.020014299 1.1593895e-38 319 255
0 0.76099998 -0.020014299 1.1411306e-38 320 255
0.0013342865 0.76099998 -0.020014299 1.1411306e-38 321 255
0.0026685731 0.76099998 -0.020014299 1.1319829e-38 322 255
0.0040028598 0.76099998 -0.020014299 1.1319829e-38 323 255
0.0053371461 0.76099998 -0.020014299 1.1319109e-38 324 255
0.0066801999 0.76200002 -0.0200406 1.1319109e-38 325 255
0.0080162399 0.76200002 -0.0200406 1.1227273e-38 326 255
0.0093522798 0.76200002 -0.0200406 1.1227273e-38 327 255
0.01068832 0.76200002 -0.0200406 1.1043961e-38 328 255
0.01205592 0.764 -0.020093199 1.1043961e-38 329 255
0.013395466 0.764 -0.020093199 1.0860649e-38 330 255
0.014735013 0.764 -0.020093199 1.1044681e-38 331 255
0.016074561 0.764 -0.020093199 1.1043611e-38 332 255
0.017459691 0.76599997 -0.020145798 1.1135808e-38 333 255
0.018802745 0.76599997 -0.020145798 1.0860668e-38 334 255
0.020172099 0.76700002 -0.020172099 1.0952864e-38 335 255
0.021516906 0.76700002 -0.020172099 1.0861031e-38 336 255
0.022861714 0.76700002 -0.020172099 1.1045781e-38 337 255
0.024269639 0.76899999 -0.0202247 1.0771715e-38 338 255
0.025551327 0.76700002 -0.020172099 1.1047944e-38 339 255
0.026896132 0.76700002 -0.020172099 1.0683839e-38 340 255
-0.029740039 0.77100003 -0.021629119 1.3630506e-38 298 256
-0.028388219 0.77100003 -0.021629119 1.2892582e-38 299 256
-0.026896132 0.76700002 -0.021516906 1.3256307e-38 300 256
-0.025551327 0.76700002 -0.021516906 1.2795328e-38 301 256
-0.024206521 0.76700002 -0.021516906 1.2609848e-38 302 256
-0.022831906 0.76599997 -0.021488851 1.2332902e-38 303 256
-0.021488851 0.76599997 -0.021488851 1.2147788e-38 304 256
-0.020145798 0.76599997 -0.021488851 1.1871561e-38 305 256
-0.018802745 0.76599997 -0.021488851 1.1780081e-38 306 256
-0.017459691 0.76599997 -0.021488851 1.1503855e-38 307 256
-0.01603248 0.76200002 -0.02137664 1.1594615e-38 308 256
-0.014677152 0.76099998 -0.021348584 1.1502418e-38 309 256
-0.013342866 0.76099998 -0.021348584 1.1502065e-38 310 256
-0.01202436 0.76200002 -0.02137664 1.1502065e-38 311 256
-0.01068832 0.76200002 -0.02137664 1.140987e-38 312 256
-0.0093522798 0.76200002 -0.02137664 1.1502065e-38 313 256
-0.0080057196 0.76099998 -0.021348584 1.1319109e-38 314 256
-0.0066714329 0.76099998 -0.021348584 1.1411306e-38 315 256
-0.0053371461 0.76099998 -0.021348584 1.1502418e-38 316 256
-0.0040028598 0.76099998 -0.021348584 1.1410223e-38 317 256
-0.00267208 0.76200002 -0.02137664 1.1501702e-38 318 256
-0.0013342865 0.76099998 -0.021348584 1.1501702e-38 319 256
0 0.76099998 -0.021348584 1.1226557e-38 320 256
0.0013342865 0.76099998 -0.021348584 1.1226557e-38 321 256
0.0026685731 0.76099998 -0.021348584 1.1043964e-38 322 256
0.0040028598 0.76099998 -0.021348584 1.0951768e-38 323 256
0.0053441599 0.76200002 -0.02137664 1.1226554e-38 324 256
0.0066801999 0.76200002 -0.02137664 1.1226554e-38 325 256
0.0080162399 0.76200002 -0.02137664 1.1043245e-38 326 256
0.0093522798 0.76200002 -0.02137664 1.1043245e-38 327 256
0.01068832 0.76200002 -0.02137664 1.0768097e-38 328 256
0.01205592 0.764 -0.021432746 1.0768097e-38 329 256
0.013395466 0.764 -0.021432746 1.0860296e-38 330 256
0.014735013 0.764 -0.021432746 1.1044328e-38 331 256
0.016116638 0.76599997 -0.021488851 1.0768466e-38 332 256
0.017459691 0.76599997 -0.021488851 1.0860663e-38 333 256
0.018802745 0.76599997 -0.021488851 1.0861387e-38 334 256
0.020172099 0.76700002 -0.021516906 1.0953583e-38 335 256
0.021516906 0.76700002 -0.021516906 1.086211e-38 336 256
0.022861714 0.76700002 -0.021516906 1.0954665e-38 337 256
0.024269639 0.76899999 -0.021573013 1.0772436e-38 338 256
0.025551327 0.76700002 -0.021516906 1.1049023e-38 339 256
0.026896132 0.76700002 -0.021516906 1.0867515e-38 340 256
-0.028461859 0.773 -0.023040552 1.2435212e-38 299 257
-0.027036399 0.77100003 -0.02298094 1.3166631e-38 300 257
-0.025617953 0.76899999 -0.022921326 1.2613459e-38 301 257
-0.024206521 0.76700002 -0.022861714 1.2702758e-38 302 257
-0.022861714 0.76700002 -0.022861714 1.2334334e-38 303 257
-0.021516906 0.76700002 -0.022861714 1.2057747e-38 304 257
-0.020172099 0.76700002 -0.022861714 1.1872996e-38 305 257
-0.018827293 0.76700002 -0.022861714 1.1596766e-38 306 257
-0.017482487 0.76700002 -0.022861714 1.1504571e-38 307 257
-0.01613768 0.76700002 -0.022861714 1.1503852e-38 308 257
-0.014677152 0.76099998 -0.022682872 1.1411655e-38 309 257
-0.013342866 0.76099998 -0.022682872 1.1319103e-38 310 257
-0.01205592 0.764 -0.022772292 1.1319103e-38 311 257
-0.010716373 0.764 -0.022772292 1.1319106e-38 312 257
