# .PCD v.7 - Point Cloud Data file format
FIELDS x y z rgb imX imY
SIZE 4 4 4 4 4 4
TYPE F F F F F F
COUNT 1 1 1 1 1 1
WIDTH 852
HEIGHT 1
VIEWPOINT 0 0 0 1 0 0 0
POINTS 852
DATA ascii
-0.042069476 0.77399999 0.018999118 1.1524431e-38 289 226
-0.040712398 0.77399999 0.018999118 1.5098774e-38 290 226
-0.039355319 0.77399999 0.018999118 1.5190969e-38 291 226
-0.037998237 0.77399999 0.018999118 1.5280259e-38 292 226
-0.036641158 0.77399999 0.018999118 1.4727085e-38 293 226
-0.035238493 0.773 0.018974574 1.3805514e-38 294 226
-0.033883166 0.773 0.018974574 1.3990265e-38 295 226
-0.032527838 0.773 0.018974574 1.4636717e-38 296 226
-0.031091858 0.77100003 0.018925481 1.4821108e-38 297 226
-0.029740039 0.77100003 0.018925481 1.5647982e-38 298 226
-0.028388219 0.77100003 0.018925481 1.5647982e-38 299 226
-0.026966266 0.76899999 0.018876385 1.5557228e-38 300 226
-0.025617953 0.76899999 0.018876385 1.5741978e-38 301 226
-0.024269639 0.76899999 0.018876385 1.6108964e-38 302 226
-0.022831906 0.76599997 0.018802745 1.6292995e-38 303 226
-0.021488851 0.76599997 0.018802745 1.6201879e-38 304 226
-0.020145798 0.76599997 0.018802745 1.6201879e-38 305 226
-0.018753653 0.764 0.018753653 1.5189174e-38 306 226
-0.017414106 0.764 0.018753653 1.4636001e-38 307 226
-0.016074561 0.764 0.018753653 1.3078051e-38 308 226
-0.014735013 0.764 0.018753653 1.418404e-38 309 226
-0.013395466 0.764 0.018753653 1.4190882e-38 310 226
-0.01205592 0.764 0.018753653 1.317673e-38 311 226
-0.010716373 0.764 0.018753653 1.0693188e-38 312 226
-0.0094136465 0.76700002 0.018827293 1.1061969e-38 313 226
-0.00806884 0.76700002 0.018827293 1.4365878e-38 314 226
-0.006724033 0.76700002 0.018827293 1.5471867e-38 315 226
-0.0053722127 0.76599997 0.018802745 1.7031993e-38 316 226
-0.0040291594 0.76599997 0.018802745 1.7492971e-38 317 226
-0.0026861064 0.76599997 0.018802745 1.740222e-38 318 226
-0.0013448066 0.76700002 0.018827293 1.740222e-38 319 226
0 0.76599997 0.018802745 1.7120576e-38 320 226
0.0013430532 0.76599997 0.018802745 1.6475206e-38 321 226
0.0026861064 0.76599997 0.018802745 1.6383711e-38 322 226
0.0040291594 0.76599997 0.018802745 1.6291516e-38 323 226
0.0053722127 0.76599997 0.018802745 1.610677e-38 324 226
0.0067152665 0.76599997 0.018802745 1.5738347e-38 325 226
0.0080583189 0.76599997 0.018802745 1.5553597e-38 326 226
0.0094013726 0.76599997 0.018802745 1.5369205e-38 327 226
0.010758453 0.76700002 0.018827293 1.5093347e-38 328 226
0.01210326 0.76700002 0.018827293 1.4908597e-38 329 226
0.013448066 0.76700002 0.018827293 1.4449441e-38 330 226
0.014831445 0.76899999 0.018876385 1.4541637e-38 331 226
0.016221842 0.77100003 0.018925481 1.3529656e-38 332 226
0.01757366 0.77100003 0.018925481 1.3529656e-38 333 226
-0.042015124 0.773 0.017619247 1.2346619e-38 289 227
-0.0406598 0.773 0.017619247 1.518845e-38 290 227
-0.039304473 0.773 0.017619247 1.4911862e-38 291 227
-0.037949149 0.773 0.017619247 1.4171054e-38 292 227
-0.036593821 0.773 0.017619247 1.3986663e-38 293 227
-0.035238493 0.773 0.017619247 1.417106e-38 294 227
-0.033795502 0.77100003 0.01757366 1.4816429e-38 295 227
-0.032443684 0.77100003 0.01757366 1.4913291e-38 296 227
-0.031011207 0.76899999 0.017528072 1.5282073e-38 297 227
-0.02966289 0.76899999 0.017528072 1.5647979e-38 298 227
-0.028314579 0.76899999 0.017528072 1.5647979e-38 299 227
-0.026966266 0.76899999 0.017528072 1.5832376e-38 300 227
-0.025551327 0.76700002 0.017482487 1.6016767e-38 301 227
-0.024206521 0.76700002 0.017482487 1.629263e-38 302 227
-0.022831906 0.76599997 0.017459691 1.6384825e-38 303 227
-0.021488851 0.76599997 0.017459691 1.6017838e-38 304 227
-0.020145798 0.76599997 0.017459691 1.574161e-38 305 227
-0.018753653 0.764 0.017414106 1.4729263e-38 306 227
-0.017414106 0.764 0.017414106 1.436084e-38 307 227
-0.01603248 0.76200002 0.01736852 1.26167e-38 308 227
-0.01469644 0.76200002 0.01736852 1.2155723e-38 309 227
-0.0133604 0.76200002 0.01736852 1.050341e-38 310 227
-0.01202436 0.76200002 0.01736852 1.0134269e-38 311 227
-0.010716373 0.764 0.017414106 9.7683479e-39 312 227
-0.0093768267 0.764 0.017414106 1.0874335e-38 313 227
-0.0080583189 0.76599997 0.017459691 1.4732139e-38 314 227
-0.0067152665 0.76599997 0.017459691 1.5838488e-38 315 227
-0.0053722127 0.76599997 0.017459691 1.7032346e-38 316 227
-0.0040291594 0.76599997 0.017459691 1.7308933e-38 317 227
-0.0026861064 0.76599997 0.017459691 1.7308933e-38 318 227
-0.0013430532 0.76599997 0.017459691 1.694015e-38 319 227
0 0.76599997 0.017459691 1.712165e-38 320 227
0.0013430532 0.76599997 0.017459691 1.6568477e-38 321 227
0.0026861064 0.76599997 0.017459691 1.629224e-38 322 227
0.0040291594 0.76599997 0.017459691 1.5923458e-38 323 227
0.0053722127 0.76599997 0.017459691 1.5830543e-38 324 227
0.0067152665 0.76599997 0.017459691 1.5738347e-38 325 227
0.0080583189 0.76599997 0.017459691 1.5461403e-38 326 227
0.0094013726 0.76599997 0.017459691 1.5369208e-38 327 227
0.010758453 0.76700002 0.017482487 1.5000795e-38 328 227
0.01210326 0.76700002 0.017482487 1.4724568e-38 329 227
0.013448066 0.76700002 0.017482487 1.453982e-38 330 227
0.014831445 0.76899999 0.017528072 1.453982e-38 331 227
0.016221842 0.77100003 0.01757366 1.4173206e-38 332 227
0.01757366 0.77100003 0.01757366 1.4357596e-38 333 227
0.018999118 0.77399999 0.01764204 1.2612774e-38 334 227
-0.043370452 0.773 0.016263919 1.3905661e-38 288 228
-0.042015124 0.773 0.016263919 1.3721269e-38 289 228
-0.0406598 0.773 0.016263919 1.5279921e-38 290 228
-0.039304473 0.773 0.016263919 1.4818944e-38 291 228
-0.037949149 0.773 0.016263919 1.4540562e-38 292 228
-0.036499143 0.77100003 0.016221842 1.4079583e-38 293 228
-0.03514732 0.77100003 0.016221842 1.3623288e-38 294 228
-0.033795502 0.77100003 0.016221842 1.4360853e-38 295 228
-0.032359518 0.76899999 0.016179759 1.5649427e-38 296 228
-0.030930554 0.76700002 0.01613768 1.5557231e-38 297 228
-0.029585747 0.76700002 0.01613768 1.5649061e-38 298 228
-0.02824094 0.76700002 0.01613768 1.5649061e-38 299 228
-0.026896132 0.76700002 0.01613768 1.5741259e-38 300 228
-0.025551327 0.76700002 0.01613768 1.5741259e-38 301 228
-0.024174958 0.76599997 0.016116638 1.5740903e-38 302 228
-0.022831906 0.76599997 0.016116638 1.5648708e-38 303 228
-0.021432746 0.764 0.016074561 1.5556512e-38 304 228
-0.020093199 0.764 0.016074561 1.5464316e-38 305 228
-0.018753653 0.764 0.016074561 1.4728549e-38 306 228
-0.01736852 0.76200002 0.01603248 1.4267571e-38 307 228
-0.01603248 0.76200002 0.01603248 1.2704927e-38 308 228
-0.01469644 0.76200002 0.01603248 1.2151755e-38 309 228
-0.0133604 0.76200002 0.01603248 1.1049747e-38 310 228
-0.01202436 0.76200002 0.01603248 1.1049747e-38 311 228
-0.01068832 0.76200002 0.01603248 1.1326688e-38 312 228
-0.0093768267 0.764 0.016074561 1.2893654e-38 313 228
-0.0080372803 0.764 0.016074561 1.5281717e-38 314 228
-0.0067152665 0.76599997 0.016116638 1.6204033e-38 315 228
-0.0053722127 0.76599997 0.016116638 1.6665008e-38 316 228
-0.0040186401 0.764 0.016074561 1.6757203e-38 317 228
-0.0026790933 0.764 0.016074561 1.6665005e-38 318 228
-0.0013430532 0.76599997 0.016116638 1.6388418e-38 319 228
0 0.76599997 0.016116638 1.6570273e-38 320 228
0.0013430532 0.76599997 0.016116638 1.6109294e-38 321 228
0.0026861064 0.76599997 0.016116638 1.6199323e-38 322 228
0.0040291594 0.76599997 0.016116638 1.583054e-38 323 228
0.0053722127 0.76599997 0.016116638 1.5554316e-38 324 228
0.0067152665 0.76599997 0.016116638 1.5370285e-38 325 228
0.0080583189 0.76599997 0.016116638 1.5278091e-38 326 228
0.0094013726 0.76599997 0.016116638 1.5093341e-38 327 228
0.010758453 0.76700002 0.01613768 1.4908952e-38 328 228
0.01210326 0.76700002 0.01613768 1.4632367e-38 329 228
0.013448066 0.76700002 0.01613768 1.4356507e-38 330 228
0.014831445 0.76899999 0.016179759 1.4264312e-38 331 228
0.016221842 0.77100003 0.016221842 1.4081009e-38 332 228
0.01757366 0.77100003 0.016221842 1.4173206e-38 333 228
0.018999118 0.77399999 0.016284959 1.3344924e-38 334 228
0.0204088 0.77600002 0.01632704 1.4359436e-38 335 228
-0.043426558 0.77399999 0.014927879 1.4362317e-38 288 229
-0.042015124 0.773 0.014908593 1.4362317e-38 289 229
-0.0406598 0.773 0.014908593 1.5279202e-38 290 229
-0.03920278 0.77100003 0.01487002 1.4726028e-38 291 229
-0.037850961 0.77100003 0.01487002 1.4358672e-38 292 229
-0.036404461 0.76899999 0.014831445 1.398953e-38 293 229
-0.035056144 0.76899999 0.014831445 1.3716192e-38 294 229
-0.033707831 0.76899999 0.014831445 1.4361562e-38 295 229
-0.03227536 0.76700002 0.014792874 1.5465035e-38 296 229
-0.030930554 0.76700002 0.014792874 1.5465035e-38 297 229
-0.029547172 0.76599997 0.014773586 1.5465388e-38 298 229
-0.028204117 0.76599997 0.014773586 1.5465388e-38 299 229
-0.026896132 0.76700002 0.014792874 1.5556865e-38 300 229
-0.025518013 0.76599997 0.014773586 1.5556865e-38 301 229
-0.024174958 0.76599997 0.014773586 1.5647629e-38 302 229
-0.022772292 0.764 0.014735013 1.5463598e-38 303 229
-0.02137664 0.76200002 0.01469644 1.5371047e-38 304 229
-0.0200406 0.76200002 0.01469644 1.5371047e-38 305 229
-0.01870456 0.76200002 0.01469644 1.4728912e-38 306 229
-0.01736852 0.76200002 0.01469644 1.4175738e-38 307 229
-0.01603248 0.76200002 0.01469644 1.3439978e-38 308 229
-0.01469644 0.76200002 0.01469644 1.2979e-38 309 229
-0.0133604 0.76200002 0.01469644 1.2335801e-38 310 229
-0.01202436 0.76200002 0.01469644 1.2335801e-38 311 229
-0.01068832 0.76200002 0.01469644 1.2796051e-38 312 229
-0.0093522798 0.76200002 0.01469644 1.4179345e-38 313 229
-0.0080372803 0.764 0.014735013 1.5741259e-38 314 229
-0.006697733 0.764 0.014735013 1.6386629e-38 315 229
-0.0053581866 0.764 0.014735013 1.6388068e-38 316 229
-0.0040186401 0.764 0.014735013 1.6480263e-38 317 229
-0.0026790933 0.764 0.014735013 1.6572091e-38 318 229
-0.0013395466 0.764 0.014735013 1.6387698e-38 319 229
0 0.764 0.014735013 1.6385529e-38 320 229
0.0013395466 0.764 0.014735013 1.5832355e-38 321 229
0.0026790933 0.764 0.014735013 1.5830906e-38 322 229
0.0040186401 0.764 0.014735013 1.5554319e-38 323 229
0.0053581866 0.764 0.014735013 1.5186255e-38 324 229
0.0067152665 0.76599997 0.014773586 1.5002224e-38 325 229
0.0080583189 0.76599997 0.014773586 1.491075e-38 326 229
0.0094013726 0.76599997 0.014773586 1.4818555e-38 327 229
0.010758453 0.76700002 0.014792874 1.4633089e-38 328 229
0.01210326 0.76700002 0.014792874 1.435686e-38 329 229
0.013448066 0.76700002 0.014792874 1.417211e-38 330 229
0.014831445 0.76899999 0.014831445 1.417211e-38 331 229
0.016221842 0.77100003 0.01487002 1.4079211e-38 332 229
0.01757366 0.77100003 0.01487002 1.4263603e-38 333 229
0.018999118 0.77399999 0.014927879 1.3895933e-38 334 229
0.0204088 0.77600002 0.014966453 1.4172521e-38 335 229
-0.046081103 0.773 0.013553266 1.3737855e-38 286 230
-0.044725779 0.773 0.013553266 9.9578343e-39 287 230
-0.043370452 0.773 0.013553266 1.4269754e-38 288 230
-0.042015124 0.773 0.013553266 1.4269754e-38 289 230
-0.0406598 0.773 0.013553266 1.5094808e-38 290 230
-0.03920278 0.77100003 0.013518199 1.4726026e-38 291 230
-0.037850961 0.77100003 0.013518199 1.4176076e-38 292 230
-0.036404461 0.76899999 0.013483133 1.3991685e-38 293 230
-0.035056144 0.76899999 0.013483133 1.3900937e-38 294 230
-0.033620168 0.76700002 0.013448066 1.4085329e-38 295 230
-0.03227536 0.76700002 0.013448066 1.4911862e-38 296 230
-0.030890226 0.76599997 0.013430533 1.5096253e-38 297 230
-0.029547172 0.76599997 0.013430533 1.518845e-38 298 230
-0.028204117 0.76599997 0.013430533 1.518845e-38 299 230
-0.026861066 0.76599997 0.013430533 1.518845e-38 300 230
-0.025518013 0.76599997 0.013430533 1.518845e-38 301 230
-0.024111839 0.764 0.013395466 1.5095184e-38 302 230
-0.02271268 0.76200002 0.0133604 1.4910792e-38 303 230
-0.02137664 0.76200002 0.0133604 1.4543099e-38 304 230
-0.0200406 0.76200002 0.0133604 1.472749e-38 305 230
-0.01870456 0.76200002 0.0133604 1.4728196e-38 306 230
-0.01736852 0.76200002 0.0133604 1.4636001e-38 307 230
-0.01603248 0.76200002 0.0133604 1.4911508e-38 308 230
-0.01469644 0.76200002 0.0133604 1.4911508e-38 309 230
-0.0133604 0.76200002 0.0133604 1.4728565e-38 310 230
-0.01202436 0.76200002 0.0133604 1.4636369e-38 311 230
-0.01068832 0.76200002 0.0133604 1.4727843e-38 312 230
-0.0093522798 0.76200002 0.0133604 1.5834191e-38 313 230
-0.0080162399 0.76200002 0.0133604 1.5834538e-38 314 230
-0.0066801999 0.76200002 0.0133604 1.5927092e-38 315 230
-0.0053441599 0.76200002 0.0133604 1.6204033e-38 316 230
-0.0040081199 0.76200002 0.0133604 1.6388065e-38 317 230
-0.00267208 0.76200002 0.0133604 1.6479895e-38 318 230
-0.00133604 0.76200002 0.0133604 1.6202948e-38 319 230
0 0.76200002 0.0133604 1.5925275e-38 320 230
0.0013395466 0.764 0.013395466 1.5279906e-38 321 230
0.0026790933 0.764 0.013395466 1.5001877e-38 322 230
0.0040186401 0.764 0.013395466 1.5001877e-38 323 230
0.0053581866 0.764 0.013395466 1.4726006e-38 324 230
0.006697733 0.764 0.013395466 1.4726006e-38 325 230
0.0080583189 0.76599997 0.013430533 1.4542691e-38 326 230
0.0094013726 0.76599997 0.013430533 1.4450495e-38 327 230
0.010758453 0.76700002 0.013448066 1.4540173e-38 328 230
0.01210326 0.76700002 0.013448066 1.4447977e-38 329 230
0.013448066 0.76700002 0.013448066 1.4263227e-38 330 230
0.014831445 0.76899999 0.013483133 1.4079196e-38 331 230
0.016179759 0.76899999 0.013483133 1.3987016e-38 332 230
0.01757366 0.77100003 0.013518199 1.4079211e-38 333 230
0.018974574 0.773 0.013553266 1.3712971e-38 334 230
0.020356199 0.77399999 0.013570799 1.3620416e-38 335 230
-0.047436431 0.773 0.012197939 1.3648569e-38 285 231
-0.046081103 0.773 0.012197939 1.2165485e-38 286 231
-0.044725779 0.773 0.012197939 1.0506324e-38 287 231
-0.043370452 0.773 0.012197939 1.4084641e-38 288 231
-0.042015124 0.773 0.012197939 1.4084641e-38 289 231
-0.0406598 0.773 0.012197939 1.4726396e-38 290 231
-0.039101087 0.76899999 0.012134819 1.4450167e-38 291 231
-0.03775277 0.76899999 0.012134819 1.3992053e-38 292 231
-0.036309779 0.76700002 0.01210326 1.3992053e-38 293 231
-0.034964975 0.76700002 0.01210326 1.3808388e-38 294 231
-0.033620168 0.76700002 0.01210326 1.3992779e-38 295 231
-0.03227536 0.76700002 0.01210326 1.4451253e-38 296 231
-0.030890226 0.76599997 0.012087479 1.4635645e-38 297 231
-0.029547172 0.76599997 0.012087479 1.4818962e-38 298 231
-0.028204117 0.76599997 0.012087479 1.4911158e-38 299 231
-0.026861066 0.76599997 0.012087479 1.4728562e-38 300 231
-0.025518013 0.76599997 0.012087479 1.4728562e-38 301 231
-0.024111839 0.764 0.01205592 1.4727843e-38 302 231
-0.02271268 0.76200002 0.01202436 1.4451256e-38 303 231
-0.02137664 0.76200002 0.01202436 1.4450906e-38 304 231
-0.0200406 0.76200002 0.01202436 1.4635297e-38 305 231
-0.01870456 0.76200002 0.01202436 1.4727846e-38 306 231
-0.017345725 0.76099998 0.012008579 1.4820041e-38 307 231
-0.016011439 0.76099998 0.012008579 1.5372118e-38 308 231
-0.014677152 0.76099998 0.012008579 1.5648705e-38 309 231
-0.013342866 0.76099998 0.012008579 1.564978e-38 310 231
-0.012008579 0.76099998 0.012008579 1.5557584e-38 311 231
-0.010674292 0.76099998 0.012008579 1.5373563e-38 312 231
-0.0093400059 0.76099998 0.012008579 1.5834541e-38 313 231
-0.0080057196 0.76099998 0.012008579 1.5741992e-38 314 231
-0.0066801999 0.76200002 0.01202436 1.5834188e-38 315 231
-0.0053441599 0.76200002 0.01202436 1.583562e-38 316 231
-0.0040081199 0.76200002 0.01202436 1.6019651e-38 317 231
-0.00267208 0.76200002 0.01202436 1.6202235e-38 318 231
-0.00133604 0.76200002 0.01202436 1.5741256e-38 319 231
0 0.76200002 0.01202436 1.5463948e-38 320 231
0.00133604 0.76200002 0.01202436 1.5094805e-38 321 231
0.00267208 0.76200002 0.01202436 1.4725302e-38 322 231
0.0040081199 0.76200002 0.01202436 1.4541271e-38 323 231
0.0053441599 0.76200002 0.01202436 1.444907e-38 324 231
0.006697733 0.764 0.01205592 1.444907e-38 325 231
0.0080583189 0.76599997 0.012087479 1.4174634e-38 326 231
0.0094013726 0.76599997 0.012087479 1.408208e-38 327 231
0.010758453 0.76700002 0.01210326 1.4447621e-38 328 231
0.01210326 0.76700002 0.01210326 1.426323e-38 329 231
0.013448066 0.76700002 0.01210326 1.3987363e-38 330 231
0.014831445 0.76899999 0.012134819 1.3895168e-38 331 231
0.016179759 0.76899999 0.012134819 1.3618952e-38 332 231
0.01757366 0.77100003 0.01216638 1.3803704e-38 333 231
0.018974574 0.773 0.012197939 1.3437107e-38 334 231
0.0203299 0.773 0.012197939 1.3529303e-38 335 231
0.021769386 0.77600002 0.01224528 1.2336562e-38 336 231
-0.048791755 0.773 0.010842613 1.7151274e-38 284 232
-0.047436431 0.773 0.010842613 1.1712092e-38 285 232
-0.046081103 0.773 0.010842613 1.1422868e-38 286 232
-0.044725779 0.773 0.010842613 1.1238118e-38 287 232
-0.043370452 0.773 0.010842613 1.4175392e-38 288 232
-0.042015124 0.773 0.010842613 1.4175392e-38 289 232
-0.040554602 0.77100003 0.01081456 1.4266495e-38 290 232
-0.038999394 0.76700002 0.010758453 1.3989909e-38 291 232
-0.037654586 0.76700002 0.010758453 1.3989182e-38 292 232
-0.036309779 0.76700002 0.010758453 1.4173575e-38 293 232
-0.034964975 0.76700002 0.010758453 1.3989909e-38 294 232
-0.033620168 0.76700002 0.010758453 1.4266495e-38 295 232
-0.03227536 0.76700002 0.010758453 1.4266495e-38 296 232
-0.030890226 0.76599997 0.010744425 1.4450886e-38 297 232
-0.029547172 0.76599997 0.010744425 1.4634196e-38 298 232
-0.028204117 0.76599997 0.010744425 1.4634196e-38 299 232
-0.026861066 0.76599997 0.010744425 1.4451251e-38 300 232
-0.025518013 0.76599997 0.010744425 1.4451251e-38 301 232
-0.024111839 0.764 0.010716373 1.4542377e-38 302 232
-0.02271268 0.76200002 0.01068832 1.4542377e-38 303 232
-0.02137664 0.76200002 0.01068832 1.4267235e-38 304 232
-0.0200406 0.76200002 0.01068832 1.4636016e-38 305 232
-0.01870456 0.76200002 0.01068832 1.4820762e-38 306 232
-0.017345725 0.76099998 0.010674292 1.5005153e-38 307 232
-0.016011439 0.76099998 0.010674292 1.5280295e-38 308 232
-0.014677152 0.76099998 0.010674292 1.5464685e-38 309 232
-0.013342866 0.76099998 0.010674292 1.5649076e-38 310 232
-0.012008579 0.76099998 0.010674292 1.5649076e-38 311 232
-0.010674292 0.76099998 0.010674292 1.5466483e-38 312 232
-0.0093400059 0.76099998 0.010674292 1.5466483e-38 313 232
-0.0080057196 0.76099998 0.010674292 1.583167e-38 314 232
-0.0066714329 0.76099998 0.010674292 1.5923865e-38 315 232
-0.0053371461 0.76099998 0.010674292 1.5833822e-38 316 232
-0.0040028598 0.76099998 0.010674292 1.5926018e-38 317 232
-0.0026685731 0.76099998 0.010674292 1.601712e-38 318 232
-0.0013342865 0.76099998 0.010674292 1.5371751e-38 319 232
0 0.76099998 0.010674292 1.5462502e-38 320 232
0.0013342865 0.76099998 0.010674292 1.5185556e-38 321 232
0.00267208 0.76200002 0.01068832 1.4541271e-38 322 232
0.0040081199 0.76200002 0.01068832 1.4264324e-38 323 232
0.0053441599 0.76200002 0.01068832 1.4172129e-38 324 232
0.006697733 0.764 0.010716373 1.4264324e-38 325 232
0.0080372803 0.764 0.010716373 1.4265028e-38 326 232
0.0094013726 0.76599997 0.010744425 1.4172832e-38 327 232
0.010758453 0.76700002 0.010758453 1.4263227e-38 328 232
0.01210326 0.76700002 0.010758453 1.4079196e-38 329 232
0.013448066 0.76700002 0.010758453 1.3711135e-38 330 232
0.014792874 0.76700002 0.010758453 1.361894e-38 331 232
0.016179759 0.76899999 0.010786506 1.3618589e-38 332 232
0.017528072 0.76899999 0.010786506 1.3710785e-38 333 232
0.018925481 0.77100003 0.01081456 1.3344543e-38 334 232
0.020277301 0.77100003 0.01081456 1.3712965e-38 335 232
0.021769386 0.77600002 0.010884693 1.3070875e-38 336 232
-0.048791755 0.773 0.0094872871 1.6136033e-38 284 233
-0.047436431 0.773 0.0094872871 1.0143317e-38 285 233
-0.046081103 0.773 0.0094872871 1.1598627e-38 286 233
-0.044725779 0.773 0.0094872871 1.2889366e-38 287 233
-0.043370452 0.773 0.0094872871 1.3624382e-38 288 233
-0.042015124 0.773 0.0094872871 1.3624382e-38 289 233
-0.0404494 0.76899999 0.0094381925 1.3805518e-38 290 233
-0.038999394 0.76700002 0.0094136465 1.3252344e-38 291 233
-0.037654586 0.76700002 0.0094136465 1.3344193e-38 292 233
-0.036309779 0.76700002 0.0094136465 1.3712615e-38 293 233
-0.034964975 0.76700002 0.0094136465 1.3714417e-38 294 233
-0.033620168 0.76700002 0.0094136465 1.3806613e-38 295 233
-0.032233275 0.76599997 0.0094013726 1.4082474e-38 296 233
-0.030890226 0.76599997 0.0094013726 1.4082474e-38 297 233
-0.029547172 0.76599997 0.0094013726 1.4173593e-38 298 233
-0.028204117 0.76599997 0.0094013726 1.3989562e-38 299 233
-0.026861066 0.76599997 0.0094013726 1.4082126e-38 300 233
-0.025518013 0.76599997 0.0094013726 1.4082126e-38 301 233
-0.024111839 0.764 0.0093768267 1.3990291e-38 302 233
-0.02271268 0.76200002 0.0093522798 1.4175042e-38 303 233
-0.02137664 0.76200002 0.0093522798 1.4267957e-38 304 233
-0.0200406 0.76200002 0.0093522798 1.4452348e-38 305 233
-0.01870456 0.76200002 0.0093522798 1.4729292e-38 306 233
-0.017345725 0.76099998 0.0093400059 1.4913323e-38 307 233
-0.016011439 0.76099998 0.0093400059 1.5095917e-38 308 233
-0.014677152 0.76099998 0.0093400059 1.5188471e-38 309 233
-0.013342866 0.76099998 0.0093400059 1.5281738e-38 310 233
-0.012008579 0.76099998 0.0093400059 1.5466131e-38 311 233
-0.010674292 0.76099998 0.0093400059 1.555868e-38 312 233
-0.0093400059 0.76099998 0.0093400059 1.5281733e-38 313 233
-0.0080057196 0.76099998 0.0093400059 1.5004805e-38 314 233
-0.0066714329 0.76099998 0.0093400059 1.4820055e-38 315 233
-0.0053371461 0.76099998 0.0093400059 1.5190639e-38 316 233
-0.0040028598 0.76099998 0.0093400059 1.5559421e-38 317 233
-0.0026685731 0.76099998 0.0093400059 1.5279918e-38 318 233
-0.0013342865 0.76099998 0.0093400059 1.4726746e-38 319 233
0 0.76099998 0.0093400059 1.4544137e-38 320 233
0.0013342865 0.76099998 0.0093400059 1.4359744e-38 321 233
0.00267208 0.76200002 0.0093522798 1.4356521e-38 322 233
0.0040081199 0.76200002 0.0093522798 1.4172129e-38 323 233
0.0053441599 0.76200002 0.0093522798 1.3988814e-38 324 233
0.0066801999 0.76200002 0.0093522798 1.3896618e-38 325 233
0.0080162399 0.76200002 0.0093522798 1.3896966e-38 326 233
0.0093522798 0.76200002 0.0093522798 1.380477e-38 327 233
0.010758453 0.76700002 0.0094136465 1.3987363e-38 328 233
0.01210326 0.76700002 0.0094136465 1.3895168e-38 329 233
0.013448066 0.76700002 0.0094136465 1.343599e-38 330 233
0.014792874 0.76700002 0.0094136465 1.3343795e-38 331 233
0.016179759 0.76899999 0.0094381925 1.3251612e-38 332 233
0.017528072 0.76899999 0.0094381925 1.3344166e-38 333 233
0.018925481 0.77100003 0.0094627403 1.3069401e-38 334 233
0.020277301 0.77100003 0.0094627403 1.3345627e-38 335 233
0.021713279 0.77399999 0.0094995592 1.2795001e-38 336 233
-0.04885488 0.77399999 0.0081424797 1.447507e-38 284 234
-0.047497798 0.77399999 0.0081424797 9.4043102e-39 285 234
-0.046140719 0.77399999 0.0081424797 1.2425505e-38 286 234
-0.044783637 0.77399999 0.0081424797 1.3255625e-38 287 234
-0.043370452 0.773 0.0081319595 1.3805887e-38 288 234
-0.042015124 0.773 0.0081319595 1.3621856e-38 289 234
-0.0404494 0.76899999 0.0080898795 1.3711521e-38 290 234
-0.038999394 0.76700002 0.00806884 1.3343097e-38 291 234
-0.037654586 0.76700002 0.00806884 1.3434941e-38 292 234
-0.036309779 0.76700002 0.00806884 1.3803363e-38 293 234
-0.034964975 0.76700002 0.00806884 1.3896633e-38 294 234
-0.033576332 0.76599997 0.0080583189 1.4173222e-38 295 234
-0.032233275 0.76599997 0.0080583189 1.4356893e-38 296 234
-0.030890226 0.76599997 0.0080583189 1.4172503e-38 297 234
-0.029547172 0.76599997 0.0080583189 1.4080307e-38 298 234
-0.028204117 0.76599997 0.0080583189 1.398811e-38 299 234
-0.026861066 0.76599997 0.0080583189 1.3988833e-38 300 234
-0.025518013 0.76599997 0.0080583189 1.3988833e-38 301 234
-0.024111839 0.764 0.0080372803 1.4080679e-38 302 234
-0.022682872 0.76099998 0.0080057196 1.426507e-38 303 234
-0.021348584 0.76099998 0.0080057196 1.4175039e-38 304 234
-0.020014299 0.76099998 0.0080057196 1.4451985e-38 305 234
-0.018680012 0.76099998 0.0080057196 1.4820044e-38 306 234
-0.017345725 0.76099998 0.0080057196 1.4912241e-38 307 234
-0.016011439 0.76099998 0.0080057196 1.4910089e-38 308 234
-0.014677152 0.76099998 0.0080057196 1.4817893e-38 309 234
-0.013342866 0.76099998 0.0080057196 1.4637462e-38 310 234
-0.012008579 0.76099998 0.0080057196 1.4914408e-38 311 234
-0.010674292 0.76099998 0.0080057196 1.5192421e-38 312 234
-0.0093400059 0.76099998 0.0080057196 1.4915474e-38 313 234
-0.0080057196 0.76099998 0.0080057196 1.4727846e-38 314 234
-0.0066714329 0.76099998 0.0080057196 1.463565e-38 315 234
-0.0053371461 0.76099998 0.0080057196 1.4638168e-38 316 234
-0.0040028598 0.76099998 0.0080057196 1.4914755e-38 317 234
-0.0026685731 0.76099998 0.0080057196 1.4726749e-38 318 234
-0.0013342865 0.76099998 0.0080057196 1.4634552e-38 319 234
0 0.76099998 0.0080057196 1.4634902e-38 320 234
0.0013342865 0.76099998 0.0080057196 1.4358675e-38 321 234
0.00267208 0.76200002 0.0080162399 1.4172856e-38 322 234
0.0040028598 0.76099998 0.0080057196 1.3896268e-38 323 234
0.0053371461 0.76099998 0.0080057196 1.4079209e-38 324 234
0.0066801999 0.76200002 0.0080162399 1.4079209e-38 325 234
0.0080162399 0.76200002 0.0080162399 1.3987719e-38 326 234
0.0093522798 0.76200002 0.0080162399 1.3987719e-38 327 234
0.010758453 0.76700002 0.00806884 1.3712211e-38 328 234
0.01210326 0.76700002 0.00806884 1.3712211e-38 329 234
0.013448066 0.76700002 0.00806884 1.3436346e-38 330 234
0.014792874 0.76700002 0.00806884 1.334415e-38 331 234
0.01613768 0.76700002 0.00806884 1.3251246e-38 332 234
0.017528072 0.76899999 0.0080898795 1.3343441e-38 333 234
0.018876385 0.76899999 0.0080898795 1.3160146e-38 334 234
0.020277301 0.77100003 0.0081109209 1.3528927e-38 335 234
0.021629119 0.77100003 0.0081109209 1.2979018e-38 336 234
0.02298094 0.77100003 0.0081109209 1.3624388e-38 337 234
-0.050211959 0.77399999 0.0067853997 1.5675075e-38 283 235
-0.04885488 0.77399999 0.0067853997 1.3458394e-38 284 235
-0.047497798 0.77399999 0.0067853997 9.8627646e-39 285 235
-0.046140719 0.77399999 0.0067853997 1.2886114e-38 286 235
-0.044783637 0.77399999 0.0067853997 1.3070865e-38 287 235
-0.043370452 0.773 0.0067766332 1.3438179e-38 288 235
-0.04190642 0.77100003 0.0067590997 1.3345625e-38 289 235
-0.0404494 0.76899999 0.0067415666 1.3528205e-38 290 235
-0.038999394 0.76700002 0.006724033 1.343601e-38 291 235
-0.037654586 0.76700002 0.006724033 1.3436013e-38 292 235
-0.036309779 0.76700002 0.006724033 1.3528208e-38 293 235
-0.034964975 0.76700002 0.006724033 1.3528577e-38 294 235
-0.033576332 0.76599997 0.0067152665 1.3620772e-38 295 235
-0.032233275 0.76599997 0.0067152665 1.3711896e-38 296 235
-0.030890226 0.76599997 0.0067152665 1.36197e-38 297 235
-0.029547172 0.76599997 0.0067152665 1.3619698e-38 298 235
-0.028204117 0.76599997 0.0067152665 1.3619698e-38 299 235
-0.026861066 0.76599997 0.0067152665 1.3528224e-38 300 235
-0.025518013 0.76599997 0.0067152665 1.3620419e-38 301 235
-0.024111839 0.764 0.006697733 1.3712265e-38 302 235
-0.022682872 0.76099998 0.0066714329 1.3896657e-38 303 235
-0.021348584 0.76099998 0.0066714329 1.3989577e-38 304 235
-0.020014299 0.76099998 0.0066714329 1.4266166e-38 305 235
-0.018680012 0.76099998 0.0066714329 1.4450553e-38 306 235
-0.017345725 0.76099998 0.0066714329 1.4542748e-38 307 235
-0.016011439 0.76099998 0.0066714329 1.4450197e-38 308 235
-0.014677152 0.76099998 0.0066714329 1.4542392e-38 309 235
-0.0133078 0.759 0.0066538998 1.4361954e-38 310 235
-0.01197702 0.759 0.0066538998 1.4822572e-38 311 235
-0.01064624 0.759 0.0066538998 1.5283538e-38 312 235
-0.00931546 0.759 0.0066538998 1.4914755e-38 313 235
-0.0080057196 0.76099998 0.0066714329 1.5095551e-38 314 235
-0.0066714329 0.76099998 0.0066714329 1.5003354e-38 315 235
-0.0053371461 0.76099998 0.0066714329 1.4177556e-38 316 235
-0.0040028598 0.76099998 0.0066714329 1.3901329e-38 317 235
-0.0026685731 0.76099998 0.0066714329 1.4450886e-38 318 235
-0.00133078 0.759 0.0066538998 1.4358691e-38 319 235
0 0.759 0.0066538998 1.4083533e-38 320 235
0.0013342865 0.76099998 0.0066714329 1.3806587e-38 321 235
0.0026685731 0.76099998 0.0066714329 1.3988107e-38 322 235
0.0040028598 0.76099998 0.0066714329 1.3803716e-38 323 235
0.0053371461 0.76099998 0.0066714329 1.3803348e-38 324 235
0.0066801999 0.76200002 0.0066801999 1.3803348e-38 325 235
0.0080162399 0.76200002 0.0066801999 1.3712221e-38 326 235
0.0093522798 0.76200002 0.0066801999 1.3712221e-38 327 235
0.010716373 0.764 0.006697733 1.3529262e-38 328 235
0.01210326 0.76700002 0.006724033 1.3437066e-38 329 235
0.013448066 0.76700002 0.006724033 1.3252315e-38 330 235
0.014792874 0.76700002 0.006724033 1.3068284e-38 331 235
0.01613768 0.76700002 0.006724033 1.2883905e-38 332 235
0.017528072 0.76899999 0.0067415666 1.297646e-38 333 235
0.018876385 0.76899999 0.0067415666 1.2884284e-38 334 235
0.020277301 0.77100003 0.0067590997 1.3345262e-38 335 235
0.021629119 0.77100003 0.0067590997 1.2887903e-38 336 235
0.02307036 0.77399999 0.0067853997 1.3348521e-38 337 235
0.024553679 0.778 0.0068204664 1.2344844e-38 338 235
-0.050211959 0.77399999 0.0054283198 1.4844944e-38 283 236
-0.04885488 0.77399999 0.0054283198 1.2533547e-38 284 236
-0.047497798 0.77399999 0.0054283198 1.0320853e-38 285 236
-0.046140719 0.77399999 0.0054283198 1.334636e-38 286 236
-0.044783637 0.77399999 0.0054283198 1.3253805e-38 287 236
-0.043370452 0.773 0.0054213065 1.3253066e-38 288 236
-0.04190642 0.77100003 0.0054072798 1.3253066e-38 289 236
-0.0404494 0.76899999 0.0053932532 1.3436007e-38 290 236
-0.038999394 0.76700002 0.0053792265 1.334381e-38 291 236
-0.037654586 0.76700002 0.0053792265 1.3436013e-38 292 236
-0.036309779 0.76700002 0.0053792265 1.3436013e-38 293 236
-0.034964975 0.76700002 0.0053792265 1.3435304e-38 294 236
-0.033576332 0.76599997 0.0053722127 1.3435304e-38 295 236
-0.032233275 0.76599997 0.0053722127 1.3527139e-38 296 236
-0.030890226 0.76599997 0.0053722127 1.3434585e-38 297 236
-0.029547172 0.76599997 0.0053722127 1.3434585e-38 298 236
-0.028204117 0.76599997 0.0053722127 1.3434585e-38 299 236
-0.026861066 0.76599997 0.0053722127 1.3343111e-38 300 236
-0.025451386 0.764 0.0053581866 1.3435306e-38 301 236
-0.024017159 0.76099998 0.0053371461 1.3526433e-38 302 236
-0.022682872 0.76099998 0.0053371461 1.380266e-38 303 236
-0.021348584 0.76099998 0.0053371461 1.389558e-38 304 236
-0.020014299 0.76099998 0.0053371461 1.4079972e-38 305 236
-0.018680012 0.76099998 0.0053371461 1.4355836e-38 306 236
-0.017345725 0.76099998 0.0053371461 1.4540227e-38 307 236
-0.016011439 0.76099998 0.0053371461 1.4173243e-38 308 236
-0.014677152 0.76099998 0.0053371461 1.4449831e-38 309 236
-0.0133078 0.759 0.0053231199 1.4269038e-38 310 236
-0.01197702 0.759 0.0053231199 1.4729658e-38 311 236
-0.01064624 0.759 0.0053231199 1.5373578e-38 312 236
-0.00931546 0.759 0.0053231199 1.5005156e-38 313 236
-0.0079846792 0.759 0.0053231199 1.4912236e-38 314 236
-0.0066538998 0.759 0.0053231199 1.4635647e-38 315 236
-0.0053371461 0.76099998 0.0053371461 1.4266869e-38 316 236
-0.0040028598 0.76099998 0.0053371461 1.4082476e-38 317 236
-0.0026685731 0.76099998 0.0053371461 1.4173225e-38 318 236
-0.00133078 0.759 0.0053231199 1.4173225e-38 319 236
0 0.759 0.0053231199 1.4081382e-38 320 236
0.0013342865 0.76099998 0.0053371461 1.3896631e-38 321 236
0.0026685731 0.76099998 0.0053371461 1.3895196e-38 322 236
0.0040028598 0.76099998 0.0053371461 1.3710804e-38 323 236
0.0053441599 0.76200002 0.0053441599 1.3710799e-38 324 236
0.0066801999 0.76200002 0.0053441599 1.3710799e-38 325 236
0.0080162399 0.76200002 0.0053441599 1.3528556e-38 326 236
0.0093522798 0.76200002 0.0053441599 1.343636e-38 327 236
0.010716373 0.764 0.0053581866 1.3161204e-38 328 236
0.01210326 0.76700002 0.0053792265 1.306865e-38 329 236
0.013448066 0.76700002 0.0053792265 1.2976091e-38 330 236
0.014792874 0.76700002 0.0053792265 1.2883895e-38 331 236
0.01613768 0.76700002 0.0053792265 1.2790994e-38 332 236
0.017528072 0.76899999 0.0053932532 1.2883189e-38 333 236
0.018876385 0.76899999 0.0053932532 1.2792088e-38 334 236
0.0202247 0.76899999 0.0053932532 1.3253066e-38 335 236
0.021629119 0.77100003 0.0054072798 1.2888622e-38 336 236
0.02307036 0.77399999 0.0054283198 1.3257044e-38 337 236
0.024490559 0.77600002 0.0054423464 1.234269e-38 338 236
-0.050341707 0.77600002 0.0040817601 1.3278694e-38 283 237
-0.048981119 0.77600002 0.0040817601 1.2251917e-38 284 237
-0.047497798 0.77399999 0.0040712398 1.1330319e-38 285 237
-0.046140719 0.77399999 0.0040712398 1.3255234e-38 286 237
-0.044725779 0.773 0.0040659797 1.2978647e-38 287 237
-0.043258239 0.77100003 0.0040554604 1.3160868e-38 288 237
-0.041797712 0.76899999 0.0040449398 1.2976837e-38 289 237
-0.040344197 0.76700002 0.00403442 1.3343091e-38 290 237
-0.038999394 0.76700002 0.00403442 1.3435287e-38 291 237
-0.037654586 0.76700002 0.00403442 1.3435287e-38 292 237
-0.036262438 0.76599997 0.0040291594 1.3343091e-38 293 237
-0.034919381 0.76599997 0.0040291594 1.3342741e-38 294 237
-0.033576332 0.76599997 0.0040291594 1.3342741e-38 295 237
-0.032233275 0.76599997 0.0040291594 1.3250911e-38 296 237
-0.030890226 0.76599997 0.0040291594 1.306688e-38 297 237
-0.029547172 0.76599997 0.0040291594 1.306688e-38 298 237
-0.028130481 0.764 0.0040186401 1.306688e-38 299 237
-0.026790932 0.764 0.0040186401 1.3249476e-38 300 237
-0.025451386 0.764 0.0040186401 1.3433507e-38 301 237
-0.024017159 0.76099998 0.0040028598 1.3342037e-38 302 237
-0.022682872 0.76099998 0.0040028598 1.352643e-38 303 237
-0.021348584 0.76099998 0.0040028598 1.3527149e-38 304 237
-0.020014299 0.76099998 0.0040028598 1.3711899e-38 305 237
-0.018680012 0.76099998 0.0040028598 1.3987763e-38 306 237
-0.017345725 0.76099998 0.0040028598 1.407996e-38 307 237
-0.016011439 0.76099998 0.0040028598 1.3712267e-38 308 237
-0.014677152 0.76099998 0.0040028598 1.3712267e-38 309 237
-0.0133078 0.759 0.0039923396 1.2888269e-38 310 237
-0.01197702 0.759 0.0039923396 1.3625834e-38 311 237
-0.01064624 0.759 0.0039923396 1.5095551e-38 312 237
-0.00931546 0.759 0.0039923396 1.5003354e-38 313 237
-0.0079846792 0.759 0.0039923396 1.4636001e-38 314 237
-0.0066538998 0.759 0.0039923396 1.4267219e-38 315 237
-0.0053231199 0.759 0.0039923396 1.3989559e-38 316 237
-0.0039923396 0.759 0.0039923396 1.3805168e-38 317 237
-0.0026685731 0.76099998 0.0040028598 1.3713318e-38 318 237
-0.0013342865 0.76099998 0.0040028598 1.3713318e-38 319 237
0 0.76099998 0.0040028598 1.3804066e-38 320 237
0.0013342865 0.76099998 0.0040028598 1.352784e-38 321 237
0.0026685731 0.76099998 0.0040028598 1.3710086e-38 322 237
0.0040028598 0.76099998 0.0040028598 1.361753e-38 323 237
0.0053441599 0.76200002 0.0040081199 1.3618602e-38 324 237
0.0066801999 0.76200002 0.0040081199 1.3618602e-38 325 237
0.0080162399 0.76200002 0.0040081199 1.3343444e-38 326 237
0.0093522798 0.76200002 0.0040081199 1.3343444e-38 327 237
0.01068832 0.76200002 0.0040081199 1.3251246e-38 328 237
0.01205592 0.764 0.0040186401 1.315905e-38 329 237
0.013430533 0.76599997 0.0040291594 1.2790991e-38 330 237
0.014792874 0.76700002 0.00403442 1.2698794e-38 331 237
0.01613768 0.76700002 0.00403442 1.2698089e-38 332 237
0.017482487 0.76700002 0.00403442 1.2698089e-38 333 237
0.018876385 0.76899999 0.0040449398 1.2607344e-38 334 237
0.0202247 0.76899999 0.0040449398 1.288393e-38 335 237
0.021629119 0.77100003 0.0040554604 1.2703873e-38 336 237
0.02307036 0.77399999 0.0040712398 1.3073016e-38 337 237
0.024490559 0.77600002 0.0040817601 1.2433807e-38 338 237
-0.050341707 0.77600002 0.0027211732 1.2447132e-38 283 238
-0.048981119 0.77600002 0.0027211732 1.2064637e-38 284 238
-0.047497798 0.77399999 0.0027141599 1.1972442e-38 285 238
-0.046140719 0.77399999 0.0027141599 1.3346708e-38 286 238
-0.044725779 0.773 0.0027106532 1.2977565e-38 287 238
-0.043258239 0.77100003 0.0027036399 1.2885004e-38 288 238
-0.041797712 0.76899999 0.0026966266 1.2792807e-38 289 238
-0.040344197 0.76700002 0.0026896133 1.288464e-38 290 238
-0.038999394 0.76700002 0.0026896133 1.288464e-38 291 238
-0.037605491 0.76599997 0.0026861064 1.3251617e-38 292 238
-0.036262438 0.76599997 0.0026861064 1.3251617e-38 293 238
-0.034919381 0.76599997 0.0026861064 1.306723e-38 294 238
-0.033576332 0.76599997 0.0026861064 1.2975034e-38 295 238
-0.032233275 0.76599997 0.0026861064 1.2974684e-38 296 238
-0.030809574 0.764 0.0026790933 1.2974684e-38 297 238
-0.029470026 0.764 0.0026790933 1.3066883e-38 298 238
-0.028130481 0.764 0.0026790933 1.2974328e-38 299 238
-0.026790932 0.764 0.0026790933 1.2882854e-38 300 238
-0.02538476 0.76200002 0.00267208 1.2882854e-38 301 238
-0.024017159 0.76099998 0.0026685731 1.2791384e-38 302 238
-0.022682872 0.76099998 0.0026685731 1.288358e-38 303 238
-0.021348584 0.76099998 0.0026685731 1.3159092e-38 304 238
-0.020014299 0.76099998 0.0026685731 1.3343483e-38 305 238
-0.018680012 0.76099998 0.0026685731 1.3343486e-38 306 238
-0.017345725 0.76099998 0.0026685731 1.3527517e-38 307 238
-0.016011439 0.76099998 0.0026685731 1.315911e-38 308 238
-0.014677152 0.76099998 0.0026685731 1.2975079e-38 309 238
-0.0133078 0.759 0.00266156 1.2240025e-38 310 238
-0.01197702 0.759 0.00266156 1.3254177e-38 311 238
-0.01064624 0.759 0.00266156 1.4543086e-38 312 238
-0.00931546 0.759 0.00266156 1.4543086e-38 313 238
-0.0079846792 0.759 0.00266156 1.4450886e-38 314 238
-0.0066538998 0.759 0.00266156 1.4173941e-38 315 238
-0.0053231199 0.759 0.00266156 1.398883e-38 316 238
-0.0039923396 0.759 0.00266156 1.3712602e-38 317 238
-0.0026685731 0.76099998 0.0026685731 1.362111e-38 318 238
-0.0013342865 0.76099998 0.0026685731 1.3528556e-38 319 238
0 0.76099998 0.0026685731 1.3618952e-38 320 238
0.0013342865 0.76099998 0.0026685731 1.3526756e-38 321 238
0.0026685731 0.76099998 0.0026685731 1.3250545e-38 322 238
0.0040028598 0.76099998 0.0026685731 1.3434938e-38 323 238
0.0053441599 0.76200002 0.00267208 1.3343097e-38 324 238
0.0066714329 0.76099998 0.0026685731 1.3343097e-38 325 238
0.0080057196 0.76099998 0.0026685731 1.3250895e-38 326 238
0.0093522798 0.76200002 0.00267208 1.31587e-38 327 238
0.01068832 0.76200002 0.00267208 1.3066501e-38 328 238
0.01202436 0.76200002 0.00267208 1.288247e-38 329 238
0.013430533 0.76599997 0.0026861064 1.2606245e-38 330 238
0.014773586 0.76599997 0.0026861064 1.2606245e-38 331 238
0.01613768 0.76700002 0.0026896133 1.242151e-38 332 238
0.017482487 0.76700002 0.0026896133 1.242151e-38 333 238
0.018876385 0.76899999 0.0026966266 1.2055622e-38 334 238
0.0202247 0.76899999 0.0026966266 1.251624e-38 335 238
0.021629119 0.77100003 0.0027036399 1.22447e-38 336 238
0.02307036 0.77399999 0.0027141599 1.2613124e-38 337 238
0.024490559 0.77600002 0.0027211732 1.2157579e-38 338 238
-0.048981119 0.77600002 0.0013605866 1.1786254e-38 284 239
-0.047620531 0.77600002 0.0013605866 1.2247231e-38 285 239
-0.046140719 0.77399999 0.0013570799 1.3161243e-38 286 239
-0.044725779 0.773 0.0013553266 1.2792101e-38 287 239
-0.043258239 0.77100003 0.00135182 1.2699536e-38 288 239
-0.041797712 0.76899999 0.0013483133 1.2515145e-38 289 239
-0.040344197 0.76700002 0.0013448066 1.2972883e-38 290 239
-0.038999394 0.76700002 0.0013448066 1.3249829e-38 291 239
-0.037605491 0.76599997 0.0013430532 1.3158703e-38 292 239
-0.036262438 0.76599997 0.0013430532 1.3158703e-38 293 239
-0.034919381 0.76599997 0.0013430532 1.3065785e-38 294 239
-0.033576332 0.76599997 0.0013430532 1.2881034e-38 295 239
-0.032233275 0.76599997 0.0013430532 1.3155829e-38 296 239
-0.030809574 0.764 0.0013395466 1.3248026e-38 297 239
-0.029470026 0.764 0.0013395466 1.279029e-38 298 239
-0.028130481 0.764 0.0013395466 1.2698094e-38 299 239
-0.026790932 0.764 0.0013395466 1.2605541e-38 300 239
-0.025351444 0.76099998 0.0013342865 1.2697739e-38 301 239
-0.024017159 0.76099998 0.0013342865 1.2789937e-38 302 239
-0.022682872 0.76099998 0.0013342865 1.2882133e-38 303 239
-0.021348584 0.76099998 0.0013342865 1.3065448e-38 304 239
-0.020014299 0.76099998 0.0013342865 1.3249839e-38 305 239
-0.018680012 0.76099998 0.0013342865 1.343351e-38 306 239
-0.017345725 0.76099998 0.0013342865 1.324912e-38 307 239
-0.016011439 0.76099998 0.0013342865 1.2972183e-38 308 239
-0.014677152 0.76099998 0.0013342865 1.2879986e-38 309 239
-0.0133078 0.759 0.00133078 1.2697038e-38 310 239
-0.01197702 0.759 0.00133078 1.3526799e-38 311 239
-0.01064624 0.759 0.00133078 1.3807316e-38 312 239
-0.00931546 0.759 0.00133078 1.3991347e-38 313 239
-0.0079846792 0.759 0.00133078 1.426648e-38 314 239
-0.0066538998 0.759 0.00133078 1.3989533e-38 315 239
-0.0053231199 0.759 0.00133078 1.3896265e-38 316 239
-0.0039923396 0.759 0.00133078 1.3896265e-38 317 239
-0.00266156 0.759 0.00133078 1.3621823e-38 318 239
-0.0013342865 0.76099998 0.0013342865 1.3253401e-38 319 239
0 0.76099998 0.0013342865 1.3344516e-38 320 239
0.0013342865 0.76099998 0.0013342865 1.2975735e-38 321 239
0.0026685731 0.76099998 0.0013342865 1.3157978e-38 322 239
0.0040028598 0.76099998 0.0013342865 1.3250533e-38 323 239
0.0053441599 0.76200002 0.00133604 1.3158697e-38 324 239
0.0066714329 0.76099998 0.0013342865 1.288247e-38 325 239
0.0080057196 0.76099998 0.0013342865 1.3065783e-38 326 239
0.0093522798 0.76200002 0.00133604 1.3065783e-38 327 239
0.01068832 0.76200002 0.00133604 1.288139e-38 328 239
0.01202436 0.76200002 0.00133604 1.2789194e-38 329 239
0.013430533 0.76599997 0.0013430532 1.251333e-38 330 239
0.014773586 0.76599997 0.0013430532 1.2421135e-38 331 239
0.01613768 0.76700002 0.0013448066 1.2420066e-38 332 239
0.017482487 0.76700002 0.0013448066 1.2512261e-38 333 239
0.018827293 0.76700002 0.0013448066 1.2329678e-38 334 239
0.0202247 0.76899999 0.0013483133 1.269882e-38 335 239
0.021573013 0.76899999 0.0013483133 1.2335445e-38 336 239
0.022921326 0.76899999 0.0013483133 1.2612031e-38 337 239
0.024490559 0.77600002 0.0013605866 1.1881342e-38 338 239
-0.048981119 0.77600002 -0 1.0866082e-38 284 240
-0.047620531 0.77600002 -0 1.1050114e-38 285 240
-0.046140719 0.77399999 -0 1.2058839e-38 286 240
-0.044725779 0.773 -0 1.1966643e-38 287 240
-0.043258239 0.77100003 -0 1.2239287e-38 288 240
-0.041797712 0.76899999 -0 1.2054536e-38 289 240
-0.040344197 0.76700002 -0 1.2054188e-38 290 240
-0.038999394 0.76700002 -0 1.2146385e-38 291 240
-0.037605491 0.76599997 -0 1.2055622e-38 292 240
-0.036262438 0.76599997 -0 1.2055622e-38 293 240
-0.034919381 0.76599997 -0 1.2054536e-38 294 240
-0.033576332 0.76599997 -0 1.1778309e-38 295 240
-0.032233275 0.76599997 -0 1.2236413e-38 296 240
-0.030809574 0.764 -0 1.2236413e-38 297 240
-0.029470026 0.764 -0 1.2053819e-38 298 240
-0.028130481 0.764 -0 1.2146015e-38 299 240
-0.026790932 0.764 -0 1.2329327e-38 300 240
-0.025351444 0.76099998 -0 1.2329327e-38 301 240
-0.024017159 0.76099998 -0 1.2238214e-38 302 240
-0.022682872 0.76099998 -0 1.2422246e-38 303 240
-0.021348584 0.76099998 -0 1.2146382e-38 304 240
-0.020014299 0.76099998 -0 1.2331132e-38 305 240
-0.018680012 0.76099998 -0 1.2696688e-38 306 240
-0.017345725 0.76099998 -0 1.2420101e-38 307 240
-0.016011439 0.76099998 -0 1.2143161e-38 308 240
-0.014677152 0.76099998 -0 1.2235356e-38 309 240
-0.0133078 0.759 -0 1.1503179e-38 310 240
-0.01197702 0.759 -0 1.1964518e-38 311 240
-0.01064624 0.759 -0 1.3619698e-38 312 240
-0.00931546 0.759 -0 1.3712252e-38 313 240
-0.0079846792 0.759 -0 1.3896268e-38 314 240
-0.0066538998 0.759 -0 1.3804072e-38 315 240
-0.0053231199 0.759 -0 1.3896262e-38 316 240
-0.0039923396 0.759 -0 1.3988816e-38 317 240
-0.00266156 0.759 -0 1.3804773e-38 318 240
-0.0013342865 0.76099998 -0 1.3343795e-38 319 240
0 0.76099998 -0 1.315905e-38 320 240
0.0013342865 0.76099998 -0 1.3066855e-38 321 240
0.0026685731 0.76099998 -0 1.2882473e-38 322 240
0.0040028598 0.76099998 -0 1.2882473e-38 323 240
0.0053441599 0.76200002 -0 1.2789924e-38 324 240
0.0066714329 0.76099998 -0 1.2697727e-38 325 240
0.0080057196 0.76099998 -0 1.2698078e-38 326 240
0.0093522798 0.76200002 -0 1.2790273e-38 327 240
0.01068832 0.76200002 -0 1.2605879e-38 328 240
0.01202436 0.76200002 -0 1.2513684e-38 329 240
0.013395466 0.764 -0 1.2236751e-38 330 240
0.014773586 0.76599997 -0 1.2144555e-38 331 240
0.016116638 0.76599997 -0 1.1776863e-38 332 240
0.017482487 0.76700002 -0 1.186906e-38 333 240
0.018827293 0.76700002 -0 1.1503885e-38 334 240
0.0202247 0.76899999 -0 1.1872669e-38 335 240
0.021573013 0.76899999 -0 1.150965e-38 336 240
0.022921326 0.76899999 -0 1.1601846e-38 337 240
0.024269639 0.76899999 -0 1.1420361e-38 338 240
-0.050341707 0.77600002 -0.0013605866 1.1430816e-38 283 241
-0.048981119 0.77600002 -0.0013605866 1.0035978e-38 284 241
-0.047620531 0.77600002 -0.0013605866 9.8519466e-39 285 241
-0.046140719 0.77399999 -0.0013570799 1.1687208e-38 286 241
-0.044783637 0.77399999 -0.0013570799 1.187124e-38 287 241
-0.043258239 0.77100003 -0.00135182 1.1687558e-38 288 241
-0.041797712 0.76899999 -0.0013483133 1.1595362e-38 289 241
-0.040344197 0.76700002 -0.0013448066 1.2054173e-38 290 241
-0.038999394 0.76700002 -0.0013448066 1.1961977e-38 291 241
-0.037654586 0.76700002 -0.0013448066 1.1960902e-38 292 241
-0.036262438 0.76599997 -0.0013430532 1.1960902e-38 293 241
-0.034919381 0.76599997 -0.0013430532 1.1959822e-38 294 241
-0.033576332 0.76599997 -0.0013430532 1.1775791e-38 295 241
-0.032233275 0.76599997 -0.0013430532 1.2142415e-38 296 241
-0.030809574 0.764 -0.0013395466 1.2142415e-38 297 241
-0.029470026 0.764 -0.0013395466 1.1959822e-38 298 241
-0.028130481 0.764 -0.0013395466 1.2052019e-38 299 241
-0.026790932 0.764 -0.0013395466 1.1961974e-38 300 241
-0.02538476 0.76200002 -0.00133604 1.205417e-38 301 241
-0.024017159 0.76099998 -0.0013342865 1.2054173e-38 302 241
-0.022682872 0.76099998 -0.0013342865 1.1961977e-38 303 241
-0.021348584 0.76099998 -0.0013342865 1.2144217e-38 304 241
-0.020014299 0.76099998 -0.0013342865 1.2144217e-38 305 241
-0.018680012 0.76099998 -0.0013342865 1.2510126e-38 306 241
-0.017345725 0.76099998 -0.0013342865 1.2326095e-38 307 241
-0.016011439 0.76099998 -0.0013342865 1.2142062e-38 308 241
-0.014677152 0.76099998 -0.0013342865 1.1958031e-38 309 241
-0.0133078 0.759 -0.00133078 1.1959103e-38 310 241
-0.01197702 0.759 -0.00133078 1.223605e-38 311 241
-0.01064624 0.759 -0.00133078 1.3065801e-38 312 241
-0.00931546 0.759 -0.00133078 1.3157996e-38 313 241
-0.0079846792 0.759 -0.00133078 1.3985591e-38 314 241
-0.0066363667 0.75700003 -0.0013272733 1.4078145e-38 315 241
-0.0053090933 0.75700003 -0.0013272733 1.3896981e-38 316 241
-0.0039818203 0.75700003 -0.0013272733 1.3620754e-38 317 241
-0.00266156 0.759 -0.00133078 1.3710432e-38 318 241
-0.0013342865 0.76099998 -0.0013342865 1.352604e-38 319 241
0 0.76099998 -0.0013342865 1.3249098e-38 320 241
0.0013342865 0.76099998 -0.0013342865 1.3065065e-38 321 241
0.0026685731 0.76099998 -0.0013342865 1.288139e-38 322 241
0.0040028598 0.76099998 -0.0013342865 1.2789194e-38 323 241
0.0053441599 0.76200002 -0.00133604 1.2788473e-38 324 241
0.0066801999 0.76200002 -0.00133604 1.2788473e-38 325 241
0.0080162399 0.76200002 -0.00133604 1.2605882e-38 326 241
0.0093522798 0.76200002 -0.00133604 1.2605882e-38 327 241
0.01068832 0.76200002 -0.00133604 1.2513328e-38 328 241
0.01202436 0.76200002 -0.00133604 1.2237101e-38 329 241
0.013395466 0.764 -0.0013395466 1.2053427e-38 330 241
0.014735013 0.764 -0.0013395466 1.1776842e-38 331 241
0.016116638 0.76599997 -0.0013430532 1.1684296e-38 332 241
0.017482487 0.76700002 -0.0013448066 1.1776491e-38 333 241
0.018827293 0.76700002 -0.0013448066 1.1410602e-38 334 241
0.0202247 0.76899999 -0.0013483133 1.2055972e-38 335 241
0.021573013 0.76899999 -0.0013483133 1.1875909e-38 336 241
0.022921326 0.76899999 -0.0013483133 1.1968105e-38 337 241
0.024269639 0.76899999 -0.0013483133 1.1605111e-38 338 241
0.025851147 0.77600002 -0.0013605866 1.6860262e-38 339 241
-0.050341707 0.77600002 -0.0027211732 1.1338621e-38 283 242
-0.048981119 0.77600002 -0.0027211732 1.0218221e-38 284 242
-0.047620531 0.77600002 -0.0027211732 1.0402972e-38 285 242
-0.046140719 0.77399999 -0.0027141599 1.1320233e-38 286 242
-0.044783637 0.77399999 -0.0027141599 1.141243e-38 287 242
-0.043370452 0.773 -0.0027106532 1.1503167e-38 288 242
-0.041797712 0.76899999 -0.0026966266 1.1503167e-38 289 242
-0.040344197 0.76700002 -0.0026896133 1.1410965e-38 290 242
-0.038999394 0.76700002 -0.0026896133 1.131877e-38 291 242
-0.037654586 0.76700002 -0.0026896133 1.1226576e-38 292 242
-0.036309779 0.76700002 -0.0026896133 1.1042544e-38 293 242
-0.034919381 0.76599997 -0.0026861064 1.1224782e-38 294 242
