# .PCD v.7 - Point Cloud Data file format
FIELDS x y z rgb imX imY
SIZE 4 4 4 4 4 4
TYPE F F F F F F
COUNT 1 1 1 1 1 1
WIDTH 832
HEIGHT 1
VIEWPOINT 0 0 0 1 0 0 0
POINTS 832
DATA ascii
0.031819493 0.69800001 -0.040386278 1.5004763e-38 346 273
0.033043321 0.69800001 -0.040386278 1.5004763e-38 347 273
0.034218054 0.69700003 -0.040328421 1.4821448e-38 348 273
0.035440128 0.69700003 -0.040328421 1.4729253e-38 349 273
0.036662199 0.69700003 -0.040328421 1.4729253e-38 350 273
-0.027271347 0.70700002 -0.042146627 1.3807319e-38 298 274
-0.02603174 0.70700002 -0.042146627 1.4452688e-38 299 274
-0.024686933 0.704 -0.041967787 1.4913641e-38 300 274
-0.023419274 0.70300001 -0.041908171 1.4913641e-38 301 274
-0.02218668 0.70300001 -0.041908171 1.5189156e-38 302 274
-0.020954086 0.70300001 -0.041908171 1.5189156e-38 303 274
-0.019721493 0.70300001 -0.041908171 1.5279921e-38 304 274
-0.018436298 0.70099998 -0.041788943 1.509589e-38 305 274
-0.017207211 0.70099998 -0.041788943 1.5188455e-38 306 274
-0.015955333 0.69999999 -0.041729331 1.5188455e-38 307 274
-0.014727999 0.69999999 -0.041729331 1.5096623e-38 308 274
-0.013462093 0.69800001 -0.041610107 1.5188818e-38 309 274
-0.012220734 0.69700003 -0.041550495 1.5095551e-38 310 274
-0.01099866 0.69700003 -0.041550495 1.5095551e-38 311 274
-0.0097625591 0.69599998 -0.041490879 1.5188471e-38 312 274
-0.0085422397 0.69599998 -0.041490879 1.5188471e-38 313 274
-0.0073219193 0.69599998 -0.041490879 1.5188465e-38 314 274
-0.0060840664 0.69400001 -0.041371655 1.5188465e-38 315 274
-0.0048672534 0.69400001 -0.041371655 1.5188821e-38 316 274
-0.0036451798 0.69300002 -0.041312039 1.5096626e-38 317 274
-0.00243012 0.69300002 -0.041312039 1.5095186e-38 318 274
-0.0012168133 0.69400001 -0.041371655 1.4910436e-38 319 274
0 0.69300002 -0.041312039 1.4082839e-38 320 274
0.00121506 0.69300002 -0.041312039 1.4451982e-38 321 274
0.0024231065 0.69099998 -0.041192811 1.5005519e-38 322 274
0.0036346598 0.69099998 -0.041192811 1.5650888e-38 323 274
0.0048462129 0.69099998 -0.041192811 1.6574277e-38 324 274
0.0060577663 0.69099998 -0.041192811 1.629769e-38 325 274
0.0072693196 0.69099998 -0.041192811 1.6203693e-38 326 274
0.0084440531 0.68800002 -0.041013971 1.583527e-38 327 274
0.0096503468 0.68800002 -0.041013971 1.5649073e-38 328 274
0.010856641 0.68800002 -0.041013971 1.5741269e-38 329 274
0.012062933 0.68800002 -0.041013971 1.5559027e-38 330 274
0.01336566 0.69300002 -0.041312039 1.5098408e-38 331 274
0.014538639 0.69099998 -0.041192811 1.5462868e-38 332 274
0.015750192 0.69099998 -0.041192811 1.5186282e-38 333 274
0.016961746 0.69099998 -0.041192811 1.5369229e-38 334 274
0.018225901 0.69300002 -0.041312039 1.5277033e-38 335 274
0.01944096 0.69300002 -0.041312039 1.5185906e-38 336 274
0.020656019 0.69300002 -0.041312039 1.5370656e-38 337 274
0.021871079 0.69300002 -0.041312039 1.5095143e-38 338 274
0.02308614 0.69300002 -0.041312039 1.491075e-38 339 274
0.024336265 0.69400001 -0.041371655 1.4909676e-38 340 274
0.025553079 0.69400001 -0.041371655 1.4909676e-38 341 274
0.026847038 0.69599998 -0.041490879 1.500295e-38 342 274
0.028067358 0.69599998 -0.041490879 1.500295e-38 343 274
0.029287677 0.69599998 -0.041490879 1.5095865e-38 344 274
0.030551834 0.69700003 -0.041550495 1.5095865e-38 345 274
0.03177391 0.69700003 -0.041550495 1.4912196e-38 346 274
0.03299598 0.69700003 -0.041550495 1.4912196e-38 347 274
0.034218054 0.69700003 -0.041550495 1.4911843e-38 348 274
0.035490975 0.69800001 -0.041610107 1.4911843e-38 349 274
0.037135597 0.70599997 -0.042087011 1.4545212e-38 350 274
0.038373452 0.70599997 -0.042087011 1.4176429e-38 351 274
-0.025994917 0.70599997 -0.043324865 1.4819666e-38 299 275
-0.024686933 0.704 -0.043202132 1.4544155e-38 300 275
-0.023419274 0.70300001 -0.043140765 1.4636351e-38 301 275
-0.02218668 0.70300001 -0.043140765 1.4820745e-38 302 275
-0.020954086 0.70300001 -0.043140765 1.4820745e-38 303 275
-0.019721493 0.70300001 -0.043140765 1.4911508e-38 304 275
-0.018436298 0.70099998 -0.043018032 1.4819313e-38 305 275
-0.017182667 0.69999999 -0.042956665 1.4636013e-38 306 275
-0.015955333 0.69999999 -0.042956665 1.4636013e-38 307 275
-0.01468592 0.69800001 -0.042833932 1.4728212e-38 308 275
-0.013462093 0.69800001 -0.042833932 1.4728212e-38 309 275
-0.012220734 0.69700003 -0.042772565 1.4819691e-38 310 275
-0.010982879 0.69599998 -0.042711195 1.4911888e-38 311 275
-0.0097345067 0.69400001 -0.042588469 1.4636746e-38 312 275
-0.0085176928 0.69400001 -0.042588469 1.4636746e-38 313 275
-0.0073008798 0.69400001 -0.042588469 1.4361231e-38 314 275
-0.0060753003 0.69300002 -0.042527102 1.4361231e-38 315 275
-0.00486024 0.69300002 -0.042527102 1.4728212e-38 316 275
-0.0036451798 0.69300002 -0.042527102 1.4451985e-38 317 275
-0.00243012 0.69300002 -0.042527102 1.4267238e-38 318 275
-0.0012168133 0.69400001 -0.042588469 1.4175042e-38 319 275
0 0.69300002 -0.042527102 1.389918e-38 320 275
0.00121506 0.69300002 -0.042527102 1.4083572e-38 321 275
0.0024231065 0.69099998 -0.042404365 1.4268682e-38 322 275
0.0036346598 0.69099998 -0.042404365 1.5006247e-38 323 275
0.0048251734 0.68800002 -0.042220265 1.5928554e-38 324 275
0.0060314666 0.68800002 -0.042220265 1.5928554e-38 325 275
0.0072587994 0.69 -0.042342998 1.6110783e-38 326 275
0.0084440531 0.68800002 -0.042220265 1.5741642e-38 327 275
0.0096503468 0.68800002 -0.042220265 1.5741625e-38 328 275
0.010856641 0.68800002 -0.042220265 1.5833822e-38 329 275
0.012062933 0.68800002 -0.042220265 1.5650133e-38 330 275
0.013269227 0.68800002 -0.042220265 1.5096959e-38 331 275
0.014475521 0.68800002 -0.042220265 1.5277757e-38 332 275
0.015727401 0.69 -0.042342998 1.4908975e-38 333 275
0.0169372 0.69 -0.042342998 1.4817495e-38 334 275
0.018225901 0.69300002 -0.042527102 1.4909691e-38 335 275
0.01944096 0.69300002 -0.042527102 1.4818929e-38 336 275
0.020656019 0.69300002 -0.042527102 1.4726732e-38 337 275
0.021871079 0.69300002 -0.042527102 1.49104e-38 338 275
0.02308614 0.69300002 -0.042527102 1.472565e-38 339 275
0.024301201 0.69300002 -0.042527102 1.4359025e-38 340 275
0.025553079 0.69400001 -0.042588469 1.4359025e-38 341 275
0.026769891 0.69400001 -0.042588469 1.4726729e-38 342 275
0.027986705 0.69400001 -0.042588469 1.4819285e-38 343 275
0.029203519 0.69400001 -0.042588469 1.4636689e-38 344 275
0.030551834 0.69700003 -0.042772565 1.4636689e-38 345 275
0.03177391 0.69700003 -0.042772565 1.4819651e-38 346 275
0.03299598 0.69700003 -0.042772565 1.4911846e-38 347 275
0.034218054 0.69700003 -0.042772565 1.4635985e-38 348 275
0.035490975 0.69800001 -0.042833932 1.4820016e-38 349 275
0.036977798 0.70300001 -0.043140765 1.4544503e-38 350 275
0.038210396 0.70300001 -0.043140765 1.4452307e-38 351 275
0.039442986 0.70300001 -0.043140765 1.3807669e-38 352 275
-0.028631933 0.70999998 -0.044815198 1.2707119e-38 297 276
-0.02592128 0.704 -0.044436477 1.4266492e-38 299 276
-0.024651866 0.70300001 -0.04437336 1.4265773e-38 300 276
-0.023419274 0.70300001 -0.04437336 1.4450165e-38 301 276
-0.022123558 0.70099998 -0.044247117 1.4267938e-38 302 276
-0.020894472 0.70099998 -0.044247117 1.4267938e-38 303 276
-0.019665385 0.70099998 -0.044247117 1.454273e-38 304 276
-0.018409999 0.69999999 -0.044183996 1.4358337e-38 305 276
-0.017182667 0.69999999 -0.044183996 1.4450187e-38 306 276
-0.015909746 0.69800001 -0.04405776 1.4542383e-38 307 276
-0.01468592 0.69800001 -0.04405776 1.4542748e-38 308 276
-0.013442807 0.69700003 -0.043994639 1.472714e-38 309 276
-0.0122032 0.69599998 -0.043931518 1.4452351e-38 310 276
-0.01095132 0.69400001 -0.043805279 1.4544546e-38 311 276
-0.0097345067 0.69400001 -0.043805279 1.4361231e-38 312 276
-0.0085176928 0.69400001 -0.043805279 1.417684e-38 313 276
-0.0072903596 0.69300002 -0.043742158 1.4267235e-38 314 276
-0.0060753003 0.69300002 -0.043742158 1.4267235e-38 315 276
-0.00486024 0.69300002 -0.043742158 1.4267235e-38 316 276
-0.0036346598 0.69099998 -0.043615919 1.4082842e-38 317 276
-0.0024231065 0.69099998 -0.043615919 1.4082121e-38 318 276
-0.0012097999 0.69 -0.043552797 1.3989925e-38 319 276
0 0.69 -0.043552797 1.3714061e-38 320 276
0.0012097999 0.69 -0.043552797 1.4082842e-38 321 276
0.0024195998 0.69 -0.043552797 1.4726048e-38 322 276
0.0036188802 0.68800002 -0.043426562 1.509483e-38 323 276
0.0048251734 0.68800002 -0.043426562 1.5555806e-38 324 276
0.0060314666 0.68800002 -0.043426562 1.546361e-38 325 276
0.0072377604 0.68800002 -0.043426562 1.5740556e-38 326 276
0.0084440531 0.68800002 -0.043426562 1.5740556e-38 327 276
0.0096503468 0.68800002 -0.043426562 1.555903e-38 328 276
0.010840859 0.68699998 -0.043363437 1.555903e-38 329 276
0.012045399 0.68699998 -0.043363437 1.5465739e-38 330 276
0.013269227 0.68800002 -0.043426562 1.4912565e-38 331 276
0.014475521 0.68800002 -0.043426562 1.5001877e-38 332 276
0.015681813 0.68800002 -0.043426562 1.4632736e-38 333 276
0.0169372 0.69 -0.043552797 1.472565e-38 334 276
0.018146999 0.69 -0.043552797 1.4817846e-38 335 276
0.019384852 0.69099998 -0.043615919 1.4634536e-38 336 276
0.020596405 0.69099998 -0.043615919 1.4542341e-38 337 276
0.021871079 0.69300002 -0.043742158 1.4724934e-38 338 276
0.02308614 0.69300002 -0.043742158 1.4724934e-38 339 276
0.024301201 0.69300002 -0.043742158 1.4450142e-38 340 276
0.02551626 0.69300002 -0.043742158 1.4450142e-38 341 276
0.026769891 0.69400001 -0.043805279 1.4634533e-38 342 276
0.027986705 0.69400001 -0.043805279 1.4726729e-38 343 276
0.029203519 0.69400001 -0.043805279 1.4452307e-38 344 276
0.030507999 0.69599998 -0.043931518 1.4452307e-38 345 276
0.031728316 0.69599998 -0.043931518 1.4726746e-38 346 276
0.03299598 0.69700003 -0.043994639 1.4726746e-38 347 276
0.034218054 0.69700003 -0.043994639 1.4544152e-38 348 276
0.035490975 0.69800001 -0.04405776 1.4451957e-38 349 276
0.036872596 0.70099998 -0.044247117 1.4268998e-38 350 276
0.038101684 0.70099998 -0.044247117 1.4361193e-38 351 276
0.039330769 0.70099998 -0.044247117 1.4268289e-38 352 276
0.040559858 0.70099998 -0.044247117 1.463707e-38 353 276
-0.028631933 0.70999998 -0.046060063 1.3533635e-38 297 277
-0.027309919 0.708 -0.045930319 1.4267219e-38 298 277
-0.02592128 0.704 -0.045670826 1.3898436e-38 299 277
-0.024651866 0.70300001 -0.04560595 1.3988833e-38 300 277
-0.023419274 0.70300001 -0.04560595 1.4173225e-38 301 277
-0.022123558 0.70099998 -0.045476202 1.3990275e-38 302 277
-0.020894472 0.70099998 -0.045476202 1.389808e-38 303 277
-0.019665385 0.70099998 -0.045476202 1.3989562e-38 304 277
-0.018409999 0.69999999 -0.04541133 1.3989562e-38 305 277
-0.017133573 0.69800001 -0.045281585 1.3988853e-38 306 277
-0.015909746 0.69800001 -0.045281585 1.4173243e-38 307 277
-0.01466488 0.69700003 -0.045216713 1.4082492e-38 308 277
-0.013442807 0.69700003 -0.045216713 1.4266885e-38 309 277
-0.0122032 0.69599998 -0.045151837 1.4085363e-38 310 277
-0.01095132 0.69400001 -0.045022093 1.4177559e-38 311 277
-0.0097345067 0.69400001 -0.045022093 1.4177556e-38 312 277
-0.0085054198 0.69300002 -0.044957221 1.3901329e-38 313 277
-0.0072903596 0.69300002 -0.044957221 1.389953e-38 314 277
-0.0060577663 0.69099998 -0.044827472 1.389953e-38 315 277
-0.0048462129 0.69099998 -0.044827472 1.4082121e-38 316 277
-0.0036293997 0.69 -0.0447626 1.3989925e-38 317 277
-0.0024195998 0.69 -0.0447626 1.3897726e-38 318 277
-0.0012062934 0.68800002 -0.044632856 1.3990281e-38 319 277
0 0.68800002 -0.044632856 1.3531821e-38 320 277
0.0012062934 0.68800002 -0.044632856 1.3808048e-38 321 277
0.0024125867 0.68800002 -0.044632856 1.454273e-38 322 277
0.0036188802 0.68800002 -0.044632856 1.4819316e-38 323 277
0.0048181596 0.68699998 -0.044567976 1.5279571e-38 324 277
0.0060226996 0.68699998 -0.044567976 1.5556159e-38 325 277
0.0072377604 0.68800002 -0.044632856 1.5649424e-38 326 277
0.0084440531 0.68800002 -0.044632856 1.5557228e-38 327 277
0.0096503468 0.68800002 -0.044632856 1.5464667e-38 328 277
0.010840859 0.68699998 -0.044567976 1.5372471e-38 329 277
0.012045399 0.68699998 -0.044567976 1.5462146e-38 330 277
0.013249939 0.68699998 -0.044567976 1.5185559e-38 331 277
0.014475521 0.68800002 -0.044632856 1.4908243e-38 332 277
0.015681813 0.68800002 -0.044632856 1.4724212e-38 333 277
0.0169372 0.69 -0.0447626 1.426683e-38 334 277
0.018146999 0.69 -0.0447626 1.4174634e-38 335 277
0.019384852 0.69099998 -0.044827472 1.454019e-38 336 277
0.020596405 0.69099998 -0.044827472 1.4356157e-38 337 277
0.021807959 0.69099998 -0.044827472 1.4356157e-38 338 277
0.023019511 0.69099998 -0.044827472 1.4632385e-38 339 277
0.024231065 0.69099998 -0.044827472 1.4357591e-38 340 277
0.02551626 0.69300002 -0.044957221 1.4357591e-38 341 277
0.02673132 0.69300002 -0.044957221 1.435867e-38 342 277
0.027946379 0.69300002 -0.044957221 1.4451224e-38 343 277
0.029203519 0.69400001 -0.045022093 1.4450871e-38 344 277
0.030507999 0.69599998 -0.045151837 1.4450871e-38 345 277
0.031728316 0.69599998 -0.045151837 1.4358685e-38 346 277
0.032948639 0.69599998 -0.045151837 1.4451239e-38 347 277
0.034218054 0.69700003 -0.045216713 1.445196e-38 348 277
0.035490975 0.69800001 -0.045281585 1.4267568e-38 349 277
0.036819998 0.69999999 -0.04541133 1.4268642e-38 350 277
0.038101684 0.70099998 -0.045476202 1.4360837e-38 351 277
0.039330769 0.70099998 -0.045476202 1.4453757e-38 352 277
0.040675577 0.70300001 -0.04560595 1.4361562e-38 353 277
-0.028631933 0.70999998 -0.047304932 1.3348887e-38 297 278
-0.027309919 0.708 -0.047171678 1.3808035e-38 298 278
-0.025994917 0.70599997 -0.047038425 1.3439254e-38 299 278
-0.024651866 0.70300001 -0.046838548 1.3622569e-38 300 278
-0.023352645 0.70099998 -0.046705291 1.3438176e-38 301 278
-0.022091998 0.69999999 -0.046638668 1.36215e-38 302 278
-0.020864666 0.69999999 -0.046638668 1.3529303e-38 303 278
-0.019637333 0.69999999 -0.046638668 1.3253805e-38 304 278
-0.0183574 0.69800001 -0.046505414 1.334636e-38 305 278
-0.017109027 0.69700003 -0.046438783 1.3346007e-38 306 278
-0.015886955 0.69700003 -0.046438783 1.3438203e-38 307 278
-0.01466488 0.69700003 -0.046438783 1.3439643e-38 308 278
-0.013423519 0.69599998 -0.046372157 1.3624035e-38 309 278
-0.0122032 0.69599998 -0.046372157 1.353471e-38 310 278
-0.01095132 0.69400001 -0.046238903 1.3626906e-38 311 278
-0.0097345067 0.69400001 -0.046238903 1.3718733e-38 312 278
-0.0085054198 0.69300002 -0.04617228 1.3534342e-38 313 278
-0.0072903596 0.69300002 -0.04617228 1.380805e-38 314 278
-0.0060577663 0.69099998 -0.046039023 1.3531824e-38 315 278
-0.0048462129 0.69099998 -0.046039023 1.3531821e-38 316 278
-0.0036293997 0.69 -0.045972396 1.334743e-38 317 278
-0.0024195998 0.69 -0.045972396 1.389808e-38 318 278
-0.0012062934 0.68800002 -0.045839146 1.408283e-38 319 278
0 0.68800002 -0.045839146 1.3806966e-38 320 278
0.0012062934 0.68800002 -0.045839146 1.3990997e-38 321 278
0.0024125867 0.68800002 -0.045839146 1.399208e-38 322 278
0.0036188802 0.68800002 -0.045839146 1.4360502e-38 323 278
0.0048181596 0.68699998 -0.045772515 1.4821115e-38 324 278
0.0060226996 0.68699998 -0.045772515 1.5005506e-38 325 278
0.0072272392 0.68699998 -0.045772515 1.5189878e-38 326 278
0.0084317802 0.68699998 -0.045772515 1.4913291e-38 327 278
0.0096363192 0.68699998 -0.045772515 1.5369597e-38 328 278
0.010825079 0.68599999 -0.045705888 1.5185206e-38 329 278
0.012027865 0.68599999 -0.045705888 1.4908987e-38 330 278
0.013249939 0.68699998 -0.045772515 1.4540565e-38 331 278
0.014454478 0.68699998 -0.045772515 1.4539834e-38 332 278
0.015659019 0.68699998 -0.045772515 1.4355801e-38 333 278
0.016888106 0.68800002 -0.045839146 1.4173209e-38 334 278
0.0180944 0.68800002 -0.045839146 1.3988816e-38 335 278
0.019356798 0.69 -0.045972396 1.4354369e-38 336 278
0.020566599 0.69 -0.045972396 1.4446565e-38 337 278
0.021776399 0.69 -0.045972396 1.4172129e-38 338 278
0.022986198 0.69 -0.045972396 1.4356521e-38 339 278
0.024195999 0.69 -0.045972396 1.4174281e-38 340 278
0.025442619 0.69099998 -0.046039023 1.4174281e-38 341 278
0.026654173 0.69099998 -0.046039023 1.4266477e-38 342 278
0.027865725 0.69099998 -0.046039023 1.4358672e-38 343 278
0.029161438 0.69300002 -0.04617228 1.4174647e-38 344 278
0.030420333 0.69400001 -0.046238903 1.4266842e-38 345 278
0.031728316 0.69599998 -0.046372157 1.3991347e-38 346 278
0.032948639 0.69599998 -0.046372157 1.4083543e-38 347 278
0.034218054 0.69700003 -0.046438783 1.4083899e-38 348 278
0.035490975 0.69800001 -0.046505414 1.4176094e-38 349 278
0.036819998 0.69999999 -0.046638668 1.4176448e-38 350 278
0.038101684 0.70099998 -0.046705291 1.436084e-38 351 278
0.039330769 0.70099998 -0.046705291 1.4087496e-38 352 278
0.040675577 0.70300001 -0.046838548 1.39953e-38 353 278
0.041908171 0.70300001 -0.046838548 1.4552845e-38 354 278
-0.02979264 0.708 -0.048413038 1.2148186e-38 296 279
-0.02855128 0.708 -0.048413038 1.334637e-38 297 279
-0.027271347 0.70700002 -0.048344657 1.3805887e-38 298 279
-0.02592128 0.704 -0.048139516 1.35293e-38 299 279
-0.024651866 0.70300001 -0.048071139 1.3438179e-38 300 279
-0.023352645 0.70099998 -0.047934376 1.3161594e-38 301 279
-0.02202888 0.69800001 -0.047729239 1.3252357e-38 302 279
-0.020805053 0.69800001 -0.047729239 1.3252357e-38 303 279
-0.019581227 0.69800001 -0.047729239 1.3069766e-38 304 279
-0.018331099 0.69700003 -0.047660861 1.3069766e-38 305 279
-0.017109027 0.69700003 -0.047660861 1.3069413e-38 306 279
-0.015886955 0.69700003 -0.047660861 1.3253805e-38 307 279
-0.014643839 0.69599998 -0.047592476 1.3346723e-38 308 279
-0.013423519 0.69599998 -0.047592476 1.3438919e-38 309 279
-0.012168133 0.69400001 -0.047455717 1.3166281e-38 310 279
-0.01095132 0.69400001 -0.047455717 1.3350674e-38 311 279
-0.0097345067 0.69400001 -0.047455717 1.3351027e-38 312 279
-0.0085054198 0.69300002 -0.047387339 1.3351027e-38 313 279
-0.0072903596 0.69300002 -0.047387339 1.353254e-38 314 279
-0.0060577663 0.69099998 -0.047250576 1.3164117e-38 315 279
-0.0048462129 0.69099998 -0.047250576 1.3712615e-38 316 279
-0.0036188802 0.68800002 -0.047045439 1.3804812e-38 317 279
-0.0024125867 0.68800002 -0.047045439 1.3990278e-38 318 279
-0.0012062934 0.68800002 -0.047045439 1.3898082e-38 319 279
0 0.68800002 -0.047045439 1.4080676e-38 320 279
0.0012062934 0.68800002 -0.047045439 1.3712252e-38 321 279
0.0024125867 0.68800002 -0.047045439 1.4355465e-38 322 279
0.0036136196 0.68699998 -0.046977058 1.4724246e-38 323 279
0.0048181596 0.68699998 -0.046977058 1.4818591e-38 324 279
0.0060226996 0.68699998 -0.046977058 1.4911145e-38 325 279
0.0072272392 0.68699998 -0.046977058 1.5277039e-38 326 279
0.0084317802 0.68699998 -0.046977058 1.4631669e-38 327 279
0.0096222926 0.68599999 -0.046908677 1.5090489e-38 328 279
0.010825079 0.68599999 -0.046908677 1.4906458e-38 329 279
0.012027865 0.68599999 -0.046908677 1.4722075e-38 330 279
0.013249939 0.68699998 -0.046977058 1.4538044e-38 331 279
0.014454478 0.68699998 -0.046977058 1.4446921e-38 332 279
0.015659019 0.68699998 -0.046977058 1.4262529e-38 333 279
0.016888106 0.68800002 -0.047045439 1.4262524e-38 334 279
0.0180944 0.68800002 -0.047045439 1.4262524e-38 335 279
0.019300694 0.68800002 -0.047045439 1.3987369e-38 336 279
0.020506985 0.68800002 -0.047045439 1.417176e-38 337 279
0.021713281 0.68800002 -0.047045439 1.408136e-38 338 279
0.022986198 0.69 -0.047182199 1.4173915e-38 339 279
0.024195999 0.69 -0.047182199 1.408208e-38 340 279
0.025405798 0.69 -0.047182199 1.4174634e-38 341 279
0.026654173 0.69099998 -0.047250576 1.4266474e-38 342 279
0.027865725 0.69099998 -0.047250576 1.4174278e-38 343 279
0.029161438 0.69300002 -0.047387339 1.408173e-38 344 279
0.0303765 0.69300002 -0.047387339 1.408173e-38 345 279
0.031637147 0.69400001 -0.047455717 1.4081379e-38 346 279
0.032948639 0.69599998 -0.047592476 1.4173575e-38 347 279
0.034168959 0.69599998 -0.047592476 1.4173931e-38 348 279
0.035490975 0.69800001 -0.047729239 1.4450518e-38 349 279
0.036819998 0.69999999 -0.047865998 1.4176442e-38 350 279
0.038101684 0.70099998 -0.047934376 1.4268998e-38 351 279
0.039330769 0.70099998 -0.047934376 1.4362991e-38 352 279
0.040675577 0.70300001 -0.048071139 1.4270796e-38 353 279
0.041908171 0.70300001 -0.048071139 1.4369157e-38 354 279
0.043202132 0.704 -0.048139516 1.7319417e-38 355 279
-0.02979264 0.708 -0.049654398 1.2149978e-38 296 280
-0.02855128 0.708 -0.049654398 1.2703152e-38 297 280
-0.027271347 0.70700002 -0.049584266 1.2979003e-38 298 280
-0.02592128 0.704 -0.049373865 1.2886449e-38 299 280
-0.024581732 0.70099998 -0.049163464 1.3252713e-38 300 280
-0.023319334 0.69999999 -0.049093332 1.3160517e-38 301 280
-0.02202888 0.69800001 -0.048953064 1.2977568e-38 302 280
-0.020805053 0.69800001 -0.048953064 1.3069764e-38 303 280
-0.019553173 0.69700003 -0.048882935 1.2794259e-38 304 280
-0.018331099 0.69700003 -0.048882935 1.2886454e-38 305 280
-0.017084479 0.69599998 -0.048812799 1.2886464e-38 306 280
-0.015864158 0.69599998 -0.048812799 1.2886464e-38 307 280
-0.014643839 0.69599998 -0.048812799 1.2795354e-38 308 280
-0.013423519 0.69599998 -0.048812799 1.3071581e-38 309 280
-0.012168133 0.69400001 -0.048672531 1.2797871e-38 310 280
-0.01095132 0.69400001 -0.048672531 1.3074098e-38 311 280
-0.0097345067 0.69400001 -0.048672531 1.334924e-38 312 280
-0.0085054198 0.69300002 -0.048602402 1.3073013e-38 313 280
-0.0072903596 0.69300002 -0.048602402 1.288755e-38 314 280
-0.0060489997 0.69 -0.048391998 1.2518407e-38 315 280
-0.0048391996 0.69 -0.048391998 1.2976517e-38 316 280
-0.0036188802 0.68800002 -0.048251733 1.3068713e-38 317 280
-0.0024125867 0.68800002 -0.048251733 1.3255254e-38 318 280
-0.0012045399 0.68699998 -0.048181597 1.3163058e-38 319 280
0 0.68699998 -0.048181597 1.352608e-38 320 280
0.0012062934 0.68800002 -0.048251733 1.3341687e-38 321 280
0.0024090798 0.68699998 -0.048181597 1.3434603e-38 322 280
0.00360836 0.68599999 -0.048111461 1.4079972e-38 323 280
0.0048111463 0.68599999 -0.048111461 1.481537e-38 324 280
0.0060139326 0.68599999 -0.048111461 1.4723174e-38 325 280
0.0072167199 0.68599999 -0.048111461 1.4631331e-38 326 280
0.0084195063 0.68599999 -0.048111461 1.4262549e-38 327 280
0.0096222926 0.68599999 -0.048111461 1.4171428e-38 328 280
0.01079352 0.68400002 -0.0479712 1.4078874e-38 329 280
0.0119928 0.68400002 -0.0479712 1.4079227e-38 330 280
0.013230653 0.68599999 -0.048111461 1.4171422e-38 331 280
0.014454478 0.68699998 -0.048181597 1.3804072e-38 332 280
0.015659019 0.68699998 -0.048181597 1.3804072e-38 333 280
0.01686356 0.68699998 -0.048181597 1.380335e-38 334 280
0.0180944 0.68800002 -0.048251733 1.3711155e-38 335 280
0.019300694 0.68800002 -0.048251733 1.3711155e-38 336 280
0.020506985 0.68800002 -0.048251733 1.3895546e-38 337 280
0.021713281 0.68800002 -0.048251733 1.3713671e-38 338 280
0.022986198 0.69 -0.048391998 1.3805867e-38 339 280
0.024195999 0.69 -0.048391998 1.3805864e-38 340 280
0.025405798 0.69 -0.048391998 1.389842e-38 341 280
0.026615599 0.69 -0.048391998 1.389842e-38 342 280
0.027825398 0.69 -0.048391998 1.389842e-38 343 280
0.029077278 0.69099998 -0.04846213 1.3622199e-38 344 280
0.0303765 0.69300002 -0.048602402 1.3622199e-38 345 280
0.031637147 0.69400001 -0.048672531 1.343746e-38 346 280
0.032853961 0.69400001 -0.048672531 1.3621853e-38 347 280
0.034168959 0.69599998 -0.048812799 1.3622935e-38 348 280
0.035440128 0.69700003 -0.048882935 1.3807685e-38 349 280
0.036819998 0.69999999 -0.049093332 1.353397e-38 350 280
0.038101684 0.70099998 -0.049163464 1.3810556e-38 351 280
0.039330769 0.70099998 -0.049163464 1.3811998e-38 352 280
0.040675577 0.70300001 -0.049303733 1.3996749e-38 353 280
0.041908171 0.70300001 -0.049303733 1.400038e-38 354 280
0.043202132 0.704 -0.049373865 1.6489303e-38 355 280
0.044436477 0.704 -0.049373865 1.7606128e-38 356 280
-0.030946331 0.70599997 -0.050751984 9.9502687e-39 295 281
-0.029750559 0.70700002 -0.050823875 1.2424047e-38 296 281
-0.028510952 0.70700002 -0.050823875 1.2700635e-38 297 281
-0.027232772 0.70599997 -0.050751984 1.279389e-38 298 281
-0.025884461 0.70300001 -0.050536323 1.2701694e-38 299 281
-0.024581732 0.70099998 -0.050392549 1.2977202e-38 300 281
-0.023252707 0.69800001 -0.050176892 1.2977202e-38 301 281
-0.02202888 0.69800001 -0.050176892 1.2977568e-38 302 281
-0.020805053 0.69800001 -0.050176892 1.3069764e-38 303 281
-0.019553173 0.69700003 -0.050105009 1.2794977e-38 304 281
-0.018304799 0.69599998 -0.050033119 1.2887173e-38 305 281
-0.017084479 0.69599998 -0.050033119 1.2978297e-38 306 281
-0.015864158 0.69599998 -0.050033119 1.2978297e-38 307 281
-0.014643839 0.69599998 -0.050033119 1.2886467e-38 308 281
-0.013384946 0.69400001 -0.049889345 1.2886467e-38 309 281
-0.012168133 0.69400001 -0.049889345 1.2887547e-38 310 281
-0.01095132 0.69400001 -0.049889345 1.3071578e-38 311 281
-0.0097204801 0.69300002 -0.049817458 1.3161979e-38 312 281
-0.008480873 0.69099998 -0.049673684 1.2885751e-38 313 281
-0.0072587994 0.69 -0.049601797 1.2883234e-38 314 281
-0.0060489997 0.69 -0.049601797 1.2698483e-38 315 281
-0.0048391996 0.69 -0.049601797 1.2697767e-38 316 281
-0.0036188802 0.68800002 -0.049458027 1.2881798e-38 317 281
-0.0024125867 0.68800002 -0.049458027 1.2974344e-38 318 281
-0.0012045399 0.68699998 -0.049386136 1.3159095e-38 319 281
0 0.68699998 -0.049386136 1.3432072e-38 320 281
0.0012062934 0.68800002 -0.049458027 1.3155125e-38 321 281
0.0024090798 0.68699998 -0.049386136 1.3432788e-38 322 281
0.00360836 0.68599999 -0.049314249 1.3985962e-38 323 281
0.0048111463 0.68599999 -0.049314249 1.3988113e-38 324 281
0.0060139326 0.68599999 -0.049314249 1.3803363e-38 325 281
0.0072167199 0.68599999 -0.049314249 1.4169262e-38 326 281
0.0084195063 0.68599999 -0.049314249 1.4169262e-38 327 281
0.0096222926 0.68599999 -0.049314249 1.426181e-38 328 281
0.01079352 0.68400002 -0.049170479 1.4169256e-38 329 281
0.0119928 0.68400002 -0.049170479 1.4169612e-38 330 281
0.013230653 0.68599999 -0.049314249 1.4261808e-38 331 281
0.014454478 0.68699998 -0.049386136 1.3711155e-38 332 281
0.015659019 0.68699998 -0.049386136 1.3618958e-38 333 281
0.01686356 0.68699998 -0.049386136 1.3710432e-38 334 281
0.0180944 0.68800002 -0.049458027 1.3618236e-38 335 281
0.019300694 0.68800002 -0.049458027 1.3618233e-38 336 281
0.020506985 0.68800002 -0.049458027 1.3710788e-38 337 281
0.021713281 0.68800002 -0.049458027 1.3711871e-38 338 281
0.022986198 0.69 -0.049601797 1.3804066e-38 339 281
0.024195999 0.69 -0.049601797 1.37126e-38 340 281
0.025405798 0.69 -0.049601797 1.3896631e-38 341 281
0.026615599 0.69 -0.049601797 1.3897711e-38 342 281
0.027825398 0.69 -0.049601797 1.3897711e-38 343 281
0.029077278 0.69099998 -0.049673684 1.3530003e-38 344 281
0.0303765 0.69300002 -0.049817458 1.3345612e-38 345 281
0.031637147 0.69400001 -0.049889345 1.3620404e-38 346 281
0.032853961 0.69400001 -0.049889345 1.3620404e-38 347 281
0.034168959 0.69599998 -0.050033119 1.3530729e-38 348 281
0.035389278 0.69599998 -0.050033119 1.3807316e-38 349 281
0.0367148 0.69800001 -0.050176892 1.3808754e-38 350 281
0.038047329 0.69999999 -0.050320663 1.3900949e-38 351 281
0.039274666 0.69999999 -0.050320663 1.39953e-38 352 281
0.040675577 0.70300001 -0.050536323 1.4087496e-38 353 281
0.041908171 0.70300001 -0.050536323 1.3724866e-38 354 281
0.043202132 0.704 -0.050608214 1.6214148e-38 355 281
0.044436477 0.704 -0.050608214 1.7513933e-38 356 281
-0.030946331 0.70599997 -0.051989835 9.8573542e-39 295 282
-0.029708479 0.70599997 -0.051989835 1.1965587e-38 296 282
-0.028470624 0.70599997 -0.051989835 1.2057782e-38 297 282
-0.027155625 0.704 -0.051842559 1.2334352e-38 298 282
-0.025884461 0.70300001 -0.051768921 1.2426549e-38 299 282
-0.024581732 0.70099998 -0.051621638 1.2793534e-38 300 282
-0.023252707 0.69800001 -0.051400717 1.2977565e-38 301 282
-0.02202888 0.69800001 -0.051400717 1.307012e-38 302 282
-0.020805053 0.69800001 -0.051400717 1.3162315e-38 303 282
-0.019553173 0.69700003 -0.051327083 1.2979003e-38 304 282
-0.018304799 0.69599998 -0.051253434 1.3163034e-38 305 282
-0.017084479 0.69599998 -0.051253434 1.2979013e-38 306 282
-0.015818574 0.69400001 -0.051106159 1.2979013e-38 307 282
-0.01460176 0.69400001 -0.051106159 1.2703152e-38 308 282
-0.013384946 0.69400001 -0.051106159 1.2703152e-38 309 282
-0.012150601 0.69300002 -0.051032521 1.2427294e-38 310 282
-0.010935539 0.69300002 -0.051032521 1.2335098e-38 311 282
-0.0096924258 0.69099998 -0.050885238 1.2608452e-38 312 282
-0.0084686 0.69 -0.050811596 1.2332224e-38 313 282
-0.0072587994 0.69 -0.050811596 1.269812e-38 314 282
-0.0060314666 0.68800002 -0.050664321 1.251337e-38 315 282
-0.0048251734 0.68800002 -0.050664321 1.2237509e-38 316 282
-0.0036188802 0.68800002 -0.050664321 1.2237509e-38 317 282
-0.0024125867 0.68800002 -0.050664321 1.1870523e-38 318 282
-0.0012045399 0.68699998 -0.050590675 1.2054915e-38 319 282
0 0.68699998 -0.050590675 1.2696671e-38 320 282
0.0012045399 0.68699998 -0.050590675 1.2881063e-38 321 282
0.0024090798 0.68699998 -0.050590675 1.2881417e-38 322 282
0.00360836 0.68599999 -0.050517038 1.3249839e-38 323 282
0.0048111463 0.68599999 -0.050517038 1.3434587e-38 324 282
0.0060139326 0.68599999 -0.050517038 1.3434587e-38 325 282
0.0072167199 0.68599999 -0.050517038 1.3894117e-38 326 282
0.0083949603 0.68400002 -0.050369758 1.3710086e-38 327 282
0.0095942402 0.68400002 -0.050369758 1.3893747e-38 328 282
0.01079352 0.68400002 -0.050369758 1.3801551e-38 329 282
0.0119928 0.68400002 -0.050369758 1.3801551e-38 330 282
0.01319208 0.68400002 -0.050369758 1.3893747e-38 331 282
0.01443344 0.68599999 -0.050517038 1.3526406e-38 332 282
0.015659019 0.68699998 -0.050590675 1.3434211e-38 333 282
0.01686356 0.68699998 -0.050590675 1.3433492e-38 334 282
0.018068098 0.68699998 -0.050590675 1.3433492e-38 335 282
0.019272638 0.68699998 -0.050590675 1.3250533e-38 336 282
0.020477179 0.68699998 -0.050590675 1.3526759e-38 337 282
0.021713281 0.68800002 -0.050664321 1.343601e-38 338 282
0.022919573 0.68800002 -0.050664321 1.343601e-38 339 282
0.024195999 0.69 -0.050811596 1.3528927e-38 340 282
0.025405798 0.69 -0.050811596 1.3713318e-38 341 282
0.026615599 0.69 -0.050811596 1.3713674e-38 342 282
0.027825398 0.69 -0.050811596 1.380587e-38 343 282
0.029077278 0.69099998 -0.050885238 1.3530359e-38 344 282
0.0303765 0.69300002 -0.051032521 1.3438164e-38 345 282
0.031637147 0.69400001 -0.051106159 1.3528927e-38 346 282
0.032853961 0.69400001 -0.051106159 1.3621123e-38 347 282
0.034168959 0.69599998 -0.051253434 1.3438179e-38 348 282
0.035389278 0.69599998 -0.051253434 1.3622572e-38 349 282
0.0367148 0.69800001 -0.051400717 1.3532893e-38 350 282
0.038047329 0.69999999 -0.051547997 1.3625088e-38 351 282
0.039274666 0.69999999 -0.051547997 1.3719083e-38 352 282
0.040559858 0.70099998 -0.051621638 1.4180061e-38 353 282
0.041908171 0.70300001 -0.051768921 1.3907826e-38 354 282
0.043202132 0.704 -0.051842559 1.6304912e-38 355 282
0.044436477 0.704 -0.051842559 1.7329902e-38 356 282
-0.032184184 0.70599997 -0.053227689 1.0502003e-38 294 283
-0.030858666 0.704 -0.053076904 9.8566353e-39 295 283
-0.029624319 0.704 -0.053076904 1.1597883e-38 296 283
-0.028389972 0.704 -0.053076904 1.1597883e-38 297 283
-0.027155625 0.704 -0.053076904 1.2241082e-38 298 283
-0.025884461 0.70300001 -0.053001512 1.2333278e-38 299 283
-0.024546666 0.69999999 -0.052775331 1.2701692e-38 300 283
-0.023252707 0.69800001 -0.052624546 1.2977918e-38 301 283
-0.02199732 0.69700003 -0.052549154 1.307012e-38 302 283
-0.020775247 0.69700003 -0.052549154 1.3254511e-38 303 283
-0.019525118 0.69599998 -0.052473757 1.2979013e-38 304 283
-0.018304799 0.69599998 -0.052473757 1.2979013e-38 305 283
-0.017035386 0.69400001 -0.052322973 1.2887903e-38 306 283
-0.015818574 0.69400001 -0.052322973 1.2887903e-38 307 283
-0.01460176 0.69400001 -0.052322973 1.2703508e-38 308 283
-0.013384946 0.69400001 -0.052322973 1.2518758e-38 309 283
-0.012150601 0.69300002 -0.05224758 1.2426209e-38 310 283
-0.010935539 0.69300002 -0.05224758 1.2057785e-38 311 283
-0.0096924258 0.69099998 -0.052096792 1.2331851e-38 312 283
-0.0084686 0.69 -0.052021399 1.2055266e-38 313 283
-0.0072377604 0.68800002 -0.051870614 1.2514076e-38 314 283
-0.0060314666 0.68800002 -0.051870614 1.2329683e-38 315 283
-0.0048251734 0.68800002 -0.051870614 1.2328611e-38 316 283
-0.0036188802 0.68800002 -0.051870614 1.2236416e-38 317 283
-0.0024090798 0.68699998 -0.051795214 1.1592858e-38 318 283
-0.0012045399 0.68699998 -0.051795214 1.1685054e-38 319 283
0 0.68699998 -0.051795214 1.2236063e-38 320 283
0.0012045399 0.68699998 -0.051795214 1.2604486e-38 321 283
0.0024055731 0.68599999 -0.051719822 1.2605191e-38 322 283
0.00360836 0.68599999 -0.051719822 1.2789584e-38 323 283
0.0047971201 0.68400002 -0.051569041 1.3157999e-38 324 283
0.0059964 0.68400002 -0.051569041 1.3250195e-38 325 283
0.0071956799 0.68400002 -0.051569041 1.3618602e-38 326 283
0.0083949603 0.68400002 -0.051569041 1.3618602e-38 327 283
0.0095942402 0.68400002 -0.051569041 1.38941e-38 328 283
0.01079352 0.68400002 -0.051569041 1.370935e-38 329 283
0.0119928 0.68400002 -0.051569041 1.3708631e-38 330 283
0.01319208 0.68400002 -0.051569041 1.3708631e-38 331 283
0.01443344 0.68599999 -0.051719822 1.3617157e-38 332 283
0.015659019 0.68699998 -0.051795214 1.3617157e-38 333 283
0.01686356 0.68699998 -0.051795214 1.3341646e-38 334 283
0.018068098 0.68699998 -0.051795214 1.3341646e-38 335 283
0.019272638 0.68699998 -0.051795214 1.3158331e-38 336 283
0.020477179 0.68699998 -0.051795214 1.3434558e-38 337 283
0.021713281 0.68800002 -0.051870614 1.3343447e-38 338 283
0.022919573 0.68800002 -0.051870614 1.3435643e-38 339 283
0.024125867 0.68800002 -0.051870614 1.334489e-38 340 283
0.025405798 0.69 -0.052021399 1.3621476e-38 341 283
0.026615599 0.69 -0.052021399 1.362112e-38 342 283
0.027825398 0.69 -0.052021399 1.362112e-38 343 283
0.029077278 0.69099998 -0.052096792 1.3438164e-38 344 283
0.0303765 0.69300002 -0.05224758 1.3438164e-38 345 283
0.031637147 0.69400001 -0.052322973 1.3437808e-38 346 283
0.032853961 0.69400001 -0.052322973 1.3345612e-38 347 283
0.034168959 0.69599998 -0.052473757 1.3438176e-38 348 283
0.035389278 0.69599998 -0.052473757 1.3530373e-38 349 283
0.0367148 0.69800001 -0.052624546 1.3440694e-38 350 283
0.038047329 0.69999999 -0.052775331 1.3625086e-38 351 283
0.039330769 0.70099998 -0.052850723 1.3719436e-38 352 283
0.040559858 0.70099998 -0.052850723 1.4088218e-38 353 283
0.041908171 0.70300001 -0.053001512 1.4091847e-38 354 283
0.043202132 0.704 -0.053076904 1.6212346e-38 355 283
-0.032093015 0.704 -0.054311249 1.0317253e-38 294 284
-0.030858666 0.704 -0.054311249 1.0132862e-38 295 284
-0.029624319 0.704 -0.054311249 1.1230543e-38 296 284
-0.028389972 0.704 -0.054311249 1.1230543e-38 297 284
-0.027117053 0.70300001 -0.054234106 1.1965574e-38 298 284
-0.025884461 0.70300001 -0.054234106 1.2149605e-38 299 284
-0.024546666 0.69999999 -0.054002665 1.2610212e-38 300 284
-0.023252707 0.69800001 -0.053848371 1.2702408e-38 301 284
-0.02199732 0.69700003 -0.053771228 1.2977918e-38 302 284
-0.020775247 0.69700003 -0.053771228 1.2977918e-38 303 284
-0.019525118 0.69599998 -0.053694077 1.2793903e-38 304 284
-0.018304799 0.69599998 -0.053694077 1.2793903e-38 305 284
-0.017035386 0.69400001 -0.053539783 1.297722e-38 306 284
-0.015818574 0.69400001 -0.053539783 1.3069416e-38 307 284
-0.01460176 0.69400001 -0.053539783 1.270171e-38 308 284
-0.01336566 0.69300002 -0.053462639 1.2609155e-38 309 284
-0.012150601 0.69300002 -0.053462639 1.1965587e-38 310 284
-0.010935539 0.69300002 -0.053462639 1.1781195e-38 311 284
-0.0096924258 0.69099998 -0.053308345 1.1963419e-38 312 284
-0.0084686 0.69 -0.053231198 1.1779028e-38 313 284
-0.0072377604 0.68800002 -0.053076908 1.2329678e-38 314 284
-0.0060314666 0.68800002 -0.053076908 1.2053451e-38 315 284
-0.0048251734 0.68800002 -0.053076908 1.2144217e-38 316 284
-0.0036188802 0.68800002 -0.053076908 1.1959825e-38 317 284
-0.0024090798 0.68699998 -0.052999757 1.1500298e-38 318 284
-0.0012045399 0.68699998 -0.052999757 1.1407744e-38 319 284
0 0.68699998 -0.052999757 1.1775807e-38 320 284
0.0012027866 0.68599999 -0.05292261 1.1775807e-38 321 284
0.0024055731 0.68599999 -0.05292261 1.2143145e-38 322 284
0.00359784 0.68400002 -0.05276832 1.2511926e-38 323 284
0.0047971201 0.68400002 -0.05276832 1.2789218e-38 324 284
0.0059964 0.68400002 -0.05276832 1.3250195e-38 325 284
0.0071956799 0.68400002 -0.05276832 1.3526409e-38 326 284
0.0083826864 0.68300003 -0.052691177 1.3526409e-38 327 284
0.0095802136 0.68300003 -0.052691177 1.3709e-38 328 284
0.01077774 0.68300003 -0.052691177 1.3616804e-38 329 284
0.011975267 0.68300003 -0.052691177 1.3524243e-38 330 284
0.01319208 0.68400002 -0.05276832 1.3524243e-38 331 284
0.01443344 0.68599999 -0.05292261 1.3249451e-38 332 284
0.015659019 0.68699998 -0.052999757 1.3341646e-38 333 284
0.01686356 0.68699998 -0.052999757 1.3249448e-38 334 284
0.018068098 0.68699998 -0.052999757 1.3249448e-38 335 284
0.019272638 0.68699998 -0.052999757 1.3066136e-38 336 284
0.020477179 0.68699998 -0.052999757 1.3066136e-38 337 284
0.021713281 0.68800002 -0.053076908 1.3066504e-38 338 284
0.022919573 0.68800002 -0.053076908 1.31587e-38 339 284
0.024125867 0.68800002 -0.053076908 1.3160501e-38 340 284
0.025405798 0.69 -0.053231198 1.3252698e-38 341 284
0.026615599 0.69 -0.053231198 1.3252695e-38 342 284
0.027825398 0.69 -0.053231198 1.334489e-38 343 284
0.029161438 0.69300002 -0.053462639 1.3436363e-38 344 284
0.0303765 0.69300002 -0.053462639 1.3528559e-38 345 284
0.031637147 0.69400001 -0.053539783 1.3252698e-38 346 284
0.032853961 0.69400001 -0.053539783 1.3252698e-38 347 284
0.034168959 0.69599998 -0.053694077 1.3161947e-38 348 284
0.035389278 0.69599998 -0.053694077 1.3345978e-38 349 284
0.0367148 0.69800001 -0.053848371 1.3347777e-38 350 284
0.038047329 0.69999999 -0.054002665 1.3624723e-38 351 284
0.039274666 0.69999999 -0.054002665 1.3353168e-38 352 284
0.040559858 0.70099998 -0.054079808 1.3629755e-38 353 284
0.041788943 0.70099998 -0.054079808 1.399893e-38 354 284
0.043018032 0.70099998 -0.054079808 1.648821e-38 355 284
-0.032093015 0.704 -0.055545598 1.0960825e-38 294 285
-0.030858666 0.704 -0.055545598 1.0960825e-38 295 285
-0.029624319 0.704 -0.055545598 1.1231271e-38 296 285
-0.028349647 0.70300001 -0.0554667 1.1139076e-38 297 285
-0.027117053 0.70300001 -0.0554667 1.1690432e-38 298 285
-0.025810819 0.70099998 -0.055308893 1.1782628e-38 299 285
-0.024546666 0.69999999 -0.055229999 1.2333996e-38 300 285
-0.023252707 0.69800001 -0.0550722 1.2333996e-38 301 285
-0.021965759 0.69599998 -0.054914396 1.2609511e-38 302 285
-0.020745439 0.69599998 -0.054914396 1.2609511e-38 303 285
-0.019525118 0.69599998 -0.054914396 1.2332577e-38 304 285
-0.0182522 0.69400001 -0.054756597 1.2516609e-38 305 285
-0.017035386 0.69400001 -0.054756597 1.2332944e-38 306 285
-0.015818574 0.69400001 -0.054756597 1.2332944e-38 307 285
-0.01460176 0.69400001 -0.054756597 1.2516609e-38 308 285
-0.01336566 0.69300002 -0.054677699 1.2332577e-38 309 285
-0.012150601 0.69300002 -0.054677699 1.178084e-38 310 285
-0.010935539 0.69300002 -0.054677699 1.1412416e-38 311 285
-0.0096783992 0.69 -0.054440998 1.1686479e-38 312 285
-0.0084686 0.69 -0.054440998 1.1502448e-38 313 285
-0.0072377604 0.68800002 -0.054283202 1.1686113e-38 314 285
-0.0060314666 0.68800002 -0.054283202 1.1593917e-38 315 285
-0.0048251734 0.68800002 -0.054283202 1.1500648e-38 316 285
-0.0036188802 0.68800002 -0.054283202 1.1408453e-38 317 285
-0.0024125867 0.68800002 -0.054283202 1.1407378e-38 318 285
-0.0012045399 0.68699998 -0.054204296 1.1591409e-38 319 285
0 0.68699998 -0.054204296 1.1223353e-38 320 285
0.0012027866 0.68599999 -0.054125395 1.1407744e-38 321 285
0.0024055731 0.68599999 -0.054125395 1.1407028e-38 322 285
0.00359784 0.68400002 -0.053967599 1.1868006e-38 323 285
0.0047971201 0.68400002 -0.053967599 1.2146018e-38 324 285
0.0059964 0.68400002 -0.053967599 1.2606637e-38 325 285
0.0071956799 0.68400002 -0.053967599 1.3066883e-38 326 285
0.0083826864 0.68300003 -0.053888701 1.2974328e-38 327 285
0.0095802136 0.68300003 -0.053888701 1.334059e-38 328 285
0.01077774 0.68300003 -0.053888701 1.3248394e-38 329 285
0.011975267 0.68300003 -0.053888701 1.3248382e-38 330 285
0.01319208 0.68400002 -0.053967599 1.3248382e-38 331 285
0.01443344 0.68599999 -0.054125395 1.3065062e-38 332 285
0.015636226 0.68599999 -0.054125395 1.3065062e-38 333 285
0.01686356 0.68699998 -0.054204296 1.3065418e-38 334 285
0.018068098 0.68699998 -0.054204296 1.3065418e-38 335 285
0.019272638 0.68699998 -0.054204296 1.3156182e-38 336 285
0.020477179 0.68699998 -0.054204296 1.3156182e-38 337 285
0.021681719 0.68699998 -0.054204296 1.2789568e-38 338 285
0.022919573 0.68800002 -0.054283202 1.2881764e-38 339 285
0.024125867 0.68800002 -0.054283202 1.2792441e-38 340 285
0.025405798 0.69 -0.054440998 1.2792441e-38 341 285
0.026615599 0.69 -0.054440998 1.3068305e-38 342 285
0.027825398 0.69 -0.054440998 1.3160501e-38 343 285
0.029161438 0.69300002 -0.054677699 1.3252698e-38 344 285
0.0303765 0.69300002 -0.054677699 1.3160501e-38 345 285
0.031637147 0.69400001 -0.054756597 1.3160501e-38 346 285
0.032853961 0.69400001 -0.054756597 1.3252698e-38 347 285
0.034168959 0.69599998 -0.054914396 1.2976837e-38 348 285
0.035440128 0.69700003 -0.054993302 1.3345259e-38 349 285
0.0367148 0.69800001 -0.0550722 1.3072635e-38 350 285
0.038047329 0.69999999 -0.055229999 1.3441776e-38 351 285
0.039274666 0.69999999 -0.055229999 1.3076951e-38 352 285
0.040502001 0.69999999 -0.055229999 1.3630125e-38 353 285
0.041788943 0.70099998 -0.055308893 1.3906017e-38 354 285
0.043018032 0.70099998 -0.055308893 1.6855918e-38 355 285
-0.032093015 0.704 -0.056779943 1.142108e-38 294 286
-0.030814834 0.70300001 -0.056699295 1.142108e-38 295 286
-0.029582238 0.70300001 -0.056699295 1.1141594e-38 296 286
-0.028349647 0.70300001 -0.056699295 1.0956842e-38 297 286
-0.027117053 0.70300001 -0.056699295 1.1598599e-38 298 286
-0.025810819 0.70099998 -0.056537982 1.1414568e-38 299 286
-0.024546666 0.69999999 -0.056457333 1.2055969e-38 300 286
-0.023252707 0.69800001 -0.056296028 1.2148165e-38 301 286
-0.021965759 0.69599998 -0.056134716 1.2514792e-38 302 286
-0.020745439 0.69599998 -0.056134716 1.2422596e-38 303 286
-0.019525118 0.69599998 -0.056134716 1.2146737e-38 304 286
-0.0182522 0.69400001 -0.055973411 1.2054182e-38 305 286
-0.017035386 0.69400001 -0.055973411 1.2237859e-38 306 286
-0.015818574 0.69400001 -0.055973411 1.2514444e-38 307 286
-0.01460176 0.69400001 -0.055973411 1.2422246e-38 308 286
-0.01336566 0.69300002 -0.055892758 1.2422246e-38 309 286
-0.012150601 0.69300002 -0.055892758 1.1687558e-38 310 286
-0.01090398 0.69099998 -0.055731449 1.1410971e-38 311 286
-0.0096783992 0.69 -0.055650797 1.1683961e-38 312 286
-0.0084440531 0.68800002 -0.055489492 1.1591765e-38 313 286
-0.0072377604 0.68800002 -0.055489492 1.1683239e-38 314 286
-0.0060314666 0.68800002 -0.055489492 1.1683239e-38 315 286
-0.0048251734 0.68800002 -0.055489492 1.1591399e-38 316 286
-0.0036188802 0.68800002 -0.055489492 1.1591399e-38 317 286
-0.0024125867 0.68800002 -0.055489492 1.1408803e-38 318 286
-0.0012045399 0.68699998 -0.055408835 1.1316608e-38 319 286
0 0.68699998 -0.055408835 1.1316254e-38 320 286
0.0012027866 0.68599999 -0.055328183 1.1224059e-38 321 286
0.0024055731 0.68599999 -0.055328183 1.1498495e-38 322 286
0.00359784 0.68400002 -0.055166878 1.1683245e-38 323 286
0.0047971201 0.68400002 -0.055166878 1.223641e-38 324 286
0.0059964 0.68400002 -0.055166878 1.242116e-38 325 286
0.0071851597 0.68300003 -0.055086225 1.297253e-38 326 286
0.0083826864 0.68300003 -0.055086225 1.297253e-38 327 286
0.0095802136 0.68300003 -0.055086225 1.3154757e-38 328 286
0.01077774 0.68300003 -0.055086225 1.3338788e-38 329 286
0.011975267 0.68300003 -0.055086225 1.3155463e-38 330 286
0.01319208 0.68400002 -0.055166878 1.3339494e-38 331 286
0.01439136 0.68400002 -0.055166878 1.3156532e-38 332 286
0.015636226 0.68599999 -0.055328183 1.3156532e-38 333 286
0.01686356 0.68699998 -0.055408835 1.3339844e-38 334 286
0.018068098 0.68699998 -0.055408835 1.3063618e-38 335 286
0.019272638 0.68699998 -0.055408835 1.3063267e-38 336 286
0.020477179 0.68699998 -0.055408835 1.2971072e-38 337 286
0.021681719 0.68699998 -0.055408835 1.2971435e-38 338 286
0.022919573 0.68800002 -0.055489492 1.306363e-38 339 286
0.024125867 0.68800002 -0.055489492 1.2698796e-38 340 286
0.025405798 0.69 -0.055650797 1.2790994e-38 341 286
0.026615599 0.69 -0.055650797 1.325053e-38 342 286
0.027825398 0.69 -0.055650797 1.325053e-38 343 286
0.029161438 0.69300002 -0.055892758 1.3251965e-38 344 286
0.030420333 0.69400001 -0.055973411 1.334416e-38 345 286
0.031637147 0.69400001 -0.055973411 1.3344163e-38 346 286
0.032853961 0.69400001 -0.055973411 1.3251967e-38 347 286
0.034168959 0.69599998 -0.056134716 1.2884987e-38 348 286
0.035440128 0.69700003 -0.056215372 1.2977183e-38 349 286
0.0367148 0.69800001 -0.056296028 1.3163372e-38 350 286
0.038047329 0.69999999 -0.056457333 1.3623991e-38 351 286
0.039274666 0.69999999 -0.056457333 1.3536114e-38 352 286
0.040502001 0.69999999 -0.056457333 1.362831e-38 353 286
0.041729331 0.69999999 -0.056457333 1.3907813e-38 354 286
0.042956665 0.69999999 -0.056457333 1.713466e-38 355 286
-0.032093015 0.704 -0.058014292 1.2066449e-38 294 287
-0.030814834 0.70300001 -0.057931885 1.1513634e-38 295 287
-0.029582238 0.70300001 -0.057931885 1.1602568e-38 296 287
-0.028349647 0.70300001 -0.057931885 1.1141591e-38 297 287
-0.027039904 0.70099998 -0.057767071 1.1598602e-38 298 287
-0.025810819 0.70099998 -0.057767071 1.1229821e-38 299 287
-0.024476532 0.69800001 -0.057519849 1.1596084e-38 300 287
-0.023219392 0.69700003 -0.05743745 1.1319498e-38 301 287
-0.02199732 0.69700003 -0.05743745 1.1503532e-38 302 287
-0.020745439 0.69599998 -0.057355035 1.1319501e-38 303 287
-0.019525118 0.69599998 -0.057355035 1.1410262e-38 304 287
-0.0182522 0.69400001 -0.057190225 1.1410262e-38 305 287
-0.017035386 0.69400001 -0.057190225 1.1226602e-38 306 287
-0.015818574 0.69400001 -0.057190225 1.1318798e-38 307 287
-0.01460176 0.69400001 -0.057190225 1.1594659e-38 308 287
-0.01336566 0.69300002 -0.057107817 1.1686854e-38 309 287
-0.012115533 0.69099998 -0.056942999 1.1777958e-38 310 287
-0.01090398 0.69099998 -0.056942999 1.1408816e-38 311 287
-0.0096783992 0.69 -0.0568606 1.1407381e-38 312 287
-0.0084440531 0.68800002 -0.056695789 1.1315185e-38 313 287
-0.0072377604 0.68800002 -0.056695789 1.1040037e-38 314 287
-0.0060314666 0.68800002 -0.056695789 1.1040037e-38 315 287
-0.0048251734 0.68800002 -0.056695789 1.1040741e-38 316 287
-0.0036188802 0.68800002 -0.056695789 1.1225491e-38 317 287
-0.0024125867 0.68800002 -0.056695789 1.1133292e-38 318 287
-0.0012062934 0.68800002 -0.056695789 1.1041097e-38 319 287
0 0.68699998 -0.056613375 1.1132942e-38 320 287
0.0012027866 0.68599999 -0.056530971 1.1040388e-38 321 287
0.0024055731 0.68599999 -0.056530971 1.1040037e-38 322 287
0.00359784 0.68400002 -0.056366164 1.1408819e-38 323 287
0.0047971201 0.68400002 -0.056366164 1.1318066e-38 324 287
0.0059964 0.68400002 -0.056366164 1.1502816e-38 325 287
0.0071851597 0.68300003 -0.056283753 1.2146015e-38 326 287
0.0083826864 0.68300003 -0.056283753 1.2146015e-38 327 287
0.0095802136 0.68300003 -0.056283753 1.2604825e-38 328 287
0.01077774 0.68300003 -0.056283753 1.2604825e-38 329 287
0.011975267 0.68300003 -0.056283753 1.2880318e-38 330 287
0.01319208 0.68400002 -0.056366164 1.2972514e-38 331 287
0.01439136 0.68400002 -0.056366164 1.2880671e-38 332 287
0.01559064 0.68400002 -0.056366164 1.2880671e-38 333 287
0.016839013 0.68599999 -0.056530971 1.2788119e-38 334 287
0.018041799 0.68599999 -0.056530971 1.2695924e-38 335 287
0.019272638 0.68699998 -0.056613375 1.2695571e-38 336 287
0.020477179 0.68699998 -0.056613375 1.2788125e-38 337 287
0.021681719 0.68699998 -0.056613375 1.2512977e-38 338 287
0.022919573 0.68800002 -0.056695789 1.2605173e-38 339 287
0.024125867 0.68800002 -0.056695789 1.2605892e-38 340 287
0.025405798 0.69 -0.0568606 1.2790643e-38 341 287
0.026615599 0.69 -0.0568606 1.2607694e-38 342 287
0.027865725 0.69099998 -0.056942999 1.269989e-38 343 287
0.029161438 0.69300002 -0.057107817 1.2792441e-38 344 287
0.030420333 0.69400001 -0.057190225 1.2884637e-38 345 287
0.031637147 0.69400001 -0.057190225 1.2884634e-38 346 287
0.032853961 0.69400001 -0.057190225 1.2792438e-38 347 287
0.034168959 0.69599998 -0.057355035 1.2702041e-38 348 287
