# .PCD v.7 - Point Cloud Data file format
FIELDS x y z rgb imX imY
SIZE 4 4 4 4 4 4
TYPE F F F F F F
COUNT 1 1 1 1 1 1
WIDTH 829
HEIGHT 1
VIEWPOINT 0 0 0 1 0 0 0
POINTS 829
DATA ascii
0.0086404262 0.704 0.0086404262 1.4264277e-38 327 233
-0.030814834 0.70300001 0.0073955595 1.5649722e-38 295 234
-0.029582238 0.70300001 0.0073955595 1.5834091e-38 296 234
-0.028349647 0.70300001 0.0073955595 1.6018484e-38 297 234
-0.027117053 0.70300001 0.0073955595 1.6571656e-38 298 234
-0.025884461 0.70300001 0.0073955595 1.6663853e-38 299 234
-0.024686933 0.704 0.0074060797 1.7398568e-38 300 234
-0.023419274 0.70300001 0.0073955595 1.9242122e-38 301 234
-0.02218668 0.70300001 0.0073955595 1.7958223e-38 302 234
-0.020954086 0.70300001 0.0073955595 1.758944e-38 303 234
-0.019721493 0.70300001 0.0073955595 1.7313904e-38 304 234
-0.018488899 0.70300001 0.0073955595 1.6761089e-38 305 234
-0.017207211 0.70099998 0.0073745195 1.703586e-38 306 234
-0.015955333 0.69999999 0.0073639993 1.6943664e-38 307 234
-0.014727999 0.69999999 0.0073639993 1.7402493e-38 308 234
-0.013500666 0.69999999 0.0073639993 1.7218103e-38 309 234
-0.012238266 0.69800001 0.0073429602 1.7215253e-38 310 234
-0.01101444 0.69800001 0.0073429602 1.7399646e-38 311 234
-0.0097906133 0.69800001 0.0073429602 1.7492931e-38 312 234
-0.0085667865 0.69800001 0.0073429602 1.7492931e-38 313 234
-0.0073429602 0.69800001 0.0073429602 1.6940122e-38 314 234
-0.006119133 0.69800001 0.0073429602 1.6663894e-38 315 234
-0.0048953067 0.69800001 0.0073429602 1.6756443e-38 316 234
-0.0036714801 0.69800001 0.0073429602 1.6664247e-38 317 234
-0.0024476533 0.69800001 0.0073429602 1.6389437e-38 318 234
-0.0012238267 0.69800001 0.0073429602 1.5928099e-38 319 234
0 0.69800001 0.0073429602 1.6108164e-38 320 234
0.0012273333 0.69999999 0.0073639993 1.6015968e-38 321 234
0.0024581731 0.70099998 0.0073745195 1.5649354e-38 322 234
0.0036872597 0.70099998 0.0073745195 1.5464962e-38 323 234
0.0049163462 0.70099998 0.0073745195 1.5278054e-38 324 234
0.0061454331 0.70099998 0.0073745195 1.4724889e-38 325 234
0.0073955595 0.70300001 0.0073955595 1.4447948e-38 326 234
0.0086281532 0.70300001 0.0073955595 1.4540142e-38 327 234
0.0098607466 0.70300001 0.0073955595 1.3711841e-38 328 234
-0.033280019 0.70300001 0.0061629666 1.5557174e-38 293 235
-0.031956252 0.70099998 0.0061454331 1.6108879e-38 294 235
-0.030727165 0.70099998 0.0061454331 1.6201432e-38 295 235
-0.029498078 0.70099998 0.0061454331 1.6201432e-38 296 235
-0.028268991 0.70099998 0.0061454331 1.6478373e-38 297 235
-0.027039904 0.70099998 0.0061454331 1.6479105e-38 298 235
-0.025810819 0.70099998 0.0061454331 1.65713e-38 299 235
-0.024546666 0.69999999 0.0061366665 1.6939392e-38 300 235
-0.023319334 0.69999999 0.0061366665 1.8137576e-38 301 235
-0.022123558 0.70099998 0.0061454331 1.7496529e-38 302 235
-0.020864666 0.69999999 0.0061366665 1.7312137e-38 303 235
-0.019637333 0.69999999 0.0061366665 1.7219919e-38 304 235
-0.018436298 0.70099998 0.0061454331 1.7127724e-38 305 235
-0.017133573 0.69800001 0.006119133 1.7219891e-38 306 235
-0.015909746 0.69800001 0.006119133 1.7219891e-38 307 235
-0.01468592 0.69800001 0.006119133 1.7219531e-38 308 235
-0.013442807 0.69700003 0.0061103669 1.6942584e-38 309 235
-0.012220734 0.69700003 0.0061103669 1.7122306e-38 310 235
-0.01099866 0.69700003 0.0061103669 1.7122306e-38 311 235
-0.0097765867 0.69700003 0.0061103669 1.6940796e-38 312 235
-0.0085545136 0.69700003 0.0061103669 1.7124827e-38 313 235
-0.00733244 0.69700003 0.0061103669 1.6480191e-38 314 235
-0.0061103669 0.69700003 0.0061103669 1.6295439e-38 315 235
-0.0048882933 0.69700003 0.0061103669 1.6570953e-38 316 235
-0.00366622 0.69700003 0.0061103669 1.6755345e-38 317 235
-0.0024441467 0.69700003 0.0061103669 1.6573102e-38 318 235
-0.0012238267 0.69800001 0.006119133 1.6112483e-38 319 235
0 0.69800001 0.006119133 1.6111031e-38 320 235
0.0012238267 0.69800001 0.006119133 1.5650419e-38 321 235
0.0024546667 0.69999999 0.0061366665 1.5648984e-38 322 235
0.0036819996 0.69999999 0.0061366665 1.537276e-38 323 235
0.0049093333 0.69999999 0.0061366665 1.5461725e-38 324 235
0.0061366665 0.69999999 0.0061366665 1.5092949e-38 325 235
0.0073745195 0.70099998 0.0061454331 1.4448306e-38 326 235
0.0086036054 0.70099998 0.0061454331 1.3803306e-38 327 235
0.0098607466 0.70300001 0.0061629666 1.3433824e-38 328 235
0.01109334 0.70300001 0.0061629666 1.3710409e-38 329 235
-0.035796054 0.704 0.0049373866 1.5190206e-38 291 236
-0.034561705 0.704 0.0049373866 1.6200723e-38 292 236
-0.033280019 0.70300001 0.0049303733 1.6108527e-38 293 236
-0.031956252 0.70099998 0.0049163462 1.620179e-38 294 236
-0.030683333 0.69999999 0.0049093333 1.6293985e-38 295 236
-0.029455997 0.69999999 0.0049093333 1.6477656e-38 296 236
-0.028228667 0.69999999 0.0049093333 1.656985e-38 297 236
-0.027001332 0.69999999 0.0049093333 1.656985e-38 298 236
-0.025773998 0.69999999 0.0049093333 1.6385103e-38 299 236
-0.024476532 0.69800001 0.0048953067 1.6846812e-38 300 236
-0.023219392 0.69700003 0.0048882933 1.7308149e-38 301 236
-0.02199732 0.69700003 0.0048882933 1.6941554e-38 302 236
-0.020805053 0.69800001 0.0048953067 1.7310335e-38 303 236
-0.019581227 0.69800001 0.0048953067 1.7126667e-38 304 236
-0.0183574 0.69800001 0.0048953067 1.7218864e-38 305 236
-0.017109027 0.69700003 0.0048882933 1.7220272e-38 306 236
-0.015886955 0.69700003 0.0048882933 1.7128077e-38 307 236
-0.014643839 0.69599998 0.0048812795 1.7126629e-38 308 236
-0.013423519 0.69599998 0.0048812795 1.6941878e-38 309 236
-0.0122032 0.69599998 0.0048812795 1.7031562e-38 310 236
-0.010982879 0.69599998 0.0048812795 1.7031562e-38 311 236
-0.0097625591 0.69599998 0.0048812795 1.6940446e-38 312 236
-0.0085422397 0.69599998 0.0048812795 1.684825e-38 313 236
-0.0073219193 0.69599998 0.0048812795 1.6570953e-38 314 236
-0.0061015999 0.69599998 0.0048812795 1.6570953e-38 315 236
-0.0048812795 0.69599998 0.0048812795 1.6386938e-38 316 236
-0.00366622 0.69700003 0.0048882933 1.657133e-38 317 236
-0.0024441467 0.69700003 0.0048882933 1.6389455e-38 318 236
-0.0012220733 0.69700003 0.0048882933 1.6112509e-38 319 236
0 0.69700003 0.0048882933 1.6112495e-38 320 236
0.0012238267 0.69800001 0.0048953067 1.537493e-38 321 236
0.0024476533 0.69800001 0.0048953067 1.5557158e-38 322 236
0.0036714801 0.69800001 0.0048953067 1.5003984e-38 323 236
0.0048953067 0.69800001 0.0048953067 1.5093307e-38 324 236
0.006119133 0.69800001 0.0048953067 1.4909278e-38 325 236
0.0073639993 0.69999999 0.0049093333 1.4447948e-38 326 236
0.0086036054 0.70099998 0.0049163462 1.3802588e-38 327 236
0.0098326923 0.70099998 0.0049163462 1.3157946e-38 328 236
0.011061779 0.70099998 0.0049163462 1.3803306e-38 329 236
0.012325933 0.70300001 0.0049303733 1.2794567e-38 330 236
0.01489632 0.708 0.0049654399 1.2149572e-38 332 236
0.01613768 0.708 0.0049654399 1.2518353e-38 333 236
-0.036977798 0.70300001 0.0036977797 1.5097266e-38 290 237
-0.035745207 0.70300001 0.0036977797 1.5374212e-38 291 237
-0.034512613 0.70300001 0.0036977797 1.610888e-38 292 237
-0.03318534 0.70099998 0.0036872597 1.6478023e-38 293 237
-0.031910665 0.69999999 0.0036819996 1.6847514e-38 294 237
-0.030683333 0.69999999 0.0036819996 1.6663483e-38 295 237
-0.029455997 0.69999999 0.0036819996 1.6754956e-38 296 237
-0.028148014 0.69800001 0.0036714801 1.6662762e-38 297 237
-0.026924185 0.69800001 0.0036714801 1.6662044e-38 298 237
-0.025700359 0.69800001 0.0036714801 1.656985e-38 299 237
-0.024441468 0.69700003 0.00366622 1.6661688e-38 300 237
-0.023119451 0.69400001 0.0036504399 1.7122306e-38 301 237
-0.021902639 0.69400001 0.0036504399 1.7123054e-38 302 237
-0.020685827 0.69400001 0.0036504399 1.7307446e-38 303 237
-0.019469013 0.69400001 0.0036504399 1.7309979e-38 304 237
-0.0182522 0.69400001 0.0036504399 1.7679122e-38 305 237
-0.017035386 0.69400001 0.0036504399 1.7312119e-38 306 237
-0.015818574 0.69400001 0.0036504399 1.7127726e-38 307 237
-0.01460176 0.69400001 0.0036504399 1.7218474e-38 308 237
-0.013384946 0.69400001 0.0036504399 1.6941527e-38 309 237
-0.012150601 0.69300002 0.0036451798 1.7033004e-38 310 237
-0.010935539 0.69300002 0.0036451798 1.7033004e-38 311 237
-0.0097345067 0.69400001 0.0036504399 1.6757499e-38 312 237
-0.0085176928 0.69400001 0.0036504399 1.6665304e-38 313 237
-0.0073008798 0.69400001 0.0036504399 1.638729e-38 314 237
-0.0060840664 0.69400001 0.0036504399 1.620254e-38 315 237
-0.0048812795 0.69599998 0.0036609597 1.5927398e-38 316 237
-0.00366622 0.69700003 0.00366622 1.6111791e-38 317 237
-0.0024441467 0.69700003 0.00366622 1.6112509e-38 318 237
-0.0012220733 0.69700003 0.00366622 1.5928478e-38 319 237
0 0.69700003 0.00366622 1.5745155e-38 320 237
0.0012220733 0.69700003 0.00366622 1.4915754e-38 321 237
0.0024441467 0.69700003 0.00366622 1.5189452e-38 322 237
0.00366622 0.69700003 0.00366622 1.4728118e-38 323 237
0.0048882933 0.69700003 0.00366622 1.5093666e-38 324 237
0.0061103669 0.69700003 0.00366622 1.4817083e-38 325 237
0.0073429602 0.69800001 0.0036714801 1.4725248e-38 326 237
0.0085913334 0.69999999 0.0036819996 1.4264635e-38 327 237
0.0098186666 0.69999999 0.0036819996 1.3438116e-38 328 237
0.011045999 0.69999999 0.0036819996 1.3806893e-38 329 237
0.012290866 0.70099998 0.0036872597 1.3898372e-38 330 237
0.013577812 0.704 0.0037030398 1.3990927e-38 331 237
0.01487528 0.70700002 0.0037188199 1.3805476e-38 332 237
0.01613768 0.708 0.00372408 1.3436694e-38 333 237
0.017379038 0.708 0.00372408 1.3346681e-38 334 237
-0.036977798 0.70300001 0.0024651866 1.5740468e-38 290 238
-0.035745207 0.70300001 0.0024651866 1.5925218e-38 291 238
-0.034365334 0.69999999 0.0024546667 1.6110326e-38 292 238
-0.033137999 0.69999999 0.0024546667 1.66635e-38 293 238
-0.031910665 0.69999999 0.0024546667 1.68486e-38 294 238
-0.030595668 0.69800001 0.0024476533 1.6940796e-38 295 238
-0.029371841 0.69800001 0.0024476533 1.6757108e-38 296 238
-0.028107686 0.69700003 0.0024441467 1.6757108e-38 297 238
-0.026885614 0.69700003 0.0024441467 1.6480167e-38 298 238
-0.025626717 0.69599998 0.0024406398 1.6203943e-38 299 238
-0.0244064 0.69599998 0.0024406398 1.6568065e-38 300 238
-0.02308614 0.69300002 0.00243012 1.6936846e-38 301 238
-0.021871079 0.69300002 0.00243012 1.6754645e-38 302 238
-0.020656019 0.69300002 0.00243012 1.7123067e-38 303 238
-0.01944096 0.69300002 0.00243012 1.7033771e-38 304 238
-0.018225901 0.69300002 0.00243012 1.749439e-38 305 238
-0.01701084 0.69300002 0.00243012 1.7404333e-38 306 238
-0.015795778 0.69300002 0.00243012 1.7219583e-38 307 238
-0.014580719 0.69300002 0.00243012 1.7403222e-38 308 238
-0.01336566 0.69300002 0.00243012 1.7218472e-38 309 238
-0.012150601 0.69300002 0.00243012 1.740214e-38 310 238
-0.010935539 0.69300002 0.00243012 1.7494336e-38 311 238
-0.0097204801 0.69300002 0.00243012 1.7033727e-38 312 238
-0.0085054198 0.69300002 0.00243012 1.6665304e-38 313 238
-0.0073008798 0.69400001 0.0024336267 1.6478401e-38 314 238
-0.0060840664 0.69400001 0.0024336267 1.629437e-38 315 238
-0.0048672534 0.69400001 0.0024336267 1.5927751e-38 316 238
-0.0036609597 0.69599998 0.0024406398 1.6112142e-38 317 238
-0.0024406398 0.69599998 0.0024406398 1.5744805e-38 318 238
-0.0012203199 0.69599998 0.0024406398 1.5837002e-38 319 238
0 0.69599998 0.0024406398 1.5560045e-38 320 238
0.0012203199 0.69599998 0.0024406398 1.5006871e-38 321 238
0.0024441467 0.69700003 0.0024441467 1.5188371e-38 322 238
0.00366622 0.69700003 0.0024441467 1.4911789e-38 323 238
0.0048882933 0.69700003 0.0024441467 1.4726683e-38 324 238
0.0061103669 0.69700003 0.0024441467 1.4634489e-38 325 238
0.0073429602 0.69800001 0.0024476533 1.4543012e-38 326 238
0.0085667865 0.69800001 0.0024476533 1.4358982e-38 327 238
0.0097906133 0.69800001 0.0024476533 1.4266788e-38 328 238
0.01101444 0.69800001 0.0024476533 1.4266788e-38 329 238
0.012273333 0.69999999 0.0024546667 1.4359341e-38 330 238
0.013500666 0.69999999 0.0024546667 1.4359341e-38 331 238
0.014812159 0.704 0.0024686933 1.4266788e-38 332 238
0.016092092 0.70599997 0.0024757064 1.4082399e-38 333 238
0.017354494 0.70700002 0.0024792133 1.3622883e-38 334 238
-0.038264744 0.704 0.0012343467 1.5097647e-38 289 239
-0.036977798 0.70300001 0.0012325933 1.5740823e-38 290 239
-0.035745207 0.70300001 0.0012325933 1.6201443e-38 291 239
-0.034365334 0.69999999 0.0012273333 1.6385837e-38 292 239
-0.033137999 0.69999999 0.0012273333 1.7123761e-38 293 239
-0.031819493 0.69800001 0.0012238267 1.6757499e-38 294 239
-0.030595668 0.69800001 0.0012238267 1.694153e-38 295 239
-0.02932976 0.69700003 0.0012220733 1.6665304e-38 296 239
-0.028067358 0.69599998 0.0012203199 1.6480554e-38 297 239
-0.026847038 0.69599998 0.0012203199 1.6479835e-38 298 239
-0.025553079 0.69400001 0.0012168133 1.6295442e-38 299 239
-0.024336265 0.69400001 0.0012168133 1.6476588e-38 300 239
-0.02308614 0.69300002 0.00121506 1.6568783e-38 301 239
-0.021871079 0.69300002 0.00121506 1.6753902e-38 302 239
-0.020656019 0.69300002 0.00121506 1.6938295e-38 303 239
-0.019384852 0.69099998 0.0012115532 1.6939039e-38 304 239
-0.0181733 0.69099998 0.0012115532 1.7584408e-38 305 239
-0.016961746 0.69099998 0.0012115532 1.7406495e-38 306 239
-0.015750192 0.69099998 0.0012115532 1.685368e-38 307 239
-0.014538639 0.69099998 0.0012115532 1.7220292e-38 308 239
-0.01336566 0.69300002 0.00121506 1.7127736e-38 309 239
-0.012150601 0.69300002 0.00121506 1.7403237e-38 310 239
-0.010935539 0.69300002 0.00121506 1.758763e-38 311 239
-0.0097204801 0.69300002 0.00121506 1.6942979e-38 312 239
-0.0085054198 0.69300002 0.00121506 1.6574197e-38 313 239
-0.0072903596 0.69300002 0.00121506 1.6112142e-38 314 239
-0.0060753003 0.69300002 0.00121506 1.6019947e-38 315 239
-0.00486024 0.69300002 0.00121506 1.5744433e-38 316 239
-0.0036504399 0.69400001 0.0012168133 1.5836988e-38 317 239
-0.0024336267 0.69400001 0.0012168133 1.5562196e-38 318 239
-0.0012168133 0.69400001 0.0012168133 1.5377446e-38 319 239
0 0.69400001 0.0012168133 1.5468197e-38 320 239
0.0012168133 0.69400001 0.0012168133 1.4638795e-38 321 239
0.0024336267 0.69400001 0.0012168133 1.4912865e-38 322 239
0.0036609597 0.69599998 0.0012203199 1.4544447e-38 323 239
0.0048812795 0.69599998 0.0012203199 1.4634847e-38 324 239
0.0061015999 0.69599998 0.0012203199 1.4542294e-38 325 239
0.00733244 0.69700003 0.0012220733 1.4542294e-38 326 239
0.0085545136 0.69700003 0.0012220733 1.4542294e-38 327 239
0.0097906133 0.69800001 0.0012238267 1.4360058e-38 328 239
0.01101444 0.69800001 0.0012238267 1.4360058e-38 329 239
0.012238266 0.69800001 0.0012238267 1.4268584e-38 330 239
0.013462093 0.69800001 0.0012238267 1.4176387e-38 331 239
0.014749039 0.70099998 0.0012290865 1.4176391e-38 332 239
0.016046507 0.704 0.0012343467 1.4083836e-38 333 239
0.017329946 0.70599997 0.0012378532 1.3441366e-38 334 239
0.018594101 0.70700002 0.0012396066 1.3072224e-38 335 239
0.01986176 0.708 0.00124136 1.2152151e-38 336 239
-0.038101684 0.70099998 -0 1.5740468e-38 289 240
-0.036819998 0.69999999 -0 1.5925571e-38 290 240
-0.035592664 0.69999999 -0 1.6293994e-38 291 240
-0.034365334 0.69999999 -0 1.6388355e-38 292 240
-0.033043321 0.69800001 -0 1.6665301e-38 293 240
-0.031819493 0.69800001 -0 1.6482004e-38 294 240
-0.030595668 0.69800001 -0 1.6482004e-38 295 240
-0.02932976 0.69700003 -0 1.6389089e-38 296 240
-0.028067358 0.69599998 -0 1.6296535e-38 297 240
-0.026847038 0.69599998 -0 1.6388711e-38 298 240
-0.025553079 0.69400001 -0 1.5927733e-38 299 240
-0.024336265 0.69400001 -0 1.6568433e-38 300 240
-0.023019511 0.69099998 -0 1.6568433e-38 301 240
-0.021807959 0.69099998 -0 1.6294385e-38 302 240
-0.020596405 0.69099998 -0 1.6571332e-38 303 240
-0.019384852 0.69099998 -0 1.6386938e-38 304 240
-0.0181733 0.69099998 -0 1.6847556e-38 305 240
-0.016961746 0.69099998 -0 1.6853327e-38 306 240
-0.015750192 0.69099998 -0 1.6945523e-38 307 240
-0.014538639 0.69099998 -0 1.7312147e-38 308 240
-0.013327086 0.69099998 -0 1.7128116e-38 309 240
-0.012115533 0.69099998 -0 1.6942976e-38 310 240
-0.01090398 0.69099998 -0 1.6574553e-38 311 240
-0.0097204801 0.69300002 -0 1.6391231e-38 312 240
-0.0085054198 0.69300002 -0 1.6114645e-38 313 240
-0.0072903596 0.69300002 -0 1.6205046e-38 314 240
-0.0060753003 0.69300002 -0 1.6020653e-38 315 240
-0.00486024 0.69300002 -0 1.5745142e-38 316 240
-0.0036451798 0.69300002 -0 1.5837338e-38 317 240
-0.00243012 0.69300002 -0 1.5561471e-38 318 240
-0.00121506 0.69300002 -0 1.5284884e-38 319 240
0 0.69300002 -0 1.5282718e-38 320 240
0.00121506 0.69300002 -0 1.5006135e-38 321 240
0.0024336267 0.69400001 -0 1.4820312e-38 322 240
0.0036609597 0.69599998 -0 1.4635923e-38 323 240
0.0048812795 0.69599998 -0 1.43597e-38 324 240
0.0061015999 0.69599998 -0 1.4267505e-38 325 240
0.0073219193 0.69599998 -0 1.4083834e-38 326 240
0.0085422397 0.69599998 -0 1.4176029e-38 327 240
0.0097765867 0.69700003 -0 1.4359704e-38 328 240
0.01099866 0.69700003 -0 1.4359704e-38 329 240
0.012220734 0.69700003 -0 1.43597e-38 330 240
0.013462093 0.69800001 -0 1.43597e-38 331 240
0.014727999 0.69999999 -0 1.426894e-38 332 240
0.015978126 0.70099998 -0 1.4084552e-38 333 240
0.017280852 0.704 -0 1.3991287e-38 334 240
0.018567799 0.70599997 -0 1.3991287e-38 335 240
0.019833706 0.70700002 -0 1.2979311e-38 336 240
-0.039330769 0.70099998 -0.0012290865 1.5373119e-38 288 241
-0.038101684 0.70099998 -0.0012290865 1.5465672e-38 289 241
-0.036819998 0.69999999 -0.0012273333 1.6016687e-38 290 241
-0.035592664 0.69999999 -0.0012273333 1.6754252e-38 291 241
-0.034365334 0.69999999 -0.0012273333 1.6573121e-38 292 241
-0.033043321 0.69800001 -0.0012238267 1.6757512e-38 293 241
-0.031819493 0.69800001 -0.0012238267 1.6389818e-38 294 241
-0.030551834 0.69700003 -0.0012220733 1.6113591e-38 295 241
-0.02932976 0.69700003 -0.0012220733 1.6479856e-38 296 241
-0.028067358 0.69599998 -0.0012203199 1.6479856e-38 297 241
-0.026847038 0.69599998 -0.0012203199 1.647985e-38 298 241
-0.025553079 0.69400001 -0.0012168133 1.6295457e-38 299 241
-0.024336265 0.69400001 -0.0012168133 1.6384768e-38 300 241
-0.023019511 0.69099998 -0.0012115532 1.6200375e-38 301 241
-0.021807959 0.69099998 -0.0012115532 1.6292938e-38 302 241
-0.020596405 0.69099998 -0.0012115532 1.6846112e-38 303 241
-0.019384852 0.69099998 -0.0012115532 1.6478407e-38 304 241
-0.0181733 0.69099998 -0.0012115532 1.6478407e-38 305 241
-0.0169372 0.69 -0.0012097999 1.6574569e-38 306 241
-0.015727401 0.69 -0.0012097999 1.7035187e-38 307 241
-0.014538639 0.69099998 -0.0012115532 1.7219216e-38 308 241
-0.013327086 0.69099998 -0.0012115532 1.6573846e-38 309 241
-0.012115533 0.69099998 -0.0012115532 1.6020653e-38 310 241
-0.01090398 0.69099998 -0.0012115532 1.5928099e-38 311 241
-0.0096924258 0.69099998 -0.0012115532 1.583915e-38 312 241
-0.008480873 0.69099998 -0.0012115532 1.60239e-38 313 241
-0.0072693196 0.69099998 -0.0012115532 1.5838799e-38 314 241
-0.0060577663 0.69099998 -0.0012115532 1.5746604e-38 315 241
-0.0048462129 0.69099998 -0.0012115532 1.5655465e-38 316 241
-0.0036346598 0.69099998 -0.0012115532 1.5378878e-38 317 241
-0.0024231065 0.69099998 -0.0012115532 1.5470335e-38 318 241
-0.00121506 0.69300002 -0.00121506 1.5193394e-38 319 241
0 0.69300002 -0.00121506 1.5008646e-38 320 241
0.00121506 0.69300002 -0.00121506 1.4547675e-38 321 241
0.00243012 0.69300002 -0.00121506 1.4729911e-38 322 241
0.0036504399 0.69400001 -0.0012168133 1.4453329e-38 323 241
0.0048812795 0.69599998 -0.0012203199 1.4360058e-38 324 241
0.0061015999 0.69599998 -0.0012203199 1.4175311e-38 325 241
0.0073219193 0.69599998 -0.0012203199 1.3992358e-38 326 241
0.0085422397 0.69599998 -0.0012203199 1.3992358e-38 327 241
0.0097625591 0.69599998 -0.0012203199 1.4359348e-38 328 241
0.01099866 0.69700003 -0.0012220733 1.4359348e-38 329 241
0.012220734 0.69700003 -0.0012220733 1.4451549e-38 330 241
0.013442807 0.69700003 -0.0012220733 1.4451549e-38 331 241
0.01468592 0.69800001 -0.0012238267 1.4268953e-38 332 241
0.015955333 0.69999999 -0.0012273333 1.4176757e-38 333 241
0.017207211 0.70099998 -0.0012290865 1.3809777e-38 334 241
0.018488899 0.70300001 -0.0012325933 1.3625384e-38 335 241
0.019749546 0.704 -0.0012343467 1.3441366e-38 336 241
0.021043506 0.70599997 -0.0012378532 1.2058431e-38 337 241
0.022344479 0.708 -0.00124136 1.0128877e-38 338 241
-0.040559858 0.70099998 -0.0024581731 1.4453362e-38 287 242
-0.039330769 0.70099998 -0.0024581731 1.5189806e-38 288 242
-0.038047329 0.69999999 -0.0024546667 1.5373836e-38 289 242
-0.036819998 0.69999999 -0.0024546667 1.5832313e-38 290 242
-0.035592664 0.69999999 -0.0024546667 1.6477682e-38 291 242
-0.034267146 0.69800001 -0.0024476533 1.6207226e-38 292 242
-0.033043321 0.69800001 -0.0024476533 1.6391976e-38 293 242
-0.03177391 0.69700003 -0.0024441467 1.6206143e-38 294 242
-0.030551834 0.69700003 -0.0024441467 1.6021393e-38 295 242
-0.029203519 0.69400001 -0.0024336267 1.6388008e-38 296 242
-0.027986705 0.69400001 -0.0024336267 1.6295811e-38 297 242
-0.026769891 0.69400001 -0.0024336267 1.6295808e-38 298 242
-0.025553079 0.69400001 -0.0024336267 1.5927385e-38 299 242
-0.024336265 0.69400001 -0.0024336267 1.5925583e-38 300 242
-0.023019511 0.69099998 -0.0024231065 1.5280214e-38 301 242
-0.021807959 0.69099998 -0.0024231065 1.5647924e-38 302 242
-0.020596405 0.69099998 -0.0024231065 1.6385489e-38 303 242
-0.019384852 0.69099998 -0.0024231065 1.6202177e-38 304 242
-0.0181733 0.69099998 -0.0024231065 1.6202177e-38 305 242
-0.0169372 0.69 -0.0024195998 1.6113216e-38 306 242
-0.015727401 0.69 -0.0024195998 1.6297607e-38 307 242
-0.014538639 0.69099998 -0.0024231065 1.6297241e-38 308 242
-0.013327086 0.69099998 -0.0024231065 1.6205046e-38 309 242
-0.012115533 0.69099998 -0.0024231065 1.602065e-38 310 242
-0.01090398 0.69099998 -0.0024231065 1.6389793e-38 311 242
-0.0096924258 0.69099998 -0.0024231065 1.593207e-38 312 242
-0.008480873 0.69099998 -0.0024231065 1.5839516e-38 313 242
-0.0072693196 0.69099998 -0.0024231065 1.583915e-38 314 242
-0.0060577663 0.69099998 -0.0024231065 1.583915e-38 315 242
-0.0048462129 0.69099998 -0.0024231065 1.5472496e-38 316 242
-0.0036346598 0.69099998 -0.0024231065 1.5195909e-38 317 242
-0.0024231065 0.69099998 -0.0024231065 1.5286305e-38 318 242
-0.0012115532 0.69099998 -0.0024231065 1.4917528e-38 319 242
0 0.69099998 -0.0024231065 1.4916452e-38 320 242
0.00121506 0.69300002 -0.00243012 1.4455481e-38 321 242
0.00243012 0.69300002 -0.00243012 1.4454405e-38 322 242
0.0036504399 0.69400001 -0.0024336267 1.4362211e-38 323 242
0.0048672534 0.69400001 -0.0024336267 1.4360776e-38 324 242
0.0060840664 0.69400001 -0.0024336267 1.4084193e-38 325 242
0.0073008798 0.69400001 -0.0024336267 1.3991999e-38 326 242
0.0085176928 0.69400001 -0.0024336267 1.3991999e-38 327 242
0.0097625591 0.69599998 -0.0024406398 1.4083485e-38 328 242
0.010982879 0.69599998 -0.0024406398 1.4175682e-38 329 242
0.012220734 0.69700003 -0.0024441467 1.4268234e-38 330 242
0.013442807 0.69700003 -0.0024441467 1.436043e-38 331 242
0.01468592 0.69800001 -0.0024476533 1.4085641e-38 332 242
0.015909746 0.69800001 -0.0024476533 1.4177836e-38 333 242
0.017182667 0.69999999 -0.0024546667 1.3810493e-38 334 242
0.018488899 0.70300001 -0.0024651866 1.3626102e-38 335 242
0.019749546 0.704 -0.0024686933 1.3441366e-38 336 242
0.021043506 0.70599997 -0.0024757064 1.2795996e-38 337 242
0.022344479 0.708 -0.00248272 1.1137611e-38 338 242
-0.041729331 0.69999999 -0.0036819996 1.4173883e-38 286 243
-0.040502001 0.69999999 -0.0036819996 1.5004003e-38 287 243
-0.039274666 0.69999999 -0.0036819996 1.518873e-38 288 243
-0.038047329 0.69999999 -0.0036819996 1.5280924e-38 289 243
-0.036819998 0.69999999 -0.0036819996 1.5648266e-38 290 243
-0.035490975 0.69800001 -0.0036714801 1.5832655e-38 291 243
-0.034267146 0.69800001 -0.0036714801 1.5744421e-38 292 243
-0.03299598 0.69700003 -0.00366622 1.6113202e-38 293 243
-0.03177391 0.69700003 -0.00366622 1.6112483e-38 294 243
-0.030507999 0.69599998 -0.0036609597 1.6019929e-38 295 243
-0.029203519 0.69400001 -0.0036504399 1.6111754e-38 296 243
-0.027986705 0.69400001 -0.0036504399 1.5835169e-38 297 243
-0.026769891 0.69400001 -0.0036504399 1.565006e-38 298 243
-0.025553079 0.69400001 -0.0036504399 1.5557507e-38 299 243
-0.024301201 0.69300002 -0.0036451798 1.5371691e-38 300 243
-0.023019511 0.69099998 -0.0036346598 1.5095104e-38 301 243
-0.021807959 0.69099998 -0.0036346598 1.5371338e-38 302 243
-0.020596405 0.69099998 -0.0036346598 1.574012e-38 303 243
-0.019384852 0.69099998 -0.0036346598 1.5831965e-38 304 243
-0.0181733 0.69099998 -0.0036346598 1.6292585e-38 305 243
-0.0169372 0.69 -0.0036293997 1.5835575e-38 306 243
-0.015727401 0.69 -0.0036293997 1.5835575e-38 307 243
-0.014538639 0.69099998 -0.0036346598 1.5744454e-38 308 243
-0.013327086 0.69099998 -0.0036346598 1.5836651e-38 309 243
-0.012097999 0.69 -0.0036293997 1.5746604e-38 310 243
-0.010888199 0.69 -0.0036293997 1.6207581e-38 311 243
-0.0096924258 0.69099998 -0.0036346598 1.5748402e-38 312 243
-0.008480873 0.69099998 -0.0036346598 1.5748402e-38 313 243
-0.0072587994 0.69 -0.0036293997 1.5656559e-38 314 243
-0.0060489997 0.69 -0.0036293997 1.5656559e-38 315 243
-0.0048391996 0.69 -0.0036293997 1.5472866e-38 316 243
-0.0036293997 0.69 -0.0036293997 1.4919692e-38 317 243
-0.0024195998 0.69 -0.0036293997 1.5376347e-38 318 243
-0.0012115532 0.69099998 -0.0036346598 1.5007929e-38 319 243
0 0.69099998 -0.0036346598 1.4822464e-38 320 243
0.0012115532 0.69099998 -0.0036346598 1.4545523e-38 321 243
0.00243012 0.69300002 -0.0036451798 1.4269658e-38 322 243
0.0036451798 0.69300002 -0.0036451798 1.4269658e-38 323 243
0.0048672534 0.69400001 -0.0036504399 1.4085269e-38 324 243
0.0060840664 0.69400001 -0.0036504399 1.3992716e-38 325 243
0.0073008798 0.69400001 -0.0036504399 1.4083834e-38 326 243
0.0085176928 0.69400001 -0.0036504399 1.399164e-38 327 243
0.0097345067 0.69400001 -0.0036504399 1.4083117e-38 328 243
0.01095132 0.69400001 -0.0036504399 1.4175671e-38 329 243
0.0122032 0.69599998 -0.0036609597 1.4176401e-38 330 243
0.013423519 0.69599998 -0.0036609597 1.4361151e-38 331 243
0.01466488 0.69700003 -0.00366622 1.3994537e-38 332 243
0.015909746 0.69800001 -0.0036714801 1.3994537e-38 333 243
0.017182667 0.69999999 -0.0036819996 1.3810508e-38 334 243
0.018409999 0.69999999 -0.0036819996 1.3534281e-38 335 243
0.019721493 0.70300001 -0.0036977797 1.3441012e-38 336 243
0.020954086 0.70300001 -0.0036977797 1.3164426e-38 337 243
0.02218668 0.70300001 -0.0036977797 1.2425448e-38 338 243
-0.042956665 0.69999999 -0.0049093333 1.0781424e-38 285 244
-0.041729331 0.69999999 -0.0049093333 1.4544095e-38 286 244
-0.040502001 0.69999999 -0.0049093333 1.4821041e-38 287 244
-0.039274666 0.69999999 -0.0049093333 1.5280207e-38 288 244
-0.037938625 0.69800001 -0.0048953067 1.5280207e-38 289 244
-0.0367148 0.69800001 -0.0048953067 1.5556072e-38 290 244
-0.035490975 0.69800001 -0.0048953067 1.509546e-38 291 244
-0.034218054 0.69700003 -0.0048882933 1.5003624e-38 292 244
-0.03299598 0.69700003 -0.0048882933 1.5280566e-38 293 244
-0.031728316 0.69599998 -0.0048812795 1.5466389e-38 294 244
-0.030420333 0.69400001 -0.0048672534 1.5558583e-38 295 244
-0.029203519 0.69400001 -0.0048672534 1.5741537e-38 296 244
-0.027946379 0.69300002 -0.00486024 1.5280566e-38 297 244
-0.02673132 0.69300002 -0.00486024 1.5187654e-38 298 244
-0.02551626 0.69300002 -0.00486024 1.5371684e-38 299 244
-0.024301201 0.69300002 -0.00486024 1.5186936e-38 300 244
-0.022986198 0.69 -0.0048391996 1.5094742e-38 301 244
-0.021776399 0.69 -0.0048391996 1.5278054e-38 302 244
-0.020596405 0.69099998 -0.0048462129 1.5462443e-38 303 244
-0.019384852 0.69099998 -0.0048462129 1.5555359e-38 304 244
-0.018146999 0.69 -0.0048391996 1.5647556e-38 305 244
-0.0169372 0.69 -0.0048391996 1.5282379e-38 306 244
-0.015727401 0.69 -0.0048391996 1.5282379e-38 307 244
-0.014517599 0.69 -0.0048391996 1.5098348e-38 308 244
-0.0133078 0.69 -0.0048391996 1.5374575e-38 309 244
-0.012097999 0.69 -0.0048391996 1.5101588e-38 310 244
-0.010888199 0.69 -0.0048391996 1.5654761e-38 311 244
-0.0096783992 0.69 -0.0048391996 1.5471812e-38 312 244
-0.0084686 0.69 -0.0048391996 1.5656203e-38 313 244
-0.0072377604 0.68800002 -0.0048251734 1.5381399e-38 314 244
-0.0060314666 0.68800002 -0.0048251734 1.5289203e-38 315 244
-0.0048391996 0.69 -0.0048391996 1.5379581e-38 316 244
-0.0036293997 0.69 -0.0048391996 1.5010799e-38 317 244
-0.0024195998 0.69 -0.0048391996 1.5008288e-38 318 244
-0.0012097999 0.69 -0.0048391996 1.4823899e-38 319 244
0 0.69 -0.0048391996 1.4454405e-38 320 244
0.0012115532 0.69099998 -0.0048462129 1.4177822e-38 321 244
0.0024231065 0.69099998 -0.0048462129 1.4177463e-38 322 244
0.0036451798 0.69300002 -0.00486024 1.4085269e-38 323 244
0.00486024 0.69300002 -0.00486024 1.4084193e-38 324 244
0.0060753003 0.69300002 -0.00486024 1.4084193e-38 325 244
0.0072903596 0.69300002 -0.00486024 1.399164e-38 326 244
0.0085054198 0.69300002 -0.00486024 1.399164e-38 327 244
0.0097345067 0.69400001 -0.0048672534 1.3991999e-38 328 244
0.01095132 0.69400001 -0.0048672534 1.4084193e-38 329 244
0.012168133 0.69400001 -0.0048672534 1.3993445e-38 330 244
0.013384946 0.69400001 -0.0048672534 1.4177836e-38 331 244
0.014643839 0.69599998 -0.0048812795 1.3994537e-38 332 244
0.015886955 0.69700003 -0.0048882933 1.4086732e-38 333 244
0.017133573 0.69800001 -0.0048953067 1.3902707e-38 334 244
0.0183574 0.69800001 -0.0048953067 1.362648e-38 335 244
0.019637333 0.69999999 -0.0049093333 1.344138e-38 336 244
0.020864666 0.69999999 -0.0049093333 1.298076e-38 337 244
0.022091998 0.69999999 -0.0049093333 1.2334685e-38 338 244
-0.041729331 0.69999999 -0.0061366665 1.4637009e-38 286 245
-0.040502001 0.69999999 -0.0061366665 1.4637009e-38 287 245
-0.039274666 0.69999999 -0.0061366665 1.5005059e-38 288 245
-0.037938625 0.69800001 -0.006119133 1.5005059e-38 289 245
-0.0367148 0.69800001 -0.006119133 1.5371684e-38 290 245
-0.035490975 0.69800001 -0.006119133 1.5003265e-38 291 245
-0.034218054 0.69700003 -0.0061103669 1.47274e-38 292 245
-0.03299598 0.69700003 -0.0061103669 1.4635206e-38 293 245
-0.031637147 0.69400001 -0.0060840664 1.4729561e-38 294 245
-0.030420333 0.69400001 -0.0060840664 1.4913954e-38 295 245
-0.029203519 0.69400001 -0.0060840664 1.5280217e-38 296 245
-0.027946379 0.69300002 -0.0060753003 1.5003631e-38 297 245
-0.02673132 0.69300002 -0.0060753003 1.5095818e-38 298 245
-0.02551626 0.69300002 -0.0060753003 1.491143e-38 299 245
-0.024231065 0.69099998 -0.0060577663 1.5002907e-38 300 245
-0.022986198 0.69 -0.0060489997 1.4910712e-38 301 245
-0.021776399 0.69 -0.0060489997 1.4909636e-38 302 245
-0.020596405 0.69099998 -0.0060577663 1.5186219e-38 303 245
-0.019356798 0.69 -0.0060489997 1.4911071e-38 304 245
-0.018146999 0.69 -0.0060489997 1.4727041e-38 305 245
-0.0169372 0.69 -0.0060489997 1.4819953e-38 306 245
-0.015727401 0.69 -0.0060489997 1.4819953e-38 307 245
-0.014517599 0.69 -0.0060489997 1.4636656e-38 308 245
-0.0133078 0.69 -0.0060489997 1.4913603e-38 309 245
-0.012062933 0.68800002 -0.0060314666 1.4364045e-38 310 245
-0.010856641 0.68800002 -0.0060314666 1.4640272e-38 311 245
-0.0096503468 0.68800002 -0.0060314666 1.4918994e-38 312 245
-0.0084317802 0.68699998 -0.0060226996 1.5471809e-38 313 245
-0.0072272392 0.68699998 -0.0060226996 1.5105891e-38 314 245
-0.0060226996 0.68699998 -0.0060226996 1.492114e-38 315 245
-0.0048181596 0.68699998 -0.0060226996 1.5102641e-38 316 245
-0.0036188802 0.68800002 -0.0060314666 1.4733859e-38 317 245
-0.0024125867 0.68800002 -0.0060314666 1.4917528e-38 318 245
-0.0012062934 0.68800002 -0.0060314666 1.4640587e-38 319 245
0 0.68800002 -0.0060314666 1.4454405e-38 320 245
0.0012097999 0.69 -0.0060489997 1.4270016e-38 321 245
0.0024231065 0.69099998 -0.0060577663 1.3901598e-38 322 245
0.0036346598 0.69099998 -0.0060577663 1.3901598e-38 323 245
0.00486024 0.69300002 -0.0060753003 1.3901598e-38 324 245
0.0060753003 0.69300002 -0.0060753003 1.3809045e-38 325 245
0.0072903596 0.69300002 -0.0060753003 1.3809045e-38 326 245
0.0085054198 0.69300002 -0.0060753003 1.3809045e-38 327 245
0.0097204801 0.69300002 -0.0060753003 1.3808328e-38 328 245
0.010935539 0.69300002 -0.0060753003 1.3993075e-38 329 245
0.012150601 0.69300002 -0.0060753003 1.3993455e-38 330 245
0.01336566 0.69300002 -0.0060753003 1.4086009e-38 331 245
0.01460176 0.69400001 -0.0060840664 1.3902354e-38 332 245
0.015864158 0.69599998 -0.0061015999 1.3994908e-38 333 245
0.017109027 0.69700003 -0.0061103669 1.3719397e-38 334 245
0.0183574 0.69800001 -0.006119133 1.3534647e-38 335 245
0.019581227 0.69800001 -0.006119133 1.3441736e-38 336 245
0.020805053 0.69800001 -0.006119133 1.2980757e-38 337 245
0.02202888 0.69800001 -0.006119133 1.2702744e-38 338 245
0.023252707 0.69800001 -0.006119133 1.1042864e-38 339 245
0.024476532 0.69800001 -0.006119133 9.3862923e-39 340 245
-0.042956665 0.69999999 -0.0073639993 1.2982941e-38 285 246
-0.041729331 0.69999999 -0.0073639993 1.4728118e-38 286 246
-0.040502001 0.69999999 -0.0073639993 1.4728118e-38 287 246
-0.039274666 0.69999999 -0.0073639993 1.5003624e-38 288 246
-0.038047329 0.69999999 -0.0073639993 1.5095818e-38 289 246
-0.0367148 0.69800001 -0.0073429602 1.5187654e-38 290 246
-0.035440128 0.69700003 -0.00733244 1.5002907e-38 291 246
-0.034218054 0.69700003 -0.00733244 1.4727041e-38 292 246
-0.032853961 0.69400001 -0.0073008798 1.4542653e-38 293 246
-0.031637147 0.69400001 -0.0073008798 1.4727041e-38 294 246
-0.030420333 0.69400001 -0.0073008798 1.4911071e-38 295 246
-0.029161438 0.69300002 -0.0072903596 1.5002548e-38 296 246
-0.027946379 0.69300002 -0.0072903596 1.4910354e-38 297 246
-0.02673132 0.69300002 -0.0072903596 1.4910712e-38 298 246
-0.025442619 0.69099998 -0.0072693196 1.4818518e-38 299 246
-0.024231065 0.69099998 -0.0072693196 1.4817442e-38 300 246
-0.022919573 0.68800002 -0.0072377604 1.4817442e-38 301 246
-0.021713281 0.68800002 -0.0072377604 1.4725965e-38 302 246
-0.020566599 0.69 -0.0072587994 1.4725965e-38 303 246
-0.019356798 0.69 -0.0072587994 1.4725965e-38 304 246
-0.018146999 0.69 -0.0072587994 1.4725965e-38 305 246
-0.016888106 0.68800002 -0.0072377604 1.4725965e-38 306 246
-0.015681813 0.68800002 -0.0072377604 1.4725965e-38 307 246
-0.014475521 0.68800002 -0.0072377604 1.4543012e-38 308 246
-0.013269227 0.68800002 -0.0072377604 1.4543012e-38 309 246
-0.012045399 0.68699998 -0.0072272392 1.4544805e-38 310 246
-0.010840859 0.68699998 -0.0072272392 1.4821747e-38 311 246
-0.0096363192 0.68699998 -0.0072272392 1.4640963e-38 312 246
-0.0084317802 0.68699998 -0.0072272392 1.5286332e-38 313 246
-0.0072272392 0.68699998 -0.0072272392 1.5010821e-38 314 246
-0.0060226996 0.68699998 -0.0072272392 1.4733874e-38 315 246
-0.0048181596 0.68699998 -0.0072272392 1.5101199e-38 316 246
-0.0036188802 0.68800002 -0.0072377604 1.5101199e-38 317 246
-0.0024125867 0.68800002 -0.0072377604 1.4917528e-38 318 246
-0.0012062934 0.68800002 -0.0072377604 1.5101558e-38 319 246
0 0.68800002 -0.0072377604 1.4364722e-38 320 246
0.0012097999 0.69 -0.0072587994 1.4088139e-38 321 246
0.0024231065 0.69099998 -0.0072693196 1.372008e-38 322 246
0.0036346598 0.69099998 -0.0072693196 1.3627527e-38 323 246
0.0048462129 0.69099998 -0.0072693196 1.3810121e-38 324 246
0.0060577663 0.69099998 -0.0072693196 1.3533539e-38 325 246
0.0072693196 0.69099998 -0.0072693196 1.3809045e-38 326 246
0.008480873 0.69099998 -0.0072693196 1.3716851e-38 327 246
0.0097204801 0.69300002 -0.0072903596 1.3808687e-38 328 246
0.010935539 0.69300002 -0.0072903596 1.3900881e-38 329 246
0.012150601 0.69300002 -0.0072903596 1.3900893e-38 330 246
0.01336566 0.69300002 -0.0072903596 1.4085285e-38 331 246
0.014580719 0.69300002 -0.0072903596 1.3993104e-38 332 246
0.015818574 0.69400001 -0.0073008798 1.427005e-38 333 246
0.017109027 0.69700003 -0.00733244 1.3811237e-38 334 246
0.018331099 0.69700003 -0.00733244 1.3719041e-38 335 246
0.019553173 0.69700003 -0.00733244 1.3259158e-38 336 246
0.020805053 0.69800001 -0.0073429602 1.2982572e-38 337 246
0.02202888 0.69800001 -0.0073429602 1.2979706e-38 338 246
0.023252707 0.69800001 -0.0073429602 1.1504218e-38 339 246
-0.042956665 0.69999999 -0.0085913334 1.3626142e-38 285 247
-0.041729331 0.69999999 -0.0085913334 1.436078e-38 286 247
-0.040502001 0.69999999 -0.0085913334 1.4268584e-38 287 247
-0.039162453 0.69800001 -0.0085667865 1.4728118e-38 288 247
-0.037938625 0.69800001 -0.0085667865 1.4544088e-38 289 247
-0.036662199 0.69700003 -0.0085545136 1.4727041e-38 290 247
-0.035440128 0.69700003 -0.0085545136 1.4727041e-38 291 247
-0.034168959 0.69599998 -0.0085422397 1.4543371e-38 292 247
-0.032853961 0.69400001 -0.0085176928 1.4543371e-38 293 247
-0.031637147 0.69400001 -0.0085176928 1.4449741e-38 294 247
-0.0303765 0.69300002 -0.0085054198 1.4541936e-38 295 247
-0.029161438 0.69300002 -0.0085054198 1.4542294e-38 296 247
-0.027946379 0.69300002 -0.0085054198 1.4358265e-38 297 247
-0.02673132 0.69300002 -0.0085054198 1.4543012e-38 298 247
-0.025442619 0.69099998 -0.008480873 1.4358982e-38 299 247
-0.024195999 0.69 -0.0084686 1.4359341e-38 300 247
-0.022919573 0.68800002 -0.0084440531 1.4266788e-38 301 247
-0.021713281 0.68800002 -0.0084440531 1.4542653e-38 302 247
-0.020506985 0.68800002 -0.0084440531 1.4450459e-38 303 247
-0.019300694 0.68800002 -0.0084440531 1.4266788e-38 304 247
-0.0180944 0.68800002 -0.0084440531 1.4266788e-38 305 247
-0.016888106 0.68800002 -0.0084440531 1.4174952e-38 306 247
-0.015681813 0.68800002 -0.0084440531 1.4174952e-38 307 247
-0.014454478 0.68699998 -0.0084317802 1.399164e-38 308 247
-0.013249939 0.68699998 -0.0084317802 1.4083834e-38 309 247
-0.012045399 0.68699998 -0.0084317802 1.4177463e-38 310 247
-0.010840859 0.68699998 -0.0084317802 1.4361852e-38 311 247
-0.0096363192 0.68699998 -0.0084317802 1.4272903e-38 312 247
-0.0084317802 0.68699998 -0.0084317802 1.454913e-38 313 247
-0.0072272392 0.68699998 -0.0084317802 1.4641679e-38 314 247
-0.0060226996 0.68699998 -0.0084317802 1.4365452e-38 315 247
-0.0048181596 0.68699998 -0.0084317802 1.4642022e-38 316 247
-0.0036136196 0.68699998 -0.0084317802 1.4549828e-38 317 247
-0.0024090798 0.68699998 -0.0084317802 1.473314e-38 318 247
-0.0012045399 0.68699998 -0.0084317802 1.4548393e-38 319 247
0 0.68699998 -0.0084317802 1.4273604e-38 320 247
0.0012062934 0.68800002 -0.0084440531 1.3997021e-38 321 247
0.0024231065 0.69099998 -0.008480873 1.3811915e-38 322 247
0.0036346598 0.69099998 -0.008480873 1.3719721e-38 323 247
0.0048462129 0.69099998 -0.008480873 1.3533898e-38 324 247
0.0060577663 0.69099998 -0.008480873 1.3441703e-38 325 247
0.0072693196 0.69099998 -0.008480873 1.3533898e-38 326 247
0.008480873 0.69099998 -0.008480873 1.3533898e-38 327 247
0.0096924258 0.69099998 -0.008480873 1.3625374e-38 328 247
0.01090398 0.69099998 -0.008480873 1.3901598e-38 329 247
0.012115533 0.69099998 -0.008480873 1.3717944e-38 330 247
0.013327086 0.69099998 -0.008480873 1.3810498e-38 331 247
0.014580719 0.69300002 -0.0085054198 1.3810158e-38 332 247
0.015818574 0.69400001 -0.0085176928 1.3902354e-38 333 247
0.017109027 0.69700003 -0.0085545136 1.3352784e-38 334 247
0.018331099 0.69700003 -0.0085545136 1.3260587e-38 335 247
0.019553173 0.69700003 -0.0085545136 1.3259505e-38 336 247
0.020805053 0.69800001 -0.0085667865 1.2891083e-38 337 247
0.02202888 0.69800001 -0.0085667865 1.3073689e-38 338 247
0.023252707 0.69800001 -0.0085667865 1.178295e-38 339 247
-0.042956665 0.69999999 -0.0098186666 1.3809092e-38 285 248
-0.041610107 0.69800001 -0.0097906133 1.4543729e-38 286 248
-0.040386278 0.69800001 -0.0097906133 1.4359341e-38 287 248
-0.039162453 0.69800001 -0.0097906133 1.4634847e-38 288 248
-0.037938625 0.69800001 -0.0097906133 1.4542653e-38 289 248
-0.036662199 0.69700003 -0.0097765867 1.4725965e-38 290 248
-0.035440128 0.69700003 -0.0097765867 1.4725965e-38 291 248
-0.034168959 0.69599998 -0.0097625591 1.4541936e-38 292 248
-0.032853961 0.69400001 -0.0097345067 1.4541936e-38 293 248
-0.031637147 0.69400001 -0.0097345067 1.4450459e-38 294 248
-0.0303765 0.69300002 -0.0097204801 1.4357906e-38 295 248
-0.029161438 0.69300002 -0.0097204801 1.4541936e-38 296 248
-0.027946379 0.69300002 -0.0097204801 1.4449741e-38 297 248
-0.02673132 0.69300002 -0.0097204801 1.4450459e-38 298 248
-0.025442619 0.69099998 -0.0096924258 1.4450459e-38 299 248
-0.024195999 0.69 -0.0096783992 1.4266788e-38 300 248
-0.022919573 0.68800002 -0.0096503468 1.4266788e-38 301 248
-0.021713281 0.68800002 -0.0096503468 1.4175311e-38 302 248
-0.020506985 0.68800002 -0.0096503468 1.4175311e-38 303 248
-0.019272638 0.68699998 -0.0096363192 1.4175311e-38 304 248
-0.018068098 0.68699998 -0.0096363192 1.4175311e-38 305 248
-0.01686356 0.68699998 -0.0096363192 1.4175311e-38 306 248
-0.015659019 0.68699998 -0.0096363192 1.4175311e-38 307 248
-0.014454478 0.68699998 -0.0096363192 1.4083117e-38 308 248
-0.013249939 0.68699998 -0.0096363192 1.4267505e-38 309 248
-0.012027865 0.68599999 -0.0096222926 1.4177463e-38 310 248
-0.010825079 0.68599999 -0.0096222926 1.4269658e-38 311 248
-0.0096222926 0.68599999 -0.0096222926 1.4271451e-38 312 248
-0.0084195063 0.68599999 -0.0096222926 1.445584e-38 313 248
-0.0072167199 0.68599999 -0.0096222926 1.4548034e-38 314 248
-0.0060139326 0.68599999 -0.0096222926 1.4548034e-38 315 248
-0.0048111463 0.68599999 -0.0096222926 1.4456916e-38 316 248
-0.00360836 0.68599999 -0.0096222926 1.4456916e-38 317 248
-0.0024055731 0.68599999 -0.0096222926 1.4640587e-38 318 248
-0.0012045399 0.68699998 -0.0096363192 1.427181e-38 319 248
0 0.68699998 -0.0096363192 1.427181e-38 320 248
0.0012045399 0.68699998 -0.0096363192 1.4179616e-38 321 248
0.0024195998 0.69 -0.0096783992 1.3719362e-38 322 248
0.0036293997 0.69 -0.0096783992 1.3627168e-38 323 248
0.0048391996 0.69 -0.0096783992 1.3533539e-38 324 248
0.0060489997 0.69 -0.0096783992 1.334915e-38 325 248
0.0072587994 0.69 -0.0096783992 1.353318e-38 326 248
0.0084686 0.69 -0.0096783992 1.353318e-38 327 248
0.0096924258 0.69099998 -0.0096924258 1.3626092e-38 328 248
0.01090398 0.69099998 -0.0096924258 1.3718286e-38 329 248
0.012115533 0.69099998 -0.0096924258 1.37183e-38 330 248
0.013327086 0.69099998 -0.0096924258 1.37183e-38 331 248
0.014580719 0.69300002 -0.0097204801 1.353465e-38 332 248
0.015818574 0.69400001 -0.0097345067 1.3719041e-38 333 248
0.017109027 0.69700003 -0.0097765867 1.3443546e-38 334 248
0.018331099 0.69700003 -0.0097765867 1.3443546e-38 335 248
0.019581227 0.69800001 -0.0097906133 1.3168041e-38 336 248
0.020805053 0.69800001 -0.0097906133 1.2983291e-38 337 248
0.022091998 0.69999999 -0.0098186666 1.2705631e-38 338 248
0.023319334 0.69999999 -0.0098186666 1.1784034e-38 339 248
0.024546666 0.69999999 -0.0098186666 1.1504223e-38 340 248
0.027039904 0.70099998 -0.0098326923 1.0687471e-38 342 248
-0.042956665 0.69999999 -0.011045999 1.3623976e-38 285 249
-0.041610107 0.69800001 -0.01101444 1.4359341e-38 286 249
-0.040386278 0.69800001 -0.01101444 1.4267147e-38 287 249
-0.039162453 0.69800001 -0.01101444 1.4359341e-38 288 249
-0.037938625 0.69800001 -0.01101444 1.4266788e-38 289 249
-0.036662199 0.69700003 -0.01099866 1.4174594e-38 290 249
-0.035389278 0.69599998 -0.010982879 1.4174594e-38 291 249
-0.034168959 0.69599998 -0.010982879 1.4357906e-38 292 249
-0.032853961 0.69400001 -0.01095132 1.4357906e-38 293 249
-0.031637147 0.69400001 -0.01095132 1.4357906e-38 294 249
-0.0303765 0.69300002 -0.010935539 1.4357906e-38 295 249
-0.029161438 0.69300002 -0.010935539 1.4174594e-38 296 249
-0.027946379 0.69300002 -0.010935539 1.4174594e-38 297 249
-0.026654173 0.69099998 -0.01090398 1.4174594e-38 298 249
-0.025442619 0.69099998 -0.01090398 1.4082399e-38 299 249
-0.024195999 0.69 -0.010888199 1.4082399e-38 300 249
-0.022919573 0.68800002 -0.010856641 1.4082399e-38 301 249
-0.021713281 0.68800002 -0.010856641 1.4083117e-38 302 249
-0.020506985 0.68800002 -0.010856641 1.4083117e-38 303 249
-0.019272638 0.68699998 -0.010840859 1.3899805e-38 304 249
-0.018068098 0.68699998 -0.010840859 1.3991999e-38 305 249
-0.01686356 0.68699998 -0.010840859 1.3899805e-38 306 249
-0.015659019 0.68699998 -0.010840859 1.3899805e-38 307 249
-0.014454478 0.68699998 -0.010840859 1.4175311e-38 308 249
-0.013230653 0.68599999 -0.010825079 1.4360058e-38 309 249
-0.012027865 0.68599999 -0.010825079 1.3994151e-38 310 249
-0.010825079 0.68599999 -0.010825079 1.4270375e-38 311 249
-0.0096222926 0.68599999 -0.010825079 1.4272169e-38 312 249
-0.0084195063 0.68599999 -0.010825079 1.4272169e-38 313 249
-0.0072167199 0.68599999 -0.010825079 1.4364722e-38 314 249
-0.0060139326 0.68599999 -0.010825079 1.4272169e-38 315 249
-0.0048111463 0.68599999 -0.010825079 1.4272886e-38 316 249
-0.00360836 0.68599999 -0.010825079 1.4272886e-38 317 249
-0.0024055731 0.68599999 -0.010825079 1.4272528e-38 318 249
-0.0012027866 0.68599999 -0.010825079 1.4180333e-38 319 249
0 0.68599999 -0.010825079 1.3995586e-38 320 249
0.0012027866 0.68599999 -0.010825079 1.3811556e-38 321 249
0.0024125867 0.68800002 -0.010856641 1.3719362e-38 322 249
0.0036188802 0.68800002 -0.010856641 1.3443138e-38 323 249
0.0048251734 0.68800002 -0.010856641 1.3348792e-38 324 249
0.0060314666 0.68800002 -0.010856641 1.3348792e-38 325 249
0.0072377604 0.68800002 -0.010856641 1.3348792e-38 326 249
0.0084440531 0.68800002 -0.010856641 1.3441345e-38 327 249
0.0096783992 0.69 -0.010888199 1.3350592e-38 328 249
0.010888199 0.69 -0.010888199 1.3442789e-38 329 249
0.012097999 0.69 -0.010888199 1.3534998e-38 330 249
0.013327086 0.69099998 -0.01090398 1.3534998e-38 331 249
0.014580719 0.69300002 -0.010935539 1.344318e-38 332 249
0.015818574 0.69400001 -0.01095132 1.3535376e-38 333 249
0.017084479 0.69599998 -0.010982879 1.3260237e-38 334 249
0.018331099 0.69700003 -0.01099866 1.3260237e-38 335 249
0.019553173 0.69700003 -0.01099866 1.3168041e-38 336 249
0.020805053 0.69800001 -0.01101444 1.2983291e-38 337 249
0.02202888 0.69800001 -0.01101444 1.2613079e-38 338 249
0.023319334 0.69999999 -0.011045999 1.2060264e-38 339 249
0.024546666 0.69999999 -0.011045999 1.1688612e-38 340 249
0.025810819 0.70099998 -0.011061779 9.3837223e-39 341 249
0.027039904 0.70099998 -0.011061779 1.1694057e-38 342 249
-0.04560595 0.70300001 -0.012325933 1.1060914e-38 283 250
-0.043018032 0.70099998 -0.012290866 1.3623611e-38 285 250
-0.041729331 0.69999999 -0.012273333 1.3991281e-38 286 250
-0.040502001 0.69999999 -0.012273333 1.3899087e-38 287 250
-0.039274666 0.69999999 -0.012273333 1.4083117e-38 288 250
-0.037938625 0.69800001 -0.012238266 1.4083117e-38 289 250
-0.036662199 0.69700003 -0.012220734 1.4265712e-38 290 250
-0.035389278 0.69599998 -0.0122032 1.4081682e-38 291 250
-0.034168959 0.69599998 -0.0122032 1.4081323e-38 292 250
-0.032853961 0.69400001 -0.012168133 1.4265353e-38 293 250
-0.031637147 0.69400001 -0.012168133 1.4082041e-38 294 250
-0.0303765 0.69300002 -0.012150601 1.4082041e-38 295 250
-0.029161438 0.69300002 -0.012150601 1.4082041e-38 296 250
-0.027865725 0.69099998 -0.012115533 1.4174235e-38 297 250
-0.026654173 0.69099998 -0.012115533 1.3899446e-38 298 250
-0.025405798 0.69 -0.012097999 1.3807252e-38 299 250
-0.024195999 0.69 -0.012097999 1.3806534e-38 300 250
-0.022886258 0.68699998 -0.012045399 1.3806534e-38 301 250
-0.021681719 0.68699998 -0.012045399 1.3898728e-38 302 250
-0.020477179 0.68699998 -0.012045399 1.3898728e-38 303 250
-0.019272638 0.68699998 -0.012045399 1.3899446e-38 304 250
-0.018068098 0.68699998 -0.012045399 1.3899446e-38 305 250
-0.01686356 0.68699998 -0.012045399 1.3991999e-38 306 250
-0.015636226 0.68599999 -0.012027865 1.3991999e-38 307 250
-0.01443344 0.68599999 -0.012027865 1.3991999e-38 308 250
-0.013230653 0.68599999 -0.012027865 1.4176387e-38 309 250
-0.0119928 0.68400002 -0.0119928 1.3994869e-38 310 250
-0.01079352 0.68400002 -0.0119928 1.4087063e-38 311 250
-0.0095942402 0.68400002 -0.0119928 1.4180333e-38 312 250
-0.0083949603 0.68400002 -0.0119928 1.4180333e-38 313 250
-0.0071956799 0.68400002 -0.0119928 1.4272528e-38 314 250
-0.0059964 0.68400002 -0.0119928 1.4180333e-38 315 250
-0.0047971201 0.68400002 -0.0119928 1.3996662e-38 316 250
-0.00360836 0.68599999 -0.012027865 1.3904468e-38 317 250
-0.0024055731 0.68599999 -0.012027865 1.3995586e-38 318 250
-0.0012027866 0.68599999 -0.012027865 1.3995586e-38 319 250
0 0.68599999 -0.012027865 1.3719721e-38 320 250
0.0012027866 0.68599999 -0.012027865 1.3627527e-38 321 250
0.0024125867 0.68800002 -0.012062933 1.3627168e-38 322 250
