# .PCD v.7 - Point Cloud Data file format
FIELDS x y z rgb imX imY
SIZE 4 4 4 4 4 4
TYPE F F F F F F
COUNT 1 1 1 1 1 1
WIDTH 829
HEIGHT 1
VIEWPOINT 0 0 0 1 0 0 0
POINTS 829
DATA ascii
0.046505414 0.69800001 -0.050176892 1.6126657e-38 358 281
-0.024546666 0.69999999 -0.051547997 1.2610956e-38 300 282
-0.023319334 0.69999999 -0.051547997 1.2426565e-38 301 282
-0.02202888 0.69800001 -0.051400717 1.3531078e-38 302 282
-0.020805053 0.69800001 -0.051400717 1.3991698e-38 303 282
-0.019581227 0.69800001 -0.051400717 1.4266139e-38 304 282
-0.0183574 0.69800001 -0.051400717 1.4266139e-38 305 282
-0.017109027 0.69700003 -0.051327083 1.435834e-38 306 282
-0.015864158 0.69599998 -0.051253434 1.4265786e-38 307 282
-0.01460176 0.69400001 -0.051106159 1.4450167e-38 308 282
-0.013384946 0.69400001 -0.051106159 1.4450167e-38 309 282
-0.012150601 0.69300002 -0.051032521 1.4358685e-38 310 282
-0.010935539 0.69300002 -0.051032521 1.4266489e-38 311 282
-0.0096924258 0.69099998 -0.050885238 1.4263619e-38 312 282
-0.0084686 0.69 -0.050811596 1.4171422e-38 313 282
-0.0072587994 0.69 -0.050811596 1.3712249e-38 314 282
-0.0060314666 0.68800002 -0.050664321 1.3435304e-38 315 282
-0.0048251734 0.68800002 -0.050664321 1.3433154e-38 316 282
-0.0036188802 0.68800002 -0.050664321 1.3156927e-38 317 282
-0.0024125867 0.68800002 -0.050664321 1.2881066e-38 318 282
-0.0012045399 0.68699998 -0.050590675 1.2881066e-38 319 282
0 0.68699998 -0.050590675 1.3064741e-38 320 282
0.0012045399 0.68699998 -0.050590675 1.3249491e-38 321 282
0.0024055731 0.68599999 -0.050517038 1.2699552e-38 322 282
0.00360836 0.68599999 -0.050517038 1.2792106e-38 323 282
0.0048111463 0.68599999 -0.050517038 1.2608788e-38 324 282
0.0059964 0.68400002 -0.050369758 1.2424397e-38 325 282
0.0071956799 0.68400002 -0.050369758 1.2424397e-38 326 282
0.0083826864 0.68300003 -0.05029612 1.2332201e-38 327 282
0.0095802136 0.68300003 -0.05029612 1.2606274e-38 328 282
0.01079352 0.68400002 -0.050369758 1.2606274e-38 329 282
0.0119928 0.68400002 -0.050369758 1.233148e-38 330 282
0.01319208 0.68400002 -0.050369758 1.2515871e-38 331 282
0.01439136 0.68400002 -0.050369758 1.2882133e-38 332 282
0.01559064 0.68400002 -0.050369758 1.2697741e-38 333 282
0.016789921 0.68400002 -0.050369758 1.2787422e-38 334 282
0.0179892 0.68400002 -0.050369758 1.2787422e-38 335 282
0.01918848 0.68400002 -0.050369758 1.2697024e-38 336 282
0.020387759 0.68400002 -0.050369758 1.2881417e-38 337 282
0.02158704 0.68400002 -0.050369758 1.3157278e-38 338 282
0.022852944 0.68599999 -0.050517038 1.3249473e-38 339 282
0.024055731 0.68599999 -0.050517038 1.3343458e-38 340 282
0.025258519 0.68599999 -0.050517038 1.3343458e-38 341 282
0.026461305 0.68599999 -0.050517038 1.3527843e-38 342 282
0.027664091 0.68599999 -0.050517038 1.3711874e-38 343 282
0.028908957 0.68699998 -0.050590675 1.3804072e-38 344 282
0.030113498 0.68699998 -0.050590675 1.3896268e-38 345 282
0.031318039 0.68699998 -0.050590675 1.3712602e-38 346 282
0.032569919 0.68800002 -0.050664321 1.3896633e-38 347 282
0.0338744 0.69 -0.050811596 1.3712968e-38 348 282
0.035084199 0.69 -0.050811596 1.3712968e-38 349 282
0.036451802 0.69300002 -0.051032521 1.3437823e-38 350 282
0.037666857 0.69300002 -0.051032521 1.3437823e-38 351 282
0.038938027 0.69400001 -0.051106159 1.3346708e-38 352 282
0.040154841 0.69400001 -0.051106159 1.3346708e-38 353 282
0.041490879 0.69599998 -0.051253434 1.3622937e-38 354 282
0.042711195 0.69599998 -0.051253434 1.3899883e-38 355 282
0.043931518 0.69599998 -0.051253434 1.3348877e-38 356 282
0.045281585 0.69800001 -0.051400717 1.3441073e-38 357 282
0.046505414 0.69800001 -0.051400717 1.5664959e-38 358 282
-0.025700359 0.69800001 -0.052624546 1.0599607e-38 299 283
-0.024476532 0.69800001 -0.052624546 1.2886101e-38 300 283
-0.023252707 0.69800001 -0.052624546 1.2978297e-38 301 283
-0.02202888 0.69800001 -0.052624546 1.3805867e-38 302 283
-0.020805053 0.69800001 -0.052624546 1.4266845e-38 303 283
-0.019581227 0.69800001 -0.052624546 1.4174294e-38 304 283
-0.018331099 0.69700003 -0.052549154 1.4174294e-38 305 283
-0.017084479 0.69599998 -0.052473757 1.4173578e-38 306 283
-0.015864158 0.69599998 -0.052473757 1.4357969e-38 307 283
-0.01460176 0.69400001 -0.052322973 1.4266477e-38 308 283
-0.01336566 0.69300002 -0.05224758 1.4266477e-38 309 283
-0.012150601 0.69300002 -0.05224758 1.3990616e-38 310 283
-0.010935539 0.69300002 -0.05224758 1.3805864e-38 311 283
-0.0096924258 0.69099998 -0.052096792 1.407923e-38 312 283
-0.0084686 0.69 -0.052021399 1.3895199e-38 313 283
-0.0072587994 0.69 -0.052021399 1.3526783e-38 314 283
-0.0060314666 0.68800002 -0.051870614 1.3250195e-38 315 283
-0.0048251734 0.68800002 -0.051870614 1.2882135e-38 316 283
-0.0036188802 0.68800002 -0.051870614 1.2605188e-38 317 283
-0.0024125867 0.68800002 -0.051870614 1.2604119e-38 318 283
-0.0012045399 0.68699998 -0.051795214 1.2696315e-38 319 283
0 0.68699998 -0.051795214 1.251337e-38 320 283
0.0012027866 0.68599999 -0.051719822 1.269812e-38 321 283
0.0024055731 0.68599999 -0.051719822 1.2240734e-38 322 283
0.00360836 0.68599999 -0.051719822 1.233293e-38 323 283
0.0047971201 0.68400002 -0.051569041 1.2332924e-38 324 283
0.0059964 0.68400002 -0.051569041 1.2148533e-38 325 283
0.0071956799 0.68400002 -0.051569041 1.2147814e-38 326 283
0.0083826864 0.68300003 -0.051493648 1.1963422e-38 327 283
0.0095802136 0.68300003 -0.051493648 1.2328255e-38 328 283
0.01077774 0.68300003 -0.051493648 1.223606e-38 329 283
0.011975267 0.68300003 -0.051493648 1.1961268e-38 330 283
0.013172794 0.68300003 -0.051493648 1.2053822e-38 331 283
0.014370319 0.68300003 -0.051493648 1.2512277e-38 332 283
0.01559064 0.68400002 -0.051569041 1.2512277e-38 333 283
0.016789921 0.68400002 -0.051569041 1.2236044e-38 334 283
0.0179892 0.68400002 -0.051569041 1.2236044e-38 335 283
0.01918848 0.68400002 -0.051569041 1.2420075e-38 336 283
0.020387759 0.68400002 -0.051569041 1.251263e-38 337 283
0.02158704 0.68400002 -0.051569041 1.2604825e-38 338 283
0.022786319 0.68400002 -0.051569041 1.2789218e-38 339 283
0.024055731 0.68599999 -0.051719822 1.306723e-38 340 283
0.025258519 0.68599999 -0.051719822 1.3251261e-38 341 283
0.026461305 0.68599999 -0.051719822 1.3618958e-38 342 283
0.027704418 0.68699998 -0.051795214 1.3711155e-38 343 283
0.028908957 0.68699998 -0.051795214 1.3711521e-38 344 283
0.030113498 0.68699998 -0.051795214 1.3711521e-38 345 283
0.031318039 0.68699998 -0.051795214 1.3803719e-38 346 283
0.032569919 0.68800002 -0.051870614 1.3895915e-38 347 283
0.0338744 0.69 -0.052021399 1.3712965e-38 348 283
0.035084199 0.69 -0.052021399 1.3712965e-38 349 283
0.036451802 0.69300002 -0.05224758 1.343746e-38 350 283
0.037666857 0.69300002 -0.05224758 1.343746e-38 351 283
0.038938027 0.69400001 -0.052322973 1.3437823e-38 352 283
0.040154841 0.69400001 -0.052322973 1.353002e-38 353 283
0.041490879 0.69599998 -0.052473757 1.3439625e-38 354 283
0.042711195 0.69599998 -0.052473757 1.3808048e-38 355 283
0.043931518 0.69599998 -0.052473757 1.3440717e-38 356 283
0.045216713 0.69700003 -0.052549154 1.3533273e-38 357 283
0.046505414 0.69800001 -0.052624546 1.5572763e-38 358 283
-0.025700359 0.69800001 -0.053848371 1.078255e-38 299 284
-0.024476532 0.69800001 -0.053848371 1.3346004e-38 300 284
-0.023252707 0.69800001 -0.053848371 1.3714786e-38 301 284
-0.02202888 0.69800001 -0.053848371 1.3898433e-38 302 284
-0.020805053 0.69800001 -0.053848371 1.3990628e-38 303 284
-0.019581227 0.69800001 -0.053848371 1.4081732e-38 304 284
-0.018331099 0.69700003 -0.053771228 1.3989535e-38 305 284
-0.017084479 0.69599998 -0.053694077 1.3989182e-38 306 284
-0.015818574 0.69400001 -0.053539783 1.3620401e-38 307 284
-0.01460176 0.69400001 -0.053539783 1.3433489e-38 308 284
-0.01336566 0.69300002 -0.053462639 1.3894467e-38 309 284
-0.012150601 0.69300002 -0.053462639 1.3528208e-38 310 284
-0.010935539 0.69300002 -0.053462639 1.3343458e-38 311 284
-0.0096924258 0.69099998 -0.053308345 1.3342388e-38 312 284
-0.0084686 0.69 -0.053231198 1.3342388e-38 313 284
-0.0072587994 0.69 -0.053231198 1.3157999e-38 314 284
-0.0060314666 0.68800002 -0.053076908 1.2881414e-38 315 284
-0.0048251734 0.68800002 -0.053076908 1.2421876e-38 316 284
-0.0036188802 0.68800002 -0.053076908 1.2237485e-38 317 284
-0.0024125867 0.68800002 -0.053076908 1.2053822e-38 318 284
-0.0012045399 0.68699998 -0.052999757 1.2053822e-38 319 284
0 0.68699998 -0.052999757 1.1871237e-38 320 284
0.0012027866 0.68599999 -0.05292261 1.1963792e-38 321 284
0.0024055731 0.68599999 -0.05292261 1.1688281e-38 322 284
0.00360836 0.68599999 -0.05292261 1.1872672e-38 323 284
0.0047971201 0.68400002 -0.05276832 1.1873025e-38 324 284
0.0059964 0.68400002 -0.05276832 1.1873025e-38 325 284
0.0071851597 0.68300003 -0.052691177 1.1870873e-38 326 284
0.0083826864 0.68300003 -0.052691177 1.1686482e-38 327 284
0.0095802136 0.68300003 -0.052691177 1.1868003e-38 328 284
0.01077774 0.68300003 -0.052691177 1.1775807e-38 329 284
0.011975267 0.68300003 -0.052691177 1.1776524e-38 330 284
0.013172794 0.68300003 -0.052691177 1.1592492e-38 331 284
0.014370319 0.68300003 -0.052691177 1.1776161e-38 332 284
0.01559064 0.68400002 -0.05276832 1.1683605e-38 333 284
0.016789921 0.68400002 -0.05276832 1.1591759e-38 334 284
0.0179892 0.68400002 -0.05276832 1.1776509e-38 335 284
0.01918848 0.68400002 -0.05276832 1.1776509e-38 336 284
0.020387759 0.68400002 -0.05276832 1.1776509e-38 337 284
0.02158704 0.68400002 -0.05276832 1.2236044e-38 338 284
0.022786319 0.68400002 -0.05276832 1.251263e-38 339 284
0.0239856 0.68400002 -0.05276832 1.288212e-38 340 284
0.025184879 0.68400002 -0.05276832 1.3066151e-38 341 284
0.026461305 0.68599999 -0.05292261 1.3433492e-38 342 284
0.027664091 0.68599999 -0.05292261 1.3617883e-38 343 284
0.028908957 0.68699998 -0.052999757 1.3617886e-38 344 284
0.030113498 0.68699998 -0.052999757 1.3710083e-38 345 284
0.031318039 0.68699998 -0.052999757 1.3527489e-38 346 284
0.032522578 0.68699998 -0.052999757 1.3803716e-38 347 284
0.033776212 0.68800002 -0.053076908 1.3437455e-38 348 284
0.035084199 0.69 -0.053231198 1.3437455e-38 349 284
0.036346599 0.69099998 -0.053308345 1.3345262e-38 350 284
0.037666857 0.69300002 -0.053462639 1.3345262e-38 351 284
0.03888192 0.69300002 -0.053462639 1.3161596e-38 352 284
0.04009698 0.69300002 -0.053462639 1.3161596e-38 353 284
0.041371655 0.69400001 -0.053539783 1.334743e-38 354 284
0.042711195 0.69599998 -0.053694077 1.3624016e-38 355 284
0.043931518 0.69599998 -0.053694077 1.334924e-38 356 284
0.045216713 0.69700003 -0.053771228 1.3441437e-38 357 284
0.046438783 0.69700003 -0.053771228 1.5756072e-38 358 284
0.047729239 0.69800001 -0.053848371 1.8245715e-38 359 284
-0.025700359 0.69800001 -0.0550722 1.0873298e-38 299 285
-0.024476532 0.69800001 -0.0550722 1.3990994e-38 300 285
-0.023252707 0.69800001 -0.0550722 1.4083548e-38 301 285
-0.02199732 0.69700003 -0.054993302 1.3991335e-38 302 285
-0.020775247 0.69700003 -0.054993302 1.3991335e-38 303 285
-0.019553173 0.69700003 -0.054993302 1.3622552e-38 304 285
-0.018304799 0.69599998 -0.054914396 1.3530356e-38 305 285
-0.017084479 0.69599998 -0.054914396 1.3345262e-38 306 285
-0.015818574 0.69400001 -0.054756597 1.2976481e-38 307 285
-0.01460176 0.69400001 -0.054756597 1.2881414e-38 308 285
-0.01336566 0.69300002 -0.054677699 1.3157999e-38 309 285
-0.012150601 0.69300002 -0.054677699 1.2700261e-38 310 285
-0.01090398 0.69099998 -0.054519895 1.2515871e-38 311 285
-0.0096924258 0.69099998 -0.054519895 1.2606988e-38 312 285
-0.0084686 0.69 -0.054440998 1.2514792e-38 313 285
-0.0072587994 0.69 -0.054440998 1.2514079e-38 314 285
-0.0060314666 0.68800002 -0.054283202 1.2237132e-38 315 285
-0.0048251734 0.68800002 -0.054283202 1.1777958e-38 316 285
-0.0036188802 0.68800002 -0.054283202 1.1685763e-38 317 285
-0.0024125867 0.68800002 -0.054283202 1.1686482e-38 318 285
-0.0012045399 0.68699998 -0.054204296 1.1778677e-38 319 285
0 0.68699998 -0.054204296 1.1503535e-38 320 285
0.0012027866 0.68599999 -0.054125395 1.1503535e-38 321 285
0.0024055731 0.68599999 -0.054125395 1.1503179e-38 322 285
0.00359784 0.68400002 -0.053967599 1.1595375e-38 323 285
0.0047971201 0.68400002 -0.053967599 1.1595731e-38 324 285
0.0059876335 0.68300003 -0.053888701 1.1503535e-38 325 285
0.0071851597 0.68300003 -0.053888701 1.1501741e-38 326 285
0.0083826864 0.68300003 -0.053888701 1.1409546e-38 327 285
0.0095802136 0.68300003 -0.053888701 1.1592495e-38 328 285
0.01077774 0.68300003 -0.053888701 1.1500298e-38 329 285
0.011975267 0.68300003 -0.053888701 1.1408816e-38 330 285
0.013172794 0.68300003 -0.053888701 1.1224785e-38 331 285
0.014370319 0.68300003 -0.053888701 1.1132233e-38 332 285
0.015567848 0.68300003 -0.053888701 1.1040037e-38 333 285
0.016765373 0.68300003 -0.053888701 1.0948564e-38 334 285
0.017962901 0.68300003 -0.053888701 1.1040759e-38 335 285
0.019160427 0.68300003 -0.053888701 1.1132236e-38 336 285
0.020357953 0.68300003 -0.053888701 1.1132236e-38 337 285
0.02155548 0.68300003 -0.053888701 1.14081e-38 338 285
0.022786319 0.68400002 -0.053967599 1.1776524e-38 339 285
0.0239856 0.68400002 -0.053967599 1.2237132e-38 340 285
0.025184879 0.68400002 -0.053967599 1.2421523e-38 341 285
0.02638416 0.68400002 -0.053967599 1.2881414e-38 342 285
0.027664091 0.68599999 -0.054125395 1.3065445e-38 343 285
0.028908957 0.68699998 -0.054204296 1.315835e-38 344 285
0.030113498 0.68699998 -0.054204296 1.3342741e-38 345 285
0.031318039 0.68699998 -0.054204296 1.3436013e-38 346 285
0.032522578 0.68699998 -0.054204296 1.3528208e-38 347 285
0.033776212 0.68800002 -0.054283202 1.3253066e-38 348 285
0.03498251 0.68800002 -0.054283202 1.3345262e-38 349 285
0.036293998 0.69 -0.054440998 1.3160515e-38 350 285
0.03755815 0.69099998 -0.054519895 1.3160515e-38 351 285
0.03888192 0.69300002 -0.054677699 1.3069401e-38 352 285
0.04009698 0.69300002 -0.054677699 1.3161596e-38 353 285
0.041371655 0.69400001 -0.054756597 1.3254878e-38 354 285
0.042711195 0.69599998 -0.054914396 1.3624019e-38 355 285
0.043931518 0.69599998 -0.054914396 1.3257772e-38 356 285
0.045216713 0.69700003 -0.054993302 1.3534357e-38 357 285
0.046438783 0.69700003 -0.054993302 1.547949e-38 358 285
0.047729239 0.69800001 -0.0550722 1.7876575e-38 359 285
-0.025700359 0.69800001 -0.056296028 1.1058048e-38 299 286
-0.024476532 0.69800001 -0.056296028 1.463385e-38 300 286
-0.023252707 0.69800001 -0.056296028 1.463385e-38 301 286
-0.02199732 0.69700003 -0.056215372 1.3991335e-38 302 286
-0.020775247 0.69700003 -0.056215372 1.3806585e-38 303 286
-0.019553173 0.69700003 -0.056215372 1.3621829e-38 304 286
-0.018304799 0.69599998 -0.056134716 1.3345244e-38 305 286
-0.017035386 0.69400001 -0.055973411 1.3436013e-38 306 286
-0.015818574 0.69400001 -0.055973411 1.306723e-38 307 286
-0.01460176 0.69400001 -0.055973411 1.2607697e-38 308 286
-0.01336566 0.69300002 -0.055892758 1.2515501e-38 309 286
-0.012150601 0.69300002 -0.055892758 1.2331833e-38 310 286
-0.01090398 0.69099998 -0.055731449 1.2331833e-38 311 286
-0.0096783992 0.69 -0.055650797 1.2421879e-38 312 286
-0.0084686 0.69 -0.055650797 1.2237129e-38 313 286
-0.0072377604 0.68800002 -0.055489492 1.1778312e-38 314 286
-0.0060314666 0.68800002 -0.055489492 1.1685757e-38 315 286
-0.0048251734 0.68800002 -0.055489492 1.1319126e-38 316 286
-0.0036188802 0.68800002 -0.055489492 1.1319126e-38 317 286
-0.0024090798 0.68699998 -0.055408835 1.1410965e-38 318 286
-0.0012045399 0.68699998 -0.055408835 1.1410965e-38 319 286
0 0.68699998 -0.055408835 1.1227303e-38 320 286
0.0012027866 0.68599999 -0.055328183 1.1227303e-38 321 286
0.0024055731 0.68599999 -0.055328183 1.1227303e-38 322 286
0.00359784 0.68400002 -0.055166878 1.1227303e-38 323 286
0.0047901068 0.68300003 -0.055086225 1.1410252e-38 324 286
0.0059876335 0.68300003 -0.055086225 1.1317698e-38 325 286
0.0071851597 0.68300003 -0.055086225 1.1408097e-38 326 286
0.0083826864 0.68300003 -0.055086225 1.1408097e-38 327 286
0.009566186 0.68199998 -0.055005573 1.1408813e-38 328 286
0.010761959 0.68199998 -0.055005573 1.1501369e-38 329 286
0.011975267 0.68300003 -0.055086225 1.140845e-38 330 286
0.013172794 0.68300003 -0.055086225 1.1316254e-38 331 286
0.014370319 0.68300003 -0.055086225 1.0948558e-38 332 286
0.015567848 0.68300003 -0.055086225 1.0672331e-38 333 286
0.016765373 0.68300003 -0.055086225 1.076453e-38 334 286
0.017962901 0.68300003 -0.055086225 1.076453e-38 335 286
0.019160427 0.68300003 -0.055086225 1.1130791e-38 336 286
0.020357953 0.68300003 -0.055086225 1.1038235e-38 337 286
0.02155548 0.68300003 -0.055086225 1.1314101e-38 338 286
0.022753006 0.68300003 -0.055086225 1.1591046e-38 339 286
0.0239856 0.68400002 -0.055166878 1.2051652e-38 340 286
0.025184879 0.68400002 -0.055166878 1.2236044e-38 341 286
0.02638416 0.68400002 -0.055166878 1.2512258e-38 342 286
0.027664091 0.68599999 -0.055328183 1.288104e-38 343 286
0.028908957 0.68699998 -0.055408835 1.2973586e-38 344 286
0.030113498 0.68699998 -0.055408835 1.3250533e-38 345 286
0.031318039 0.68699998 -0.055408835 1.3434208e-38 346 286
0.032522578 0.68699998 -0.055408835 1.3618958e-38 347 286
0.033776212 0.68800002 -0.055489492 1.3160152e-38 348 286
0.03498251 0.68800002 -0.055489492 1.3252347e-38 349 286
0.036293998 0.69 -0.055650797 1.2976483e-38 350 286
0.037503798 0.69 -0.055650797 1.2976483e-38 351 286
0.038769703 0.69099998 -0.055731449 1.2978271e-38 352 286
0.04009698 0.69300002 -0.055892758 1.3070467e-38 353 286
0.041371655 0.69400001 -0.055973411 1.3072269e-38 354 286
0.042711195 0.69599998 -0.056134716 1.3440692e-38 355 286
0.043931518 0.69599998 -0.056134716 1.3349593e-38 356 286
0.045281585 0.69800001 -0.056296028 1.362654e-38 357 286
0.046505414 0.69800001 -0.056296028 1.5203982e-38 358 286
0.047729239 0.69800001 -0.056296028 1.7508512e-38 359 286
-0.024476532 0.69800001 -0.057519849 1.4267222e-38 300 287
-0.023252707 0.69800001 -0.057519849 1.408283e-38 301 287
-0.02199732 0.69700003 -0.05743745 1.3806587e-38 302 287
-0.020775247 0.69700003 -0.05743745 1.3438164e-38 303 287
-0.019525118 0.69599998 -0.057355035 1.3253416e-38 304 287
-0.018304799 0.69599998 -0.057355035 1.297683e-38 305 287
-0.017035386 0.69400001 -0.057190225 1.288536e-38 306 287
-0.015818574 0.69400001 -0.057190225 1.2700608e-38 307 287
-0.014580719 0.69300002 -0.057107817 1.2607691e-38 308 287
-0.01336566 0.69300002 -0.057107817 1.2700245e-38 309 287
-0.012115533 0.69099998 -0.056942999 1.2057044e-38 310 287
-0.01090398 0.69099998 -0.056942999 1.1872292e-38 311 287
-0.0096783992 0.69 -0.0568606 1.2054536e-38 312 287
-0.0084686 0.69 -0.0568606 1.1870504e-38 313 287
-0.0072377604 0.68800002 -0.056695789 1.1778662e-38 314 287
-0.0060314666 0.68800002 -0.056695789 1.1686466e-38 315 287
-0.0048251734 0.68800002 -0.056695789 1.1502795e-38 316 287
-0.0036188802 0.68800002 -0.056695789 1.14106e-38 317 287
-0.0024090798 0.68699998 -0.056613375 1.1227653e-38 318 287
-0.0012045399 0.68699998 -0.056613375 1.1227653e-38 319 287
0 0.68699998 -0.056613375 1.1410968e-38 320 287
0.0012027866 0.68599999 -0.056530971 1.1503164e-38 321 287
0.0024055731 0.68599999 -0.056530971 1.1410968e-38 322 287
0.00359784 0.68400002 -0.056366164 1.1410968e-38 323 287
0.0047901068 0.68300003 -0.056283753 1.1135107e-38 324 287
0.0059876335 0.68300003 -0.056283753 1.0950714e-38 325 287
0.0071851597 0.68300003 -0.056283753 1.0950359e-38 326 287
0.0083826864 0.68300003 -0.056283753 1.0858163e-38 327 287
0.009566186 0.68199998 -0.056201346 1.1225501e-38 328 287
0.010761959 0.68199998 -0.056201346 1.1225501e-38 329 287
0.011975267 0.68300003 -0.056283753 1.1132942e-38 330 287
0.013172794 0.68300003 -0.056283753 1.1040388e-38 331 287
0.014370319 0.68300003 -0.056283753 1.0764883e-38 332 287
0.015567848 0.68300003 -0.056283753 1.0672328e-38 333 287
0.016765373 0.68300003 -0.056283753 1.0580857e-38 334 287
0.017962901 0.68300003 -0.056283753 1.0580857e-38 335 287
0.019160427 0.68300003 -0.056283753 1.0396466e-38 336 287
0.020357953 0.68300003 -0.056283753 1.030427e-38 337 287
0.02155548 0.68300003 -0.056283753 1.0304989e-38 338 287
0.022753006 0.68300003 -0.056283753 1.0489382e-38 339 287
0.0239856 0.68400002 -0.056366164 1.0949993e-38 340 287
0.025184879 0.68400002 -0.056366164 1.1226221e-38 341 287
0.02638416 0.68400002 -0.056366164 1.1502798e-38 342 287
0.027664091 0.68599999 -0.056530971 1.1779025e-38 343 287
0.02886688 0.68599999 -0.056530971 1.2146365e-38 344 287
0.030069664 0.68599999 -0.056530971 1.2515148e-38 345 287
0.031318039 0.68699998 -0.056613375 1.2882133e-38 346 287
0.032522578 0.68699998 -0.056613375 1.3066883e-38 347 287
0.033776212 0.68800002 -0.056695789 1.2883933e-38 348 287
0.03498251 0.68800002 -0.056695789 1.297613e-38 349 287
0.036293998 0.69 -0.0568606 1.288393e-38 350 287
0.037503798 0.69 -0.0568606 1.2976486e-38 351 287
0.038769703 0.69099998 -0.056942999 1.2977921e-38 352 287
0.04009698 0.69300002 -0.057107817 1.3162312e-38 353 287
0.041371655 0.69400001 -0.057190225 1.3072285e-38 354 287
0.042711195 0.69599998 -0.057355035 1.3441426e-38 355 287
0.043931518 0.69599998 -0.057355035 1.2799317e-38 356 287
0.045281585 0.69800001 -0.057519849 1.3444687e-38 357 287
0.046505414 0.69800001 -0.057519849 1.557241e-38 358 287
0.047729239 0.69800001 -0.057519849 1.7785106e-38 359 287
-0.024476532 0.69800001 -0.058743682 1.3899883e-38 300 288
-0.023252707 0.69800001 -0.058743682 1.3715133e-38 301 288
-0.02199732 0.69700003 -0.05865952 1.3528205e-38 302 288
-0.020775247 0.69700003 -0.05865952 1.3251617e-38 303 288
-0.019525118 0.69599998 -0.058575355 1.2700245e-38 304 288
-0.018304799 0.69599998 -0.058575355 1.2700245e-38 305 288
-0.017035386 0.69400001 -0.058407038 1.2699536e-38 306 288
-0.015818574 0.69400001 -0.058407038 1.2515145e-38 307 288
-0.014580719 0.69300002 -0.058322877 1.2422947e-38 308 288
-0.01336566 0.69300002 -0.058322877 1.2422947e-38 309 288
-0.012115533 0.69099998 -0.058154557 1.1964845e-38 310 288
-0.01090398 0.69099998 -0.058154557 1.1688259e-38 311 288
-0.0096783992 0.69 -0.058070395 1.1870858e-38 312 288
-0.0084440531 0.68800002 -0.057902083 1.1778662e-38 313 288
-0.0072377604 0.68800002 -0.057902083 1.1595713e-38 314 288
-0.0060314666 0.68800002 -0.057902083 1.1503517e-38 315 288
-0.0048251734 0.68800002 -0.057902083 1.1502795e-38 316 288
-0.0036188802 0.68800002 -0.057902083 1.1502795e-38 317 288
-0.0024090798 0.68699998 -0.057817914 1.1503517e-38 318 288
-0.0012045399 0.68699998 -0.057817914 1.1595713e-38 319 288
0 0.68599999 -0.057733759 1.132057e-38 320 288
0.0012027866 0.68599999 -0.057733759 1.1412766e-38 321 288
0.0024055731 0.68599999 -0.057733759 1.1045063e-38 322 288
0.00359784 0.68400002 -0.057565439 1.0952508e-38 323 288
0.0047901068 0.68300003 -0.057481278 1.0859596e-38 324 288
0.0059876335 0.68300003 -0.057481278 1.0767399e-38 325 288
0.0071851597 0.68300003 -0.057481278 1.0857444e-38 326 288
0.0083826864 0.68300003 -0.057481278 1.094964e-38 327 288
0.0095802136 0.68300003 -0.057481278 1.1133308e-38 328 288
0.01077774 0.68300003 -0.057481278 1.1133308e-38 329 288
0.011957732 0.68199998 -0.05739712 1.1041109e-38 330 288
0.013153506 0.68199998 -0.05739712 1.0764883e-38 331 288
0.01434928 0.68199998 -0.05739712 1.0580131e-38 332 288
0.015545053 0.68199998 -0.05739712 1.0580131e-38 333 288
0.016740825 0.68199998 -0.05739712 1.0580854e-38 334 288
0.017962901 0.68300003 -0.057481278 1.0580854e-38 335 288
0.019160427 0.68300003 -0.057481278 1.0397175e-38 336 288
0.020357953 0.68300003 -0.057481278 1.0304621e-38 337 288
0.02155548 0.68300003 -0.057481278 1.0488286e-38 338 288
0.022753006 0.68300003 -0.057481278 1.0580482e-38 339 288
0.0239856 0.68400002 -0.057565439 1.1041097e-38 340 288
0.025184879 0.68400002 -0.057565439 1.1133292e-38 341 288
0.02638416 0.68400002 -0.057565439 1.1409522e-38 342 288
0.027664091 0.68599999 -0.057733759 1.1593915e-38 343 288
0.02886688 0.68599999 -0.057733759 1.2236766e-38 344 288
0.030069664 0.68599999 -0.057733759 1.2328962e-38 345 288
0.031318039 0.68699998 -0.057817914 1.2788138e-38 346 288
0.032522578 0.68699998 -0.057817914 1.315728e-38 347 288
0.033776212 0.68800002 -0.057902083 1.2698818e-38 348 288
0.03498251 0.68800002 -0.057902083 1.2883207e-38 349 288
0.0361888 0.68800002 -0.057902083 1.29754e-38 350 288
0.037503798 0.69 -0.058070395 1.3067596e-38 351 288
0.03888192 0.69300002 -0.058322877 1.2885004e-38 352 288
0.04009698 0.69300002 -0.058322877 1.3069395e-38 353 288
0.041371655 0.69400001 -0.058407038 1.3072282e-38 354 288
0.042711195 0.69599998 -0.058575355 1.3349227e-38 355 288
0.043931518 0.69599998 -0.058575355 1.3075178e-38 356 288
0.045216713 0.69700003 -0.05865952 1.3443959e-38 357 288
0.046505414 0.69800001 -0.058743682 1.5664959e-38 358 288
-0.024476532 0.69800001 -0.059967503 1.3439628e-38 300 289
-0.023252707 0.69800001 -0.059967503 1.2794259e-38 301 289
-0.02199732 0.69700003 -0.05988159 1.2515495e-38 302 289
-0.020775247 0.69700003 -0.05988159 1.1962322e-38 303 289
-0.019553173 0.69700003 -0.05988159 1.1870502e-38 304 289
-0.018304799 0.69599998 -0.059795678 1.2054891e-38 305 289
-0.017035386 0.69400001 -0.059623852 1.2145665e-38 306 289
-0.015818574 0.69400001 -0.059623852 1.2145665e-38 307 289
-0.014580719 0.69300002 -0.05953794 1.2054536e-38 308 289
-0.013327086 0.69099998 -0.059366114 1.2054536e-38 309 289
-0.012115533 0.69099998 -0.059366114 1.187122e-38 310 289
-0.01090398 0.69099998 -0.059366114 1.1779025e-38 311 289
-0.0096783992 0.69 -0.059280202 1.1686829e-38 312 289
-0.0084440531 0.68800002 -0.059108373 1.1779025e-38 313 289
-0.0072377604 0.68800002 -0.059108373 1.1687185e-38 314 289
-0.0060226996 0.68699998 -0.059022456 1.1779381e-38 315 289
-0.0048181596 0.68699998 -0.059022456 1.1961974e-38 316 289
-0.0036136196 0.68699998 -0.059022456 1.1961974e-38 317 289
-0.0024090798 0.68699998 -0.059022456 1.1779381e-38 318 289
-0.0012045399 0.68699998 -0.059022456 1.1779381e-38 319 289
0 0.68599999 -0.058936544 1.1504239e-38 320 289
0.0012027866 0.68599999 -0.058936544 1.1504239e-38 321 289
0.0024055731 0.68599999 -0.058936544 1.1135823e-38 322 289
0.00359784 0.68400002 -0.058764715 1.1135823e-38 323 289
0.0047901068 0.68300003 -0.05867881 1.0584098e-38 324 289
0.0059876335 0.68300003 -0.05867881 1.0491901e-38 325 289
0.0071851597 0.68300003 -0.05867881 1.0582302e-38 326 289
0.0083826864 0.68300003 -0.05867881 1.0582302e-38 327 289
0.0095802136 0.68300003 -0.05867881 1.0581936e-38 328 289
0.01077774 0.68300003 -0.05867881 1.0581936e-38 329 289
0.011957732 0.68199998 -0.058592889 1.0672331e-38 330 289
0.013153506 0.68199998 -0.058592889 1.0672331e-38 331 289
0.01434928 0.68199998 -0.058592889 1.0672331e-38 332 289
0.015545053 0.68199998 -0.058592889 1.0580134e-38 333 289
0.016740825 0.68199998 -0.058592889 1.0672328e-38 334 289
0.017962901 0.68300003 -0.05867881 1.0580131e-38 335 289
0.019160427 0.68300003 -0.05867881 1.0580487e-38 336 289
0.020357953 0.68300003 -0.05867881 1.0488292e-38 337 289
0.02155548 0.68300003 -0.05867881 1.0580482e-38 338 289
0.022753006 0.68300003 -0.05867881 1.0673036e-38 339 289
0.023950534 0.68300003 -0.05867881 1.0765233e-38 340 289
0.025184879 0.68400002 -0.058764715 1.104146e-38 341 289
0.02638416 0.68400002 -0.058764715 1.1132589e-38 342 289
0.027664091 0.68599999 -0.058936544 1.1224785e-38 343 289
0.02886688 0.68599999 -0.058936544 1.1500298e-38 344 289
0.030113498 0.68699998 -0.059022456 1.1592495e-38 345 289
0.031318039 0.68699998 -0.059022456 1.1961273e-38 346 289
0.032522578 0.68699998 -0.059022456 1.2421893e-38 347 289
0.033727121 0.68699998 -0.059022456 1.2514795e-38 348 289
0.03498251 0.68800002 -0.059108373 1.260699e-38 349 289
0.0361888 0.68800002 -0.059108373 1.2700255e-38 350 289
0.037503798 0.69 -0.059280202 1.2700255e-38 351 289
0.03888192 0.69300002 -0.05953794 1.2884651e-38 352 289
0.04009698 0.69300002 -0.05953794 1.3069401e-38 353 289
0.041371655 0.69400001 -0.059623852 1.2887898e-38 354 289
0.042711195 0.69599998 -0.059795678 1.344107e-38 355 289
0.043931518 0.69599998 -0.059795678 1.2984427e-38 356 289
0.045216713 0.69700003 -0.05988159 1.3261014e-38 357 289
0.046438783 0.69700003 -0.05988159 1.6033029e-38 358 289
-0.025700359 0.69800001 -0.061191335 1.0685669e-38 299 290
-0.024441468 0.69700003 -0.061103668 1.2794624e-38 300 290
-0.023219392 0.69700003 -0.061103668 1.2241451e-38 301 290
-0.02199732 0.69700003 -0.061103668 1.2053451e-38 302 290
-0.020775247 0.69700003 -0.061103668 1.1408082e-38 303 290
-0.019553173 0.69700003 -0.061103668 1.1683608e-38 304 290
-0.018304799 0.69599998 -0.061015997 1.1868e-38 305 290
-0.017035386 0.69400001 -0.060840666 1.1592861e-38 306 290
-0.015818574 0.69400001 -0.060840666 1.1592861e-38 307 290
-0.014580719 0.69300002 -0.060752999 1.1502095e-38 308 290
-0.013327086 0.69099998 -0.060577665 1.1502095e-38 309 290
-0.012097999 0.69 -0.060489997 1.1686832e-38 310 290
-0.010888199 0.69 -0.060489997 1.1502801e-38 311 290
-0.0096503468 0.68800002 -0.060314666 1.168611e-38 312 290
-0.0084440531 0.68800002 -0.060314666 1.1778306e-38 313 290
-0.0072377604 0.68800002 -0.060314666 1.1686829e-38 314 290
-0.0060226996 0.68699998 -0.060226995 1.1686829e-38 315 290
-0.0048181596 0.68699998 -0.060226995 1.1778306e-38 316 290
-0.0036136196 0.68699998 -0.060226995 1.1778306e-38 317 290
-0.0024090798 0.68699998 -0.060226995 1.1503517e-38 318 290
-0.0012045399 0.68699998 -0.060226995 1.1411321e-38 319 290
0 0.68599999 -0.060139328 1.1410971e-38 320 290
0.0012027866 0.68599999 -0.060139328 1.1318417e-38 321 290
0.0024055731 0.68599999 -0.060139328 1.104328e-38 322 290
0.00359784 0.68400002 -0.059964001 1.085889e-38 323 290
0.0047901068 0.68300003 -0.059876334 1.0675219e-38 324 290
0.0059876335 0.68300003 -0.059876334 1.0675219e-38 325 290
0.0071851597 0.68300003 -0.059876334 1.0673779e-38 326 290
0.0083826864 0.68300003 -0.059876334 1.0581583e-38 327 290
0.0095802136 0.68300003 -0.059876334 1.0580504e-38 328 290
0.01077774 0.68300003 -0.059876334 1.0396472e-38 329 290
0.011957732 0.68199998 -0.059788663 1.0396472e-38 330 290
0.013153506 0.68199998 -0.059788663 1.0396472e-38 331 290
0.01434928 0.68199998 -0.059788663 1.0304992e-38 332 290
0.015545053 0.68199998 -0.059788663 1.0304992e-38 333 290
0.016740825 0.68199998 -0.059788663 1.0304992e-38 334 290
0.017962901 0.68300003 -0.059876334 1.0028406e-38 335 290
0.019160427 0.68300003 -0.059876334 1.0212075e-38 336 290
0.020357953 0.68300003 -0.059876334 1.0212075e-38 337 290
0.02155548 0.68300003 -0.059876334 1.0029834e-38 338 290
0.022753006 0.68300003 -0.059876334 1.0214227e-38 339 290
0.023950534 0.68300003 -0.059876334 1.0673756e-38 340 290
0.025184879 0.68400002 -0.059964001 1.0765952e-38 341 290
0.02638416 0.68400002 -0.059964001 1.113151e-38 342 290
0.027583439 0.68400002 -0.059964001 1.113151e-38 343 290
0.02886688 0.68599999 -0.060139328 1.085494e-38 344 290
0.030113498 0.68699998 -0.060226995 1.103969e-38 345 290
0.031318039 0.68699998 -0.060226995 1.1592145e-38 346 290
0.032522578 0.68699998 -0.060226995 1.2144959e-38 347 290
0.033727121 0.68699998 -0.060226995 1.2238578e-38 348 290
0.03498251 0.68800002 -0.060314666 1.2331132e-38 349 290
0.0361888 0.68800002 -0.060314666 1.2424394e-38 350 290
0.037503798 0.69 -0.060489997 1.251659e-38 351 290
0.03888192 0.69300002 -0.060752999 1.2609144e-38 352 290
0.04009698 0.69300002 -0.060752999 1.2977568e-38 353 290
0.041371655 0.69400001 -0.060840666 1.2796777e-38 354 290
0.042711195 0.69599998 -0.061015997 1.334959e-38 355 290
0.043931518 0.69599998 -0.061015997 1.2892232e-38 356 290
0.045216713 0.69700003 -0.061103668 1.3445406e-38 357 290
0.046438783 0.69700003 -0.061103668 1.6494733e-38 358 290
-0.027001332 0.69999999 -0.062593997 1.4280221e-38 298 291
-0.025700359 0.69800001 -0.062415157 1.0408004e-38 299 291
-0.024476532 0.69800001 -0.062415157 1.2609884e-38 300 291
-0.023219392 0.69700003 -0.062325738 1.2333297e-38 301 291
-0.02199732 0.69700003 -0.062325738 1.2146018e-38 302 291
-0.020775247 0.69700003 -0.062325738 1.1776877e-38 303 291
-0.019553173 0.69700003 -0.062325738 1.1226224e-38 304 291
-0.018304799 0.69599998 -0.062236317 1.1042191e-38 305 291
-0.017035386 0.69400001 -0.06205748 1.0950361e-38 306 291
-0.015818574 0.69400001 -0.06205748 1.0950361e-38 307 291
-0.014580719 0.69300002 -0.061968062 1.1225501e-38 308 291
-0.013327086 0.69099998 -0.061789215 1.1225501e-38 309 291
-0.012097999 0.69 -0.061699796 1.1593912e-38 310 291
-0.010888199 0.69 -0.061699796 1.1593912e-38 311 291
-0.0096503468 0.68800002 -0.06152096 1.1503151e-38 312 291
-0.0084440531 0.68800002 -0.06152096 1.1687182e-38 313 291
-0.0072377604 0.68800002 -0.06152096 1.1687185e-38 314 291
-0.0060226996 0.68699998 -0.061431535 1.1687185e-38 315 291
-0.0048181596 0.68699998 -0.061431535 1.1778662e-38 316 291
-0.0036136196 0.68699998 -0.061431535 1.1686466e-38 317 291
-0.0024090798 0.68699998 -0.061431535 1.1410602e-38 318 291
-0.0012027866 0.68599999 -0.061342116 1.1225851e-38 319 291
0 0.68599999 -0.061342116 1.1224782e-38 320 291
0.0012027866 0.68599999 -0.061342116 1.1224782e-38 321 291
0.0024055731 0.68599999 -0.061342116 1.085816e-38 322 291
0.00359784 0.68400002 -0.061163284 1.0950714e-38 323 291
0.0047901068 0.68300003 -0.061073858 1.0674132e-38 324 291
0.0059876335 0.68300003 -0.061073858 1.0674132e-38 325 291
0.0071851597 0.68300003 -0.061073858 1.0948561e-38 326 291
0.0083826864 0.68300003 -0.061073858 1.076453e-38 327 291
0.0095802136 0.68300003 -0.061073858 1.0212796e-38 328 291
0.01077774 0.68300003 -0.061073858 1.0028406e-38 329 291
0.011957732 0.68199998 -0.060984433 1.0212077e-38 330 291
0.013153506 0.68199998 -0.060984433 1.0212077e-38 331 291
0.01434928 0.68199998 -0.060984433 1.0211722e-38 332 291
0.015545053 0.68199998 -0.060984433 1.0211722e-38 333 291
0.016740825 0.68199998 -0.060984433 1.0028406e-38 334 291
0.017962901 0.68300003 -0.061073858 9.9362108e-39 335 291
0.019160427 0.68300003 -0.061073858 9.7518196e-39 336 291
0.020357953 0.68300003 -0.061073858 9.7518196e-39 337 291
0.02155548 0.68300003 -0.061073858 9.936564e-39 338 291
0.022786319 0.68400002 -0.061163284 1.0212791e-38 339 291
0.0239856 0.68400002 -0.061163284 1.0581201e-38 340 291
0.025184879 0.68400002 -0.061163284 1.0673756e-38 341 291
0.02638416 0.68400002 -0.061163284 1.0672684e-38 342 291
0.027583439 0.68400002 -0.061163284 1.0580487e-38 343 291
0.02878272 0.68400002 -0.061163284 1.0395037e-38 344 291
0.029982001 0.68400002 -0.061163284 1.0579428e-38 345 291
0.031318039 0.68699998 -0.061431535 1.1224078e-38 346 291
0.032522578 0.68699998 -0.061431535 1.1869448e-38 347 291
0.033727121 0.68699998 -0.061431535 1.1963066e-38 348 291
0.03498251 0.68800002 -0.06152096 1.2055622e-38 349 291
0.0361888 0.68800002 -0.06152096 1.2332201e-38 350 291
0.037395094 0.68800002 -0.06152096 1.2424397e-38 351 291
0.03888192 0.69300002 -0.061968062 1.251659e-38 352 291
0.04009698 0.69300002 -0.061968062 1.2793537e-38 353 291
0.041371655 0.69400001 -0.06205748 1.2796777e-38 354 291
0.042711195 0.69599998 -0.062236317 1.334959e-38 355 291
0.043931518 0.69599998 -0.062236317 1.2892953e-38 356 291
0.045216713 0.69700003 -0.062325738 1.3722715e-38 357 291
0.046505414 0.69800001 -0.062415157 1.6772043e-38 358 291
0.047865998 0.69999999 -0.062593997 1.9169128e-38 359 291
-0.027001332 0.69999999 -0.063821331 1.4555368e-38 298 292
-0.025773998 0.69999999 -0.063821331 1.0775348e-38 299 292
-0.024476532 0.69800001 -0.063638985 1.2610959e-38 300 292
-0.023219392 0.69700003 -0.06354782 1.2057785e-38 301 292
-0.02199732 0.69700003 -0.06354782 1.1963775e-38 302 292
-0.020775247 0.69700003 -0.06354782 1.1686829e-38 303 292
-0.019553173 0.69700003 -0.06354782 1.1319123e-38 304 292
-0.018304799 0.69599998 -0.063456632 1.1226926e-38 305 292
-0.017035386 0.69400001 -0.063274294 1.0582649e-38 306 292
-0.015818574 0.69400001 -0.063274294 1.0582649e-38 307 292
-0.014580719 0.69300002 -0.063183114 1.0581936e-38 308 292
-0.013327086 0.69099998 -0.063000768 1.0581936e-38 309 292
-0.012097999 0.69 -0.062909603 1.0675554e-38 310 292
-0.010888199 0.69 -0.062909603 1.0859945e-38 311 292
-0.0096503468 0.68800002 -0.06272725 1.1135808e-38 312 292
-0.0084440531 0.68800002 -0.06272725 1.1135808e-38 313 292
-0.0072272392 0.68699998 -0.062636077 1.1502798e-38 314 292
-0.0060226996 0.68699998 -0.062636077 1.1410602e-38 315 292
-0.0048181596 0.68699998 -0.062636077 1.1410247e-38 316 292
-0.0036136196 0.68699998 -0.062636077 1.1318049e-38 317 292
-0.0024090798 0.68699998 -0.062636077 1.1133661e-38 318 292
-0.0012027866 0.68599999 -0.062544905 1.1041107e-38 319 292
0 0.68599999 -0.062544905 1.0672334e-38 320 292
0.0012027866 0.68599999 -0.062544905 1.076453e-38 321 292
0.0023985601 0.68400002 -0.062362559 1.0397908e-38 322 292
0.00359784 0.68400002 -0.062362559 1.0582299e-38 323 292
0.0047971201 0.68400002 -0.062362559 1.0490457e-38 324 292
0.0059876335 0.68300003 -0.06227139 1.0398261e-38 325 292
0.0071851597 0.68300003 -0.06227139 1.0672684e-38 326 292
0.0083826864 0.68300003 -0.06227139 1.0580487e-38 327 292
0.0095802136 0.68300003 -0.06227139 1.0487936e-38 328 292
0.01077774 0.68300003 -0.06227139 1.039574e-38 329 292
0.011975267 0.68300003 -0.06227139 9.8447313e-39 330 292
0.013172794 0.68300003 -0.06227139 9.7525356e-39 331 292
0.014370319 0.68300003 -0.06227139 9.4766774e-39 332 292
0.015567848 0.68300003 -0.06227139 9.5688731e-39 333 292
0.016765373 0.68300003 -0.06227139 9.2015353e-39 334 292
0.017962901 0.68300003 -0.06227139 8.9249484e-39 335 292
0.019160427 0.68300003 -0.06227139 8.8327556e-39 336 292
0.020357953 0.68300003 -0.06227139 8.7405599e-39 337 292
0.02155548 0.68300003 -0.06227139 8.8334716e-39 338 292
0.022753006 0.68300003 -0.06227139 9.1104187e-39 339 292
0.0239856 0.68400002 -0.062362559 9.4795417e-39 340 292
0.025184879 0.68400002 -0.062362559 9.4795417e-39 341 292
0.02638416 0.68400002 -0.062362559 1.0304623e-38 342 292
0.027583439 0.68400002 -0.062362559 1.0212428e-38 343 292
0.02878272 0.68400002 -0.062362559 1.0028409e-38 344 292
0.029982001 0.68400002 -0.062362559 1.0397192e-38 345 292
0.031318039 0.68699998 -0.062636077 1.0950008e-38 346 292
0.032522578 0.68699998 -0.062636077 1.1226597e-38 347 292
0.033727121 0.68699998 -0.062636077 1.1687561e-38 348 292
0.03498251 0.68800002 -0.06272725 1.1963789e-38 349 292
0.0361888 0.68800002 -0.06272725 1.1965221e-38 350 292
0.037395094 0.68800002 -0.06272725 1.2149252e-38 351 292
0.03888192 0.69300002 -0.063183114 1.2333646e-38 352 292
0.040154841 0.69400001 -0.063274294 1.2610593e-38 353 292
0.041371655 0.69400001 -0.063274294 1.242873e-38 354 292
0.042711195 0.69599998 -0.063456632 1.3166295e-38 355 292
0.043931518 0.69599998 -0.063456632 1.2985516e-38 356 292
0.045151837 0.69599998 -0.063456632 1.4092222e-38 357 292
0.046505414 0.69800001 -0.063638985 1.7141903e-38 358 292
0.047729239 0.69800001 -0.063638985 1.8985816e-38 359 292
-0.027001332 0.69999999 -0.065048665 1.4925227e-38 298 293
-0.025773998 0.69999999 -0.065048665 1.0776064e-38 299 293
-0.024476532 0.69800001 -0.06486281 1.2427291e-38 300 293
-0.023219392 0.69700003 -0.064769886 1.1320583e-38 301 293
-0.02199732 0.69700003 -0.064769886 1.1686482e-38 302 293
-0.020775247 0.69700003 -0.064769886 1.1686482e-38 303 293
-0.019553173 0.69700003 -0.064769886 1.0859596e-38 304 293
-0.018304799 0.69599998 -0.064676955 1.0582649e-38 305 293
-0.017035386 0.69400001 -0.064491108 1.0490457e-38 306 293
-0.015818574 0.69400001 -0.064491108 1.0121674e-38 307 293
-0.014580719 0.69300002 -0.064398177 1.0580131e-38 308 293
-0.013327086 0.69099998 -0.06421233 1.0580131e-38 309 293
-0.012097999 0.69 -0.064119399 1.0949261e-38 310 293
-0.010888199 0.69 -0.064119399 1.1041816e-38 311 293
-0.0096503468 0.68800002 -0.063933544 1.1226554e-38 312 293
-0.0084440531 0.68800002 -0.063933544 1.1319109e-38 313 293
-0.0072272392 0.68699998 -0.06384062 1.1408798e-38 314 293
-0.0060226996 0.68699998 -0.06384062 1.1501352e-38 315 293
-0.0048181596 0.68699998 -0.06384062 1.1591759e-38 316 293
-0.0036136196 0.68699998 -0.06384062 1.1407728e-38 317 293
-0.0024090798 0.68699998 -0.06384062 1.0948911e-38 318 293
-0.0012027866 0.68599999 -0.063747689 1.0580487e-38 319 293
0 0.68599999 -0.063747689 1.0396819e-38 320 293
0.00119928 0.68400002 -0.063561834 1.0396819e-38 321 293
0.0023985601 0.68400002 -0.063561834 1.0396822e-38 322 293
0.00359784 0.68400002 -0.063561834 1.0580854e-38 323 293
0.0047971201 0.68400002 -0.063561834 1.0580852e-38 324 293
0.0059876335 0.68300003 -0.063468911 1.0580852e-38 325 293
0.0071851597 0.68300003 -0.063468911 1.0396819e-38 326 293
0.0083826864 0.68300003 -0.063468911 1.0396819e-38 327 293
0.0095802136 0.68300003 -0.063468911 1.0212794e-38 328 293
0.01077774 0.68300003 -0.063468911 1.0028762e-38 329 293
0.011975267 0.68300003 -0.063468911 9.8447313e-39 330 293
0.013153506 0.68199998 -0.063375987 9.7525356e-39 331 293
0.01434928 0.68199998 -0.063375987 9.385558e-39 332 293
0.015545053 0.68199998 -0.063375987 8.9242197e-39 333 293
0.016765373 0.68300003 -0.063468911 9.1064656e-39 334 293
0.017962901 0.68300003 -0.063468911 8.8302388e-39 335 293
0.019160427 0.68300003 -0.063468911 8.5543708e-39 336 293
0.020357953 0.68300003 -0.063468911 8.5543708e-39 337 293
0.02155548 0.68300003 -0.063468911 8.5561659e-39 338 293
0.022753006 0.68300003 -0.063468911 8.7405571e-39 339 293
0.0239856 0.68400002 -0.063561834 9.3855608e-39 340 293
0.025184879 0.68400002 -0.063561834 9.3855608e-39 341 293
0.02638416 0.68400002 -0.063561834 1.0027683e-38 342 293
0.027583439 0.68400002 -0.063561834 1.0027683e-38 343 293
0.02878272 0.68400002 -0.063561834 1.0119157e-38 344 293
0.030069664 0.68599999 -0.063747689 1.0672331e-38 345 293
0.031318039 0.68699998 -0.06384062 1.1132939e-38 346 293
0.032522578 0.68699998 -0.06384062 1.1593917e-38 347 293
0.033727121 0.68699998 -0.06384062 1.1870132e-38 348 293
0.03498251 0.68800002 -0.063933544 1.2054523e-38 349 293
0.0361888 0.68800002 -0.063933544 1.2056322e-38 350 293
0.03755815 0.69099998 -0.06421233 1.2332549e-38 351 293
0.03888192 0.69300002 -0.064398177 1.2241801e-38 352 293
0.040154841 0.69400001 -0.064491108 1.2518748e-38 353 293
0.041371655 0.69400001 -0.064491108 1.2521276e-38 354 293
0.042588469 0.69400001 -0.064491108 1.2798221e-38 355 293
0.043931518 0.69599998 -0.064676955 1.2986595e-38 356 293
0.045151837 0.69599998 -0.064676955 1.4738312e-38 357 293
0.046438783 0.69700003 -0.064769886 1.7235185e-38 358 293
0.047729239 0.69800001 -0.06486281 1.8618478e-38 359 293
-0.027001332 0.69999999 -0.066275999 1.5112855e-38 298 294
-0.025773998 0.69999999 -0.066275999 1.0410877e-38 299 294
-0.024476532 0.69800001 -0.066086642 1.1692244e-38 300 294
-0.023252707 0.69800001 -0.066086642 1.0585896e-38 301 294
-0.02199732 0.69700003 -0.06599196 1.1319145e-38 302 294
-0.020775247 0.69700003 -0.06599196 1.122695e-38 303 294
-0.019553173 0.69700003 -0.06599196 1.0767044e-38 304 294
-0.018304799 0.69599998 -0.065897278 1.0490457e-38 305 294
-0.017035386 0.69400001 -0.065707922 1.0214227e-38 306 294
-0.015818574 0.69400001 -0.065707922 1.012203e-38 307 294
-0.014580719 0.69300002 -0.06561324 9.7539706e-39 308 294
-0.013327086 0.69099998 -0.065423876 1.0030197e-38 309 294
-0.012097999 0.69 -0.065329194 9.8479585e-39 310 294
-0.010888199 0.69 -0.065329194 1.003235e-38 311 294
-0.0096503468 0.68800002 -0.065139838 1.0583003e-38 312 294
-0.0084440531 0.68800002 -0.065139838 1.0583003e-38 313 294
-0.0072272392 0.68699998 -0.065045156 1.1040037e-38 314 294
-0.0060226996 0.68699998 -0.065045156 1.0855646e-38 315 294
-0.0048181596 0.68699998 -0.065045156 1.0489031e-38 316 294
-0.0036136196 0.68699998 -0.065045156 1.0489031e-38 317 294
-0.0024090798 0.68699998 -0.065045156 1.0213874e-38 318 294
-0.0012027866 0.68599999 -0.064950474 1.0029481e-38 319 294
0 0.68400002 -0.064761117 9.5699451e-39 320 294
0.00119928 0.68400002 -0.064761117 9.5699451e-39 321 294
0.0023985601 0.68400002 -0.064761117 9.2026143e-39 322 294
0.00359784 0.68400002 -0.064761117 9.3866454e-39 323 294
0.0047971201 0.68400002 -0.064761117 9.5706737e-39 324 294
0.0059876335 0.68300003 -0.064666435 9.5706737e-39 325 294
0.0071851597 0.68300003 -0.064666435 1.0029128e-38 326 294
0.0083826864 0.68300003 -0.064666435 1.0029128e-38 327 294
0.0095802136 0.68300003 -0.064666435 1.021244e-38 328 294
0.01077774 0.68300003 -0.064666435 1.0028409e-38 329 294
0.011975267 0.68300003 -0.064666435 9.8447341e-39 330 294
0.013153506 0.68199998 -0.064571753 9.7525384e-39 331 294
0.01434928 0.68199998 -0.064571753 9.3837615e-39 332 294
0.015545053 0.68199998 -0.064571753 9.1990115e-39 333 294
0.016765373 0.68300003 -0.064666435 8.5558099e-39 334 294
0.017962901 0.68300003 -0.064666435 8.2795818e-39 335 294
0.019160427 0.68300003 -0.064666435 8.187033e-39 336 294
0.020387759 0.68400002 -0.064761117 8.0948374e-39 337 294
0.02158704 0.68400002 -0.064761117 7.5459824e-39 338 294
0.022786319 0.68400002 -0.064761117 7.9144062e-39 339 294
0.0239856 0.68400002 -0.064761117 8.4668471e-39 340 294
0.025184879 0.68400002 -0.064761117 8.7430753e-39 341 294
0.02638416 0.68400002 -0.064761117 9.4770306e-39 342 294
0.027583439 0.68400002 -0.064761117 9.4770306e-39 343 294
0.02878272 0.68400002 -0.064761117 9.8436621e-39 344 294
0.030069664 0.68599999 -0.064950474 1.0212443e-38 345 294
0.031318039 0.68699998 -0.065045156 1.1040403e-38 346 294
0.032522578 0.68699998 -0.065045156 1.1225153e-38 347 294
0.033727121 0.68699998 -0.065045156 1.1502448e-38 348 294
0.03498251 0.68800002 -0.065139838 1.1778674e-38 349 294
0.036293998 0.69 -0.065329194 1.1780827e-38 350 294
0.03755815 0.69099998 -0.065423876 1.1965218e-38 351 294
0.03888192 0.69300002 -0.06561324 1.2058501e-38 352 294
0.040154841 0.69400001 -0.065707922 1.2335448e-38 353 294
0.041371655 0.69400001 -0.065707922 1.1878076e-38 354 294
0.042588469 0.69400001 -0.065707922 1.2155023e-38 355 294
0.043931518 0.69599998 -0.065897278 1.3172431e-38 356 294
0.045151837 0.69599998 -0.065897278 1.5569876e-38 357 294
0.046438783 0.69700003 -0.06599196 1.7327739e-38 358 294
0.047660861 0.69700003 -0.06599196 1.8434088e-38 359 294
-0.027001332 0.69999999 -0.067503333 1.6313196e-38 298 295
-0.025773998 0.69999999 -0.067503333 1.0597067e-38 299 295
-0.024476532 0.69800001 -0.06731046 1.1231987e-38 300 295
-0.023252707 0.69800001 -0.06731046 1.0125641e-38 301 295
-0.02199732 0.69700003 -0.067214034 1.0859609e-38 302 295
-0.020775247 0.69700003 -0.067214034 1.0951805e-38 303 295
-0.019553173 0.69700003 -0.067214034 1.0767764e-38 304 295
-0.018304799 0.69599998 -0.067117594 1.039934e-38 305 295
-0.017084479 0.69599998 -0.067117594 1.0215662e-38 306 295
-0.015818574 0.69400001 -0.066924736 9.9394352e-39 307 295
-0.014580719 0.69300002 -0.066828303 9.8468823e-39 308 295
-0.013327086 0.69099998 -0.06663543 9.7546866e-39 309 295
-0.012097999 0.69 -0.066538997 9.9394352e-39 310 295
-0.010888199 0.69 -0.066538997 1.0031631e-38 311 295
-0.0096503468 0.68800002 -0.066346131 1.0490091e-38 312 295
-0.0084440531 0.68800002 -0.066346131 1.0397895e-38 313 295
-0.0072272392 0.68699998 -0.066249698 1.0487585e-38 314 295
-0.0060226996 0.68699998 -0.066249698 1.039539e-38 315 295
-0.0048181596 0.68699998 -0.066249698 1.021244e-38 316 295
-0.0036136196 0.68699998 -0.066249698 1.021244e-38 317 295
-0.0024055731 0.68599999 -0.066153266 1.0029125e-38 318 295
-0.0012027866 0.68599999 -0.066153266 9.8447341e-39 319 295
0 0.68400002 -0.0659604 9.2930092e-39 320 295
0.00119928 0.68400002 -0.0659604 9.1086166e-39 321 295
0.0023985601 0.68400002 -0.0659604 9.2004633e-39 322 295
0.00359784 0.68400002 -0.0659604 9.2926589e-39 323 295
0.0047971201 0.68400002 -0.0659604 9.5692388e-39 324 295
0.0059876335 0.68300003 -0.065863967 9.6614344e-39 325 295
0.0071851597 0.68300003 -0.065863967 9.7532671e-39 326 295
0.0083826864 0.68300003 -0.065863967 9.7532671e-39 327 295
0.0095802136 0.68300003 -0.065863967 9.7532671e-39 328 295
0.01077774 0.68300003 -0.065863967 9.7532671e-39 329 295
0.011975267 0.68300003 -0.065863967 9.6610687e-39 330 295
0.013153506 0.68199998 -0.065767527 9.5688731e-39 331 295
0.01434928 0.68199998 -0.065767527 9.2004465e-39 332 295
0.015545053 0.68199998 -0.065767527 9.1082508e-39 333 295
0.016765373 0.68300003 -0.065863967 8.5583113e-39 334 295
0.017962901 0.68300003 -0.065863967 8.37392e-39 335 295
0.019160427 0.68300003 -0.065863967 8.280651e-39 336 295
0.020387759 0.68400002 -0.0659604 8.0962597e-39 337 295
